# .PCD v0.7 - Point Cloud Data file format
VERSION 0.7
FIELDS x y z rgb
SIZE 4 4 4 4
TYPE F F F F
COUNT 1 1 1 1
WIDTH 1157
HEIGHT 1
VIEWPOINT 0 0 0 1 0 0 0
POINTS 1157
DATA ascii
-0.007857346 0.04505492 0.21900001 nan
-0.0071155578 0.044849191 0.21800001 nan
-0.0067626024 0.044849191 0.21800001 nan
-0.0060289088 0.044643458 0.21700001 nan
-0.0056775725 0.044643458 0.21700001 nan
-0.0053262361 0.044643458 0.21700001 nan
-0.004623564 0.044643458 0.21700001 nan
-0.0042525399 0.044437729 0.21600001 nan
-0.003902823 0.044437729 0.21600001 nan
-0.0032033888 0.044437729 0.21600001 nan
-0.0028536716 0.044437729 0.21600001 nan
-0.0025039546 0.044437729 0.21600001 nan
-0.0018045203 0.044437729 0.21600001 nan
-0.0014548032 0.044437729 0.21600001 nan
-0.0011050861 0.044437729 0.21600001 nan
-0.00040377377 0.044232 0.215 nan
-5.5675719e-05 0.044232 0.215 nan
0.00029242234 0.044232 0.215 nan
0.00064052042 0.044232 0.215 nan
0.0013367165 0.044232 0.215 nan
0.0016848146 0.044232 0.215 nan
0.0020329126 0.044232 0.215 nan
0.0027291088 0.044232 0.215 nan
0.0030772069 0.044232 0.215 nan
0.0034253048 0.044232 0.215 nan
0.0037734029 0.044232 0.215 nan
0.0044695991 0.044232 0.215 nan
0.0048176972 0.044232 0.215 nan
0.0051657953 0.044232 0.215 nan
0.0058619911 0.044232 0.215 nan
0.0062100892 0.044232 0.215 nan
0.0065581873 0.044232 0.215 nan
0.0069062854 0.044232 0.215 nan
0.0076024816 0.044232 0.215 nan
0.0079505797 0.044232 0.215 nan
0.0082986774 0.044232 0.215 nan
0.008646776 0.044232 0.215 nan
0.0093429722 0.044232 0.215 nan
0.0096910698 0.044232 0.215 nan
0.010039168 0.044232 0.215 nan
0.010735364 0.044232 0.215 nan
0.011083462 0.044232 0.215 nan
0.01143156 0.044232 0.215 nan
0.011779658 0.044232 0.215 nan
0.012475855 0.044232 0.215 nan
0.012823952 0.044232 0.215 nan
0.013172051 0.044232 0.215 nan
0.013520149 0.044232 0.215 nan
0.014216345 0.044232 0.215 nan
0.014564442 0.044232 0.215 nan
0.014912541 0.044232 0.215 nan
0.015608737 0.044232 0.215 nan
0.015956836 0.044232 0.215 nan
0.016304933 0.044232 0.215 nan
0.016653031 0.044232 0.215 nan
0.017349228 0.044232 0.215 nan
0.017697325 0.044232 0.215 nan
0.018045424 0.044232 0.215 nan
0.018741619 0.044232 0.215 nan
0.019089717 0.044232 0.215 nan
0.019437816 0.044232 0.215 nan
0.01987794 0.044437729 0.21600001 nan
0.020227658 0.044437729 0.21600001 nan
0.020927092 0.044437729 0.21600001 nan
0.021276809 0.044437729 0.21600001 nan
0.021626526 0.044437729 0.21600001 nan
0.021976244 0.044437729 0.21600001 nan
0.022429321 0.044643458 0.21700001 nan
0.022885639 0.044849191 0.21800001 nan
0.02359155 0.044849191 0.21800001 nan
0.024408916 0.04505492 0.21900001 nan
0.024876565 0.045260649 0.22000001 nan
0.025232758 0.045260649 0.22000001 nan
0.025705265 0.045466382 0.22100002 nan
0.026181011 0.045672111 0.22200002 nan
0.026659992 0.04587784 0.223 nan
0.027142214 0.046083573 0.22400001 nan
0.027627675 0.046289302 0.22500001 -3.2849626e+38
0.027991964 0.046289302 0.22500001 -3.3116514e+38
0.028482279 0.046495032 0.22600001 -3.1524055e+38
0.028975833 0.046700761 0.22700001 -3.1657499e+38
0.029343361 0.046700761 0.22700001 -3.1127375e+38
0.029841771 0.046906494 0.22800002 -3.1394264e+38
0.030343421 0.047112223 0.22900002 -3.0996018e+38
0.030714186 0.047112223 0.22900002 -3.0996018e+38
0.031220693 0.047317952 0.23 -3.0864136e+38
0.032900244 0.048140872 0.23400001 -3.0864136e+38
0.033421323 0.048346605 0.23500001 -3.0864661e+38
0.033801802 0.048346605 0.23500001 -3.0864661e+38
-0.014889898 0.04748299 0.22900002 -3.3515295e+38
-0.01445573 0.047275636 0.22800002 -3.3648739e+38
-0.014086585 0.047275636 0.22800002 -3.3515295e+38
-0.013231202 0.046860941 0.22600001 -3.3647173e+38
-0.012444081 0.046653591 0.22500001 -3.377957e+38
-0.012079792 0.046653591 0.22500001 -3.377957e+38
-0.011300764 0.046446241 0.22400001 -3.3910931e+38
-0.010889264 0.046238892 0.223 nan
-0.010167162 0.046238892 0.223 nan
-0.0097621391 0.046031542 0.22200002 nan
-0.0090025403 0.045824192 0.22100002 nan
-0.0082494179 0.045616843 0.22000001 nan
-0.007857346 0.045409493 0.21900001 nan
-0.0071155578 0.045202147 0.21800001 nan
-0.0067626024 0.045202147 0.21800001 nan
-0.0060289088 0.044994794 0.21700001 nan
-0.0056775725 0.044994794 0.21700001 nan
-0.0053262361 0.044994794 0.21700001 nan
-0.0046022572 0.044787444 0.21600001 nan
-0.0042525399 0.044787444 0.21600001 nan
-0.003902823 0.044787444 0.21600001 nan
-0.0032033888 0.044787444 0.21600001 nan
-0.0028536716 0.044787444 0.21600001 nan
-0.0025039546 0.044787444 0.21600001 nan
-0.0017961661 0.044580098 0.215 nan
-0.0014480681 0.044580098 0.215 nan
-0.00109997 0.044580098 0.215 nan
-0.00040377377 0.044580098 0.215 nan
-5.5675719e-05 0.044580098 0.215 nan
0.00029242234 0.044580098 0.215 nan
0.00064052042 0.044580098 0.215 nan
0.0013367165 0.044580098 0.215 nan
0.0016848146 0.044580098 0.215 nan
0.0020329126 0.044580098 0.215 nan
0.0027291088 0.044580098 0.215 nan
0.0030772069 0.044580098 0.215 nan
0.0034253048 0.044580098 0.215 nan
0.0037734029 0.044580098 0.215 nan
0.0044695991 0.044580098 0.215 nan
0.0048176972 0.044580098 0.215 nan
0.0051657953 0.044580098 0.215 nan
0.0058619911 0.044580098 0.215 nan
0.0062100892 0.044580098 0.215 nan
0.0065581873 0.044580098 0.215 nan
0.0069062854 0.044580098 0.215 nan
0.0076024816 0.044580098 0.215 nan
0.0079505797 0.044580098 0.215 nan
0.0082986774 0.044580098 0.215 nan
0.008646776 0.044580098 0.215 nan
0.0093429722 0.044580098 0.215 nan
0.0096910698 0.044580098 0.215 nan
0.010039168 0.044580098 0.215 nan
0.010735364 0.044580098 0.215 nan
0.011083462 0.044580098 0.215 nan
0.01143156 0.044580098 0.215 nan
0.011779658 0.044580098 0.215 nan
0.012475855 0.044580098 0.215 nan
0.012823952 0.044580098 0.215 nan
0.013172051 0.044580098 0.215 nan
0.013520149 0.044580098 0.215 nan
0.014216345 0.044580098 0.215 nan
0.014564442 0.044580098 0.215 nan
0.014912541 0.044580098 0.215 nan
0.015608737 0.044580098 0.215 nan
0.015956836 0.044580098 0.215 nan
0.016304933 0.044580098 0.215 nan
0.016653031 0.044580098 0.215 nan
0.017349228 0.044580098 0.215 nan
0.017697325 0.044580098 0.215 nan
0.018045424 0.044580098 0.215 nan
0.018741619 0.044580098 0.215 nan
0.019089717 0.044580098 0.215 nan
0.019437816 0.044580098 0.215 nan
0.019785915 0.044580098 0.215 nan
0.02048211 0.044580098 0.215 nan
0.020927092 0.044787444 0.21600001 nan
0.021276809 0.044787444 0.21600001 nan
0.021626526 0.044787444 0.21600001 nan
0.021976244 0.044787444 0.21600001 nan
0.022429321 0.044994794 0.21700001 nan
0.022885639 0.045202147 0.21800001 nan
0.02359155 0.045202147 0.21800001 nan
0.024408916 0.045409493 0.21900001 nan
0.024876565 0.045616843 0.22000001 nan
0.025347453 0.045824192 0.22100002 nan
0.02582158 0.046031542 0.22200002 nan
0.026298944 0.046238892 0.223 nan
0.026659992 0.046238892 0.223 -3.3376115e+38
0.027142214 0.046446241 0.22400001 -3.3643003e+38
0.027627675 0.046653591 0.22500001 -3.2187626e+38
0.028116371 0.046860941 0.22600001 -3.232107e+38
0.028482279 0.046860941 0.22600001 -3.1127891e+38
0.028975833 0.047068287 0.22700001 -3.1127891e+38
0.029472627 0.047275636 0.22800002 -3.126186e+38
0.029841771 0.047275636 0.22800002 -3.126186e+38
0.030343421 0.04748299 0.22900002 -3.0864136e+38
0.030848309 0.047690336 0.23 -3.0730692e+38
0.031356435 0.047897685 0.23100001 -3.0730692e+38
0.032521386 0.048519734 0.23400001 -3.0864136e+38
0.033040844 0.048727084 0.23500001 -3.0864136e+38
0.033421323 0.048727084 0.23500001 -3.0998106e+38
-0.014519133 0.047853753 0.22900002 -3.3648739e+38
-0.014086585 0.047644783 0.22800002 -3.3515295e+38
-0.012499387 0.047226846 0.22600001 -3.3647688e+38
-0.012079792 0.04701788 0.22500001 -3.3514244e+38
-0.011300764 0.046808913 0.22400001 -3.3779049e+38
-0.010889264 0.046599943 0.223 nan
-0.010167162 0.046599943 0.223 nan
-0.0097621391 0.046390973 0.22200002 nan
-0.0090432754 0.046390973 0.22200002 nan
-0.0086447271 0.046182007 0.22100002 nan
-0.0078932252 0.045973036 0.22000001 nan
-0.0075027719 0.045764066 0.21900001 nan
-0.0067626024 0.0455551 0.21800001 nan
-0.0064096469 0.0455551 0.21800001 nan
-0.0056775725 0.045346133 0.21700001 nan
-0.0053262361 0.045346133 0.21700001 nan
-0.0046022572 0.045137163 0.21600001 nan
-0.0042525399 0.045137163 0.21600001 nan
-0.003902823 0.045137163 0.21600001 nan
-0.0032033888 0.045137163 0.21600001 nan
-0.0028536716 0.045137163 0.21600001 nan
-0.0021442641 0.044928197 0.215 nan
-0.0017961661 0.044928197 0.215 nan
-0.0014480681 0.044928197 0.215 nan
-0.00109997 0.044928197 0.215 nan
-0.00040377377 0.044928197 0.215 nan
-5.5675719e-05 0.044928197 0.215 nan
0.00063754123 0.044719227 0.21400002 nan
0.0009840203 0.044719227 0.21400002 nan
0.0013304992 0.044719227 0.21400002 nan
0.0016769782 0.044719227 0.21400002 nan
0.0023699361 0.044719227 0.21400002 nan
0.0027164151 0.044719227 0.21400002 nan
0.0030628941 0.044719227 0.21400002 nan
0.0037558521 0.044719227 0.21400002 nan
0.0041023311 0.044719227 0.21400002 nan
0.0044488101 0.044719227 0.21400002 nan
0.0047952891 0.044719227 0.21400002 nan
0.0054882471 0.044719227 0.21400002 nan
0.0058347262 0.044719227 0.21400002 nan
0.0061812052 0.044719227 0.21400002 nan
0.0065276842 0.044719227 0.21400002 nan
0.0072206426 0.044719227 0.21400002 nan
0.0075671216 0.044719227 0.21400002 nan
0.0079136007 0.044719227 0.21400002 nan
0.0086065587 0.044719227 0.21400002 nan
0.0089530377 0.044719227 0.21400002 nan
0.0092995167 0.044719227 0.21400002 nan
0.0096459957 0.044719227 0.21400002 nan
0.010338954 0.044719227 0.21400002 nan
0.010685433 0.044719227 0.21400002 nan
0.011031912 0.044719227 0.21400002 nan
0.011378391 0.044719227 0.21400002 nan
0.012071349 0.044719227 0.21400002 nan
0.012417828 0.044719227 0.21400002 nan
0.012764307 0.044719227 0.21400002 nan
0.013457265 0.044719227 0.21400002 nan
0.013803744 0.044719227 0.21400002 nan
0.014150223 0.044719227 0.21400002 nan
0.014496702 0.044719227 0.21400002 nan
0.01518966 0.044719227 0.21400002 nan
0.015536139 0.044719227 0.21400002 nan
0.015882617 0.044719227 0.21400002 nan
0.016229097 0.044719227 0.21400002 nan
0.016922055 0.044719227 0.21400002 nan
0.017268533 0.044719227 0.21400002 nan
0.017615013 0.044719227 0.21400002 nan
0.018307971 0.044719227 0.21400002 nan
0.018741619 0.044928197 0.215 nan
0.019089717 0.044928197 0.215 nan
0.019437816 0.044928197 0.215 nan
0.019785915 0.044928197 0.215 nan
0.02048211 0.044928197 0.215 nan
0.020830208 0.044928197 0.215 nan
0.021178305 0.044928197 0.215 nan
0.021626526 0.045137163 0.21600001 nan
0.021976244 0.045137163 0.21600001 nan
0.022429321 0.045346133 0.21700001 nan
0.022885639 0.0455551 0.21800001 nan
0.02359155 0.0455551 0.21800001 nan
0.024164177 0.045973036 0.22000001 nan
0.024876565 0.045973036 0.22000001 nan
0.025347453 0.046182007 0.22100002 nan
0.02582158 0.046390973 0.22200002 nan
0.026298944 0.046599943 0.223 nan
0.026899097 0.04701788 0.22500001 -3.23169e+38
0.027627675 0.04701788 0.22500001 -3.1657503e+38
0.028116371 0.047226846 0.22600001 -3.1790947e+38
0.028608307 0.047435813 0.22700001 -3.126186e+38
0.028975833 0.047435813 0.22700001 -3.126186e+38
0.029472627 0.047644783 0.22800002 -3.1129458e+38
0.029841771 0.047644783 0.22800002 -3.1129458e+38
0.030343421 0.047853753 0.22900002 -3.0730692e+38
0.030848309 0.048062719 0.23 -3.0730692e+38
0.031356435 0.04827169 0.23100001 -3.0730177e+38
0.032521386 0.048898593 0.23400001 -3.0863621e+38
0.033040844 0.049107563 0.23500001 -3.0997065e+38
-0.0086447271 0.046539821 0.22100002 nan
-0.0078932252 0.04632923 0.22000001 nan
-0.0075370315 0.04632923 0.22000001 nan
-0.0067936233 0.046118643 0.21900001 nan
-0.0064096469 0.045908056 0.21800001 nan
-0.0056775725 0.045697469 0.21700001 nan
-0.0053262361 0.045697469 0.21700001 nan
-0.004623564 0.045697469 0.21700001 nan
-0.0042525399 0.045486879 0.21600001 nan
-0.003902823 0.045486879 0.21600001 nan
-0.0032033888 0.045486879 0.21600001 nan
-0.0028404603 0.045276295 0.215 nan
-0.0021442641 0.045276295 0.215 nan
-0.0017961661 0.045276295 0.215 nan
-0.0014480681 0.045276295 0.215 nan
-0.00109997 0.045276295 0.215 nan
-0.00040189576 0.045065705 0.21400002 nan
-5.541676e-05 0.045065705 0.21400002 nan
0.00063754123 0.045065705 0.21400002 nan
0.0009840203 0.045065705 0.21400002 nan
0.0013304992 0.045065705 0.21400002 nan
0.0016769782 0.045065705 0.21400002 nan
0.0023699361 0.045065705 0.21400002 nan
0.0027164151 0.045065705 0.21400002 nan
0.0030628941 0.045065705 0.21400002 nan
0.0037558521 0.045065705 0.21400002 nan
0.0041023311 0.045065705 0.21400002 nan
0.0044488101 0.045065705 0.21400002 nan
0.0047952891 0.045065705 0.21400002 nan
0.0054882471 0.045065705 0.21400002 nan
0.0058347262 0.045065705 0.21400002 nan
0.0061812052 0.045065705 0.21400002 nan
0.0065276842 0.045065705 0.21400002 nan
0.0072206426 0.045065705 0.21400002 nan
0.0075671216 0.045065705 0.21400002 nan
0.0079136007 0.045065705 0.21400002 nan
0.0086065587 0.045065705 0.21400002 nan
0.0089530377 0.045065705 0.21400002 nan
0.0092995167 0.045065705 0.21400002 nan
0.0096459957 0.045065705 0.21400002 nan
0.010338954 0.045065705 0.21400002 nan
0.010685433 0.045065705 0.21400002 nan
0.011031912 0.045065705 0.21400002 nan
0.011378391 0.045065705 0.21400002 nan
0.012071349 0.045065705 0.21400002 nan
0.012417828 0.045065705 0.21400002 nan
0.012764307 0.045065705 0.21400002 nan
0.013457265 0.045065705 0.21400002 nan
0.013803744 0.045065705 0.21400002 nan
0.014150223 0.045065705 0.21400002 nan
0.014496702 0.045065705 0.21400002 nan
0.01518966 0.045065705 0.21400002 nan
0.015536139 0.045065705 0.21400002 nan
0.015882617 0.045065705 0.21400002 nan
0.016229097 0.045065705 0.21400002 nan
0.016922055 0.045065705 0.21400002 nan
0.017268533 0.045065705 0.21400002 nan
0.017615013 0.045065705 0.21400002 nan
0.018307971 0.045065705 0.21400002 nan
0.018654449 0.045065705 0.21400002 nan
0.019000929 0.045065705 0.21400002 nan
0.019437816 0.045276295 0.215 nan
0.019785915 0.045276295 0.215 nan
0.02048211 0.045276295 0.215 nan
0.020830208 0.045276295 0.215 nan
0.021178305 0.045276295 0.215 nan
0.021626526 0.045486879 0.21600001 nan
0.021976244 0.045486879 0.21600001 nan
0.022429321 0.045697469 0.21700001 nan
0.022885639 0.045908056 0.21800001 nan
0.023345193 0.046118643 0.21900001 nan
0.023699768 0.046118643 0.21900001 nan
0.024164177 0.04632923 0.22000001 nan
0.024631828 0.046539821 0.22100002 nan
-0.015327304 0.048807487 0.23 -3.3516335e+38
-0.014582535 0.048807487 0.23 -3.3382891e+38
-0.014148368 0.048595283 0.22900002 -3.3515295e+38
-0.012079792 0.047746457 0.22500001 -3.3515295e+38
-0.011351215 0.047746457 0.22500001 -3.3513733e+38
-0.010938095 0.04753425 0.22400001 -3.3912499e+38
-0.010167162 0.047322042 0.223 nan
-0.0097621391 0.047109835 0.22200002 -3.3910416e+38
-0.0090432754 0.047109835 0.22200002 nan
0.025102716 0.047109835 0.22200002 nan
0.025576841 0.047322042 0.223 nan
0.026298944 0.047322042 0.223 -3.3114958e+38
0.026899097 0.047746457 0.22500001 -3.1392172e+38
0.027384557 0.047958665 0.22600001 -3.1392172e+38
0.028116371 0.047958665 0.22600001 -3.0861532e+38
0.028608307 0.048170868 0.22700001 -3.0996018e+38
0.028975833 0.048170868 0.22700001 -3.0996018e+38
0.029472627 0.048383076 0.22800002 -3.0730692e+38
0.029972658 0.048595283 0.22900002 -3.0730692e+38
0.030475926 0.048807487 0.23 -3.0731217e+38
0.030982433 0.049019694 0.23100001 -3.0731217e+38
-0.015393943 0.049393699 0.23100001 -3.3516331e+38
-0.014582535 0.049179871 0.23 -3.3516331e+38
-0.014148368 0.048966046 0.22900002 -3.351529e+38
-0.013777603 0.048966046 0.22900002 -3.3648735e+38
-0.011351215 0.048110746 0.22500001 -3.3647177e+38
-0.010938095 0.047896922 0.22400001 -3.3647177e+38
-0.010575425 0.047896922 0.22400001 -3.3647177e+38
-0.0098061115 0.047683094 0.223 -3.3778538e+38
-0.0090432754 0.047469266 0.22200002 nan
-0.0086447271 0.047255445 0.22100002 nan
-0.0078932252 0.047041617 0.22000001 nan
-0.0075370315 0.047041617 0.22000001 nan
-0.0067936233 0.046827789 0.21900001 nan
-0.0064390488 0.046827789 0.21900001 nan
-0.0057037366 0.046613965 0.21800001 nan
-0.0053262361 0.046400141 0.21700001 nan
-0.004623564 0.046400141 0.21700001 nan
-0.0042525399 0.046186313 0.21600001 nan
-0.003902823 0.046186313 0.21600001 nan
-0.0032033888 0.046186313 0.21600001 nan
-0.0028404603 0.045972489 0.215 nan
-0.0021442641 0.045972489 0.215 nan
-0.0017961661 0.045972489 0.215 nan
-0.0014480681 0.045972489 0.215 nan
-0.00074837479 0.045758665 0.21400002 nan
-0.00040189576 0.045758665 0.21400002 nan
-5.541676e-05 0.045758665 0.21400002 nan
0.00063754123 0.045758665 0.21400002 nan
0.0009840203 0.045758665 0.21400002 nan
0.0013304992 0.045758665 0.21400002 nan
0.0020140018 0.045544837 0.21300001 nan
0.0023588617 0.045544837 0.21300001 nan
0.0027037219 0.045544837 0.21300001 nan
0.0033934414 0.045544837 0.21300001 nan
0.0037383013 0.045544837 0.21300001 nan
0.0040831612 0.045544837 0.21300001 nan
0.0044280211 0.045544837 0.21300001 nan
0.0051177409 0.045544837 0.21300001 nan
0.0054626013 0.045544837 0.21300001 nan
0.0058074612 0.045544837 0.21300001 nan
0.006497181 0.045544837 0.21300001 nan
0.0068420409 0.045544837 0.21300001 nan
0.0071869008 0.045544837 0.21300001 nan
0.0075317607 0.045544837 0.21300001 nan
0.008221481 0.045544837 0.21300001 nan
0.0085663404 0.045544837 0.21300001 nan
0.0089112008 0.045544837 0.21300001 nan
0.0092560602 0.045544837 0.21300001 nan
0.00994578 0.045544837 0.21300001 nan
0.01029064 0.045544837 0.21300001 nan
0.0106355 0.045544837 0.21300001 nan
0.01132522 0.045544837 0.21300001 nan
0.01167008 0.045544837 0.21300001 nan
0.01201494 0.045544837 0.21300001 nan
0.0123598 0.045544837 0.21300001 nan
0.01304952 0.045544837 0.21300001 nan
0.013394381 0.045544837 0.21300001 nan
0.01373924 0.045544837 0.21300001 nan
0.014084101 0.045544837 0.21300001 nan
0.014773821 0.045544837 0.21300001 nan
0.01511868 0.045544837 0.21300001 nan
0.01546354 0.045544837 0.21300001 nan
0.016153259 0.045544837 0.21300001 nan
0.016498121 0.045544837 0.21300001 nan
0.01684298 0.045544837 0.21300001 nan
0.017268533 0.045758665 0.21400002 nan
0.017615013 0.045758665 0.21400002 nan
0.018307971 0.045758665 0.21400002 nan
0.018654449 0.045758665 0.21400002 nan
0.019000929 0.045758665 0.21400002 nan
0.019347407 0.045758665 0.21400002 nan
0.020040365 0.045758665 0.21400002 nan
0.02048211 0.045972489 0.215 nan
0.020830208 0.045972489 0.215 nan
0.021178305 0.045972489 0.215 nan
0.021526404 0.045972489 0.215 nan
0.021976244 0.046186313 0.21600001 nan
0.022429321 0.046400141 0.21700001 nan
0.022885639 0.046613965 0.21800001 nan
0.023345193 0.046827789 0.21900001 nan
0.023807986 0.047041617 0.22000001 nan
0.024274016 0.047255445 0.22100002 nan
0.024631828 0.047255445 0.22100002 nan
0.025102716 0.047469266 0.22200002 -3.3641441e+38
0.025576841 0.047683094 0.223 nan
0.026054205 0.047896922 0.22400001 -3.2321586e+38
0.026534809 0.048110746 0.22500001 -3.2188141e+38
0.026899097 0.048110746 0.22500001 -3.1127887e+38
0.027384557 0.04832457 0.22600001 -3.1127887e+38
0.027873253 0.048538394 0.22700001 -3.072913e+38
0.028608307 0.048538394 0.22700001 -3.0730692e+38
0.02910348 0.048752222 0.22800002 -3.0730692e+38
0.029601892 0.048966046 0.22900002 -3.0731733e+38
0.029972658 0.048966046 0.22900002 -3.0598289e+38
0.030475926 0.049179871 0.23 -3.0597773e+38
0.030982433 0.049393699 0.23100001 -3.0731217e+38
-0.015393943 0.049767699 0.23100001 -3.3516846e+38
-0.015019939 0.049767699 0.23100001 -3.3383402e+38
-0.014210152 0.049552254 0.23 -3.351529e+38
-0.013777603 0.049336813 0.22900002 -3.3648735e+38
-0.013036073 0.049336813 0.22900002 -3.351529e+38
-0.010986926 0.048475031 0.22500001 -3.3780621e+38
-0.010575425 0.04825959 0.22400001 -3.3647177e+38
-0.0098061115 0.048044145 0.223 -3.3645615e+38
-0.009445061 0.048044145 0.223 -3.3911982e+38
-0.0086838445 0.0478287 0.22200002 nan
-0.0082869148 0.047613256 0.22100002 -3.3775932e+38
-0.0075370315 0.047397811 0.22000001 nan
-0.0067936233 0.047182366 0.21900001 nan
-0.0064390488 0.047182366 0.21900001 nan
-0.0057037366 0.046966922 0.21800001 nan
-0.0053507811 0.046966922 0.21800001 nan
-0.004623564 0.046751477 0.21700001 nan
-0.0042722276 0.046751477 0.21700001 nan
-0.003902823 0.046536032 0.21600001 nan
-0.0032033888 0.046536032 0.21600001 nan
-0.0028404603 0.046320587 0.215 nan
-0.0021442641 0.046320587 0.215 nan
-0.0017961661 0.046320587 0.215 nan
-0.0014413327 0.046105143 0.21400002 nan
-0.00074837479 0.046105143 0.21400002 nan
-0.00040189576 0.046105143 0.21400002 nan
-5.541676e-05 0.046105143 0.21400002 nan
0.00063754123 0.046105143 0.21400002 nan
0.00097942201 0.045889698 0.21300001 nan
0.001324282 0.045889698 0.21300001 nan
0.0020140018 0.045889698 0.21300001 nan
0.0023588617 0.045889698 0.21300001 nan
0.0027037219 0.045889698 0.21300001 nan
0.0033934414 0.045889698 0.21300001 nan
0.0037383013 0.045889698 0.21300001 nan
0.0040831612 0.045889698 0.21300001 nan
0.0044280211 0.045889698 0.21300001 nan
0.0051177409 0.045889698 0.21300001 nan
0.0054626013 0.045889698 0.21300001 nan
0.0058074612 0.045889698 0.21300001 nan
0.006497181 0.045889698 0.21300001 nan
0.0068420409 0.045889698 0.21300001 nan
0.0071869008 0.045889698 0.21300001 nan
0.0075317607 0.045889698 0.21300001 nan
0.008221481 0.045889698 0.21300001 nan
0.0085663404 0.045889698 0.21300001 nan
0.0089112008 0.045889698 0.21300001 nan
0.0092560602 0.045889698 0.21300001 nan
0.00994578 0.045889698 0.21300001 nan
0.01029064 0.045889698 0.21300001 nan
0.0106355 0.045889698 0.21300001 nan
0.01132522 0.045889698 0.21300001 nan
0.01167008 0.045889698 0.21300001 nan
0.01201494 0.045889698 0.21300001 nan
0.0123598 0.045889698 0.21300001 nan
0.01304952 0.045889698 0.21300001 nan
0.013394381 0.045889698 0.21300001 nan
0.01373924 0.045889698 0.21300001 nan
0.014084101 0.045889698 0.21300001 nan
0.014773821 0.045889698 0.21300001 nan
0.01511868 0.045889698 0.21300001 nan
0.01546354 0.045889698 0.21300001 nan
0.016153259 0.045889698 0.21300001 nan
0.016498121 0.045889698 0.21300001 nan
0.01684298 0.045889698 0.21300001 nan
0.017187839 0.045889698 0.21300001 nan
0.01787756 0.045889698 0.21300001 nan
0.01822242 0.045889698 0.21300001 nan
0.018654449 0.046105143 0.21400002 nan
0.019000929 0.046105143 0.21400002 nan
0.019347407 0.046105143 0.21400002 nan
0.020040365 0.046105143 0.21400002 nan
0.02048211 0.046320587 0.215 nan
0.020830208 0.046320587 0.215 nan
0.021178305 0.046320587 0.215 nan
0.021526404 0.046320587 0.215 nan
0.021976244 0.046536032 0.21600001 nan
0.022532683 0.046966922 0.21800001 nan
0.022885639 0.046966922 0.21800001 nan
0.023345193 0.047182366 0.21900001 nan
0.023807986 0.047397811 0.22000001 nan
0.024274016 0.047613256 0.22100002 nan
0.024743285 0.0478287 0.22200002 nan
0.025215792 0.048044145 0.223 -3.2849111e+38
0.025691535 0.04825959 0.22400001 -3.3115999e+38
0.026054205 0.04825959 0.22400001 -3.1525617e+38
0.026534809 0.048475031 0.22500001 -3.1525617e+38
0.02701865 0.048690479 0.22600001 -3.0995487e+38
0.027384557 0.048690479 0.22600001 -3.0995487e+38
0.027873253 0.04890592 0.22700001 -3.072913e+38
0.028365189 0.049121365 0.22800002 -3.0996018e+38
0.028860362 0.049336813 0.22900002 -3.0730692e+38
0.029601892 0.049336813 0.22900002 -3.0731733e+38
0.030103542 0.049552254 0.23 -3.0598289e+38
0.030608429 0.049767699 0.23100001 -3.0597773e+38
0.031116555 0.049983148 0.23200001 -3.0731217e+38
-0.014210152 0.049924638 0.23 -3.3382887e+38
-0.013837768 0.049924638 0.23 -3.3382887e+38
-0.013036073 0.049707577 0.22900002 -3.351529e+38
-0.012665308 0.049707577 0.22900002 -3.351529e+38
-0.010986926 0.048839319 0.22500001 -3.3780621e+38
-0.010575425 0.048622258 0.22400001 -3.3647177e+38
-0.0098500857 0.048622258 0.22400001 -3.3380289e+38
-0.009445061 0.048405197 0.223 -3.3912503e+38
-0.0086838445 0.048188131 0.22200002 nan
-0.0083244126 0.048188131 0.22200002 nan
-0.0075712902 0.04797107 0.22100002 nan
-0.0071808379 0.047754005 0.22000001 nan
-0.0064390488 0.047536939 0.21900001 nan
-0.0060844747 0.047536939 0.21900001 nan
-0.0053507811 0.047319878 0.21800001 nan
-0.004623564 0.047102813 0.21700001 nan
-0.0042722276 0.047102813 0.21700001 nan
-0.003902823 0.046885747 0.21600001 nan
-0.0032033888 0.046885747 0.21600001 nan
-0.0028404603 0.046668686 0.215 nan
-0.0021442641 0.046668686 0.215 nan
-0.0017961661 0.046668686 0.215 nan
-0.0014413327 0.046451621 0.21400002 nan
-0.00074837479 0.046451621 0.21400002 nan
-0.00040189576 0.046451621 0.21400002 nan
-5.541676e-05 0.046451621 0.21400002 nan
0.00063456205 0.046234556 0.21300001 nan
0.00097942201 0.046234556 0.21300001 nan
0.001324282 0.046234556 0.21300001 nan
0.0020140018 0.046234556 0.21300001 nan
0.0023588617 0.046234556 0.21300001 nan
0.0027037219 0.046234556 0.21300001 nan
0.0033934414 0.046234556 0.21300001 nan
0.0037383013 0.046234556 0.21300001 nan
0.0040639918 0.046017494 0.21200001 nan
0.0047504739 0.046017494 0.21200001 nan
0.0050937147 0.046017494 0.21200001 nan
0.0054369555 0.046017494 0.21200001 nan
0.0061234371 0.046017494 0.21200001 nan
0.0064666779 0.046017494 0.21200001 nan
0.0068099191 0.046017494 0.21200001 nan
0.0071531599 0.046017494 0.21200001 nan
0.0078396415 0.046017494 0.21200001 nan
0.0081828823 0.046017494 0.21200001 nan
0.0085261231 0.046017494 0.21200001 nan
0.0092126047 0.046017494 0.21200001 nan
0.0095558455 0.046017494 0.21200001 nan
0.0098990873 0.046017494 0.21200001 nan
0.010242328 0.046017494 0.21200001 nan
0.01092881 0.046017494 0.21200001 nan
0.01127205 0.046017494 0.21200001 nan
0.011615291 0.046017494 0.21200001 nan
0.011958532 0.046017494 0.21200001 nan
0.012645014 0.046017494 0.21200001 nan
0.012988254 0.046017494 0.21200001 nan
0.013331495 0.046017494 0.21200001 nan
0.014017977 0.046017494 0.21200001 nan
0.014361218 0.046017494 0.21200001 nan
0.014704458 0.046017494 0.21200001 nan
0.015047699 0.046017494 0.21200001 nan
0.01546354 0.046234556 0.21300001 nan
0.016153259 0.046234556 0.21300001 nan
0.016498121 0.046234556 0.21300001 nan
0.01684298 0.046234556 0.21300001 nan
0.017187839 0.046234556 0.21300001 nan
0.01787756 0.046234556 0.21300001 nan
0.01822242 0.046234556 0.21300001 nan
0.018567279 0.046234556 0.21300001 nan
0.019000929 0.046451621 0.21400002 nan
0.019347407 0.046451621 0.21400002 nan
0.020040365 0.046451621 0.21400002 nan
0.020386845 0.046451621 0.21400002 nan
0.020830208 0.046668686 0.215 nan
0.021178305 0.046668686 0.215 nan
0.021526404 0.046668686 0.215 nan
0.021976244 0.046885747 0.21600001 nan
0.022532683 0.047319878 0.21800001 nan
0.022990618 0.047536939 0.21900001 nan
0.023451792 0.047754005 0.22000001 nan
0.023916202 0.04797107 0.22100002 nan
0.024274016 0.04797107 0.22100002 nan
0.024743285 0.048188131 0.22200002 nan
0.025215792 0.048405197 0.223 -3.1920738e+38
0.025691535 0.048622258 0.22400001 -3.232107e+38
0.026170518 0.048839319 0.22500001 -3.1394779e+38
0.026534809 0.048839319 0.22500001 -3.1127891e+38
0.02701865 0.049056385 0.22600001 -3.0996014e+38
0.027505727 0.049273446 0.22700001 -3.0729126e+38
0.027996043 0.049490511 0.22800002 -3.0463804e+38
0.028365189 0.049490511 0.22800002 -3.0730692e+38
0.028860362 0.049707577 0.22900002 -3.0731733e+38
0.029358773 0.049924638 0.23 -3.0731733e+38
-0.015393943 0.050515708 0.23100001 -3.3516331e+38
-0.015019939 0.050515708 0.23100001 -3.3383402e+38
-0.003902823 0.047235467 0.21600001 nan
-0.0032033888 0.047235467 0.21600001 nan
-0.0028404603 0.047016785 0.215 nan
-0.0021442641 0.047016785 0.215 nan
-0.0017961661 0.047016785 0.215 nan
-0.0014413327 0.046798099 0.21400002 nan
-0.00074837479 0.046798099 0.21400002 nan
-0.00040189576 0.046798099 0.21400002 nan
0.00028970215 0.046579417 0.21300001 nan
0.00063456205 0.046579417 0.21300001 nan
0.00097942201 0.046579417 0.21300001 nan
0.001324282 0.046579417 0.21300001 nan
0.0020045463 0.046360735 0.21200001 nan
0.0023477874 0.046360735 0.21200001 nan
0.003034269 0.046360735 0.21200001 nan
0.0033775102 0.046360735 0.21200001 nan
0.003720751 0.046360735 0.21200001 nan
0.0040639918 0.046360735 0.21200001 nan
0.0047504739 0.046360735 0.21200001 nan
0.0050937147 0.046360735 0.21200001 nan
0.0054369555 0.046360735 0.21200001 nan
0.0061234371 0.046360735 0.21200001 nan
0.0064666779 0.046360735 0.21200001 nan
0.0068099191 0.046360735 0.21200001 nan
0.0071531599 0.046360735 0.21200001 nan
0.0078396415 0.046360735 0.21200001 nan
0.0081828823 0.046360735 0.21200001 nan
0.0085261231 0.046360735 0.21200001 nan
0.0092126047 0.046360735 0.21200001 nan
0.0095558455 0.046360735 0.21200001 nan
0.0098990873 0.046360735 0.21200001 nan
0.010242328 0.046360735 0.21200001 nan
0.01092881 0.046360735 0.21200001 nan
0.01127205 0.046360735 0.21200001 nan
0.011615291 0.046360735 0.21200001 nan
0.011958532 0.046360735 0.21200001 nan
0.012645014 0.046360735 0.21200001 nan
0.012988254 0.046360735 0.21200001 nan
0.013331495 0.046360735 0.21200001 nan
0.014017977 0.046360735 0.21200001 nan
0.014361218 0.046360735 0.21200001 nan
0.014704458 0.046360735 0.21200001 nan
0.015047699 0.046360735 0.21200001 nan
0.015734181 0.046360735 0.21200001 nan
0.016077422 0.046360735 0.21200001 nan
0.016420662 0.046360735 0.21200001 nan
0.016763903 0.046360735 0.21200001 nan
0.017450385 0.046360735 0.21200001 nan
0.01787756 0.046579417 0.21300001 nan
0.01822242 0.046579417 0.21300001 nan
0.018567279 0.046579417 0.21300001 nan
0.01891214 0.046579417 0.21300001 nan
0.019347407 0.046798099 0.21400002 nan
0.020040365 0.046798099 0.21400002 nan
0.020386845 0.046798099 0.21400002 nan
0.020830208 0.047016785 0.215 nan
0.021178305 0.047016785 0.215 nan
0.021626526 0.047235467 0.21600001 nan
0.021976244 0.047235467 0.21600001 nan
0.029860422 0.050515708 0.23100001 -3.0731733e+38
0.030365311 0.05073439 0.23200001 -3.0731733e+38
0.031116555 0.05073439 0.23200001 -3.0864661e+38
0.03162792 0.050953072 0.23300001 -3.0864661e+38
-0.015019939 0.050889708 0.23100001 -3.3516846e+38
-0.014271934 0.050889708 0.23100001 -3.3382887e+38
-0.013837768 0.050669406 0.23 -3.3382887e+38
-0.013465384 0.050669406 0.23 -3.351529e+38
-0.012665308 0.050449107 0.22900002 -3.351529e+38
-0.010622637 0.049567897 0.22500001 -3.338185e+38
-0.0098500857 0.049347598 0.22400001 -3.3513733e+38
-0.0094874166 0.049347598 0.22400001 -3.3912503e+38
-0.00872296 0.049127296 0.223 -3.3912503e+38
-0.0083244126 0.048906993 0.22200002 -3.3912503e+38
-0.0079649808 0.048906993 0.22200002 nan
-0.007213478 0.048686694 0.22100002 nan
-0.0064684511 0.048466392 0.22000001 nan
-0.0060844747 0.048246086 0.21900001 nan
-0.0053753261 0.048246086 0.21900001 nan
-0.0049978257 0.048025787 0.21800001 nan
-0.0042722276 0.047805484 0.21700001 nan
0.022990618 0.048246086 0.21900001 nan
0.023451792 0.048466392 0.22000001 nan
0.023916202 0.048686694 0.22100002 nan
0.024383854 0.048906993 0.22200002 -3.2053142e+38
0.02485474 0.049127296 0.223 -3.2453474e+38
0.025215792 0.049127296 0.223 -3.0993931e+38
0.025691535 0.049347598 0.22400001 -3.1394264e+38
0.026170518 0.049567897 0.22500001 -3.1129458e+38
0.02665274 0.049788203 0.22600001 -3.0996014e+38
0.0271382 0.050008502 0.22700001 -3.0996018e+38
0.027505727 0.050008502 0.22700001 -3.0996018e+38
0.027996043 0.050228804 0.22800002 -3.0730692e+38
0.028489597 0.050449107 0.22900002 -3.0730692e+38
0.028986389 0.050669406 0.23 -3.0731733e+38
0.02948642 0.050889708 0.23100001 -3.0731733e+38
0.029860422 0.050889708 0.23100001 -3.0731733e+38
0.030365311 0.051110014 0.23200001 -3.0731733e+38
0.030873436 0.051330313 0.23300001 -3.0597773e+38
0.031384803 0.051550616 0.23400001 -3.0731217e+38
0.032938324 0.052211519 0.23700002 -3.0864661e+38
0.03346264 0.052431822 0.23800001 -3.0864661e+38
-0.014271934 0.051263712 0.23100001 -3.3516331e+38
-0.01389793 0.051263712 0.23100001 -3.3382887e+38
-0.013465384 0.051041789 0.23 -3.351529e+38
-0.012720615 0.051041789 0.23 -3.351529e+38
-0.012294543 0.05081987 0.22900002 -3.351529e+38
-0.010258349 0.049932186 0.22500001 -3.338185e+38
-0.0094874166 0.04971027 0.22400001 -3.3647177e+38
-0.00872296 0.049488347 0.223 -3.3912503e+38
-0.0083619095 0.049488347 0.223 -3.3912503e+38
-0.0079649808 0.049266424 0.22200002 nan
-0.007246118 0.049266424 0.22200002 -3.3778534e+38
-0.0068556652 0.049044505 0.22100002 -3.3911978e+38
-0.006112258 0.048822582 0.22000001 nan
-0.0053753261 0.048600662 0.21900001 nan
-0.0050207516 0.048600662 0.21900001 nan
-0.0046448708 0.048378743 0.21800001 nan
-0.0039208918 0.04815682 0.21700001 nan
-0.0032033888 0.047934897 0.21600001 nan
-0.0028536716 0.047934897 0.21600001 nan
-0.0021442641 0.047712982 0.215 nan
-0.0017961661 0.047712982 0.215 nan
-0.0014413327 0.047491059 0.21400002 nan
-0.00074837479 0.047491059 0.21400002 nan
-0.00040189576 0.047491059 0.21400002 nan
0.00028970215 0.047269136 0.21300001 nan
0.00063456205 0.047269136 0.21300001 nan
0.00097942201 0.047269136 0.21300001 nan
0.0016613055 0.047047216 0.21200001 nan
0.0020045463 0.047047216 0.21200001 nan
0.0023477874 0.047047216 0.21200001 nan
0.003034269 0.047047216 0.21200001 nan
0.0033775102 0.047047216 0.21200001 nan
0.003720751 0.047047216 0.21200001 nan
0.0040639918 0.047047216 0.21200001 nan
0.0047504739 0.047047216 0.21200001 nan
0.0050937147 0.047047216 0.21200001 nan
0.0057529313 0.046825297 0.21100001 nan
0.006094553 0.046825297 0.21100001 nan
0.0064361747 0.046825297 0.21100001 nan
0.0067777964 0.046825297 0.21100001 nan
0.0074610398 0.046825297 0.21100001 nan
0.0078026615 0.046825297 0.21100001 nan
0.0081442837 0.046825297 0.21100001 nan
0.0088275271 0.046825297 0.21100001 nan
0.0091691492 0.046825297 0.21100001 nan
0.0095107704 0.046825297 0.21100001 nan
0.0098523926 0.046825297 0.21100001 nan
0.010535636 0.046825297 0.21100001 nan
0.010877258 0.046825297 0.21100001 nan
0.01121888 0.046825297 0.21100001 nan
0.011902124 0.046825297 0.21100001 nan
0.012243745 0.046825297 0.21100001 nan
0.012585367 0.046825297 0.21100001 nan
0.012926989 0.046825297 0.21100001 nan
0.013610233 0.046825297 0.21100001 nan
0.013951855 0.046825297 0.21100001 nan
0.014293476 0.046825297 0.21100001 nan
0.014704458 0.047047216 0.21200001 nan
0.015047699 0.047047216 0.21200001 nan
0.015734181 0.047047216 0.21200001 nan
0.016077422 0.047047216 0.21200001 nan
0.016420662 0.047047216 0.21200001 nan
0.016763903 0.047047216 0.21200001 nan
0.017450385 0.047047216 0.21200001 nan
0.017793626 0.047047216 0.21200001 nan
0.01822242 0.047269136 0.21300001 nan
0.018567279 0.047269136 0.21300001 nan
0.01891214 0.047269136 0.21300001 nan
0.019347407 0.047491059 0.21400002 nan
0.020040365 0.047491059 0.21400002 nan
0.020386845 0.047491059 0.21400002 nan
0.020830208 0.047712982 0.215 nan
0.021178305 0.047712982 0.215 nan
0.021626526 0.047934897 0.21600001 nan
0.021976244 0.047934897 0.21600001 nan
0.023095598 0.048822582 0.22000001 nan
0.023558389 0.049044505 0.22100002 -3.3246841e+38
0.023916202 0.049044505 0.22100002 -3.3513729e+38
0.024383854 0.049266424 0.22200002 -3.1524055e+38
0.02485474 0.049488347 0.223 -3.1657499e+38
0.025328867 0.04971027 0.22400001 -3.0994972e+38
0.02580623 0.049932186 0.22500001 -3.126186e+38
0.026170518 0.049932186 0.22500001 -3.0864132e+38
0.02665274 0.050154109 0.22600001 -3.0864132e+38
0.0271382 0.050376028 0.22700001 -3.0730692e+38
0.027626896 0.050597951 0.22800002 -3.0730692e+38
0.028118832 0.05081987 0.22900002 -3.0730177e+38
0.028489597 0.05081987 0.22900002 -3.0730177e+38
0.028986389 0.051041789 0.23 -3.0731217e+38
0.02948642 0.051263712 0.23100001 -3.0731217e+38
0.029989688 0.051485635 0.23200001 -3.0731217e+38
0.030496195 0.051707555 0.23300001 -3.0731217e+38
0.030873436 0.051707555 0.23300001 -3.0731217e+38
0.031384803 0.051929474 0.23400001 -3.0731217e+38
0.031899404 0.052151397 0.23500001 -3.0998106e+38
0.032938324 0.052595239 0.23700002 -3.0864661e+38
0.03346264 0.052817158 0.23800001 -3.0864661e+38
-0.014709339 0.051861256 0.23200001 -3.3382887e+38
-0.01389793 0.051637717 0.23100001 -3.3382891e+38
-0.013523928 0.051637717 0.23100001 -3.351529e+38
-0.012720615 0.051414173 0.23 -3.351529e+38
-0.012348231 0.051414173 0.23 -3.3648735e+38
-0.010303941 0.050520018 0.22600001 -3.3381335e+38
-0.0095297713 0.050296474 0.22500001 -3.3647177e+38
-0.0091247465 0.050072938 0.22400001 -3.3647177e+38
-0.0083619095 0.049849398 0.223 -3.3647177e+38
-0.0080008591 0.049849398 0.223 -3.3912499e+38
-0.007246118 0.049625855 0.22200002 -3.3779055e+38
-0.0068556652 0.049402319 0.22100002 -3.3779055e+38
-0.0061400407 0.049402319 0.22100002 -3.3645094e+38
-0.0057560648 0.049178775 0.22000001 nan
-0.0050207516 0.048955236 0.21900001 nan
-0.0046448708 0.0487317 0.21800001 nan
-0.0039389604 0.0487317 0.21800001 nan
-0.0035695555 0.048508156 0.21700001 nan
-0.0028536716 0.048284616 0.21600001 nan
-0.0021442641 0.048061077 0.215 nan
-0.0017961661 0.048061077 0.215 nan
-0.0014480681 0.048061077 0.215 nan
-0.00074837479 0.047837537 0.21400002 nan
-0.00040189576 0.047837537 0.21400002 nan
0.00028970215 0.047613997 0.21300001 nan
0.00063456205 0.047613997 0.21300001 nan
0.0013180646 0.047390457 0.21200001 nan
0.0016613055 0.047390457 0.21200001 nan
0.0020045463 0.047390457 0.21200001 nan
0.0023477874 0.047390457 0.21200001 nan
0.003034269 0.047390457 0.21200001 nan
0.0033615783 0.047166917 0.21100001 nan
0.004044822 0.047166917 0.21100001 nan
0.0043864441 0.047166917 0.21100001 nan
0.0047280658 0.047166917 0.21100001 nan
0.0050696875 0.047166917 0.21100001 nan
0.0057529313 0.047166917 0.21100001 nan
0.006094553 0.047166917 0.21100001 nan
0.0064361747 0.047166917 0.21100001 nan
0.0067777964 0.047166917 0.21100001 nan
0.0074610398 0.047166917 0.21100001 nan
0.0078026615 0.047166917 0.21100001 nan
0.0081442837 0.047166917 0.21100001 nan
0.0088275271 0.047166917 0.21100001 nan
0.0091691492 0.047166917 0.21100001 nan
0.0095107704 0.047166917 0.21100001 nan
0.0098523926 0.047166917 0.21100001 nan
0.010535636 0.047166917 0.21100001 nan
0.010877258 0.047166917 0.21100001 nan
0.01121888 0.047166917 0.21100001 nan
0.011902124 0.047166917 0.21100001 nan
0.012243745 0.047166917 0.21100001 nan
0.012585367 0.047166917 0.21100001 nan
0.012926989 0.047166917 0.21100001 nan
0.013610233 0.047166917 0.21100001 nan
0.013951855 0.047166917 0.21100001 nan
0.014293476 0.047166917 0.21100001 nan
0.014635098 0.047166917 0.21100001 nan
0.015318342 0.047166917 0.21100001 nan
0.015659964 0.047166917 0.21100001 nan
0.016001586 0.047166917 0.21100001 nan
0.016420662 0.047390457 0.21200001 nan
0.016763903 0.047390457 0.21200001 nan
0.017450385 0.047390457 0.21200001 nan
0.017793626 0.047390457 0.21200001 nan
0.01822242 0.047613997 0.21300001 nan
0.018567279 0.047613997 0.21300001 nan
0.01891214 0.047613997 0.21300001 nan
0.019347407 0.047837537 0.21400002 nan
0.020040365 0.047837537 0.21400002 nan
0.020386845 0.047837537 0.21400002 nan
0.020830208 0.048061077 0.215 nan
0.021178305 0.048061077 0.215 nan
0.021626526 0.048284616 0.21600001 nan
0.022077985 0.048508156 0.21700001 nan
0.023095598 0.049178775 0.22000001 nan
0.023558389 0.049402319 0.22100002 -3.2053657e+38
0.024132639 0.049849398 0.223 -3.2453989e+38
0.02485474 0.049849398 0.223 -3.1259769e+38
0.025328867 0.050072938 0.22400001 -3.0729641e+38
0.02580623 0.050296474 0.22500001 -3.099653e+38
0.026286831 0.050520018 0.22600001 -3.0997576e+38
0.026770674 0.050743554 0.22700001 -3.0864132e+38
0.0271382 0.050743554 0.22700001 -3.0730692e+38
0.027626896 0.050967097 0.22800002 -3.0730692e+38
0.028118832 0.051190637 0.22900002 -3.0730177e+38
0.028614005 0.051414173 0.23 -3.0730177e+38
0.029112417 0.051637717 0.23100001 -3.0731217e+38
0.029614067 0.051861256 0.23200001 -3.0864661e+38
0.029989688 0.051861256 0.23200001 -3.0731217e+38
0.030496195 0.052084796 0.23300001 -3.0731217e+38
0.031005943 0.052308336 0.23400001 -3.0731217e+38
0.031384803 0.052308336 0.23400001 -3.0864661e+38
0.031899404 0.052531876 0.23500001 -3.0998106e+38
0.032554608 0.052978955 0.23700002 -3.0864661e+38
0.033077303 0.053202495 0.23800001 -3.0864661e+38
0.03346264 0.053202495 0.23800001 -3.0864661e+38
0.033847976 0.053202495 0.23800001 -3.0998106e+38
-0.0083994074 0.050435606 0.22400001 -3.3647177e+38
-0.0080008591 0.050210446 0.223 -3.3513729e+38
-0.007246118 0.049985286 0.22200002 -3.3779059e+38
-0.0068866867 0.049985286 0.22200002 -3.3779059e+38
-0.0061400407 0.049760129 0.22100002 -3.3778538e+38
-0.0057822284 0.049760129 0.22100002 nan
-0.0053998712 0.049534969 0.22000001 -3.3775932e+38
-0.0046661776 0.049309809 0.21900001 nan
-0.0039389604 0.049084652 0.21800001 nan
-0.0035695555 0.048859492 0.21700001 nan
-0.0028668831 0.048859492 0.21700001 nan
-0.0025039546 0.048634332 0.21600001 nan
-0.0017961661 0.048409175 0.215 nan
-0.0014480681 0.048409175 0.215 nan
-0.00074837479 0.048184015 0.21400002 nan
-0.00040189576 0.048184015 0.21400002 nan
0.00028970215 0.047958855 0.21300001 nan
0.00063456205 0.047958855 0.21300001 nan
0.0013180646 0.047733698 0.21200001 nan
0.0016613055 0.047733698 0.21200001 nan
0.0020045463 0.047733698 0.21200001 nan
0.0023477874 0.047733698 0.21200001 nan
0.0030199564 0.047508538 0.21100001 nan
0.0033615783 0.047508538 0.21100001 nan
0.004044822 0.047508538 0.21100001 nan
0.0043864441 0.047508538 0.21100001 nan
0.0047280658 0.047508538 0.21100001 nan
0.0050696875 0.047508538 0.21100001 nan
0.0057529313 0.047508538 0.21100001 nan
0.006094553 0.047508538 0.21100001 nan
0.0064361747 0.047508538 0.21100001 nan
0.0067777964 0.047508538 0.21100001 nan
0.0074610398 0.047508538 0.21100001 nan
0.0077656824 0.047283381 0.21000001 nan
0.0084456885 0.047283381 0.21000001 nan
0.0087856911 0.047283381 0.21000001 nan
0.0091256937 0.047283381 0.21000001 nan
0.0098056989 0.047283381 0.21000001 nan
0.010145701 0.047283381 0.21000001 nan
0.010485705 0.047283381 0.21000001 nan
0.010825708 0.047283381 0.21000001 nan
0.011505713 0.047283381 0.21000001 nan
0.011845715 0.047283381 0.21000001 nan
0.012185719 0.047283381 0.21000001 nan
0.012525721 0.047283381 0.21000001 nan
0.013205727 0.047283381 0.21000001 nan
0.013610233 0.047508538 0.21100001 nan
0.013951855 0.047508538 0.21100001 nan
0.014293476 0.047508538 0.21100001 nan
0.014635098 0.047508538 0.21100001 nan
0.015318342 0.047508538 0.21100001 nan
0.015659964 0.047508538 0.21100001 nan
0.016001586 0.047508538 0.21100001 nan
0.016684828 0.047508538 0.21100001 nan
0.017450385 0.047733698 0.21200001 nan
0.017793626 0.047733698 0.21200001 nan
0.018136866 0.047733698 0.21200001 nan
0.018567279 0.047958855 0.21300001 nan
0.01891214 0.047958855 0.21300001 nan
0.019347407 0.048184015 0.21400002 nan
0.020040365 0.048184015 0.21400002 nan
0.02048211 0.048409175 0.215 nan
0.020830208 0.048409175 0.215 nan
0.021276809 0.048634332 0.21600001 nan
0.021626526 0.048634332 0.21600001 nan
0.022077985 0.048859492 0.21700001 nan
0.023558389 0.049760129 0.22100002 -3.1655933e+38
0.024132639 0.050210446 0.223 -3.2056265e+38
0.024603527 0.050435606 0.22400001 -3.0862039e+38
-0.014709339 0.052612502 0.23200001 -3.3251009e+38
-0.01389793 0.052385721 0.23100001 -3.3517897e+38
-0.013523928 0.052385721 0.23100001 -3.3382887e+38
-0.012720615 0.052158941 0.23 -3.3648735e+38
-0.012348231 0.052158941 0.23 -3.3648735e+38
-0.011553014 0.051932167 0.22900002 -3.3648735e+38
-0.011182249 0.051932167 0.22900002 -3.3648227e+38
-0.010303941 0.051251832 0.22600001 -3.3514779e+38
-0.0095297713 0.051025052 0.22500001 -3.338185e+38
-0.0091654826 0.051025052 0.22500001 -3.338185e+38
0.0030199564 0.047850162 0.21100001 nan
0.0033615783 0.047850162 0.21100001 nan
0.004044822 0.047850162 0.21100001 nan
0.0043864441 0.047850162 0.21100001 nan
0.0047280658 0.047850162 0.21100001 nan
0.0053856634 0.047623385 0.21000001 nan
0.0057256659 0.047623385 0.21000001 nan
0.006065669 0.047623385 0.21000001 nan
0.0067456742 0.047623385 0.21000001 nan
0.0070856772 0.047623385 0.21000001 nan
0.0074256798 0.047623385 0.21000001 nan
0.0077656824 0.047623385 0.21000001 nan
0.0084456885 0.047623385 0.21000001 nan
0.0087856911 0.047623385 0.21000001 nan
0.0091256937 0.047623385 0.21000001 nan
0.0098056989 0.047623385 0.21000001 nan
0.010145701 0.047623385 0.21000001 nan
0.010485705 0.047623385 0.21000001 nan
0.010825708 0.047623385 0.21000001 nan
0.011505713 0.047623385 0.21000001 nan
0.011845715 0.047623385 0.21000001 nan
0.012185719 0.047623385 0.21000001 nan
0.012525721 0.047623385 0.21000001 nan
0.013205727 0.047623385 0.21000001 nan
0.013545729 0.047623385 0.21000001 nan
0.013885732 0.047623385 0.21000001 nan
0.014565738 0.047623385 0.21000001 nan
0.014905741 0.047623385 0.21000001 nan
0.015318342 0.047850162 0.21100001 nan
0.015659964 0.047850162 0.21100001 nan
0.016001586 0.047850162 0.21100001 nan
0.016684828 0.047850162 0.21100001 nan
0.01702645 0.047850162 0.21100001 nan
0.025077652 0.051025052 0.22500001 -3.0729637e+38
0.02580623 0.051025052 0.22500001 -3.0864647e+38
0.026286831 0.051251832 0.22600001 -3.0864132e+38
0.026770674 0.051478609 0.22700001 -3.0864132e+38
0.027257752 0.051705386 0.22800002 -3.0730692e+38
0.027748067 0.051932167 0.22900002 -3.0730692e+38
0.028364411 0.052385721 0.23100001 -3.0730177e+38
0.029112417 0.052385721 0.23100001 -3.0731217e+38
0.029614067 0.052612502 0.23200001 -3.0864661e+38
0.030118953 0.052839275 0.23300001 -3.0465891e+38
0.030627083 0.053066056 0.23400001 -3.0465891e+38
0.031005943 0.053066056 0.23400001 -3.0599335e+38
0.031518925 0.053292833 0.23500001 -3.0465891e+38
0.032035146 0.053519614 0.23600002 -3.0732779e+38
0.032554608 0.053746391 0.23700002 -3.0732779e+38
0.033077303 0.053973164 0.23800001 -3.0599335e+38
0.03346264 0.053973164 0.23800001 -3.0599335e+38
0.033847976 0.053973164 0.23800001 -3.0599335e+38
-0.013958095 0.052988123 0.23200001 -3.3517897e+38
-0.013523928 0.052759726 0.23100001 -3.3516331e+38
-0.013149926 0.052759726 0.23100001 -3.3516331e+38
-0.012348231 0.052531328 0.23 -3.3516331e+38
-0.011975847 0.052531328 0.23 -3.3382887e+38
-0.011182249 0.052302931 0.22900002 -3.3648227e+38
-0.0099380333 0.051617742 0.22600001 -3.3381339e+38
-0.0091654826 0.05138934 0.22500001 -3.3381335e+38
-0.0083994074 0.051160946 0.22400001 -3.3248406e+38
-0.0080367373 0.051160946 0.22400001 -3.3513729e+38
-0.0076398086 0.050932549 0.223 -3.3647173e+38
-0.0068866867 0.050704151 0.22200002 -3.3513729e+38
-0.0065272553 0.050704151 0.22200002 -3.3645611e+38
-0.0057822284 0.050475754 0.22100002 -3.3911978e+38
-0.0053998712 0.050247356 0.22000001 -3.364509e+38
-0.0046661776 0.050018959 0.21900001 -3.3643528e+38
-0.004311603 0.050018959 0.21900001 nan
-0.003586005 0.049790565 0.21800001 nan
-0.0028668831 0.049562164 0.21700001 nan
-0.0025039546 0.049333766 0.21600001 nan
-0.0018045203 0.049333766 0.21600001 nan
-0.0014480681 0.049105372 0.215 nan
-0.00074837479 0.048876975 0.21400002 nan
-0.00040189576 0.048876975 0.21400002 nan
0.00028970215 0.048648577 0.21300001 nan
0.00063456205 0.048648577 0.21300001 nan
0.0013180646 0.04842018 0.21200001 nan
0.0016613055 0.04842018 0.21200001 nan
0.0020045463 0.04842018 0.21200001 nan
0.0023477874 0.04842018 0.21200001 nan
0.017450385 0.04842018 0.21200001 nan
0.017793626 0.04842018 0.21200001 nan
0.018136866 0.04842018 0.21200001 nan
0.018567279 0.048648577 0.21300001 nan
0.01891214 0.048648577 0.21300001 nan
0.019347407 0.048876975 0.21400002 nan
0.020040365 0.048876975 0.21400002 nan
0.02048211 0.049105372 0.215 nan
0.020830208 0.049105372 0.215 nan
0.021276809 0.049333766 0.21600001 nan
0.021726649 0.049562164 0.21700001 -3.2447738e+38
0.022077985 0.049562164 0.21700001 -3.2981514e+38
0.02330556 0.050704151 0.22200002 -3.1524055e+38
0.02377159 0.050932549 0.223 -3.0861528e+38
0.024132639 0.050932549 0.223 -3.126186e+38
0.024603527 0.051160946 0.22400001 -3.0731203e+38
0.025077652 0.05138934 0.22500001 -3.0864647e+38
0.025555016 0.051617742 0.22600001 -3.0732244e+38
0.02603562 0.051846135 0.22700001 -3.0732244e+38
0.026770674 0.051846135 0.22700001 -3.0731729e+38
0.027257752 0.052074533 0.22800002 -3.0598289e+38
0.027748067 0.052302931 0.22900002 -3.0731733e+38
0.028364411 0.052759726 0.23100001 -3.0598289e+38
0.028862823 0.052988123 0.23200001 -3.0731733e+38
0.029364472 0.053216521 0.23300001 -3.0865177e+38
0.030118953 0.053216521 0.23300001 -3.0731733e+38
0.030627083 0.053444915 0.23400001 -3.0731733e+38
0.031138446 0.053673312 0.23500001 -3.0865177e+38
0.031518925 0.053673312 0.23500001 -3.0731733e+38
0.032035146 0.053901713 0.23600002 -3.0998106e+38
0.032554608 0.054130107 0.23700002 -3.0998106e+38
0.033077303 0.054358501 0.23800001 -3.0864661e+38
0.03346264 0.054358501 0.23800001 -3.0864661e+38
