# .PCD v0.7 - Point Cloud Data file format
VERSION 0.7
FIELDS x y z rgb
SIZE 4 4 4 4
TYPE F F F F
COUNT 1 1 1 1
WIDTH 1020
HEIGHT 1
VIEWPOINT 0 0 0 1 0 0 0
POINTS 1020
DATA ascii
0.11084856 0.03359998 0.23300001 nan
0.11160304 0.03359998 0.23300001 nan
0.11198029 0.03359998 0.23300001 nan
0.11235753 0.03359998 0.23300001 nan
0.11273477 0.03359998 0.23300001 nan
0.11348926 0.03359998 0.23300001 nan
0.11386649 0.03359998 0.23300001 nan
0.11424374 0.03359998 0.23300001 nan
0.14505821 0.040521868 0.28100002 nan
0.084258534 0.034998 0.24000001 -3.2856423e+38
0.084647112 0.034998 0.24000001 -3.3512171e+38
0.085424259 0.034998 0.24000001 -3.311235e+38
0.085812829 0.034998 0.24000001 -3.3245794e+38
0.085842237 0.034852173 0.23900001 -3.2449294e+38
0.086616144 0.034852173 0.23900001 -3.1915513e+38
0.087003104 0.034852173 0.23900001 -3.1648625e+38
0.087390058 0.034852173 0.23900001 -3.2311156e+38
0.087777011 0.034852173 0.23900001 -3.2311156e+38
0.088550925 0.034852173 0.23900001 -3.3238498e+38
0.088937879 0.034852173 0.23900001 -3.3238503e+38
0.089336425 0.034706347 0.23800001 -3.3371943e+38
0.089721762 0.034706347 0.23800001 -3.3238498e+38
0.090107098 0.034706347 0.23800001 -3.3504344e+38
0.090492435 0.034706347 0.23800001 -3.3504344e+38
0.091263108 0.034706347 0.23800001 -3.3636748e+38
0.091648445 0.034706347 0.23800001 -3.3637263e+38
0.092033781 0.034706347 0.23800001 -3.3637263e+38
0.092804454 0.034706347 0.23800001 -3.3636748e+38
0.093189791 0.034706347 0.23800001 -3.3902589e+38
0.093181953 0.034560524 0.23700002 -3.3902589e+38
0.093949392 0.034560524 0.23700002 nan
0.094333105 0.034560524 0.23700002 nan
0.094716825 0.034560524 0.23700002 nan
0.095100544 0.034560524 0.23700002 nan
0.095867977 0.034560524 0.23700002 nan
0.096251696 0.034560524 0.23700002 nan
0.096609764 0.034414697 0.23600002 nan
0.096991867 0.034414697 0.23600002 nan
0.097373962 0.034414697 0.23600002 nan
0.097756058 0.034414697 0.23600002 nan
0.098520257 0.034414697 0.23600002 nan
0.09890236 0.034414697 0.23600002 nan
0.099284455 0.034414697 0.23600002 nan
0.099666551 0.034414697 0.23600002 nan
0.10043075 0.034414697 0.23600002 nan
0.10081284 0.034414697 0.23600002 nan
0.10114663 0.034268875 0.23500001 nan
0.10195915 0.034414697 0.23600002 nan
0.10234124 0.034414697 0.23600002 nan
0.10272334 0.034414697 0.23600002 nan
0.10304903 0.034268875 0.23500001 nan
0.10342951 0.034268875 0.23500001 nan
0.10380999 0.034268875 0.23500001 nan
0.10457095 0.034268875 0.23500001 nan
0.10495143 0.034268875 0.23500001 nan
0.10533191 0.034268875 0.23500001 nan
0.10571238 0.034268875 0.23500001 nan
0.10647334 0.034268875 0.23500001 nan
0.10685382 0.034268875 0.23500001 nan
0.1072343 0.034268875 0.23500001 nan
0.10761478 0.034268875 0.23500001 nan
0.10837574 0.034268875 0.23500001 nan
0.10875622 0.034268875 0.23500001 nan
0.1091367 0.034268875 0.23500001 nan
0.10943 0.034123048 0.23400001 nan
0.10980886 0.034123048 0.23400001 nan
0.11018772 0.034123048 0.23400001 nan
0.11094544 0.034123048 0.23400001 nan
0.1113243 0.034123048 0.23400001 nan
0.11170316 0.034123048 0.23400001 nan
0.11246088 0.034123048 0.23400001 nan
0.11235753 0.033977222 0.23300001 nan
0.11273477 0.033977222 0.23300001 nan
0.11348926 0.033977222 0.23300001 nan
0.11386649 0.033977222 0.23300001 nan
0.11424374 0.033977222 0.23300001 nan
0.14460327 0.040976822 0.28100002 nan
0.14505821 0.040976822 0.28100002 nan
0.084258534 0.035386574 0.24000001 -3.2589534e+38
0.084647112 0.035386574 0.24000001 -3.3512171e+38
0.085424259 0.035386574 0.24000001 -3.3111829e+38
0.085812829 0.035386574 0.24000001 -3.3111829e+38
0.086201407 0.035386574 0.24000001 -3.2448253e+38
0.086589985 0.035386574 0.24000001 -3.2047921e+38
0.087367132 0.035386574 0.24000001 -3.1647585e+38
0.087755702 0.035386574 0.24000001 -3.2178238e+38
0.08814428 0.035386574 0.24000001 -3.2178238e+38
0.088550925 0.035239127 0.23900001 -3.2840773e+38
0.088937879 0.035239127 0.23900001 -3.2840777e+38
0.089324832 0.035239127 0.23900001 -3.2974221e+38
0.090098746 0.035239127 0.23900001 -3.2840773e+38
0.090485699 0.035239127 0.23900001 -3.3106099e+38
0.090492435 0.035091683 0.23800001 -3.3106099e+38
0.091263108 0.035091683 0.23800001 -3.3371947e+38
0.091648445 0.035091683 0.23800001 -3.3371943e+38
0.092033781 0.035091683 0.23800001 -3.3238498e+38
0.092804454 0.035091683 0.23800001 -3.3238498e+38
0.093189791 0.035091683 0.23800001 -3.3504344e+38
0.093575127 0.035091683 0.23800001 -3.33709e+38
0.093960464 0.035091683 0.23800001 -3.3637263e+38
0.094333105 0.03494424 0.23700002 -3.3769145e+38
0.094716825 0.03494424 0.23700002 -3.3769145e+38
0.095100544 0.03494424 0.23700002 nan
0.095867977 0.03494424 0.23700002 nan
0.096251696 0.03494424 0.23700002 nan
0.096635409 0.03494424 0.23700002 nan
0.097402848 0.03494424 0.23700002 nan
0.097786561 0.03494424 0.23700002 nan
0.09817028 0.03494424 0.23700002 nan
0.098554 0.03494424 0.23700002 nan
0.099321432 0.03494424 0.23700002 nan
0.099284455 0.034796797 0.23600002 nan
0.099666551 0.034796797 0.23600002 nan
0.10043075 0.034796797 0.23600002 nan
0.10081284 0.034796797 0.23600002 nan
0.10162374 0.03494424 0.23700002 nan
0.10200746 0.03494424 0.23700002 nan
0.10234124 0.034796797 0.23600002 nan
0.10272334 0.034796797 0.23600002 nan
0.10310544 0.034796797 0.23600002 nan
0.10386963 0.034796797 0.23600002 nan
0.10425173 0.034796797 0.23600002 nan
0.10463383 0.034796797 0.23600002 nan
0.10539803 0.034796797 0.23600002 nan
0.10533191 0.034649353 0.23500001 nan
0.10571238 0.034649353 0.23500001 nan
0.10647334 0.034649353 0.23500001 nan
0.10685382 0.034649353 0.23500001 nan
0.1072343 0.034649353 0.23500001 nan
0.10761478 0.034649353 0.23500001 nan
0.10837574 0.034649353 0.23500001 nan
0.10875622 0.034649353 0.23500001 nan
0.1091367 0.034649353 0.23500001 nan
0.10989766 0.034649353 0.23500001 nan
0.10980886 0.034501906 0.23400001 nan
0.11018772 0.034501906 0.23400001 nan
0.11094544 0.034501906 0.23400001 nan
0.1113243 0.034501906 0.23400001 nan
0.11170316 0.034501906 0.23400001 nan
0.11246088 0.034501906 0.23400001 nan
0.11235753 0.034354463 0.23300001 nan
0.11273477 0.034354463 0.23300001 nan
0.11348926 0.034354463 0.23300001 nan
0.11386649 0.034354463 0.23300001 nan
0.11424374 0.034354463 0.23300001 nan
0.092033781 0.03547702 0.23800001 -3.2840769e+38
0.092804454 0.03547702 0.23800001 -3.3106095e+38
0.093189791 0.03547702 0.23800001 -3.3106095e+38
0.093575127 0.03547702 0.23800001 -3.3106095e+38
0.093960464 0.03547702 0.23800001 -3.3238498e+38
0.094731137 0.03547702 0.23800001 -3.33709e+38
0.095116474 0.03547702 0.23800001 -3.33709e+38
0.09550181 0.03547702 0.23800001 -3.3370904e+38
0.095867977 0.035327956 0.23700002 -3.3636752e+38
0.096251696 0.035327956 0.23700002 -3.3503308e+38
0.096635409 0.035327956 0.23700002 -3.3503308e+38
0.097402848 0.035327956 0.23700002 -3.3503304e+38
0.097786561 0.035327956 0.23700002 -3.3636748e+38
0.09817028 0.035327956 0.23700002 -3.3636748e+38
0.098554 0.035327956 0.23700002 -3.3636748e+38
0.099321432 0.035327956 0.23700002 -3.3636748e+38
0.099705152 0.035327956 0.23700002 -3.376863e+38
0.10008887 0.035327956 0.23700002 -3.3902074e+38
0.10047258 0.035327956 0.23700002 nan
0.10124002 0.035327956 0.23700002 nan
0.10162374 0.035327956 0.23700002 nan
0.10200746 0.035327956 0.23700002 nan
0.10277489 0.035327956 0.23700002 nan
0.10272334 0.035178892 0.23600002 nan
0.10310544 0.035178892 0.23600002 nan
0.10386963 0.035178892 0.23600002 nan
0.10425173 0.035178892 0.23600002 nan
0.10463383 0.035178892 0.23600002 nan
0.10539803 0.035178892 0.23600002 nan
0.10578012 0.035178892 0.23600002 nan
0.10616222 0.035178892 0.23600002 nan
0.10654432 0.035178892 0.23600002 nan
0.10730851 0.035178892 0.23600002 nan
0.10769061 0.035178892 0.23600002 nan
0.10807271 0.035178892 0.23600002 nan
0.10837574 0.035029832 0.23500001 nan
0.10875622 0.035029832 0.23500001 nan
0.1091367 0.035029832 0.23500001 nan
0.10989766 0.035029832 0.23500001 nan
0.11027814 0.035029832 0.23500001 nan
0.11065862 0.035029832 0.23500001 nan
0.11094544 0.034880769 0.23400001 nan
0.1113243 0.034880769 0.23400001 nan
0.11170316 0.034880769 0.23400001 nan
0.11246088 0.034880769 0.23400001 nan
0.11283974 0.034880769 0.23400001 nan
0.11321861 0.034880769 0.23400001 nan
0.11359747 0.034880769 0.23400001 nan
0.11435518 0.034880769 0.23400001 nan
0.084999807 0.036314402 0.24100001 -3.3643532e+38
0.085389994 0.036314402 0.24100001 -3.3510088e+38
0.085812829 0.036163721 0.24000001 -3.3110267e+38
0.086201407 0.036163721 0.24000001 -3.2578059e+38
0.086589985 0.036163721 0.24000001 -3.231117e+38
0.087367132 0.036163721 0.24000001 -3.1912915e+38
0.087755702 0.036163721 0.24000001 -3.2178242e+38
0.08814428 0.036163721 0.24000001 -3.2178242e+38
0.088550925 0.036013037 0.23900001 -3.2443047e+38
0.088937879 0.036013037 0.23900001 -3.2576491e+38
0.089324832 0.036013037 0.23900001 -3.2576491e+38
0.090098746 0.036013037 0.23900001 -3.2576491e+38
0.090485699 0.036013037 0.23900001 -3.2709935e+38
0.090872653 0.036013037 0.23900001 -3.2443047e+38
0.091259614 0.036013037 0.23900001 -3.2443047e+38
0.09203352 0.036013037 0.23900001 -3.270889e+38
0.14305946 0.041889641 0.27800003 nan
0.084999807 0.036704596 0.24100001 -3.3510088e+38
0.085389994 0.036704596 0.24100001 -3.3376644e+38
0.086170383 0.036704596 0.24100001 -3.3110267e+38
0.086560577 0.036704596 0.24100001 -3.2578059e+38
0.086589985 0.036552295 0.24000001 -3.231117e+38
0.087367132 0.036552295 0.24000001 -3.1912915e+38
0.087755702 0.036552295 0.24000001 -3.2178242e+38
0.08814428 0.036552295 0.24000001 -3.2178242e+38
0.088532858 0.036552295 0.24000001 -3.2443047e+38
0.089310005 0.036552295 0.24000001 -3.2443047e+38
0.089698575 0.036552295 0.24000001 -3.2443047e+38
0.090087153 0.036552295 0.24000001 -3.2576491e+38
0.090485699 0.036399994 0.23900001 -3.2575976e+38
0.090872653 0.036399994 0.23900001 -3.2442532e+38
0.091259614 0.036399994 0.23900001 -3.2576491e+38
0.09203352 0.036399994 0.23900001 -3.2576487e+38
0.092420481 0.036399994 0.23900001 -3.2576487e+38
0.092807434 0.036399994 0.23900001 -3.2442002e+38
0.093581341 0.036399994 0.23900001 -3.2575446e+38
0.093575127 0.036247693 0.23800001 -3.2575446e+38
0.093960464 0.036247693 0.23800001 -3.2974213e+38
0.094731137 0.036247693 0.23800001 -3.2707329e+38
0.095116474 0.036247693 0.23800001 -3.2840773e+38
0.09550181 0.036247693 0.23800001 -3.2840777e+38
0.095887147 0.036247693 0.23800001 -3.2840777e+38
0.09665782 0.036247693 0.23800001 -3.2840777e+38
0.097043157 0.036247693 0.23800001 -3.2840777e+38
0.097428493 0.036247693 0.23800001 -3.2840777e+38
0.098199166 0.036247693 0.23800001 -3.2840773e+38
0.09817028 0.036095392 0.23700002 -3.2840773e+38
0.098554 0.036095392 0.23700002 -3.2840773e+38
0.099321432 0.036095392 0.23700002 -3.2840773e+38
0.10012585 0.036247693 0.23800001 -3.2972655e+38
0.10051119 0.036247693 0.23800001 -3.2972655e+38
0.10089652 0.036247693 0.23800001 -3.3372991e+38
0.1016672 0.036247693 0.23800001 -3.3106103e+38
0.10205253 0.036247693 0.23800001 -3.3106103e+38
0.10200746 0.036095392 0.23700002 -3.3239539e+38
0.10277489 0.036095392 0.23700002 -3.310661e+38
0.10315861 0.036095392 0.23700002 -3.310661e+38
0.10354233 0.036095392 0.23700002 -3.3239014e+38
0.10392604 0.036095392 0.23700002 -3.3239014e+38
0.10469348 0.036095392 0.23700002 -3.3504859e+38
0.10463383 0.035943091 0.23600002 -3.3637263e+38
0.10539803 0.035943091 0.23600002 -3.3636748e+38
0.10578012 0.035943091 0.23600002 -3.3636748e+38
0.10616222 0.035943091 0.23600002 -3.3902074e+38
0.10654432 0.035943091 0.23600002 -3.376863e+38
0.10730851 0.035943091 0.23600002 -3.3902589e+38
0.10769061 0.035943091 0.23600002 nan
0.10807271 0.035943091 0.23600002 nan
0.10845481 0.035943091 0.23600002 nan
0.10921901 0.035943091 0.23600002 nan
0.1091367 0.03579079 0.23500001 nan
0.10989766 0.03579079 0.23500001 nan
0.11027814 0.03579079 0.23500001 nan
0.11065862 0.03579079 0.23500001 nan
0.11103909 0.03579079 0.23500001 nan
0.11180005 0.03579079 0.23500001 nan
0.11218053 0.03579079 0.23500001 nan
0.11246088 0.035638489 0.23400001 nan
0.11283974 0.035638489 0.23400001 nan
0.11321861 0.035638489 0.23400001 nan
0.11359747 0.035638489 0.23400001 nan
0.11435518 0.035638489 0.23400001 nan
0.13990878 0.042339742 0.27800003 nan
0.14035887 0.042339742 0.27800003 nan
0.14080897 0.042339742 0.27800003 nan
0.14170916 0.042339742 0.27800003 nan
0.14215927 0.042339742 0.27800003 nan
0.14260936 0.042339742 0.27800003 nan
0.14305946 0.042339742 0.27800003 nan
0.14344181 0.042187441 0.27700001 nan
0.14389029 0.042187441 0.27700001 nan
0.083785251 0.037248712 0.24200001 nan
0.084177062 0.037248712 0.24200001 -3.3395929e+38
0.084568873 0.037248712 0.24200001 nan
0.084999807 0.03709479 0.24100001 -3.3510088e+38
0.085389994 0.03709479 0.24100001 -3.3376644e+38
0.086170383 0.03709479 0.24100001 -3.2976308e+38
0.086560577 0.03709479 0.24100001 -3.2578059e+38
0.086950772 0.03709479 0.24100001 -3.231117e+38
0.087340966 0.03709479 0.24100001 -3.231117e+38
0.088121355 0.03709479 0.24100001 -3.2311164e+38
0.08814428 0.036940869 0.24000001 -3.2311164e+38
0.088532858 0.036940869 0.24000001 -3.217772e+38
0.089310005 0.036940869 0.24000001 -3.2443047e+38
0.089698575 0.036940869 0.24000001 -3.2443047e+38
0.090087153 0.036940869 0.24000001 -3.2576491e+38
0.090864301 0.036940869 0.24000001 -3.2575976e+38
0.091252878 0.036940869 0.24000001 -3.2442532e+38
0.091641448 0.036940869 0.24000001 -3.2576491e+38
0.09203352 0.036786951 0.23900001 -3.2576491e+38
0.092420481 0.036786951 0.23900001 -3.2443047e+38
0.092807434 0.036786951 0.23900001 -3.257545e+38
0.093581341 0.036786951 0.23900001 -3.2575446e+38
0.093968302 0.036786951 0.23900001 -3.2575446e+38
0.094355255 0.036786951 0.23900001 -3.270889e+38
0.094742209 0.036786951 0.23900001 -3.2575446e+38
0.095116474 0.03663303 0.23800001 -3.2840773e+38
0.09550181 0.03663303 0.23800001 -3.2574935e+38
0.095887147 0.03663303 0.23800001 -3.2708379e+38
0.09665782 0.03663303 0.23800001 -3.257545e+38
0.097043157 0.03663303 0.23800001 -3.257545e+38
0.097428493 0.03663303 0.23800001 -3.257545e+38
0.098199166 0.03663303 0.23800001 -3.2575446e+38
0.098584503 0.03663303 0.23800001 -3.2575446e+38
0.099385679 0.036786951 0.23900001 -3.2575446e+38
0.099772632 0.036786951 0.23900001 -3.2442006e+38
0.10015959 0.036786951 0.23900001 -3.257545e+38
0.10051119 0.03663303 0.23800001 -3.2707333e+38
0.10089652 0.03663303 0.23800001 -3.310715e+38
0.1016672 0.03663303 0.23800001 -3.2840777e+38
0.10205253 0.03663303 0.23800001 -3.2840777e+38
0.10243787 0.03663303 0.23800001 -3.2840773e+38
0.10277489 0.036479108 0.23700002 -3.2841284e+38
0.10315861 0.036479108 0.23700002 -3.270784e+38
0.10354233 0.036479108 0.23700002 -3.2974728e+38
0.10392604 0.036479108 0.23700002 -3.2841284e+38
0.10469348 0.036479108 0.23700002 -3.3106095e+38
0.10507719 0.036479108 0.23700002 -3.3106095e+38
0.10546091 0.036479108 0.23700002 -3.3106095e+38
0.10622834 0.036479108 0.23700002 -3.3239539e+38
0.10661206 0.036479108 0.23700002 -3.3238498e+38
0.10654432 0.036325186 0.23600002 -3.3238498e+38
0.10730851 0.036325186 0.23600002 -3.3504344e+38
0.10769061 0.036325186 0.23600002 -3.3636748e+38
0.10807271 0.036325186 0.23600002 -3.3636748e+38
0.10845481 0.036325186 0.23600002 -3.3636748e+38
0.10921901 0.036325186 0.23600002 -3.3637263e+38
0.1096011 0.036325186 0.23600002 -3.3503819e+38
0.10989766 0.036171269 0.23500001 -3.3902589e+38
0.11027814 0.036171269 0.23500001 -3.3769145e+38
0.11065862 0.036171269 0.23500001 -3.3902589e+38
0.11103909 0.036171269 0.23500001 nan
0.11180005 0.036171269 0.23500001 nan
0.11218053 0.036171269 0.23500001 nan
0.11256101 0.036171269 0.23500001 nan
0.11332197 0.036171269 0.23500001 nan
0.11370245 0.036171269 0.23500001 nan
0.11408293 0.036171269 0.23500001 nan
0.11446341 0.036171269 0.23500001 nan
0.083785251 0.037640523 0.24200001 nan
0.084177062 0.037640523 0.24200001 -3.3394367e+38
0.085352503 0.037640523 0.24200001 -3.3642492e+38
0.085389994 0.037484981 0.24100001 -3.3375604e+38
0.086170383 0.037484981 0.24100001 -3.270942e+38
0.086560577 0.037484981 0.24100001 -3.2578059e+38
0.086950772 0.037484981 0.24100001 -3.231117e+38
0.087340966 0.037484981 0.24100001 -3.231117e+38
0.088121355 0.037484981 0.24100001 -3.2311164e+38
0.088511549 0.037484981 0.24100001 -3.2311164e+38
0.088901743 0.037484981 0.24100001 -3.2311164e+38
0.089291938 0.037484981 0.24100001 -3.2311164e+38
0.090072319 0.037484981 0.24100001 -3.2443047e+38
0.090087153 0.037329447 0.24000001 -3.2576491e+38
0.090864301 0.037329447 0.24000001 -3.2576491e+38
0.091252878 0.037329447 0.24000001 -3.2443047e+38
0.091641448 0.037329447 0.24000001 -3.2576491e+38
0.092030026 0.037329447 0.24000001 -3.2576491e+38
0.092807174 0.037329447 0.24000001 -3.2443047e+38
0.092807434 0.037173904 0.23900001 -3.257545e+38
0.093581341 0.037173904 0.23900001 -3.270889e+38
0.093968302 0.037173904 0.23900001 -3.2442002e+38
0.094355255 0.037173904 0.23900001 -3.270889e+38
0.094742209 0.037173904 0.23900001 -3.2575446e+38
0.095516123 0.037173904 0.23900001 -3.2575446e+38
0.095903076 0.037173904 0.23900001 -3.2708379e+38
0.096290037 0.037173904 0.23900001 -3.2574935e+38
0.09667699 0.037173904 0.23900001 -3.2708379e+38
0.097043157 0.037018366 0.23800001 -3.257545e+38
0.097428493 0.037018366 0.23800001 -3.257545e+38
0.098199166 0.037018366 0.23800001 -3.2442006e+38
0.098998725 0.037173904 0.23900001 -3.257545e+38
0.099385679 0.037173904 0.23900001 -3.257545e+38
0.099772632 0.037173904 0.23900001 -3.2442006e+38
0.10015959 0.037173904 0.23900001 -3.257545e+38
0.1009335 0.037173904 0.23900001 -3.257545e+38
0.10132045 0.037173904 0.23900001 -3.2708379e+38
0.10170741 0.037173904 0.23900001 -3.2708379e+38
0.10205253 0.037018366 0.23800001 -3.2574935e+38
0.10243787 0.037018366 0.23800001 -3.257545e+38
0.10282321 0.037018366 0.23800001 -3.2708894e+38
0.10359388 0.037018366 0.23800001 -3.2575442e+38
0.10397922 0.037018366 0.23800001 -3.2709401e+38
0.10436455 0.037018366 0.23800001 -3.2575957e+38
0.10469348 0.036862828 0.23700002 -3.2708886e+38
0.10507719 0.036862828 0.23700002 -3.2708886e+38
0.10546091 0.036862828 0.23700002 -3.2708886e+38
0.10622834 0.036862828 0.23700002 -3.2974213e+38
0.10661206 0.036862828 0.23700002 -3.3239539e+38
0.10699578 0.036862828 0.23700002 -3.3106095e+38
0.1073795 0.036862828 0.23700002 -3.3371943e+38
0.10814694 0.036862828 0.23700002 -3.3238498e+38
0.10853065 0.036862828 0.23700002 -3.3238498e+38
0.10845481 0.036707286 0.23600002 -3.3238498e+38
0.10921901 0.036707286 0.23600002 -3.3238498e+38
0.1096011 0.036707286 0.23600002 -3.3238498e+38
0.1099832 0.036707286 0.23600002 -3.3238498e+38
0.1107474 0.036707286 0.23600002 -3.3504344e+38
0.11065862 0.036551747 0.23500001 -3.3504344e+38
0.11103909 0.036551747 0.23500001 -3.3504344e+38
0.11180005 0.036551747 0.23500001 -3.3636748e+38
0.11218053 0.036551747 0.23500001 -3.3770192e+38
0.11256101 0.036551747 0.23500001 -3.3770192e+38
0.11332197 0.036551747 0.23500001 -3.3636748e+38
0.11370245 0.036551747 0.23500001 -3.3636748e+38
0.11408293 0.036551747 0.23500001 nan
0.11446341 0.036551747 0.23500001 -3.3902074e+38
0.13855848 0.04323994 0.27800003 nan
0.13900857 0.04323994 0.27800003 nan
0.13990878 0.04323994 0.27800003 nan
0.14035887 0.04323994 0.27800003 nan
0.14080897 0.04323994 0.27800003 nan
0.14119941 0.043084398 0.27700001 nan
0.14164789 0.043084398 0.27700001 nan
0.14209637 0.043084398 0.27700001 nan
0.14299333 0.043084398 0.27700001 nan
0.14344181 0.043084398 0.27700001 nan
0.14389029 0.043084398 0.27700001 nan
0.14426456 0.042928863 0.27600002 nan
0.14471142 0.042928863 0.27600002 -3.273026e+38
0.14515828 0.042928863 0.27600002 nan
0.13810837 0.043690037 0.27800003 -3.3902074e+38
0.13855848 0.043690037 0.27800003 nan
0.13900857 0.043690037 0.27800003 nan
0.13990878 0.043690037 0.27800003 nan
0.13985397 0.043532878 0.27700001 nan
0.14030245 0.043532878 0.27700001 nan
0.14119941 0.043532878 0.27700001 nan
0.14164789 0.043532878 0.27700001 nan
0.14209637 0.043532878 0.27700001 nan
0.14299333 0.043532878 0.27700001 nan
0.14292398 0.043375723 0.27600002 nan
0.14337084 0.043375723 0.27600002 nan
0.14426456 0.043375723 0.27600002 nan
0.14471142 0.043375723 0.27600002 -3.2329412e+38
0.14515828 0.043375723 0.27600002 -3.3530409e+38
0.083785251 0.038424149 0.24200001 nan
0.084177062 0.038424149 0.24200001 -3.2991428e+38
0.085352503 0.038424149 0.24200001 -3.3509048e+38
0.085744314 0.038424149 0.24200001 -3.3242159e+38
0.086136125 0.038424149 0.24200001 -3.2841823e+38
0.086560577 0.03826537 0.24100001 -3.2444093e+38
0.086950772 0.03826537 0.24100001 -3.2310649e+38
0.087340966 0.03826537 0.24100001 -3.2444093e+38
0.088121355 0.03826537 0.24100001 -3.2311164e+38
0.088511549 0.03826537 0.24100001 -3.2444608e+38
0.088901743 0.03826537 0.24100001 -3.2311164e+38
0.089291938 0.03826537 0.24100001 -3.2311164e+38
0.090072319 0.03826537 0.24100001 -3.2311164e+38
0.090462513 0.03826537 0.24100001 -3.2311164e+38
0.090852708 0.03826537 0.24100001 -3.2311164e+38
0.091633096 0.03826537 0.24100001 -3.217772e+38
0.091641448 0.038106594 0.24000001 -3.2311164e+38
0.092030026 0.038106594 0.24000001 -3.2311164e+38
0.092807174 0.038106594 0.24000001 -3.217772e+38
0.093195751 0.038106594 0.24000001 -3.2442532e+38
0.093584321 0.038106594 0.24000001 -3.2575976e+38
0.094361469 0.038106594 0.24000001 -3.2442006e+38
0.094750047 0.038106594 0.24000001 -3.2708894e+38
0.094742209 0.037947815 0.23900001 -3.257545e+38
0.095516123 0.037947815 0.23900001 -3.257545e+38
0.095903076 0.037947815 0.23900001 -3.2575976e+38
0.096290037 0.037947815 0.23900001 -3.2442532e+38
0.09667699 0.037947815 0.23900001 -3.2575976e+38
0.097450897 0.037947815 0.23900001 -3.2442532e+38
0.097837858 0.037947815 0.23900001 -3.2442532e+38
0.098224811 0.037947815 0.23900001 -3.2309603e+38
0.098998725 0.037947815 0.23900001 -3.2443047e+38
0.099385679 0.037947815 0.23900001 -3.2309603e+38
0.099772632 0.037947815 0.23900001 -3.2309087e+38
0.10015959 0.037947815 0.23900001 -3.2442532e+38
0.1009335 0.037947815 0.23900001 -3.2575976e+38
0.10132045 0.037947815 0.23900001 -3.2575976e+38
0.10170741 0.037947815 0.23900001 -3.270942e+38
0.10248132 0.037947815 0.23900001 -3.2442532e+38
0.10243787 0.037789036 0.23800001 -3.2576491e+38
0.10282321 0.037789036 0.23800001 -3.2576491e+38
0.10359388 0.037789036 0.23800001 -3.2575446e+38
0.10397922 0.037789036 0.23800001 -3.2708886e+38
0.10436455 0.037789036 0.23800001 -3.2575442e+38
0.10474989 0.037789036 0.23800001 -3.270889e+38
0.10552056 0.037789036 0.23800001 -3.270889e+38
0.10546091 0.03763026 0.23700002 -3.2575446e+38
0.10622834 0.03763026 0.23700002 -3.270889e+38
0.10661206 0.03763026 0.23700002 -3.2708894e+38
0.10699578 0.03763026 0.23700002 -3.2708894e+38
0.1073795 0.03763026 0.23700002 -3.2842338e+38
0.10814694 0.03763026 0.23700002 -3.270889e+38
0.10853065 0.03763026 0.23700002 -3.2575446e+38
0.10845481 0.037471484 0.23600002 -3.2575446e+38
0.10921901 0.037471484 0.23600002 -3.2708886e+38
0.1096011 0.037471484 0.23600002 -3.2708886e+38
0.1099832 0.037471484 0.23600002 -3.2708886e+38
0.1107474 0.037471484 0.23600002 -3.2575446e+38
0.1111295 0.037471484 0.23600002 -3.2575446e+38
0.1115116 0.037471484 0.23600002 -3.2974217e+38
0.11189369 0.037471484 0.23600002 -3.2974217e+38
0.11265789 0.037471484 0.23600002 -3.2974217e+38
0.11303999 0.037471484 0.23600002 -3.2974217e+38
0.11342209 0.037471484 0.23600002 -3.2840773e+38
0.11418629 0.037471484 0.23600002 -3.2840773e+38
0.11456838 0.037471484 0.23600002 -3.3239543e+38
0.13810837 0.044140138 0.27800003 -3.3504344e+38
0.13855848 0.044140138 0.27800003 -3.3637788e+38
0.13895701 0.043981358 0.27700001 -3.3636748e+38
0.13940549 0.043981358 0.27700001 -3.3636748e+38
0.13985397 0.043981358 0.27700001 -3.3770192e+38
0.14030245 0.043981358 0.27700001 -3.3903636e+38
0.14119941 0.043981358 0.27700001 nan
0.14113654 0.043822583 0.27600002 nan
0.14203025 0.043822583 0.27600002 nan
0.14247712 0.043822583 0.27600002 nan
0.14292398 0.043822583 0.27600002 -3.3774881e+38
0.14337084 0.043822583 0.27600002 -3.3908325e+38
0.14426456 0.043822583 0.27600002 -3.351529e+38
0.14471142 0.043822583 0.27600002 -3.1663239e+38
0.14515828 0.043822583 0.27600002 -3.3931788e+38
0.083785251 0.03881596 0.24200001 nan
0.084177062 0.03881596 0.24200001 -3.2855901e+38
0.085352503 0.03881596 0.24200001 -3.3375604e+38
0.085744314 0.03881596 0.24200001 -3.3108715e+38
0.086136125 0.03881596 0.24200001 -3.2841823e+38
0.086919747 0.03881596 0.24200001 -3.2310649e+38
0.087311566 0.03881596 0.24200001 -3.2444093e+38
0.087703377 0.03881596 0.24200001 -3.2310653e+38
0.088095188 0.03881596 0.24200001 -3.2310653e+38
0.088878818 0.03881596 0.24200001 -3.2444093e+38
0.089270629 0.03881596 0.24200001 -3.2311164e+38
0.08966244 0.03881596 0.24200001 -3.2311164e+38
0.090446062 0.03881596 0.24200001 -3.2311164e+38
0.090462513 0.038655564 0.24100001 -3.2311164e+38
0.090852708 0.038655564 0.24100001 -3.2311164e+38
0.091633096 0.038655564 0.24100001 -3.2311164e+38
0.092023291 0.038655564 0.24100001 -3.2311164e+38
0.092413485 0.038655564 0.24100001 -3.2311164e+38
0.092803679 0.038655564 0.24100001 -3.2311164e+38
0.093195751 0.038495168 0.24000001 -3.2442532e+38
0.093584321 0.038495168 0.24000001 -3.2442532e+38
0.094361469 0.038495168 0.24000001 -3.2442532e+38
0.094750047 0.038495168 0.24000001 -3.2575976e+38
0.095138624 0.038495168 0.24000001 -3.2442532e+38
0.095527194 0.038495168 0.24000001 -3.2442532e+38
0.096304342 0.038495168 0.24000001 -3.2442532e+38
0.096290037 0.038334772 0.23900001 -3.2442532e+38
0.097081497 0.038495168 0.24000001 -3.2575976e+38
0.097470067 0.038495168 0.24000001 -3.2442532e+38
0.098247215 0.038495168 0.24000001 -3.2442532e+38
0.098635793 0.038495168 0.24000001 -3.2309087e+38
0.09902437 0.038495168 0.24000001 -3.2575976e+38
0.099801518 0.038495168 0.24000001 -3.2442532e+38
0.10019009 0.038495168 0.24000001 -3.2309087e+38
0.10015959 0.038334772 0.23900001 -3.2442532e+38
0.1009335 0.038334772 0.23900001 -3.2575976e+38
0.10132045 0.038334772 0.23900001 -3.2575976e+38
0.10170741 0.038334772 0.23900001 -3.2575976e+38
0.10248132 0.038334772 0.23900001 -3.2575976e+38
0.10286827 0.038334772 0.23900001 -3.2443047e+38
0.10325523 0.038334772 0.23900001 -3.2576491e+38
0.10359388 0.038174372 0.23800001 -3.2575446e+38
0.10397922 0.038174372 0.23800001 -3.270889e+38
0.10436455 0.038174372 0.23800001 -3.2575446e+38
0.10474989 0.038174372 0.23800001 -3.2708894e+38
0.10552056 0.038174372 0.23800001 -3.2708894e+38
0.1059059 0.038174372 0.23800001 -3.257545e+38
0.10629123 0.038174372 0.23800001 -3.2708894e+38
0.10706191 0.038174372 0.23800001 -3.257545e+38
0.10744724 0.038174372 0.23800001 -3.2708894e+38
0.10783258 0.038174372 0.23800001 -3.2841823e+38
0.10814694 0.03801398 0.23700002 -3.270889e+38
0.10853065 0.03801398 0.23700002 -3.270889e+38
0.10891437 0.03801398 0.23700002 -3.2575446e+38
0.10929809 0.03801398 0.23700002 -3.270889e+38
0.1096011 0.03785358 0.23600002 -3.2708886e+38
0.1099832 0.03785358 0.23600002 -3.2708886e+38
0.1107474 0.03785358 0.23600002 -3.2575446e+38
0.1111295 0.03785358 0.23600002 -3.2575446e+38
0.1115116 0.03785358 0.23600002 -3.270889e+38
0.11189369 0.03785358 0.23600002 -3.270889e+38
0.11265789 0.03785358 0.23600002 -3.2842334e+38
0.11303999 0.03785358 0.23600002 -3.270889e+38
0.11342209 0.03785358 0.23600002 -3.2575446e+38
0.11418629 0.03785358 0.23600002 -3.270889e+38
0.11456838 0.03785358 0.23600002 -3.2842334e+38
0.13765827 0.044590235 0.27800003 -3.3239539e+38
0.13810837 0.044590235 0.27800003 -3.3106095e+38
0.13806005 0.044429839 0.27700001 -3.3372983e+38
0.13895701 0.044429839 0.27700001 -3.3238498e+38
0.13890223 0.044269443 0.27600002 -3.3238498e+38
0.13934909 0.044269443 0.27600002 -3.3637788e+38
0.14024282 0.044269443 0.27600002 -3.3903636e+38
0.14068967 0.044269443 0.27600002 -3.3903636e+38
0.14113654 0.044269443 0.27600002 -3.390364e+38
0.14203025 0.044269443 0.27600002 nan
0.14247712 0.044269443 0.27600002 nan
0.14292398 0.044269443 0.27600002 -3.3376111e+38
0.14337084 0.044269443 0.27600002 -3.3376111e+38
0.14426456 0.044269443 0.27600002 -3.351529e+38
0.14471142 0.044269443 0.27600002 -3.0463289e+38
0.0845249 0.039369792 0.24300002 -3.2986743e+38
0.085744314 0.039207775 0.24200001 -3.3108715e+38
0.086136125 0.039207775 0.24200001 -3.2841823e+38
0.086919747 0.039207775 0.24200001 -3.2310649e+38
0.087311566 0.039207775 0.24200001 -3.2444093e+38
0.087703377 0.039207775 0.24200001 -3.2444097e+38
0.088095188 0.039207775 0.24200001 -3.2310653e+38
0.088878818 0.039207775 0.24200001 -3.2310649e+38
0.089270629 0.039207775 0.24200001 -3.2310649e+38
0.08966244 0.039207775 0.24200001 -3.2310649e+38
0.090446062 0.039207775 0.24200001 -3.2575976e+38
0.090837881 0.039207775 0.24200001 -3.2444093e+38
0.091229692 0.039207775 0.24200001 -3.2444093e+38
0.091633096 0.039045759 0.24100001 -3.2177205e+38
0.092023291 0.039045759 0.24100001 -3.2311164e+38
0.092413485 0.039045759 0.24100001 -3.2311164e+38
0.092803679 0.039045759 0.24100001 -3.2311164e+38
0.093584061 0.039045759 0.24100001 -3.2177205e+38
0.093974255 0.039045759 0.24100001 -3.2177205e+38
0.094361469 0.038883742 0.24000001 -3.2442532e+38
0.094750047 0.038883742 0.24000001 -3.2575976e+38
0.095138624 0.038883742 0.24000001 -3.2575976e+38
0.095527194 0.038883742 0.24000001 -3.2575976e+38
0.096304342 0.038883742 0.24000001 -3.2442532e+38
0.09669292 0.038883742 0.24000001 -3.2309087e+38
0.097081497 0.038883742 0.24000001 -3.2575976e+38
0.097470067 0.038883742 0.24000001 -3.2575976e+38
0.098247215 0.038883742 0.24000001 -3.2442532e+38
0.098635793 0.038883742 0.24000001 -3.2309087e+38
0.09902437 0.038883742 0.24000001 -3.2575976e+38
0.099801518 0.038883742 0.24000001 -3.2442532e+38
0.10019009 0.038883742 0.24000001 -3.2442532e+38
0.10057867 0.038883742 0.24000001 -3.2442532e+38
0.10096724 0.038883742 0.24000001 -3.2575976e+38
0.10174439 0.038883742 0.24000001 -3.2575976e+38
0.10170741 0.038721725 0.23900001 -3.2575976e+38
0.10248132 0.038721725 0.23900001 -3.2575976e+38
0.10286827 0.038721725 0.23900001 -3.2576491e+38
0.10325523 0.038721725 0.23900001 -3.2576491e+38
0.10364219 0.038721725 0.23900001 -3.2442006e+38
0.1044161 0.038721725 0.23900001 -3.2708894e+38
0.10480306 0.038721725 0.23900001 -3.257545e+38
0.10519001 0.038721725 0.23900001 -3.2708379e+38
0.10552056 0.038559709 0.23800001 -3.2574935e+38
0.1059059 0.038559709 0.23800001 -3.2574935e+38
0.10629123 0.038559709 0.23800001 -3.2708894e+38
0.10706191 0.038559709 0.23800001 -3.257545e+38
0.10744724 0.038559709 0.23800001 -3.2708894e+38
0.10783258 0.038559709 0.23800001 -3.2841823e+38
0.10814694 0.038397696 0.23700002 -3.270889e+38
0.10853065 0.038397696 0.23700002 -3.270889e+38
0.10891437 0.038397696 0.23700002 -3.270889e+38
0.10929809 0.038397696 0.23700002 -3.2842334e+38
0.11006552 0.038397696 0.23700002 -3.2708886e+38
0.11044924 0.038397696 0.23700002 -3.2708886e+38
0.11083296 0.038397696 0.23700002 -3.284233e+38
0.11160039 0.038397696 0.23700002 -3.2708894e+38
0.1115116 0.038235679 0.23600002 -3.2708894e+38
0.11189369 0.038235679 0.23600002 -3.2708894e+38
0.11265789 0.038235679 0.23600002 -3.2842338e+38
0.11303999 0.038235679 0.23600002 -3.2842338e+38
0.11342209 0.038235679 0.23600002 -3.2708894e+38
0.11418629 0.038235679 0.23600002 -3.270889e+38
0.11456838 0.038235679 0.23600002 -3.2709931e+38
0.08966244 0.039599586 0.24200001 -3.2310649e+38
0.090446062 0.039599586 0.24200001 -3.2310649e+38
0.090837881 0.039599586 0.24200001 -3.2444093e+38
0.091229692 0.039599586 0.24200001 -3.2444093e+38
0.091621503 0.039599586 0.24200001 -3.2310649e+38
0.092405125 0.039599586 0.24200001 -3.2311164e+38
0.092413485 0.039435949 0.24100001 -3.2311164e+38
0.092803679 0.039435949 0.24100001 -3.2444608e+38
0.093584061 0.039435949 0.24100001 -3.2177205e+38
0.093974255 0.039435949 0.24100001 -3.2310649e+38
0.094364449 0.039435949 0.24100001 -3.2177205e+38
0.095144838 0.039435949 0.24100001 -3.2310649e+38
0.095535032 0.039435949 0.24100001 -3.2310649e+38
0.095925227 0.039435949 0.24100001 -3.2177205e+38
0.096315421 0.039435949 0.24100001 -3.2310649e+38
0.09709581 0.039435949 0.24100001 -3.2177205e+38
0.097486004 0.039435949 0.24100001 -3.2310649e+38
0.097876191 0.039435949 0.24100001 -3.2177205e+38
0.098266385 0.039435949 0.24100001 -3.2177205e+38
0.099046774 0.039435949 0.24100001 -3.2177205e+38
0.099436969 0.039435949 0.24100001 -3.2177205e+38
0.099801518 0.03927232 0.24000001 -3.2177205e+38
0.10019009 0.03927232 0.24000001 -3.2177205e+38
0.10057867 0.03927232 0.24000001 -3.2177205e+38
0.10096724 0.03927232 0.24000001 -3.2310649e+38
0.10174439 0.03927232 0.24000001 -3.2310649e+38
0.10213296 0.03927232 0.24000001 -3.2310649e+38
0.10248132 0.039108682 0.23900001 -3.2310649e+38
0.10286827 0.039108682 0.23900001 -3.2311164e+38
0.10325523 0.039108682 0.23900001 -3.2311164e+38
0.10364219 0.039108682 0.23900001 -3.2443047e+38
0.1044161 0.039108682 0.23900001 -3.2709935e+38
0.10480306 0.039108682 0.23900001 -3.2443047e+38
0.10519001 0.039108682 0.23900001 -3.2575976e+38
0.10557696 0.039108682 0.23900001 -3.2575976e+38
0.10635088 0.039108682 0.23900001 -3.2442532e+38
0.10629123 0.038945045 0.23800001 -3.2576491e+38
0.10706191 0.038945045 0.23800001 -3.2443047e+38
0.10744724 0.038945045 0.23800001 -3.2576491e+38
0.10783258 0.038945045 0.23800001 -3.270942e+38
0.10821792 0.038945045 0.23800001 -3.270942e+38
0.10898859 0.038945045 0.23800001 -3.2576491e+38
0.10937393 0.038945045 0.23800001 -3.2576487e+38
0.10929809 0.038781412 0.23700002 -3.2709931e+38
0.11006552 0.038781412 0.23700002 -3.2576483e+38
0.11044924 0.038781412 0.23700002 -3.270889e+38
0.11083296 0.038781412 0.23700002 -3.2842334e+38
0.11160039 0.038781412 0.23700002 -3.2842338e+38
0.11198411 0.038781412 0.23700002 -3.2708894e+38
0.11236782 0.038781412 0.23700002 -3.2708894e+38
0.11275154 0.038781412 0.23700002 -3.257545e+38
0.11351898 0.038781412 0.23700002 -3.2842338e+38
0.1139027 0.038781412 0.23700002 -3.2708894e+38
0.11428642 0.038781412 0.23700002 -3.270889e+38
0.13761158 0.045326799 0.27700001 -3.2842334e+38
0.13806005 0.045326799 0.27700001 -3.284233e+38
0.13845538 0.045163166 0.27600002 -3.284233e+38
0.13890223 0.045163166 0.27600002 -3.2708886e+38
0.13934909 0.045163166 0.27600002 -3.2974213e+38
0.14024282 0.045163166 0.27600002 -3.3372987e+38
0.14068967 0.045163166 0.27600002 -3.3372987e+38
0.14113654 0.045163166 0.27600002 -3.3239547e+38
0.14203025 0.045163166 0.27600002 -3.3374553e+38
0.14247712 0.045163166 0.27600002 -3.3507997e+38
0.14292398 0.045163166 0.27600002 -3.3109222e+38
0.14337084 0.045163166 0.27600002 -3.2842334e+38
0.14374186 0.044999529 0.27500001 -3.2182941e+38
0.086098626 0.040156655 0.24300002 -3.2841827e+38
0.086492062 0.040156655 0.24300002 -3.2841823e+38
0.08688549 0.040156655 0.24300002 -3.2708379e+38
0.087672353 0.040156655 0.24300002 -3.2444093e+38
0.088065788 0.040156655 0.24300002 -3.2311175e+38
0.088459216 0.040156655 0.24300002 -3.2311175e+38
0.088852651 0.040156655 0.24300002 -3.2310649e+38
0.089639515 0.040156655 0.24300002 -3.2310649e+38
0.13800851 0.045610026 0.27600002 -3.2576487e+38
0.13795371 0.045444772 0.27500001 -3.2709927e+38
0.13839896 0.045444772 0.27500001 -3.2709927e+38
0.13928944 0.045444772 0.27500001 -3.2708886e+38
0.13973469 0.045444772 0.27500001 -3.3107665e+38
0.14017992 0.045444772 0.27500001 -3.3374553e+38
0.14113654 0.045610026 0.27600002 -3.2973706e+38
0.14203025 0.045610026 0.27600002 -3.3108715e+38
0.14247712 0.045610026 0.27600002 -3.3242159e+38
0.14240614 0.045444772 0.27500001 -3.2709935e+38
0.14329661 0.045444772 0.27500001 -3.1916578e+38
0.14374186 0.045444772 0.27500001 -3.164969e+38
0.084082641 0.040716957 0.24400002 -3.3529373e+38
0.084918335 0.040550087 0.24300002 -3.3644579e+38
0.085311763 0.040550087 0.24300002 -3.3110802e+38
0.086098626 0.040550087 0.24300002 -3.2841827e+38
0.086492062 0.040550087 0.24300002 -3.2841823e+38
0.08688549 0.040550087 0.24300002 -3.2841823e+38
0.087672353 0.040550087 0.24300002 -3.2444093e+38
0.088065788 0.040550087 0.24300002 -3.2311175e+38
0.088459216 0.040550087 0.24300002 -3.217773e+38
0.088852651 0.040550087 0.24300002 -3.2310649e+38
0.089639515 0.040550087 0.24300002 -3.2177205e+38
0.090032943 0.040550087 0.24300002 -3.2310649e+38
0.090426378 0.040550087 0.24300002 -3.2444093e+38
0.091213241 0.040550087 0.24300002 -3.2444093e+38
0.091229692 0.040383212 0.24200001 -3.2310649e+38
0.091621503 0.040383212 0.24200001 -3.2310649e+38
0.092405125 0.040383212 0.24200001 -3.2311164e+38
0.092796944 0.040383212 0.24200001 -3.2311164e+38
0.093188755 0.040383212 0.24200001 -3.2311164e+38
0.093580566 0.040383212 0.24200001 -3.217772e+38
0.093974255 0.040216338 0.24100001 -3.2575976e+38
0.094364449 0.040216338 0.24100001 -3.2575976e+38
0.095147818 0.040383212 0.24200001 -3.2442532e+38
0.095931441 0.040383212 0.24200001 -3.2575976e+38
0.095925227 0.040216338 0.24100001 -3.2442532e+38
0.096315421 0.040216338 0.24100001 -3.2442532e+38
0.09709581 0.040216338 0.24100001 -3.2177205e+38
0.097486004 0.040216338 0.24100001 -3.2177205e+38
0.097876191 0.040216338 0.24100001 -3.2177205e+38
0.098266385 0.040216338 0.24100001 -3.2177205e+38
0.099046774 0.040216338 0.24100001 -3.2177205e+38
0.099436969 0.040216338 0.24100001 -3.2177205e+38
0.099827163 0.040216338 0.24100001 -3.2177205e+38
0.10060755 0.040216338 0.24100001 -3.2177205e+38
0.10099775 0.040216338 0.24100001 -3.2310649e+38
0.10096724 0.040049467 0.24000001 -3.2310649e+38
0.10174439 0.040049467 0.24000001 -3.2310649e+38
0.10213296 0.040049467 0.24000001 -3.2310649e+38
0.10252154 0.040049467 0.24000001 -3.2310649e+38
0.10329869 0.040049467 0.24000001 -3.2310649e+38
0.10368726 0.040049467 0.24000001 -3.2310649e+38
0.10364219 0.039882593 0.23900001 -3.2443047e+38
0.1044161 0.039882593 0.23900001 -3.2709935e+38
0.10480306 0.039882593 0.23900001 -3.2443047e+38
0.10519001 0.039882593 0.23900001 -3.2576491e+38
0.10557696 0.039882593 0.23900001 -3.2443047e+38
0.10635088 0.039882593 0.23900001 -3.2576491e+38
0.10673783 0.039882593 0.23900001 -3.2976823e+38
0.10712479 0.039882593 0.23900001 -3.2709935e+38
0.10744724 0.039715718 0.23800001 -3.2709935e+38
0.10783258 0.039715718 0.23800001 -3.2976823e+38
0.10821792 0.039715718 0.23800001 -3.2709935e+38
0.10898859 0.039715718 0.23800001 -3.2576487e+38
0.10937393 0.039715718 0.23800001 -3.2576487e+38
0.10975926 0.039715718 0.23800001 -3.2709931e+38
0.1101446 0.039715718 0.23800001 -3.2709931e+38
0.11091527 0.039715718 0.23800001 -3.2576491e+38
0.11083296 0.039548848 0.23700002 -3.2709935e+38
0.11160039 0.039548848 0.23700002 -3.2709935e+38
0.11198411 0.039548848 0.23700002 -3.2709935e+38
0.11236782 0.039548848 0.23700002 -3.2576491e+38
0.11275154 0.039548848 0.23700002 -3.2576491e+38
0.11351898 0.039548848 0.23700002 -3.2709935e+38
0.1139027 0.039548848 0.23700002 -3.2576491e+38
0.11428642 0.039548848 0.23700002 -3.2576491e+38
0.13750847 0.045890015 0.27500001 -3.2576491e+38
0.13795371 0.045890015 0.27500001 -3.2709931e+38
0.13839896 0.045890015 0.27500001 -3.2976819e+38
0.13878293 0.04572314 0.27400002 -3.2576491e+38
0.13973469 0.045890015 0.27500001 -3.2708379e+38
0.14017992 0.045890015 0.27500001 -3.2841823e+38
0.14062516 0.045890015 0.27500001 -3.2708383e+38
0.14240614 0.045890015 0.27500001 -3.2710985e+38
0.14329661 0.045890015 0.27500001 -3.125197e+38
0.14374186 0.045890015 0.27500001 -3.3387075e+38
0.084082641 0.041112006 0.24400002 -3.2595264e+38
0.08526779 0.041112006 0.24400002 -3.3643017e+38
0.085662842 0.041112006 0.24400002 -3.3242685e+38
0.086057894 0.041112006 0.24400002 -3.2841827e+38
0.086847991 0.041112006 0.24400002 -3.2841823e+38
0.087243043 0.041112006 0.24400002 -3.2841823e+38
0.087672353 0.040943518 0.24300002 -3.2444093e+38
0.088065788 0.040943518 0.24300002 -3.217773e+38
0.088459216 0.040943518 0.24300002 -3.217773e+38
0.088852651 0.040943518 0.24300002 -3.2310649e+38
0.089639515 0.040943518 0.24300002 -3.2310649e+38
0.090032943 0.040943518 0.24300002 -3.2444093e+38
0.090426378 0.040943518 0.24300002 -3.2444093e+38
0.091213241 0.040943518 0.24300002 -3.2310649e+38
0.091606669 0.040943518 0.24300002 -3.2310649e+38
0.092000104 0.040943518 0.24300002 -3.2310649e+38
0.092405125 0.040775023 0.24200001 -3.2311164e+38
0.092796944 0.040775023 0.24200001 -3.217772e+38
0.093188755 0.040775023 0.24200001 -3.2311164e+38
0.093580566 0.040775023 0.24200001 -3.217772e+38
0.094364189 0.040775023 0.24200001 -3.2576491e+38
0.094756007 0.040775023 0.24200001 -3.2576491e+38
0.095147818 0.040775023 0.24200001 -3.2443047e+38
0.095931441 0.040775023 0.24200001 -3.2443047e+38
0.096323259 0.040775023 0.24200001 -3.2442532e+38
0.09671507 0.040775023 0.24200001 -3.2575976e+38
0.097106881 0.040775023 0.24200001 -3.2310649e+38
0.097890504 0.040775023 0.24200001 -3.2177205e+38
0.098282322 0.040775023 0.24200001 -3.2177205e+38
0.098674133 0.040775023 0.24200001 -3.2177205e+38
0.099046774 0.040606532 0.24100001 -3.2177205e+38
0.099436969 0.040606532 0.24100001 -3.2177205e+38
0.099827163 0.040606532 0.24100001 -3.2177205e+38
0.10060755 0.040606532 0.24100001 -3.2177205e+38
0.10099775 0.040606532 0.24100001 -3.2310649e+38
0.10138794 0.040606532 0.24100001 -3.2310649e+38
0.10177813 0.040606532 0.24100001 -3.2310649e+38
0.10213296 0.040438041 0.24000001 -3.2310649e+38
0.10252154 0.040438041 0.24000001 -3.2310649e+38
0.10329869 0.040438041 0.24000001 -3.2310649e+38
0.10368726 0.040438041 0.24000001 -3.2310649e+38
0.10407583 0.040438041 0.24000001 -3.2442532e+38
0.10446441 0.040438041 0.24000001 -3.2575976e+38
0.10524156 0.040438041 0.24000001 -3.2443047e+38
0.10519001 0.04026955 0.23900001 -3.2576491e+38
0.10557696 0.04026955 0.23900001 -3.2576491e+38
0.10635088 0.04026955 0.23900001 -3.2576491e+38
0.10673783 0.04026955 0.23900001 -3.2709935e+38
0.10712479 0.04026955 0.23900001 -3.2709935e+38
0.1078987 0.04026955 0.23900001 -3.2709935e+38
0.10828566 0.04026955 0.23900001 -3.2709935e+38
0.10867261 0.04026955 0.23900001 -3.2709935e+38
0.10898859 0.040101055 0.23800001 -3.2576487e+38
0.10937393 0.040101055 0.23800001 -3.2576487e+38
0.10975926 0.040101055 0.23800001 -3.2709931e+38
0.1101446 0.040101055 0.23800001 -3.2709935e+38
0.11091527 0.040101055 0.23800001 -3.2576491e+38
0.11130061 0.040101055 0.23800001 -3.2709935e+38
0.11168595 0.040101055 0.23800001 -3.270942e+38
0.11245662 0.040101055 0.23800001 -3.2709935e+38
0.11236782 0.039932564 0.23700002 -3.2709935e+38
0.11275154 0.039932564 0.23700002 -3.2709935e+38
0.11351898 0.039932564 0.23700002 -3.2709935e+38
0.1139027 0.039932564 0.23700002 -3.2709935e+38
0.13562441 0.045998272 0.273 -3.2709935e+38
0.13878293 0.046166766 0.27400002 -3.2442532e+38
0.13922656 0.046166766 0.27400002 -3.2575976e+38
0.13967018 0.046166766 0.27400002 -3.270942e+38
0.14055742 0.046166766 0.27400002 -3.2976312e+38
0.14100105 0.046166766 0.27400002 -3.3109241e+38
0.084427238 0.04167717 0.245 -3.2459218e+38
0.08526779 0.041507058 0.24400002 -3.3509573e+38
0.085662842 0.041507058 0.24400002 -3.3242685e+38
0.086057894 0.041507058 0.24400002 -3.2841827e+38
0.086847991 0.041507058 0.24400002 -3.2841823e+38
0.087243043 0.041507058 0.24400002 -3.2841823e+38
0.087638095 0.041507058 0.24400002 -3.270942e+38
0.088428199 0.041507058 0.24400002 -3.2444093e+38
0.088823251 0.041507058 0.24400002 -3.2310649e+38
0.089218296 0.041507058 0.24400002 -3.2310649e+38
0.089613348 0.041507058 0.24400002 -3.2310649e+38
0.090403453 0.041507058 0.24400002 -3.2444093e+38
0.090426378 0.04133695 0.24300002 -3.2444093e+38
0.091213241 0.04133695 0.24300002 -3.2310649e+38
0.091606669 0.04133695 0.24300002 -3.2310649e+38
0.092000104 0.04133695 0.24300002 -3.2177205e+38
0.092393532 0.04133695 0.24300002 -3.2177205e+38
0.093180403 0.04133695 0.24300002 -3.2311164e+38
0.093188755 0.041166838 0.24200001 -3.2311164e+38
0.093967266 0.04133695 0.24300002 -3.2311164e+38
0.094360694 0.04133695 0.24300002 -3.2443047e+38
0.095147558 0.04133695 0.24300002 -3.2576491e+38
0.095147818 0.041166838 0.24200001 -3.2443047e+38
0.095931441 0.041166838 0.24200001 -3.2576491e+38
0.096323259 0.041166838 0.24200001 -3.2442532e+38
0.09671507 0.041166838 0.24200001 -3.2575976e+38
0.097106881 0.041166838 0.24200001 -3.2310649e+38
0.097890504 0.041166838 0.24200001 -3.2177205e+38
0.098282322 0.041166838 0.24200001 -3.2177205e+38
0.098674133 0.041166838 0.24200001 -3.2043761e+38
0.099457756 0.041166838 0.24200001 -3.2177205e+38
0.099849567 0.041166838 0.24200001 -3.2310649e+38
0.10024139 0.041166838 0.24200001 -3.2310649e+38
0.1006332 0.041166838 0.24200001 -3.2177205e+38
0.10099775 0.040996727 0.24100001 -3.2310649e+38
0.10138794 0.040996727 0.24100001 -3.2310649e+38
0.10177813 0.040996727 0.24100001 -3.2310649e+38
0.10255852 0.040996727 0.24100001 -3.2310649e+38
0.10294871 0.040996727 0.24100001 -3.2177205e+38
0.10329869 0.040826615 0.24000001 -3.2310649e+38
0.10368726 0.040826615 0.24000001 -3.2444093e+38
0.10407583 0.040826615 0.24000001 -3.2575976e+38
0.10446441 0.040826615 0.24000001 -3.2575976e+38
0.10524156 0.040826615 0.24000001 -3.2576491e+38
0.10563014 0.040826615 0.24000001 -3.2576491e+38
0.10601871 0.040826615 0.24000001 -3.2576491e+38
0.10635088 0.040656503 0.23900001 -3.2576491e+38
0.10673783 0.040656503 0.23900001 -3.2709935e+38
0.10712479 0.040656503 0.23900001 -3.2709935e+38
0.1078987 0.040656503 0.23900001 -3.2576491e+38
0.10828566 0.040656503 0.23900001 -3.2709935e+38
0.10867261 0.040656503 0.23900001 -3.2709935e+38
0.10905956 0.040656503 0.23900001 -3.2709931e+38
0.10983348 0.040656503 0.23900001 -3.2709931e+38
0.11022043 0.040656503 0.23900001 -3.2709931e+38
0.1101446 0.040486392 0.23800001 -3.2709935e+38
0.11091527 0.040486392 0.23800001 -3.2575976e+38
0.11130061 0.040486392 0.23800001 -3.270942e+38
0.11168595 0.040486392 0.23800001 -3.270942e+38
0.11245662 0.040486392 0.23800001 -3.2709935e+38
0.11284196 0.040486392 0.23800001 -3.2709935e+38
0.11322729 0.040486392 0.23800001 -3.2709935e+38
0.1347404 0.046882279 0.273 -3.2976312e+38
0.1351276 0.046710547 0.27200001 -3.2709424e+38
0.13556799 0.046710547 0.27200001 -3.270942e+38
0.13600838 0.046710547 0.27200001 -3.2575976e+38
0.13695042 0.046882279 0.273 -3.2444093e+38
0.13783443 0.046882279 0.273 -3.2444097e+38
0.13827643 0.046882279 0.273 -3.2177209e+38
0.13871843 0.046882279 0.273 -3.2310138e+38
0.13967018 0.047054011 0.27400002 -3.271047e+38
0.14004444 0.046882279 0.273 -3.271047e+38
0.14048645 0.046882279 0.273 -3.2843914e+38
0.084030569 0.042470511 0.245 nan
0.084427238 0.042470511 0.245 -3.2854855e+38
0.085617252 0.042470511 0.245 -3.3509048e+38
0.086013921 0.042470511 0.245 -3.3242159e+38
0.086057894 0.042297158 0.24400002 -3.2841823e+38
0.086847991 0.042297158 0.24400002 -3.2842338e+38
0.087243043 0.042297158 0.24400002 -3.2842338e+38
0.087638095 0.042297158 0.24400002 -3.2709935e+38
0.088428199 0.042297158 0.24400002 -3.2444608e+38
0.088823251 0.042297158 0.24400002 -3.2311164e+38
0.089218296 0.042297158 0.24400002 -3.2177205e+38
0.089613348 0.042297158 0.24400002 -3.2310649e+38
0.090403453 0.042297158 0.24400002 -3.2444093e+38
0.090798505 0.042297158 0.24400002 -3.2444093e+38
0.091193549 0.042297158 0.24400002 -3.2310649e+38
0.091983654 0.042297158 0.24400002 -3.2177726e+38
0.092000104 0.042123813 0.24300002 -3.2044282e+38
0.092393532 0.042123813 0.24300002 -3.2044282e+38
0.09316881 0.042297158 0.24400002 -3.2311164e+38
0.093958907 0.042297158 0.24400002 -3.2311164e+38
0.093967266 0.042123813 0.24300002 -3.2311164e+38
0.094360694 0.042123813 0.24300002 -3.2576491e+38
0.095147558 0.042123813 0.24300002 -3.2443047e+38
0.095540993 0.042123813 0.24300002 -3.2443047e+38
0.095934421 0.042123813 0.24300002 -3.2575976e+38
0.096721284 0.042123813 0.24300002 -3.2442532e+38
0.097114719 0.042123813 0.24300002 -3.2575976e+38
0.097106881 0.041950461 0.24200001 -3.2310649e+38
0.097890504 0.041950461 0.24200001 -3.2177205e+38
0.098282322 0.041950461 0.24200001 -3.2177205e+38
0.098674133 0.041950461 0.24200001 -3.2043765e+38
0.099457756 0.041950461 0.24200001 -3.2177205e+38
0.099849567 0.041950461 0.24200001 -3.2310649e+38
0.10024139 0.041950461 0.24200001 -3.2310649e+38
0.1006332 0.041950461 0.24200001 -3.2177205e+38
0.10141682 0.041950461 0.24200001 -3.2310649e+38
0.10180863 0.041950461 0.24200001 -3.2310649e+38
0.10220045 0.041950461 0.24200001 -3.2310649e+38
0.10255852 0.041777112 0.24100001 -3.2177205e+38
0.10294871 0.041777112 0.24100001 -3.2177205e+38
