# .PCD v0.7 - Point Cloud Data file format
VERSION 0.7
FIELDS x y z rgb
SIZE 4 4 4 4
TYPE F F F F
COUNT 1 1 1 1
WIDTH 1129
HEIGHT 1
VIEWPOINT 0 0 0 1 0 0 0
POINTS 1129
DATA ascii
0.095423065 -0.010368858 0.29200003 nan
0.095895827 -0.010368858 0.29200003 nan
0.096368596 -0.010368858 0.29200003 nan
0.097314127 -0.010368858 0.29200003 nan
0.097786896 -0.010368858 0.29200003 nan
0.098259658 -0.010368858 0.29200003 nan
0.099205188 -0.010368858 0.29200003 nan
0.099677958 -0.010368858 0.29200003 nan
0.10015072 -0.010368858 0.29200003 nan
0.10062349 -0.010368858 0.29200003 nan
0.10156902 -0.010368858 0.29200003 nan
0.10204178 -0.010368858 0.29200003 nan
0.10251455 -0.010368858 0.29200003 nan
0.10298732 -0.010368858 0.29200003 nan
0.10428878 -0.010404368 0.29300001 nan
0.10476317 -0.010404368 0.29300001 nan
0.10523755 -0.010404368 0.29300001 nan
0.10571194 -0.010404368 0.29300001 nan
0.10629667 -0.010368858 0.29200003 nan
0.10676944 -0.010368858 0.29200003 nan
0.10734608 -0.010333349 0.29100001 nan
0.10781723 -0.010333349 0.29100001 nan
0.10828838 -0.010333349 0.29100001 nan
0.10875952 -0.010333349 0.29100001 nan
0.1100788 -0.010368858 0.29200003 nan
0.11055157 -0.010368858 0.29200003 nan
0.11102434 -0.010368858 0.29200003 nan
0.1114971 -0.010368858 0.29200003 nan
0.11244263 -0.010368858 0.29200003 nan
0.1133021 -0.010404368 0.29300001 nan
0.11377648 -0.010404368 0.29300001 nan
0.11425087 -0.010404368 0.29300001 nan
0.11519964 -0.010404368 0.29300001 nan
0.11567403 -0.010404368 0.29300001 nan
0.1161484 -0.010404368 0.29300001 nan
0.11702082 -0.010439878 0.294 nan
0.11797282 -0.010439878 0.294 nan
0.11844883 -0.010439878 0.294 nan
0.077862538 -0.010133328 0.29900002 -2.9532831e+38
0.078346632 -0.010133328 0.29900002 -3.2981003e+38
0.078830734 -0.010133328 0.29900002 -3.2580671e+38
0.07953205 -0.010099437 0.29800001 -3.2978385e+38
0.080014527 -0.010099437 0.29800001 -3.3906763e+38
0.080497004 -0.010099437 0.29800001 -3.3773319e+38
0.081461966 -0.010099437 0.29800001 nan
0.081669465 -0.010065546 0.29700002 nan
0.082150325 -0.010065546 0.29700002 nan
0.08283221 -0.010031656 0.296 nan
0.083311453 -0.010031656 0.296 nan
0.083790697 -0.010031656 0.296 nan
0.084462866 -0.0099977655 0.29500002 nan
0.084940486 -0.0099977655 0.29500002 nan
0.085895732 -0.0099977655 0.29500002 nan
0.086373359 -0.0099977655 0.29500002 nan
0.086850978 -0.0099977655 0.29500002 nan
0.087508574 -0.0099638747 0.294 nan
0.087984584 -0.0099638747 0.294 nan
0.088460587 -0.0099638747 0.294 nan
0.089108467 -0.0099299839 0.29300001 nan
0.089582853 -0.0099299839 0.29300001 nan
0.089749873 -0.009896093 0.29200003 nan
0.090695404 -0.009896093 0.29200003 nan
0.091168173 -0.009896093 0.29200003 nan
0.091640942 -0.009896093 0.29200003 nan
0.092113703 -0.009896093 0.29200003 nan
0.093059234 -0.009896093 0.29200003 nan
0.093211688 -0.0098622022 0.29100001 nan
0.093682833 -0.0098622022 0.29100001 nan
0.09462513 -0.0098622022 0.29100001 nan
0.095096275 -0.0098622022 0.29100001 nan
0.09556742 -0.0098622022 0.29100001 nan
0.09650971 -0.0098622022 0.29100001 nan
0.096980862 -0.0098622022 0.29100001 nan
0.097452007 -0.0098622022 0.29100001 nan
0.097923152 -0.0098622022 0.29100001 nan
0.098865449 -0.0098622022 0.29100001 nan
0.099336594 -0.0098622022 0.29100001 nan
0.099807739 -0.0098622022 0.29100001 nan
0.10075004 -0.0098622022 0.29100001 nan
0.10122118 -0.0098622022 0.29100001 nan
0.10169233 -0.0098622022 0.29100001 nan
0.10216347 -0.0098622022 0.29100001 nan
0.10310577 -0.0098622022 0.29100001 nan
0.10393285 -0.009896093 0.29200003 nan
0.10440561 -0.009896093 0.29200003 nan
0.10487838 -0.009896093 0.29200003 nan
0.10582391 -0.009896093 0.29200003 nan
0.10629667 -0.009896093 0.29200003 nan
0.10640379 -0.0098622022 0.29100001 nan
0.10734608 -0.0098622022 0.29100001 nan
0.10781723 -0.0098622022 0.29100001 nan
0.10828838 -0.0098622022 0.29100001 nan
0.10875952 -0.0098622022 0.29100001 nan
0.10970181 -0.0098622022 0.29100001 nan
0.11017296 -0.0098622022 0.29100001 nan
0.11064411 -0.0098622022 0.29100001 nan
0.1115864 -0.0098622022 0.29100001 nan
0.11244263 -0.009896093 0.29200003 nan
0.1129154 -0.009896093 0.29200003 nan
0.11338817 -0.009896093 0.29200003 nan
0.1143337 -0.009896093 0.29200003 nan
0.11480646 -0.009896093 0.29200003 nan
0.11527923 -0.009896093 0.29200003 nan
0.1161484 -0.0099299839 0.29300001 nan
0.11662279 -0.0099299839 0.29300001 nan
0.11797282 -0.0099638747 0.294 nan
0.078346632 -0.0096492292 0.29900002 -3.2979441e+38
0.078830734 -0.0096492292 0.29900002 -3.2712553e+38
0.079798929 -0.0096492292 0.29900002 -3.3243196e+38
0.080283031 -0.0096492292 0.29900002 -3.3773323e+38
0.080497004 -0.009616957 0.29800001 -3.3639879e+38
0.081461966 -0.009616957 0.29800001 nan
0.081669465 -0.0095846858 0.29700002 nan
0.082150325 -0.0095846858 0.29700002 nan
0.08283221 -0.0095524145 0.296 nan
0.083311453 -0.0095524145 0.296 nan
0.083790697 -0.0095524145 0.296 nan
0.084462866 -0.0095201423 0.29500002 nan
0.084940486 -0.0095201423 0.29500002 nan
0.085895732 -0.0095201423 0.29500002 nan
0.086373359 -0.0095201423 0.29500002 nan
0.086556569 -0.0094878711 0.294 nan
0.087508574 -0.0094878711 0.294 nan
0.087984584 -0.0094878711 0.294 nan
0.088159695 -0.0094555989 0.29300001 nan
0.089108467 -0.0094555989 0.29300001 nan
0.089277111 -0.0094233276 0.29200003 nan
0.089749873 -0.0094233276 0.29200003 nan
0.090695404 -0.0094233276 0.29200003 nan
0.091168173 -0.0094233276 0.29200003 nan
0.091327101 -0.0093910554 0.29100001 nan
0.092269391 -0.0093910554 0.29100001 nan
0.092740543 -0.0093910554 0.29100001 nan
0.093211688 -0.0093910554 0.29100001 nan
0.093682833 -0.0093910554 0.29100001 nan
0.094299957 -0.0093587842 0.29000002 nan
0.094769485 -0.0093587842 0.29000002 nan
0.095239013 -0.0093587842 0.29000002 nan
0.096178062 -0.0093587842 0.29000002 nan
0.09664759 -0.0093587842 0.29000002 nan
0.097117119 -0.0093587842 0.29000002 nan
0.098056175 -0.0093587842 0.29000002 nan
0.098525703 -0.0093587842 0.29000002 nan
0.098995231 -0.0093587842 0.29000002 nan
0.099464759 -0.0093587842 0.29000002 nan
0.10040382 -0.0093587842 0.29000002 nan
0.10087334 -0.0093587842 0.29000002 nan
0.10134287 -0.0093587842 0.29000002 nan
0.10228192 -0.0093587842 0.29000002 nan
0.10275145 -0.0093587842 0.29000002 nan
0.10322098 -0.0093587842 0.29000002 nan
0.10404806 -0.0093910554 0.29100001 nan
0.10499036 -0.0093910554 0.29100001 nan
0.1054615 -0.0093910554 0.29100001 nan
0.10593265 -0.0093910554 0.29100001 nan
0.10650767 -0.0093587842 0.29000002 nan
0.1069772 -0.0093587842 0.29000002 nan
0.10744673 -0.0093587842 0.29000002 nan
0.10791626 -0.0093587842 0.29000002 nan
0.10885531 -0.0093587842 0.29000002 nan
0.10932484 -0.0093587842 0.29000002 nan
0.10979436 -0.0093587842 0.29000002 nan
0.11064411 -0.0093910554 0.29100001 nan
0.1115864 -0.0093910554 0.29100001 nan
0.11205754 -0.0093910554 0.29100001 nan
0.1125287 -0.0093910554 0.29100001 nan
0.11299984 -0.0093910554 0.29100001 nan
0.11394213 -0.0093910554 0.29100001 nan
0.11441328 -0.0093910554 0.29100001 nan
0.11488443 -0.0093910554 0.29100001 nan
0.11575199 -0.0094233276 0.29200003 nan
0.11662279 -0.0094555989 0.29300001 nan
0.11757156 -0.0094555989 0.29300001 nan
0.11804595 -0.0094555989 0.29300001 nan
0.078608662 -0.008710064 0.30000001 -3.3244247e+38
0.07909438 -0.008710064 0.30000001 -3.3110802e+38
0.079798929 -0.0086810309 0.29900002 -3.3509044e+38
0.080283031 -0.0086810309 0.29900002 -3.3640926e+38
0.080767132 -0.0086810309 0.29900002 -3.3507482e+38
0.081735328 -0.0086810309 0.29900002 -3.3905723e+38
0.081944443 -0.008651997 0.29800001 nan
0.082426928 -0.008651997 0.29800001 -3.3905719e+38
0.083112046 -0.0086229639 0.29700002 -3.3771232e+38
0.083592907 -0.0086229639 0.29700002 nan
0.083790697 -0.0085939309 0.296 nan
0.084749177 -0.0085939309 0.296 nan
0.084940486 -0.0085648969 0.29500002 nan
0.085895732 -0.0085648969 0.29500002 nan
0.086373359 -0.0085648969 0.29500002 nan
0.086556569 -0.0085358638 0.294 nan
0.087508574 -0.0085358638 0.294 nan
0.087685317 -0.0085068299 0.29300001 nan
0.088159695 -0.0085068299 0.29300001 nan
0.088804342 -0.0084777959 0.29200003 nan
0.089277111 -0.0084777959 0.29200003 nan
0.089442514 -0.0084487619 0.29100001 nan
0.090384804 -0.0084487619 0.29100001 nan
0.090855956 -0.0084487619 0.29100001 nan
0.09101326 -0.0084197288 0.29000002 nan
0.091952316 -0.0084197288 0.29000002 nan
0.092103146 -0.0083906949 0.289 nan
0.093038969 -0.0083906949 0.289 nan
0.093506873 -0.0083906949 0.289 nan
0.093649611 -0.0083616618 0.28800002 nan
0.094582193 -0.0083616618 0.28800002 nan
0.09504848 -0.0083616618 0.28800002 nan
0.095514767 -0.0083616618 0.28800002 nan
0.095981061 -0.0083616618 0.28800002 nan
0.096913636 -0.0083616618 0.28800002 nan
0.09737993 -0.0083616618 0.28800002 nan
0.097846217 -0.0083616618 0.28800002 nan
0.098778792 -0.0083616618 0.28800002 nan
0.099245086 -0.0083616618 0.28800002 nan
0.099711373 -0.0083616618 0.28800002 nan
0.10017766 -0.0083616618 0.28800002 nan
0.10111024 -0.0083616618 0.28800002 nan
0.10157653 -0.0083616618 0.28800002 nan
0.10239714 -0.0083906949 0.289 nan
0.10286505 -0.0083906949 0.289 nan
0.10462956 -0.0084197288 0.29000002 nan
0.10509909 -0.0084197288 0.29000002 nan
0.1061404 -0.0083906949 0.289 nan
0.10660831 -0.0083906949 0.289 nan
0.10707621 -0.0083906949 0.289 nan
0.10801204 -0.0083906949 0.289 nan
0.10847994 -0.0083906949 0.289 nan
0.10894785 -0.0083906949 0.289 nan
0.10979436 -0.0084197288 0.29000002 nan
0.11026389 -0.0084197288 0.29000002 nan
0.11120295 -0.0084197288 0.29000002 nan
0.11167248 -0.0084197288 0.29000002 nan
0.112142 -0.0084197288 0.29000002 nan
0.11308106 -0.0084197288 0.29000002 nan
0.11355059 -0.0084197288 0.29000002 nan
0.11402012 -0.0084197288 0.29000002 nan
0.11448964 -0.0084197288 0.29000002 nan
0.078608662 -0.0082243457 0.30000001 -3.3244247e+38
0.07909438 -0.0082243457 0.30000001 -3.3110802e+38
0.080065817 -0.0082243457 0.30000001 -3.3509044e+38
0.080551535 -0.0082243457 0.30000001 -3.3641441e+38
0.080767132 -0.0081969323 0.29900002 -3.3641441e+38
0.081735328 -0.0081969323 0.29900002 -3.3773319e+38
0.082219429 -0.0081969323 0.29900002 -3.3906759e+38
0.082426928 -0.0081695169 0.29800001 -3.3773315e+38
0.083112046 -0.0081421025 0.29700002 nan
0.083592907 -0.0081421025 0.29700002 nan
0.083790697 -0.008114689 0.296 nan
0.084749177 -0.008114689 0.296 nan
0.085228421 -0.008114689 0.296 nan
0.085895732 -0.0080872737 0.29500002 nan
0.086373359 -0.0080872737 0.29500002 nan
0.086556569 -0.0080598593 0.294 nan
0.087508574 -0.0080598593 0.294 nan
0.087685317 -0.0080324449 0.29300001 nan
0.088159695 -0.0080324449 0.29300001 nan
0.088804342 -0.0080050305 0.29200003 nan
0.089277111 -0.0080050305 0.29200003 nan
0.089442514 -0.007977616 0.29100001 nan
0.090384804 -0.007977616 0.29100001 nan
0.090543732 -0.0079502016 0.29000002 nan
0.09101326 -0.0079502016 0.29000002 nan
0.091635242 -0.0079227863 0.289 nan
0.092103146 -0.0079227863 0.289 nan
0.093038969 -0.0079227863 0.289 nan
0.093183324 -0.0078953728 0.28800002 nan
0.093649611 -0.0078953728 0.28800002 nan
0.094582193 -0.0078953728 0.28800002 nan
0.09504848 -0.0078953728 0.28800002 nan
0.095514767 -0.0078953728 0.28800002 nan
0.095981061 -0.0078953728 0.28800002 nan
0.09657713 -0.0078679584 0.287 nan
0.097041801 -0.0078679584 0.287 nan
0.097506471 -0.0078679584 0.287 nan
0.098435812 -0.0078679584 0.287 nan
0.098900482 -0.0078679584 0.287 nan
0.099365152 -0.0078679584 0.287 nan
0.10029449 -0.0078679584 0.287 nan
0.10075916 -0.0078679584 0.287 nan
0.10122383 -0.0078679584 0.287 nan
0.1016885 -0.0078679584 0.287 nan
0.10261784 -0.0078679584 0.287 nan
0.10308252 -0.0078679584 0.287 nan
0.10354719 -0.0078679584 0.287 nan
0.10447653 -0.0078679584 0.287 nan
0.10457555 -0.0078405431 0.28600001 nan
0.10503861 -0.0078405431 0.28600001 nan
0.10596471 -0.0078405431 0.28600001 nan
0.10642776 -0.0078405431 0.28600001 nan
0.10689081 -0.0078405431 0.28600001 nan
0.10772922 -0.0078679584 0.287 nan
0.10819389 -0.0078679584 0.287 nan
0.10912323 -0.0078679584 0.287 nan
0.1095879 -0.0078679584 0.287 nan
0.11043603 -0.0078953728 0.28800002 nan
0.11090232 -0.0078953728 0.28800002 nan
0.1118349 -0.0078953728 0.28800002 nan
0.11230119 -0.0078953728 0.28800002 nan
0.11276748 -0.0078953728 0.28800002 nan
0.11370006 -0.0078953728 0.28800002 nan
0.11416635 -0.0078953728 0.28800002 nan
0.11463264 -0.0078953728 0.28800002 nan
0.078608662 -0.007738628 0.30000001 -3.3509573e+38
0.07909438 -0.007738628 0.30000001 -3.3376129e+38
0.080065817 -0.007738628 0.30000001 -3.3375599e+38
0.080551535 -0.007738628 0.30000001 -3.3641441e+38
0.081037253 -0.007738628 0.30000001 -3.3641441e+38
0.081735328 -0.0077128327 0.29900002 -3.3906763e+38
0.082219429 -0.0077128327 0.29900002 -3.3906759e+38
0.082426928 -0.0076870369 0.29800001 -3.3773315e+38
0.08339189 -0.0076870369 0.29800001 nan
0.083592907 -0.007661242 0.29700002 nan
0.084073775 -0.007661242 0.29700002 nan
0.084749177 -0.0076354467 0.296 nan
0.085228421 -0.0076354467 0.296 nan
0.085895732 -0.007609651 0.29500002 nan
0.086373359 -0.007609651 0.29500002 -3.3904151e+38
0.086556569 -0.0075838557 0.294 nan
0.087508574 -0.0075838557 0.294 nan
0.087685317 -0.0075580599 0.29300001 nan
0.088159695 -0.0075580599 0.29300001 nan
0.088804342 -0.007532265 0.29200003 nan
0.089277111 -0.007532265 0.29200003 nan
0.089442514 -0.0075064688 0.29100001 nan
0.090074204 -0.007480674 0.29000002 nan
0.090543732 -0.007480674 0.29000002 nan
0.09101326 -0.007480674 0.29000002 nan
0.091635242 -0.0074548782 0.289 nan
0.092103146 -0.0074548782 0.289 nan
0.092717029 -0.0074290829 0.28800002 nan
0.093183324 -0.0074290829 0.28800002 nan
0.093649611 -0.0074290829 0.28800002 nan
0.094582193 -0.0074290829 0.28800002 nan
0.094718449 -0.007403288 0.287 nan
0.095183119 -0.007403288 0.287 nan
0.09611246 -0.007403288 0.287 nan
0.09657713 -0.007403288 0.287 nan
0.097041801 -0.007403288 0.287 nan
0.097506471 -0.007403288 0.287 nan
0.098435812 -0.007403288 0.287 nan
0.098900482 -0.007403288 0.287 nan
0.099365152 -0.007403288 0.287 nan
0.10029449 -0.007403288 0.287 nan
0.10040809 -0.0073774918 0.28600001 nan
0.10087114 -0.0073774918 0.28600001 nan
0.10179725 -0.0073774918 0.28600001 nan
0.10226029 -0.0073774918 0.28600001 nan
0.10272335 -0.0073774918 0.28600001 nan
0.1031864 -0.0073774918 0.28600001 nan
0.1041125 -0.0073774918 0.28600001 nan
0.10457555 -0.0073774918 0.28600001 nan
0.10503861 -0.0073774918 0.28600001 nan
0.1055942 -0.007351697 0.28500003 nan
0.10642776 -0.0073774918 0.28600001 nan
0.10689081 -0.0073774918 0.28600001 nan
0.10735386 -0.0073774918 0.28600001 nan
0.10827997 -0.0073774918 0.28600001 nan
0.10912323 -0.007403288 0.287 nan
0.1095879 -0.007403288 0.287 nan
0.11005257 -0.007403288 0.287 nan
0.11098191 -0.007403288 0.287 nan
0.1118349 -0.0074290829 0.28800002 nan
0.11230119 -0.0074290829 0.28800002 nan
0.11276748 -0.0074290829 0.28800002 nan
0.11370006 -0.0074290829 0.28800002 nan
0.11416635 -0.0074290829 0.28800002 nan
0.089442514 -0.0070353225 0.29100001 nan
0.090074204 -0.0070111463 0.29000002 nan
0.090543732 -0.0070111463 0.29000002 nan
0.09101326 -0.0070111463 0.29000002 nan
0.091635242 -0.0069869696 0.289 nan
0.092103146 -0.0069869696 0.289 nan
0.092717029 -0.0069627934 0.28800002 nan
0.093183324 -0.0069627934 0.28800002 nan
0.093649611 -0.0069627934 0.28800002 nan
0.094253778 -0.0069386177 0.287 nan
0.094718449 -0.0069386177 0.287 nan
0.095183119 -0.0069386177 0.287 nan
0.09611246 -0.0069386177 0.287 nan
0.09657713 -0.0069386177 0.287 nan
0.097041801 -0.0069386177 0.287 nan
0.097506471 -0.0069386177 0.287 nan
0.098435812 -0.0069386177 0.287 nan
0.098555885 -0.0069144405 0.28600001 nan
0.099018931 -0.0069144405 0.28600001 nan
0.099945039 -0.0069144405 0.28600001 nan
0.10040809 -0.0069144405 0.28600001 nan
0.10087114 -0.0069144405 0.28600001 nan
0.10144131 -0.0068902648 0.28500003 nan
0.10190274 -0.0068902648 0.28500003 nan
0.10236418 -0.0068902648 0.28500003 nan
0.10328704 -0.0068902648 0.28500003 nan
0.10374847 -0.0068902648 0.28500003 nan
0.1042099 -0.0068902648 0.28500003 nan
0.10467134 -0.0068902648 0.28500003 nan
0.1055942 -0.0068902648 0.28500003 nan
0.10605563 -0.0068902648 0.28500003 nan
0.10651706 -0.0068902648 0.28500003 nan
0.10743992 -0.0068902648 0.28500003 nan
0.10827997 -0.0069144405 0.28600001 nan
0.10874301 -0.0069144405 0.28600001 nan
0.1095879 -0.0069386177 0.287 nan
0.11005257 -0.0069386177 0.287 nan
0.11098191 -0.0069386177 0.287 nan
0.1118349 -0.0069627934 0.28800002 nan
0.11230119 -0.0069627934 0.28800002 nan
0.11276748 -0.0069627934 0.28800002 nan
0.11370006 -0.0069627934 0.28800002 nan
0.11416635 -0.0069627934 0.28800002 nan
0.078870691 -0.0067897495 0.30100003 -3.3510084e+38
0.079358026 -0.0067897495 0.30100003 -3.337664e+38
0.080065817 -0.0067671915 0.30000001 -3.3376115e+38
0.080551535 -0.0067671915 0.30000001 -3.3641441e+38
0.081037253 -0.0067671915 0.30000001 -3.3774885e+38
0.081522971 -0.0067671915 0.30000001 -3.3641437e+38
0.082219429 -0.0067446344 0.29900002 -3.3774881e+38
0.082703523 -0.0067446344 0.29900002 -3.3507993e+38
0.08339189 -0.0067220768 0.29800001 -3.3905723e+38
0.083874367 -0.0067220768 0.29800001 -3.3905723e+38
0.084073775 -0.0066995197 0.29700002 -3.3905723e+38
0.085035495 -0.0066995197 0.29700002 -3.3905723e+38
0.085228421 -0.0066769631 0.296 -3.3905723e+38
0.085707664 -0.0066769631 0.296 -3.3905723e+38
0.086373359 -0.006654405 0.29500002 nan
0.086850978 -0.006654405 0.29500002 nan
0.087508574 -0.0066318484 0.294 nan
0.087984584 -0.0066318484 0.294 nan
0.088159695 -0.0066092904 0.29300001 nan
0.088804342 -0.0065867333 0.29200003 nan
0.089277111 -0.0065867333 0.29200003 nan
0.078870691 -0.0063024117 0.30100003 -3.3377155e+38
0.079358026 -0.0063024117 0.30100003 -3.3377155e+38
0.079845369 -0.0063024117 0.30100003 -3.3509559e+38
0.080820039 -0.0063024117 0.30100003 -3.3774881e+38
0.081037253 -0.0062814732 0.30000001 -3.3641437e+38
0.081522971 -0.0062814732 0.30000001 -3.3641437e+38
0.082219429 -0.0062605357 0.29900002 -3.3774881e+38
0.082703523 -0.0062605357 0.29900002 -3.3641437e+38
0.08339189 -0.0062395972 0.29800001 -3.3905723e+38
0.083874367 -0.0062395972 0.29800001 -3.3905723e+38
0.084073775 -0.0062186588 0.29700002 -3.3905723e+38
0.085035495 -0.0062186588 0.29700002 -3.3905723e+38
0.085228421 -0.0061977208 0.296 -3.3905723e+38
0.085707664 -0.0061977208 0.296 -3.3905723e+38
0.086373359 -0.0061767823 0.29500002 nan
0.086850978 -0.0061767823 0.29500002 nan
0.087508574 -0.0061558438 0.294 nan
0.087984584 -0.0061558438 0.294 nan
0.088159695 -0.0061349059 0.29300001 nan
0.089108467 -0.0061349059 0.29300001 -3.3904151e+38
0.089277111 -0.0061139679 0.29200003 -3.3904151e+38
0.089442514 -0.0060930294 0.29100001 nan
0.090074204 -0.0060720914 0.29000002 nan
0.090543732 -0.0060720914 0.29000002 nan
0.09101326 -0.0060720914 0.29000002 nan
0.091635242 -0.0060511529 0.289 nan
0.092103146 -0.0060511529 0.289 nan
0.092717029 -0.0060302145 0.28800002 nan
0.093183324 -0.0060302145 0.28800002 nan
0.093324438 -0.0060092765 0.287 nan
0.094253778 -0.0060092765 0.287 nan
0.094718449 -0.0060092765 0.287 nan
0.095183119 -0.0060092765 0.287 nan
0.09611246 -0.0060092765 0.287 nan
0.09657713 -0.0060092765 0.287 nan
0.096703678 -0.005988338 0.28600001 nan
0.097629778 -0.005988338 0.28600001 nan
0.098092832 -0.005988338 0.28600001 nan
0.098555885 -0.005988338 0.28600001 nan
0.099018931 -0.005988338 0.28600001 nan
0.099945039 -0.005988338 0.28600001 nan
0.10005701 -0.0059673996 0.28500003 nan
0.10051844 -0.0059673996 0.28500003 nan
0.10144131 -0.0059673996 0.28500003 nan
0.10190274 -0.0059673996 0.28500003 nan
0.10236418 -0.0059673996 0.28500003 nan
0.10328704 -0.0059673996 0.28500003 nan
0.10338444 -0.0059464616 0.28400001 nan
0.10384426 -0.0059464616 0.28400001 nan
0.10476388 -0.0059464616 0.28400001 nan
0.10522369 -0.0059464616 0.28400001 nan
0.10568351 -0.0059464616 0.28400001 nan
0.10651706 -0.0059673996 0.28500003 nan
0.10743992 -0.0059673996 0.28500003 nan
0.10790136 -0.0059673996 0.28500003 nan
0.10836279 -0.0059673996 0.28500003 nan
0.10920607 -0.005988338 0.28600001 nan
0.11005257 -0.0060092765 0.287 nan
0.11098191 -0.0060092765 0.287 nan
0.1118349 -0.0060302145 0.28800002 nan
0.11230119 -0.0060302145 0.28800002 nan
0.11276748 -0.0060302145 0.28800002 nan
0.11370006 -0.0060302145 0.28800002 nan
0.078870691 -0.0058150743 0.30100003 -3.3509559e+38
0.079358026 -0.0058150743 0.30100003 -3.3509559e+38
0.079845369 -0.0058150743 0.30100003 -3.3509559e+38
0.080820039 -0.0058150743 0.30100003 -3.3774881e+38
0.081307381 -0.0058150743 0.30100003 -3.3641437e+38
0.081522971 -0.0057957554 0.30000001 -3.3906759e+38
0.082494408 -0.0057957554 0.30000001 nan
0.082703523 -0.0057764365 0.29900002 -3.3906763e+38
0.083187625 -0.0057764365 0.29900002 -3.3905723e+38
0.083874367 -0.0057571172 0.29800001 -3.3905723e+38
0.084356844 -0.0057571172 0.29800001 nan
0.085035495 -0.0057377978 0.29700002 -3.3905723e+38
0.085516356 -0.0057377978 0.29700002 -3.3905723e+38
0.085707664 -0.0057184785 0.296 -3.3905723e+38
0.086666144 -0.0057184785 0.296 -3.3905723e+38
0.086850978 -0.0056991596 0.29500002 nan
0.087328605 -0.0056991596 0.29500002 nan
0.087984584 -0.0056798402 0.294 nan
0.088460587 -0.0056798402 0.294 nan
0.089108467 -0.0056605209 0.29300001 -3.3904151e+38
0.089277111 -0.005641202 0.29200003 -3.3904151e+38
0.089442514 -0.0056218831 0.29100001 nan
0.090074204 -0.0056025637 0.29000002 nan
0.090543732 -0.0056025637 0.29000002 nan
0.09101326 -0.0056025637 0.29000002 nan
0.091635242 -0.0055832444 0.289 nan
0.092103146 -0.0055832444 0.289 nan
0.092717029 -0.005563925 0.28800002 nan
0.093183324 -0.005563925 0.28800002 nan
0.093324438 -0.0055446061 0.287 nan
0.094253778 -0.0055446061 0.287 nan
0.094718449 -0.0055446061 0.287 nan
0.095183119 -0.0055446061 0.287 nan
0.09611246 -0.0055446061 0.287 nan
0.096240625 -0.0055252868 0.28600001 nan
0.096703678 -0.0055252868 0.28600001 nan
0.097629778 -0.0055252868 0.28600001 nan
0.098092832 -0.0055252868 0.28600001 nan
0.098555885 -0.0055252868 0.28600001 nan
0.099134147 -0.0055059674 0.28500003 nan
0.099595577 -0.0055059674 0.28500003 nan
0.10005701 -0.0055059674 0.28500003 nan
0.10062556 -0.0054866481 0.28400001 nan
0.10108537 -0.0054866481 0.28400001 nan
0.10154518 -0.0054866481 0.28400001 nan
0.10246482 -0.0054866481 0.28400001 nan
0.10292463 -0.0054866481 0.28400001 nan
0.10338444 -0.0054866481 0.28400001 nan
0.10384426 -0.0054866481 0.28400001 nan
0.10476388 -0.0054866481 0.28400001 nan
0.10522369 -0.0054866481 0.28400001 nan
0.10568351 -0.0054866481 0.28400001 nan
0.10614332 -0.0054866481 0.28400001 nan
0.10706295 -0.0054866481 0.28400001 nan
0.10790136 -0.0055059674 0.28500003 nan
0.10836279 -0.0055059674 0.28500003 nan
0.10882422 -0.0055059674 0.28500003 nan
0.11013217 -0.0055252868 0.28600001 nan
0.11098191 -0.0055446061 0.287 nan
0.1118349 -0.005563925 0.28800002 nan
0.11230119 -0.005563925 0.28800002 nan
0.11276748 -0.005563925 0.28800002 nan
0.079132728 -0.0053454372 0.30200002 -3.3509559e+38
0.07962168 -0.0053454372 0.30200002 -3.3509559e+38
0.080110639 -0.0053454372 0.30200002 -3.3774885e+38
0.080820039 -0.0053277374 0.30100003 -3.3774881e+38
0.081307381 -0.0053277374 0.30100003 -3.3641437e+38
0.081794716 -0.0053277374 0.30100003 -3.3906759e+38
0.082494408 -0.0053100372 0.30000001 -3.3906759e+38
0.082980126 -0.0053100372 0.30000001 -3.3906759e+38
0.083187625 -0.0052923374 0.29900002 -3.3905719e+38
0.084155828 -0.0052923374 0.29900002 -3.3905723e+38
0.084356844 -0.0052746371 0.29800001 nan
0.084839329 -0.0052746371 0.29800001 nan
0.085516356 -0.0052569369 0.29700002 -3.3905723e+38
0.085707664 -0.0052392366 0.296 -3.3905723e+38
0.086666144 -0.0052392366 0.296 -3.3905723e+38
0.086850978 -0.0052215364 0.29500002 nan
0.087328605 -0.0052215364 0.29500002 nan
0.087984584 -0.0052038366 0.294 nan
0.088460587 -0.0052038366 0.294 nan
0.089108467 -0.0051861363 0.29300001 -3.3771232e+38
0.089582853 -0.0051861363 0.29300001 nan
0.089442514 -0.0051507363 0.29100001 nan
0.090384804 -0.0051507363 0.29100001 nan
0.090543732 -0.0051330361 0.29000002 nan
0.09101326 -0.0051330361 0.29000002 nan
0.091635242 -0.0051153358 0.289 nan
0.092103146 -0.0051153358 0.289 nan
0.092717029 -0.0050976356 0.28800002 nan
0.093183324 -0.0050976356 0.28800002 nan
0.093649611 -0.0050976356 0.28800002 nan
0.094253778 -0.0050799358 0.287 nan
0.094718449 -0.0050799358 0.287 nan
0.095183119 -0.0050799358 0.287 nan
0.095777579 -0.0050622355 0.28600001 nan
0.096240625 -0.0050622355 0.28600001 nan
0.096703678 -0.0050622355 0.28600001 nan
0.097629778 -0.0050622355 0.28600001 nan
0.098092832 -0.0050622355 0.28600001 nan
0.098211281 -0.0050445353 0.28500003 nan
0.099134147 -0.0050445353 0.28500003 nan
0.099595577 -0.0050445353 0.28500003 nan
0.099705935 -0.005026835 0.28400001 nan
0.10062556 -0.005026835 0.28400001 nan
0.10108537 -0.005026835 0.28400001 nan
0.10154518 -0.005026835 0.28400001 nan
0.10246482 -0.005026835 0.28400001 nan
0.10292463 -0.005026835 0.28400001 nan
0.10302041 -0.0050091352 0.28300002 nan
0.10393679 -0.0050091352 0.28300002 nan
0.10439499 -0.0050091352 0.28300002 nan
0.10485318 -0.0050091352 0.28300002 nan
0.10531138 -0.0050091352 0.28300002 nan
0.10622776 -0.0050091352 0.28300002 nan
0.10706295 -0.005026835 0.28400001 nan
0.10752276 -0.005026835 0.28400001 nan
0.10836279 -0.0050445353 0.28500003 nan
0.10882422 -0.0050445353 0.28500003 nan
0.11013217 -0.0050622355 0.28600001 nan
0.11098191 -0.0050799358 0.287 nan
0.1118349 -0.0050976356 0.28800002 nan
0.11230119 -0.0050976356 0.28800002 nan
0.11276748 -0.0050976356 0.28800002 nan
0.079132728 -0.0043675248 0.30200002 -3.377437e+38
0.07962168 -0.0043675248 0.30200002 -3.377437e+38
0.080110639 -0.0043675248 0.30200002 -3.3774885e+38
0.080599599 -0.0043675248 0.30200002 -3.3641441e+38
0.081307381 -0.0043530627 0.30100003 -3.3906767e+38
0.081794716 -0.0043530627 0.30100003 -3.3906759e+38
0.082494408 -0.0043386007 0.30000001 -3.3906759e+38
0.082980126 -0.0043386007 0.30000001 -3.3906759e+38
0.083465844 -0.0043386007 0.30000001 -3.3905719e+38
0.084155828 -0.0043241391 0.29900002 -3.3905723e+38
0.084639922 -0.0043241391 0.29900002 nan
0.084839329 -0.0043096771 0.29800001 -3.3905723e+38
0.085516356 -0.004295215 0.29700002 -3.3905723e+38
0.085997216 -0.004295215 0.29700002 -3.3905723e+38
0.086666144 -0.004280753 0.296 -3.3772279e+38
0.087145388 -0.004280753 0.296 nan
0.087328605 -0.0042662909 0.29500002 nan
0.088283844 -0.0042662909 0.29500002 nan
0.088460587 -0.0042518289 0.294 -3.3905723e+38
0.08893659 -0.0042518289 0.294 -3.3772279e+38
0.089582853 -0.0042373668 0.29300001 nan
0.089442514 -0.0042084432 0.29100001 nan
0.090384804 -0.0042084432 0.29100001 nan
0.090543732 -0.0041939812 0.29000002 nan
0.09101326 -0.0041939812 0.29000002 nan
0.091635242 -0.0041795191 0.289 nan
0.092103146 -0.0041795191 0.289 nan
0.093038969 -0.0041795191 0.289 nan
0.093183324 -0.0041650571 0.28800002 nan
0.093649611 -0.0041650571 0.28800002 -3.3904151e+38
0.094253778 -0.0041505951 0.287 nan
0.094718449 -0.0041505951 0.287 nan
0.095183119 -0.0041505951 0.287 nan
0.095777579 -0.004136133 0.28600001 nan
0.096240625 -0.004136133 0.28600001 nan
0.096703678 -0.004136133 0.28600001 nan
0.097288415 -0.004121671 0.28500003 nan
0.097749852 -0.004121671 0.28500003 nan
0.098211281 -0.004121671 0.28500003 nan
0.099134147 -0.004121671 0.28500003 nan
0.099246122 -0.0041072089 0.28400001 nan
0.099705935 -0.0041072089 0.28400001 nan
0.10062556 -0.0041072089 0.28400001 nan
0.10108537 -0.0041072089 0.28400001 nan
0.10154518 -0.0041072089 0.28400001 nan
0.10210402 -0.0040927469 0.28300002 nan
0.10256221 -0.0040927469 0.28300002 nan
0.10302041 -0.0040927469 0.28300002 nan
0.10393679 -0.0040927469 0.28300002 nan
0.10439499 -0.0040927469 0.28300002 nan
0.10485318 -0.0040927469 0.28300002 nan
0.10531138 -0.0040927469 0.28300002 nan
0.10622776 -0.0040927469 0.28300002 nan
0.10668596 -0.0040927469 0.28300002 nan
0.10752276 -0.0041072089 0.28400001 nan
0.10798258 -0.0041072089 0.28400001 nan
0.10882422 -0.004121671 0.28500003 nan
0.11013217 -0.004136133 0.28600001 nan
0.11098191 -0.0041505951 0.287 nan
0.11222321 -0.0041795191 0.289 nan
0.11269112 -0.0041795191 0.289 nan
0.11315903 -0.0041795191 0.289 nan
0.078413606 -0.0038914115 0.303 -3.3377691e+38
0.078904182 -0.0038914115 0.303 -3.3110802e+38
0.079885334 -0.0038914115 0.303 -3.3641441e+38
0.080110639 -0.0038785685 0.30200002 -3.3641441e+38
0.080599599 -0.0038785685 0.30200002 -3.3641441e+38
0.08157751 -0.0038785685 0.30200002 -3.3906767e+38
0.081794716 -0.0038657256 0.30100003 -3.3906763e+38
0.082282051 -0.0038657256 0.30100003 -3.3906763e+38
0.082980126 -0.0038528827 0.30000001 -3.3905719e+38
0.083465844 -0.0038528827 0.30000001 -3.3905723e+38
0.084155828 -0.0038400399 0.29900002 -3.3905727e+38
0.084639922 -0.0038400399 0.29900002 nan
0.084839329 -0.003827197 0.29800001 -3.3905727e+38
0.085804291 -0.003827197 0.29800001 -3.3905727e+38
0.085997216 -0.0038143541 0.29700002 -3.3905727e+38
0.086478077 -0.0038143541 0.29700002 -3.3905727e+38
0.087145388 -0.0038015111 0.296 -3.3772279e+38
0.087328605 -0.003788668 0.29500002 -3.3905723e+38
0.088283844 -0.003788668 0.29500002 -3.3905723e+38
0.088460587 -0.003775825 0.294 -3.3905723e+38
0.08893659 -0.003775825 0.294 -3.3772279e+38
0.089582853 -0.0037629821 0.29300001 nan
0.089749873 -0.0037501394 0.29200003 nan
0.090384804 -0.0037372964 0.29100001 nan
0.090855956 -0.0037372964 0.29100001 nan
0.09101326 -0.0037244535 0.29000002 -3.390364e+38
0.091952316 -0.0037244535 0.29000002 nan
0.092103146 -0.0037116106 0.289 nan
0.093038969 -0.0037116106 0.289 nan
0.093183324 -0.0036987674 0.28800002 nan
0.093649611 -0.0036987674 0.28800002 nan
0.094253778 -0.0036859245 0.287 nan
0.094718449 -0.0036859245 0.287 nan
0.095183119 -0.0036859245 0.287 nan
0.095777579 -0.0036730815 0.28600001 nan
0.096240625 -0.0036730815 0.28600001 nan
0.096703678 -0.0036730815 0.28600001 nan
0.097288415 -0.0036602386 0.28500003 nan
0.097749852 -0.0036602386 0.28500003 nan
0.098211281 -0.0036602386 0.28500003 nan
0.099134147 -0.0036602386 0.28500003 nan
0.099246122 -0.0036473954 0.28400001 nan
0.099705935 -0.0036473954 0.28400001 nan
0.10062556 -0.0036473954 0.28400001 nan
0.10108537 -0.0036473954 0.28400001 nan
0.10118763 -0.0036345529 0.28300002 nan
0.10210402 -0.0036345529 0.28300002 nan
0.10256221 -0.0036345529 0.28300002 nan
0.10302041 -0.0036345529 0.28300002 nan
0.10356953 -0.00362171 0.28200001 nan
0.1040261 -0.00362171 0.28200001 nan
0.10448268 -0.00362171 0.28200001 nan
0.10539582 -0.00362171 0.28200001 nan
0.1058524 -0.00362171 0.28200001 nan
0.10668596 -0.0036345529 0.28300002 nan
0.10714415 -0.0036345529 0.28300002 nan
0.10798258 -0.0036473954 0.28400001 nan
0.1089022 -0.0036473954 0.28400001 nan
0.11013217 -0.0036730815 0.28600001 nan
0.11098191 -0.0036859245 0.287 nan
0.11222321 -0.0037116106 0.289 nan
0.11269112 -0.0037116106 0.289 nan
0.11315903 -0.0037116106 0.289 nan
0.078413606 -0.0034008361 0.303 -3.3377691e+38
0.078904182 -0.0034008361 0.303 -3.3110802e+38
0.079885334 -0.0034008361 0.303 -3.3774885e+38
0.080375902 -0.0034008361 0.303 -3.3774885e+38
0.080599599 -0.0033896123 0.30200002 -3.3641441e+38
0.08157751 -0.0033896123 0.30200002 -3.3641441e+38
0.082066461 -0.0033896123 0.30200002 -3.3906763e+38
0.082282051 -0.0033783885 0.30100003 -3.3773319e+38
0.083256729 -0.0033783885 0.30100003 -3.3905723e+38
0.083465844 -0.0033671644 0.30000001 -3.3905723e+38
0.084437281 -0.0033671644 0.30000001 -3.3905727e+38
0.084639922 -0.0033559408 0.29900002 nan
0.085124023 -0.0033559408 0.29900002 nan
0.085804291 -0.003344717 0.29800001 -3.3905727e+38
0.086286768 -0.003344717 0.29800001 nan
0.086478077 -0.0033334931 0.29700002 -3.3905727e+38
0.087439798 -0.0033334931 0.29700002 -3.3772279e+38
0.087624632 -0.0033222691 0.296 -3.3905723e+38
0.088283844 -0.0033110452 0.29500002 -3.3905723e+38
0.088761471 -0.0033110452 0.29500002 -3.3905723e+38
0.08893659 -0.0032998212 0.294 -3.3772279e+38
0.089888595 -0.0032998212 0.294 -3.3772279e+38
0.089749873 -0.0032773735 0.29200003 nan
0.090695404 -0.0032773735 0.29200003 nan
0.090855956 -0.0032661497 0.29100001 nan
0.09101326 -0.0032549258 0.29000002 -3.390364e+38
0.091952316 -0.0032549258 0.29000002 nan
0.092103146 -0.003243702 0.289 nan
0.093038969 -0.003243702 0.289 nan
0.093183324 -0.0032324782 0.28800002 nan
0.093649611 -0.0032324782 0.28800002 nan
0.094253778 -0.0032212541 0.287 -3.3904151e+38
0.094718449 -0.0032212541 0.287 nan
0.095183119 -0.0032212541 0.287 nan
0.095777579 -0.0032100303 0.28600001 nan
0.096240625 -0.0032100303 0.28600001 nan
0.096703678 -0.0032100303 0.28600001 nan
0.097288415 -0.0031988064 0.28500003 nan
0.097749852 -0.0031988064 0.28500003 nan
0.098211281 -0.0031988064 0.28500003 nan
0.099134147 -0.0031988064 0.28500003 nan
0.099246122 -0.0031875826 0.28400001 nan
0.099705935 -0.0031875826 0.28400001 nan
0.10062556 -0.0031875826 0.28400001 nan
0.10072944 -0.0031763585 0.28300002 nan
0.10118763 -0.0031763585 0.28300002 nan
0.10210402 -0.0031763585 0.28300002 nan
0.10256221 -0.0031763585 0.28300002 nan
0.10265638 -0.0031651349 0.28200001 nan
0.10356953 -0.0031651349 0.28200001 nan
0.1040261 -0.0031651349 0.28200001 nan
0.10448268 -0.0031651349 0.28200001 nan
0.10539582 -0.0031651349 0.28200001 nan
0.1058524 -0.0031651349 0.28200001 nan
0.10630898 -0.0031651349 0.28200001 nan
0.10714415 -0.0031763585 0.28300002 nan
0.10798258 -0.0031875826 0.28400001 nan
0.1089022 -0.0031875826 0.28400001 nan
0.10974708 -0.0031988064 0.28500003 nan
0.11098191 -0.0032212541 0.287 nan
0.087439798 -0.002852632 0.29700002 -3.3772283e+38
0.087624632 -0.0028430272 0.296 -3.3905727e+38
0.088103876 -0.0028430272 0.296 -3.3772283e+38
0.088761471 -0.0028334223 0.29500002 -3.3905723e+38
0.089239091 -0.0028334223 0.29500002 -3.3905723e+38
0.089888595 -0.0028238175 0.294 -3.3905723e+38
0.089749873 -0.0028046079 0.29200003 -3.3905723e+38
0.090695404 -0.0028046079 0.29200003 -3.3905723e+38
0.090855956 -0.0027950031 0.29100001 -3.3905723e+38
0.091327101 -0.0027950031 0.29100001 -3.3771236e+38
0.091952316 -0.0027853984 0.29000002 nan
0.092421845 -0.0027853984 0.29000002 nan
0.093038969 -0.0027757934 0.289 nan
0.093506873 -0.0027757934 0.289 nan
0.093649611 -0.0027661887 0.28800002 nan
0.094582193 -0.0027661887 0.28800002 nan
0.094718449 -0.0027565837 0.287 -3.3904151e+38
0.095183119 -0.0027565837 0.287 nan
0.09611246 -0.0027565837 0.287 -3.3904151e+38
0.096240625 -0.0027469788 0.28600001 nan
0.096703678 -0.0027469788 0.28600001 nan
0.097288415 -0.0027373743 0.28500003 nan
0.097749852 -0.0027373743 0.28500003 nan
0.098211281 -0.0027373743 0.28500003 nan
0.099134147 -0.0027373743 0.28500003 nan
0.099246122 -0.0027277693 0.28400001 nan
0.099705935 -0.0027277693 0.28400001 nan
0.10027124 -0.0027181644 0.28300002 nan
0.10072944 -0.0027181644 0.28300002 nan
0.10118763 -0.0027181644 0.28300002 nan
0.10210402 -0.0027181644 0.28300002 nan
0.1021998 -0.0027085599 0.28200001 nan
0.10265638 -0.0027085599 0.28200001 nan
0.10356953 -0.0027085599 0.28200001 nan
0.1040261 -0.0027085599 0.28200001 nan
0.10448268 -0.0027085599 0.28200001 nan
0.10539582 -0.0027085599 0.28200001 nan
0.1058524 -0.0027085599 0.28200001 nan
0.10630898 -0.0027085599 0.28200001 nan
0.10714415 -0.0027181644 0.28300002 nan
0.10798258 -0.0027277693 0.28400001 nan
0.1089022 -0.0027277693 0.28400001 nan
0.078672394 -0.0024276713 0.30400002 -3.3510084e+38
0.079164587 -0.0024276713 0.30400002 -3.337664e+38
0.08014898 -0.0024276713 0.30400002 -3.3641441e+38
0.080375902 -0.0024196855 0.303 -3.3641441e+38
0.080866478 -0.0024196855 0.303 -3.3641441e+38
0.08184763 -0.0024196855 0.303 -3.3641441e+38
0.082066461 -0.0024116999 0.30200002 -3.3641441e+38
0.082555421 -0.0024116999 0.30200002 -3.3507997e+38
0.083256729 -0.0024037142 0.30100003 -3.3773319e+38
0.083744064 -0.0024037142 0.30100003 -3.3905727e+38
0.084437281 -0.0023957284 0.30000001 nan
0.084922999 -0.0023957284 0.30000001 nan
0.085124023 -0.0023877425 0.29900002 nan
0.086092219 -0.0023877425 0.29900002 -3.3905727e+38
0.086286768 -0.0023797569 0.29800001 -3.3905727e+38
0.086769246 -0.0023797569 0.29800001 -3.3905723e+38
0.078672394 -0.001935477 0.30400002 -3.3510084e+38
0.079164587 -0.001935477 0.30400002 -3.337664e+38
0.08014898 -0.001935477 0.30400002 -3.3641441e+38
0.080641173 -0.001935477 0.30400002 -3.3641441e+38
0.080866478 -0.0019291103 0.303 -3.3641441e+38
0.08184763 -0.0019291103 0.303 -3.3906767e+38
0.082066461 -0.0019227435 0.30200002 -3.3906767e+38
0.082555421 -0.0019227435 0.30200002 -3.3773323e+38
0.083256729 -0.0019163769 0.30100003 -3.3773319e+38
0.083744064 -0.0019163769 0.30100003 -3.3773323e+38
0.084231399 -0.0019163769 0.30100003 -3.3906767e+38
0.084922999 -0.0019100101 0.30000001 -3.3906252e+38
0.085408717 -0.0019100101 0.30000001 -3.3906252e+38
0.086092219 -0.0019036434 0.29900002 -3.3773319e+38
0.08657632 -0.0019036434 0.29900002 -3.3773319e+38
0.086769246 -0.0018972768 0.29800001 -3.3773319e+38
0.087734208 -0.0018972768 0.29800001 -3.3639875e+38
0.087920658 -0.0018909101 0.29700002 -3.3773319e+38
0.088103876 -0.0018845433 0.296 -3.3773319e+38
0.088761471 -0.0018781766 0.29500002 -3.3639875e+38
0.089239091 -0.0018781766 0.29500002 -3.3773319e+38
0.089582853 -0.0018654433 0.29300001 -3.3906763e+38
0.090057239 -0.0018654433 0.29300001 -3.3773319e+38
0.090695404 -0.0018590766 0.29200003 -3.3905723e+38
0.091168173 -0.0018590766 0.29200003 -3.3905723e+38
0.091327101 -0.0018527098 0.29100001 nan
0.092269391 -0.0018527098 0.29100001 nan
0.092421845 -0.0018463433 0.29000002 nan
0.092891373 -0.0018463433 0.29000002 nan
0.093506873 -0.0018399765 0.289 nan
0.093974784 -0.0018399765 0.289 nan
0.094582193 -0.0018336098 0.28800002 nan
0.09504848 -0.0018336098 0.28800002 nan
0.095183119 -0.001827243 0.287 nan
0.09611246 -0.001827243 0.287 nan
0.096240625 -0.0018208763 0.28600001 nan
0.096703678 -0.0018208763 0.28600001 -3.3904151e+38
0.097288415 -0.0018145097 0.28500003 nan
0.097749852 -0.0018145097 0.28500003 nan
0.098211281 -0.0018145097 0.28500003 nan
0.099134147 -0.0018145097 0.28500003 nan
0.099246122 -0.001808143 0.28400001 nan
0.099705935 -0.001808143 0.28400001 nan
0.10027124 -0.0018017762 0.28300002 nan
0.10072944 -0.0018017762 0.28300002 nan
0.10118763 -0.0018017762 0.28300002 nan
0.10210402 -0.0018017762 0.28300002 nan
0.1021998 -0.0017954097 0.28200001 nan
0.10265638 -0.0017954097 0.28200001 nan
0.10356953 -0.0017954097 0.28200001 nan
0.1040261 -0.0017954097 0.28200001 nan
0.10448268 -0.0017954097 0.28200001 nan
0.10539582 -0.0017954097 0.28200001 nan
0.1058524 -0.0017954097 0.28200001 nan
0.10630898 -0.0017954097 0.28200001 nan
0.10714415 -0.0018017762 0.28300002 nan
0.10798258 -0.001808143 0.28400001 nan
0.1089022 -0.001808143 0.28400001 nan
0.078931183 -0.0014480302 0.30500001 -3.3510084e+38
0.079425 -0.0014480302 0.30500001 -3.337664e+38
0.079918809 -0.0014480302 0.30500001 -3.3641441e+38
0.080641173 -0.0014432826 0.30400002 -3.3906767e+38
0.081133366 -0.0014432826 0.30400002 -3.3906767e+38
0.08184763 -0.0014385349 0.303 -3.3906767e+38
0.082338206 -0.0014385349 0.303 -3.3906767e+38
0.082555421 -0.0014337873 0.30200002 -3.3773323e+38
0.083533332 -0.0014337873 0.30200002 -3.3773323e+38
0.083744064 -0.0014290398 0.30100003 -3.3773323e+38
0.084231399 -0.0014290398 0.30100003 -3.3773323e+38
0.084922999 -0.001424292 0.30000001 nan
0.085408717 -0.001424292 0.30000001 -3.3905212e+38
0.085894436 -0.001424292 0.30000001 -3.3905212e+38
0.08657632 -0.0014195443 0.29900002 -3.3773319e+38
0.087060422 -0.0014195443 0.29900002 -3.3773319e+38
0.087734208 -0.0014147967 0.29800001 -3.3639875e+38
0.087920658 -0.0014100492 0.29700002 -3.3639875e+38
0.088401519 -0.0014100492 0.29700002 -3.3639875e+38
0.089062355 -0.0014053015 0.296 -3.3639875e+38
0.089239091 -0.0014005537 0.29500002 -3.3773319e+38
0.089888595 -0.0013958062 0.294 -3.3906763e+38
0.090057239 -0.0013910586 0.29300001 -3.3773319e+38
0.090531625 -0.0013910586 0.29300001 -3.3773319e+38
0.091168173 -0.0013863109 0.29200003 -3.3905723e+38
0.091640942 -0.0013863109 0.29200003 nan
0.092269391 -0.0013815633 0.29100001 nan
0.092421845 -0.0013768156 0.29000002 nan
0.092891373 -0.0013768156 0.29000002 nan
0.093506873 -0.0013720681 0.289 nan
0.093974784 -0.0013720681 0.289 nan
0.094582193 -0.0013673203 0.28800002 nan
0.09504848 -0.0013673203 0.28800002 nan
0.095514767 -0.0013673203 0.28800002 nan
0.09611246 -0.0013625727 0.287 nan
0.09657713 -0.0013625727 0.287 nan
0.096703678 -0.001357825 0.28600001 -3.3904151e+38
0.097629778 -0.001357825 0.28600001 nan
0.098092832 -0.001357825 0.28600001 nan
0.098211281 -0.0013530775 0.28500003 nan
0.099134147 -0.0013530775 0.28500003 nan
0.099246122 -0.0013483298 0.28400001 nan
0.099705935 -0.0013483298 0.28400001 nan
0.10027124 -0.0013435821 0.28300002 nan
0.10072944 -0.0013435821 0.28300002 nan
0.10118763 -0.0013435821 0.28300002 nan
0.10210402 -0.0013435821 0.28300002 nan
0.1021998 -0.0013388345 0.28200001 nan
0.10265638 -0.0013388345 0.28200001 nan
0.10356953 -0.0013388345 0.28200001 nan
0.1040261 -0.0013388345 0.28200001 nan
0.10411217 -0.0013340869 0.28100002 nan
0.10502208 -0.0013340869 0.28100002 nan
0.1058524 -0.0013388345 0.28200001 nan
0.10630898 -0.0013388345 0.28200001 nan
0.10714415 -0.0013435821 0.28300002 nan
0.10798258 -0.0013483298 0.28400001 nan
0.10882422 -0.0013530775 0.28500003 nan
0.079189979 -0.00095734536 0.30600002 -3.3510084e+38
0.079425 -0.00095421681 0.30500001 -3.3243196e+38
0.079918809 -0.00095421681 0.30500001 -3.3772808e+38
0.080906436 -0.00095421681 0.30500001 nan
0.081133366 -0.00095108815 0.30400002 -3.3906767e+38
0.081625558 -0.00095108815 0.30400002 -3.3906767e+38
0.082338206 -0.00094795955 0.303 -3.3773323e+38
0.082828782 -0.00094795955 0.303 -3.3773323e+38
0.083533332 -0.000944831 0.30200002 -3.3773323e+38
0.084022291 -0.000944831 0.30200002 -3.3905727e+38
0.084231399 -0.00094170246 0.30100003 -3.3905727e+38
0.085206077 -0.00094170246 0.30100003 -3.3905212e+38
0.085408717 -0.00093857385 0.30000001 -3.3905212e+38
0.085894436 -0.00093857385 0.30000001 -3.3905212e+38
0.08657632 -0.00093544525 0.29900002 -3.3905723e+38
0.087060422 -0.00093544525 0.29900002 -3.3773319e+38
0.087734208 -0.0009323167 0.29800001 -3.3773319e+38
0.088216685 -0.0009323167 0.29800001 -3.3773319e+38
0.088401519 -0.00092918816 0.29700002 -3.3639875e+38
0.089062355 -0.00092605955 0.296 -3.3639875e+38
0.089239091 -0.00092293089 0.29500002 -3.3773319e+38
0.089888595 -0.00091980241 0.294 -3.3906763e+38
0.090364598 -0.00091980241 0.294 -3.3773319e+38
0.090531625 -0.00091667386 0.29300001 -3.3639875e+38
0.091480389 -0.00091667386 0.29300001 -3.3905723e+38
0.091640942 -0.0009135452 0.29200003 nan
0.092269391 -0.00091041659 0.29100001 nan
0.092740543 -0.00091041659 0.29100001 nan
0.092891373 -0.00090728805 0.29000002 nan
0.093830429 -0.00090728805 0.29000002 nan
0.093974784 -0.0009041595 0.289 nan
0.094442688 -0.0009041595 0.289 nan
0.09504848 -0.0009010309 0.28800002 nan
0.095514767 -0.0009010309 0.28800002 nan
0.09611246 -0.0008979023 0.287 nan
0.09657713 -0.0008979023 0.287 nan
0.096703678 -0.00089477375 0.28600001 nan
0.097629778 -0.00089477375 0.28600001 nan
0.098092832 -0.00089477375 0.28600001 nan
0.098211281 -0.00089164521 0.28500003 -3.3904151e+38
0.099134147 -0.00089164521 0.28500003 nan
0.099246122 -0.0008885166 0.28400001 nan
0.099705935 -0.0008885166 0.28400001 nan
0.10062556 -0.0008885166 0.28400001 nan
0.10072944 -0.00088538794 0.28300002 nan
0.10118763 -0.00088538794 0.28300002 nan
0.10210402 -0.00088538794 0.28300002 nan
0.1021998 -0.0008822594 0.28200001 nan
0.10265638 -0.0008822594 0.28200001 nan
0.10356953 -0.0008822594 0.28200001 nan
0.1040261 -0.0008822594 0.28200001 nan
0.10411217 -0.00087913091 0.28100002 nan
0.10502208 -0.00087913091 0.28100002 nan
0.1058524 -0.0008822594 0.28200001 nan
0.10630898 -0.0008822594 0.28200001 nan
0.10714415 -0.00088538794 0.28300002 nan
0.10798258 -0.0008885166 0.28400001 nan
0.079189979 3.3519711e-05 0.30600002 -3.3509044e+38
0.079685405 3.3519711e-05 0.30600002 -3.3509044e+38
0.080180839 3.3519711e-05 0.30600002 -3.3772808e+38
0.080906436 3.3410171e-05 0.30500001 nan
0.081400253 3.3410171e-05 0.30500001 -3.3906252e+38
0.081625558 3.3300628e-05 0.30400002 nan
0.082609951 3.3300628e-05 0.30400002 -3.3773323e+38
0.082828782 3.3191085e-05 0.303 -3.3906767e+38
0.083319359 3.3191085e-05 0.303 -3.3773323e+38
0.084022291 3.3081546e-05 0.30200002 -3.3905727e+38
0.084511243 3.3081546e-05 0.30200002 -3.3905727e+38
0.085206077 3.2972002e-05 0.30100003 nan
0.085693412 3.2972002e-05 0.30100003 nan
0.085894436 3.2862463e-05 0.30000001 -3.3905727e+38
0.086865872 3.2862463e-05 0.30000001 -3.3905727e+38
0.087060422 3.275292e-05 0.29900002 -3.3905727e+38
0.087544516 3.275292e-05 0.29900002 -3.3905727e+38
0.088216685 3.264338e-05 0.29800001 -3.3905727e+38
0.088401519 3.2533837e-05 0.29700002 -3.3905727e+38
0.089062355 3.2424297e-05 0.296 -3.3772283e+38
0.089541599 3.2424297e-05 0.296 -3.3905727e+38
0.089888595 3.2205211e-05 0.294 -3.3905727e+38
0.090364598 3.2205211e-05 0.294 -3.3905723e+38
0.090531625 3.2095671e-05 0.29300001 -3.3772279e+38
0.091480389 3.2095671e-05 0.29300001 -3.3905723e+38
0.091640942 3.1986128e-05 0.29200003 nan
0.092113703 3.1986128e-05 0.29200003 nan
0.092740543 3.1876589e-05 0.29100001 nan
0.093211688 3.1876589e-05 0.29100001 nan
0.093830429 3.1767046e-05 0.29000002 nan
0.094299957 3.1767046e-05 0.29000002 nan
0.094442688 3.1657506e-05 0.289 nan
0.095378511 3.1657506e-05 0.289 nan
0.095514767 3.1547963e-05 0.28800002 nan
0.095981061 3.1547963e-05 0.28800002 nan
0.09657713 3.1438423e-05 0.287 nan
0.097041801 3.1438423e-05 0.287 nan
0.097629778 3.132888e-05 0.28600001 nan
0.098092832 3.132888e-05 0.28600001 nan
0.098555885 3.132888e-05 0.28600001 nan
0.099134147 3.1219341e-05 0.28500003 nan
0.099595577 3.1219341e-05 0.28500003 nan
0.099705935 3.1109797e-05 0.28400001 nan
0.10062556 3.1109797e-05 0.28400001 nan
0.10072944 3.1000254e-05 0.28300002 nan
0.10118763 3.1000254e-05 0.28300002 -3.3904151e+38
0.10210402 3.1000254e-05 0.28300002 nan
0.1021998 3.0890715e-05 0.28200001 nan
0.10265638 3.0890715e-05 0.28200001 nan
0.10356953 3.0890715e-05 0.28200001 nan
0.1040261 3.0890715e-05 0.28200001 nan
0.10411217 3.0781172e-05 0.28100002 nan
0.10502208 3.0781172e-05 0.28100002 nan
0.1058524 3.0890715e-05 0.28200001 nan
0.10630898 3.0890715e-05 0.28200001 nan
0.10714415 3.1000254e-05 0.28300002 nan
0.10798258 3.1109797e-05 0.28400001 nan
0.079448767 0.00053068082 0.30700001 -3.3509044e+38
0.079685405 0.00052895222 0.30600002 -3.3509044e+38
0.080180839 0.00052895222 0.30600002 -3.3772808e+38
0.081171706 0.00052895222 0.30600002 nan
0.081400253 0.00052722363 0.30500001 -3.3906252e+38
0.081894062 0.00052722363 0.30500001 -3.3906767e+38
0.082609951 0.00052549504 0.30400002 -3.3773323e+38
0.083102144 0.00052549504 0.30400002 -3.3906767e+38
0.083319359 0.00052376644 0.303 -3.3906767e+38
0.084022291 0.00052203785 0.30200002 -3.3773323e+38
0.084511243 0.00052203785 0.30200002 -3.3773323e+38
0.085000202 0.00052203785 0.30200002 -3.3905727e+38
0.085693412 0.0005203092 0.30100003 nan
0.086180754 0.0005203092 0.30100003 -3.3905727e+38
0.086865872 0.00051858061 0.30000001 -3.3905727e+38
0.08735159 0.00051858061 0.30000001 -3.3905727e+38
0.087544516 0.00051685201 0.29900002 -3.3905727e+38
0.088216685 0.00051512342 0.29800001 -3.3905727e+38
0.088699169 0.00051512342 0.29800001 -3.3905727e+38
0.08936324 0.00051339483 0.29700002 -3.3772283e+38
0.089541599 0.00051166624 0.296 -3.3905727e+38
0.089716718 0.00050993758 0.29500002 -3.3905727e+38
0.090364598 0.00050820899 0.294 -3.3905727e+38
0.0908406 0.00050820899 0.294 -3.3772283e+38
0.091480389 0.0005064804 0.29300001 -3.3905723e+38
0.091954775 0.0005064804 0.29300001 nan
0.092113703 0.00050475181 0.29200003 nan
0.093059234 0.00050475181 0.29200003 nan
0.093211688 0.00050302321 0.29100001 nan
0.093830429 0.00050129462 0.29000002 nan
0.094299957 0.00050129462 0.29000002 nan
0.094442688 0.00049956597 0.289 nan
0.095378511 0.00049956597 0.289 nan
0.095846415 0.00049956597 0.289 nan
0.095981061 0.00049783738 0.28800002 nan
0.096913636 0.00049783738 0.28800002 nan
0.097041801 0.00049610878 0.287 nan
0.097506471 0.00049610878 0.287 nan
0.098435812 0.00049610878 0.287 nan
0.098555885 0.00049438019 0.28600001 nan
