# .PCD v0.7 - Point Cloud Data file format
VERSION 0.7
FIELDS x y z rgb
SIZE 4 4 4 4
TYPE F F F F
COUNT 1 1 1 1
WIDTH 1071
HEIGHT 1
VIEWPOINT 0 0 0 1 0 0 0
POINTS 1071
DATA ascii
0.10630898 -0.0027085599 0.28200001 nan
0.10714415 -0.0027181644 0.28300002 nan
0.077432454 -0.0024196855 0.303 -3.3117579e+38
0.07792303 -0.0024196855 0.303 -3.2450359e+38
0.078672394 -0.0024276713 0.30400002 -3.3642488e+38
0.078904182 -0.0024196855 0.303 -3.3509044e+38
0.079885334 -0.0024196855 0.303 -3.3641437e+38
0.080375902 -0.0024196855 0.303 -3.3906763e+38
0.080866478 -0.0024196855 0.303 -3.3773319e+38
0.08157751 -0.0024116999 0.30200002 -3.3905723e+38
0.082066461 -0.0024116999 0.30200002 nan
0.082282051 -0.0024037142 0.30100003 -3.3905723e+38
0.083256729 -0.0024037142 0.30100003 -3.3905723e+38
0.083465844 -0.0023957284 0.30000001 -3.3905723e+38
0.084437281 -0.0023957284 0.30000001 nan
0.084639922 -0.0023877425 0.29900002 nan
0.085124023 -0.0023877425 0.29900002 nan
0.085804291 -0.0023797569 0.29800001 -3.3905723e+38
0.086286768 -0.0023797569 0.29800001 -3.3905723e+38
0.086769246 -0.0023797569 0.29800001 -3.3905723e+38
0.078180201 -0.001935477 0.30400002 -3.2316393e+38
0.078672394 -0.001935477 0.30400002 -3.3509044e+38
0.079164587 -0.001935477 0.30400002 -3.3509044e+38
0.08014898 -0.001935477 0.30400002 -3.3641437e+38
0.080375902 -0.0019291103 0.303 -3.3906763e+38
0.080866478 -0.0019291103 0.303 -3.3639875e+38
0.08184763 -0.0019291103 0.303 -3.3905723e+38
0.082066461 -0.0019227435 0.30200002 -3.3905723e+38
0.082555421 -0.0019227435 0.30200002 -3.3905723e+38
0.083256729 -0.0019163769 0.30100003 -3.3905723e+38
0.083744064 -0.0019163769 0.30100003 -3.3905723e+38
0.084437281 -0.0019100101 0.30000001 nan
0.084922999 -0.0019100101 0.30000001 nan
0.085124023 -0.0019036434 0.29900002 nan
0.086092219 -0.0019036434 0.29900002 -3.3905723e+38
0.086286768 -0.0018972768 0.29800001 -3.3905723e+38
0.086769246 -0.0018972768 0.29800001 -3.3905723e+38
0.087734208 -0.0018972768 0.29800001 -3.3905723e+38
0.087920658 -0.0018909101 0.29700002 -3.3772279e+38
0.088401519 -0.0018909101 0.29700002 -3.3905723e+38
0.089062355 -0.0018845433 0.296 -3.3772279e+38
0.089239091 -0.0018781766 0.29500002 -3.3905723e+38
0.089582853 -0.0018654433 0.29300001 -3.3905723e+38
0.090057239 -0.0018654433 0.29300001 nan
0.090695404 -0.0018590766 0.29200003 -3.3771232e+38
0.091168173 -0.0018590766 0.29200003 -3.3771232e+38
0.091327101 -0.0018527098 0.29100001 nan
0.092269391 -0.0018527098 0.29100001 nan
0.092421845 -0.0018463433 0.29000002 nan
0.093038969 -0.0018399765 0.289 nan
0.093506873 -0.0018399765 0.289 nan
0.093974784 -0.0018399765 0.289 nan
0.094582193 -0.0018336098 0.28800002 nan
0.09504848 -0.0018336098 0.28800002 nan
0.095183119 -0.001827243 0.287 nan
0.09611246 -0.001827243 0.287 nan
0.096240625 -0.0018208763 0.28600001 nan
0.096703678 -0.0018208763 0.28600001 -3.3904151e+38
0.097288415 -0.0018145097 0.28500003 -3.3904151e+38
0.097749852 -0.0018145097 0.28500003 nan
0.098211281 -0.0018145097 0.28500003 nan
0.098786309 -0.001808143 0.28400001 nan
0.099246122 -0.001808143 0.28400001 nan
0.099813044 -0.0018017762 0.28300002 nan
0.10027124 -0.0018017762 0.28300002 nan
0.10072944 -0.0018017762 0.28300002 nan
0.10118763 -0.0018017762 0.28300002 nan
0.10174323 -0.0017954097 0.28200001 nan
0.1021998 -0.0017954097 0.28200001 nan
0.10265638 -0.0017954097 0.28200001 nan
0.10356953 -0.0017954097 0.28200001 nan
0.1040261 -0.0017954097 0.28200001 nan
0.10411217 -0.001789043 0.28100002 nan
0.10502208 -0.001789043 0.28100002 nan
0.1058524 -0.0017954097 0.28200001 nan
0.10630898 -0.0017954097 0.28200001 nan
0.10676556 -0.0017954097 0.28200001 nan
0.078180201 -0.0014432826 0.30400002 -3.2580675e+38
0.078672394 -0.0014432826 0.30400002 -3.3509044e+38
0.079164587 -0.0014432826 0.30400002 -3.3509044e+38
0.08014898 -0.0014432826 0.30400002 -3.3641437e+38
0.080641173 -0.0014432826 0.30400002 -3.3906763e+38
0.081133366 -0.0014432826 0.30400002 -3.3639875e+38
0.08184763 -0.0014385349 0.303 -3.3905727e+38
0.082338206 -0.0014385349 0.303 -3.3905727e+38
0.082555421 -0.0014337873 0.30200002 -3.3905727e+38
0.083533332 -0.0014337873 0.30200002 -3.3773323e+38
0.083744064 -0.0014290398 0.30100003 -3.3773323e+38
0.084437281 -0.001424292 0.30000001 -3.3906252e+38
0.084922999 -0.001424292 0.30000001 -3.3906252e+38
0.085408717 -0.001424292 0.30000001 -3.3906767e+38
0.086092219 -0.0014195443 0.29900002 -3.3773319e+38
0.08657632 -0.0014195443 0.29900002 -3.3773319e+38
0.086769246 -0.0014147967 0.29800001 -3.3773319e+38
0.087734208 -0.0014147967 0.29800001 -3.3773319e+38
0.087920658 -0.0014100492 0.29700002 -3.3639875e+38
0.088401519 -0.0014100492 0.29700002 -3.3639875e+38
0.089062355 -0.0014053015 0.296 -3.3773319e+38
0.089239091 -0.0014005537 0.29500002 -3.3773319e+38
0.089888595 -0.0013958062 0.294 -3.3905723e+38
0.090057239 -0.0013910586 0.29300001 -3.3905723e+38
0.090531625 -0.0013910586 0.29300001 -3.3905723e+38
0.091168173 -0.0013863109 0.29200003 -3.3771232e+38
0.091640942 -0.0013863109 0.29200003 nan
0.092269391 -0.0013815633 0.29100001 nan
0.092421845 -0.0013768156 0.29000002 nan
0.092891373 -0.0013768156 0.29000002 nan
0.093506873 -0.0013720681 0.289 nan
0.093974784 -0.0013720681 0.289 nan
0.094582193 -0.0013673203 0.28800002 nan
0.09504848 -0.0013673203 0.28800002 nan
0.095514767 -0.0013673203 0.28800002 nan
0.09611246 -0.0013625727 0.287 nan
0.09657713 -0.0013625727 0.287 nan
0.096703678 -0.001357825 0.28600001 -3.3904151e+38
0.097288415 -0.0013530775 0.28500003 -3.3904151e+38
0.097749852 -0.0013530775 0.28500003 nan
0.098211281 -0.0013530775 0.28500003 nan
0.098786309 -0.0013483298 0.28400001 nan
0.099246122 -0.0013483298 0.28400001 nan
0.099705935 -0.0013483298 0.28400001 nan
0.10027124 -0.0013435821 0.28300002 nan
0.10072944 -0.0013435821 0.28300002 nan
0.10118763 -0.0013435821 0.28300002 nan
0.10174323 -0.0013388345 0.28200001 nan
0.1021998 -0.0013388345 0.28200001 nan
0.10265638 -0.0013388345 0.28200001 nan
0.10356953 -0.0013388345 0.28200001 nan
0.1040261 -0.0013388345 0.28200001 nan
0.10411217 -0.0013340869 0.28100002 nan
0.10502208 -0.0013340869 0.28100002 nan
0.10547704 -0.0013340869 0.28100002 nan
0.105932 -0.0013340869 0.28100002 nan
0.10684191 -0.0013340869 0.28100002 nan
0.078437373 -0.00095421681 0.30500001 -3.2845997e+38
0.078931183 -0.00095421681 0.30500001 -3.3509044e+38
0.079425 -0.00095421681 0.30500001 -3.3509044e+38
0.079918809 -0.00095421681 0.30500001 -3.3774881e+38
0.080641173 -0.00095108815 0.30400002 -3.3507993e+38
0.081133366 -0.00095108815 0.30400002 -3.3507993e+38
0.081625558 -0.00095108815 0.30400002 -3.3773323e+38
0.082338206 -0.00094795955 0.303 -3.3773323e+38
0.082828782 -0.00094795955 0.303 -3.3773323e+38
0.083533332 -0.000944831 0.30200002 -3.3773323e+38
0.083744064 -0.00094170246 0.30100003 -3.3773323e+38
0.084231399 -0.00094170246 0.30100003 -3.3773323e+38
0.084922999 -0.00093857385 0.30000001 -3.3906252e+38
0.085408717 -0.00093857385 0.30000001 -3.3772808e+38
0.085894436 -0.00093857385 0.30000001 -3.3906252e+38
0.08657632 -0.00093544525 0.29900002 -3.3773319e+38
0.087060422 -0.00093544525 0.29900002 -3.3773319e+38
0.087734208 -0.0009323167 0.29800001 -3.3773319e+38
0.088216685 -0.0009323167 0.29800001 -3.3639875e+38
0.088401519 -0.00092918816 0.29700002 -3.3639875e+38
0.08936324 -0.00092918816 0.29700002 -3.3905723e+38
0.089541599 -0.00092605955 0.296 -3.3905723e+38
0.089888595 -0.00091980241 0.294 -3.3905723e+38
0.090364598 -0.00091980241 0.294 -3.3905723e+38
0.090531625 -0.00091667386 0.29300001 -3.3905723e+38
0.091480389 -0.00091667386 0.29300001 -3.3505387e+38
0.091640942 -0.0009135452 0.29200003 -3.3905719e+38
0.092269391 -0.00091041659 0.29100001 -3.3772275e+38
0.092740543 -0.00091041659 0.29100001 -3.3905719e+38
0.092891373 -0.00090728805 0.29000002 -3.3772275e+38
0.093830429 -0.00090728805 0.29000002 nan
0.093974784 -0.0009041595 0.289 nan
0.094442688 -0.0009041595 0.289 nan
0.09504848 -0.0009010309 0.28800002 nan
0.095514767 -0.0009010309 0.28800002 nan
0.09611246 -0.0008979023 0.287 nan
0.09657713 -0.0008979023 0.287 nan
0.096703678 -0.00089477375 0.28600001 nan
0.097629778 -0.00089477375 0.28600001 -3.3903636e+38
0.098092832 -0.00089477375 0.28600001 nan
0.098211281 -0.00089164521 0.28500003 nan
0.099134147 -0.00089164521 0.28500003 nan
0.099246122 -0.0008885166 0.28400001 nan
0.099705935 -0.0008885166 0.28400001 nan
0.10027124 -0.00088538794 0.28300002 -3.3904147e+38
0.10072944 -0.00088538794 0.28300002 nan
0.10118763 -0.00088538794 0.28300002 nan
0.10174323 -0.0008822594 0.28200001 nan
0.1021998 -0.0008822594 0.28200001 nan
0.10265638 -0.0008822594 0.28200001 nan
0.10356953 -0.0008822594 0.28200001 nan
0.1040261 -0.0008822594 0.28200001 nan
0.10411217 -0.00087913091 0.28100002 nan
0.10502208 -0.00087913091 0.28100002 nan
0.10547704 -0.00087913091 0.28100002 nan
0.105932 -0.00087913091 0.28100002 nan
0.10684191 -0.00087913091 0.28100002 nan
0.078437373 3.3410171e-05 0.30500001 -3.3110802e+38
0.078931183 3.3410171e-05 0.30500001 -3.3509559e+38
0.079425 3.3410171e-05 0.30500001 -3.3509559e+38
0.079918809 3.3410171e-05 0.30500001 -3.3908325e+38
0.080906436 3.3410171e-05 0.30500001 -3.3774881e+38
0.081133366 3.3300628e-05 0.30400002 -3.3641437e+38
0.081625558 3.3300628e-05 0.30400002 -3.3773323e+38
0.082609951 3.3300628e-05 0.30400002 -3.3773323e+38
0.082828782 3.3191085e-05 0.303 -3.3906767e+38
0.083533332 3.3081546e-05 0.30200002 -3.3773323e+38
0.084022291 3.3081546e-05 0.30200002 -3.3773323e+38
0.084231399 3.2972002e-05 0.30100003 -3.3773323e+38
0.085206077 3.2972002e-05 0.30100003 -3.3906252e+38
0.085408717 3.2862463e-05 0.30000001 -3.3772808e+38
0.085894436 3.2862463e-05 0.30000001 -3.3906252e+38
0.086865872 3.2862463e-05 0.30000001 -3.3773319e+38
0.087060422 3.275292e-05 0.29900002 -3.3773319e+38
0.087544516 3.275292e-05 0.29900002 -3.3639875e+38
0.088216685 3.264338e-05 0.29800001 -3.3773319e+38
0.088699169 3.264338e-05 0.29800001 -3.3773319e+38
0.08936324 3.2533837e-05 0.29700002 -3.3905723e+38
0.089541599 3.2424297e-05 0.296 -3.3905723e+38
0.089888595 3.2205211e-05 0.294 -3.3905723e+38
0.090364598 3.2205211e-05 0.294 -3.3905723e+38
0.090531625 3.2095671e-05 0.29300001 nan
0.091480389 3.2095671e-05 0.29300001 -3.3772279e+38
0.091640942 3.1986128e-05 0.29200003 -3.3905719e+38
0.092113703 3.1986128e-05 0.29200003 -3.3905719e+38
0.092740543 3.1876589e-05 0.29100001 -3.3905719e+38
0.093211688 3.1876589e-05 0.29100001 -3.3772279e+38
0.093830429 3.1767046e-05 0.29000002 -3.3905719e+38
0.094299957 3.1767046e-05 0.29000002 -3.3772275e+38
0.094442688 3.1657506e-05 0.289 nan
0.095378511 3.1657506e-05 0.289 nan
0.095514767 3.1547963e-05 0.28800002 nan
0.095981061 3.1547963e-05 0.28800002 nan
0.09657713 3.1438423e-05 0.287 nan
0.097041801 3.1438423e-05 0.287 nan
0.097629778 3.132888e-05 0.28600001 nan
0.098092832 3.132888e-05 0.28600001 nan
0.098555885 3.132888e-05 0.28600001 nan
0.099134147 3.1219341e-05 0.28500003 nan
0.099246122 3.1109797e-05 0.28400001 nan
0.099705935 3.1109797e-05 0.28400001 nan
0.10062556 3.1109797e-05 0.28400001 nan
0.10072944 3.1000254e-05 0.28300002 nan
0.10118763 3.1000254e-05 0.28300002 nan
0.10174323 3.0890715e-05 0.28200001 nan
0.1021998 3.0890715e-05 0.28200001 nan
0.10265638 3.0890715e-05 0.28200001 nan
0.10356953 3.0890715e-05 0.28200001 nan
0.1040261 3.0890715e-05 0.28200001 nan
0.10411217 3.0781172e-05 0.28100002 nan
0.10502208 3.0781172e-05 0.28100002 nan
0.10547704 3.0781172e-05 0.28100002 nan
0.105932 3.0781172e-05 0.28100002 nan
0.10684191 3.0781172e-05 0.28100002 nan
0.078199111 0.00052895222 0.30600002 -3.3645094e+38
0.079189979 0.00052895222 0.30600002 -3.3509559e+38
0.079685405 0.00052895222 0.30600002 -3.3509559e+38
0.079918809 0.00052722363 0.30500001 -3.3908325e+38
0.080906436 0.00052722363 0.30500001 -3.3906763e+38
0.081400253 0.00052722363 0.30500001 -3.3906763e+38
0.081625558 0.00052549504 0.30400002 -3.3773323e+38
0.082609951 0.00052549504 0.30400002 -3.3773323e+38
0.082828782 0.00052376644 0.303 -3.3906767e+38
0.083319359 0.00052376644 0.303 -3.3773323e+38
0.084022291 0.00052203785 0.30200002 -3.3773323e+38
0.084511243 0.00052203785 0.30200002 -3.3906767e+38
0.085206077 0.0005203092 0.30100003 -3.3772808e+38
0.085693412 0.0005203092 0.30100003 -3.3773323e+38
0.085894436 0.00051858061 0.30000001 -3.3773323e+38
0.086865872 0.00051858061 0.30000001 -3.3905723e+38
0.08735159 0.00051858061 0.30000001 -3.3905723e+38
0.087544516 0.00051685201 0.29900002 -3.3772279e+38
0.088512719 0.00051685201 0.29900002 -3.3905723e+38
0.088699169 0.00051512342 0.29800001 -3.3905723e+38
0.08936324 0.00051339483 0.29700002 -3.3905723e+38
0.0898441 0.00051339483 0.29700002 -3.3905723e+38
0.089716718 0.00050993758 0.29500002 -3.3905723e+38
0.090364598 0.00050820899 0.294 -3.3905723e+38
0.0908406 0.00050820899 0.294 -3.3905723e+38
0.091480389 0.0005064804 0.29300001 -3.3772279e+38
0.091954775 0.0005064804 0.29300001 -3.3905723e+38
0.092113703 0.00050475181 0.29200003 -3.3905723e+38
0.093059234 0.00050475181 0.29200003 -3.3905723e+38
0.093211688 0.00050302321 0.29100001 -3.3905723e+38
0.093682833 0.00050302321 0.29100001 -3.3905723e+38
0.094299957 0.00050129462 0.29000002 -3.3772279e+38
0.094769485 0.00050129462 0.29000002 nan
0.095378511 0.00049956597 0.289 nan
0.095846415 0.00049956597 0.289 nan
0.095981061 0.00049783738 0.28800002 nan
0.096913636 0.00049783738 0.28800002 nan
0.097041801 0.00049610878 0.287 nan
0.097506471 0.00049610878 0.287 nan
0.098435812 0.00049610878 0.287 nan
0.098555885 0.00049438019 0.28600001 nan
0.099134147 0.0004926516 0.28500003 nan
0.099595577 0.0004926516 0.28500003 nan
0.099705935 0.000490923 0.28400001 nan
0.10062556 0.000490923 0.28400001 nan
0.10072944 0.00048919441 0.28300002 nan
0.10118763 0.00048919441 0.28300002 nan
0.10210402 0.00048919441 0.28300002 nan
0.1021998 0.00048746579 0.28200001 nan
0.10265638 0.00048746579 0.28200001 nan
0.10356953 0.00048746579 0.28200001 nan
0.1040261 0.00048746579 0.28200001 nan
0.10411217 0.00048573717 0.28100002 nan
0.10502208 0.00048573717 0.28100002 nan
0.10547704 0.00048573717 0.28100002 nan
0.105932 0.00048573717 0.28100002 nan
0.10684191 0.00048573717 0.28100002 nan
0.078199111 0.0010243848 0.30600002 -3.3643532e+38
0.079189979 0.0010243848 0.30600002 -3.3509559e+38
0.079685405 0.0010243848 0.30600002 -3.3509559e+38
0.080180839 0.0010243848 0.30600002 -3.3774881e+38
0.080906436 0.001021037 0.30500001 -3.3906763e+38
0.081400253 0.001021037 0.30500001 -3.3906763e+38
0.081894062 0.001021037 0.30500001 -3.3905723e+38
0.082609951 0.0010176895 0.30400002 -3.3773323e+38
0.083102144 0.0010176895 0.30400002 -3.3906767e+38
0.083319359 0.0010143418 0.303 -3.3773323e+38
0.084300511 0.0010143418 0.303 -3.3773323e+38
0.084511243 0.0010109941 0.30200002 -3.3906767e+38
0.085000202 0.0010109941 0.30200002 -3.3906767e+38
0.085693412 0.0010076464 0.30100003 -3.3905727e+38
0.086180754 0.0010076464 0.30100003 -3.3905727e+38
0.086865872 0.0010042988 0.30000001 -3.3905723e+38
0.08735159 0.0010042988 0.30000001 -3.3905723e+38
0.087837309 0.0010042988 0.30000001 -3.3905723e+38
0.088512719 0.0010009512 0.29900002 -3.3905723e+38
0.088996813 0.0010009512 0.29900002 nan
0.089181647 0.00099760341 0.29800001 -3.3905723e+38
0.0898441 0.00099425577 0.29700002 -3.3905727e+38
0.089716718 0.00098756049 0.29500002 -3.3905723e+38
0.090671964 0.00098756049 0.29500002 -3.3905723e+38
0.0908406 0.00098421285 0.294 -3.3905723e+38
0.091316611 0.00098421285 0.294 -3.3772279e+38
0.091954775 0.00098086509 0.29300001 -3.3905723e+38
0.092429161 0.00098086509 0.29300001 -3.3905723e+38
0.093059234 0.00097751745 0.29200003 -3.3772279e+38
0.093532003 0.00097751745 0.29200003 -3.3905723e+38
0.093682833 0.00097416987 0.29100001 -3.3905723e+38
0.09462513 0.00097416987 0.29100001 -3.3905723e+38
0.094769485 0.00097082218 0.29000002 -3.3905723e+38
0.095239013 0.00097082218 0.29000002 -3.3772279e+38
0.095846415 0.00096747442 0.289 -3.3772275e+38
0.096314326 0.00096747442 0.289 -3.3905719e+38
0.096913636 0.00096412684 0.28800002 -3.3905719e+38
0.097041801 0.0009607792 0.287 -3.3772275e+38
0.097506471 0.0009607792 0.287 nan
0.098435812 0.0009607792 0.287 nan
0.098555885 0.0009574315 0.28600001 nan
0.099018931 0.0009574315 0.28600001 nan
0.099595577 0.00095408381 0.28500003 nan
0.10005701 0.00095408381 0.28500003 nan
0.10062556 0.00095073617 0.28400001 nan
0.10108537 0.00095073617 0.28400001 nan
0.10118763 0.00094738859 0.28300002 nan
0.10210402 0.00094738859 0.28300002 nan
0.10256221 0.00094738859 0.28300002 nan
0.10265638 0.00094404083 0.28200001 nan
0.10356953 0.00094404083 0.28200001 nan
0.10365722 0.00094069313 0.28100002 nan
0.10411217 0.00094069313 0.28100002 nan
0.10502208 0.00094069313 0.28100002 nan
0.10547704 0.00094069313 0.28100002 nan
0.105932 0.00094069313 0.28100002 nan
0.10684191 0.00094069313 0.28100002 nan
0.084300511 0.0015049172 0.303 -3.3906763e+38
0.084791087 0.0015049172 0.303 -3.3906763e+38
0.085000202 0.0014999504 0.30200002 -3.3773323e+38
0.085978113 0.0014999504 0.30200002 -3.3905723e+38
0.086180754 0.0014949836 0.30100003 -3.3905723e+38
0.086668089 0.0014949836 0.30100003 -3.3905723e+38
0.08735159 0.0014900169 0.30000001 nan
0.087837309 0.0014900169 0.30000001 -3.3905723e+38
0.088323027 0.0014900169 0.30000001 -3.3905723e+38
0.088996813 0.0014850503 0.29900002 -3.3905723e+38
0.089181647 0.0014800834 0.29800001 -3.3905723e+38
0.090146609 0.0014800834 0.29800001 nan
0.089716718 0.0014651833 0.29500002 -3.3905723e+38
0.090671964 0.0014651833 0.29500002 -3.3905723e+38
0.0908406 0.0014602166 0.294 -3.3905723e+38
0.091316611 0.0014602166 0.294 -3.3772279e+38
0.091954775 0.0014552498 0.29300001 nan
0.092429161 0.0014552498 0.29300001 -3.3905723e+38
0.093377933 0.0014552498 0.29300001 -3.3772279e+38
0.093532003 0.0014502831 0.29200003 -3.3905723e+38
0.093682833 0.0014453165 0.29100001 -3.3905723e+38
0.09462513 0.0014453165 0.29100001 -3.3905723e+38
0.094769485 0.0014403497 0.29000002 nan
0.095239013 0.0014403497 0.29000002 -3.3905719e+38
0.095846415 0.001435383 0.289 -3.3905719e+38
0.096314326 0.001435383 0.289 -3.3905719e+38
0.096913636 0.0014304162 0.28800002 -3.3905719e+38
0.09737993 0.0014304162 0.28800002 -3.3772275e+38
0.097846217 0.0014304162 0.28800002 nan
0.098435812 0.0014254496 0.287 nan
0.098900482 0.0014254496 0.287 nan
0.099018931 0.0014204828 0.28600001 nan
0.099595577 0.001415516 0.28500003 nan
0.10005701 0.001415516 0.28500003 nan
0.10062556 0.0014105494 0.28400001 nan
0.10108537 0.0014105494 0.28400001 nan
0.10118763 0.0014055826 0.28300002 nan
0.10210402 0.0014055826 0.28300002 nan
0.10256221 0.0014055826 0.28300002 nan
0.10265638 0.0014006159 0.28200001 nan
0.10356953 0.0014006159 0.28200001 nan
0.10365722 0.0013956492 0.28100002 nan
0.10411217 0.0013956492 0.28100002 nan
0.10502208 0.0013956492 0.28100002 nan
0.10547704 0.0013956492 0.28100002 nan
0.105932 0.0013956492 0.28100002 nan
0.10684191 0.0013956492 0.28100002 nan
0.078454666 0.0020218357 0.30700001 -3.3642492e+38
0.079448767 0.0020218357 0.30700001 -3.3641441e+38
0.079945818 0.0020218357 0.30700001 -3.3774885e+38
0.080180839 0.0020152498 0.30600002 nan
0.081171706 0.0020152498 0.30600002 nan
0.08166714 0.0020152498 0.30600002 -3.3905723e+38
0.081894062 0.002008664 0.30500001 -3.3905723e+38
0.082881697 0.002008664 0.30500001 -3.3906763e+38
0.083102144 0.0020020783 0.30400002 -3.3906763e+38
0.083594337 0.0020020783 0.30400002 nan
0.078710213 0.0025270921 0.30800003 -3.3509048e+38
0.079208888 0.0025270921 0.30800003 -3.3375604e+38
0.079945818 0.0025188872 0.30700001 -3.3641441e+38
0.080442868 0.0025188872 0.30700001 nan
0.081171706 0.0025106822 0.30600002 nan
0.08166714 0.0025106822 0.30600002 nan
0.082162574 0.0025106822 0.30600002 nan
0.082881697 0.0025024775 0.30500001 -3.3773319e+38
0.083375506 0.0025024775 0.30500001 -3.3906763e+38
0.083594337 0.0024942725 0.30400002 -3.3906763e+38
0.08457873 0.0024942725 0.30400002 -3.3906763e+38
0.084791087 0.0024860678 0.303 -3.3906763e+38
0.085000202 0.0024778631 0.30200002 -3.3773323e+38
0.085978113 0.0024778631 0.30200002 -3.3773319e+38
0.086467072 0.0024778631 0.30200002 -3.3906763e+38
0.086668089 0.0024696582 0.30100003 -3.3773319e+38
0.087642759 0.0024696582 0.30100003 -3.3906763e+38
0.087837309 0.0024614532 0.30000001 -3.3906763e+38
0.088323027 0.0024614532 0.30000001 -3.3773323e+38
0.088996813 0.0024532485 0.29900002 -3.3773323e+38
0.089480914 0.0024532485 0.29900002 -3.3773323e+38
0.090146609 0.0024450435 0.29800001 nan
0.090020843 0.0024286339 0.296 -3.3905727e+38
0.090671964 0.0024204291 0.29500002 nan
0.091149583 0.0024204291 0.29500002 -3.3905723e+38
0.091316611 0.0024122242 0.294 -3.3772279e+38
0.092268616 0.0024122242 0.294 nan
0.092429161 0.0024040192 0.29300001 nan
0.093377933 0.0024040192 0.29300001 -3.3905727e+38
0.093532003 0.0023958145 0.29200003 -3.3905723e+38
0.094004765 0.0023958145 0.29200003 -3.3905723e+38
0.09462513 0.0023876098 0.29100001 -3.3905723e+38
0.095096275 0.0023876098 0.29100001 nan
0.095239013 0.0023794046 0.29000002 -3.3905719e+38
0.096178062 0.0023794046 0.29000002 nan
0.096314326 0.0023711999 0.289 -3.3905719e+38
0.096782237 0.0023711999 0.289 nan
0.09737993 0.0023629952 0.28800002 -3.3905719e+38
0.097846217 0.0023629952 0.28800002 nan
0.098778792 0.0023629952 0.28800002 nan
0.098900482 0.0023547902 0.287 nan
0.099018931 0.0023465855 0.28600001 nan
0.099945039 0.0023465855 0.28600001 nan
0.10005701 0.0023383806 0.28500003 nan
0.10051844 0.0023383806 0.28500003 nan
0.10108537 0.0023301758 0.28400001 nan
0.10154518 0.0023301758 0.28400001 nan
0.10210402 0.0023219709 0.28300002 nan
0.10256221 0.0023219709 0.28300002 nan
0.10302041 0.0023219709 0.28300002 nan
0.10356953 0.0023137659 0.28200001 nan
0.10365722 0.0023055612 0.28100002 nan
0.10411217 0.0023055612 0.28100002 nan
0.10502208 0.0023055612 0.28100002 -3.3904147e+38
0.10547704 0.0023055612 0.28100002 nan
0.105932 0.0023055612 0.28100002 nan
0.10684191 0.0023055612 0.28100002 nan
0.079208888 0.0030257627 0.30800003 -3.3375604e+38
0.08020623 0.0030257627 0.30800003 -3.3641441e+38
0.080442868 0.0030159387 0.30700001 -3.3906763e+38
0.080939919 0.0030159387 0.30700001 -3.3773319e+38
0.081934027 0.0030159387 0.30700001 -3.3906763e+38
0.082162574 0.0030061146 0.30600002 -3.3906763e+38
0.082658 0.0030061146 0.30600002 -3.3906763e+38
0.083375506 0.0029962908 0.30500001 -3.3906763e+38
0.083869323 0.0029962908 0.30500001 -3.3906763e+38
0.08457873 0.002986467 0.30400002 -3.3906763e+38
0.084791087 0.0029766432 0.303 -3.3906763e+38
0.085281663 0.0029766432 0.303 -3.3906767e+38
0.085978113 0.0029668193 0.30200002 -3.3906767e+38
0.086467072 0.0029668193 0.30200002 -3.3906767e+38
0.086668089 0.0029569953 0.30100003 -3.3906767e+38
0.087642759 0.0029569953 0.30100003 -3.3906767e+38
0.088130102 0.0029569953 0.30100003 -3.3906767e+38
0.088323027 0.0029471715 0.30000001 -3.3906767e+38
0.089294463 0.0029471715 0.30000001 -3.3773323e+38
0.089480914 0.0029373476 0.29900002 -3.3773323e+38
0.090146609 0.0029275236 0.29800001 -3.3773323e+38
0.090020843 0.0029078757 0.296 -3.3773323e+38
0.090979323 0.0029078757 0.296 nan
0.091149583 0.0028980519 0.29500002 -3.3905727e+38
0.09162721 0.0028980519 0.29500002 -3.3772283e+38
0.092268616 0.002888228 0.294 nan
0.092744619 0.002888228 0.294 nan
0.093377933 0.002878404 0.29300001 -3.3905727e+38
0.093852319 0.002878404 0.29300001 -3.3905727e+38
0.094004765 0.0028685802 0.29200003 -3.3905727e+38
0.094950296 0.0028685802 0.29200003 -3.3905723e+38
0.095096275 0.0028587563 0.29100001 -3.3905719e+38
0.09556742 0.0028587563 0.29100001 -3.3905719e+38
0.096178062 0.0028489323 0.29000002 nan
0.09664759 0.0028489323 0.29000002 -3.3905719e+38
0.096782237 0.0028391085 0.289 -3.3905719e+38
0.097718053 0.0028391085 0.289 -3.3772275e+38
0.098185956 0.0028391085 0.289 nan
0.098778792 0.0028292846 0.28800002 nan
0.098900482 0.0028194606 0.287 nan
0.099365152 0.0028194606 0.287 nan
0.099945039 0.0028096368 0.28600001 nan
0.10040809 0.0028096368 0.28600001 nan
0.10051844 0.0027998127 0.28500003 nan
0.10144131 0.0027998127 0.28500003 nan
0.10154518 0.0027899889 0.28400001 nan
0.10246482 0.0027899889 0.28400001 nan
0.10292463 0.0027899889 0.28400001 nan
0.10302041 0.0027801651 0.28300002 -3.3771232e+38
0.10393679 0.0027801651 0.28300002 nan
0.1040261 0.002770341 0.28200001 nan
0.10448268 0.002770341 0.28200001 nan
0.10502208 0.0027605172 0.28100002 -3.3771743e+38
0.10547704 0.0027605172 0.28100002 nan
0.105932 0.0027605172 0.28100002 nan
0.08020623 0.0035244331 0.30800003 -3.3640926e+38
0.080704898 0.0035244331 0.30800003 -3.3906767e+38
0.080939919 0.0035129902 0.30700001 -3.3906767e+38
0.081934027 0.0035129902 0.30700001 nan
0.082431078 0.0035129902 0.30700001 -3.3906763e+38
0.082658 0.0035015473 0.30600002 -3.3906763e+38
0.083648868 0.0035015473 0.30600002 -3.3906767e+38
0.083869323 0.0034901043 0.30500001 -3.3906767e+38
0.08457873 0.0034786614 0.30400002 -3.3906767e+38
0.085070923 0.0034786614 0.30400002 -3.3906767e+38
0.085281663 0.0034672185 0.303 -3.3906767e+38
0.086262807 0.0034672185 0.303 -3.3773323e+38
0.086467072 0.0034557756 0.30200002 -3.3906767e+38
0.086956032 0.0034557756 0.30200002 -3.3906767e+38
0.087642759 0.0034443326 0.30100003 -3.3906767e+38
0.088130102 0.0034443326 0.30100003 -3.3906767e+38
0.088617437 0.0034443326 0.30100003 -3.3906767e+38
0.089294463 0.0034328897 0.30000001 -3.3773323e+38
0.089780182 0.0034328897 0.30000001 -3.3906767e+38
0.089965016 0.0034214465 0.29900002 -3.3906767e+38
0.090324968 0.0033985607 0.29700002 -3.3773323e+38
0.090979323 0.0033871178 0.296 nan
0.091149583 0.0033756748 0.29500002 nan
0.09162721 0.0033756748 0.29500002 -3.3905727e+38
0.092268616 0.0033642319 0.294 nan
0.092744619 0.0033642319 0.294 nan
0.093377933 0.003352789 0.29300001 nan
0.093852319 0.003352789 0.29300001 -3.3905727e+38
0.094004765 0.0033413456 0.29200003 -3.3905727e+38
0.094950296 0.0033413456 0.29200003 -3.3905723e+38
0.095423065 0.0033413456 0.29200003 -3.3905723e+38
0.09556742 0.0033299027 0.29100001 -3.3905723e+38
0.09650971 0.0033299027 0.29100001 nan
0.09664759 0.0033184597 0.29000002 -3.3905723e+38
0.097117119 0.0033184597 0.29000002 -3.3905723e+38
0.097718053 0.0033070168 0.289 -3.3772279e+38
0.098185956 0.0033070168 0.289 nan
0.098778792 0.0032955739 0.28800002 nan
0.099245086 0.0032955739 0.28800002 nan
0.099365152 0.0032841312 0.287 nan
0.10029449 0.0032841312 0.287 nan
0.10040809 0.0032726882 0.28600001 nan
0.10087114 0.0032726882 0.28600001 nan
0.10144131 0.0032612451 0.28500003 nan
0.10190274 0.0032612451 0.28500003 nan
0.10236418 0.0032612451 0.28500003 nan
0.10292463 0.0032498022 0.28400001 nan
0.10338444 0.0032498022 0.28400001 -3.3771236e+38
0.10393679 0.0032383592 0.28300002 nan
0.10439499 0.0032383592 0.28300002 nan
0.10448268 0.0032269161 0.28200001 nan
0.10502208 0.0032154731 0.28100002 nan
0.10547704 0.0032154731 0.28100002 nan
0.10411217 0.0036704291 0.28100002 nan
0.10502208 0.0036704291 0.28100002 nan
0.080704898 0.0045217746 0.30800003 -3.3641441e+38
0.081203565 0.0045217746 0.30800003 -3.3641441e+38
0.081934027 0.0045070932 0.30700001 nan
0.082431078 0.0045070932 0.30700001 -3.3906767e+38
0.082658 0.0044924123 0.30600002 -3.3906767e+38
0.083648868 0.0044924123 0.30600002 -3.3906767e+38
0.083869323 0.0044777314 0.30500001 -3.3906767e+38
0.084363133 0.0044777314 0.30500001 -3.3906767e+38
0.085070923 0.00446305 0.30400002 nan
0.085563116 0.00446305 0.30400002 -3.3773323e+38
0.086262807 0.0044483691 0.303 -3.3906767e+38
0.086753383 0.0044483691 0.303 -3.3773323e+38
0.086956032 0.0044336882 0.30200002 -3.3906767e+38
0.087933943 0.0044336882 0.30200002 nan
0.088130102 0.0044190073 0.30100003 nan
0.088617437 0.0044190073 0.30100003 nan
0.089294463 0.004404326 0.30000001 nan
0.089780182 0.004404326 0.30000001 nan
0.089965016 0.0043896446 0.29900002 nan
0.090324968 0.0043602828 0.29700002 -3.3905727e+38
0.090979323 0.0043456014 0.296 -3.3905727e+38
0.091458566 0.0043456014 0.296 nan
0.09162721 0.0043309205 0.29500002 nan
0.092582457 0.0043309205 0.29500002 nan
0.092744619 0.0043162396 0.294 nan
0.093220621 0.0043162396 0.294 nan
0.093852319 0.0043015582 0.29300001 nan
0.094326697 0.0043015582 0.29300001 nan
0.094950296 0.0042868769 0.29200003 -3.3905727e+38
0.095423065 0.0042868769 0.29200003 nan
0.095895827 0.0042868769 0.29200003 -3.3905723e+38
0.09650971 0.004272196 0.29100001 nan
0.096980862 0.004272196 0.29100001 nan
0.097117119 0.0042575151 0.29000002 nan
0.098056175 0.0042575151 0.29000002 -3.3772279e+38
0.098525703 0.0042575151 0.29000002 nan
0.098653868 0.0042428337 0.289 nan
0.099245086 0.0042281528 0.28800002 nan
0.099711373 0.0042281528 0.28800002 nan
0.10029449 0.0042134719 0.287 nan
0.10075916 0.0042134719 0.287 nan
0.10087114 0.004198791 0.28600001 nan
0.10179725 0.004198791 0.28600001 nan
0.10190274 0.0041841096 0.28500003 nan
0.10236418 0.0041841096 0.28500003 nan
0.10328704 0.0041841096 0.28500003 nan
0.10338444 0.0041694287 0.28400001 nan
0.10384426 0.0041694287 0.28400001 nan
0.10439499 0.0041547474 0.28300002 nan
0.080966927 0.0050367457 0.30900002 -3.3641441e+38
0.081203565 0.0050204452 0.30800003 -3.3641441e+38
0.08170224 0.0050204452 0.30800003 -3.3774885e+38
0.082431078 0.0050041447 0.30700001 -3.3641441e+38
0.082928129 0.0050041447 0.30700001 -3.3641441e+38
0.083648868 0.0049878447 0.30600002 -3.3641441e+38
0.084144302 0.0049878447 0.30600002 -3.3641441e+38
0.084363133 0.0049715447 0.30500001 -3.3641441e+38
0.085350759 0.0049715447 0.30500001 nan
0.085563116 0.0049552447 0.30400002 -3.3906767e+38
0.086055309 0.0049552447 0.30400002 -3.3773323e+38
0.086753383 0.0049389447 0.303 -3.3773323e+38
0.087243959 0.0049389447 0.303 -3.3906767e+38
0.087933943 0.0049226442 0.30200002 nan
0.088422894 0.0049226442 0.30200002 nan
0.088617437 0.0049063442 0.30100003 nan
0.089592114 0.0049063442 0.30100003 nan
0.089780182 0.0048900442 0.30000001 nan
0.090146609 0.0048574437 0.29800001 -3.3905727e+38
0.090629086 0.0048574437 0.29800001 -3.3905727e+38
0.090805829 0.0048411437 0.29700002 -3.3905727e+38
0.091458566 0.0048248433 0.296 nan
0.09193781 0.0048248433 0.296 nan
0.092582457 0.0048085432 0.29500002 nan
0.092744619 0.0047922432 0.294 nan
0.093220621 0.0047922432 0.294 nan
0.093852319 0.0047759432 0.29300001 nan
0.094326697 0.0047759432 0.29300001 nan
0.094801083 0.0047759432 0.29300001 -3.3905727e+38
0.095423065 0.0047596428 0.29200003 nan
0.095895827 0.0047596428 0.29200003 -3.3905727e+38
0.096368596 0.0047596428 0.29200003 nan
0.096980862 0.0047433428 0.29100001 nan
0.097452007 0.0047433428 0.29100001 nan
0.098056175 0.0047270423 0.29000002 -3.3905723e+38
0.098525703 0.0047270423 0.29000002 nan
0.098653868 0.0047107423 0.289 nan
0.099589683 0.0047107423 0.289 nan
0.099711373 0.0046944423 0.28800002 nan
0.10017766 0.0046944423 0.28800002 nan
0.10075916 0.0046781423 0.287 nan
0.10122383 0.0046781423 0.287 nan
0.10179725 0.0046618422 0.28600001 nan
0.10226029 0.0046618422 0.28600001 nan
0.10272335 0.0046618422 0.28600001 nan
0.10328704 0.0046455418 0.28500003 nan
0.10374847 0.0046455418 0.28500003 nan
0.1042099 0.0046455418 0.28500003 nan
0.080966927 0.0055370354 0.30900002 -3.3641441e+38
0.081467219 0.0055370354 0.30900002 -3.3641441e+38
0.08170224 0.0055191158 0.30800003 -3.3774885e+38
0.082699582 0.0055191158 0.30800003 -3.3641441e+38
0.082928129 0.0055011967 0.30700001 -3.3641441e+38
0.083425179 0.0055011967 0.30700001 -3.3507997e+38
0.084144302 0.0054832771 0.30600002 -3.3641441e+38
0.084639736 0.0054832771 0.30600002 -3.3774885e+38
0.085350759 0.005465358 0.30500001 nan
0.085563116 0.0054474389 0.30400002 -3.3906767e+38
0.086055309 0.0054474389 0.30400002 -3.3906767e+38
0.086753383 0.0054295198 0.303 -3.3773323e+38
0.087243959 0.0054295198 0.303 -3.3906767e+38
0.087734535 0.0054295198 0.303 -3.3773323e+38
0.088422894 0.0054116007 0.30200002 -3.3906252e+38
0.088911854 0.0054116007 0.30200002 -3.3906767e+38
0.089592114 0.0053936816 0.30100003 nan
0.090079449 0.0053936816 0.30100003 nan
0.089965016 0.0053578429 0.29900002 nan
0.090629086 0.0053399238 0.29800001 -3.3905727e+38
0.090805829 0.0053220047 0.29700002 -3.3905727e+38
0.09176755 0.0053220047 0.29700002 nan
0.09193781 0.0053040856 0.296 nan
0.092582457 0.0052861664 0.29500002 nan
0.093060076 0.0052861664 0.29500002 nan
0.093220621 0.0052682469 0.294 nan
0.094172634 0.0052682469 0.294 nan
0.094326697 0.0052503278 0.29300001 nan
0.094801083 0.0052503278 0.29300001 -3.3905727e+38
0.095749855 0.0052503278 0.29300001 -3.3905727e+38
0.095895827 0.0052324082 0.29200003 -3.3905727e+38
0.096368596 0.0052324082 0.29200003 -3.3905727e+38
0.096980862 0.0052144891 0.29100001 nan
0.097452007 0.0052144891 0.29100001 nan
0.098056175 0.00519657 0.29000002 -3.3905723e+38
0.098525703 0.00519657 0.29000002 nan
0.098995231 0.00519657 0.29000002 -3.3905719e+38
0.099589683 0.0051786508 0.289 -3.3905719e+38
0.099711373 0.0051607317 0.28800002 nan
0.10017766 0.0051607317 0.28800002 -3.3905719e+38
0.10075916 0.0051428126 0.287 -3.3772275e+38
0.10122383 0.0051428126 0.287 -3.3772275e+38
0.1016885 0.0051428126 0.287 -3.3905719e+38
0.10226029 0.0051248935 0.28600001 -3.3905719e+38
0.10272335 0.0051248935 0.28600001 nan
0.1031864 0.0051248935 0.28600001 -3.3905719e+38
0.1041125 0.0051248935 0.28600001 -3.3905719e+38
0.1042099 0.0051069744 0.28500003 -3.3905719e+38
0.082699582 0.0060177865 0.30800003 -3.3906767e+38
0.083198249 0.0060177865 0.30800003 -3.3906767e+38
0.083425179 0.0059982482 0.30700001 -3.3773323e+38
0.084144302 0.00597871 0.30600002 -3.3906767e+38
0.084639736 0.00597871 0.30600002 nan
0.085350759 0.0059591718 0.30500001 nan
0.085844576 0.0059591718 0.30500001 -3.3906763e+38
0.086055309 0.0059396336 0.30400002 -3.3906763e+38
0.087039702 0.0059396336 0.30400002 -3.3906767e+38
0.087243959 0.0059200954 0.303 -3.3906767e+38
0.087734535 0.0059200954 0.303 -3.3773323e+38
0.088715687 0.0059200954 0.303 -3.3906767e+38
0.088911854 0.0059005572 0.30200002 -3.3906767e+38
0.089592114 0.0058810189 0.30100003 nan
0.090079449 0.0058810189 0.30100003 nan
0.089965016 0.005841942 0.29900002 nan
0.090629086 0.0058224038 0.29800001 -3.3905723e+38
0.091111571 0.0058224038 0.29800001 -3.3905723e+38
0.09176755 0.0058028656 0.29700002 nan
0.09224841 0.0058028656 0.29700002 nan
0.092417054 0.0057833274 0.296 nan
0.093060076 0.0057637892 0.29500002 nan
0.093537703 0.0057637892 0.29500002 nan
0.094172634 0.005744251 0.294 nan
0.094648637 0.005744251 0.294 nan
0.094801083 0.0057247127 0.29300001 nan
0.095749855 0.0057247127 0.29300001 -3.3905727e+38
0.096224241 0.0057247127 0.29300001 nan
0.096368596 0.0057051741 0.29200003 -3.3905727e+38
0.097314127 0.0057051741 0.29200003 nan
0.097452007 0.0056856358 0.29100001 nan
0.097923152 0.0056856358 0.29100001 nan
0.098865449 0.0056856358 0.29100001 nan
0.098995231 0.0056660976 0.29000002 -3.3905719e+38
0.099589683 0.0056465594 0.289 -3.3905719e+38
0.10005759 0.0056465594 0.289 -3.3905719e+38
0.10017766 0.0056270212 0.28800002 -3.3905719e+38
0.10111024 0.0056270212 0.28800002 -3.3772275e+38
0.10122383 0.005607483 0.287 -3.3772275e+38
0.1016885 0.005607483 0.287 -3.3905719e+38
0.10261784 0.005607483 0.287 -3.3905719e+38
0.10272335 0.0055879448 0.28600001 nan
0.1031864 0.0055879448 0.28600001 -3.3905719e+38
0.1041125 0.0055879448 0.28600001 -3.3772275e+38
0.10457555 0.0055879448 0.28600001 -3.3772275e+38
0.10216217 0.0052948706 0.27100003 -3.3905719e+38
0.081228957 0.0065587717 0.31 -3.3774885e+38
0.081467219 0.0065376144 0.30900002 -3.3641441e+38
0.081967503 0.0065376144 0.30900002 nan
0.080483928 0.007083457 0.31100002 -3.3509048e+38
0.081228957 0.0070606801 0.31 nan
0.081730865 0.0070606801 0.31 -3.3906252e+38
0.081967503 0.0070379041 0.30900002 nan
0.082968086 0.0070379041 0.30900002 -3.3906252e+38
0.083198249 0.0070151277 0.30800003 nan
0.083425179 0.0069923517 0.30700001 -3.3773323e+38
0.08441928 0.0069923517 0.30700001 -3.3906763e+38
0.084639736 0.0069695748 0.30600002 nan
0.085630596 0.0069695748 0.30600002 nan
0.085844576 0.0069467989 0.30500001 -3.3906759e+38
0.086338386 0.0069467989 0.30500001 -3.3906759e+38
0.087039702 0.0069240225 0.30400002 nan
0.087531894 0.0069240225 0.30400002 -3.3906767e+38
0.087734535 0.0069012456 0.303 -3.3906767e+38
0.088715687 0.0069012456 0.303 -3.3906767e+38
0.088911854 0.0068784696 0.30200002 -3.3906767e+38
0.089400813 0.0068784696 0.30200002 -3.3906767e+38
0.090079449 0.0068556927 0.30100003 nan
0.0902659 0.0068329168 0.30000001 nan
0.090933211 0.0068101403 0.29900002 -3.3905723e+38
0.091111571 0.0067873644 0.29800001 -3.3905723e+38
0.092076533 0.0067873644 0.29800001 nan
0.09224841 0.0067645875 0.29700002 nan
0.092417054 0.0067418106 0.296 nan
0.093375534 0.0067418106 0.296 nan
0.093537703 0.0067190346 0.29500002 nan
0.094172634 0.0066962582 0.294 nan
0.094648637 0.0066962582 0.294 nan
0.09512464 0.0066962582 0.294 nan
0.095749855 0.0066734822 0.29300001 nan
0.096224241 0.0066734822 0.29300001 -3.3905723e+38
0.096368596 0.0066507054 0.29200003 nan
0.097314127 0.0066507054 0.29200003 -3.3905723e+38
0.097786896 0.0066507054 0.29200003 -3.3905723e+38
0.097923152 0.0066279289 0.29100001 -3.3905719e+38
0.098865449 0.0066279289 0.29100001 nan
0.098995231 0.0066051525 0.29000002 -3.3905719e+38
0.099464759 0.0066051525 0.29000002 -3.3905719e+38
0.10005759 0.0065823765 0.289 -3.3905719e+38
0.10052551 0.0065823765 0.289 nan
0.10111024 0.0065596001 0.28800002 -3.3905723e+38
0.10157653 0.0065596001 0.28800002 -3.3905723e+38
0.1016885 0.0065368237 0.287 -3.3905723e+38
0.10261784 0.0065368237 0.287 -3.3905723e+38
0.10272335 0.0065140473 0.28600001 nan
0.1031864 0.0065140473 0.28600001 -3.3905723e+38
0.1041125 0.0065140473 0.28600001 -3.3772279e+38
0.10457555 0.0065140473 0.28600001 -3.3772279e+38
0.10159013 0.0062179542 0.273 -3.3772279e+38
0.10128465 0.0061724014 0.27100003 -3.3905723e+38
0.10216217 0.0061724014 0.27100003 -3.3773319e+38
0.080483928 0.0075869849 0.31100002 -3.3774374e+38
0.080987453 0.0075869849 0.31100002 -3.3774374e+38
0.081730865 0.0075625889 0.31 nan
0.082232773 0.0075625889 0.31 nan
0.082968086 0.0075381938 0.30900002 -3.3906767e+38
0.083468378 0.0075381938 0.30900002 nan
0.083696924 0.0075137983 0.30800003 -3.3906767e+38
0.08441928 0.0074894032 0.30700001 -3.3906763e+38
0.084916331 0.0074894032 0.30700001 nan
0.085630596 0.0074650072 0.30600002 nan
0.085844576 0.0074406127 0.30500001 -3.3906759e+38
0.086338386 0.0074406127 0.30500001 -3.3906759e+38
0.087039702 0.0074162167 0.30400002 nan
0.087531894 0.0074162167 0.30400002 -3.3905727e+38
0.088024087 0.0074162167 0.30400002 nan
0.088715687 0.0073918207 0.303 nan
0.089206263 0.0073918207 0.303 nan
0.089400813 0.0073674256 0.30200002 nan
0.090378724 0.0073674256 0.30200002 nan
0.0902659 0.007318635 0.30000001 -3.3905723e+38
0.090933211 0.007294239 0.29900002 -3.3905723e+38
0.091417313 0.007294239 0.29900002 -3.3905723e+38
0.092076533 0.0072698444 0.29800001 nan
0.09224841 0.0072454484 0.29700002 nan
0.09272927 0.0072454484 0.29700002 nan
0.093375534 0.0072210524 0.296 nan
0.093537703 0.0071966578 0.29500002 nan
0.094015323 0.0071966578 0.29500002 nan
0.094648637 0.0071722618 0.294 nan
0.09512464 0.0071722618 0.294 nan
0.095600642 0.0071722618 0.294 -3.3905727e+38
0.096224241 0.0071478668 0.29300001 -3.3905723e+38
0.096698627 0.0071478668 0.29300001 nan
0.097314127 0.0071234712 0.29200003 -3.3905723e+38
0.097786896 0.0071234712 0.29200003 nan
0.098259658 0.0071234712 0.29200003 -3.3905719e+38
0.099205188 0.0071234712 0.29200003 nan
0.099336594 0.0070990762 0.29100001 -3.3905719e+38
0.099464759 0.0070746802 0.29000002 -3.3905719e+38
0.10040382 0.0070746802 0.29000002 -3.3905719e+38
0.10052551 0.0070502851 0.289 nan
0.10111024 0.0070258896 0.28800002 -3.3905723e+38
0.10157653 0.0070258896 0.28800002 -3.3772279e+38
0.1016885 0.0070014936 0.287 -3.3905723e+38
0.10261784 0.0070014936 0.287 -3.3905723e+38
0.10308252 0.0070014936 0.287 nan
0.1031864 0.0069770985 0.28600001 -3.3905723e+38
0.1041125 0.0069770985 0.28600001 -3.3772279e+38
0.10457555 0.0069770985 0.28600001 -3.3772279e+38
0.10159013 0.006659958 0.273 -3.3772279e+38
0.10128465 0.006611167 0.27100003 -3.3905723e+38
0.10216217 0.006611167 0.27100003 -3.3773319e+38
0.10260094 0.006611167 0.27100003 -3.3507997e+38
0.080237567 0.0081165275 0.31200001 -3.3509048e+38
0.080742717 0.0081165275 0.31200001 -3.3774374e+38
0.080987453 0.0080905128 0.31100002 -3.3907818e+38
0.081994511 0.0080905128 0.31100002 nan
0.082232773 0.0080644982 0.31 nan
0.082734682 0.0080644982 0.31 nan
0.083468378 0.0080384836 0.30900002 nan
0.083696924 0.0080124689 0.30800003 nan
0.084694266 0.0080124689 0.30800003 -3.3906763e+38
0.084916331 0.0079864552 0.30700001 nan
0.085630596 0.0079604397 0.30600002 nan
0.086126029 0.0079604397 0.30600002 -3.3906759e+38
0.086338386 0.007934426 0.30500001 -3.3906759e+38
0.087326013 0.007934426 0.30500001 nan
0.087531894 0.0079084113 0.30400002 -3.3905727e+38
0.088024087 0.0079084113 0.30400002 nan
0.08900848 0.0079084113 0.30400002 nan
0.089206263 0.0078823958 0.303 nan
0.089696839 0.0078823958 0.303 nan
0.090378724 0.0078563821 0.30200002 nan
0.0902659 0.0078043533 0.30000001 -3.3905723e+38
0.091237336 0.0078043533 0.30000001 nan
0.091417313 0.0077783382 0.29900002 nan
0.092076533 0.0077523245 0.29800001 nan
0.09255901 0.0077523245 0.29800001 nan
0.09272927 0.0077263094 0.29700002 nan
0.093690991 0.0077263094 0.29700002 nan
0.093854778 0.0077002947 0.296 nan
0.094015323 0.0076742806 0.29500002 nan
0.094970569 0.0076742806 0.29500002 nan
0.09512464 0.0076482655 0.294 nan
0.095600642 0.0076482655 0.294 -3.3905727e+38
0.096224241 0.0076222518 0.29300001 -3.3905723e+38
0.096698627 0.0076222518 0.29300001 nan
0.097173013 0.0076222518 0.29300001 -3.3905723e+38
0.097786896 0.0075962367 0.29200003 nan
0.098259658 0.0075962367 0.29200003 nan
0.099205188 0.0075962367 0.29200003 nan
0.099336594 0.0075702225 0.29100001 -3.3905723e+38
0.099807739 0.0075702225 0.29100001 nan
0.10040382 0.0075442079 0.29000002 nan
0.10052551 0.0075181937 0.289 nan
0.10099341 0.0075181937 0.289 nan
0.10157653 0.0074921791 0.28800002 -3.3772279e+38
0.10204282 0.0074921791 0.28800002 -3.3905723e+38
0.10261784 0.007466164 0.287 -3.3905723e+38
0.10308252 0.007466164 0.287 nan
0.10354719 0.007466164 0.287 -3.3905723e+38
0.10447653 0.007466164 0.287 -3.3772279e+38
0.10159013 0.0071019614 0.273 -3.3772279e+38
0.10165839 0.0070759468 0.27200001 -3.3905723e+38
0.10253916 0.0070759468 0.27200001 -3.3773319e+38
0.10297954 0.0070759468 0.27200001 -3.3507997e+38
0.10159013 0.0075439652 0.273 -3.3772279e+38
0.10203213 0.0075439652 0.273 -3.3905723e+38
0.10247414 0.0075439652 0.273 -3.3639875e+38
0.10297954 0.007516331 0.27200001 -3.3374553e+38
0.080237567 0.0091268215 0.31200001 -3.3774374e+38
0.080742717 0.0091268215 0.31200001 -3.3907818e+38
0.081247866 0.0091268215 0.31200001 -3.3907818e+38
0.081994511 0.0090975687 0.31100002 nan
0.082498036 0.0090975687 0.31100002 nan
0.082734682 0.0090683149 0.31 nan
0.083738498 0.0090683149 0.31 nan
0.083968662 0.009039063 0.30900002 nan
0.084694266 0.0090098102 0.30800003 nan
0.084916331 0.0089805583 0.30700001 nan
0.085413389 0.0089805583 0.30700001 -3.3773319e+38
0.086126029 0.0089513054 0.30600002 nan
0.086621463 0.0089513054 0.30600002 nan
0.087326013 0.0089220526 0.30500001 nan
0.08781983 0.0089220526 0.30500001 -3.3905727e+38
0.088024087 0.0088927997 0.30400002 nan
0.08900848 0.0088927997 0.30400002 nan
0.089500673 0.0088927997 0.30400002 nan
0.089696839 0.0088635469 0.303 nan
0.090378724 0.008834295 0.30200002 nan
0.090566784 0.0088050421 0.30100003 nan
0.091237336 0.0087757893 0.30000001 -3.3905723e+38
0.091417313 0.0087465364 0.29900002 -3.3905723e+38
0.091901414 0.0087465364 0.29900002 nan
0.09255901 0.0087172845 0.29800001 nan
0.093041487 0.0087172845 0.29800001 nan
0.093690991 0.0086880317 0.29700002 nan
0.093854778 0.0086587779 0.296 nan
0.094334021 0.0086587779 0.296 nan
0.094970569 0.008629526 0.29500002 nan
0.095448188 0.008629526 0.29500002 -3.3905727e+38
0.095600642 0.0086002732 0.294 -3.3905727e+38
0.096552648 0.0086002732 0.294 -3.3905727e+38
0.096698627 0.0085710213 0.29300001 nan
0.097173013 0.0085710213 0.29300001 nan
0.098121777 0.0085710213 0.29300001 nan
0.098596163 0.0085710213 0.29300001 nan
0.099205188 0.0085417684 0.29200003 -3.3905723e+38
0.099677958 0.0085417684 0.29200003 -3.3905723e+38
0.099807739 0.0085125156 0.29100001 -3.3905719e+38
0.10075004 0.0085125156 0.29100001 nan
0.10087334 0.0084832627 0.29000002 nan
0.10099341 0.0084540108 0.289 nan
0.10192923 0.0084540108 0.289 -3.3905723e+38
0.10204282 0.008424758 0.28800002 nan
0.10250911 0.008424758 0.28800002 nan
0.10308252 0.0083955051 0.287 nan
0.10354719 0.0083955051 0.287 -3.3905723e+38
0.10447653 0.0083955051 0.287 -3.3772279e+38
0.080494739 0.0096628396 0.31300002 -3.3774374e+38
0.080742717 0.0096319681 0.31200001 -3.3907818e+38
0.081247866 0.0096319681 0.31200001 -3.3774374e+38
0.082258157 0.0096319681 0.31200001 nan
0.082498036 0.0096010957 0.31100002 nan
0.083001569 0.0096010957 0.31100002 nan
0.083738498 0.0095702242 0.31 nan
0.083968662 0.0095393527 0.30900002 nan
0.084468953 0.0095393527 0.30900002 nan
0.085192934 0.0095084812 0.30800003 nan
0.085413389 0.0094776098 0.30700001 -3.3906763e+38
0.08640749 0.0094776098 0.30700001 nan
0.086621463 0.0094467374 0.30600002 nan
0.087116897 0.0094467374 0.30600002 -3.3906763e+38
0.08781983 0.0094158659 0.30500001 -3.3773323e+38
0.088313639 0.0094158659 0.30500001 -3.3906767e+38
0.08900848 0.0093849944 0.30400002 nan
0.089500673 0.0093849944 0.30400002 -3.3906767e+38
0.089992866 0.0093849944 0.30400002 nan
0.090378724 0.0093232505 0.30200002 nan
0.090566784 0.009292379 0.30100003 -3.3906767e+38
0.091054127 0.009292379 0.30100003 -3.3906767e+38
0.091723055 0.0092615075 0.30000001 -3.3905723e+38
0.091901414 0.0092306361 0.29900002 nan
0.09286961 0.0092306361 0.29900002 nan
0.093041487 0.0091997646 0.29800001 nan
0.093690991 0.0091688922 0.29700002 nan
0.094171852 0.0091688922 0.29700002 nan
0.094334021 0.0091380207 0.296 nan
0.095292501 0.0091380207 0.296 -3.3905727e+38
0.095448188 0.0091071492 0.29500002 -3.3905727e+38
0.095925815 0.0091071492 0.29500002 -3.3905727e+38
0.096552648 0.0090762768 0.294 -3.3905727e+38
0.09702865 0.0090762768 0.294 nan
0.097173013 0.0090454053 0.29300001 nan
0.098121777 0.0090454053 0.29300001 nan
0.098596163 0.0090454053 0.29300001 nan
0.099070549 0.0090454053 0.29300001 nan
0.099677958 0.0090145338 0.29200003 nan
0.10015072 0.0090145338 0.29200003 -3.3905719e+38
0.10075004 0.0089836624 0.29100001 -3.3906234e+38
0.10087334 0.0089527909 0.29000002 nan
0.10134287 0.0089527909 0.29000002 nan
0.10192923 0.0089219194 0.289 nan
0.10239714 0.0089219194 0.289 nan
0.10250911 0.008891047 0.28800002 nan
0.10344169 0.008891047 0.28800002 nan
0.10390798 0.008891047 0.28800002 -3.3905719e+38
0.10447653 0.0088601755 0.287 -3.3772279e+38
0.10114813 0.008427972 0.273 -3.3905723e+38
0.10159013 0.008427972 0.273 -3.3772279e+38
0.10165839 0.0083971005 0.27200001 nan
0.10253916 0.0083971005 0.27200001 -3.3639875e+38
0.10297954 0.0083971005 0.27200001 -3.3109752e+38
0.080494739 0.010169606 0.31300002 -3.3774374e+38
0.081001505 0.010169606 0.31300002 -3.3907814e+38
0.081508271 0.010169606 0.31300002 -3.3907814e+38
0.082258157 0.010137115 0.31200001 nan
0.082763307 0.010137115 0.31200001 nan
0.083001569 0.010104624 0.31100002 nan
0.083738498 0.010072133 0.31 nan
0.084240407 0.010072133 0.31 nan
0.084468953 0.010039642 0.30900002 nan
0.085192934 0.010007151 0.30800003 nan
0.085691608 0.010007151 0.30800003 -3.3906763e+38
0.08640749 0.0099746613 0.30700001 nan
0.086621463 0.0099421702 0.30600002 nan
0.087116897 0.0099421702 0.30600002 -3.3906763e+38
0.088107765 0.0099421702 0.30600002 -3.3906767e+38
0.088313639 0.0099096801 0.30500001 -3.3906767e+38
0.088807456 0.0099096801 0.30500001 nan
0.089795083 0.0099096801 0.30500001 -3.3906767e+38
0.089992866 0.0098771891 0.30400002 nan
0.090378724 0.009812207 0.30200002 nan
0.090566784 0.0097797159 0.30100003 -3.3906767e+38
0.091054127 0.0097797159 0.30100003 -3.3906767e+38
0.091723055 0.0097472258 0.30000001 nan
0.092208773 0.0097472258 0.30000001 -3.3905727e+38
0.09286961 0.0097147347 0.29900002 -3.3905727e+38
0.093353711 0.0097147347 0.29900002 -3.3905727e+38
