# .PCD v0.7 - Point Cloud Data file format
VERSION 0.7
FIELDS x y z rgb
SIZE 4 4 4 4
TYPE F F F F
COUNT 1 1 1 1
WIDTH 974
HEIGHT 1
VIEWPOINT 0 0 0 1 0 0 0
POINTS 974
DATA ascii
0.019028526 0.010062395 0.29500002 -2.7282119e+38
0.019440025 0.010028285 0.294 -2.7282119e+38
0.021455301 0.0094484184 0.27700001 -2.7015742e+38
0.022271566 0.0094143078 0.27600002 -2.7416074e+38
0.022718426 0.0094143078 0.27600002 -2.7682962e+38
0.023526598 0.009380199 0.27500001 -2.8350178e+38
-0.0094982907 0.010868249 0.29100001 -2.2745536e+38
-0.0090581644 0.010905596 0.29200003 -2.2745536e+38
-0.0081404159 0.010942944 0.29300001 -2.3012424e+38
-0.007692195 0.010980292 0.294 -2.35462e+38
-0.0072161909 0.010980292 0.294 -2.3813088e+38
-0.0067631132 0.01101764 0.29500002 -2.3946532e+38
-0.0062854905 0.01101764 0.29500002 -2.4346865e+38
-0.0053302445 0.01101764 0.29500002 -2.4613753e+38
-0.0048526214 0.01101764 0.29500002 -2.4747197e+38
-0.0043749986 0.01101764 0.29500002 -2.4747197e+38
-0.0038973757 0.01101764 0.29500002 -2.4880641e+38
-0.0034313451 0.011054988 0.296 -2.5147529e+38
-0.0024728612 0.011054988 0.296 -2.5280973e+38
-0.0019936191 0.011054988 0.296 -2.5414417e+38
-0.0015143772 0.011054988 0.296 -2.5414417e+38
-0.00055589323 0.011054988 0.296 -2.5414417e+38
-7.6651224e-05 0.011054988 0.296 -2.5280973e+38
0.00040259075 0.011054988 0.296 -2.5280973e+38
0.00088183273 0.011054988 0.296 -2.5280973e+38
0.0018403167 0.011054988 0.296 -2.4747197e+38
0.0023195588 0.011054988 0.296 -2.4613753e+38
0.0027988006 0.011054988 0.296 -2.4480309e+38
0.0037572847 0.011054988 0.296 -2.3946532e+38
0.0042222138 0.01101764 0.29500002 -2.3813088e+38
0.004699837 0.01101764 0.29500002 -2.3679644e+38
0.0056550829 0.01101764 0.29500002 -2.3412756e+38
0.0061327056 0.01101764 0.29500002 -2.35462e+38
0.0066103288 0.01101764 0.29500002 -2.3279837e+38
0.0070879515 0.01101764 0.29500002 -2.3413281e+38
0.008043197 0.01101764 0.29500002 -2.4614278e+38
0.0085208202 0.01101764 0.29500002 -2.5682346e+38
0.0089984434 0.01101764 0.29500002 -2.6216122e+38
0.0099536888 0.01101764 0.29500002 -2.7417114e+38
0.010431312 0.01101764 0.29500002 -2.7684002e+38
0.010908935 0.01101764 0.29500002 -2.7950891e+38
0.014779851 0.011054988 0.296 -2.6350612e+38
0.015259093 0.011054988 0.296 -2.6617501e+38
0.015738335 0.011054988 0.296 -2.6750945e+38
0.016640412 0.01101764 0.29500002 -2.6750945e+38
0.017118033 0.01101764 0.29500002 -2.6750949e+38
0.017595656 0.01101764 0.29500002 -2.6750949e+38
0.018550903 0.01101764 0.29500002 -2.7149715e+38
0.018964021 0.010980292 0.294 -2.7282119e+38
0.021455301 0.010345378 0.27700001 -2.6748854e+38
0.022271566 0.010308029 0.27600002 -2.7015742e+38
0.022636114 0.010270682 0.27500001 -2.7149186e+38
0.025284573 0.010083942 0.27000001 -2.9814929e+38
0.025721719 0.010083942 0.27000001 -3.0348705e+38
-0.0094982907 0.011339395 0.29100001 -2.2745536e+38
-0.0090581644 0.011378362 0.29200003 -2.2745536e+38
-0.0081404159 0.011417329 0.29300001 -2.3012424e+38
-0.0076660314 0.011417329 0.29300001 -2.35462e+38
-0.0072161909 0.011456296 0.294 -2.3813088e+38
-0.0067401873 0.011456296 0.294 -2.3946532e+38
-0.0062641837 0.011456296 0.294 -2.4346865e+38
-0.0053302445 0.011495263 0.29500002 -2.4613753e+38
-0.0048526214 0.011495263 0.29500002 -2.4747197e+38
-0.0043749986 0.011495263 0.29500002 -2.4747197e+38
-0.0038973757 0.011495263 0.29500002 -2.5147529e+38
-0.0029421297 0.011495263 0.29500002 -2.5280973e+38
-0.0024728612 0.01153423 0.296 -2.5280973e+38
-0.001986884 0.011495263 0.29500002 -2.5414417e+38
-0.0015143772 0.01153423 0.296 -2.5547861e+38
-0.00055589323 0.01153423 0.296 -2.5414417e+38
-7.6651224e-05 0.01153423 0.296 -2.5414417e+38
0.00040259075 0.01153423 0.296 -2.5280973e+38
0.00088183273 0.01153423 0.296 -2.5280973e+38
0.0018403167 0.01153423 0.296 -2.4746682e+38
0.0023117224 0.011495263 0.29500002 -2.4613237e+38
0.0027893451 0.011495263 0.29500002 -2.4479793e+38
0.003744591 0.011495263 0.29500002 -2.3946017e+38
0.0042222138 0.011495263 0.29500002 -2.3946017e+38
0.004699837 0.011495263 0.29500002 -2.3679129e+38
0.0056550829 0.011495263 0.29500002 -2.3545685e+38
0.0061327056 0.011495263 0.29500002 -2.3679129e+38
0.0066103288 0.011495263 0.29500002 -2.3546726e+38
0.0070879515 0.011495263 0.29500002 -2.4614278e+38
0.008043197 0.011495263 0.29500002 -2.6215607e+38
0.0085208202 0.011495263 0.29500002 -2.6351128e+38
0.0089984434 0.011495263 0.29500002 -2.6884904e+38
0.0099536888 0.011495263 0.29500002 -2.7950895e+38
0.010431312 0.011495263 0.29500002 -2.8217783e+38
0.010871956 0.011456296 0.294 -2.8351227e+38
0.015207542 0.011495263 0.29500002 -2.6617501e+38
0.015685165 0.011495263 0.29500002 -2.6617501e+38
0.016640412 0.011495263 0.29500002 -2.6750945e+38
0.017060006 0.011456296 0.294 -2.6750949e+38
0.017536009 0.011456296 0.294 -2.6750949e+38
0.018488016 0.011456296 0.294 -2.7149719e+38
0.018899517 0.011417329 0.29300001 -2.7149715e+38
0.021455301 0.010793857 0.27700001 -2.6748854e+38
0.022190873 0.010715923 0.27500001 -2.7015738e+38
0.023795556 0.010443155 0.26800001 -2.781484e+38
0.024663372 0.010443155 0.26800001 -2.8214132e+38
0.025097281 0.010443155 0.26800001 -2.888031e+38
0.025626455 0.010482121 0.26900002 -2.9280642e+38
0.026158866 0.010521089 0.27000001 -2.9549084e+38
-0.0094982907 0.011810542 0.29100001 -2.287898e+38
-0.0090581644 0.011851128 0.29200003 -2.287898e+38
-0.0081126327 0.011851128 0.29200003 -2.301242e+38
-0.0076660314 0.011891714 0.29300001 -2.3546196e+38
-0.0071916464 0.011891714 0.29300001 -2.3813084e+38
-0.0067172619 0.011891714 0.29300001 -2.4213416e+38
-0.0062641837 0.011932299 0.294 -2.4613749e+38
-0.005312176 0.011932299 0.294 -2.4747197e+38
-0.0048526214 0.011972887 0.29500002 -2.4880641e+38
-0.0043749986 0.011972887 0.29500002 -2.4880641e+38
-0.0038973757 0.011972887 0.29500002 -2.5147529e+38
-0.0029421297 0.011972887 0.29500002 -2.5280973e+38
-0.002464507 0.011972887 0.29500002 -2.5280973e+38
-0.0019936191 0.012013472 0.296 -2.5414417e+38
-0.0010316381 0.011972887 0.29500002 -2.5414417e+38
-0.00055589323 0.012013472 0.296 -2.5414417e+38
-7.6651224e-05 0.012013472 0.296 -2.5414417e+38
0.00040259075 0.012013472 0.296 -2.5280973e+38
0.00088183273 0.012013472 0.296 -2.5147014e+38
0.0018340994 0.011972887 0.29500002 -2.4746682e+38
0.0023117224 0.011972887 0.29500002 -2.4746682e+38
0.0027893451 0.011972887 0.29500002 -2.4479793e+38
0.003744591 0.011972887 0.29500002 -2.4212905e+38
0.0042079012 0.011932299 0.294 -2.3946017e+38
0.0051599089 0.011932299 0.294 -2.3812573e+38
0.005635913 0.011932299 0.294 -2.3946017e+38
0.0061119166 0.011932299 0.294 -2.4479793e+38
0.0065879207 0.011932299 0.294 -2.6215081e+38
0.0075399289 0.011932299 0.294 -2.6883342e+38
0.0080159325 0.011932299 0.294 -2.715023e+38
0.0084919361 0.011932299 0.294 -2.7417118e+38
0.0089679407 0.011932299 0.294 -2.7684006e+38
0.0099199479 0.011932299 0.294 -2.8217268e+38
0.010395952 0.011932299 0.294 -2.8350712e+38
0.010871956 0.011932299 0.294 -2.8484156e+38
0.011823963 0.011932299 0.294 -2.8619165e+38
0.016107997 0.011932299 0.294 -2.6884904e+38
0.016584001 0.011932299 0.294 -2.675146e+38
0.017060006 0.011932299 0.294 -2.6750945e+38
0.017536009 0.011932299 0.294 -2.6750945e+38
0.018425133 0.011891714 0.29300001 -2.6884393e+38
0.018899517 0.011891714 0.29300001 -2.7149715e+38
0.023617975 0.010795891 0.266 -2.7681396e+38
0.024048647 0.010795891 0.266 -2.781484e+38
0.024479317 0.010795891 0.266 -2.781484e+38
0.025003633 0.010836476 0.26700002 -2.8479977e+38
0.02553119 0.010877063 0.26800001 -2.888031e+38
0.026061982 0.010917649 0.26900002 -2.8748423e+38
-0.011223952 0.011184355 0.26500002 -2.9283747e+38
-0.0085559972 0.012281689 0.29100001 -2.301242e+38
0.023100136 0.011184355 0.26500002 -2.7414508e+38
0.023529187 0.011184355 0.26500002 -2.7547952e+38
0.024048647 0.011226561 0.266 -2.7547952e+38
0.024479317 0.011226561 0.266 -2.7681396e+38
0.025003633 0.011268766 0.26700002 -2.7947244e+38
0.02553119 0.011310971 0.26800001 -2.8214132e+38
0.026061982 0.011353176 0.26900002 -2.8481535e+38
-0.0081126327 0.012796659 0.29200003 -2.4480305e+38
-0.0076398673 0.012796659 0.29200003 -2.5280969e+38
-0.0071671014 0.012796659 0.29200003 -2.6081633e+38
-0.0067172619 0.012840483 0.29300001 -2.621768e+38
-0.0057684919 0.012840483 0.29300001 -2.6084235e+38
-0.005312176 0.012884308 0.294 -2.5817347e+38
-0.0048361719 0.012884308 0.294 -2.594923e+38
-0.0043749986 0.012928132 0.29500002 -2.5548897e+38
-0.0038973757 0.012928132 0.29500002 -2.5415453e+38
-0.0034313451 0.012971955 0.296 -2.5148565e+38
-0.002464507 0.012928132 0.29500002 -2.5282009e+38
-0.001986884 0.012928132 0.29500002 -2.5282013e+38
-0.0010316381 0.012928132 0.29500002 -2.5414942e+38
-0.00055401516 0.012928132 0.29500002 -2.5414942e+38
-7.6392265e-05 0.012928132 0.29500002 -2.5414942e+38
0.00040259075 0.012971955 0.296 -2.5281498e+38
0.0013564765 0.012928132 0.29500002 -2.501461e+38
0.0018340994 0.012928132 0.29500002 -2.501461e+38
0.0023117224 0.012928132 0.29500002 -2.4747722e+38
0.0032558937 0.012884308 0.294 -2.4614278e+38
0.0037318976 0.012884308 0.294 -2.4613242e+38
0.0042079012 0.012884308 0.294 -2.5280462e+38
0.0051599089 0.012884308 0.294 -2.6082163e+38
0.005635913 0.012884308 0.294 -2.6750945e+38
0.0061119166 0.012884308 0.294 -2.7017833e+38
0.0065879207 0.012884308 0.294 -2.7550562e+38
0.0075399289 0.012884308 0.294 -2.8083294e+38
0.0080159325 0.012884308 0.294 -2.8083294e+38
0.0084919361 0.012884308 0.294 -2.8082783e+38
0.0089679407 0.012884308 0.294 -2.8349671e+38
0.0099199479 0.012884308 0.294 -2.8483119e+38
0.010395952 0.012884308 0.294 -2.8616559e+38
0.010871956 0.012884308 0.294 -2.9016891e+38
0.011823963 0.012884308 0.294 -2.8884492e+38
0.012299967 0.012884308 0.294 -2.8619165e+38
0.012775972 0.012884308 0.294 -2.875261e+38
0.018899517 0.012840483 0.29300001 -2.7283159e+38
-0.011653003 0.012042457 0.26500002 -2.8749967e+38
-0.011223952 0.012042457 0.26500002 -2.8214116e+38
-0.0094982907 0.013223982 0.29100001 -2.3279312e+38
-0.0085559972 0.013223982 0.29100001 -2.4347901e+38
-0.0080848504 0.013223982 0.29100001 -2.5548897e+38
-0.0076137036 0.013223982 0.29100001 -2.5682342e+38
-0.0071425568 0.013223982 0.29100001 -2.6216118e+38
-0.0062215696 0.013269424 0.29200003 -2.6751456e+38
-0.0057488042 0.013269424 0.29200003 -2.6351124e+38
-0.0052941074 0.013314867 0.29300001 -2.6351124e+38
-0.0048361719 0.013360312 0.294 -2.621768e+38
-0.0043749986 0.013405755 0.29500002 -2.621768e+38
-0.0038973757 0.013405755 0.29500002 -2.6084235e+38
-0.0029421297 0.013405755 0.29500002 -2.6084235e+38
-0.002464507 0.013405755 0.29500002 -2.6084235e+38
-0.001980149 0.013360312 0.294 -2.5950795e+38
-0.001028141 0.013360312 0.294 -2.608424e+38
-0.00055213715 0.013360312 0.294 -2.5950795e+38
-7.6392265e-05 0.013405755 0.29500002 -2.5683907e+38
0.00040123065 0.013405755 0.29500002 -2.5683907e+38
0.0013564765 0.013405755 0.29500002 -2.5150131e+38
0.001827882 0.013360312 0.294 -2.5281498e+38
0.002303886 0.013360312 0.294 -2.5414942e+38
0.0032558937 0.013360312 0.294 -2.5948719e+38
0.0037318976 0.013360312 0.294 -2.6082163e+38
0.0042079012 0.013360312 0.294 -2.6882827e+38
0.0051599089 0.013360312 0.294 -2.7017833e+38
0.005635913 0.013360312 0.294 -2.7151277e+38
0.0061119166 0.013360312 0.294 -2.7284721e+38
0.0065879207 0.013360312 0.294 -2.7685568e+38
0.0075399289 0.013360312 0.294 -2.8084339e+38
0.0080159325 0.013360312 0.294 -2.8084339e+38
0.0084630521 0.013314867 0.29300001 -2.8217268e+38
0.0094118211 0.013314867 0.29300001 -2.8350716e+38
0.0098862061 0.013314867 0.29300001 -2.8350716e+38
0.010360591 0.013314867 0.29300001 -2.8750003e+38
0.011309361 0.013314867 0.29300001 -2.8884488e+38
0.011783745 0.013314867 0.29300001 -2.9017932e+38
0.012299967 0.013360312 0.294 -2.875261e+38
0.012775972 0.013360312 0.294 -2.875261e+38
0.013251975 0.013360312 0.294 -2.888605e+38
0.014203982 0.013360312 0.294 -2.8886054e+38
0.023100136 0.012042457 0.26500002 -2.7015738e+38
0.023529187 0.012042457 0.26500002 -2.7149182e+38
0.023958238 0.012042457 0.26500002 -2.7149182e+38
0.024479317 0.012087901 0.266 -2.7149182e+38
0.025003633 0.012133344 0.26700002 -2.741607e+38
0.02553119 0.012178788 0.26800001 -2.7549514e+38
0.026061982 0.01222423 0.26900002 -2.7948795e+38
-0.012082054 0.012471508 0.26500002 -2.994888e+38
-0.011653003 0.012471508 0.26500002 -2.8080663e+38
-0.011181598 0.012424446 0.264 -2.7146048e+38
-0.0085559972 0.013695128 0.29100001 -2.5417015e+38
-0.0080848504 0.013695128 0.29100001 -2.5683903e+38
-0.0076137036 0.013695128 0.29100001 -2.5817347e+38
-0.0071425568 0.013695128 0.29100001 -2.5950791e+38
-0.0062002633 0.013695128 0.29100001 -2.6751456e+38
-0.0057291165 0.013695128 0.29100001 -2.6751456e+38
-0.0052760383 0.013742191 0.29200003 -2.6618012e+38
-0.0048197224 0.013789252 0.29300001 -2.6751456e+38
-0.0043601682 0.013836316 0.294 -2.6751456e+38
-0.0038973757 0.013883377 0.29500002 -2.6883342e+38
-0.0029421297 0.013883377 0.29500002 -2.675146e+38
-0.0024561528 0.013836316 0.294 -2.6884904e+38
0.0018216649 0.013789252 0.29300001 -2.608424e+38
0.0027704346 0.013789252 0.29300001 -2.6618016e+38
0.0032448194 0.013789252 0.29300001 -2.675146e+38
0.0037192039 0.013789252 0.29300001 -2.6884904e+38
0.0041935886 0.013789252 0.29300001 -2.7151792e+38
0.0051423581 0.013789252 0.29300001 -2.7284721e+38
0.005635913 0.013836316 0.294 -2.7284725e+38
0.0060911281 0.013789252 0.29300001 -2.7418169e+38
0.0070398976 0.013789252 0.29300001 -2.7685053e+38
0.0075142821 0.013789252 0.29300001 -2.8083823e+38
0.0079886671 0.013789252 0.29300001 -2.8217268e+38
0.0084630521 0.013789252 0.29300001 -2.8350712e+38
0.0093796998 0.013742191 0.29200003 -2.8350716e+38
0.0098862061 0.013789252 0.29300001 -2.848416e+38
0.010360591 0.013789252 0.29300001 -2.8884492e+38
0.011309361 0.013789252 0.29300001 -2.8884492e+38
0.011783745 0.013789252 0.29300001 -2.9017936e+38
0.01225813 0.013789252 0.29300001 -2.9017936e+38
0.012732515 0.013789252 0.29300001 -2.9017936e+38
0.013681285 0.013789252 0.29300001 -2.8886054e+38
0.014155669 0.013789252 0.29300001 -2.8886054e+38
0.014630054 0.013789252 0.29300001 -2.8886054e+38
0.022242034 0.012471508 0.26500002 -2.6615409e+38
0.023100136 0.012471508 0.26500002 -2.7149186e+38
0.023529187 0.012471508 0.26500002 -2.7149186e+38
0.023958238 0.012471508 0.26500002 -2.7149182e+38
0.024479317 0.012518572 0.266 -2.7149182e+38
0.025003633 0.012565633 0.26700002 -2.741607e+38
0.02553119 0.012612696 0.26800001 -2.7549514e+38
-0.012036461 0.012851878 0.264 -2.9014776e+38
-0.011609029 0.012851878 0.264 -2.6879671e+38
-0.011181598 0.012851878 0.264 -2.60785e+38
-0.0089759184 0.012754516 0.26200002 -2.4213416e+38
-0.0085517252 0.012754516 0.26200002 -2.5015117e+38
-0.0080570672 0.014117594 0.29000002 -2.5817343e+38
-0.0075875395 0.014117594 0.29000002 -2.5950791e+38
-0.0066484842 0.014117594 0.29000002 -2.6618012e+38
-0.0061789565 0.014117594 0.29000002 -2.6751456e+38
-0.0057094288 0.014117594 0.29000002 -2.6751456e+38
-0.0052579697 0.014166275 0.29100001 -2.68849e+38
-0.0048032724 0.014214956 0.29200003 -2.6884904e+38
-0.0043453379 0.014263637 0.29300001 -2.6884904e+38
-0.0033965681 0.014263637 0.29300001 -2.715023e+38
-0.0029221831 0.014263637 0.29300001 -2.6884904e+38
-0.0024477984 0.014263637 0.29300001 -2.7018348e+38
0.0018154476 0.014214956 0.29200003 -2.7018348e+38
0.0027609791 0.014214956 0.29200003 -2.7151792e+38
0.0032337448 0.014214956 0.29200003 -2.7151792e+38
0.0037065106 0.014214956 0.29200003 -2.7417118e+38
0.0041935886 0.014263637 0.29300001 -2.7684006e+38
0.0051423581 0.014263637 0.29300001 -2.7683491e+38
0.0056167431 0.014263637 0.29300001 -2.7418169e+38
0.0060911281 0.014263637 0.29300001 -2.7685057e+38
0.0070398976 0.014263637 0.29300001 -2.8083823e+38
0.0075142821 0.014263637 0.29300001 -2.8083823e+38
0.0079614026 0.014214956 0.29200003 -2.8217268e+38
0.0089069335 0.014214956 0.29200003 -2.8350712e+38
0.0093796998 0.014214956 0.29200003 -2.8350712e+38
0.0098524652 0.014214956 0.29200003 -2.8484156e+38
0.010325231 0.014214956 0.29200003 -2.8884488e+38
0.011309361 0.014263637 0.29300001 -2.8884488e+38
0.011783745 0.014263637 0.29300001 -2.9017932e+38
0.01225813 0.014263637 0.29300001 -2.9017932e+38
0.012732515 0.014263637 0.29300001 -2.9017932e+38
0.013634591 0.014214956 0.29200003 -2.9017932e+38
0.014107357 0.014214956 0.29200003 -2.875261e+38
0.014580123 0.014214956 0.29200003 -2.875261e+38
0.015525654 0.014214956 0.29200003 -2.9019498e+38
0.015998419 0.014214956 0.29200003 -2.9019498e+38
0.016471185 0.014214956 0.29200003 -2.8886054e+38
0.021812983 0.012900559 0.26500002 -2.6748854e+38
0.022242034 0.012900559 0.26500002 -2.6615409e+38
0.023100136 0.012900559 0.26500002 -2.7149182e+38
0.023529187 0.012900559 0.26500002 -2.7149182e+38
0.023958238 0.012900559 0.26500002 -2.7149182e+38
0.024479317 0.012949241 0.266 -2.7149182e+38
0.024909986 0.012949241 0.266 -2.7416585e+38
0.02553119 0.013046604 0.26800001 -2.9151358e+38
-0.011990869 0.01322901 0.26300001 -2.7947228e+38
-0.011565056 0.01322901 0.26300001 -2.6345899e+38
-0.01071343 0.01322901 0.26300001 -2.4343727e+38
-0.010287617 0.01322901 0.26300001 -2.3012416e+38
-0.0098618045 0.01322901 0.26300001 -2.381308e+38
-0.0089759184 0.013178709 0.26200002 -2.4748229e+38
-0.0085517252 0.013178709 0.26200002 -2.5282005e+38
0.021303238 0.013279309 0.264 -2.6748854e+38
0.021730671 0.013279309 0.264 -2.6748854e+38
0.022585534 0.013279309 0.264 -2.7015742e+38
0.023012966 0.013279309 0.264 -2.7149186e+38
0.023529187 0.013329611 0.26500002 -2.7149186e+38
0.023958238 0.013329611 0.26500002 -2.7149182e+38
0.024479317 0.013379912 0.266 -2.7282626e+38
0.024909986 0.013379912 0.266 -2.8484648e+38
-0.0080570672 0.015056649 0.29000002 -2.6216114e+38
-0.0070934673 0.015004729 0.289 -2.635112e+38
-0.0066255582 0.015004729 0.289 -2.6751456e+38
-0.0061576497 0.015004729 0.289 -2.68849e+38
-0.0057094288 0.015056649 0.29000002 -2.68849e+38
-0.0052399011 0.015056649 0.29000002 -2.7018344e+38
-0.0043156766 0.015108569 0.29100001 -2.7018344e+38
-0.0038445296 0.015108569 0.29100001 -2.7018344e+38
-0.0033733831 0.015108569 0.29100001 -2.7151788e+38
-0.0029122098 0.015160487 0.29200003 -2.7151788e+38
-0.0019599432 0.015108569 0.29100001 -2.7285232e+38
-0.0014887966 0.015108569 0.29100001 -2.7418676e+38
-0.0010176499 0.015108569 0.29100001 -2.741868e+38
-7.5356438e-05 0.015108569 0.29100001 -2.7418165e+38
0.00039715035 0.015160487 0.29200003 -2.7284721e+38
0.00086991611 0.015160487 0.29200003 -2.7418165e+38
0.0013426818 0.015160487 0.29200003 -2.7284721e+38
0.0018154476 0.015160487 0.29200003 -2.7284721e+38
0.0027609791 0.015160487 0.29200003 -2.7683491e+38
0.0032226702 0.015108569 0.29100001 -2.7950379e+38
0.004164964 0.015108569 0.29100001 -2.7950379e+38
0.0046520424 0.015160487 0.29200003 -2.7950379e+38
0.0051248078 0.015160487 0.29200003 -2.8083823e+38
0.0070158709 0.015160487 0.29200003 -2.8083823e+38
0.0074886368 0.015160487 0.29200003 -2.8083823e+38
0.0079614026 0.015160487 0.29200003 -2.8217268e+38
0.0088764299 0.015108569 0.29100001 -2.8350712e+38
0.0093475766 0.015108569 0.29100001 -2.8484156e+38
0.010325231 0.015160487 0.29200003 -2.8884488e+38
0.011270762 0.015160487 0.29200003 -2.8884488e+38
0.011783745 0.015212406 0.29300001 -2.9017932e+38
0.01225813 0.015212406 0.29300001 -2.9017932e+38
0.012732515 0.015212406 0.29300001 -2.9017932e+38
0.013634591 0.015160487 0.29200003 -2.9017932e+38
0.014059044 0.015108569 0.29100001 -2.8886054e+38
0.015001338 0.015108569 0.29100001 -2.875261e+38
0.015472485 0.015108569 0.29100001 -2.8886054e+38
0.015943632 0.015108569 0.29100001 -2.9019498e+38
0.016414778 0.015108569 0.29100001 -2.9152942e+38
0.017297424 0.015056649 0.29000002 -2.9286386e+38
-0.012842495 0.014080636 0.26300001 -2.8881328e+38
-0.012416682 0.014080636 0.26300001 -2.7013111e+38
-0.011990869 0.014080636 0.26300001 -2.6477266e+38
-0.011565056 0.014080636 0.26300001 -2.5676602e+38
-0.01071343 0.014080636 0.26300001 -2.4610615e+38
-0.010287617 0.014080636 0.26300001 -2.4347372e+38
-0.0098618045 0.014080636 0.26300001 -2.461426e+38
-0.0089759184 0.014027097 0.26200002 -2.5017194e+38
-0.0085190851 0.013973558 0.26100001 -2.5417011e+38
-0.0076739355 0.013973558 0.26100001 -2.5817343e+38
-0.0070689218 0.015419099 0.28800002 -2.635112e+38
-0.0066026323 0.015419099 0.28800002 -2.6618012e+38
-0.0061576497 0.015472637 0.289 -2.68849e+38
-0.0056897411 0.015472637 0.289 -2.68849e+38
-0.0052399011 0.015526177 0.29000002 -2.7018344e+38
-0.0043008458 0.015526177 0.29000002 -2.7018344e+38
-0.0038313183 0.015526177 0.29000002 -2.7151788e+38
-0.0033617907 0.015526177 0.29000002 -2.7151788e+38
-0.0029022365 0.015579715 0.29100001 -2.7151788e+38
-0.0019599432 0.015579715 0.29100001 -2.7285236e+38
-0.0014887966 0.015579715 0.29100001 -2.741868e+38
-0.0010176499 0.015579715 0.29100001 -2.741868e+38
-7.5356438e-05 0.015579715 0.29100001 -2.7418165e+38
0.00039579024 0.015579715 0.29100001 -2.7418165e+38
0.00086991611 0.015633253 0.29200003 -2.7418165e+38
0.0013426818 0.015633253 0.29200003 -2.7418165e+38
0.0018154476 0.015633253 0.29200003 -2.7284721e+38
0.0027609791 0.015633253 0.29200003 -2.7950379e+38
0.0032226702 0.015579715 0.29100001 -2.7950379e+38
0.004164964 0.015579715 0.29100001 -2.7950379e+38
0.011783745 0.015686791 0.29300001 -2.9017932e+38
0.012216294 0.015633253 0.29200003 -2.9017932e+38
0.013161826 0.015633253 0.29200003 -2.9151376e+38
0.013634591 0.015633253 0.29200003 -2.9017932e+38
0.014059044 0.015579715 0.29100001 -2.8886054e+38
0.015001338 0.015579715 0.29100001 -2.8886054e+38
0.015419314 0.015526177 0.29000002 -2.8886054e+38
0.01588884 0.015526177 0.29000002 -2.9019498e+38
0.016827896 0.015526177 0.29000002 -2.9019498e+38
0.017297424 0.015526177 0.29000002 -2.9286386e+38
0.020138551 0.01392002 0.26000002 -2.6615939e+38
0.02063858 0.013973558 0.26100001 -2.6615939e+38
0.021483731 0.013973558 0.26100001 -2.6616454e+38
0.021990236 0.014027097 0.26200002 -2.7015746e+38
0.022499982 0.014080636 0.26300001 -2.714919e+38
0.023012966 0.014134174 0.264 -2.7149186e+38
0.023440398 0.014134174 0.264 -2.728263e+38
0.023958238 0.014187713 0.26500002 -2.8350693e+38
0.024387289 0.014187713 0.26500002 -3.0085466e+38
-0.012842495 0.014506449 0.26300001 -2.807911e+38
-0.01236947 0.014451291 0.26200002 -2.6344337e+38
-0.011945277 0.014451291 0.26200002 -2.5810046e+38
-0.011096888 0.014451291 0.26200002 -2.5144391e+38
-0.010672694 0.014451291 0.26200002 -2.5010947e+38
-0.010248501 0.014451291 0.26200002 -2.4480816e+38
-0.0098618045 0.014506449 0.26300001 -2.4881148e+38
-0.0089759184 0.014451291 0.26200002 -2.528252e+38
-0.0066026323 0.015885388 0.28800002 -2.7016778e+38
-0.0061363429 0.015885388 0.28800002 -2.7150222e+38
-0.0056897411 0.015940545 0.289 -2.7150226e+38
-0.004753924 0.015940545 0.289 -2.7018344e+38
-0.0043008458 0.015995704 0.29000002 -2.7018344e+38
-0.0038313183 0.015995704 0.29000002 -2.7151788e+38
-0.0033617907 0.015995704 0.29000002 -2.7151788e+38
-0.0024227356 0.015995704 0.29000002 -2.7285232e+38
-0.0019532079 0.015995704 0.29000002 -2.7285232e+38
-0.0014836803 0.015995704 0.29000002 -2.7418676e+38
-0.0010176499 0.016050862 0.29100001 -2.7418676e+38
-7.5356438e-05 0.016050862 0.29100001 -2.7683491e+38
0.00039579024 0.016050862 0.29100001 -2.7683491e+38
0.00086991611 0.016106019 0.29200003 -2.7685053e+38
0.0013426818 0.016106019 0.29200003 -2.7418165e+38
0.0018216649 0.016161175 0.29300001 -2.7284721e+38
0.0027515236 0.016050862 0.29100001 -2.7683491e+38
0.013587898 0.016050862 0.29100001 -2.9017932e+38
0.01401073 0.015995704 0.29000002 -2.888605e+38
0.014949786 0.015995704 0.29000002 -2.888605e+38
0.015419314 0.015995704 0.29000002 -2.888605e+38
0.01588884 0.015995704 0.29000002 -2.9019494e+38
0.020138551 0.014340975 0.26000002 -2.6615939e+38
0.020980461 0.014340975 0.26000002 -2.7015746e+38
0.021483731 0.014396133 0.26100001 -2.7015746e+38
0.021990236 0.014451291 0.26200002 -2.7015746e+38
0.022499982 0.014506449 0.26300001 -2.714919e+38
0.023012966 0.014561606 0.264 -2.728263e+38
0.023440398 0.014561606 0.264 -2.7416074e+38
0.023958238 0.014616764 0.26500002 -2.9685645e+38
-0.013694121 0.014932262 0.26300001 -2.9949923e+38
-0.012793664 0.014875486 0.26200002 -2.6610714e+38
-0.01236947 0.014875486 0.26200002 -2.581005e+38
-0.011945277 0.014875486 0.26200002 -2.5409718e+38
-0.011096888 0.014875486 0.26200002 -2.5010947e+38
-0.010672694 0.014875486 0.26200002 -2.5010947e+38
-0.010248501 0.014875486 0.26200002 -2.4347372e+38
-0.0094001126 0.014875486 0.26200002 -2.5015632e+38
-0.0089759184 0.014875486 0.26200002 -2.5149076e+38
-0.0085517252 0.014875486 0.26200002 -2.5150638e+38
-0.0056897411 0.016408455 0.289 -2.7150222e+38
-0.004753924 0.016408455 0.289 -2.728367e+38
-0.0043008458 0.016465232 0.29000002 -2.728367e+38
-0.0038313183 0.016465232 0.29000002 -2.7151788e+38
-0.0033617907 0.016465232 0.29000002 -2.7151788e+38
-0.0024227356 0.016465232 0.29000002 -2.7151788e+38
-0.0019532079 0.016465232 0.29000002 -2.7285232e+38
-0.0014836803 0.016465232 0.29000002 -2.7418676e+38
-0.0010141528 0.016465232 0.29000002 -2.7418676e+38
-7.509748e-05 0.016465232 0.29000002 -2.7684006e+38
0.00039715035 0.016578784 0.29200003 -2.7684006e+38
0.00086991611 0.016578784 0.29200003 -2.7950379e+38
0.0075098756 0.014761931 0.26000002 -2.8217268e+38
0.007930832 0.014761931 0.26000002 -2.8350712e+38
0.008351787 0.014761931 0.26000002 -2.8350712e+38
0.0091583384 0.014705155 0.259 -2.8484156e+38
0.0096146548 0.014761931 0.26000002 -2.86176e+38
0.010035611 0.014761931 0.26000002 -2.8884488e+38
0.010456567 0.014761931 0.26000002 -2.9017932e+38
0.011298478 0.014761931 0.26000002 -2.8884488e+38
0.011719434 0.014761931 0.26000002 -2.8752605e+38
0.019717595 0.014761931 0.26000002 -2.6882827e+38
0.020138551 0.014761931 0.26000002 -2.7015231e+38
0.020980461 0.014761931 0.26000002 -2.7148675e+38
0.021483731 0.014818707 0.26100001 -2.7015231e+38
0.021990236 0.014875486 0.26200002 -2.7015746e+38
0.022499982 0.014932262 0.26300001 -2.714919e+38
0.023012966 0.014989038 0.264 -2.7549514e+38
0.023529187 0.015045816 0.26500002 -2.9684619e+38
0.0070616542 0.015124491 0.259 -2.8084339e+38
0.0074809911 0.015124491 0.259 -2.8217268e+38
0.0079003274 0.015124491 0.259 -2.8350712e+38
0.0083196647 0.015124491 0.259 -2.8350712e+38
0.018803084 0.015124491 0.259 -2.7819012e+38
0.01922242 0.015124491 0.259 -2.7416603e+38
-0.012842495 0.015783887 0.26300001 -2.5543162e+38
-0.01236947 0.015723873 0.26200002 -2.5409718e+38
-0.011945277 0.015723873 0.26200002 -2.5142314e+38
-0.011096888 0.015723873 0.26200002 -2.4611657e+38
-0.010672694 0.015723873 0.26200002 -2.4077881e+38
-0.010209384 0.015663857 0.26100001 -2.3546707e+38
-0.0093642343 0.015663857 0.26100001 -2.3814632e+38
-0.0089416597 0.015663857 0.26100001 -2.4348408e+38
-0.0085190851 0.015663857 0.26100001 -2.4481852e+38
-0.008127531 0.015723873 0.26200002 -2.474874e+38
-0.0068287854 0.015663857 0.26100001 -2.5949741e+38
-0.004753924 0.017344272 0.289 -2.7150222e+38
-0.0042860154 0.017344272 0.289 -2.7150222e+38
-0.0038313183 0.017404288 0.29000002 -2.7283666e+38
-0.0033617907 0.017404288 0.29000002 -2.7283666e+38
-0.0024227356 0.017404288 0.29000002 -2.741711e+38
-0.0019464727 0.017344272 0.289 -2.7417114e+38
-0.0014785641 0.017344272 0.289 -2.7550558e+38
-0.0010141528 0.017404288 0.29000002 -2.7550558e+38
0.0062470082 0.015603843 0.26000002 -2.8084339e+38
0.0087727429 0.015603843 0.26000002 -2.8351227e+38
0.0096146548 0.015603843 0.26000002 -2.8484671e+38
0.010035611 0.015603843 0.26000002 -2.8618115e+38
0.010456567 0.015603843 0.26000002 -2.8618115e+38
0.011298478 0.015603843 0.26000002 -2.8885003e+38
0.011719434 0.015603843 0.26000002 -2.86176e+38
0.01214039 0.015603843 0.26000002 -2.9017932e+38
0.012609658 0.015663857 0.26100001 -2.8752605e+38
0.019717595 0.015603843 0.26000002 -2.6883342e+38
0.020138551 0.015603843 0.26000002 -2.7015746e+38
0.020980461 0.015603843 0.26000002 -2.714919e+38
0.021483731 0.015663857 0.26100001 -2.714919e+38
0.021990236 0.015723873 0.26200002 -2.7816917e+38
0.022499982 0.015783887 0.26300001 -2.9151358e+38
-0.012842495 0.016209701 0.26300001 -2.7680867e+38
-0.01236947 0.016148066 0.26200002 -2.4211321e+38
-0.011945277 0.016148066 0.26200002 -2.4211325e+38
-0.011096888 0.016148066 0.26200002 -2.4344769e+38
-0.010631959 0.016086431 0.26100001 -2.3944437e+38
-0.0093642343 0.016086431 0.26100001 -2.34143e+38
-0.0089074001 0.016024798 0.26000002 -2.3814632e+38
-0.0080654891 0.016024798 0.26000002 -2.4348408e+38
-0.0076151313 0.015963165 0.259 -2.46153e+38
-0.0071957945 0.015963165 0.259 -2.528252e+38
-0.0063571208 0.015963165 0.259 -2.5949741e+38
-0.005937784 0.015963165 0.259 -2.608267e+38
-0.0055184471 0.015963165 0.259 -2.6349558e+38
-0.004753924 0.017812179 0.289 -2.7016778e+38
-0.0042860154 0.017812179 0.289 -2.7150222e+38
-0.0038181068 0.017812179 0.289 -2.7283666e+38
-0.0028822899 0.017812179 0.289 -2.7283666e+38
-0.0024143814 0.017812179 0.289 -2.741711e+38
-0.0019464727 0.017812179 0.289 -2.7417114e+38
-0.0014785641 0.017812179 0.289 -2.7417114e+38
0.0045456346 0.015963165 0.259 -2.7950895e+38
0.0053843078 0.015963165 0.259 -2.8084339e+38
0.0058036447 0.015963165 0.259 -2.8084339e+38
0.0062229815 0.015963165 0.259 -2.8084339e+38
0.0070616542 0.015963165 0.259 -2.8084339e+38
0.0074809911 0.015963165 0.259 -2.8217783e+38
0.0079003274 0.015963165 0.259 -2.8217783e+38
0.0083196647 0.015963165 0.259 -2.8217783e+38
0.0087727429 0.016024798 0.26000002 -2.8351227e+38
0.0096146548 0.016024798 0.26000002 -2.8484671e+38
0.010035611 0.016024798 0.26000002 -2.8618115e+38
0.010456567 0.016024798 0.26000002 -2.8618115e+38
0.011298478 0.016024798 0.26000002 -2.8618115e+38
0.011719434 0.016024798 0.26000002 -2.86176e+38
0.01214039 0.016024798 0.26000002 -2.8884488e+38
0.012561345 0.016024798 0.26000002 -2.8884488e+38
0.013403257 0.016024798 0.26000002 -2.888605e+38
0.013771043 0.015963165 0.259 -2.888605e+38
0.014609717 0.015963165 0.259 -2.8752605e+38
0.015029053 0.015963165 0.259 -2.888605e+38
0.01544839 0.015963165 0.259 -2.9019494e+38
0.015867727 0.015963165 0.259 -2.9019494e+38
0.0167064 0.015963165 0.259 -2.9686714e+38
0.017125737 0.015963165 0.259 -2.9686714e+38
0.017545074 0.015963165 0.259 -2.955327e+38
0.01796441 0.015963165 0.259 -2.888605e+38
0.018803084 0.015963165 0.259 -2.8084339e+38
0.01922242 0.015963165 0.259 -2.7549522e+38
0.019717595 0.016024798 0.26000002 -2.714919e+38
0.020138551 0.016024798 0.26000002 -2.7015746e+38
0.020980461 0.016024798 0.26000002 -2.7547956e+38
0.021483731 0.016086431 0.26100001 -2.7814844e+38
0.021990236 0.016148066 0.26200002 -2.9285313e+38
0.022499982 0.016209701 0.26300001 -2.9552201e+38
-0.01236947 0.016572261 0.26200002 -2.9550635e+38
-0.011945277 0.016572261 0.26200002 -2.728209e+38
-0.011096888 0.016572261 0.26200002 -2.4077881e+38
-0.010631959 0.016509008 0.26100001 -2.3810993e+38
-0.0080654891 0.016445754 0.26000002 -2.408152e+38
-0.0076151313 0.016382502 0.259 -2.4348412e+38
-0.0071957945 0.016382502 0.259 -2.4748744e+38
-0.0063571208 0.016382502 0.259 -2.5415965e+38
-0.0059148581 0.016319249 0.25800002 -2.5682337e+38
-0.0055184471 0.016382502 0.259 -2.608267e+38
-0.0050991103 0.016382502 0.259 -2.6216114e+38
-0.0042604371 0.016382502 0.259 -2.6616446e+38
-0.0024143814 0.018280089 0.289 -2.7283666e+38
0.0037069609 0.016382502 0.259 -2.7684006e+38
0.0041103661 0.016319249 0.25800002 -2.7950895e+38
0.0049458011 0.016319249 0.25800002 -2.7950895e+38
0.0053635188 0.016319249 0.25800002 -2.7950895e+38
0.0058036447 0.016382502 0.259 -2.8084339e+38
0.0062229815 0.016382502 0.259 -2.8084339e+38
0.0070616542 0.016382502 0.259 -2.8084339e+38
0.0074809911 0.016382502 0.259 -2.8084339e+38
0.0079003274 0.016382502 0.259 -2.8217783e+38
0.0083196647 0.016382502 0.259 -2.8217783e+38
0.0087727429 0.016445754 0.26000002 -2.8351227e+38
0.0096146548 0.016445754 0.26000002 -2.8351227e+38
0.010035611 0.016445754 0.26000002 -2.8618115e+38
0.010456567 0.016445754 0.26000002 -2.8618115e+38
0.011298478 0.016445754 0.26000002 -2.8618115e+38
0.011719434 0.016445754 0.26000002 -2.8484671e+38
0.01214039 0.016445754 0.26000002 -2.8885003e+38
0.012561345 0.016445754 0.26000002 -2.8885003e+38
0.013403257 0.016445754 0.26000002 -2.8886565e+38
0.013771043 0.016382502 0.259 -2.8886565e+38
0.014609717 0.016382502 0.259 -2.8753121e+38
0.015029053 0.016382502 0.259 -2.8886565e+38
0.01544839 0.016382502 0.259 -2.9020009e+38
0.015867727 0.016382502 0.259 -2.9020009e+38
0.0167064 0.016382502 0.259 -2.9553785e+38
0.017125737 0.016382502 0.259 -2.9553785e+38
0.017545074 0.016382502 0.259 -2.9286897e+38
0.01796441 0.016382502 0.259 -2.8886565e+38
0.018803084 0.016382502 0.259 -2.8084339e+38
0.01922242 0.016382502 0.259 -2.7549522e+38
0.019717595 0.016445754 0.26000002 -2.714919e+38
0.020138551 0.016445754 0.26000002 -2.7281072e+38
0.02063858 0.016509008 0.26100001 -2.7681404e+38
0.021483731 0.016509008 0.26100001 -2.9550128e+38
-0.011096888 0.016996454 0.26200002 -2.5680762e+38
-0.0080344677 0.016801838 0.259 -2.3681188e+38
-0.0076151313 0.016801838 0.259 -2.4214964e+38
-0.0071957945 0.016801838 0.259 -2.4481852e+38
-0.0063325758 0.016736967 0.25800002 -2.4748229e+38
-0.0059148581 0.016736967 0.25800002 -2.5415449e+38
-0.0054971403 0.016736967 0.25800002 -2.5548893e+38
-0.0046617053 0.016736967 0.25800002 -2.6216114e+38
-0.0042439876 0.016736967 0.25800002 -2.6483002e+38
-0.0038262699 0.016736967 0.25800002 -2.6616446e+38
0.0028572129 0.016736967 0.25800002 -2.7684002e+38
0.0032495435 0.016607223 0.25600001 -2.7684006e+38
0.0036783356 0.016672093 0.257 -2.7684006e+38
0.0045105331 0.016672093 0.257 -2.7950895e+38
0.0049458011 0.016736967 0.25800002 -2.7950895e+38
0.0053635188 0.016736967 0.25800002 -2.7950895e+38
0.0058036447 0.016801838 0.259 -2.8084339e+38
0.0062229815 0.016801838 0.259 -2.8084339e+38
0.0070616542 0.016801838 0.259 -2.8084339e+38
0.0074809911 0.016801838 0.259 -2.8084339e+38
0.0079003274 0.016801838 0.259 -2.8217783e+38
0.008351787 0.01686671 0.26000002 -2.8217783e+38
0.0087727429 0.01686671 0.26000002 -2.8351227e+38
0.0096146548 0.01686671 0.26000002 -2.8351227e+38
0.010035611 0.01686671 0.26000002 -2.8618115e+38
0.010456567 0.01686671 0.26000002 -2.8618115e+38
0.011298478 0.01686671 0.26000002 -2.8618115e+38
0.011719434 0.01686671 0.26000002 -2.8618115e+38
0.01214039 0.01686671 0.26000002 -2.8885003e+38
0.012561345 0.01686671 0.26000002 -2.8885003e+38
0.013403257 0.01686671 0.26000002 -2.9018447e+38
0.013771043 0.016801838 0.259 -2.9151891e+38
0.014609717 0.016801838 0.259 -2.8753121e+38
0.015029053 0.016801838 0.259 -2.8886565e+38
0.01544839 0.016801838 0.259 -2.9020009e+38
0.015867727 0.016801838 0.259 -2.9020009e+38
0.0167064 0.016801838 0.259 -2.9553785e+38
0.017125737 0.016801838 0.259 -2.9553785e+38
0.017545074 0.016801838 0.259 -2.9286897e+38
0.01796441 0.016801838 0.259 -2.8886565e+38
0.018803084 0.016801838 0.259 -2.7950895e+38
0.01922242 0.016801838 0.259 -2.7549522e+38
0.019717595 0.01686671 0.26000002 -2.7282634e+38
0.020138551 0.01686671 0.26000002 -2.7547956e+38
0.02063858 0.016931582 0.26100001 -2.7948288e+38
0.021141849 0.016996454 0.26200002 -2.9552201e+38
-0.0076151313 0.017640512 0.259 -2.3681188e+38
-0.0071957945 0.017640512 0.259 -2.4214964e+38
-0.0063325758 0.017572403 0.25800002 -2.4481852e+38
-0.0059148581 0.017572403 0.25800002 -2.5015632e+38
-0.0054971403 0.017572403 0.25800002 -2.528252e+38
-0.0046617053 0.017572403 0.25800002 -2.5949741e+38
-0.0042275381 0.017504292 0.257 -2.6083185e+38
-0.0033953409 0.017504292 0.257 -2.6350073e+38
-0.0029792422 0.017504292 0.257 -2.6616961e+38
-0.0025631436 0.017504292 0.257 -2.6883334e+38
-0.002147045 0.017504292 0.257 -2.7016778e+38
-0.0013097316 0.017436182 0.25600001 -2.7150222e+38
0.0015978426 0.017504292 0.257 -2.741711e+38
0.0024205844 0.017436182 0.25600001 -2.7550554e+38
0.002835064 0.017436182 0.25600001 -2.7550554e+38
0.0032622369 0.017504292 0.257 -2.7684006e+38
0.0036783356 0.017504292 0.257 -2.7684006e+38
0.0045105331 0.017504292 0.257 -2.7684006e+38
0.0049458011 0.017572403 0.25800002 -2.781641e+38
0.0053635188 0.017572403 0.25800002 -2.8083298e+38
0.0057812366 0.017572403 0.25800002 -2.8216742e+38
0.0062229815 0.017640512 0.259 -2.8350186e+38
0.0070616542 0.017640512 0.259 -2.8884995e+38
0.0074809911 0.017640512 0.259 -2.9552726e+38
0.0079003274 0.017640512 0.259 -2.9819614e+38
0.008351787 0.017708622 0.26000002 -2.9419282e+38
0.0087727429 0.017708622 0.26000002 -2.9819614e+38
0.0096146548 0.017708622 0.26000002 -2.9953058e+38
0.010035611 0.017708622 0.26000002 -3.0086503e+38
0.010456567 0.017708622 0.26000002 -2.9953058e+38
0.011298478 0.017708622 0.26000002 -3.0086503e+38
0.011719434 0.017708622 0.26000002 -2.9819614e+38
0.01214039 0.017708622 0.26000002 -2.9419282e+38
0.012561345 0.017708622 0.26000002 -2.9419286e+38
0.013403257 0.017708622 0.26000002 -2.9151883e+38
0.013824212 0.017708622 0.26000002 -2.9151883e+38
0.014609717 0.017640512 0.259 -2.8886561e+38
0.015029053 0.017640512 0.259 -2.8886565e+38
0.01544839 0.017640512 0.259 -2.8886565e+38
0.015867727 0.017640512 0.259 -2.8886565e+38
0.0167064 0.017640512 0.259 -2.9552223e+38
0.017125737 0.017640512 0.259 -2.9952555e+38
0.017545074 0.017640512 0.259 -2.9819111e+38
0.01796441 0.017640512 0.259 -2.9151891e+38
0.018803084 0.017640512 0.259 -2.8083298e+38
0.01922242 0.017640512 0.259 -2.7682962e+38
0.019717595 0.017708622 0.26000002 -2.8216738e+38
0.020216005 0.017776731 0.26100001 -2.9952533e+38
-0.0071957945 0.018059848 0.259 -2.4214439e+38
-0.0063325758 0.01799012 0.25800002 -2.4480812e+38
-0.0059148581 0.01799012 0.25800002 -2.4881144e+38
-0.0054971403 0.01799012 0.25800002 -2.5281476e+38
-0.0046617053 0.01799012 0.25800002 -2.5681812e+38
-0.0042275381 0.01792039 0.257 -2.6082144e+38
-0.0033953409 0.01792039 0.257 -2.6350073e+38
-0.0029792422 0.01792039 0.257 -2.6483517e+38
-0.0025631436 0.01792039 0.257 -2.6749365e+38
-0.0017242111 0.017850662 0.25600001 -2.7149697e+38
-0.0013097316 0.017850662 0.25600001 -2.7149697e+38
-0.00089525204 0.017850662 0.25600001 -2.7150737e+38
-0.00048077249 0.017850662 0.25600001 -2.7150737e+38
0.00034818662 0.017850662 0.25600001 -2.7283666e+38
0.00076266617 0.017850662 0.25600001 -2.7283666e+38
0.0011771458 0.017850662 0.25600001 -2.7283666e+38
0.0020061049 0.017850662 0.25600001 -2.741711e+38
0.0024205844 0.017850662 0.25600001 -2.7550554e+38
0.002835064 0.017850662 0.25600001 -2.741711e+38
0.0032622369 0.01792039 0.257 -2.7550558e+38
0.0036783356 0.01792039 0.257 -2.7684002e+38
0.0045105331 0.01792039 0.257 -2.7950891e+38
0.0049458011 0.01799012 0.25800002 -2.8216738e+38
0.0053635188 0.01799012 0.25800002 -2.861707e+38
0.0058036447 0.018059848 0.259 -2.9150842e+38
0.0062229815 0.018059848 0.259 -2.9951507e+38
0.013403257 0.018129578 0.26000002 -2.9819614e+38
0.013824212 0.018129578 0.26000002 -2.9552726e+38
0.014245168 0.018129578 0.26000002 -2.915396e+38
0.015029053 0.018059848 0.259 -2.9020001e+38
0.01544839 0.018059848 0.259 -2.9020001e+38
0.015867727 0.018059848 0.259 -2.9020005e+38
0.0167064 0.018059848 0.259 -2.9819107e+38
0.017125737 0.018059848 0.259 -2.9952551e+38
0.017545074 0.018059848 0.259 -2.9819107e+38
0.01796441 0.018059848 0.259 -2.9151887e+38
0.018875683 0.018129578 0.26000002 -2.8216738e+38
0.019296639 0.018129578 0.26000002 -2.8882908e+38
0.019717595 0.018129578 0.26000002 -2.9416684e+38
-0.0076151313 0.018479185 0.259 -2.7682418e+38
-0.0071957945 0.018479185 0.259 -2.5547313e+38
-0.0063571208 0.018479185 0.259 -2.4746653e+38
-0.0059148581 0.018407838 0.25800002 -2.514647e+38
-0.0054971403 0.018407838 0.25800002 -2.5413358e+38
-0.0046617053 0.018407838 0.25800002 -2.5548368e+38
-0.0042275381 0.018336488 0.257 -2.5815256e+38
-0.0033953409 0.018336488 0.257 -2.6216629e+38
-0.0029792422 0.018336488 0.257 -2.6350073e+38
-0.0025631436 0.018336488 0.257 -2.6615921e+38
-0.0017242111 0.018265141 0.25600001 -2.7016253e+38
-0.0013097316 0.018265141 0.25600001 -2.7149697e+38
-0.00089525204 0.018265141 0.25600001 -2.7017293e+38
-0.00048077249 0.018265141 0.25600001 -2.7150737e+38
0.00034818662 0.018265141 0.25600001 -2.7283666e+38
0.00076266617 0.018265141 0.25600001 -2.7283666e+38
0.0011771458 0.018265141 0.25600001 -2.7283666e+38
0.0020061049 0.018265141 0.25600001 -2.741711e+38
0.0024205844 0.018265141 0.25600001 -2.7550554e+38
0.0028461386 0.018336488 0.257 -2.741711e+38
0.0032622369 0.018336488 0.257 -2.7550558e+38
0.0036783356 0.018336488 0.257 -2.7684002e+38
0.0041103661 0.018407838 0.25800002 -2.7816402e+38
0.0049458011 0.018407838 0.25800002 -2.955169e+38
0.0053635188 0.018407838 0.25800002 -2.955169e+38
0.0058036447 0.018479185 0.259 -2.9952018e+38
0.0062229815 0.018479185 0.259 -3.035235e+38
0.01508708 0.018550534 0.26000002 -2.9554288e+38
0.015508036 0.018550534 0.26000002 -2.92874e+38
0.015867727 0.018479185 0.259 -2.9554292e+38
0.0167064 0.018479185 0.259 -2.9819618e+38
0.017125737 0.018479185 0.259 -3.0086507e+38
0.017545074 0.018479185 0.259 -2.9819103e+38
0.018033771 0.018550534 0.26000002 -2.9151883e+38
0.018875683 0.018550534 0.26000002 -2.9017398e+38
0.019296639 0.018550534 0.26000002 -2.9283747e+38
0.01979343 0.018621881 0.26100001 -2.9550635e+38
-0.0071957945 0.018898522 0.259 -2.8882885e+38
-0.0063571208 0.018898522 0.259 -2.7015198e+38
-0.005937784 0.018898522 0.259 -2.5415431e+38
-0.0054971403 0.018825555 0.25800002 -2.5148543e+38
-0.0046617053 0.018825555 0.25800002 -2.5681808e+38
-0.0042439876 0.018825555 0.25800002 -2.5815252e+38
-0.0033953409 0.018752586 0.257 -2.6215588e+38
-0.0029792422 0.018752586 0.257 -2.6482477e+38
-0.0025631436 0.018752586 0.257 -2.6615921e+38
-0.0017242111 0.018679621 0.25600001 -2.7016253e+38
-0.0013097316 0.018679621 0.25600001 -2.7149697e+38
-0.00089525204 0.018679621 0.25600001 -2.7149697e+38
-0.00048077249 0.018679621 0.25600001 -2.7149697e+38
0.00034818662 0.018679621 0.25600001 -2.7150737e+38
0.00076266617 0.018679621 0.25600001 -2.7150222e+38
0.0011771458 0.018679621 0.25600001 -2.7283666e+38
0.0020061049 0.018679621 0.25600001 -2.741711e+38
0.0024205844 0.018679621 0.25600001 -2.741711e+38
0.0028461386 0.018752586 0.257 -2.741711e+38
0.0032622369 0.018752586 0.257 -2.7550554e+38
0.0036783356 0.018752586 0.257 -2.7950886e+38
0.0041103661 0.018825555 0.25800002 -2.9018425e+38
0.017191859 0.018971488 0.26000002 -3.0086503e+38
0.017612815 0.018971488 0.26000002 -2.9819614e+38
0.018033771 0.018971488 0.26000002 -2.9152394e+38
0.018875683 0.018971488 0.26000002 -2.9151869e+38
-0.0042439876 0.019660991 0.25800002 -2.7283644e+38
-0.0033953409 0.019584784 0.257 -2.6349544e+38
-0.0029792422 0.019584784 0.257 -2.6482988e+38
-0.0025631436 0.019584784 0.257 -2.6615921e+38
-0.0017242111 0.01950858 0.25600001 -2.7016253e+38
-0.0013097316 0.01950858 0.25600001 -2.7149697e+38
-0.00089525204 0.01950858 0.25600001 -2.7149697e+38
-0.00048077249 0.01950858 0.25600001 -2.7149697e+38
0.00034818662 0.01950858 0.25600001 -2.7283141e+38
0.00076266617 0.01950858 0.25600001 -2.7416585e+38
0.0011771458 0.01950858 0.25600001 -2.7416585e+38
0.0020061049 0.01950858 0.25600001 -2.7416581e+38
0.0024205844 0.01950858 0.25600001 -2.7682422e+38
0.0028461386 0.019584784 0.257 -2.8616531e+38
0.0070616542 0.019737195 0.259 -2.8749441e+38
0.0074809911 0.019737195 0.259 -2.8616523e+38
0.007930832 0.0198134 0.26000002 -2.8483079e+38
0.008351787 0.0198134 0.26000002 -2.83512e+38
0.0088064838 0.019889604 0.26100001 -2.8751533e+38
0.0096516339 0.019889604 0.26100001 -2.8751533e+38
0.010074208 0.019889604 0.26100001 -2.9018425e+38
0.010496784 0.019889604 0.26100001 -2.9285313e+38
0.010919359 0.019889604 0.26100001 -2.9552201e+38
0.011764508 0.019889604 0.26100001 -3.021786e+38
0.012187083 0.019889604 0.26100001 -3.0351304e+38
0.012609658 0.019889604 0.26100001 -3.0351304e+38
0.013032232 0.019889604 0.26100001 -3.0351304e+38
0.013824212 0.0198134 0.26000002 -3.0618192e+38
-0.0029792422 0.020000882 0.257 -2.7550532e+38
-0.0025631436 0.020000882 0.257 -2.7283652e+38
-0.002147045 0.020000882 0.257 -2.7283652e+38
-0.0013097316 0.019923059 0.25600001 -2.7149697e+38
-0.00089525204 0.019923059 0.25600001 -2.7283141e+38
-0.00048077249 0.019923059 0.25600001 -2.7149697e+38
0.00034818662 0.019923059 0.25600001 -2.7416585e+38
0.00076266617 0.019923059 0.25600001 -2.7416585e+38
0.0011771458 0.019923059 0.25600001 -2.7416585e+38
0.0020061049 0.019923059 0.25600001 -2.7283137e+38
0.0058036447 0.020156533 0.259 -2.8749441e+38
0.0062229815 0.020156533 0.259 -2.8482553e+38
0.0070616542 0.020156533 0.259 -2.821515e+38
0.0074809911 0.020156533 0.259 -2.8349639e+38
0.007930832 0.020234356 0.26000002 -2.8349639e+38
0.008351787 0.020234356 0.26000002 -2.8349639e+38
0.0088064838 0.020312181 0.26100001 -2.8483083e+38
0.0096516339 0.020312181 0.26100001 -2.8749971e+38
0.010074208 0.020312181 0.26100001 -2.8883419e+38
0.010496784 0.020312181 0.26100001 -2.9283751e+38
0.010919359 0.020312181 0.26100001 -2.9417195e+38
0.011764508 0.020312181 0.26100001 -2.9684083e+38
0.012187083 0.020312181 0.26100001 -2.9817527e+38
0.012609658 0.020312181 0.26100001 -2.9950971e+38
0.013032232 0.020312181 0.26100001 -3.021786e+38
0.013877383 0.020312181 0.26100001 -3.0351304e+38
0.014245168 0.020234356 0.26000002 -3.0484748e+38
0.01508708 0.020234356 0.26000002 -3.0618192e+38
0.015928991 0.020234356 0.26000002 -3.0618192e+38
0.016349947 0.020234356 0.26000002 -3.0618192e+38
0.017191859 0.020234356 0.26000002 -3.0484748e+38
0.018033771 0.020234356 0.26000002 -2.9684079e+38
-0.011609029 0.020973086 0.264 -3.035235e+38
-0.011181598 0.020973086 0.264 -3.0485794e+38
-0.002147045 0.020416981 0.257 -2.8217752e+38
-0.0013148477 0.020416981 0.257 -2.755054e+38
-0.00089525204 0.020337539 0.25600001 -2.7283652e+38
-0.00048077249 0.020337539 0.25600001 -2.7283652e+38
0.00034818662 0.020337539 0.25600001 -2.755054e+38
0.00076266617 0.020337539 0.25600001 -2.7417096e+38
0.0011771458 0.020337539 0.25600001 -2.7817428e+38
0.0058036447 0.020575868 0.259 -2.8348067e+38
0.0062229815 0.020575868 0.259 -2.8214623e+38
0.0070616542 0.020575868 0.259 -2.8214108e+38
0.0075098756 0.020655312 0.26000002 -2.7949306e+38
0.007930832 0.020655312 0.26000002 -2.7949306e+38
0.0083839092 0.020734755 0.26100001 -2.8082751e+38
0.0088064838 0.020734755 0.26100001 -2.8082751e+38
0.0096516339 0.020734755 0.26100001 -2.8616531e+38
0.010112808 0.020814199 0.26200002 -2.8749975e+38
0.010537001 0.020814199 0.26200002 -2.9016863e+38
0.010961195 0.020814199 0.26200002 -2.9016863e+38
0.01138539 0.020814199 0.26200002 -2.9283751e+38
0.012233777 0.020814199 0.26200002 -2.9550124e+38
0.012609658 0.020734755 0.26100001 -2.9683568e+38
0.013032232 0.020734755 0.26100001 -2.9817012e+38
0.013877383 0.020734755 0.26100001 -2.9950456e+38
0.014299957 0.020734755 0.26100001 -2.9950456e+38
0.01508708 0.020655312 0.26000002 -3.0351304e+38
0.015508036 0.020655312 0.26000002 -3.0351304e+38
0.015928991 0.020655312 0.26000002 -3.0484748e+38
0.016349947 0.020655312 0.26000002 -3.0351304e+38
0.017191859 0.020655312 0.26000002 -2.9817527e+38
0.017612815 0.020655312 0.26000002 -2.9684079e+38
0.01810313 0.020734755 0.26100001 -2.9550635e+38
-0.012082054 0.021910632 0.26500002 -3.0219947e+38
-0.011609029 0.021827949 0.264 -3.0086503e+38
-0.011181598 0.021827949 0.264 -3.0219947e+38
-0.010326733 0.021827949 0.264 -3.0219947e+38
-0.0098618045 0.021745268 0.26300001 -3.0219947e+38
0.0041103661 0.021331862 0.25800002 -2.8083262e+38
0.0045456346 0.021414543 0.259 -2.7949818e+38
0.0053843078 0.021414543 0.259 -2.7416041e+38
0.0058260527 0.021497224 0.26000002 -2.7282082e+38
0.0062470082 0.021497224 0.26000002 -2.7282082e+38
0.0066679642 0.021497224 0.26000002 -2.7414486e+38
0.0075098756 0.021497224 0.26000002 -2.754897e+38
0.0079613347 0.021579904 0.26100001 -2.754897e+38
0.0083839092 0.021579904 0.26100001 -2.7417092e+38
0.0088064838 0.021579904 0.26100001 -2.7550536e+38
0.0092644198 0.021662587 0.26200002 -2.7683984e+38
0.010112808 0.021662587 0.26200002 -2.821776e+38
0.010537001 0.021662587 0.26200002 -2.8351204e+38
0.010961195 0.021662587 0.26200002 -2.8484648e+38
0.01138539 0.021662587 0.26200002 -2.8618093e+38
0.012233777 0.021662587 0.26200002 -2.901791e+38
0.012657971 0.021662587 0.26200002 -2.941668e+38
0.013082165 0.021662587 0.26200002 -2.9550124e+38
0.013877383 0.021579904 0.26100001 -2.9550124e+38
