# .PCD v0.7 - Point Cloud Data file format
VERSION 0.7
FIELDS x y z rgb
SIZE 4 4 4 4
TYPE F F F F
COUNT 1 1 1 1
WIDTH 927
HEIGHT 1
VIEWPOINT 0 0 0 1 0 0 0
POINTS 927
DATA ascii
-0.016194399 -0.025431041 0.32100001 -2.8751021e+38
-0.01567468 -0.025431041 0.32100001 -2.8751021e+38
-0.015154962 -0.025431041 0.32100001 -2.8617577e+38
-0.014071551 -0.025351815 0.32000002 -2.8482576e+38
-0.013553452 -0.025351815 0.32000002 -2.8350178e+38
-0.01243902 -0.025193367 0.31800002 -2.8216738e+38
-0.011924159 -0.025193367 0.31800002 -2.8483626e+38
-0.011409298 -0.025193367 0.31800002 -2.8351223e+38
-0.010894436 -0.025193367 0.31800002 -2.8217779e+38
-0.0047457609 -0.025351815 0.32000002 -2.8617074e+38
-0.0042276615 -0.025351815 0.32000002 -2.8750518e+38
-0.0037095624 -0.025351815 0.32000002 -2.9017407e+38
-0.0026733633 -0.025351815 0.32000002 -2.9284295e+38
-0.0021552639 -0.025351815 0.32000002 -2.9551183e+38
-0.0016422806 -0.025431041 0.32100001 -2.9551183e+38
-0.0011225621 -0.025431041 0.32100001 -2.9819111e+38
-0.00060472166 -0.025510265 0.32200003 -2.9819111e+38
0.00043795345 -0.025510265 0.32200003 -2.9819107e+38
0.00095929101 -0.025510265 0.32200003 -3.021891e+38
0.0014806286 -0.025510265 0.32200003 -3.021891e+38
-0.02443354 -0.024833716 0.32000002 -2.4079433e+38
-0.023397341 -0.024833716 0.32000002 -2.5281987e+38
-0.022879241 -0.024833716 0.32000002 -2.7016756e+38
-0.022361143 -0.024833716 0.32000002 -2.8217752e+38
-0.014071551 -0.024833716 0.32000002 -2.9684083e+38
-0.013511097 -0.024756111 0.31900001 -2.874946e+38
-0.01243902 -0.024678506 0.31800002 -2.848206e+38
-0.011924159 -0.024678506 0.31800002 -2.8748949e+38
-0.011409298 -0.024678506 0.31800002 -2.8483626e+38
-0.010894436 -0.024678506 0.31800002 -2.8350182e+38
-0.0098647131 -0.024678506 0.31800002 -2.8351227e+38
-0.0093792537 -0.024756111 0.31900001 -2.8217783e+38
-0.0057819602 -0.024833716 0.32000002 -2.848363e+38
-0.0047309306 -0.024756111 0.31900001 -2.8750518e+38
-0.0042144503 -0.024756111 0.31900001 -2.9017407e+38
-0.0037095624 -0.024833716 0.32000002 -2.9017407e+38
-0.0026733633 -0.024833716 0.32000002 -2.9549621e+38
-0.0021552639 -0.024833716 0.32000002 -2.9816509e+38
-0.0016422806 -0.024911322 0.32100001 -2.9816509e+38
-0.0011225621 -0.024911322 0.32100001 -3.0084955e+38
-0.00060472166 -0.024988927 0.32200003 -3.0084955e+38
0.00043795345 -0.024988927 0.32200003 -3.021891e+38
0.00095929101 -0.024988927 0.32200003 -3.0617677e+38
0.0014852268 -0.025066532 0.32300001 -3.0484232e+38
-0.019832429 -0.023871886 0.32100001 -2.9950967e+38
-0.018792992 -0.023871886 0.32100001 -3.0484748e+38
-0.0183302 -0.023946252 0.32200003 -3.0484748e+38
-0.017808862 -0.023946252 0.32200003 -3.0750595e+38
-0.017287524 -0.023946252 0.32200003 -3.0884039e+38
-0.016194399 -0.023871886 0.32100001 -3.1284371e+38
-0.011409298 -0.023648784 0.31800002 -2.941668e+38
-0.010894436 -0.023648784 0.31800002 -2.874946e+38
-0.0098647131 -0.023648784 0.31800002 -2.8483626e+38
-0.0093498519 -0.023648784 0.31800002 -2.848363e+38
-0.0088349907 -0.023648784 0.31800002 -2.848363e+38
-0.0078052683 -0.023648784 0.31800002 -2.848363e+38
-0.0072904066 -0.023648784 0.31800002 -2.848363e+38
-0.0067755454 -0.023648784 0.31800002 -2.848363e+38
-0.0062606842 -0.023648784 0.31800002 -2.8617074e+38
-0.0052474109 -0.02372315 0.31900001 -2.8750514e+38
-0.0047309306 -0.02372315 0.31900001 -2.9150847e+38
-0.0042276615 -0.023797518 0.32000002 -2.9549613e+38
-0.0037095624 -0.023797518 0.32000002 -2.9683057e+38
-0.0026733633 -0.023797518 0.32000002 -3.0350792e+38
-0.002161999 -0.023871886 0.32100001 -3.0484236e+38
-0.0016422806 -0.023871886 0.32100001 -3.0484236e+38
-0.00060472166 -0.023946252 0.32200003 -3.0351304e+38
0.00095929101 -0.023946252 0.32200003 -2.9817523e+38
0.0014852268 -0.02402062 0.32300001 -2.9283747e+38
0.0020144007 -0.024094988 0.324 -2.9016855e+38
0.0025468129 -0.024169354 0.32500002 -2.8749967e+38
0.0030824628 -0.02424372 0.32600001 -2.8616523e+38
0.0036324256 -0.024392456 0.32800001 -2.8349635e+38
-0.020352148 -0.023352167 0.32100001 -2.9417187e+38
-0.019894212 -0.023424914 0.32200003 -2.9417191e+38
-0.019372875 -0.023424914 0.32200003 -2.9417191e+38
-0.0183302 -0.023424914 0.32200003 -2.9816487e+38
-0.017808862 -0.023424914 0.32200003 -2.9815972e+38
-0.017287524 -0.023424914 0.32200003 -3.008286e+38
-0.016244849 -0.023424914 0.32200003 -3.0883524e+38
-0.015723512 -0.023424914 0.32200003 -3.1017483e+38
-0.015154962 -0.023352167 0.32100001 -3.1284371e+38
-0.0098647131 -0.023133922 0.31800002 -2.874946e+38
-0.0093498519 -0.023133922 0.31800002 -2.8748953e+38
-0.0088349907 -0.023133922 0.31800002 -2.8748953e+38
-0.0078052683 -0.023133922 0.31800002 -2.861707e+38
-0.0072904066 -0.023133922 0.31800002 -2.861707e+38
-0.0067968518 -0.02320667 0.31900001 -2.861707e+38
-0.0062803719 -0.02320667 0.31900001 -2.9017402e+38
-0.0052474109 -0.02320667 0.31900001 -2.9685134e+38
-0.0047457609 -0.023279419 0.32000002 -2.9952022e+38
-0.0037095624 -0.023279419 0.32000002 -2.9952533e+38
-0.002161999 -0.023352167 0.32100001 -3.0484748e+38
-0.0016422806 -0.023352167 0.32100001 -3.0351304e+38
-0.00060472166 -0.023424914 0.32200003 -2.9684079e+38
0.00043795345 -0.023424914 0.32200003 -2.9283743e+38
0.00096227013 -0.023497663 0.32300001 -2.9016855e+38
0.0014898251 -0.023570411 0.324 -2.8749967e+38
0.0020144007 -0.023570411 0.324 -2.8483079e+38
0.0025468129 -0.02364316 0.32500002 -2.8082746e+38
0.0030919183 -0.023788655 0.32700002 -2.8082746e+38
0.0036435002 -0.023934152 0.32900003 -2.7949302e+38
0.0042015584 -0.024079649 0.33100003 -2.7816374e+38
0.0047660922 -0.024225144 0.333 -2.7816374e+38
-0.020936888 -0.022903576 0.32200003 -2.8882374e+38
-0.02041555 -0.022903576 0.32200003 -2.8882374e+38
-0.019894212 -0.022903576 0.32200003 -2.9015818e+38
-0.019372875 -0.022903576 0.32200003 -2.9015818e+38
-0.0183302 -0.022903576 0.32200003 -2.9149267e+38
-0.017808862 -0.022903576 0.32200003 -2.9415639e+38
-0.017287524 -0.022903576 0.32200003 -2.9815972e+38
-0.016244849 -0.022903576 0.32200003 -3.0349748e+38
-0.015723512 -0.022903576 0.32200003 -3.0616636e+38
-0.015154962 -0.022832448 0.32100001 -3.0883524e+38
-0.014071551 -0.022761319 0.32000002 -3.1284371e+38
-0.0093498519 -0.022619061 0.31800002 -2.9683568e+38
-0.0088349907 -0.022619061 0.31800002 -2.9016348e+38
-0.0078052683 -0.022619061 0.31800002 -2.9151358e+38
-0.0073133321 -0.02269019 0.31900001 -2.9151358e+38
-0.0067968518 -0.02269019 0.31900001 -2.9151358e+38
-0.0063000596 -0.022761319 0.32000002 -2.9551686e+38
-0.0057819602 -0.022761319 0.32000002 -2.9952018e+38
-0.002161999 -0.022832448 0.32100001 -2.9949927e+38
-0.0016422806 -0.022832448 0.32100001 -2.9683039e+38
-0.0011260592 -0.022903576 0.32200003 -2.9283747e+38
-0.00060472166 -0.022903576 0.32200003 -2.8883415e+38
0.00043795345 -0.022903576 0.32200003 -2.8749967e+38
0.00096227013 -0.022974705 0.32300001 -2.8483079e+38
0.0014898251 -0.023045836 0.324 -2.8349635e+38
0.0020206179 -0.023116965 0.32500002 -2.7949302e+38
0.002554649 -0.023188094 0.32600001 -2.7815858e+38
0.0030919183 -0.023259223 0.32700002 -2.7815858e+38
0.0036435002 -0.02340148 0.32900003 -2.7815858e+38
0.0042015584 -0.02354374 0.33100003 -2.7815858e+38
0.0047660922 -0.023685997 0.333 -2.7815858e+38
-0.023470458 -0.022312731 0.32100001 -2.9015814e+38
-0.022950739 -0.022312731 0.32100001 -2.9014772e+38
-0.022431022 -0.022312731 0.32100001 -2.9014772e+38
-0.021979563 -0.022382239 0.32200003 -2.8615482e+38
-0.020936888 -0.022382239 0.32200003 -2.8615486e+38
-0.02041555 -0.022382239 0.32200003 -2.8615486e+38
-0.019894212 -0.022382239 0.32200003 -2.8615486e+38
-0.019433038 -0.022451749 0.32300001 -2.8615486e+38
-0.018387124 -0.022451749 0.32300001 -2.9015822e+38
-0.017864168 -0.022451749 0.32300001 -2.9149267e+38
-0.017341211 -0.022451749 0.32300001 -2.9549599e+38
-0.016818255 -0.022451749 0.32300001 -2.9815972e+38
-0.015723512 -0.022382239 0.32200003 -3.008286e+38
-0.015202174 -0.022382239 0.32200003 -3.0616636e+38
-0.014115525 -0.022312731 0.32100001 -3.075008e+38
-0.013553452 -0.02224322 0.32000002 -3.0883524e+38
-0.003201436 -0.022312731 0.32100001 -2.9550635e+38
-0.002161999 -0.022312731 0.32100001 -2.9149262e+38
-0.0016473968 -0.022382239 0.32200003 -2.8882374e+38
-0.0011260592 -0.022382239 0.32200003 -2.8615486e+38
-0.00060472166 -0.022382239 0.32200003 -2.8615486e+38
0.00043931356 -0.022451749 0.32300001 -2.8082746e+38
0.00096524938 -0.022521259 0.324 -2.7949302e+38
0.0014898251 -0.022521259 0.324 -2.7949302e+38
0.0020206179 -0.022590771 0.32500002 -2.7815858e+38
0.002554649 -0.02266028 0.32600001 -2.7682414e+38
0.0030919183 -0.02272979 0.32700002 -2.7815858e+38
0.0036435002 -0.02286881 0.32900003 -2.7682414e+38
0.0042142514 -0.023077341 0.33200002 -2.7682414e+38
0.0047660922 -0.023146849 0.333 -2.7682414e+38
0.0053211711 -0.023216361 0.33400002 -2.7682925e+38
-0.025029613 -0.021273293 0.32100001 -2.9417191e+38
-0.024509896 -0.021273293 0.32100001 -2.8883415e+38
-0.023470458 -0.021273293 0.32100001 -2.8482042e+38
-0.023022238 -0.021339564 0.32200003 -2.8481e+38
-0.022500901 -0.021339564 0.32200003 -2.8347556e+38
-0.021979563 -0.021339564 0.32200003 -2.8347552e+38
-0.020936888 -0.021339564 0.32200003 -2.808171e+38
-0.02041555 -0.021339564 0.32200003 -2.7948266e+38
-0.019955995 -0.021405837 0.32300001 -2.8215154e+38
-0.019433038 -0.021405837 0.32300001 -2.8215154e+38
-0.018387124 -0.021405837 0.32300001 -2.8615486e+38
-0.017864168 -0.021405837 0.32300001 -2.8882374e+38
-0.017341211 -0.021405837 0.32300001 -2.9015818e+38
-0.016818255 -0.021405837 0.32300001 -2.9416155e+38
-0.015772341 -0.021405837 0.32300001 -2.9816487e+38
-0.015202174 -0.021339564 0.32200003 -3.0083375e+38
-0.014680836 -0.021339564 0.32200003 -3.0083375e+38
-0.013595806 -0.021273293 0.32100001 -3.021786e+38
-0.013035352 -0.021207022 0.32000002 -3.0351304e+38
-0.0057819602 -0.021207022 0.32000002 -2.9417187e+38
-0.0047457609 -0.021207022 0.32000002 -2.8883411e+38
-0.0042408733 -0.021273293 0.32100001 -2.8749967e+38
-0.0037211545 -0.021273293 0.32100001 -2.8483079e+38
-0.003201436 -0.021273293 0.32100001 -2.8615482e+38
-0.002161999 -0.021273293 0.32100001 -2.8482042e+38
-0.0016473968 -0.021339564 0.32200003 -2.808171e+38
-0.0011260592 -0.021339564 0.32200003 -2.7948266e+38
-0.00060472166 -0.021339564 0.32200003 -2.7948266e+38
0.00043931356 -0.021405837 0.32300001 -2.7815862e+38
0.00096524938 -0.021472109 0.324 -2.7815858e+38
0.0014944234 -0.021538381 0.32500002 -2.7815858e+38
0.0020206179 -0.021538381 0.32500002 -2.7682414e+38
0.002554649 -0.021604652 0.32600001 -2.7682414e+38
0.0031013738 -0.021737197 0.32800001 -2.7417088e+38
0.0036545747 -0.02186974 0.33000001 -2.7417088e+38
0.0042142514 -0.022002285 0.33200002 -2.7417088e+38
0.0047660922 -0.022068556 0.333 -2.7283644e+38
-0.025549332 -0.020753575 0.32100001 -2.9417187e+38
-0.025107589 -0.020818226 0.32200003 -2.9283747e+38
-0.024586251 -0.020818226 0.32200003 -2.8616527e+38
-0.024064913 -0.020818226 0.32200003 -2.8349639e+38
-0.023022238 -0.020818226 0.32200003 -2.7948266e+38
-0.022500901 -0.020818226 0.32200003 -2.808171e+38
-0.021979563 -0.020818226 0.32200003 -2.808171e+38
-0.021524863 -0.02088288 0.32300001 -2.7948266e+38
-0.020478951 -0.02088288 0.32300001 -2.7948266e+38
-0.019955995 -0.02088288 0.32300001 -2.808171e+38
-0.019433038 -0.02088288 0.32300001 -2.808171e+38
-0.018387124 -0.02088288 0.32300001 -2.8615486e+38
-0.017864168 -0.02088288 0.32300001 -2.874893e+38
-0.017341211 -0.02088288 0.32300001 -2.9015818e+38
-0.016818255 -0.02088288 0.32300001 -2.9416151e+38
-0.015772341 -0.02088288 0.32300001 -2.9684083e+38
-0.015249385 -0.02088288 0.32300001 -2.9817527e+38
-0.014680836 -0.020818226 0.32200003 -2.9817527e+38
-0.013595806 -0.020753575 0.32100001 -2.9950971e+38
-0.013076088 -0.020753575 0.32100001 -3.021786e+38
-0.011999154 -0.020688921 0.32000002 -3.0484748e+38
-0.0073362584 -0.020688921 0.32000002 -2.9683035e+38
-0.006818159 -0.020688921 0.32000002 -2.9416147e+38
-0.0063000596 -0.020688921 0.32000002 -2.9015814e+38
-0.0058000288 -0.020753575 0.32100001 -2.888237e+38
-0.0047605918 -0.020753575 0.32100001 -2.8615486e+38
-0.0042408733 -0.020753575 0.32100001 -2.8482042e+38
-0.0037211545 -0.020753575 0.32100001 -2.8215154e+38
-0.003201436 -0.020753575 0.32100001 -2.8215154e+38
-0.0021687343 -0.020818226 0.32200003 -2.808171e+38
-0.0016473968 -0.020818226 0.32200003 -2.808171e+38
-0.0011260592 -0.020818226 0.32200003 -2.7814822e+38
-0.00060659967 -0.02088288 0.32300001 -2.7948266e+38
0.00043931356 -0.02088288 0.32300001 -2.7682418e+38
0.0014944234 -0.021012187 0.32500002 -2.7682414e+38
0.0020268352 -0.021076838 0.32600001 -2.7682414e+38
0.0025624854 -0.021141492 0.32700002 -2.754897e+38
0.0031013738 -0.021206144 0.32800001 -2.7283644e+38
0.0036545747 -0.021335449 0.33000001 -2.7283644e+38
0.0042142514 -0.021464756 0.33200002 -2.7283644e+38
0.0047660922 -0.021529408 0.333 -2.7283644e+38
0.0053371028 -0.021658715 0.33500001 -2.7549481e+38
-0.025107589 -0.020296888 0.32200003 -2.9016859e+38
-0.024586251 -0.020296888 0.32200003 -2.8616527e+38
-0.024064913 -0.020296888 0.32200003 -2.8349639e+38
-0.023022238 -0.020296888 0.32200003 -2.7814822e+38
-0.022570778 -0.020359924 0.32300001 -2.7948266e+38
-0.022047821 -0.020359924 0.32300001 -2.7948266e+38
-0.021524863 -0.020359924 0.32300001 -2.7948266e+38
-0.020478951 -0.020359924 0.32300001 -2.7814822e+38
-0.019955995 -0.020359924 0.32300001 -2.7948266e+38
-0.019433038 -0.020359924 0.32300001 -2.808171e+38
-0.018968627 -0.020422958 0.324 -2.8215154e+38
-0.017919475 -0.020422958 0.324 -2.874893e+38
-0.0173949 -0.020422958 0.324 -2.9015818e+38
-0.016818255 -0.020359924 0.32300001 -2.9016859e+38
-0.015772341 -0.020359924 0.32300001 -2.9550639e+38
-0.015249385 -0.020359924 0.32300001 -2.9684083e+38
-0.014680836 -0.020296888 0.32200003 -2.9817012e+38
-0.013638161 -0.020296888 0.32200003 -2.9950456e+38
-0.013076088 -0.020233857 0.32100001 -2.9950456e+38
-0.012595486 -0.020296888 0.32200003 -3.021786e+38
-0.011552811 -0.020296888 0.32200003 -3.0484748e+38
-0.011031473 -0.020296888 0.32200003 -3.0618192e+38
-0.0089183403 -0.020233857 0.32100001 -2.9950967e+38
-0.0083986213 -0.020233857 0.32100001 -2.9684079e+38
-0.0078789033 -0.020233857 0.32100001 -2.9550635e+38
-0.0068394658 -0.020233857 0.32100001 -2.9015818e+38
-0.0063197473 -0.020233857 0.32100001 -2.874893e+38
-0.0058000288 -0.020233857 0.32100001 -2.874893e+38
-0.0047605918 -0.020233857 0.32100001 -2.8482042e+38
-0.0042408733 -0.020233857 0.32100001 -2.8215154e+38
-0.0037211545 -0.020233857 0.32100001 -2.808171e+38
-0.0032114093 -0.020296888 0.32200003 -2.808171e+38
-0.0021687343 -0.020296888 0.32200003 -2.808171e+38
-0.0016473968 -0.020296888 0.32200003 -2.7948266e+38
-0.0011295563 -0.020359924 0.32300001 -2.7682418e+38
-0.00060659967 -0.020359924 0.32300001 -2.7682418e+38
-8.4160973e-05 -0.020485992 0.32500002 -2.7548974e+38
0.00044203378 -0.020485992 0.32500002 -2.7682418e+38
0.0014990215 -0.020549025 0.32600001 -2.7682414e+38
0.0020330525 -0.020612059 0.32700002 -2.7283644e+38
0.0025624854 -0.020612059 0.32700002 -2.7283644e+38
0.0031108293 -0.020738125 0.32900003 -2.7283644e+38
0.0036545747 -0.02080116 0.33000001 -2.7283644e+38
0.0042142514 -0.020927228 0.33200002 -2.7283644e+38
0.0047804047 -0.021053296 0.33400002 -2.7283644e+38
0.0053371028 -0.021116329 0.33500001 -2.7549481e+38
-0.025628926 -0.019254213 0.32200003 -2.9018421e+38
-0.025185561 -0.01931401 0.32300001 -2.8883419e+38
-0.024662605 -0.01931401 0.32300001 -2.8483087e+38
-0.024139646 -0.01931401 0.32300001 -2.7949311e+38
-0.023093734 -0.01931401 0.32300001 -2.7948266e+38
-0.022570778 -0.01931401 0.32300001 -2.7948266e+38
-0.022047821 -0.01931401 0.32300001 -2.7814822e+38
-0.021524863 -0.01931401 0.32300001 -2.7814822e+38
-0.020542353 -0.019373806 0.324 -2.7681378e+38
-0.020017779 -0.019373806 0.324 -2.7948266e+38
-0.019493202 -0.019373806 0.324 -2.7948266e+38
-0.018968627 -0.019373806 0.324 -2.8215158e+38
-0.017919475 -0.019373806 0.324 -2.8748934e+38
-0.0173949 -0.019373806 0.324 -2.8882378e+38
-0.016870324 -0.019373806 0.324 -2.8883419e+38
-0.015821172 -0.019373806 0.324 -2.941668e+38
-0.015249385 -0.01931401 0.32300001 -2.9683568e+38
-0.014726428 -0.01931401 0.32300001 -2.9683568e+38
-0.013680515 -0.01931401 0.32300001 -2.9817012e+38
-0.013157559 -0.01931401 0.32300001 -2.9950456e+38
-0.012595486 -0.019254213 0.32200003 -2.9950456e+38
-0.011552811 -0.019254213 0.32200003 -3.0351304e+38
-0.011031473 -0.019254213 0.32200003 -3.0351304e+38
-0.0099887978 -0.019254213 0.32200003 -2.9685645e+38
-0.0089183403 -0.019194419 0.32100001 -2.9285313e+38
-0.0083986213 -0.019194419 0.32100001 -2.9283747e+38
-0.0078789033 -0.019194419 0.32100001 -2.9016859e+38
-0.0068394658 -0.019194419 0.32100001 -2.8616527e+38
-0.0063197473 -0.019194419 0.32100001 -2.8349639e+38
-0.0058000288 -0.019194419 0.32100001 -2.7949306e+38
-0.0047605918 -0.019194419 0.32100001 -2.7949306e+38
-0.0042408733 -0.019194419 0.32100001 -2.7815862e+38
-0.0037327469 -0.019254213 0.32200003 -2.7815862e+38
-0.0032114093 -0.019254213 0.32200003 -2.7815862e+38
-0.0021687343 -0.019254213 0.32200003 -2.7682418e+38
-0.0016525129 -0.01931401 0.32300001 -2.7682418e+38
-0.0011295563 -0.01931401 0.32300001 -2.7682414e+38
-0.00060847768 -0.019373806 0.324 -2.754897e+38
-8.4160973e-05 -0.019433603 0.32500002 -2.7283644e+38
0.00044339389 -0.019493397 0.32600001 -2.7283644e+38
0.0014990215 -0.019493397 0.32600001 -2.7283644e+38
0.0020330525 -0.019553194 0.32700002 -2.7283644e+38
0.0025703218 -0.019612988 0.32800001 -2.7283644e+38
0.0031108293 -0.019672783 0.32900003 -2.7283644e+38
0.0036656491 -0.019792376 0.33100003 -2.7283644e+38
0.0042269449 -0.019911967 0.333 -2.7283644e+38
0.0047947178 -0.020031558 0.33500001 -2.7283644e+38
-0.026231473 -0.018791053 0.32300001 -2.9285309e+38
-0.025185561 -0.018791053 0.32300001 -2.8749975e+38
-0.024662605 -0.018791053 0.32300001 -2.8483087e+38
-0.024139646 -0.018791053 0.32300001 -2.7949311e+38
-0.023093734 -0.018791053 0.32300001 -2.7815862e+38
-0.022640657 -0.018849231 0.324 -2.7815862e+38
-0.02211608 -0.018849231 0.324 -2.7682418e+38
-0.021591505 -0.018849231 0.324 -2.7682418e+38
-0.020542353 -0.018849231 0.324 -2.7548974e+38
-0.020017779 -0.018849231 0.324 -2.7682418e+38
-0.019493202 -0.018849231 0.324 -2.7682418e+38
-0.018968627 -0.018849231 0.324 -2.7949311e+38
-0.017919475 -0.018849231 0.324 -2.8748934e+38
-0.0173949 -0.018849231 0.324 -2.8882378e+38
-0.016870324 -0.018849231 0.324 -2.8883419e+38
-0.015821172 -0.018849231 0.324 -2.941668e+38
-0.015343809 -0.018907407 0.32500002 -2.9683568e+38
-0.014772021 -0.018849231 0.324 -2.9683568e+38
-0.014247445 -0.018849231 0.324 -2.9683568e+38
-0.013157559 -0.018791053 0.32300001 -2.9817012e+38
-0.012634602 -0.018791053 0.32300001 -2.9950456e+38
-0.011552811 -0.018732877 0.32200003 -3.0351304e+38
-0.011031473 -0.018732877 0.32200003 -3.0351304e+38
-0.0099887978 -0.018732877 0.32200003 -2.9685645e+38
-0.0089461226 -0.018732877 0.32200003 -2.9151869e+38
-0.0083986213 -0.018674701 0.32100001 -2.9018421e+38
-0.0078789033 -0.018674701 0.32100001 -2.8618089e+38
-0.0068394658 -0.018674701 0.32100001 -2.8483083e+38
-0.0063197473 -0.018674701 0.32100001 -2.8082751e+38
-0.0058000288 -0.018674701 0.32100001 -2.7949306e+38
-0.0047605918 -0.018674701 0.32100001 -2.7815862e+38
-0.0042540845 -0.018732877 0.32200003 -2.7815862e+38
-0.0037327469 -0.018732877 0.32200003 -2.7815862e+38
-0.0032114093 -0.018732877 0.32200003 -2.7682418e+38
-0.0026984261 -0.018791053 0.32300001 -2.7548974e+38
-0.0016525129 -0.018791053 0.32300001 -2.754897e+38
-0.0011330533 -0.018849231 0.324 -2.754897e+38
-0.00060847768 -0.018849231 0.324 -2.754897e+38
-8.4419924e-05 -0.018965583 0.32600001 -2.71502e+38
0.00044339389 -0.018965583 0.32600001 -2.7283644e+38
0.00097418681 -0.019023761 0.32700002 -2.7283644e+38
0.0020392698 -0.019081937 0.32800001 -2.7283644e+38
0.0025703218 -0.019081937 0.32800001 -2.7283644e+38
0.0031202845 -0.019198289 0.33000001 -2.7283644e+38
0.0036656491 -0.019256467 0.33100003 -2.7283644e+38
0.0042269449 -0.019372819 0.333 -2.7283644e+38
0.0047947178 -0.019489175 0.33500001 -2.7283644e+38
-0.026231473 -0.018268097 0.32300001 -2.9550639e+38
-0.025263535 -0.018324655 0.324 -2.8749975e+38
-0.024738958 -0.018324655 0.324 -2.8483087e+38
-0.024214383 -0.018324655 0.324 -2.8082755e+38
-0.023689808 -0.018324655 0.324 -2.7815866e+38
-0.022640657 -0.018324655 0.324 -2.7682422e+38
-0.02211608 -0.018324655 0.324 -2.7682422e+38
-0.021591505 -0.018324655 0.324 -2.7682422e+38
-0.021131951 -0.018381214 0.32500002 -2.7548974e+38
-0.020079561 -0.018381214 0.32500002 -2.7682418e+38
-0.019553367 -0.018381214 0.32500002 -2.7682418e+38
-0.019027172 -0.018381214 0.32500002 -2.7949311e+38
-0.017974783 -0.018381214 0.32500002 -2.8616531e+38
-0.017502276 -0.018437769 0.32600001 -2.8749975e+38
-0.016922394 -0.018381214 0.32500002 -2.8883419e+38
-0.016396198 -0.018381214 0.32500002 -2.9016863e+38
-0.015343809 -0.018381214 0.32500002 -2.9550124e+38
-0.014817614 -0.018381214 0.32500002 -2.9683568e+38
-0.014247445 -0.018324655 0.324 -2.9683568e+38
-0.013198294 -0.018324655 0.324 -2.9817012e+38
-0.012634602 -0.018268097 0.32300001 -2.9950456e+38
-0.012111645 -0.018268097 0.32300001 -3.0217344e+38
-0.011065733 -0.018268097 0.32300001 -3.0351304e+38
-0.010510135 -0.01821154 0.32200003 -2.9952533e+38
-0.0099887978 -0.01821154 0.32200003 -2.9685645e+38
-0.0089461226 -0.01821154 0.32200003 -2.9151869e+38
-0.008424785 -0.01821154 0.32200003 -2.8751533e+38
-0.0079034474 -0.01821154 0.32200003 -2.8618089e+38
-0.0068394658 -0.018154982 0.32100001 -2.8217756e+38
-0.0063197473 -0.018154982 0.32100001 -2.768398e+38
-0.0058180974 -0.01821154 0.32200003 -2.768398e+38
-0.0052967598 -0.01821154 0.32200003 -2.7550536e+38
-0.0042540845 -0.01821154 0.32200003 -2.7417092e+38
-0.0037327469 -0.01821154 0.32200003 -2.7417092e+38
-0.0032213829 -0.018268097 0.32300001 -2.7682418e+38
-0.0026984261 -0.018268097 0.32300001 -2.7548974e+38
-0.0021822047 -0.018324655 0.324 -2.754897e+38
-0.0011330533 -0.018324655 0.324 -2.754897e+38
-0.0006103557 -0.018381214 0.32500002 -2.754897e+38
-8.4419924e-05 -0.018437769 0.32600001 -2.71502e+38
0.00044475397 -0.018494328 0.32700002 -2.7283644e+38
0.00097418681 -0.018494328 0.32700002 -2.71502e+38
0.0020392698 -0.018550886 0.32800001 -2.7283644e+38
0.0025781582 -0.018607441 0.32900003 -2.7283644e+38
0.0031202845 -0.018664001 0.33000001 -2.7283644e+38
0.0036656491 -0.018720558 0.33100003 -2.7283644e+38
0.0042269449 -0.018833673 0.333 -2.7283644e+38
0.0047947178 -0.018946789 0.33500001 -2.7283644e+38
-0.026312687 -0.01780008 0.324 -2.9550635e+38
-0.025263535 -0.01780008 0.324 -2.8749975e+38
-0.024738958 -0.01780008 0.324 -2.8483087e+38
-0.024214383 -0.01780008 0.324 -2.8082755e+38
-0.023762925 -0.017855018 0.32500002 -2.7949311e+38
-0.022710536 -0.017855018 0.32500002 -2.7682422e+38
-0.02218434 -0.017855018 0.32500002 -2.7682422e+38
-0.021658145 -0.017855018 0.32500002 -2.7548978e+38
-0.021131951 -0.017855018 0.32500002 -2.7548978e+38
-0.020079561 -0.017855018 0.32500002 -2.7682422e+38
-0.019553367 -0.017855018 0.32500002 -2.7682422e+38
-0.019085718 -0.017909955 0.32600001 -2.7949311e+38
-0.018557904 -0.017909955 0.32600001 -2.8082755e+38
-0.017502276 -0.017909955 0.32600001 -2.8749975e+38
-0.016974462 -0.017909955 0.32600001 -2.8883419e+38
-0.016446648 -0.017909955 0.32600001 -2.9283751e+38
-0.015391021 -0.017909955 0.32600001 -2.9550124e+38
-0.014817614 -0.017855018 0.32500002 -2.9550124e+38
-0.01429142 -0.017855018 0.32500002 -2.9550124e+38
-0.013198294 -0.01780008 0.324 -2.9817012e+38
-0.012673718 -0.01780008 0.324 -2.9950456e+38
-0.012111645 -0.017745141 0.32300001 -2.9950456e+38
-0.011065733 -0.017745141 0.32300001 -3.0351304e+38
-0.010542776 -0.017745141 0.32300001 -3.021786e+38
-0.0099887978 -0.017690202 0.32200003 -2.9950971e+38
-0.0089461226 -0.017690202 0.32200003 -2.9151869e+38
-0.008424785 -0.017690202 0.32200003 -2.8751537e+38
-0.0079034474 -0.017690202 0.32200003 -2.8618093e+38
-0.0068607721 -0.017690202 0.32200003 -2.8084312e+38
-0.0063394345 -0.017690202 0.32200003 -2.768398e+38
-0.0058180974 -0.017690202 0.32200003 -2.7550536e+38
-0.0052967598 -0.017690202 0.32200003 -2.7550536e+38
-0.0042540845 -0.017690202 0.32200003 -2.7417092e+38
-0.0037443393 -0.017745141 0.32300001 -2.7417092e+38
-0.0032213829 -0.017745141 0.32300001 -2.7548974e+38
-0.0027067803 -0.01780008 0.324 -2.7548974e+38
-0.0021822047 -0.01780008 0.324 -2.7548974e+38
-0.0011365504 -0.017855018 0.32500002 -2.754897e+38
-0.00061223371 -0.017909955 0.32600001 -2.7415526e+38
-8.4678883e-05 -0.017964894 0.32700002 -2.71502e+38
0.00044475397 -0.017964894 0.32700002 -2.7283644e+38
0.000977166 -0.018019835 0.32800001 -2.71502e+38
0.0020392698 -0.018019835 0.32800001 -2.7283644e+38
0.0025781582 -0.018074771 0.32900003 -2.71502e+38
0.0031202845 -0.01812971 0.33000001 -2.7283644e+38
0.0036767232 -0.018239588 0.33200002 -2.71502e+38
0.0042396388 -0.018349465 0.33400002 -2.7284159e+38
0.0047947178 -0.018404404 0.33500001 -2.7284159e+38
-0.026312687 -0.016750928 0.324 -2.9550635e+38
-0.025867704 -0.016802629 0.32500002 -2.9283747e+38
-0.024815314 -0.016802629 0.32500002 -2.8349643e+38
-0.02428912 -0.016802629 0.32500002 -2.8082755e+38
-0.023762925 -0.016802629 0.32500002 -2.7949311e+38
-0.022710536 -0.016802629 0.32500002 -2.7548978e+38
-0.02218434 -0.016802629 0.32500002 -2.7548978e+38
-0.021658145 -0.016802629 0.32500002 -2.7548978e+38
-0.021196973 -0.016854329 0.32600001 -2.7548978e+38
-0.020141345 -0.016854329 0.32600001 -2.7548978e+38
-0.01961353 -0.016854329 0.32600001 -2.7548978e+38
-0.019085718 -0.016854329 0.32600001 -2.7815866e+38
-0.018557904 -0.016854329 0.32600001 -2.8082755e+38
-0.017502276 -0.016854329 0.32600001 -2.8749975e+38
-0.016974462 -0.016854329 0.32600001 -2.8883419e+38
-0.016446648 -0.016854329 0.32600001 -2.9283751e+38
-0.015391021 -0.016854329 0.32600001 -2.9550639e+38
-0.014863207 -0.016854329 0.32600001 -2.9684083e+38
-0.01429142 -0.016802629 0.32500002 -2.9550639e+38
-0.01323903 -0.016802629 0.32500002 -2.9817012e+38
-0.012673718 -0.016750928 0.324 -2.9817012e+38
-0.012149142 -0.016750928 0.324 -2.9950456e+38
-0.011099991 -0.016750928 0.324 -3.0217344e+38
-0.010542776 -0.016699227 0.32300001 -2.9950971e+38
-0.010019819 -0.016699227 0.32300001 -2.9817527e+38
-0.0089461226 -0.016647527 0.32200003 -2.9417195e+38
-0.008424785 -0.016647527 0.32200003 -2.8883419e+38
-0.0079034474 -0.016647527 0.32200003 -2.8749975e+38
-0.0068607721 -0.016647527 0.32200003 -2.8349639e+38
-0.0063394345 -0.016647527 0.32200003 -2.7949306e+38
-0.0058180974 -0.016647527 0.32200003 -2.7815862e+38
-0.0052967598 -0.016647527 0.32200003 -2.7417092e+38
-0.0042672958 -0.016699227 0.32300001 -2.7283648e+38
-0.0037443393 -0.016699227 0.32300001 -2.7283648e+38
-0.0032213829 -0.016699227 0.32300001 -2.7283648e+38
-0.0027067803 -0.016750928 0.324 -2.7150204e+38
-0.0021889398 -0.016802629 0.32500002 -2.7150204e+38
-0.0011365504 -0.016802629 0.32500002 -2.7283644e+38
-0.00061411178 -0.016906029 0.32700002 -2.71502e+38
-8.4678883e-05 -0.016906029 0.32700002 -2.71502e+38
0.00044611408 -0.01695773 0.32800001 -2.7283644e+38
0.000977166 -0.01695773 0.32800001 -2.71502e+38
0.0015128162 -0.01700943 0.32900003 -2.71502e+38
0.0025781582 -0.01700943 0.32900003 -2.7283644e+38
0.0031202845 -0.017061131 0.33000001 -2.71502e+38
0.0036767232 -0.017164532 0.33200002 -2.71502e+38
0.0042396388 -0.017267931 0.33400002 -2.7284159e+38
0.0047947178 -0.017319633 0.33500001 -2.7284159e+38
0.0053530345 -0.017371334 0.33600003 -2.7284159e+38
0.0059145899 -0.017423034 0.33700001 -2.7284159e+38
-0.026393898 -0.016276434 0.32500002 -2.9285309e+38
-0.025867704 -0.016276434 0.32500002 -2.9018421e+38
-0.024815314 -0.016276434 0.32500002 -2.8349643e+38
-0.02428912 -0.016276434 0.32500002 -2.8082755e+38
-0.023836041 -0.016326515 0.32600001 -2.7949311e+38
-0.023308229 -0.016326515 0.32600001 -2.7682422e+38
-0.022252601 -0.016326515 0.32600001 -2.7548978e+38
-0.021724787 -0.016326515 0.32600001 -2.7548978e+38
-0.021196973 -0.016326515 0.32600001 -2.7415534e+38
-0.020141345 -0.016326515 0.32600001 -2.7548978e+38
-0.019673694 -0.016376596 0.32700002 -2.7548978e+38
-0.019144261 -0.016376596 0.32700002 -2.7815866e+38
-0.018614829 -0.016376596 0.32700002 -2.8082755e+38
-0.017555963 -0.016376596 0.32700002 -2.8616531e+38
-0.017026531 -0.016376596 0.32700002 -2.8883419e+38
-0.016497098 -0.016376596 0.32700002 -2.9016863e+38
-0.015967663 -0.016376596 0.32700002 -2.9550639e+38
-0.014863207 -0.016326515 0.32600001 -2.9684083e+38
-0.014335393 -0.016326515 0.32600001 -2.9684083e+38
-0.01323903 -0.016276434 0.32500002 -2.9817527e+38
-0.012712835 -0.016276434 0.32500002 -2.9817012e+38
-0.012149142 -0.016226353 0.324 -2.9950456e+38
-0.011099991 -0.016226353 0.324 -3.0217344e+38
-0.010575416 -0.016226353 0.324 -2.9950456e+38
-0.010019819 -0.01617627 0.32300001 -2.9817012e+38
-0.0089461226 -0.016126189 0.32200003 -2.9417195e+38
-0.008424785 -0.016126189 0.32200003 -2.8883419e+38
-0.0079034474 -0.016126189 0.32200003 -2.8749975e+38
-0.0068607721 -0.016126189 0.32200003 -2.8349643e+38
-0.0063394345 -0.016126189 0.32200003 -2.7949306e+38
-0.0058180974 -0.016126189 0.32200003 -2.7815862e+38
-0.0053132093 -0.01617627 0.32300001 -2.7682418e+38
-0.0042672958 -0.01617627 0.32300001 -2.7548974e+38
-0.0037443393 -0.01617627 0.32300001 -2.7548974e+38
-0.0032313562 -0.016226353 0.324 -2.7548974e+38
-0.0027151348 -0.016276434 0.32500002 -2.741553e+38
-0.0021889398 -0.016276434 0.32500002 -2.741553e+38
-0.0016678615 -0.016326515 0.32600001 -2.7548974e+38
-0.00061411178 -0.016376596 0.32700002 -2.7150204e+38
-8.4937841e-05 -0.016426679 0.32800001 -2.71502e+38
0.00044611408 -0.016426679 0.32800001 -2.71502e+38
0.00098014518 -0.016476758 0.32900003 -2.71502e+38
0.0015128162 -0.016476758 0.32900003 -2.7283644e+38
0.0025859945 -0.016526841 0.33000001 -2.7283644e+38
0.00312974 -0.016576922 0.33100003 -2.7283644e+38
0.0036767232 -0.016627004 0.33200002 -2.71502e+38
0.0042396388 -0.016727166 0.33400002 -2.7284159e+38
0.0047947178 -0.016777247 0.33500001 -2.7284159e+38
0.0053689661 -0.016877409 0.33700001 -2.7284159e+38
0.0059145899 -0.016877409 0.33700001 -2.7150715e+38
-0.026393898 -0.015750241 0.32500002 -2.9418757e+38
-0.025947297 -0.015798701 0.32600001 -2.9018425e+38
-0.024891669 -0.015798701 0.32600001 -2.8483087e+38
-0.024363855 -0.015798701 0.32600001 -2.8082755e+38
-0.023836041 -0.015798701 0.32600001 -2.7949311e+38
-0.023308229 -0.015798701 0.32600001 -2.7682422e+38
-0.022252601 -0.015798701 0.32600001 -2.7548978e+38
-0.021724787 -0.015798701 0.32600001 -2.7548978e+38
-0.021261992 -0.015847163 0.32700002 -2.7415534e+38
-0.020732559 -0.015847163 0.32700002 -2.7548978e+38
-0.019673694 -0.015847163 0.32700002 -2.7548978e+38
-0.019144261 -0.015847163 0.32700002 -2.7815866e+38
-0.018671755 -0.015895626 0.32800001 -2.8082755e+38
-0.018140703 -0.015895626 0.32800001 -2.8349128e+38
-0.017078599 -0.015895626 0.32800001 -2.8883419e+38
-0.016547548 -0.015895626 0.32800001 -2.9283751e+38
-0.016016494 -0.015895626 0.32800001 -2.9550639e+38
-0.014908798 -0.015847163 0.32700002 -2.9684083e+38
-0.014379365 -0.015847163 0.32700002 -2.9684083e+38
-0.013807579 -0.015798701 0.32600001 -2.9684083e+38
-0.012712835 -0.015750241 0.32500002 -2.9817527e+38
-0.01218664 -0.015750241 0.32500002 -2.9817527e+38
-0.011660445 -0.015750241 0.32500002 -2.9950971e+38
-0.010608056 -0.015750241 0.32500002 -2.9950971e+38
-0.01005084 -0.015701776 0.324 -2.9817527e+38
-0.0089739058 -0.015653314 0.32300001 -2.9417195e+38
-0.008424785 -0.015604852 0.32200003 -2.8883419e+38
-0.0079034474 -0.015604852 0.32200003 -2.8749975e+38
-0.0068607721 -0.015604852 0.32200003 -2.8349643e+38
-0.0063591222 -0.015653314 0.32300001 -2.7949306e+38
-0.005836166 -0.015653314 0.32300001 -2.7815862e+38
-0.0053132093 -0.015653314 0.32300001 -2.7682418e+38
-0.0048050829 -0.015701776 0.324 -2.7815862e+38
-0.0037559315 -0.015701776 0.324 -2.7548974e+38
-0.0032413295 -0.015750241 0.32500002 -2.7548974e+38
-0.0027151348 -0.015750241 0.32500002 -2.741553e+38
-0.0021956752 -0.015798701 0.32600001 -2.741553e+38
-0.0016678615 -0.015798701 0.32600001 -2.7548974e+38
-0.0011470417 -0.015895626 0.32800001 -2.741553e+38
-8.4937841e-05 -0.015895626 0.32800001 -2.71502e+38
0.00044747419 -0.015944088 0.32900003 -2.7283644e+38
0.00098014518 -0.015944088 0.32900003 -2.71502e+38
0.0015174143 -0.01599255 0.33000001 -2.7283644e+38
0.0025859945 -0.01599255 0.33000001 -2.7283644e+38
0.00312974 -0.016041012 0.33100003 -2.7283644e+38
0.0036877978 -0.016137937 0.333 -2.7283644e+38
0.0042396388 -0.016186399 0.33400002 -2.7283644e+38
0.0048090303 -0.016283326 0.33600003 -2.7283644e+38
0.0053689661 -0.016331786 0.33700001 -2.7284159e+38
0.0059321406 -0.016380249 0.33800003 -2.7150715e+38
-0.026556322 -0.014788298 0.32700002 -2.9285313e+38
-0.026026888 -0.014788298 0.32700002 -2.9018425e+38
-0.025497455 -0.014788298 0.32700002 -2.8883419e+38
-0.02443859 -0.014788298 0.32700002 -2.8082755e+38
-0.023909157 -0.014788298 0.32700002 -2.7949311e+38
-0.023379724 -0.014788298 0.32700002 -2.7682422e+38
-0.022320859 -0.014788298 0.32700002 -2.7548978e+38
-0.021791426 -0.014788298 0.32700002 -2.7548978e+38
-0.021261992 -0.014788298 0.32700002 -2.7415534e+38
-0.020732559 -0.014788298 0.32700002 -2.7415534e+38
-0.019733859 -0.014833523 0.32800001 -2.7548978e+38
-0.019202806 -0.014833523 0.32800001 -2.7815866e+38
-0.018671755 -0.014833523 0.32800001 -2.7949311e+38
-0.018140703 -0.014833523 0.32800001 -2.8349643e+38
-0.017078599 -0.014833523 0.32800001 -2.8883419e+38
-0.016547548 -0.014833523 0.32800001 -2.9283751e+38
-0.016016494 -0.014833523 0.32800001 -2.9550124e+38
-0.014954392 -0.014833523 0.32800001 -2.9418757e+38
-0.014379365 -0.014788298 0.32700002 -2.9418757e+38
-0.013807579 -0.014743074 0.32600001 -2.9418757e+38
-0.012751951 -0.014743074 0.32600001 -2.9685645e+38
-0.012224137 -0.014743074 0.32600001 -2.9685645e+38
-0.011660445 -0.014697851 0.32500002 -2.9685645e+38
-0.010608056 -0.014697851 0.32500002 -2.9685645e+38
-0.010081861 -0.014697851 0.32500002 -2.9552201e+38
-0.0095262639 -0.014652626 0.324 -2.9285313e+38
-0.0084509496 -0.014607402 0.32300001 -2.8883419e+38
-0.0079279924 -0.014607402 0.32300001 -2.8616531e+38
-0.0074050361 -0.014607402 0.32300001 -2.8483087e+38
-0.0063591222 -0.014607402 0.32300001 -2.7949311e+38
-0.005836166 -0.014607402 0.32300001 -2.7815866e+38
-0.0053296587 -0.014652626 0.324 -2.7815862e+38
-0.0048050829 -0.014652626 0.324 -2.7815862e+38
-0.0042937193 -0.014697851 0.32500002 -2.7682418e+38
-0.0032513028 -0.014743074 0.32600001 -2.7548974e+38
-0.002723489 -0.014743074 0.32600001 -2.741553e+38
-0.0022024105 -0.014788298 0.32700002 -2.741553e+38
-0.0016729776 -0.014788298 0.32700002 -2.7548974e+38
-0.0011470417 -0.014833523 0.32800001 -2.7150204e+38
-8.51968e-05 -0.014878746 0.32900003 -2.71502e+38
0.00044747419 -0.014878746 0.32900003 -2.71502e+38
0.00098014518 -0.014878746 0.32900003 -2.7283644e+38
0.0015174143 -0.01492397 0.33000001 -2.7283644e+38
0.0020579216 -0.014969195 0.33100003 -2.7283644e+38
0.0031391953 -0.015014419 0.33200002 -2.7283644e+38
0.0036877978 -0.015059642 0.333 -2.7283644e+38
0.0042396388 -0.015104868 0.33400002 -2.7283644e+38
0.0048090303 -0.015195317 0.33600003 -2.7283644e+38
0.0053689661 -0.015240539 0.33700001 -2.7284159e+38
-0.026556322 -0.014258865 0.32700002 -2.9418757e+38
-0.026026888 -0.014258865 0.32700002 -2.9151869e+38
-0.025497455 -0.014258865 0.32700002 -2.8751537e+38
-0.024513327 -0.014302471 0.32800001 -2.8349643e+38
-0.023982273 -0.014302471 0.32800001 -2.7949311e+38
-0.023451222 -0.014302471 0.32800001 -2.7682422e+38
-0.022920171 -0.014302471 0.32800001 -2.7682422e+38
-0.021858066 -0.014302471 0.32800001 -2.7548978e+38
-0.021327015 -0.014302471 0.32800001 -2.7415534e+38
-0.020795962 -0.014302471 0.32800001 -2.7415534e+38
-0.019733859 -0.014302471 0.32800001 -2.7548978e+38
-0.019202806 -0.014302471 0.32800001 -2.7815866e+38
-0.018671755 -0.014302471 0.32800001 -2.8082755e+38
-0.018196011 -0.014346074 0.32900003 -2.8349643e+38
-0.017130669 -0.014346074 0.32900003 -2.8883419e+38
-0.016597997 -0.014346074 0.32900003 -2.9283751e+38
-0.016016494 -0.014302471 0.32800001 -2.9151354e+38
-0.014954392 -0.014302471 0.32800001 -2.9418242e+38
-0.01442334 -0.014302471 0.32800001 -2.9418242e+38
-0.013849933 -0.014258865 0.32700002 -2.9551686e+38
-0.012751951 -0.01421526 0.32600001 -2.968513e+38
-0.01218664 -0.014171656 0.32500002 -2.968513e+38
-0.011696324 -0.01421526 0.32600001 -2.9952533e+38
-0.010640696 -0.01421526 0.32600001 -2.9685645e+38
-0.010081861 -0.014171656 0.32500002 -2.9685645e+38
-0.0095262639 -0.01412805 0.324 -2.9285313e+38
-0.0084771132 -0.01412805 0.324 -2.8618093e+38
-0.0079279924 -0.014084444 0.32300001 -2.8351204e+38
-0.0074050361 -0.014084444 0.32300001 -2.821776e+38
-0.0063591222 -0.014084444 0.32300001 -2.7817428e+38
-0.0058542346 -0.01412805 0.324 -2.755054e+38
-0.0053461087 -0.014171656 0.32500002 -2.7550536e+38
-0.0048199138 -0.014171656 0.32500002 -2.7550536e+38
-0.0043069306 -0.01421526 0.32600001 -2.7417092e+38
-0.0032513028 -0.01421526 0.32600001 -2.7283648e+38
-0.0027318432 -0.014258865 0.32700002 -2.7283648e+38
-0.0022024105 -0.014258865 0.32700002 -2.7283648e+38
-0.0016729776 -0.014258865 0.32700002 -2.7283648e+38
-0.0011505387 -0.014346074 0.32900003 -2.7150204e+38
-8.51968e-05 -0.014346074 0.32900003 -2.71502e+38
0.00044747419 -0.014346074 0.32900003 -2.71502e+38
0.00098312437 -0.014389681 0.33000001 -2.7283644e+38
0.0015174143 -0.014389681 0.33000001 -2.7283644e+38
0.0020579216 -0.014433286 0.33100003 -2.7283644e+38
0.0031391953 -0.014476892 0.33200002 -2.7283644e+38
0.0036877978 -0.014520495 0.333 -2.7283644e+38
0.0042523323 -0.014607706 0.33500001 -2.7283644e+38
0.0048090303 -0.014651312 0.33600003 -2.7283644e+38
0.0053848978 -0.014738522 0.33800003 -2.7284159e+38
-0.026106482 -0.013771418 0.32800001 -2.9151865e+38
-0.025575429 -0.013771418 0.32800001 -2.8751533e+38
-0.024513327 -0.013771418 0.32800001 -2.8349643e+38
-0.023982273 -0.013771418 0.32800001 -2.7949311e+38
-0.023451222 -0.013771418 0.32800001 -2.7815866e+38
-0.022920171 -0.013771418 0.32800001 -2.7682422e+38
-0.021858066 -0.013771418 0.32800001 -2.7548978e+38
-0.021327015 -0.013771418 0.32800001 -2.7415534e+38
-0.020795962 -0.013771418 0.32800001 -2.7415534e+38
-0.019733859 -0.013771418 0.32800001 -2.7548978e+38
-0.019261353 -0.013813403 0.32900003 -2.7682422e+38
-0.018728681 -0.013813403 0.32900003 -2.7949311e+38
-0.018196011 -0.013813403 0.32900003 -2.8483087e+38
-0.017130669 -0.013813403 0.32900003 -2.8617577e+38
-0.016597997 -0.013813403 0.32900003 -2.8751021e+38
-0.016065326 -0.013813403 0.32900003 -2.9151354e+38
-0.014954392 -0.013771418 0.32800001 -2.9418242e+38
-0.01442334 -0.013771418 0.32800001 -2.9551686e+38
-0.013849933 -0.013729433 0.32700002 -2.9419282e+38
-0.012791067 -0.013729433 0.32700002 -2.9552726e+38
-0.012224137 -0.013687446 0.32600001 -2.9552726e+38
-0.011696324 -0.013687446 0.32600001 -2.9952533e+38
-0.010608056 -0.013645461 0.32500002 -2.9685645e+38
-0.010081861 -0.013645461 0.32500002 -2.9685645e+38
-0.0095556667 -0.013645461 0.32500002 -2.9285313e+38
-0.0085032769 -0.013645461 0.32500002 -2.8751537e+38
-0.0079525374 -0.013603475 0.324 -2.8351204e+38
-0.0074279616 -0.013603475 0.324 -2.821776e+38
-0.0063788099 -0.013603475 0.324 -2.7683984e+38
-0.0058723032 -0.013645461 0.32500002 -2.755054e+38
-0.0053461087 -0.013645461 0.32500002 -2.7550536e+38
-0.0048347441 -0.013687446 0.32600001 -2.7550536e+38
-0.0043069306 -0.013687446 0.32600001 -2.7417092e+38
-0.003790709 -0.013729433 0.32700002 -2.7417092e+38
-0.0027318432 -0.013729433 0.32700002 -2.7283648e+38
-0.0022024105 -0.013729433 0.32700002 -2.7283648e+38
-0.0016832097 -0.013813403 0.32900003 -2.7417092e+38
-0.0011505387 -0.013813403 0.32900003 -2.7150204e+38
-8.51968e-05 -0.013813403 0.32900003 -2.71502e+38
0.0004488343 -0.01385539 0.33000001 -2.7283644e+38
0.00098312437 -0.01385539 0.33000001 -2.7283644e+38
0.0015220125 -0.013897377 0.33100003 -2.7283644e+38
0.0020579216 -0.013897377 0.33100003 -2.7283644e+38
0.0031391953 -0.013939363 0.33200002 -2.7283644e+38
0.0036877978 -0.013981348 0.333 -2.7283644e+38
0.0042523323 -0.014065322 0.33500001 -2.7283644e+38
0.0048090303 -0.014107307 0.33600003 -2.7283644e+38
0.0053848978 -0.014191279 0.33800003 -2.7417603e+38
-0.026106482 -0.013240367 0.32800001 -2.9151865e+38
-0.025575429 -0.013240367 0.32800001 -2.8751533e+38
-0.024513327 -0.013240367 0.32800001 -2.8349643e+38
-0.023982273 -0.013240367 0.32800001 -2.7949311e+38
-0.023451222 -0.013240367 0.32800001 -2.7682422e+38
-0.022920171 -0.013240367 0.32800001 -2.7682422e+38
-0.021924708 -0.013280733 0.32900003 -2.7548978e+38
-0.021392036 -0.013280733 0.32900003 -2.7150208e+38
-0.020859364 -0.013280733 0.32900003 -2.7150208e+38
-0.020326694 -0.013280733 0.32900003 -2.7283652e+38
-0.019261353 -0.013280733 0.32900003 -2.7417096e+38
-0.018728681 -0.013280733 0.32900003 -2.7683984e+38
-0.018196011 -0.013280733 0.32900003 -2.8084316e+38
-0.017130669 -0.013280733 0.32900003 -2.8751021e+38
-0.016597997 -0.013280733 0.32900003 -2.901791e+38
-0.016065326 -0.013280733 0.32900003 -2.9151354e+38
-0.015532656 -0.013280733 0.32900003 -2.9284798e+38
-0.01442334 -0.013240367 0.32800001 -2.9551686e+38
-0.013892287 -0.013240367 0.32800001 -2.9419286e+38
-0.012791067 -0.0132 0.32700002 -2.9419286e+38
-0.012224137 -0.013159633 0.32600001 -2.955273e+38
-0.011696324 -0.013159633 0.32600001 -2.9552726e+38
-0.0095556667 -0.013119265 0.32500002 -2.9152909e+38
-0.0085032769 -0.013119265 0.32500002 -2.8751537e+38
-0.0079770824 -0.013119265 0.32500002 -2.8351204e+38
-0.0074508875 -0.013119265 0.32500002 -2.821776e+38
-0.0069459989 -0.013159633 0.32600001 -2.8084316e+38
-0.0064181858 -0.013159633 0.32600001 -2.7683984e+38
-0.0053625582 -0.013159633 0.32600001 -2.7550536e+38
-0.0048347441 -0.013159633 0.32600001 -2.7550536e+38
-0.0043069306 -0.013159633 0.32600001 -2.7550536e+38
-0.003790709 -0.0132 0.32700002 -2.7417092e+38
-0.0027318432 -0.0132 0.32700002 -2.7283648e+38
-0.0022091456 -0.013240367 0.32800001 -2.7283648e+38
-0.0016832097 -0.013280733 0.32900003 -2.7417092e+38
-0.0011505387 -0.013280733 0.32900003 -2.7283648e+38
-8.51968e-05 -0.013280733 0.32900003 -2.71502e+38
0.0004488343 -0.013321101 0.33000001 -2.71502e+38
0.00098312437 -0.013321101 0.33000001 -2.7283644e+38
0.0015220125 -0.013361468 0.33100003 -2.7283644e+38
0.0020641391 -0.013401835 0.33200002 -2.7283644e+38
0.0026095037 -0.013442201 0.333 -2.7283644e+38
0.0036988724 -0.013482569 0.33400002 -2.7283644e+38
0.0042523323 -0.013522936 0.33500001 -2.7283644e+38
0.0048090303 -0.013563303 0.33600003 -2.7283644e+38
0.0053848978 -0.013644037 0.33800003 -2.7417603e+38
-0.026186075 -0.012215392 0.32900003 -2.9285309e+38
-0.025653403 -0.012215392 0.32900003 -2.8751537e+38
-0.025120733 -0.012215392 0.32900003 -2.8351204e+38
-0.024055392 -0.012215392 0.32900003 -2.7683984e+38
-0.02352272 -0.012215392 0.32900003 -2.7815866e+38
-0.02299005 -0.012215392 0.32900003 -2.7682422e+38
-0.021924708 -0.012215392 0.32900003 -2.7150208e+38
-0.021392036 -0.012215392 0.32900003 -2.7150208e+38
-0.020859364 -0.012215392 0.32900003 -2.7150208e+38
-0.020326694 -0.012215392 0.32900003 -2.7283652e+38
-0.019261353 -0.012215392 0.32900003 -2.7417096e+38
-0.018728681 -0.012215392 0.32900003 -2.7683984e+38
-0.018196011 -0.012215392 0.32900003 -2.8083801e+38
-0.017130669 -0.012215392 0.32900003 -2.8617577e+38
-0.016597997 -0.012215392 0.32900003 -2.8751021e+38
-0.016065326 -0.012215392 0.32900003 -2.901895e+38
-0.015532656 -0.012215392 0.32900003 -2.9152394e+38
-0.01442334 -0.012178264 0.32800001 -2.9419282e+38
-0.013892287 -0.012178264 0.32800001 -2.9552726e+38
-0.013361236 -0.012178264 0.32800001 -2.9419282e+38
-0.012261635 -0.012141134 0.32700002 -2.9552726e+38
-0.011732202 -0.012141134 0.32700002 -2.9819618e+38
-0.010640696 -0.012104006 0.32600001 -2.9552726e+38
-0.010112882 -0.012104006 0.32600001 -2.9552726e+38
-0.0095850686 -0.012104006 0.32600001 -2.9286353e+38
-0.0090572545 -0.012104006 0.32600001 -2.9152909e+38
-0.0080016265 -0.012104006 0.32600001 -2.8484133e+38
-0.0074738129 -0.012104006 0.32600001 -2.8482572e+38
-0.0069459989 -0.012104006 0.32600001 -2.8349128e+38
-0.0064181858 -0.012104006 0.32600001 -2.7949311e+38
-0.0053625582 -0.012104006 0.32600001 -2.7815866e+38
-0.0048347441 -0.012104006 0.32600001 -2.7682422e+38
-0.0043201419 -0.012141134 0.32700002 -2.7815862e+38
-0.003790709 -0.012141134 0.32700002 -2.7682418e+38
-0.0027401976 -0.012178264 0.32800001 -2.7283648e+38
-0.0022091456 -0.012178264 0.32800001 -2.7283648e+38
-0.0016832097 -0.012215392 0.32900003 -2.7283648e+38
-0.0011505387 -0.012215392 0.32900003 -2.7283648e+38
-0.00061974581 -0.012252521 0.33000001 -2.7283648e+38
0.0004488343 -0.012252521 0.33000001 -2.7283644e+38
0.00098610343 -0.01228965 0.33100003 -2.7283644e+38
0.0015266108 -0.012326778 0.33200002 -2.7283644e+38
0.0020641391 -0.012326778 0.33200002 -2.7283644e+38
0.0026095037 -0.012363908 0.333 -2.7283644e+38
0.0036988724 -0.012401036 0.33400002 -2.7283644e+38
0.0042523323 -0.012438165 0.33500001 -2.7283644e+38
0.0048090303 -0.012475294 0.33600003 -2.7283644e+38
0.0053848978 -0.012549551 0.33800003 -2.7284159e+38
-0.025653403 -0.011682721 0.32900003 -2.8751537e+38
-0.025120733 -0.011682721 0.32900003 -2.8484648e+38
-0.024055392 -0.011682721 0.32900003 -2.7817428e+38
-0.02352272 -0.011682721 0.32900003 -2.755054e+38
-0.02299005 -0.011682721 0.32900003 -2.7417096e+38
-0.021924708 -0.011682721 0.32900003 -2.7150208e+38
-0.021392036 -0.011682721 0.32900003 -2.7150208e+38
-0.020859364 -0.011682721 0.32900003 -2.7150208e+38
-0.020326694 -0.011682721 0.32900003 -2.7283652e+38
-0.019261353 -0.011682721 0.32900003 -2.7417096e+38
-0.018785607 -0.01171823 0.33000001 -2.7683984e+38
-0.018251318 -0.01171823 0.33000001 -2.8083801e+38
-0.017717028 -0.01171823 0.33000001 -2.8217245e+38
-0.016648447 -0.01171823 0.33000001 -2.8751021e+38
-0.016065326 -0.011682721 0.32900003 -2.901895e+38
-0.015532656 -0.011682721 0.32900003 -2.9152394e+38
-0.014467314 -0.011682721 0.32900003 -2.9419282e+38
-0.013892287 -0.011647211 0.32800001 -2.9552726e+38
-0.013361236 -0.011647211 0.32800001 -2.9419282e+38
-0.012261635 -0.011611701 0.32700002 -2.9552726e+38
-0.011732202 -0.011611701 0.32700002 -2.9819618e+38
-0.011202769 -0.011611701 0.32700002 -2.9819618e+38
-0.010143903 -0.011611701 0.32700002 -2.9552726e+38
-0.0095850686 -0.011576192 0.32600001 -2.9286353e+38
-0.0090572545 -0.011576192 0.32600001 -2.9152909e+38
-0.0080016265 -0.011576192 0.32600001 -2.8484133e+38
-0.0074738129 -0.011576192 0.32600001 -2.8482572e+38
-0.0069459989 -0.011576192 0.32600001 -2.8349128e+38
-0.0064181858 -0.011576192 0.32600001 -2.7949311e+38
-0.0053625582 -0.011576192 0.32600001 -2.7815866e+38
-0.0048495745 -0.011611701 0.32700002 -2.7682422e+38
-0.0043201419 -0.011611701 0.32700002 -2.7682422e+38
-0.003790709 -0.011611701 0.32700002 -2.7548978e+38
-0.0027401976 -0.011647211 0.32800001 -2.7283648e+38
-0.0022091456 -0.011647211 0.32800001 -2.7283648e+38
-0.0016832097 -0.011682721 0.32900003 -2.7283648e+38
-0.0011540358 -0.01171823 0.33000001 -2.7283648e+38
-0.00061974581 -0.01171823 0.33000001 -2.7283648e+38
0.00045019441 -0.011753741 0.33100003 -2.7283644e+38
0.00098908262 -0.01178925 0.33200002 -2.7283644e+38
0.0015266108 -0.01178925 0.33200002 -2.7283644e+38
0.0020703564 -0.011824761 0.333 -2.7283644e+38
0.0026095037 -0.011824761 0.333 -2.7283644e+38
0.0036988724 -0.01186027 0.33400002 -2.7283644e+38
0.0042523323 -0.01189578 0.33500001 -2.7283644e+38
0.0048233429 -0.011966798 0.33700001 -2.7283644e+38
0.0053848978 -0.012002309 0.33800003 -2.7284159e+38
-0.025731379 -0.011183941 0.33000001 -2.8751537e+38
-0.025197089 -0.011183941 0.33000001 -2.8484648e+38
-0.024128508 -0.011183941 0.33000001 -2.7817428e+38
-0.023594217 -0.011183941 0.33000001 -2.755054e+38
-0.023059929 -0.011183941 0.33000001 -2.7417096e+38
-0.022525638 -0.011183941 0.33000001 -2.7283652e+38
-0.021457057 -0.011183941 0.33000001 -2.7150208e+38
-0.020922769 -0.011183941 0.33000001 -2.7150208e+38
-0.020388478 -0.011183941 0.33000001 -2.7283652e+38
