# .PCD v0.7 - Point Cloud Data file format
VERSION 0.7
FIELDS x y z rgb
SIZE 4 4 4 4
TYPE F F F F
COUNT 1 1 1 1
WIDTH 958
HEIGHT 1
VIEWPOINT 0 0 0 1 0 0 0
POINTS 958
DATA ascii
-0.076584332 0.024669729 0.26700002 -2.6478321e+38
-0.076152042 0.024669729 0.26700002 -2.6745209e+38
-0.07600335 0.024762126 0.26800001 -2.6878653e+38
-0.075569436 0.024762126 0.26800001 -2.6878653e+38
-0.074701622 0.024762126 0.26800001 -2.7412429e+38
-0.074544832 0.024854522 0.26900002 -2.7946205e+38
-0.074109308 0.024854522 0.26900002 -2.8079649e+38
-0.073673777 0.024854522 0.26900002 -2.8079649e+38
-0.072802722 0.024854522 0.26900002 -2.8213093e+38
-0.072636217 0.024946919 0.27000001 -2.8611864e+38
-0.072199076 0.024946919 0.27000001 -2.8745308e+38
-0.071761928 0.024946919 0.27000001 -2.9012192e+38
-0.071324781 0.024946919 0.27000001 -2.9012192e+38
-0.070711419 0.025039313 0.27100003 -2.9012707e+38
-0.070272647 0.025039313 0.27100003 -2.8745819e+38
-0.070091575 0.025131708 0.27200001 -2.8745819e+38
-0.069651194 0.025131708 0.27200001 -2.861186e+38
-0.069210805 0.025131708 0.27200001 -2.861186e+38
-0.068078823 0.025039313 0.27100003 -2.8344972e+38
-0.063453816 0.024115354 0.26100001 -2.7945155e+38
-0.062789746 0.024022957 0.26000002 -2.7945155e+38
-0.061947834 0.024022957 0.26000002 -2.7411378e+38
-0.061526876 0.024022957 0.26000002 -2.7410863e+38
-0.061105922 0.024022957 0.26000002 -2.7410863e+38
-0.060684964 0.024022957 0.26000002 -2.7544822e+38
-0.059843052 0.024022957 0.26000002 -2.8077043e+38
-0.059422098 0.024022957 0.26000002 -2.8210487e+38
-0.05900114 0.024022957 0.26000002 -2.8343931e+38
-0.058159228 0.024022957 0.26000002 -2.9144596e+38
-0.057738274 0.024022957 0.26000002 -2.9544928e+38
-0.057537772 0.024115354 0.26100001 -3.0212659e+38
-0.057115193 0.024115354 0.26100001 -3.15471e+38
-0.087288983 0.023127703 0.24600001 -3.0213166e+38
-0.087243907 0.023221716 0.24700001 -2.7940465e+38
-0.08719559 0.023315733 0.24800001 -2.6872913e+38
-0.086794063 0.023315733 0.24800001 -2.5540559e+38
-0.086392537 0.023315733 0.24800001 -2.5540559e+38
-0.085589483 0.023315733 0.24800001 -2.5540559e+38
-0.085187957 0.023315733 0.24800001 -2.5540559e+38
-0.08478643 0.023315733 0.24800001 -2.5674003e+38
-0.083983377 0.023315733 0.24800001 -2.5940892e+38
-0.08358185 0.023315733 0.24800001 -2.5942453e+38
-0.083180323 0.023315733 0.24800001 -2.5942453e+38
-0.082778797 0.023315733 0.24800001 -2.5942449e+38
-0.081975743 0.023315733 0.24800001 -2.6209337e+38
-0.081574216 0.023315733 0.24800001 -2.6342781e+38
-0.081499994 0.023409748 0.24900001 -2.6209341e+38
-0.08109685 0.023409748 0.24900001 -2.6209341e+38
-0.081017777 0.023503762 0.25 -2.6209341e+38
-0.083192632 0.024255885 0.25800002 -2.6342785e+38
-0.082774915 0.024255885 0.25800002 -2.6209341e+38
-0.082357191 0.024255885 0.25800002 -2.6209341e+38
-0.081521757 0.024255885 0.25800002 -2.6342785e+38
-0.081418395 0.024349898 0.259 -2.6343826e+38
-0.0813118 0.024443913 0.26000002 -2.6210382e+38
-0.080890842 0.024443913 0.26000002 -2.6209867e+38
-0.080779389 0.024537928 0.26100001 -2.6209867e+38
-0.080356814 0.024537928 0.26100001 -2.6077984e+38
-0.079934239 0.024537928 0.26100001 -2.6077984e+38
-0.07908909 0.024537928 0.26100001 -2.6211428e+38
-0.078967914 0.024631944 0.26200002 -2.6077984e+38
-0.078843512 0.024725959 0.26300001 -2.6077984e+38
-0.078715861 0.024819974 0.264 -2.6077988e+38
-0.078584976 0.024913989 0.26500002 -2.6077988e+38
-0.078450851 0.025008004 0.266 -2.6077988e+38
-0.078020178 0.025008004 0.266 -2.6211433e+38
-0.077881202 0.025102019 0.26700002 -2.6344877e+38
-0.077016622 0.025102019 0.26700002 -2.6344877e+38
-0.076584332 0.025102019 0.26700002 -2.6478321e+38
-0.076152042 0.025102019 0.26700002 -2.6745209e+38
-0.07600335 0.025196033 0.26800001 -2.6878653e+38
-0.075569436 0.025196033 0.26800001 -2.7012097e+38
-0.075415887 0.02529005 0.26900002 -2.7145541e+38
-0.074544832 0.02529005 0.26900002 -2.7946209e+38
-0.074109308 0.02529005 0.26900002 -2.8079649e+38
-0.073673777 0.02529005 0.26900002 -2.8079649e+38
-0.073510513 0.025384065 0.27000001 -2.8079649e+38
-0.072636217 0.025384065 0.27000001 -2.8213093e+38
-0.072199076 0.025384065 0.27000001 -2.8213093e+38
-0.071761928 0.025384065 0.27000001 -2.8479977e+38
-0.071588948 0.025478078 0.27100003 -2.8479977e+38
-0.070711419 0.025478078 0.27100003 -2.8746866e+38
-0.070531957 0.025572093 0.27200001 -2.8479977e+38
-0.070091575 0.025572093 0.27200001 -2.8346533e+38
-0.069907263 0.02566611 0.273 -2.861186e+38
-0.069465257 0.02566611 0.273 -2.8478416e+38
-0.068330035 0.025572093 0.27200001 -2.8211528e+38
-0.063031241 0.024537928 0.26100001 -2.7544822e+38
-0.061947834 0.024443913 0.26000002 -2.7277419e+38
-0.061526876 0.024443913 0.26000002 -2.7410863e+38
-0.061105922 0.024443913 0.26000002 -2.7277419e+38
-0.060684964 0.024443913 0.26000002 -2.7410863e+38
-0.059843052 0.024443913 0.26000002 -2.7677751e+38
-0.059422098 0.024443913 0.26000002 -2.7944639e+38
-0.05922807 0.024537928 0.26100001 -2.8078084e+38
-0.058805496 0.024537928 0.26100001 -2.8478416e+38
-0.057960346 0.024537928 0.26100001 -2.9145636e+38
-0.057537772 0.024537928 0.26100001 -2.9678887e+38
-0.057115193 0.024537928 0.26100001 -3.0746439e+38
-0.086934149 0.023430359 0.245 -2.9144052e+38
-0.086890697 0.023525991 0.24600001 -2.7807025e+38
-0.086843997 0.023621624 0.24700001 -2.6606029e+38
-0.086444087 0.023621624 0.24700001 -2.5672448e+38
-0.086392537 0.02371726 0.24800001 -2.540556e+38
-0.085589483 0.02371726 0.24800001 -2.5273156e+38
-0.085187957 0.02371726 0.24800001 -2.500783e+38
-0.08478643 0.02371726 0.24800001 -2.5274718e+38
-0.083983377 0.02371726 0.24800001 -2.5542121e+38
-0.08358185 0.02371726 0.24800001 -2.5809009e+38
-0.083515726 0.023812894 0.24900001 -2.5942453e+38
-0.083112583 0.023812894 0.24900001 -2.5809009e+38
-0.082709432 0.023812894 0.24900001 -2.5942453e+38
-0.081903145 0.023812894 0.24900001 -2.5942453e+38
-0.081499994 0.023812894 0.24900001 -2.6209341e+38
-0.08109685 0.023812894 0.24900001 -2.6209341e+38
-0.081017777 0.023908528 0.25 -2.6209341e+38
-0.083192632 0.02509132 0.25800002 -2.6076938e+38
-0.082774915 0.02509132 0.25800002 -2.6209341e+38
-0.082357191 0.02509132 0.25800002 -2.6209341e+38
-0.081521757 0.02509132 0.25800002 -2.6210382e+38
-0.081418395 0.025188573 0.259 -2.6343826e+38
-0.081201963 0.025383078 0.26100001 -2.5811096e+38
-0.080779389 0.025383078 0.26100001 -2.594454e+38
-0.080356814 0.025383078 0.26100001 -2.594454e+38
-0.079934239 0.025383078 0.26100001 -2.6077984e+38
-0.079816304 0.025480332 0.26200002 -2.6077984e+38
-0.078967914 0.025480332 0.26200002 -2.6077984e+38
-0.079143293 0.025674837 0.264 -2.6077984e+38
-0.078715861 0.025674837 0.264 -2.6077984e+38
-0.078584976 0.025772091 0.26500002 -2.6211428e+38
-0.078450851 0.025869343 0.266 -2.6211433e+38
-0.078313485 0.025966598 0.26700002 -2.6211433e+38
-0.077881202 0.025966598 0.26700002 -2.6344877e+38
-0.077738978 0.02606385 0.26800001 -2.6344877e+38
-0.076871164 0.02606385 0.26800001 -2.6478325e+38
-0.076437257 0.02606385 0.26800001 -2.6745213e+38
-0.07600335 0.02606385 0.26800001 -2.6745213e+38
-0.075569436 0.02606385 0.26800001 -2.7012101e+38
-0.075415887 0.026161104 0.26900002 -2.7145545e+38
-0.074544832 0.026161104 0.26900002 -2.7812765e+38
-0.074109308 0.026161104 0.26900002 -2.7680364e+38
-0.073947661 0.026258357 0.27000001 -2.7813808e+38
-0.073510513 0.026258357 0.27000001 -2.7813808e+38
-0.072636217 0.026258357 0.27000001 -2.7813804e+38
-0.072199076 0.026258357 0.27000001 -2.7947248e+38
-0.072027713 0.026355609 0.27100003 -2.8214136e+38
-0.071588948 0.026355609 0.27100003 -2.8214136e+38
-0.071412727 0.026452862 0.27200001 -2.8746866e+38
-0.070531957 0.026452862 0.27200001 -2.8479977e+38
-0.070091575 0.026452862 0.27200001 -2.8346533e+38
-0.069907263 0.026550116 0.273 -2.861186e+38
-0.069465257 0.026550116 0.273 -2.8344972e+38
-0.068330035 0.026452862 0.27200001 -2.8211528e+38
-0.067390464 0.026258357 0.27000001 -2.8078084e+38
-0.063031241 0.025383078 0.26100001 -2.7012093e+38
-0.061947834 0.025285825 0.26000002 -2.6878653e+38
-0.061763518 0.025383078 0.26100001 -2.6878653e+38
-0.061340943 0.025383078 0.26100001 -2.6878653e+38
-0.060918368 0.025383078 0.26100001 -2.7012093e+38
-0.060073219 0.025383078 0.26100001 -2.7278981e+38
-0.059650645 0.025383078 0.26100001 -2.7278981e+38
-0.05922807 0.025383078 0.26100001 -2.7412425e+38
-0.058805496 0.025383078 0.26100001 -2.8079645e+38
-0.057960346 0.025383078 0.26100001 -2.8479982e+38
-0.057537772 0.025383078 0.26100001 -2.9013758e+38
-0.057115193 0.025383078 0.26100001 -2.941409e+38
-0.056692619 0.025383078 0.26100001 -3.1415211e+38
-0.086974367 0.024124825 0.24400002 -2.9543348e+38
-0.086934149 0.024223698 0.245 -2.8208907e+38
-0.086890697 0.024322569 0.24600001 -2.6873955e+38
-0.086843997 0.02442144 0.24700001 -2.5939847e+38
-0.086444087 0.02442144 0.24700001 -2.5273671e+38
-0.086392537 0.024520315 0.24800001 -2.5273671e+38
-0.085589483 0.024520315 0.24800001 -2.5139712e+38
-0.085187957 0.024520315 0.24800001 -2.5139712e+38
-0.08478643 0.024520315 0.24800001 -2.5540044e+38
-0.083983377 0.024520315 0.24800001 -2.5674003e+38
-0.083918869 0.024619186 0.24900001 -2.5675565e+38
-0.083515726 0.024619186 0.24900001 -2.5675565e+38
-0.083112583 0.024619186 0.24900001 -2.5675565e+38
-0.082709432 0.024619186 0.24900001 -2.5809009e+38
-0.081903145 0.024619186 0.24900001 -2.5809009e+38
-0.081499994 0.024619186 0.24900001 -2.581005e+38
-0.08109685 0.024619186 0.24900001 -2.6076938e+38
-0.081017777 0.024718057 0.25 -2.581005e+38
-0.082870178 0.025410164 0.257 -2.581005e+38
-0.082774915 0.025509037 0.25800002 -2.6076938e+38
-0.082357191 0.025509037 0.25800002 -2.6076938e+38
-0.081521757 0.025509037 0.25800002 -2.6076938e+38
-0.082047112 0.025805652 0.26100001 -2.6210382e+38
-0.081201963 0.025805652 0.26100001 -2.5811096e+38
-0.080779389 0.025805652 0.26100001 -2.594454e+38
-0.080664694 0.025904525 0.26200002 -2.594454e+38
-0.080240496 0.025904525 0.26200002 -2.6077984e+38
-0.079816304 0.025904525 0.26200002 -2.6077984e+38
-0.078967914 0.025904525 0.26200002 -2.6077984e+38
-0.079143293 0.026102269 0.264 -2.6211428e+38
-0.078715861 0.026102269 0.264 -2.6077984e+38
-0.078584976 0.026201142 0.26500002 -2.6211428e+38
-0.078450851 0.026300015 0.266 -2.6211428e+38
-0.078313485 0.026398886 0.26700002 -2.6211428e+38
-0.078172892 0.026497759 0.26800001 -2.6344877e+38
-0.077738978 0.026497759 0.26800001 -2.6344877e+38
-0.076871164 0.026497759 0.26800001 -2.6478325e+38
-0.076437257 0.026497759 0.26800001 -2.6745213e+38
-0.076286942 0.02659663 0.26900002 -2.6745213e+38
-0.075851418 0.02659663 0.26900002 -2.7012101e+38
-0.075415887 0.02659663 0.26900002 -2.7145545e+38
-0.074544832 0.02659663 0.26900002 -2.7679321e+38
-0.074109308 0.02659663 0.26900002 -2.7680364e+38
-0.073947661 0.026695503 0.27000001 -2.7813808e+38
-0.073510513 0.026695503 0.27000001 -2.7813808e+38
-0.072636217 0.026695503 0.27000001 -2.7813804e+38
-0.072466478 0.026794376 0.27100003 -2.7947248e+38
-0.072027713 0.026794376 0.27100003 -2.8214136e+38
-0.071588948 0.026794376 0.27100003 -2.8214136e+38
-0.070711419 0.026794376 0.27100003 -2.8479982e+38
-0.070531957 0.026893247 0.27200001 -2.8479977e+38
-0.070091575 0.026893247 0.27200001 -2.8346533e+38
-0.069651194 0.026893247 0.27200001 -2.8213089e+38
-0.069210805 0.026893247 0.27200001 -2.8079645e+38
-0.068330035 0.026893247 0.27200001 -2.7946201e+38
-0.067390464 0.026695503 0.27000001 -2.7812757e+38
-0.063031241 0.025805652 0.26100001 -2.7012097e+38
-0.062608667 0.025805652 0.26100001 -2.6878653e+38
-0.061763518 0.025805652 0.26100001 -2.6745209e+38
-0.061340943 0.025805652 0.26100001 -2.6878653e+38
-0.060918368 0.025805652 0.26100001 -2.7012097e+38
-0.060073219 0.025805652 0.26100001 -2.7145537e+38
-0.059650645 0.025805652 0.26100001 -2.7145537e+38
-0.05922807 0.025805652 0.26100001 -2.7412429e+38
-0.058805496 0.025805652 0.26100001 -2.8079649e+38
-0.057960346 0.025805652 0.26100001 -2.8479982e+38
-0.057537772 0.025805652 0.26100001 -2.8880314e+38
-0.057115193 0.025805652 0.26100001 -2.9147202e+38
-0.056692619 0.025805652 0.26100001 -3.0881435e+38
-0.087011345 0.024419384 0.24300002 -2.9813349e+38
-0.086974367 0.024519876 0.24400002 -2.8208907e+38
-0.086579315 0.024519876 0.24400002 -2.7675131e+38
-0.086890697 0.024720859 0.24600001 -2.6206735e+38
-0.086843997 0.024821348 0.24700001 -2.5806403e+38
-0.086444087 0.024821348 0.24700001 -2.5273671e+38
-0.086392537 0.024921842 0.24800001 -2.5140227e+38
-0.085589483 0.024921842 0.24800001 -2.5139712e+38
-0.085187957 0.024921842 0.24800001 -2.5139712e+38
-0.08478643 0.024921842 0.24800001 -2.5540044e+38
-0.084725164 0.025022332 0.24900001 -2.5540559e+38
-0.083918869 0.025022332 0.24900001 -2.5542121e+38
-0.083515726 0.025022332 0.24900001 -2.5542121e+38
-0.083112583 0.025022332 0.24900001 -2.5409718e+38
-0.082709432 0.025022332 0.24900001 -2.5676606e+38
-0.081903145 0.025022332 0.24900001 -2.5676606e+38
-0.081499994 0.025022332 0.24900001 -2.581005e+38
-0.081422538 0.025122823 0.25 -2.6076938e+38
-0.081017777 0.025122823 0.25 -2.581005e+38
-0.082870178 0.025826262 0.257 -2.581005e+38
-0.082774915 0.025926754 0.25800002 -2.581005e+38
-0.082357191 0.025926754 0.25800002 -2.6076938e+38
-0.08225707 0.026027245 0.259 -2.6076423e+38
-0.082153708 0.026127737 0.26000002 -2.6076423e+38
-0.082361467 0.02632872 0.26200002 -2.6209867e+38
-0.081937276 0.02632872 0.26200002 -2.6209867e+38
-0.081088886 0.02632872 0.26200002 -2.6209867e+38
-0.080664694 0.02632872 0.26200002 -2.594454e+38
-0.080240496 0.02632872 0.26200002 -2.6077984e+38
-0.079816304 0.02632872 0.26200002 -2.6077984e+38
-0.07926932 0.02642921 0.26300001 -2.6077984e+38
-0.079143293 0.026529701 0.264 -2.6211428e+38
-0.079014026 0.026630193 0.26500002 -2.6211428e+38
-0.078881517 0.026730683 0.266 -2.6344873e+38
-0.078745775 0.026831176 0.26700002 -2.6211428e+38
-0.078606799 0.026931668 0.26800001 -2.6344873e+38
-0.078464583 0.027032157 0.26900002 -2.6344877e+38
-0.078029051 0.027032157 0.26900002 -2.6344877e+38
-0.077593528 0.027032157 0.26900002 -2.6344881e+38
-0.076722473 0.027032157 0.26900002 -2.6745213e+38
-0.076286942 0.027032157 0.26900002 -2.6478325e+38
-0.075851418 0.027032157 0.26900002 -2.7012101e+38
-0.075415887 0.027032157 0.26900002 -2.7012101e+38
-0.074544832 0.027032157 0.26900002 -2.7679321e+38
-0.074109308 0.027032157 0.26900002 -2.7946209e+38
-0.073947661 0.027132649 0.27000001 -2.8079653e+38
-0.073510513 0.027132649 0.27000001 -2.7813808e+38
-0.073344007 0.027233142 0.27100003 -2.7680364e+38
-0.072466478 0.027233142 0.27100003 -2.7947248e+38
-0.072027713 0.027233142 0.27100003 -2.8214136e+38
-0.071588948 0.027233142 0.27100003 -2.8214136e+38
-0.070711419 0.027233142 0.27100003 -2.8214136e+38
-0.070272647 0.027233142 0.27100003 -2.8479982e+38
-0.069833882 0.027233142 0.27100003 -2.8479982e+38
-0.069651194 0.027333632 0.27200001 -2.8213093e+38
-0.069210805 0.027333632 0.27200001 -2.8079649e+38
-0.068078823 0.027233142 0.27100003 -2.7946205e+38
-0.066705339 0.027032157 0.26900002 -2.7679317e+38
-0.063031241 0.026228227 0.26100001 -2.7145541e+38
-0.062608667 0.026228227 0.26100001 -2.6612807e+38
-0.061763518 0.026228227 0.26100001 -2.6612807e+38
-0.061575968 0.02632872 0.26200002 -2.6479363e+38
-0.060918368 0.026228227 0.26100001 -2.7012097e+38
-0.060073219 0.026228227 0.26100001 -2.7145541e+38
-0.059650645 0.026228227 0.26100001 -2.7145541e+38
-0.05922807 0.026228227 0.26100001 -2.7412429e+38
-0.058805496 0.026228227 0.26100001 -2.8079649e+38
-0.057960346 0.026228227 0.26100001 -2.8479982e+38
-0.057758223 0.02632872 0.26200002 -2.8880314e+38
-0.057334028 0.02632872 0.26200002 -2.9013758e+38
-0.056909833 0.02632872 0.26200002 -3.0080256e+38
-0.056485638 0.02632872 0.26200002 -3.1414696e+38
-0.08740478 0.024812816 0.24300002 -3.1546045e+38
-0.087011345 0.024812816 0.24300002 -2.9144052e+38
-0.086974367 0.024914928 0.24400002 -2.7942023e+38
-0.086934149 0.025017036 0.245 -2.6874471e+38
-0.086890697 0.025119146 0.24600001 -2.6073291e+38
-0.086843997 0.025221257 0.24700001 -2.5672959e+38
-0.086794063 0.025323369 0.24800001 -2.5273671e+38
-0.086392537 0.025323369 0.24800001 -2.5140227e+38
-0.085589483 0.025323369 0.24800001 -2.4874901e+38
-0.085187957 0.025323369 0.24800001 -2.4874901e+38
-0.08478643 0.025323369 0.24800001 -2.5008345e+38
-0.084725164 0.025425479 0.24900001 -2.5275233e+38
-0.083918869 0.025425479 0.24900001 -2.5408677e+38
-0.083515726 0.025425479 0.24900001 -2.5542121e+38
-0.083112583 0.025425479 0.24900001 -2.5409718e+38
-0.082709432 0.025425479 0.24900001 -2.5543162e+38
-0.082636833 0.025527589 0.25 -2.5676606e+38
-0.081827305 0.025527589 0.25 -2.5411279e+38
-0.081422538 0.025527589 0.25 -2.5544723e+38
-0.081341848 0.025629699 0.25100002 -2.5544723e+38
-0.082774915 0.026344473 0.25800002 -2.5544208e+38
-0.082357191 0.026344473 0.25800002 -2.5811096e+38
-0.08225707 0.026446583 0.259 -2.5809535e+38
-0.082469687 0.026650801 0.26100001 -2.6076423e+38
-0.082361467 0.026752913 0.26200002 -2.6209867e+38
-0.082250014 0.026855022 0.26300001 -2.6209867e+38
-0.081824198 0.026855022 0.26300001 -2.6076423e+38
-0.080972575 0.026855022 0.26300001 -2.594454e+38
-0.080546759 0.026855022 0.26300001 -2.6077984e+38
-0.080120951 0.026855022 0.26300001 -2.6077984e+38
-0.079998158 0.026957134 0.264 -2.6077984e+38
-0.079143293 0.026957134 0.264 -2.5945583e+38
-0.079610355 0.027263464 0.26700002 -2.5945583e+38
-0.079771161 0.027467685 0.26900002 -2.6079027e+38
-0.079335637 0.027467685 0.26900002 -2.5945583e+38
-0.078756273 0.027569795 0.27000001 -2.6079031e+38
-0.078319125 0.027569795 0.27000001 -2.6079031e+38
-0.077881977 0.027569795 0.27000001 -2.6079035e+38
-0.077444829 0.027569795 0.27000001 -2.6212479e+38
-0.076286942 0.027467685 0.26900002 -2.6212479e+38
-0.076133393 0.027569795 0.27000001 -2.7012101e+38
-0.075696245 0.027569795 0.27000001 -2.7012101e+38
-0.075259097 0.027569795 0.27000001 -2.7145545e+38
-0.074384809 0.027569795 0.27000001 -2.7946209e+38
-0.073947661 0.027569795 0.27000001 -2.8079653e+38
-0.073510513 0.027569795 0.27000001 -2.8079653e+38
-0.073344007 0.027671907 0.27100003 -2.8079653e+38
-0.072466478 0.027671907 0.27100003 -2.7947252e+38
-0.072027713 0.027671907 0.27100003 -2.8214136e+38
-0.071588948 0.027671907 0.27100003 -2.8481024e+38
-0.070711419 0.027671907 0.27100003 -2.8214136e+38
-0.070272647 0.027671907 0.27100003 -2.8214136e+38
-0.069833882 0.027671907 0.27100003 -2.8080692e+38
-0.069395117 0.027671907 0.27100003 -2.8213093e+38
-0.068517588 0.027671907 0.27100003 -2.8079649e+38
-0.067827612 0.027569795 0.27000001 -2.8079649e+38
-0.063272744 0.026752913 0.26200002 -2.7145541e+38
-0.062608667 0.026650801 0.26100001 -2.6612807e+38
-0.061763518 0.026650801 0.26100001 -2.6612807e+38
-0.061575968 0.026752913 0.26200002 -2.6612807e+38
-0.061151773 0.026752913 0.26200002 -2.7012097e+38
-0.060727578 0.026752913 0.26200002 -2.6745209e+38
-0.059879191 0.026752913 0.26200002 -2.7145537e+38
-0.059454996 0.026752913 0.26200002 -2.7278981e+38
-0.059030805 0.026752913 0.26200002 -2.7946201e+38
-0.05860661 0.026752913 0.26200002 -2.8213093e+38
-0.057758223 0.026752913 0.26200002 -2.8880314e+38
-0.057334028 0.026752913 0.26200002 -2.8880314e+38
-0.056909833 0.026752913 0.26200002 -2.9679927e+38
-0.056485638 0.026752913 0.26200002 -3.0614036e+38
-0.087798208 0.025206247 0.24300002 -3.0211079e+38
-0.08740478 0.025206247 0.24300002 -2.9275421e+38
-0.087011345 0.025206247 0.24300002 -2.8341313e+38
-0.086974367 0.025309978 0.24400002 -2.7140844e+38
-0.086934149 0.025413707 0.245 -2.6340179e+38
-0.08653748 0.025413707 0.245 -2.5939851e+38
-0.086843997 0.025621165 0.24700001 -2.5406075e+38
-0.086794063 0.026126422 0.24800001 -2.5140227e+38
-0.086392537 0.026126422 0.24800001 -2.5006783e+38
-0.085589483 0.026126422 0.24800001 -2.4741457e+38
-0.085187957 0.026126422 0.24800001 -2.4608013e+38
-0.085128307 0.026231771 0.24900001 -2.4741457e+38
-0.084725164 0.026231771 0.24900001 -2.4874901e+38
-0.084660664 0.026337119 0.25 -2.4874901e+38
-0.083851129 0.026337119 0.25 -2.5275233e+38
-0.083446369 0.026337119 0.25 -2.5275758e+38
-0.083041601 0.026337119 0.25 -2.5409202e+38
-0.082636833 0.026337119 0.25 -2.5542646e+38
-0.081827305 0.026337119 0.25 -2.5542646e+38
-0.081748232 0.026442468 0.25100002 -2.5542646e+38
-0.081341848 0.026442468 0.25100002 -2.5676091e+38
-0.081580363 0.026653165 0.25300002 -2.5809535e+38
-0.082774915 0.027179906 0.25800002 -2.5676091e+38
-0.082676411 0.027285255 0.259 -2.6076423e+38
-0.082574666 0.027390605 0.26000002 -2.5676091e+38
-0.082785666 0.027601302 0.26200002 -2.5809535e+38
-0.08267583 0.027706647 0.26300001 -2.6076423e+38
-0.082250014 0.027706647 0.26300001 -2.6209867e+38
-0.081824198 0.027706647 0.26300001 -2.6209871e+38
-0.081707887 0.027811997 0.264 -2.6076427e+38
-0.080853023 0.027811997 0.264 -2.5944544e+38
-0.08042559 0.027811997 0.264 -2.6077988e+38
-0.08030118 0.027917346 0.26500002 -2.6077988e+38
-0.079872131 0.027917346 0.26500002 -2.5812143e+38
-0.079742856 0.028022693 0.266 -2.5945587e+38
-0.079610355 0.028128043 0.26700002 -2.5945587e+38
-0.079771161 0.02833874 0.26900002 -2.5945587e+38
-0.079630561 0.028444089 0.27000001 -2.5945587e+38
-0.078756273 0.028444089 0.27000001 -2.6212479e+38
-0.078319125 0.028444089 0.27000001 -2.6079035e+38
-0.077881977 0.028444089 0.27000001 -2.6079035e+38
-0.077444829 0.028444089 0.27000001 -2.6212479e+38
-0.076570541 0.028444089 0.27000001 -2.6212479e+38
-0.076133393 0.028444089 0.27000001 -2.6746255e+38
-0.075696245 0.028444089 0.27000001 -2.6612811e+38
-0.075259097 0.028444089 0.27000001 -2.6879699e+38
-0.074384809 0.028444089 0.27000001 -2.7680364e+38
-0.073947661 0.028444089 0.27000001 -2.7813808e+38
-0.073510513 0.028444089 0.27000001 -2.7813808e+38
-0.073344007 0.028549438 0.27100003 -2.7813808e+38
-0.072466478 0.028549438 0.27100003 -2.7947252e+38
-0.071761928 0.028444089 0.27000001 -2.821414e+38
-0.071324781 0.028444089 0.27000001 -2.8481028e+38
-0.070450485 0.028444089 0.27000001 -2.8479986e+38
-0.070013344 0.028444089 0.27000001 -2.8479986e+38
-0.069576196 0.028444089 0.27000001 -2.8479986e+38
-0.068701901 0.028444089 0.27000001 -2.8213093e+38
-0.068264753 0.028444089 0.27000001 -2.8079649e+38
-0.067576393 0.02833874 0.26900002 -2.8079649e+38
-0.066457368 0.028233392 0.26800001 -2.7812761e+38
-0.06351424 0.027706647 0.26300001 -2.7012097e+38
-0.062848546 0.027601302 0.26200002 -2.6612807e+38
-0.062424354 0.027601302 0.26200002 -2.6612807e+38
-0.061575968 0.027601302 0.26200002 -2.6746251e+38
-0.061151773 0.027601302 0.26200002 -2.6878653e+38
-0.060727578 0.027601302 0.26200002 -2.6745209e+38
-0.059879191 0.027601302 0.26200002 -2.7145541e+38
-0.059454996 0.027601302 0.26200002 -2.7412429e+38
-0.059030805 0.027601302 0.26200002 -2.7812761e+38
-0.05860661 0.027601302 0.26200002 -2.8079649e+38
-0.057758223 0.027601302 0.26200002 -2.874687e+38
-0.057334028 0.027601302 0.26200002 -2.8880314e+38
-0.056909833 0.027601302 0.26200002 -2.9147713e+38
-0.056485638 0.027601302 0.26200002 -2.9948377e+38
-0.087798208 0.025993111 0.24300002 -2.8474753e+38
-0.08740478 0.025993111 0.24300002 -2.754118e+38
-0.087011345 0.025993111 0.24300002 -2.6740515e+38
-0.086617917 0.025993111 0.24300002 -2.6474668e+38
-0.086934149 0.026207047 0.245 -2.5940892e+38
-0.08653748 0.026207047 0.245 -2.5275233e+38
-0.086843997 0.026420981 0.24700001 -2.5008345e+38
-0.086794063 0.026527949 0.24800001 -2.4874901e+38
-0.086392537 0.026527949 0.24800001 -2.4741457e+38
-0.085589483 0.026527949 0.24800001 -2.4608013e+38
-0.085531458 0.026634919 0.24900001 -2.4608013e+38
-0.085128307 0.026634919 0.24900001 -2.4741457e+38
-0.084725164 0.026634919 0.24900001 -2.4741457e+38
-0.084660664 0.026741883 0.25 -2.4874901e+38
-0.083851129 0.026741883 0.25 -2.5008345e+38
-0.083446369 0.026741883 0.25 -2.4875426e+38
-0.083041601 0.026741883 0.25 -2.5275758e+38
-0.082636833 0.026741883 0.25 -2.5409202e+38
-0.081827305 0.026741883 0.25 -2.5409202e+38
-0.081748232 0.026848853 0.25100002 -2.5542646e+38
-0.081341848 0.026848853 0.25100002 -2.5542646e+38
-0.081257917 0.026955817 0.252 -2.5809535e+38
-0.083095744 0.027704593 0.259 -2.5809535e+38
-0.082676411 0.027704593 0.259 -2.6076423e+38
-0.082574666 0.027811561 0.26000002 -2.5809535e+38
-0.082785666 0.028025495 0.26200002 -2.5809535e+38
-0.082990184 0.028239429 0.264 -2.6076423e+38
-0.082562752 0.028239429 0.264 -2.6076423e+38
-0.08213532 0.028239429 0.264 -2.6209867e+38
-0.081707887 0.028239429 0.264 -2.6209867e+38
-0.080853023 0.028239429 0.264 -2.5944544e+38
-0.080730237 0.028346397 0.26500002 -2.5944544e+38
-0.08030118 0.028346397 0.26500002 -2.6077988e+38
-0.079872131 0.028346397 0.26500002 -2.5812143e+38
-0.080042645 0.028560333 0.26700002 -2.5945587e+38
-0.07990852 0.028667301 0.26800001 -2.5945587e+38
-0.079771161 0.028774267 0.26900002 -2.5945587e+38
-0.079630561 0.028881235 0.27000001 -2.5945587e+38
-0.078756273 0.028881235 0.27000001 -2.6079035e+38
-0.078609191 0.028988203 0.27100003 -2.6079035e+38
-0.078170426 0.028988203 0.27100003 -2.6079035e+38
-0.077731661 0.028988203 0.27100003 -2.6212479e+38
-0.077292897 0.028988203 0.27100003 -2.6479367e+38
-0.076133393 0.028881235 0.27000001 -2.6746255e+38
-0.075696245 0.028881235 0.27000001 -2.6612811e+38
-0.075259097 0.028881235 0.27000001 -2.6879699e+38
-0.074384809 0.028881235 0.27000001 -2.754692e+38
-0.073947661 0.028881235 0.27000001 -2.7813808e+38
-0.073510513 0.028881235 0.27000001 -2.7813808e+38
-0.073344007 0.028988203 0.27100003 -2.7813808e+38
-0.072466478 0.028988203 0.27100003 -2.7947252e+38
-0.071761928 0.028881235 0.27000001 -2.821414e+38
-0.071324781 0.028881235 0.27000001 -2.8614472e+38
-0.070450485 0.028881235 0.27000001 -2.8479986e+38
-0.070013344 0.028881235 0.27000001 -2.8746874e+38
-0.069576196 0.028881235 0.27000001 -2.8479986e+38
-0.068701901 0.028881235 0.27000001 -2.8213093e+38
-0.068011925 0.028774267 0.26900002 -2.8079649e+38
-0.067576393 0.028774267 0.26900002 -2.8079649e+38
-0.066457368 0.028667301 0.26800001 -2.7679317e+38
-0.065777101 0.028560333 0.26700002 -2.7679317e+38
-0.0646694 0.028453363 0.266 -2.7012097e+38
-0.063328311 0.028239429 0.264 -2.6612807e+38
-0.062662616 0.028132461 0.26300001 -2.6612807e+38
-0.062236805 0.028132461 0.26300001 -2.6612807e+38
-0.061385177 0.028132461 0.26300001 -2.7012097e+38
-0.060727578 0.028025495 0.26200002 -2.6745209e+38
-0.059879191 0.028025495 0.26200002 -2.7012097e+38
-0.059454996 0.028025495 0.26200002 -2.7412429e+38
-0.059030805 0.028025495 0.26200002 -2.7679317e+38
-0.05860661 0.028025495 0.26200002 -2.8079649e+38
-0.057758223 0.028025495 0.26200002 -2.874687e+38
-0.057334028 0.028025495 0.26200002 -2.8880314e+38
-0.087798208 0.026386542 0.24300002 -2.7540648e+38
-0.08740478 0.026386542 0.24300002 -2.6740511e+38
-0.087011345 0.026386542 0.24300002 -2.6206735e+38
-0.086617917 0.026386542 0.24300002 -2.5809009e+38
-0.086579315 0.026495131 0.24400002 -2.5542121e+38
-0.08653748 0.026603715 0.245 -2.5275233e+38
-0.086843997 0.026820889 0.24700001 -2.4874901e+38
-0.086794063 0.026929477 0.24800001 -2.4741457e+38
-0.086392537 0.026929477 0.24800001 -2.4741457e+38
-0.086337753 0.027038064 0.24900001 -2.4608013e+38
-0.085531458 0.027038064 0.24900001 -2.4474569e+38
-0.085128307 0.027038064 0.24900001 -2.4608013e+38
-0.085065424 0.027146649 0.25 -2.4741457e+38
-0.084660664 0.027146649 0.25 -2.4741457e+38
-0.083851129 0.027146649 0.25 -2.5008345e+38
-0.083446369 0.027146649 0.25 -2.5008345e+38
-0.08337377 0.027255237 0.25100002 -2.5408677e+38
-0.082967386 0.027255237 0.25100002 -2.5276274e+38
-0.082561001 0.027255237 0.25100002 -2.5276274e+38
-0.081748232 0.027255237 0.25100002 -2.5409718e+38
-0.081341848 0.027255237 0.25100002 -2.5409718e+38
-0.081257917 0.027363822 0.252 -2.5676606e+38
-0.082676411 0.028123928 0.259 -2.581005e+38
-0.082574666 0.028232517 0.26000002 -2.5676091e+38
-0.082469687 0.028341101 0.26100001 -2.5809535e+38
-0.08267583 0.028558273 0.26300001 -2.6076423e+38
-0.082562752 0.028666861 0.264 -2.6076423e+38
-0.08213532 0.028666861 0.264 -2.6076423e+38
-0.081707887 0.028666861 0.264 -2.6209867e+38
-0.081588335 0.028775448 0.26500002 -2.594454e+38
-0.080730237 0.028775448 0.26500002 -2.594454e+38
-0.08030118 0.028775448 0.26500002 -2.6077984e+38
-0.08017353 0.028884033 0.266 -2.5812143e+38
-0.079742856 0.028884033 0.266 -2.5945587e+38
-0.07990852 0.02910121 0.26800001 -2.5945587e+38
-0.079771161 0.029209793 0.26900002 -2.5945587e+38
-0.079630561 0.029318381 0.27000001 -2.6211433e+38
-0.079486728 0.02942697 0.27100003 -2.6344877e+38
-0.079339653 0.029535554 0.27200001 -2.6344881e+38
-0.079189338 0.029644141 0.273 -2.6344881e+38
-0.078305326 0.029644141 0.273 -2.6212479e+38
-0.077578112 0.029535554 0.27200001 -2.6479367e+38
-0.077137731 0.029535554 0.27200001 -2.6479367e+38
-0.075696245 0.029318381 0.27000001 -2.6612811e+38
-0.075259097 0.029318381 0.27000001 -2.6879699e+38
-0.074384809 0.029318381 0.27000001 -2.7413476e+38
-0.073947661 0.029318381 0.27000001 -2.7680364e+38
-0.073510513 0.029318381 0.27000001 -2.7813808e+38
-0.072636217 0.029318381 0.27000001 -2.7813808e+38
-0.072199076 0.029318381 0.27000001 -2.7947252e+38
-0.071761928 0.029318381 0.27000001 -2.821414e+38
-0.071324781 0.029318381 0.27000001 -2.8614472e+38
-0.070450485 0.029318381 0.27000001 -2.8481028e+38
-0.070013344 0.029318381 0.27000001 -2.8746874e+38
-0.068882979 0.029209793 0.26900002 -2.8479982e+38
-0.068447448 0.029209793 0.26900002 -2.8346537e+38
-0.068011925 0.029209793 0.26900002 -2.8213093e+38
-0.067576393 0.029209793 0.26900002 -2.8079649e+38
-0.066457368 0.02910121 0.26800001 -2.7812761e+38
-0.066023454 0.02910121 0.26800001 -2.7679317e+38
-0.06491252 0.028992621 0.26700002 -2.7012097e+38
-0.064238735 0.028884033 0.266 -2.7012097e+38
-0.063139141 0.028775448 0.26500002 -2.6612807e+38
-0.062236805 0.028558273 0.26300001 -2.6612807e+38
-0.061385177 0.028558273 0.26300001 -2.6878653e+38
-0.060959365 0.028558273 0.26300001 -2.6745209e+38
-0.059879191 0.028449688 0.26200002 -2.7145545e+38
-0.059454996 0.028449688 0.26200002 -2.7412429e+38
-0.059030805 0.028449688 0.26200002 -2.7412429e+38
-0.05860661 0.028449688 0.26200002 -2.8079649e+38
-0.057537772 0.028341101 0.26100001 -2.874687e+38
-0.088585079 0.026779976 0.24300002 -2.8073909e+38
-0.087798208 0.026779976 0.24300002 -2.6740511e+38
-0.08740478 0.026779976 0.24300002 -2.6207776e+38
-0.087011345 0.026779976 0.24300002 -2.5940888e+38
-0.086617917 0.026779976 0.24300002 -2.5542121e+38
-0.086579315 0.026890179 0.24400002 -2.5542121e+38
-0.08653748 0.027000386 0.245 -2.5008345e+38
-0.086843997 0.027220797 0.24700001 -2.4874901e+38
-0.086794063 0.027331004 0.24800001 -2.4741457e+38
-0.086392537 0.027331004 0.24800001 -2.4608013e+38
-0.086337753 0.027441211 0.24900001 -2.4474569e+38
-0.085531458 0.027441211 0.24900001 -2.4474569e+38
-0.085470192 0.027551414 0.25 -2.4608013e+38
-0.085065424 0.027551414 0.25 -2.4608013e+38
-0.084660664 0.027551414 0.25 -2.4741457e+38
-0.084592924 0.02766162 0.25100002 -2.4741457e+38
-0.083780155 0.02766162 0.25100002 -2.5008345e+38
-0.08337377 0.02766162 0.25100002 -2.5275233e+38
-0.082967386 0.02766162 0.25100002 -2.5276274e+38
-0.082561001 0.02766162 0.25100002 -2.5276274e+38
-0.081748232 0.02766162 0.25100002 -2.5409718e+38
-0.081341848 0.02766162 0.25100002 -2.5409718e+38
-0.081257917 0.027771825 0.252 -2.5543162e+38
-0.082676411 0.028543266 0.259 -2.5676606e+38
-0.082574666 0.028653473 0.26000002 -2.5676091e+38
-0.082153708 0.028653473 0.26000002 -2.5809535e+38
-0.058805496 0.028763676 0.26100001 -2.7677759e+38
-0.082361467 0.029298076 0.26200002 -2.5809535e+38
-0.082250014 0.029409898 0.26300001 -2.5809535e+38
-0.08213532 0.029521724 0.264 -2.5809535e+38
-0.081707887 0.029521724 0.264 -2.5809535e+38
-0.081588335 0.029633552 0.26500002 -2.6077984e+38
-0.080730237 0.029633552 0.26500002 -2.6077984e+38
-0.08030118 0.029633552 0.26500002 -2.6077984e+38
-0.08017353 0.029745374 0.266 -2.5812143e+38
-0.079742856 0.029745374 0.266 -2.5945587e+38
-0.07990852 0.029969025 0.26800001 -2.5945587e+38
-0.079771161 0.030080847 0.26900002 -2.5945587e+38
-0.079630561 0.030192673 0.27000001 -2.6211437e+38
-0.079486728 0.030304499 0.27100003 -2.6211437e+38
-0.079631343 0.030528149 0.273 -2.6211437e+38
-0.079189338 0.030528149 0.273 -2.6344881e+38
-0.078305326 0.030528149 0.273 -2.6212479e+38
-0.078148536 0.030639974 0.27400002 -2.6479367e+38
-0.077137731 0.030416323 0.27200001 -2.6612811e+38
-0.075976603 0.030304499 0.27100003 -2.6746255e+38
-0.075259097 0.030192673 0.27000001 -2.6879699e+38
-0.074384809 0.030192673 0.27000001 -2.7413476e+38
-0.073947661 0.030192673 0.27000001 -2.7680364e+38
-0.073510513 0.030192673 0.27000001 -2.7813808e+38
-0.072636217 0.030192673 0.27000001 -2.7947252e+38
-0.072199076 0.030192673 0.27000001 -2.8080696e+38
-0.071761928 0.030192673 0.27000001 -2.8481028e+38
-0.071324781 0.030192673 0.27000001 -2.8614472e+38
-0.070450485 0.030192673 0.27000001 -2.8481028e+38
-0.069754034 0.030080847 0.26900002 -2.8746874e+38
-0.068882979 0.030080847 0.26900002 -2.8479982e+38
-0.068447448 0.030080847 0.26900002 -2.8479982e+38
-0.068011925 0.030080847 0.26900002 -2.8213093e+38
-0.066891275 0.029969025 0.26800001 -2.8079649e+38
-0.066457368 0.029969025 0.26800001 -2.7946205e+38
-0.066023454 0.029969025 0.26800001 -2.7812761e+38
-0.065589547 0.029969025 0.26800001 -2.7679317e+38
-0.06448023 0.0298572 0.26700002 -2.7012097e+38
-0.063808061 0.029745374 0.266 -2.6878653e+38
-0.062710084 0.029633552 0.26500002 -2.6878653e+38
-0.061385177 0.029409898 0.26300001 -2.7143983e+38
-0.060959365 0.029409898 0.26300001 -2.7143983e+38
-0.06053355 0.029409898 0.26300001 -2.7277427e+38
-0.059454996 0.029298076 0.26200002 -2.7544315e+38
-0.087828711 0.027453395 0.24200001 -2.6074336e+38
-0.0874369 0.027453395 0.24200001 -2.5940892e+38
-0.08740478 0.027566839 0.24300002 -2.5675565e+38
-0.087011345 0.027566839 0.24300002 -2.5542121e+38
-0.086617917 0.027566839 0.24300002 -2.5276274e+38
-0.086579315 0.027680282 0.24400002 -2.5276274e+38
-0.08653748 0.027793726 0.245 -2.4875941e+38
-0.086843997 0.028020613 0.24700001 -2.4742497e+38
-0.086794063 0.028134057 0.24800001 -2.4475094e+38
-0.086740896 0.028247502 0.24900001 -2.434165e+38
-0.086337753 0.028247502 0.24900001 -2.4208721e+38
-0.08627972 0.028360944 0.25 -2.4342165e+38
-0.085470192 0.028360944 0.25 -2.4342165e+38
-0.085065424 0.028360944 0.25 -2.4342165e+38
-0.084660664 0.028360944 0.25 -2.4342165e+38
-0.084592924 0.028474389 0.25100002 -2.4609053e+38
-0.083780155 0.028474389 0.25100002 -2.4741457e+38
-0.08337377 0.028474389 0.25100002 -2.5008345e+38
-0.082967386 0.028474389 0.25100002 -2.5142829e+38
-0.082561001 0.028474389 0.25100002 -2.5142829e+38
-0.081748232 0.028474389 0.25100002 -2.5276274e+38
-0.081341848 0.028474389 0.25100002 -2.5276274e+38
-0.081257917 0.028587831 0.252 -2.5276274e+38
-0.082676411 0.029381938 0.259 -2.5542646e+38
-0.08225707 0.029381938 0.259 -2.5676091e+38
-0.082153708 0.029495385 0.26000002 -2.5676091e+38
-0.082047112 0.029608825 0.26100001 -2.5809535e+38
-0.082250014 0.029835712 0.26300001 -2.5809535e+38
-0.081824198 0.029835712 0.26300001 -2.5809535e+38
-0.080972575 0.029835712 0.26300001 -2.594454e+38
-0.080730237 0.030062603 0.26500002 -2.594454e+38
-0.080604203 0.030176044 0.266 -2.594454e+38
-0.08017353 0.030176044 0.266 -2.6077988e+38
-0.079742856 0.030176044 0.266 -2.6211433e+38
-0.080206692 0.030516375 0.26900002 -2.6211433e+38
-0.080067709 0.030629821 0.27000001 -2.6211433e+38
-0.079925492 0.030743266 0.27100003 -2.6211437e+38
-0.079780035 0.030856706 0.27200001 -2.6211437e+38
-0.079631343 0.030970152 0.273 -2.6211437e+38
-0.079189338 0.030970152 0.273 -2.6344881e+38
-0.079035789 0.031083597 0.27400002 -2.6079035e+38
-0.078148536 0.031083597 0.27400002 -2.6479367e+38
-0.077137731 0.030856706 0.27200001 -2.6612811e+38
-0.075976603 0.030743266 0.27100003 -2.6746255e+38
-0.075259097 0.030629821 0.27000001 -2.6879699e+38
-0.074384809 0.030629821 0.27000001 -2.7413476e+38
-0.073947661 0.030629821 0.27000001 -2.7813808e+38
-0.073510513 0.030629821 0.27000001 -2.7813808e+38
-0.072636217 0.030629821 0.27000001 -2.8080696e+38
-0.072199076 0.030629821 0.27000001 -2.821414e+38
-0.071761928 0.030629821 0.27000001 -2.8614472e+38
-0.070625089 0.030516375 0.26900002 -2.8614472e+38
-0.070189558 0.030516375 0.26900002 -2.8614472e+38
-0.069754034 0.030516375 0.26900002 -2.8481028e+38
-0.068882979 0.030516375 0.26900002 -2.8214136e+38
-0.068447448 0.030516375 0.26900002 -2.8214136e+38
-0.068011925 0.030516375 0.26900002 -2.8080692e+38
-0.066891275 0.030402934 0.26800001 -2.7813804e+38
-0.066457368 0.030402934 0.26800001 -2.768036e+38
-0.066023454 0.030402934 0.26800001 -2.7546916e+38
-0.06491252 0.030289488 0.26700002 -2.7278985e+38
-0.06448023 0.030289488 0.26700002 -2.7145541e+38
-0.063808061 0.030176044 0.266 -2.7012097e+38
-0.062473446 0.029949157 0.264 -2.6878657e+38
-0.061618581 0.029949157 0.264 -2.6878657e+38
-0.087828711 0.027845208 0.24200001 -2.5807448e+38
-0.0874369 0.027845208 0.24200001 -2.5807448e+38
-0.087045088 0.027845208 0.24200001 -2.5542121e+38
-0.086653277 0.027845208 0.24200001 -2.5408677e+38
-0.085869648 0.027845208 0.24200001 -2.5276274e+38
-0.08653748 0.028190395 0.245 -2.5142829e+38
-0.086843997 0.028420521 0.24700001 -2.4742497e+38
-0.086794063 0.028535584 0.24800001 -2.4475094e+38
-0.086740896 0.028650649 0.24900001 -2.434165e+38
-0.086337753 0.028650649 0.24900001 -2.4208206e+38
-0.08627972 0.02876571 0.25 -2.4208206e+38
-0.085470192 0.02876571 0.25 -2.4208721e+38
-0.085065424 0.02876571 0.25 -2.4208721e+38
-0.084999308 0.028880773 0.25100002 -2.4342165e+38
-0.084592924 0.028880773 0.25100002 -2.4475609e+38
-0.083780155 0.028880773 0.25100002 -2.4609049e+38
-0.08337377 0.028880773 0.25100002 -2.4742493e+38
-0.082967386 0.028880773 0.25100002 -2.4875937e+38
-0.082561001 0.028880773 0.25100002 -2.4875937e+38
-0.081748232 0.028880773 0.25100002 -2.5276274e+38
-0.081665918 0.028995834 0.252 -2.5276274e+38
-0.081257917 0.028995834 0.252 -2.5276274e+38
-0.082454078 0.029571151 0.257 -2.5276274e+38
-0.082676411 0.029801276 0.259 -2.5409718e+38
-0.08225707 0.029801276 0.259 -2.5676091e+38
-0.082153708 0.029916339 0.26000002 -2.5676091e+38
-0.082047112 0.0300314 0.26100001 -2.5676091e+38
-0.081937276 0.030146465 0.26200002 -2.5676091e+38
-0.081824198 0.030261526 0.26300001 -2.5809535e+38
-0.080972575 0.030261526 0.26300001 -2.594454e+38
-0.080853023 0.030376589 0.264 -2.594454e+38
-0.08042559 0.030376589 0.264 -2.5944544e+38
-0.080604203 0.030606713 0.266 -2.5944544e+38
-0.08017353 0.030606713 0.266 -2.6077988e+38
-0.079742856 0.030606713 0.266 -2.6211433e+38
-0.07990852 0.030836841 0.26800001 -2.6211433e+38
-0.080067709 0.031066967 0.27000001 -2.6211433e+38
-0.079925492 0.03118203 0.27100003 -2.6211437e+38
-0.079780035 0.031297091 0.27200001 -2.6344881e+38
-0.079631343 0.031412154 0.273 -2.6478325e+38
-0.079479411 0.031527221 0.27400002 -2.6344881e+38
-0.079035789 0.031527221 0.27400002 -2.6478325e+38
-0.078148536 0.031527221 0.27400002 -2.6612811e+38
-0.077137731 0.031297091 0.27200001 -2.6746255e+38
-0.073782772 0.03118203 0.27100003 -2.7814333e+38
-0.072636217 0.031066967 0.27000001 -2.8080696e+38
-0.072199076 0.031066967 0.27000001 -2.8481028e+38
-0.071496144 0.030951902 0.26900002 -2.8614472e+38
-0.070625089 0.030951902 0.26900002 -2.8614472e+38
-0.069928631 0.030836841 0.26800001 -2.8614472e+38
-0.069494724 0.030836841 0.26800001 -2.8481028e+38
-0.06862691 0.030836841 0.26800001 -2.8481028e+38
-0.068192996 0.030836841 0.26800001 -2.821414e+38
-0.067759089 0.030836841 0.26800001 -2.8080696e+38
-0.066891275 0.030836841 0.26800001 -2.7813808e+38
-0.066457368 0.030836841 0.26800001 -2.7680364e+38
-0.065777101 0.030721778 0.26700002 -2.7680364e+38
-0.06491252 0.030721778 0.26700002 -2.7146583e+38
-0.06448023 0.030721778 0.26700002 -2.7013139e+38
-0.063808061 0.030606713 0.266 -2.6746251e+38
-0.062473446 0.030376589 0.264 -2.6612811e+38
-0.061385177 0.030261526 0.26300001 -2.6878657e+38
-0.051781945 0.027845208 0.24200001 -2.9946816e+38
-0.051390134 0.027845208 0.24200001 -3.1281256e+38
-0.08785598 0.028120337 0.24100001 -2.5807443e+38
-0.087465785 0.028120337 0.24100001 -2.5673999e+38
-0.087075591 0.028120337 0.24100001 -2.5807443e+38
-0.086685397 0.028120337 0.24100001 -2.5409714e+38
-0.085905008 0.028120337 0.24100001 -2.5276269e+38
-0.085869648 0.028237019 0.24200001 -2.5276269e+38
-0.085477836 0.028237019 0.24200001 -2.4875941e+38
-0.086843997 0.028820429 0.24700001 -2.4742497e+38
-0.08714404 0.029053794 0.24900001 -2.4475094e+38
-0.086740896 0.029053794 0.24900001 -2.434165e+38
-0.086337753 0.029053794 0.24900001 -2.4208206e+38
-0.08627972 0.029170474 0.25 -2.4208206e+38
-0.086218454 0.029287158 0.25100002 -2.4208206e+38
-0.085405692 0.029287158 0.25100002 -2.4208721e+38
-0.084999308 0.029287158 0.25100002 -2.4208721e+38
-0.084592924 0.029287158 0.25100002 -2.4342165e+38
-0.083780155 0.029287158 0.25100002 -2.4609049e+38
-0.08337377 0.029287158 0.25100002 -2.4609049e+38
-0.082967386 0.029287158 0.25100002 -2.4742493e+38
-0.082561001 0.029287158 0.25100002 -2.4875937e+38
-0.081748232 0.029287158 0.25100002 -2.5142829e+38
-0.081341848 0.029287158 0.25100002 -2.5142829e+38
-0.081257917 0.029403837 0.252 -2.5276274e+38
-0.082454078 0.02998725 0.257 -2.5276274e+38
-0.082357191 0.030103929 0.25800002 -2.5409718e+38
-0.08225707 0.030220613 0.259 -2.5542646e+38
-0.082153708 0.030337295 0.26000002 -2.5542646e+38
-0.082047112 0.030453974 0.26100001 -2.5676091e+38
-0.081201963 0.030453974 0.26100001 -2.5544208e+38
-0.080779389 0.030453974 0.26100001 -2.5544208e+38
-0.080356814 0.030453974 0.26100001 -2.5811096e+38
-0.079934239 0.030453974 0.26100001 -2.5811096e+38
-0.07908909 0.030453974 0.26100001 -2.5944544e+38
-0.07926932 0.030687338 0.26300001 -2.6077993e+38
-0.079143293 0.030804021 0.264 -2.6077993e+38
-0.07990852 0.03127075 0.26800001 -2.6077993e+38
-0.080067709 0.031504113 0.27000001 -2.6211437e+38
-0.079925492 0.031620797 0.27100003 -2.6211437e+38
-0.079780035 0.031737477 0.27200001 -2.6344881e+38
-0.079631343 0.03185416 0.273 -2.6745213e+38
-0.079479411 0.031970844 0.27400002 -2.6745213e+38
-0.079035789 0.031970844 0.27400002 -2.6878657e+38
-0.078148536 0.031970844 0.27400002 -2.754692e+38
-0.073782772 0.031620797 0.27100003 -2.8350712e+38
-0.072636217 0.031504113 0.27000001 -2.8348625e+38
-0.071931668 0.03138743 0.26900002 -2.8615513e+38
-0.070796445 0.03127075 0.26800001 -2.888136e+38
-0.070099995 0.031154066 0.26700002 -2.8747916e+38
-0.069667704 0.031154066 0.26700002 -2.8614472e+38
-0.068803124 0.031154066 0.26700002 -2.8746874e+38
-0.068370834 0.031154066 0.26700002 -2.8746874e+38
-0.068192996 0.03127075 0.26800001 -2.8479986e+38
-0.067759089 0.03127075 0.26800001 -2.8346542e+38
-0.066891275 0.03127075 0.26800001 -2.7813808e+38
-0.066457368 0.03127075 0.26800001 -2.7813808e+38
-0.065777101 0.031154066 0.26700002 -2.7680364e+38
-0.06491252 0.031154066 0.26700002 -2.7146583e+38
-0.06448023 0.031154066 0.26700002 -2.7013139e+38
-0.063808061 0.031037385 0.266 -2.6879699e+38
-0.05351894 0.028120337 0.24100001 -2.8213097e+38
-0.053128745 0.028120337 0.24100001 -2.8479986e+38
-0.052738551 0.028120337 0.24100001 -2.8880318e+38
-0.052565571 0.028237019 0.24200001 -2.9013758e+38
-0.051781945 0.028237019 0.24200001 -2.9679412e+38
-0.051390134 0.028237019 0.24200001 -3.1147297e+38
-0.11338293 0.034070674 0.28800002 -3.1678964e+38
-0.11291663 0.034070674 0.28800002 -3.114363e+38
-0.08785598 0.02851053 0.24100001 -2.5674515e+38
-0.08710286 0.028392231 0.24000001 -2.5674515e+38
-0.086714283 0.028392231 0.24000001 -2.5674515e+38
-0.085937135 0.028392231 0.24000001 -2.5408673e+38
-0.085905008 0.02851053 0.24100001 -2.5276274e+38
-0.085514814 0.02851053 0.24100001 -2.5142829e+38
-0.085477836 0.028628832 0.24200001 -2.4875941e+38
-0.08719559 0.029338639 0.24800001 -2.4742497e+38
-0.08714404 0.029456941 0.24900001 -2.4475094e+38
-0.087089255 0.02957524 0.25 -2.434165e+38
-0.086684488 0.02957524 0.25 -2.4208206e+38
-0.08627972 0.02957524 0.25 -2.3941318e+38
-0.086218454 0.029693542 0.25100002 -2.4208206e+38
-0.083780155 0.029693542 0.25100002 -2.4475605e+38
-0.08337377 0.029693542 0.25100002 -2.4475605e+38
-0.082967386 0.029693542 0.25100002 -2.4609053e+38
-0.082561001 0.029693542 0.25100002 -2.4742497e+38
-0.081748232 0.029693542 0.25100002 -2.5142829e+38
-0.053741008 0.028628832 0.24200001 -2.8212582e+38
-0.053128745 0.02851053 0.24100001 -2.8479986e+38
-0.052738551 0.02851053 0.24100001 -2.8880318e+38
-0.052565571 0.028628832 0.24200001 -2.9013762e+38
-0.051781945 0.028628832 0.24200001 -2.9545968e+38
-0.051390134 0.028628832 0.24200001 -3.1013853e+38
-0.11438325 0.034417048 0.287 -3.2744958e+38
-0.11345391 0.034417048 0.287 -3.0607255e+38
-0.11338293 0.034536965 0.28800002 -3.0206923e+38
-0.11291663 0.034536965 0.28800002 -2.9540747e+38
-0.11245035 0.034536965 0.28800002 -2.9407303e+38
-0.081665918 0.030219844 0.252 -2.4610615e+38
-0.081580363 0.030339764 0.25300002 -2.4610615e+38
-0.082454078 0.030819446 0.257 -2.4877503e+38
-0.082357191 0.030939365 0.25800002 -2.5010947e+38
-0.08225707 0.031059286 0.259 -2.5010432e+38
-0.082153708 0.031179206 0.26000002 -2.5143876e+38
-0.0813118 0.031179206 0.26000002 -2.527732e+38
-0.081201963 0.031299125 0.26100001 -2.5410764e+38
-0.080469884 0.031179206 0.26000002 -2.5410764e+38
-0.080048934 0.031179206 0.26000002 -2.5811096e+38
-0.079207018 0.031179206 0.26000002 -2.5812143e+38
-0.07908909 0.031299125 0.26100001 -2.5945587e+38
-0.078666516 0.031299125 0.26100001 -2.6479367e+38
-0.078843512 0.031538963 0.26300001 -2.6746255e+38
-0.079014026 0.031778805 0.26500002 -2.7012628e+38
-0.079925492 0.032498326 0.27100003 -2.8615513e+38
-0.080073342 0.032738168 0.273 -2.8748957e+38
-0.079923034 0.032858089 0.27400002 -2.9282729e+38
-0.079479411 0.032858089 0.27400002 -2.9549617e+38
-0.073344007 0.032498326 0.27100003 -3.0085999e+38
-0.071664266 0.032138567 0.26800001 -2.8882401e+38
-0.070532285 0.032018647 0.26700002 -2.888136e+38
-0.069837444 0.031898726 0.266 -2.9013762e+38
-0.068976104 0.031898726 0.266 -2.8746874e+38
-0.068803124 0.032018647 0.26700002 -2.8746874e+38
-0.068370834 0.032018647 0.26700002 -2.8746874e+38
-0.067938544 0.032018647 0.26700002 -2.8479986e+38
-0.067073971 0.032018647 0.26700002 -2.8346542e+38
-0.066641681 0.032018647 0.26700002 -2.8213097e+38
-0.066209391 0.032018647 0.26700002 -2.8079653e+38
-0.065777101 0.032018647 0.26700002 -2.8079653e+38
-0.06491252 0.032018647 0.26700002 -2.7679321e+38
-0.06448023 0.032018647 0.26700002 -2.7679321e+38
-0.11444775 0.034760177 0.28600001 -3.1676355e+38
-0.11352164 0.034760177 0.28600001 -2.9938477e+38
-0.1130586 0.034760177 0.28600001 -2.9671585e+38
-0.11259554 0.034760177 0.28600001 -2.9137809e+38
-0.11213249 0.034760177 0.28600001 -2.8473195e+38
-0.11245035 0.035003252 0.28800002 -2.8339751e+38
-0.08785598 0.029290916 0.24100001 -2.5541071e+38
-0.08710286 0.029169381 0.24000001 -2.5540555e+38
-0.086714283 0.029169381 0.24000001 -2.5540555e+38
-0.085937135 0.029169381 0.24000001 -2.5275229e+38
-0.085548557 0.029169381 0.24000001 -2.5142829e+38
-0.085159987 0.029169381 0.24000001 -2.4875941e+38
-0.085124627 0.029290916 0.24100001 -2.4875941e+38
-0.08754719 0.030263232 0.24900001 -2.4742497e+38
-0.087494016 0.03038477 0.25 -2.4608538e+38
-0.087089255 0.03038477 0.25 -2.434165e+38
-0.087031223 0.030506309 0.25100002 -2.4208206e+38
-0.086624838 0.030506309 0.25100002 -2.3941318e+38
-0.086218454 0.030506309 0.25100002 -2.3941318e+38
-0.082967386 0.030506309 0.25100002 -2.3943395e+38
-0.082561001 0.030506309 0.25100002 -2.4210283e+38
-0.082481921 0.030627847 0.252 -2.4077366e+38
-0.081665918 0.030627847 0.252 -2.4211325e+38
-0.081580363 0.030749388 0.25300002 -2.4211325e+38
-0.082454078 0.031235546 0.257 -2.4611657e+38
-0.082357191 0.031357083 0.25800002 -2.4745102e+38
-0.08225707 0.031478621 0.259 -2.4744586e+38
-0.081418395 0.031478621 0.259 -2.5011474e+38
-0.0813118 0.031600162 0.26000002 -2.5011474e+38
-0.081201963 0.0317217 0.26100001 -2.5278363e+38
-0.080469884 0.031600162 0.26000002 -2.5278363e+38
-0.080356814 0.0317217 0.26100001 -2.5945587e+38
-0.079934239 0.0317217 0.26100001 -2.6212475e+38
-0.07908909 0.0317217 0.26100001 -2.7413472e+38
