# .PCD v0.7 - Point Cloud Data file format
VERSION 0.7
FIELDS x y z rgb
SIZE 4 4 4 4
TYPE F F F F
COUNT 1 1 1 1
WIDTH 955
HEIGHT 1
VIEWPOINT 0 0 0 1 0 0 0
POINTS 955
DATA ascii
-0.053036135 0.039855838 0.24600001 -2.8215661e+38
-0.051459685 0.040179867 0.24800001 -2.8215661e+38
-0.050656632 0.040179867 0.24800001 -2.8215661e+38
-0.084095486 0.038781412 0.23700002 -2.7411374e+38
-0.083711766 0.038781412 0.23700002 -2.7145545e+38
-0.083328046 0.038781412 0.23700002 -2.8079653e+38
-0.082560614 0.038781412 0.23700002 -2.8613957e+38
-0.082176894 0.038781412 0.23700002 -2.8747401e+38
-0.080722459 0.038454145 0.23500001 -2.9014804e+38
-0.07962124 0.038290508 0.23400001 -2.9548581e+38
-0.078903735 0.038126875 0.23300001 -2.9548581e+38
-0.078863516 0.038290508 0.23400001 -2.9814422e+38
-0.078484662 0.038290508 0.23400001 -2.9947866e+38
-0.077726938 0.038290508 0.23400001 -2.9947866e+38
-0.077348076 0.038290508 0.23400001 -2.9814422e+38
-0.077298149 0.038454145 0.23500001 -2.9947866e+38
-0.076917671 0.038454145 0.23500001 -2.9947866e+38
-0.076537192 0.038454145 0.23500001 -2.9947866e+38
-0.075453781 0.038290508 0.23400001 -3.008131e+38
-0.075074919 0.038290508 0.23400001 -3.008131e+38
-0.07368201 0.037963241 0.23200001 -3.0214754e+38
-0.070678718 0.036981434 0.22600001 -3.0615086e+38
-0.0699469 0.036981434 0.22600001 -3.0615086e+38
-0.069580995 0.036981434 0.22600001 -3.074853e+38
-0.069215089 0.036981434 0.22600001 -3.074853e+38
-0.068180248 0.036817797 0.22500001 -3.088197e+38
-0.067815959 0.036817797 0.22500001 -3.1015415e+38
-0.067451671 0.036817797 0.22500001 -3.1148859e+38
-0.066723093 0.036817797 0.22500001 -3.0883013e+38
-0.066358805 0.036817797 0.22500001 -3.0883013e+38
-0.065994516 0.036817797 0.22500001 -3.0883013e+38
-0.065630227 0.036817797 0.22500001 -3.0883013e+38
-0.06197704 0.037472337 0.22900002 -3.1282307e+38
-0.060968112 0.0373087 0.22800002 -3.1549195e+38
-0.060598966 0.0373087 0.22800002 -3.1549195e+38
-0.060229819 0.0373087 0.22800002 -3.1549195e+38
-0.059491526 0.0373087 0.22800002 -3.1549195e+38
-0.05912238 0.0373087 0.22800002 -3.1814521e+38
-0.058753237 0.0373087 0.22800002 -3.1814521e+38
-0.058384091 0.0373087 0.22800002 -3.1815032e+38
-0.056044798 0.037472337 0.22900002 -2.8612864e+38
-0.055009574 0.039108682 0.23900001 -2.7815329e+38
-0.054851167 0.03927232 0.24000001 -2.7815329e+38
-0.054689519 0.039435949 0.24100001 -2.7948773e+38
-0.053909134 0.039435949 0.24100001 -2.7948773e+38
-0.053741008 0.039599586 0.24200001 -2.7948773e+38
-0.10800648 0.04478376 0.27100003 -2.567347e+38
-0.069273114 0.037182085 0.22500001 -3.0881975e+38
-0.068544537 0.037182085 0.22500001 -3.088197e+38
-0.068180248 0.037182085 0.22500001 -3.1015415e+38
-0.067815959 0.037182085 0.22500001 -3.1015415e+38
-0.067451671 0.037182085 0.22500001 -3.1148859e+38
-0.066723093 0.037182085 0.22500001 -3.1016972e+38
-0.066358805 0.037182085 0.22500001 -3.1016972e+38
-0.065994516 0.037182085 0.22500001 -3.0883528e+38
-0.065630227 0.037182085 0.22500001 -3.0883528e+38
-0.06490165 0.037182085 0.22500001 -3.1016972e+38
-0.064537361 0.037182085 0.22500001 -3.0883528e+38
-0.053569648 0.040156655 0.24300002 -2.7948773e+38
-0.053395048 0.040321905 0.24400002 -2.7948773e+38
-0.05321721 0.040487159 0.245 -2.8082217e+38
-0.053036135 0.040652417 0.24600001 -2.8215661e+38
-0.052851819 0.040817667 0.24700001 -2.8082217e+38
-0.052451912 0.040817667 0.24700001 -2.8082217e+38
-0.052052002 0.040817667 0.24700001 -2.8215661e+38
-0.051861212 0.040982921 0.24800001 -2.8215661e+38
-0.051459685 0.040982921 0.24800001 -2.8215661e+38
-0.050656632 0.040982921 0.24800001 -2.8215661e+38
-0.10756771 0.045222525 0.27100003 -2.6206204e+38
-0.084095486 0.039548848 0.23700002 -2.794827e+38
-0.084064983 0.039715718 0.23800001 -2.8080688e+38
-0.083679646 0.039715718 0.23800001 -2.848102e+38
-0.082560614 0.039548848 0.23700002 -2.888136e+38
-0.082176894 0.039548848 0.23700002 -2.888136e+38
-0.08106596 0.039381973 0.23600002 -2.9014804e+38
-0.07962124 0.039048228 0.23400001 -2.9814426e+38
-0.079242378 0.039048228 0.23400001 -2.9814426e+38
-0.078863516 0.039048228 0.23400001 -2.9814426e+38
-0.078820065 0.039215103 0.23500001 -3.0081314e+38
-0.078439586 0.039215103 0.23500001 -2.9814422e+38
-0.077678628 0.039215103 0.23500001 -2.9947866e+38
-0.077298149 0.039215103 0.23500001 -3.008131e+38
-0.076917671 0.039215103 0.23500001 -2.9947866e+38
-0.076537192 0.039215103 0.23500001 -3.0214754e+38
-0.075776227 0.039215103 0.23500001 -3.0214754e+38
-0.075395748 0.039215103 0.23500001 -3.0214754e+38
-0.074317195 0.039048228 0.23400001 -3.0615086e+38
-0.070678718 0.037713248 0.22600001 -3.0615086e+38
-0.0699469 0.037713248 0.22600001 -3.0881975e+38
-0.064375974 0.037880119 0.22700001 -3.1149374e+38
-0.063360564 0.037713248 0.22600001 -3.1548144e+38
-0.06290587 0.037880119 0.22700001 -3.1547629e+38
-0.062538341 0.037880119 0.22700001 -3.1814517e+38
-0.062170815 0.037880119 0.22700001 -3.1814517e+38
-0.062075548 0.038046993 0.22800002 -3.1814517e+38
-0.061337255 0.038046993 0.22800002 -3.1682635e+38
-0.060968112 0.038046993 0.22800002 -3.1549191e+38
-0.060598966 0.038046993 0.22800002 -3.1549195e+38
-0.060229819 0.038046993 0.22800002 -3.1549195e+38
-0.059491526 0.038046993 0.22800002 -3.1682639e+38
-0.05912238 0.038046993 0.22800002 -3.1814517e+38
-0.058753237 0.038046993 0.22800002 -3.1814517e+38
-0.058384091 0.038046993 0.22800002 -3.1948472e+38
-0.055009574 0.039882593 0.23900001 -2.7815329e+38
-0.054851167 0.040049467 0.24000001 -2.7948773e+38
-0.054689519 0.040216338 0.24100001 -2.7815329e+38
-0.053909134 0.040216338 0.24100001 -2.7815329e+38
-0.053741008 0.040383212 0.24200001 -2.7948773e+38
-0.053569648 0.040550087 0.24300002 -2.7948773e+38
-0.053395048 0.040716957 0.24400002 -2.7948773e+38
-0.05321721 0.040883832 0.245 -2.8082217e+38
-0.053036135 0.041050702 0.24600001 -2.8082217e+38
-0.052851819 0.041217577 0.24700001 -2.8082217e+38
-0.052664269 0.041384447 0.24800001 -2.8082217e+38
-0.052262742 0.041384447 0.24800001 -2.8082217e+38
-0.052070331 0.041551322 0.24900001 -2.8215661e+38
-0.051667184 0.041551322 0.24900001 -2.8215661e+38
-0.05126404 0.041551322 0.24900001 -2.8215661e+38
-0.083711766 0.039932564 0.23700002 -2.8614979e+38
-0.083328046 0.039932564 0.23700002 -2.8614979e+38
-0.082560614 0.039932564 0.23700002 -2.888136e+38
-0.082176894 0.039932564 0.23700002 -2.888136e+38
-0.08106596 0.039764073 0.23600002 -2.9148248e+38
-0.08034198 0.039595582 0.23500001 -2.9548581e+38
-0.079242378 0.03942709 0.23400001 -2.9814422e+38
-0.079200543 0.039595582 0.23500001 -2.9814422e+38
-0.078820065 0.039595582 0.23500001 -3.008131e+38
-0.078439586 0.039595582 0.23500001 -2.9814422e+38
-0.077678628 0.039595582 0.23500001 -2.9947866e+38
-0.077298149 0.039595582 0.23500001 -2.9947866e+38
-0.076917671 0.039595582 0.23500001 -2.9947866e+38
-0.076537192 0.039595582 0.23500001 -3.008131e+38
-0.075776227 0.039595582 0.23500001 -3.0214754e+38
-0.075716585 0.039764073 0.23600002 -3.0214754e+38
-0.075334489 0.039764073 0.23600002 -3.0348198e+38
-0.069637403 0.037910663 0.22500001 -3.0881975e+38
-0.069273114 0.037910663 0.22500001 -3.1015415e+38
-0.068544537 0.037910663 0.22500001 -3.1015415e+38
-0.068180248 0.037910663 0.22500001 -3.1015415e+38
-0.067815959 0.037910663 0.22500001 -3.0348705e+38
-0.067451671 0.037910663 0.22500001 -2.9681485e+38
-0.066723093 0.037910663 0.22500001 -2.8612886e+38
-0.066358805 0.037910663 0.22500001 -2.9147709e+38
-0.065994516 0.037910663 0.22500001 -2.9814929e+38
-0.065630227 0.037910663 0.22500001 -3.0215776e+38
-0.06490165 0.037910663 0.22500001 -3.114937e+38
-0.064537361 0.037910663 0.22500001 -3.114937e+38
-0.064173073 0.037910663 0.22500001 -3.114937e+38
-0.063444495 0.037910663 0.22500001 -3.1414696e+38
-0.063360564 0.038079157 0.22600001 -3.154814e+38
-0.06290587 0.038247645 0.22700001 -3.1548144e+38
-0.062538341 0.038247645 0.22700001 -3.1814517e+38
-0.062170815 0.038247645 0.22700001 -3.1814517e+38
-0.062075548 0.03841614 0.22800002 -3.1814517e+38
-0.061337255 0.03841614 0.22800002 -3.1682635e+38
-0.060968112 0.03841614 0.22800002 -3.1682635e+38
-0.060598966 0.03841614 0.22800002 -3.1549195e+38
-0.060229819 0.03841614 0.22800002 -3.1682639e+38
-0.059491526 0.03841614 0.22800002 -3.1682639e+38
-0.05912238 0.03841614 0.22800002 -3.1549191e+38
-0.058753237 0.03841614 0.22800002 -3.1549191e+38
-0.058384091 0.03841614 0.22800002 -3.2082432e+38
-0.056786329 0.038584631 0.22900002 -3.0080237e+38
-0.055009574 0.04026955 0.23900001 -2.7815329e+38
-0.054851167 0.040438041 0.24000001 -2.7815329e+38
-0.054074015 0.040438041 0.24000001 -2.7815329e+38
-0.053909134 0.040606532 0.24100001 -2.7682925e+38
-0.052262742 0.041785974 0.24800001 -2.8082217e+38
-0.052070331 0.041954469 0.24900001 -2.8215661e+38
-0.083711766 0.040316284 0.23700002 -3.0616109e+38
-0.083328046 0.040316284 0.23700002 -2.9281668e+38
-0.082212254 0.040146172 0.23600002 -2.90148e+38
-0.081830159 0.040146172 0.23600002 -2.90148e+38
-0.08106596 0.040146172 0.23600002 -2.9680978e+38
-0.080683865 0.040146172 0.23600002 -2.9814422e+38
-0.079961501 0.03997606 0.23500001 -2.9814422e+38
-0.079200543 0.03997606 0.23500001 -3.0079748e+38
-0.078820065 0.03997606 0.23500001 -3.0213193e+38
-0.078439586 0.03997606 0.23500001 -2.9814422e+38
-0.077678628 0.03997606 0.23500001 -2.9947866e+38
-0.077298149 0.03997606 0.23500001 -2.9947866e+38
-0.076917671 0.03997606 0.23500001 -3.0213193e+38
-0.076537192 0.03997606 0.23500001 -3.0346637e+38
-0.075776227 0.03997606 0.23500001 -3.0613525e+38
-0.075716585 0.040146172 0.23600002 -3.0613525e+38
-0.075334489 0.040146172 0.23600002 -3.0880413e+38
-0.074952386 0.040146172 0.23600002 -3.0880413e+38
-0.069637403 0.038274951 0.22500001 -3.1280745e+38
-0.069273114 0.038274951 0.22500001 -3.088197e+38
-0.068544537 0.038274951 0.22500001 -3.101593e+38
-0.068180248 0.038274951 0.22500001 -3.0882486e+38
-0.067815959 0.038274951 0.22500001 -2.9281668e+38
-0.067451671 0.038274951 0.22500001 -2.8080672e+38
-0.066723093 0.038274951 0.22500001 -2.7142399e+38
-0.066358805 0.038274951 0.22500001 -2.6208291e+38
-0.065994516 0.038274951 0.22500001 -2.6074847e+38
-0.065630227 0.038274951 0.22500001 -2.580952e+38
-0.06490165 0.038274951 0.22500001 -3.0882997e+38
-0.064537361 0.038274951 0.22500001 -3.0749553e+38
-0.064173073 0.038274951 0.22500001 -3.0749553e+38
-0.064092383 0.038445063 0.22600001 -3.0349221e+38
-0.064008445 0.038615171 0.22700001 -3.1414696e+38
-0.063640922 0.038615171 0.22700001 -3.1815028e+38
-0.06290587 0.038615171 0.22700001 -3.154814e+38
-0.062538341 0.038615171 0.22700001 -3.1815032e+38
-0.062170815 0.038615171 0.22700001 -3.1815032e+38
-0.061435759 0.038615171 0.22700001 -3.1815032e+38
-0.061337255 0.038785283 0.22800002 -3.1814517e+38
-0.060968112 0.038785283 0.22800002 -3.1814517e+38
-0.060598966 0.038785283 0.22800002 -3.1682639e+38
-0.060229819 0.038785283 0.22800002 -3.1682639e+38
-0.059491526 0.038785283 0.22800002 -3.1682639e+38
-0.05912238 0.038785283 0.22800002 -3.1549191e+38
-0.058753237 0.038785283 0.22800002 -3.1549191e+38
-0.058384091 0.038785283 0.22800002 -3.2082432e+38
-0.056786329 0.038955398 0.22900002 -2.9813349e+38
-0.055009574 0.040656503 0.23900001 -2.7681885e+38
-0.054851167 0.040826615 0.24000001 -2.7815329e+38
-0.054074015 0.040826615 0.24000001 -2.7815329e+38
-0.053685442 0.040826615 0.24000001 -2.7682925e+38
-0.079961501 0.040356543 0.23500001 -2.9946304e+38
-0.079200543 0.040356543 0.23500001 -3.0079748e+38
-0.078820065 0.040356543 0.23500001 -3.0079748e+38
-0.0699469 0.038810972 0.22600001 -3.1280745e+38
-0.069273114 0.03863924 0.22500001 -3.088197e+38
-0.068544537 0.03863924 0.22500001 -3.1015926e+38
-0.068180248 0.03863924 0.22500001 -3.0348705e+38
-0.067815959 0.03863924 0.22500001 -2.8881328e+38
-0.067451671 0.03863924 0.22500001 -2.5411782e+38
-0.06490165 0.03863924 0.22500001 -2.981544e+38
-0.064537361 0.03863924 0.22500001 -2.8881332e+38
-0.064173073 0.03863924 0.22500001 -2.8747888e+38
-0.064092383 0.038810972 0.22600001 -2.8881332e+38
-0.064008445 0.038982701 0.22700001 -3.1147808e+38
-0.06392128 0.039154429 0.22800002 -3.1815028e+38
-0.063552134 0.039154429 0.22800002 -3.1948987e+38
-0.062538341 0.038982701 0.22700001 -3.1815032e+38
-0.062444694 0.039154429 0.22800002 -3.1815032e+38
-0.062075548 0.039154429 0.22800002 -3.1815032e+38
-0.061337255 0.039154429 0.22800002 -3.1814517e+38
-0.060968112 0.039154429 0.22800002 -3.1814517e+38
-0.060598966 0.039154429 0.22800002 -3.1682639e+38
-0.060229819 0.039154429 0.22800002 -3.1682639e+38
-0.059491526 0.039154429 0.22800002 -3.1682635e+38
-0.05912238 0.039154429 0.22800002 -3.1549706e+38
-0.058753237 0.039154429 0.22800002 -3.1549706e+38
-0.082594357 0.040910367 0.23600002 -3.1014364e+38
-0.082212254 0.040910367 0.23600002 -3.0347144e+38
-0.081830159 0.040910367 0.23600002 -2.9414086e+38
-0.08106596 0.040910367 0.23600002 -2.9946304e+38
-0.080683865 0.040910367 0.23600002 -2.9946304e+38
-0.078773372 0.040910367 0.23600002 -2.9946304e+38
-0.078391269 0.040910367 0.23600002 -3.0079748e+38
-0.077627078 0.040910367 0.23600002 -3.0079748e+38
-0.077244975 0.040910367 0.23600002 -3.0213193e+38
-0.076862879 0.040910367 0.23600002 -3.0346637e+38
-0.076480784 0.040910367 0.23600002 -3.0480081e+38
-0.076421134 0.04108372 0.23700002 -3.0613525e+38
-0.075334489 0.040910367 0.23600002 -3.0880413e+38
-0.075269982 0.04108372 0.23700002 -3.1013857e+38
-0.053685442 0.041603766 0.24000001 -2.7682925e+38
-0.082560614 0.041467436 0.23700002 -3.1681055e+38
-0.081830159 0.041292466 0.23600002 -3.0213704e+38
-0.08106596 0.041292466 0.23600002 -2.9946304e+38
-0.080683865 0.041292466 0.23600002 -2.9946304e+38
-0.080301762 0.041292466 0.23600002 -2.9946304e+38
-0.079919666 0.041292466 0.23600002 -2.9946304e+38
-0.079155467 0.041292466 0.23600002 -3.0212152e+38
-0.078773372 0.041292466 0.23600002 -2.9946304e+38
-0.078391269 0.041292466 0.23600002 -3.0079748e+38
-0.077627078 0.041292466 0.23600002 -3.0213193e+38
-0.077572286 0.041467436 0.23700002 -3.0213193e+38
-0.077188566 0.041467436 0.23700002 -3.0480081e+38
-0.076804854 0.041467436 0.23700002 -3.0613525e+38
-0.076421134 0.041467436 0.23700002 -3.0613525e+38
-0.075653702 0.041467436 0.23700002 -3.0880413e+38
-0.075269982 0.041467436 0.23700002 -3.1013857e+38
-0.069273114 0.039367817 0.22500001 -3.088092e+38
-0.068544537 0.039367817 0.22500001 -3.0214215e+38
-0.068180248 0.039367817 0.22500001 -2.9280106e+38
-0.067815959 0.039367817 0.22500001 -2.7410841e+38
-0.064008445 0.039717752 0.22700001 -2.7811181e+38
-0.06392128 0.039892722 0.22800002 -3.1147283e+38
-0.063552134 0.039892722 0.22800002 -3.1548655e+38
-0.062813841 0.039892722 0.22800002 -3.1548144e+38
-0.062444694 0.039892722 0.22800002 -3.1815032e+38
-0.062075548 0.039892722 0.22800002 -3.1815032e+38
-0.061337255 0.039892722 0.22800002 -3.1947961e+38
-0.060968112 0.039892722 0.22800002 -3.1947961e+38
-0.060598966 0.039892722 0.22800002 -3.1816079e+38
-0.060229819 0.039892722 0.22800002 -3.1816079e+38
-0.059491526 0.039892722 0.22800002 -3.168315e+38
-0.053685442 0.04199234 0.24000001 -2.7549481e+38
-0.082176894 0.041851152 0.23700002 -3.1146767e+38
-0.081793182 0.041851152 0.23700002 -3.0079215e+38
-0.080683865 0.041674566 0.23600002 -2.9811816e+38
-0.080301762 0.041674566 0.23600002 -3.0078708e+38
-0.079919666 0.041674566 0.23600002 -3.0078708e+38
-0.079155467 0.041674566 0.23600002 -3.0212152e+38
-0.079107158 0.041851152 0.23700002 -2.9946304e+38
-0.078723438 0.041851152 0.23700002 -3.0079748e+38
-0.078339718 0.041851152 0.23700002 -3.0213193e+38
-0.077572286 0.041851152 0.23700002 -3.0346637e+38
-0.077188566 0.041851152 0.23700002 -3.0480081e+38
-0.076804854 0.041851152 0.23700002 -3.0613525e+38
-0.076421134 0.041851152 0.23700002 -3.0613525e+38
-0.075653702 0.041851152 0.23700002 -3.0880413e+38
-0.075269982 0.041851152 0.23700002 -3.1013857e+38
-0.069273114 0.039732106 0.22500001 -2.9545954e+38
-0.068544537 0.039732106 0.22500001 -2.8344953e+38
-0.068180248 0.039732106 0.22500001 -2.8211509e+38
-0.067815959 0.039732106 0.22500001 -2.6610692e+38
-0.064008445 0.040085278 0.22700001 -2.834756e+38
-0.06392128 0.040261868 0.22800002 -3.0749553e+38
-0.063552134 0.040261868 0.22800002 -3.1283329e+38
-0.062813841 0.040261868 0.22800002 -3.1815028e+38
-0.062444694 0.040261868 0.22800002 -3.1815028e+38
-0.062347803 0.040438455 0.22900002 -3.1815032e+38
-0.061337255 0.040261868 0.22800002 -3.1948476e+38
-0.060968112 0.040261868 0.22800002 -3.208192e+38
-0.060598966 0.040261868 0.22800002 -3.208192e+38
-0.060229819 0.040261868 0.22800002 -3.208192e+38
-0.10067648 0.047937468 0.26900002 -3.1679489e+38
-0.10024095 0.047937468 0.26900002 -3.1812933e+38
-0.099805422 0.047937468 0.26900002 -3.2213265e+38
-0.082523637 0.042413075 0.23800001 -3.2212758e+38
-0.081793182 0.042234872 0.23700002 -3.1011762e+38
-0.081025742 0.042234872 0.23700002 -2.9812331e+38
-0.08064203 0.042234872 0.23700002 -3.0078704e+38
-0.08025831 0.042234872 0.23700002 -3.0078704e+38
-0.07987459 0.042234872 0.23700002 -3.0212152e+38
-0.079107158 0.042234872 0.23700002 -2.9946304e+38
-0.078723438 0.042234872 0.23700002 -3.0079748e+38
-0.078339718 0.042234872 0.23700002 -3.0346637e+38
-0.077572286 0.042234872 0.23700002 -3.0480081e+38
-0.077188566 0.042234872 0.23700002 -3.0613525e+38
-0.076804854 0.042234872 0.23700002 -3.0880413e+38
-0.076421134 0.042234872 0.23700002 -3.0880413e+38
-0.075653702 0.042234872 0.23700002 -3.1013857e+38
-0.075269982 0.042234872 0.23700002 -3.1147297e+38
-0.074188188 0.042056661 0.23600002 -3.1147297e+38
-0.069273114 0.040096395 0.22500001 -2.8475791e+38
-0.068544537 0.040096395 0.22500001 -2.6607574e+38
-0.068180248 0.040096395 0.22500001 -2.6207242e+38
-0.06490165 0.040096395 0.22500001 -2.5677109e+38
-0.064537361 0.040096395 0.22500001 -2.8212546e+38
-0.064458288 0.040274601 0.22600001 -2.9014772e+38
-0.064375974 0.040452804 0.22700001 -3.0215768e+38
-0.064008445 0.040452804 0.22700001 -3.0616105e+38
-0.06392128 0.040631015 0.22800002 -3.0882993e+38
-0.063552134 0.040631015 0.22800002 -3.1283329e+38
-0.063460097 0.040809222 0.22900002 -3.1283329e+38
-0.06271857 0.040809222 0.22900002 -3.1549702e+38
-0.062347803 0.040809222 0.22900002 -3.1815028e+38
-0.06197704 0.040809222 0.22900002 -3.1948472e+38
-0.06123551 0.040809222 0.22900002 -3.221536e+38
-0.060598966 0.040631015 0.22800002 -3.2348804e+38
-0.060229819 0.040631015 0.22800002 -3.2348804e+38
-0.10073612 0.048193172 0.26800001 -3.1412601e+38
-0.10030221 0.048193172 0.26800001 -3.1412601e+38
-0.099868305 0.048193172 0.26800001 -3.1546049e+38
-0.099434398 0.048193172 0.26800001 -3.1546049e+38
-0.098566577 0.048193172 0.26800001 -3.2213269e+38
-0.09813267 0.048193172 0.26800001 -3.2214831e+38
-0.069273114 0.040460683 0.22500001 -2.7272702e+38
-0.06490165 0.040460683 0.22500001 -2.6879671e+38
-0.064824194 0.040640511 0.22600001 -3.0082328e+38
-0.063552134 0.041000158 0.22800002 -3.1283329e+38
-0.10160393 0.048627079 0.26800001 -3.1012269e+38
-0.10073612 0.048627079 0.26800001 -3.1279157e+38
-0.10030221 0.048627079 0.26800001 -3.1012269e+38
-0.099868305 0.048627079 0.26800001 -3.1279161e+38
-0.099434398 0.048627079 0.26800001 -3.1412605e+38
-0.098566577 0.048627079 0.26800001 -3.1946381e+38
-0.09813267 0.048627079 0.26800001 -3.2213269e+38
-0.0821383 0.043183748 0.23800001 -3.2081387e+38
-0.081752963 0.043183748 0.23800001 -3.0878318e+38
-0.08064203 0.043002304 0.23700002 -2.9946304e+38
-0.08025831 0.043002304 0.23700002 -2.9946304e+38
-0.07987459 0.043002304 0.23700002 -3.0213193e+38
-0.079107158 0.043002304 0.23700002 -2.9946304e+38
-0.078723438 0.043002304 0.23700002 -3.0079748e+38
-0.078339718 0.043002304 0.23700002 -3.0480081e+38
-0.077572286 0.043002304 0.23700002 -3.0480081e+38
-0.077188566 0.043002304 0.23700002 -3.0613525e+38
-0.076804854 0.043002304 0.23700002 -3.0880409e+38
-0.076421134 0.043002304 0.23700002 -3.0880409e+38
-0.075653702 0.043002304 0.23700002 -3.1013853e+38
-0.075269982 0.043002304 0.23700002 -3.1147297e+38
-0.074886262 0.043002304 0.23700002 -3.1147297e+38
-0.10425084 0.048877921 0.26700002 -3.1679489e+38
-0.10338626 0.048877921 0.26700002 -3.1012784e+38
-0.10252169 0.048877921 0.26700002 -3.1012784e+38
-0.1020894 0.048877921 0.26700002 -3.1012784e+38
-0.10160393 0.049060985 0.26800001 -3.1012269e+38
-0.10073612 0.049060985 0.26800001 -3.1012269e+38
-0.099927947 0.048877921 0.26700002 -3.0878825e+38
-0.099495657 0.048877921 0.26700002 -3.1012273e+38
-0.098631084 0.048877921 0.26700002 -3.1546049e+38
-0.098198794 0.048877921 0.26700002 -3.1679493e+38
-0.097400337 0.048694856 0.266 -3.1681055e+38
-0.081752963 0.043569084 0.23800001 -3.1279165e+38
-0.08098229 0.043569084 0.23800001 -3.0078704e+38
-0.080596954 0.043569084 0.23800001 -3.0078704e+38
-0.080211617 0.043569084 0.23800001 -3.0213188e+38
-0.07982628 0.043569084 0.23800001 -3.0213188e+38
-0.079055607 0.043569084 0.23800001 -3.0079748e+38
-0.078670271 0.043569084 0.23800001 -3.0480081e+38
-0.078284934 0.043569084 0.23800001 -3.0480081e+38
-0.077514261 0.043569084 0.23800001 -3.0613525e+38
-0.076804854 0.043386023 0.23700002 -3.0880409e+38
-0.076421134 0.043386023 0.23700002 -3.0880409e+38
-0.075653702 0.043386023 0.23700002 -3.1013853e+38
-0.075587578 0.043569084 0.23800001 -3.1147812e+38
-0.074886262 0.043386023 0.23700002 -3.1147812e+38
-0.068544537 0.041189261 0.22500001 -2.9281664e+38
-0.068180248 0.041189261 0.22500001 -2.9415108e+38
-0.067815959 0.041189261 0.22500001 -3.0213681e+38
-0.067451671 0.041189261 0.22500001 -2.7411356e+38
-0.081752963 0.043954421 0.23800001 -3.1946385e+38
-0.08098229 0.043954421 0.23800001 -3.0079219e+38
-0.080596954 0.043954421 0.23800001 -3.0079219e+38
-0.080211617 0.043954421 0.23800001 -3.0212663e+38
-0.07982628 0.043954421 0.23800001 -3.0212663e+38
-0.079055607 0.043954421 0.23800001 -2.9814933e+38
-0.078670271 0.043954421 0.23800001 -3.021475e+38
-0.078284934 0.043954421 0.23800001 -3.021475e+38
-0.077514261 0.043954421 0.23800001 -3.0348194e+38
-0.077128924 0.043954421 0.23800001 -3.0748526e+38
-0.076743588 0.043954421 0.23800001 -3.0748526e+38
-0.076358251 0.043954421 0.23800001 -3.0748526e+38
-0.075587578 0.043954421 0.23800001 -3.101593e+38
-0.075202242 0.043954421 0.23800001 -3.0882486e+38
-0.07450255 0.04376974 0.23700002 -3.0882486e+38
-0.069215089 0.041738231 0.22600001 -3.0349221e+38
-0.068180248 0.041553549 0.22500001 -2.9949931e+38
-0.067815959 0.041553549 0.22500001 -2.9947834e+38
-0.067451671 0.041553549 0.22500001 -2.8613393e+38
-0.10429106 0.049556199 0.266 -3.1547611e+38
-0.10386039 0.049556199 0.266 -3.1280723e+38
-0.10342972 0.049556199 0.266 -3.1147275e+38
-0.10122482 0.049742501 0.26700002 -3.0480054e+38
-0.10036024 0.049742501 0.26700002 -3.0480054e+38
-0.099927947 0.049742501 0.26700002 -3.0613498e+38
-0.099495657 0.049742501 0.26700002 -3.0613498e+38
-0.098261677 0.049556199 0.266 -3.1147275e+38
-0.097831003 0.049556199 0.266 -3.1147275e+38
-0.097766504 0.049742501 0.26700002 -3.1414167e+38
-0.097334214 0.049742501 0.26700002 -3.1681055e+38
-0.080596954 0.044339757 0.23800001 -3.0344541e+38
-0.080211617 0.044339757 0.23800001 -3.0213704e+38
-0.07982628 0.044339757 0.23800001 -3.008026e+38
-0.079055607 0.044339757 0.23800001 -2.9814933e+38
-0.078670271 0.044339757 0.23800001 -3.0215265e+38
-0.078284934 0.044339757 0.23800001 -3.0215265e+38
-0.077514261 0.044339757 0.23800001 -3.0348194e+38
-0.077128924 0.044339757 0.23800001 -3.0748526e+38
-0.076743588 0.044339757 0.23800001 -3.0748526e+38
-0.076358251 0.044339757 0.23800001 -3.088197e+38
-0.075202242 0.044339757 0.23800001 -3.0882486e+38
-0.074816905 0.044339757 0.23800001 -3.101593e+38
-0.069215089 0.04210414 0.22600001 -3.1015926e+38
-0.068483271 0.04210414 0.22600001 -3.0882482e+38
-0.06775146 0.04210414 0.22600001 -3.0215768e+38
-0.10432804 0.049798951 0.26500002 -3.1947943e+38
-0.10429106 0.049986869 0.266 -3.1547611e+38
-0.10386039 0.049986869 0.266 -3.1280723e+38
-0.10342972 0.049986869 0.266 -3.1280719e+38
-0.10256838 0.049986869 0.266 -3.0746942e+38
-0.10213771 0.049986869 0.266 -3.0613498e+38
-0.10170704 0.049986869 0.266 -3.0613498e+38
-0.10165711 0.050174791 0.26700002 -3.0480054e+38
-0.10122482 0.050174791 0.26700002 -3.0480054e+38
-0.10036024 0.050174791 0.26700002 -3.0480054e+38
-0.099927947 0.050174791 0.26700002 -3.0613498e+38
-0.09869235 0.049986869 0.266 -3.0746942e+38
-0.098261677 0.049986869 0.266 -3.101383e+38
-0.097831003 0.049986869 0.266 -3.1147275e+38
-0.097400337 0.049986869 0.266 -3.1414167e+38
-0.096538998 0.049986869 0.266 -3.1947943e+38
-0.076292127 0.044913013 0.23900001 -3.088197e+38
-0.10350692 0.050038461 0.264 -3.1547611e+38
-0.10346994 0.050228 0.26500002 -3.1414167e+38
-0.10261184 0.050228 0.26500002 -3.0746946e+38
-0.10218279 0.050228 0.26500002 -3.0746942e+38
-0.10213771 0.050417539 0.266 -3.0613498e+38
-0.10170704 0.050417539 0.266 -3.0613498e+38
-0.10127637 0.050417539 0.266 -3.0480054e+38
-0.10041503 0.050417539 0.266 -3.0480058e+38
-0.099984355 0.050417539 0.266 -3.0346614e+38
-0.099553689 0.050417539 0.266 -3.0480058e+38
-0.09869235 0.050417539 0.266 -3.0614543e+38
-0.098261677 0.050417539 0.266 -3.0881431e+38
-0.097831003 0.050417539 0.266 -3.1014875e+38
-0.097400337 0.050417539 0.266 -3.1148319e+38
-0.096538998 0.050417539 0.266 -3.1815543e+38
-0.080935597 0.04529997 0.23900001 -3.0611945e+38
-0.080211617 0.045110431 0.23800001 -3.0346103e+38
-0.07982628 0.045110431 0.23800001 -3.0346103e+38
-0.079055607 0.045110431 0.23800001 -3.0213704e+38
-0.078670271 0.045110431 0.23800001 -3.0480592e+38
-0.078613862 0.04529997 0.23900001 -3.0614036e+38
-0.078226909 0.04529997 0.23900001 -3.0880924e+38
-0.077452995 0.04529997 0.23900001 -3.1147297e+38
-0.077066042 0.04529997 0.23900001 -3.1147297e+38
-0.076679081 0.04529997 0.23900001 -3.088197e+38
-0.076292127 0.04529997 0.23900001 -3.1015415e+38
-0.075518221 0.04529997 0.23900001 -3.1149374e+38
-0.07513126 0.04529997 0.23900001 -3.1282818e+38
-0.074431568 0.045110431 0.23800001 -3.1282818e+38
-0.10268904 0.050274733 0.26300001 -3.1547607e+38
-0.10226322 0.050274733 0.26300001 -3.1147279e+38
-0.10183741 0.050274733 0.26300001 -3.1013835e+38
-0.10218279 0.050657053 0.26500002 -3.1013835e+38
-0.10175373 0.050657053 0.26500002 -3.0613502e+38
-0.10132468 0.050657053 0.26500002 -3.0613502e+38
-0.10046659 0.050657053 0.26500002 -3.0613502e+38
-0.10003753 0.050657053 0.26500002 -3.0480058e+38
-0.099608481 0.050657053 0.26500002 -3.0214211e+38
-0.098750383 0.050657053 0.26500002 -3.0347655e+38
-0.098321326 0.050657053 0.26500002 -3.0481099e+38
-0.097892277 0.050657053 0.26500002 -3.0614543e+38
-0.097463228 0.050657053 0.26500002 -3.1014875e+38
-0.096605122 0.050657053 0.26500002 -3.1281767e+38
-0.096538998 0.050848208 0.266 -3.1815543e+38
-0.095747024 0.050657053 0.26500002 -3.1948987e+38
-0.080548637 0.045686927 0.23900001 -3.0613506e+38
-0.080161683 0.045686927 0.23900001 -3.0480062e+38
-0.07977473 0.045686927 0.23900001 -3.02137e+38
-0.079000816 0.045686927 0.23900001 -3.0614032e+38
-0.078613862 0.045686927 0.23900001 -3.0614032e+38
-0.078226909 0.045686927 0.23900001 -3.1014364e+38
-0.077452995 0.045686927 0.23900001 -3.1281252e+38
-0.076679081 0.045686927 0.23900001 -3.1414696e+38
-0.076292127 0.045686927 0.23900001 -3.154814e+38
-0.07622277 0.045878086 0.24000001 -3.1683146e+38
-0.075445622 0.045878086 0.24000001 -3.1550744e+38
-0.074744307 0.045686927 0.23900001 -3.1550744e+38
-0.06214432 0.044157658 0.23100001 -2.9947834e+38
-0.061770316 0.044157658 0.23100001 -2.9680946e+38
-0.059783988 0.044348817 0.23200001 -2.9147165e+38
-0.07977473 0.04607388 0.23900001 -3.0614539e+38
-0.079000816 0.04607388 0.23900001 -3.1148319e+38
-0.078613862 0.04607388 0.23900001 -3.1281763e+38
-0.078226909 0.04607388 0.23900001 -3.1415207e+38
-0.063266329 0.044531658 0.23100001 -2.9947834e+38
-0.062518321 0.044531658 0.23100001 -2.9680946e+38
-0.06214432 0.044531658 0.23100001 -2.9680946e+38
-0.061770316 0.044531658 0.23100001 -2.9547502e+38
-0.060159612 0.044724438 0.23200001 -2.9280609e+38
-0.059783988 0.044724438 0.23200001 -2.9147165e+38
-0.059032746 0.044724438 0.23200001 -2.9147165e+38
-0.10226322 0.051126357 0.26300001 -3.1280719e+38
-0.10183741 0.051126357 0.26300001 -3.1147275e+38
-0.1014116 0.051126357 0.26300001 -3.101383e+38
-0.10136976 0.051320758 0.264 -3.0613498e+38
-0.10132468 0.051515155 0.26500002 -3.0746946e+38
-0.10046659 0.051515155 0.26500002 -3.0614543e+38
-0.10003753 0.051515155 0.26500002 -3.0481099e+38
-0.099608481 0.051515155 0.26500002 -3.0215772e+38
-0.098377734 0.051320758 0.264 -3.0082332e+38
-0.097950302 0.051320758 0.264 -3.0215776e+38
-0.097892277 0.051515155 0.26500002 -3.0349221e+38
-0.097463228 0.051515155 0.26500002 -3.0616109e+38
-0.096605122 0.051515155 0.26500002 -3.0882997e+38
-0.0616621 0.045100059 0.23200001 -2.9148731e+38
-0.061286479 0.045100059 0.23200001 -2.9015287e+38
-0.10187439 0.051356155 0.26200002 -3.1414163e+38
-0.1014502 0.051356155 0.26200002 -3.1147275e+38
-0.1014116 0.051552173 0.26300001 -3.101383e+38
-0.10055997 0.051552173 0.26300001 -3.0746946e+38
-0.10013416 0.051552173 0.26300001 -3.0746946e+38
-0.10008746 0.051748186 0.264 -3.0481099e+38
-0.099660031 0.051748186 0.264 -3.0481099e+38
-0.099232599 0.051748186 0.264 -3.0349216e+38
-0.098377734 0.051748186 0.264 -3.0082332e+38
-0.097950302 0.051748186 0.264 -3.0215776e+38
-0.09752287 0.051748186 0.264 -3.0215776e+38
-0.096668005 0.051748186 0.264 -3.0616109e+38
-0.096240573 0.051748186 0.264 -3.0749553e+38
-0.095813148 0.051748186 0.264 -3.1415207e+38
-0.10060181 0.051780351 0.26200002 -3.0614539e+38
-0.10017762 0.051780351 0.26200002 -3.0614539e+38
-0.099753417 0.051780351 0.26200002 -3.0614539e+38
-0.099329226 0.051780351 0.26200002 -3.0481095e+38
-0.099660031 0.052175619 0.264 -3.0481095e+38
-0.099232599 0.052175619 0.264 -3.0215772e+38
-0.098005094 0.051977985 0.26300001 -3.0082332e+38
-0.097579278 0.051977985 0.26300001 -3.0082332e+38
-0.096727654 0.051977985 0.26300001 -3.0616109e+38
-0.096301839 0.051977985 0.26300001 -3.0349221e+38
-0.096240573 0.052175619 0.264 -3.0749553e+38
-0.095813148 0.052175619 0.264 -3.1281763e+38
-0.095385715 0.052175619 0.264 -3.1548651e+38
-0.064290427 0.045060761 0.22800002 -2.9547502e+38
-0.064201631 0.045258399 0.22900002 -2.9547502e+38
-0.063640334 0.045653667 0.23100001 -2.9148731e+38
-0.063164584 0.045851305 0.23200001 -2.9148731e+38
-0.062037721 0.045851305 0.23200001 -2.9148731e+38
-0.0616621 0.045851305 0.23200001 -2.9148731e+38
-0.061286479 0.045851305 0.23200001 -2.9015287e+38
-0.064375974 0.045230653 0.22700001 -2.9414057e+38
-0.064290427 0.045429908 0.22800002 -2.9414057e+38
-0.06392128 0.045429908 0.22800002 -2.9414057e+38
-0.063640334 0.046027672 0.23100001 -2.9148731e+38
-0.063540213 0.046226926 0.23200001 -2.9148731e+38
-0.063164584 0.046226926 0.23200001 -2.9148731e+38
-0.063059606 0.046426177 0.23300001 -2.9148731e+38
-0.062305126 0.046426177 0.23300001 -2.9148731e+38
-0.0616621 0.046226926 0.23200001 -2.9015287e+38
-0.061286479 0.046226926 0.23200001 -2.9015287e+38
-0.060535233 0.046226926 0.23200001 -2.8881843e+38
-0.060159612 0.046226926 0.23200001 -2.9015287e+38
-0.059783988 0.046226926 0.23200001 -2.8748399e+38
-0.10060181 0.052628737 0.26200002 -3.0881427e+38
-0.10017762 0.052628737 0.26200002 -3.0614539e+38
-0.099753417 0.052628737 0.26200002 -3.0614539e+38
-0.099329226 0.052628737 0.26200002 -3.0481095e+38
-0.098480836 0.052628737 0.26200002 -3.0215768e+38
-0.098056644 0.052628737 0.26200002 -3.0082324e+38
-0.098005094 0.052829608 0.26300001 -3.0082328e+38
-0.097579278 0.052829608 0.26300001 -3.0082328e+38
-0.096727654 0.052829608 0.26300001 -3.0349216e+38
-0.096301839 0.052829608 0.26300001 -3.0881431e+38
-0.095876031 0.052829608 0.26300001 -3.0881431e+38
-0.064290427 0.045799054 0.22800002 -2.9148731e+38
-0.06392128 0.045799054 0.22800002 -2.9148731e+38
-0.063915834 0.046602547 0.23200001 -2.9148731e+38
-0.063814089 0.046803419 0.23300001 -2.9015287e+38
-0.063436851 0.046803419 0.23300001 -2.9148731e+38
-0.063059606 0.046803419 0.23300001 -2.9148731e+38
-0.062305126 0.046803419 0.23300001 -2.9148731e+38
-0.061927885 0.046803419 0.23300001 -2.9015287e+38
-0.061286479 0.046602547 0.23200001 -2.9015287e+38
-0.060535233 0.046602547 0.23200001 -2.8881843e+38
-0.060159612 0.046602547 0.23200001 -2.8749441e+38
-0.059783988 0.046602547 0.23200001 -2.8482553e+38
-0.098527528 0.05285044 0.26100001 -3.0614539e+38
-0.098480836 0.053052932 0.26200002 -3.0215768e+38
-0.098056644 0.053052932 0.26200002 -3.0082324e+38
-0.097632453 0.053052932 0.26200002 -3.0082328e+38
-0.096784063 0.053052932 0.26200002 -3.0082328e+38
-0.096727654 0.053255424 0.26300001 -3.0349216e+38
-0.096301839 0.053255424 0.26300001 -3.0614543e+38
-0.095876031 0.053255424 0.26300001 -3.0881431e+38
-0.064975865 0.045358233 0.22400001 -2.9547502e+38
-0.064613201 0.045358233 0.22400001 -2.928166e+38
-0.064250529 0.045358233 0.22400001 -2.928166e+38
-0.063525192 0.045358233 0.22400001 -2.928166e+38
-0.099795252 0.053273018 0.26100001 -3.0881427e+38
-0.099372678 0.053273018 0.26100001 -3.0614539e+38
-0.098527528 0.053273018 0.26100001 -3.0614539e+38
-0.098104954 0.053273018 0.26100001 -3.0215768e+38
-0.097682379 0.053273018 0.26100001 -3.0215768e+38
-0.09683723 0.053273018 0.26100001 -3.0082328e+38
-0.096414655 0.053273018 0.26100001 -3.0481099e+38
-0.095992081 0.053273018 0.26100001 -3.0614543e+38
-0.095935673 0.053477127 0.26200002 -3.0614543e+38
-0.095511481 0.053477127 0.26200002 -3.0881431e+38
-0.075208396 0.049599014 0.24300002 -2.9947834e+38
-0.064375974 0.046333235 0.22700001 -2.9148216e+38
-0.064290427 0.046537347 0.22800002 -2.9014772e+38
-0.064201631 0.04674146 0.22900002 -2.9014772e+38
-0.064667076 0.047353793 0.23200001 -2.9148731e+38
-0.064568572 0.047557902 0.23300001 -2.9148731e+38
-0.063814089 0.047557902 0.23300001 -2.9148731e+38
-0.063436851 0.047557902 0.23300001 -2.9015287e+38
-0.063059606 0.047557902 0.23300001 -2.9015287e+38
-0.062305126 0.047557902 0.23300001 -2.9015287e+38
-0.061927885 0.047557902 0.23300001 -2.8881843e+38
-0.061550643 0.047557902 0.23300001 -2.9015287e+38
-0.060535233 0.047353793 0.23200001 -2.8615997e+38
-0.099412896 0.053489856 0.26000002 -3.0881427e+38
-0.098570988 0.053489856 0.26000002 -3.0614539e+38
-0.09815003 0.053489856 0.26000002 -3.0881427e+38
-0.097729072 0.053489856 0.26000002 -3.0481095e+38
-0.097308122 0.053489856 0.26000002 -3.0481095e+38
-0.096466206 0.053489856 0.26000002 -2.9948884e+38
-0.096414655 0.053695593 0.26100001 -3.0481099e+38
-0.095992081 0.053695593 0.26100001 -3.0614543e+38
-0.095569506 0.053695593 0.26100001 -3.0481099e+38
-0.094361432 0.053489856 0.26000002 -3.1148319e+38
-0.094663091 0.053901322 0.26200002 -3.1281763e+38
-0.076388687 0.049992446 0.24300002 -3.0080763e+38
-0.076307997 0.050198175 0.24400002 -3.0080763e+38
-0.075208396 0.049992446 0.24300002 -2.9947319e+38
-0.07481496 0.049992446 0.24300002 -2.9680946e+38
-0.064613201 0.046083573 0.22400001 -2.928166e+38
-0.064250529 0.046083573 0.22400001 -2.9148216e+38
-0.064290427 0.046906494 0.22800002 -2.9014772e+38
-0.064945817 0.047935143 0.23300001 -2.9148731e+38
-0.064568572 0.047935143 0.23300001 -2.9148731e+38
-0.063814089 0.047935143 0.23300001 -2.9148731e+38
-0.063436851 0.047935143 0.23300001 -2.9015287e+38
-0.063059606 0.047935143 0.23300001 -2.9148731e+38
-0.062305126 0.047935143 0.23300001 -2.9015287e+38
-0.061927885 0.047935143 0.23300001 -2.8615997e+38
-0.061550643 0.047935143 0.23300001 -2.8749441e+38
-0.077962421 0.050385877 0.24300002 -3.0214207e+38
-0.077568986 0.050385877 0.24300002 -3.0347651e+38
-0.076782122 0.050385877 0.24300002 -2.9947319e+38
-0.076703049 0.050593227 0.24400002 -2.9947319e+38
-0.076307997 0.050593227 0.24400002 -2.9947319e+38
-0.075912945 0.050593227 0.24400002 -3.0080763e+38
-0.07481496 0.050385877 0.24300002 -2.9680946e+38
-0.064572394 0.04748299 0.22900002 -2.9015287e+38
-0.065042697 0.048105035 0.23200001 -2.9015287e+38
-0.064945817 0.048312385 0.23300001 -2.8882885e+38
-0.064568572 0.048312385 0.23300001 -2.8882885e+38
-0.064466834 0.048519734 0.23400001 -2.8749441e+38
-0.06370911 0.048519734 0.23400001 -2.8749441e+38
-0.063330248 0.048519734 0.23400001 -2.8749441e+38
-0.062951393 0.048519734 0.23400001 -2.9015287e+38
-0.062572531 0.048519734 0.23400001 -2.9015287e+38
-0.061550643 0.048312385 0.23300001 -2.8749441e+38
-0.10067576 0.054331768 0.26000002 -3.2081387e+38
-0.10025481 0.054331768 0.26000002 -3.1548651e+38
-0.099833854 0.054331768 0.26000002 -3.1415207e+38
-0.098611206 0.054122802 0.259 -3.1014875e+38
-0.098191865 0.054122802 0.259 -3.0749549e+38
-0.097772531 0.054122802 0.259 -3.0616105e+38
-0.09735319 0.054122802 0.259 -3.0215772e+38
-0.097308122 0.054331768 0.26000002 -3.0215772e+38
-0.096466206 0.054331768 0.26000002 -3.0215772e+38
-0.096045248 0.054331768 0.26000002 -3.0347655e+38
-0.095624298 0.054331768 0.26000002 -3.0614543e+38
-0.094782382 0.054331768 0.26000002 -3.0614543e+38
-0.094361432 0.054331768 0.26000002 -3.0749549e+38
-0.093940474 0.054331768 0.26000002 -3.0882993e+38
-0.065397859 0.047644783 0.22800002 -2.928166e+38
-0.065323055 0.048689626 0.23300001 -2.8749441e+38
-0.065224551 0.048898593 0.23400001 -2.8882885e+38
-0.064845689 0.048898593 0.23400001 -2.8882885e+38
-0.064466834 0.048898593 0.23400001 -2.8749441e+38
-0.06370911 0.048898593 0.23400001 -2.8882885e+38
-0.06360089 0.049107563 0.23500001 -2.8749441e+38
-0.063220412 0.049107563 0.23500001 -2.8749441e+38
-0.062572531 0.048898593 0.23400001 -2.8615997e+38
-0.061814811 0.048898593 0.23400001 -2.8749441e+38
-0.061173402 0.048689626 0.23300001 -2.8615997e+38
-0.10070789 0.054542139 0.259 -3.2348279e+38
-0.10028855 0.054542139 0.259 -3.2081391e+38
-0.099869214 0.054542139 0.259 -3.1815543e+38
-0.09944988 0.054542139 0.259 -3.1415211e+38
-0.098611206 0.054542139 0.259 -3.1014875e+38
-0.098191865 0.054542139 0.259 -3.0881427e+38
-0.097772531 0.054542139 0.259 -3.0614539e+38
-0.09735319 0.054542139 0.259 -3.0215768e+38
-0.096514523 0.054542139 0.259 -3.0349216e+38
-0.096095182 0.054542139 0.259 -3.0082328e+38
-0.095675848 0.054542139 0.259 -3.0082328e+38
-0.094837174 0.054542139 0.259 -3.0614543e+38
-0.094417833 0.054542139 0.259 -3.0614543e+38
-0.093998499 0.054542139 0.259 -3.0749549e+38
-0.093579166 0.054542139 0.259 -3.0882993e+38
-0.07828325 0.051383328 0.24400002 -3.0214207e+38
-0.077888198 0.051383328 0.24400002 -3.0214207e+38
-0.077493146 0.051383328 0.24400002 -3.0080763e+38
-0.076703049 0.051383328 0.24400002 -2.9947319e+38
-0.076307997 0.051383328 0.24400002 -2.9947319e+38
-0.075912945 0.051383328 0.24400002 -2.9681992e+38
-0.10070789 0.054961476 0.259 -3.2481723e+38
-0.10028855 0.054961476 0.259 -3.2081391e+38
-0.099869214 0.054961476 0.259 -3.1948987e+38
-0.09944988 0.054961476 0.259 -3.1415211e+38
-0.098611206 0.054961476 0.259 -3.1148319e+38
-0.098191865 0.054961476 0.259 -3.1014871e+38
-0.097772531 0.054961476 0.259 -3.0881427e+38
-0.096559592 0.054749273 0.25800002 -3.0215768e+38
-0.096141875 0.054749273 0.25800002 -3.0349216e+38
-0.095724158 0.054749273 0.25800002 -3.0082328e+38
-0.095675848 0.054961476 0.259 -3.0215772e+38
-0.094837174 0.054961476 0.259 -3.0614543e+38
-0.094417833 0.054961476 0.259 -3.0614543e+38
-0.07828325 0.051778376 0.24400002 -2.9815436e+38
-0.077888198 0.051778376 0.24400002 -2.9815436e+38
-0.077493146 0.051778376 0.24400002 -2.9815436e+38
-0.076703049 0.051778376 0.24400002 -2.9681992e+38
-0.076307997 0.051778376 0.24400002 -2.9415104e+38
-0.075912945 0.051778376 0.24400002 -2.9815436e+38
-0.067380361 0.049019694 0.23100001 -2.9148216e+38
-0.067006357 0.049019694 0.23100001 -2.928166e+38
-0.06663236 0.049019694 0.23100001 -2.9148216e+38
-0.065884352 0.049019694 0.23100001 -2.9148216e+38
-0.065793939 0.049231902 0.23200001 -2.9148216e+38
-0.065418318 0.049231902 0.23200001 -2.888237e+38
-0.065323055 0.049444105 0.23300001 -2.8748926e+38
-0.064945817 0.049444105 0.23300001 -2.8749967e+38
-0.064845689 0.049656313 0.23400001 -2.8749967e+38
-0.064742334 0.04986852 0.23500001 -2.8749967e+38
-0.064361855 0.04986852 0.23500001 -2.8749967e+38
-0.063220412 0.04986852 0.23500001 -2.8749441e+38
-0.062839933 0.04986852 0.23500001 -2.8749441e+38
-0.099901333 0.05516699 0.25800002 -3.2214831e+38
-0.099483617 0.05516699 0.25800002 -3.2214831e+38
-0.098648183 0.05516699 0.25800002 -3.1281763e+38
-0.098230466 0.05516699 0.25800002 -3.1148319e+38
-0.097812749 0.05516699 0.25800002 -3.1014871e+38
-0.097395033 0.05516699 0.25800002 -3.0881427e+38
-0.096559592 0.05516699 0.25800002 -3.0481095e+38
-0.096141875 0.05516699 0.25800002 -3.0349216e+38
-0.095724158 0.05516699 0.25800002 -3.0082328e+38
-0.094888724 0.05516699 0.25800002 -3.0349216e+38
-0.094471008 0.05516699 0.25800002 -3.0215772e+38
-0.094053291 0.05516699 0.25800002 -3.0349216e+38
-0.093635574 0.05516699 0.25800002 -3.0749549e+38
-0.07828325 0.052173428 0.24400002 -2.9815436e+38
-0.077888198 0.052173428 0.24400002 -2.9815436e+38
-0.077493146 0.052173428 0.24400002 -2.9681992e+38
-0.076703049 0.052173428 0.24400002 -2.9681992e+38
-0.076307997 0.052173428 0.24400002 -2.9415104e+38
-0.075912945 0.052173428 0.24400002 -2.9815436e+38
-0.068798922 0.049607523 0.23200001 -2.9148731e+38
-0.068423301 0.049607523 0.23200001 -2.9148731e+38
-0.067672051 0.049607523 0.23200001 -2.928166e+38
-0.06729643 0.049607523 0.23200001 -2.928166e+38
-0.066920809 0.049607523 0.23200001 -2.928166e+38
-0.066545188 0.049607523 0.23200001 -2.9148216e+38
-0.065793939 0.049607523 0.23200001 -2.888237e+38
-0.065418318 0.049607523 0.23200001 -2.8749967e+38
-0.065323055 0.049821347 0.23300001 -2.8749967e+38
-0.065224551 0.050035175 0.23400001 -2.8883411e+38
-0.064845689 0.050035175 0.23400001 -2.8749967e+38
-0.064742334 0.050249003 0.23500001 -2.8883411e+38
-0.064361855 0.050249003 0.23500001 -2.8883411e+38
-0.06360089 0.050249003 0.23500001 -2.8749967e+38
-0.076703049 0.05256848 0.24400002 -2.9415104e+38
-0.076307997 0.05256848 0.24400002 -2.9415104e+38
-0.076224066 0.052783925 0.245 -2.9815436e+38
-0.075827397 0.052783925 0.245 -2.9415104e+38
-0.068798922 0.049983148 0.23200001 -2.9148731e+38
-0.068423301 0.049983148 0.23200001 -2.9148731e+38
-0.067672051 0.049983148 0.23200001 -2.928166e+38
-0.06729643 0.049983148 0.23200001 -2.928166e+38
-0.066920809 0.049983148 0.23200001 -2.928166e+38
-0.066545188 0.049983148 0.23200001 -2.9148216e+38
-0.065793939 0.049983148 0.23200001 -2.888237e+38
-0.065418318 0.049983148 0.23200001 -2.8749967e+38
-0.065323055 0.050198589 0.23300001 -2.8749967e+38
-0.065224551 0.050414033 0.23400001 -2.8883411e+38
-0.064845689 0.050414033 0.23400001 -2.8749967e+38
-0.064742334 0.050629482 0.23500001 -2.8749967e+38
-0.064361855 0.050629482 0.23500001 -2.8883411e+38
-0.06360089 0.050629482 0.23500001 -2.8749967e+38
-0.061698496 0.050629482 0.23500001 -2.8483079e+38
-0.061318018 0.050629482 0.23500001 -2.8616523e+38
-0.098648183 0.056002423 0.25800002 -3.1547607e+38
-0.098230466 0.056002423 0.25800002 -3.1414163e+38
-0.097812749 0.056002423 0.25800002 -3.1147275e+38
-0.097395033 0.056002423 0.25800002 -3.1147275e+38
-0.096559592 0.056002423 0.25800002 -3.0881427e+38
-0.096141875 0.056002423 0.25800002 -3.0616105e+38
-0.095724158 0.056002423 0.25800002 -3.0215772e+38
-0.094888724 0.056002423 0.25800002 -3.0349216e+38
-0.097849727 0.056201454 0.257 -3.1414163e+38
-0.096601434 0.056201454 0.257 -3.0881427e+38
-0.096185334 0.056201454 0.257 -3.0881427e+38
-0.095769234 0.056201454 0.257 -3.0616105e+38
-0.095724158 0.056420144 0.25800002 -3.0215772e+38
-0.094888724 0.056420144 0.25800002 -3.0616105e+38
-0.076703049 0.053358581 0.24400002 -2.9415104e+38
-0.076307997 0.053358581 0.24400002 -2.9681992e+38
-0.076224066 0.053577263 0.245 -2.9681992e+38
-0.075827397 0.053577263 0.245 -2.9415104e+38
-0.066545188 0.05073439 0.23200001 -2.8882885e+38
-0.065793939 0.05073439 0.23200001 -2.8882885e+38
-0.062725239 0.051609121 0.23600002 -2.8749967e+38
-0.062343143 0.051609121 0.23600002 -2.8483079e+38
-0.061578944 0.051609121 0.23600002 -2.8616523e+38
-0.061196849 0.051609121 0.23600002 -2.8616523e+38
-0.060814749 0.051609121 0.23600002 -2.8616523e+38
-0.096601434 0.056617554 0.257 -3.0881427e+38
-0.096185334 0.056617554 0.257 -3.0614539e+38
-0.095769234 0.056617554 0.257 -3.0616105e+38
-0.094937034 0.056617554 0.257 -3.0349216e+38
-0.094520934 0.056617554 0.257 -3.0616105e+38
-0.077493146 0.053753633 0.24400002 -2.9681992e+38
-0.077414073 0.053973932 0.245 -2.9681992e+38
-0.076620735 0.053973932 0.245 -2.9681992e+38
-0.076224066 0.053973932 0.245 -2.9681992e+38
-0.075827397 0.053973932 0.245 -2.9415104e+38
-0.067963742 0.051330313 0.23300001 -2.9148731e+38
-0.066832021 0.051330313 0.23300001 -2.9148731e+38
-0.066454776 0.051330313 0.23300001 -2.9148731e+38
-0.062725239 0.051991217 0.23600002 -2.8616523e+38
-0.062343143 0.051991217 0.23600002 -2.8483079e+38
-0.061578944 0.051991217 0.23600002 -2.8616523e+38
-0.061196849 0.051991217 0.23600002 -2.8616523e+38
-0.060814749 0.051991217 0.23600002 -2.8616523e+38
-0.060050551 0.051991217 0.23600002 -2.8616523e+38
-0.058140062 0.051991217 0.23600002 -2.8615997e+38
-0.07828325 0.054148681 0.24400002 -3.0080763e+38
-0.077888198 0.054148681 0.24400002 -3.0080763e+38
-0.077493146 0.054148681 0.24400002 -2.9681992e+38
-0.077414073 0.054370601 0.245 -2.9681992e+38
-0.076620735 0.054370601 0.245 -2.9681996e+38
-0.076224066 0.054370601 0.245 -2.9415104e+38
-0.075827397 0.054370601 0.245 -2.9415104e+38
-0.066832021 0.051707555 0.23300001 -2.9148731e+38
-0.066361129 0.051929474 0.23400001 -2.9148731e+38
-0.064742334 0.052151397 0.23500001 -2.8749441e+38
-0.061196849 0.052373316 0.23600002 -2.8749967e+38
-0.060814749 0.052373316 0.23600002 -2.8749967e+38
-0.058770135 0.052595239 0.23700002 -2.835015e+38
-0.058002699 0.052595239 0.23700002 -2.8615997e+38
-0.094937034 0.057449751 0.257 -3.0083375e+38
-0.094520934 0.057449751 0.257 -3.0350263e+38
-0.094104841 0.057449751 0.257 -3.0083371e+38
-0.093688741 0.057449751 0.257 -3.0083371e+38
-0.065503292 0.052531876 0.23500001 -2.8882885e+38
-0.065122813 0.052531876 0.23500001 -2.8882885e+38
-0.064742334 0.052531876 0.23500001 -2.8749441e+38
-0.062343143 0.052755415 0.23600002 -2.8616523e+38
-0.061578944 0.052755415 0.23600002 -2.8616523e+38
-0.061196849 0.052755415 0.23600002 -2.8749967e+38
-0.060814749 0.052755415 0.23600002 -2.8749967e+38
-0.060688723 0.052978955 0.23700002 -2.8616523e+38
-0.059921287 0.052978955 0.23700002 -2.8616523e+38
-0.059537571 0.052978955 0.23700002 -2.8483079e+38
-0.058770135 0.052978955 0.23700002 -2.835015e+38
-0.058002699 0.052978955 0.23700002 -2.8615997e+38
-0.094567634 0.057640694 0.25600001 -3.0083375e+38
-0.094153151 0.057640694 0.25600001 -3.0083375e+38
-0.077493146 0.054938786 0.24400002 -2.9815436e+38
-0.077414073 0.055163942 0.245 -2.9815436e+38
-0.076620735 0.055163942 0.245 -2.9681996e+38
-0.076224066 0.055163942 0.245 -2.9681992e+38
-0.076136895 0.055389103 0.24600001 -2.9681992e+38
-0.053119674 0.057640694 0.25600001 -2.6351087e+38
-0.052494977 0.057865851 0.257 -2.6617979e+38
-0.05207888 0.057865851 0.257 -2.6884867e+38
-0.051863804 0.058091011 0.25800002 -2.7018311e+38
-0.051446084 0.058091011 0.25800002 -2.7018311e+38
-0.095885031 0.057601612 0.25400001 -3.1414163e+38
-0.095436804 0.057828397 0.25500003 -3.0881427e+38
-0.094611086 0.057828397 0.25500003 -3.0616105e+38
-0.094198227 0.057828397 0.25500003 -2.9950971e+38
-0.093785368 0.057828397 0.25500003 -2.9950971e+38
-0.092959642 0.057828397 0.25500003 -2.9950967e+38
-0.092909716 0.058055174 0.25600001 -3.0350259e+38
-0.092495233 0.058055174 0.25600001 -3.0350259e+38
-0.07828325 0.055333834 0.24400002 -3.0082324e+38
-0.077888198 0.055333834 0.24400002 -3.0082324e+38
-0.077493146 0.055333834 0.24400002 -2.9815436e+38
-0.077414073 0.055560611 0.245 -2.9815436e+38
-0.076620735 0.055560611 0.245 -2.9681996e+38
-0.076224066 0.055560611 0.245 -2.9681992e+38
-0.076136895 0.055787392 0.24600001 -2.9681992e+38
-0.075738609 0.055787392 0.24600001 -2.9416147e+38
-0.075646572 0.056014169 0.24700001 -2.9149258e+38
-0.074846759 0.056014169 0.24700001 -2.9149258e+38
-0.061578944 0.053519614 0.23600002 -2.8616523e+38
-0.059921287 0.053746391 0.23700002 -2.8616523e+38
-0.059537571 0.053746391 0.23700002 -2.8616523e+38
-0.059153851 0.053746391 0.23700002 -2.8483079e+38
