# .PCD v0.7 - Point Cloud Data file format
VERSION 0.7
FIELDS x y z rgb
SIZE 4 4 4 4
TYPE F F F F
COUNT 1 1 1 1
WIDTH 969
HEIGHT 1
VIEWPOINT 0 0 0 1 0 0 0
POINTS 969
DATA ascii
-0.079143293 0.031658884 0.264 -2.7413468e+38
-0.078715861 0.031658884 0.264 -2.7281064e+38
-0.078288428 0.031658884 0.264 -2.7681396e+38
-0.081089795 0.033337764 0.27800003 -2.9415132e+38
-0.080929764 0.033457685 0.27900001 -2.9415132e+38
-0.080026329 0.033457685 0.27900001 -2.9816505e+38
-0.070698783 0.031898726 0.266 -2.8614997e+38
-0.070268117 0.031898726 0.266 -2.8481553e+38
-0.070099995 0.032018647 0.26700002 -2.8480513e+38
-0.069667704 0.032018647 0.26700002 -2.8213625e+38
-0.068803124 0.032018647 0.26700002 -2.8346026e+38
-0.068370834 0.032018647 0.26700002 -2.8346542e+38
-0.067938544 0.032018647 0.26700002 -2.8346542e+38
-0.067073971 0.032018647 0.26700002 -2.8079653e+38
-0.066641681 0.032018647 0.26700002 -2.7680364e+38
-0.065961413 0.031898726 0.266 -2.754692e+38
-0.065100074 0.031898726 0.266 -2.7013143e+38
-0.0646694 0.031898726 0.266 -2.6879699e+38
-0.064238735 0.031898726 0.266 -2.6612811e+38
-0.11444775 0.034760177 0.28600001 -2.9945231e+38
-0.11352164 0.034760177 0.28600001 -2.8743194e+38
-0.1130586 0.034760177 0.28600001 -2.8606635e+38
-0.11259554 0.034760177 0.28600001 -2.8339747e+38
-0.11213249 0.034760177 0.28600001 -2.7672531e+38
-0.1120599 0.034881718 0.287 -2.7672531e+38
-0.08785598 0.029290916 0.24100001 -2.5008341e+38
-0.087465785 0.029290916 0.24100001 -2.4742493e+38
-0.0874369 0.029412458 0.24200001 -2.4742493e+38
-0.087045088 0.029412458 0.24200001 -2.4742493e+38
-0.087011345 0.029533997 0.24300002 -2.4742493e+38
-0.086617917 0.029533997 0.24300002 -2.4609053e+38
-0.086579315 0.029655535 0.24400002 -2.4609053e+38
-0.08719559 0.030141693 0.24800001 -2.4475609e+38
-0.08714404 0.030263232 0.24900001 -2.420821e+38
-0.087089255 0.03038477 0.25 -2.3941322e+38
-0.087031223 0.030506309 0.25100002 -2.3675995e+38
-0.086624838 0.030506309 0.25100002 -2.3542551e+38
-0.086218454 0.030506309 0.25100002 -2.3409107e+38
-0.085405692 0.030506309 0.25100002 -2.3542551e+38
-0.084999308 0.030506309 0.25100002 -2.3542551e+38
-0.083297931 0.030627847 0.252 -2.3943395e+38
-0.082889929 0.030627847 0.252 -2.4076839e+38
-0.082481921 0.030627847 0.252 -2.4076324e+38
-0.081665918 0.030627847 0.252 -2.3810482e+38
-0.081257917 0.030627847 0.252 -2.3943926e+38
-0.081170745 0.030749388 0.25300002 -2.4078411e+38
-0.081399553 0.030992465 0.25500003 -2.4211855e+38
-0.082469687 0.0317217 0.26100001 -2.4612187e+38
-0.082361467 0.031843241 0.26200002 -2.4612187e+38
-0.082250014 0.031964775 0.26300001 -2.4612187e+38
-0.081824198 0.031964775 0.26300001 -2.4878034e+38
-0.080972575 0.031964775 0.26300001 -2.5545255e+38
-0.080546759 0.031964775 0.26300001 -2.6212475e+38
-0.079816304 0.031843241 0.26200002 -2.6746247e+38
-0.078967914 0.031843241 0.26200002 -2.7680356e+38
-0.078543723 0.031843241 0.26200002 -2.8214132e+38
-0.078715861 0.032086316 0.264 -2.808329e+38
-0.078288428 0.032086316 0.264 -2.8350178e+38
-0.081089795 0.033787865 0.27800003 -2.9683061e+38
-0.080929764 0.033909403 0.27900001 -2.9816505e+38
-0.070167221 0.032086316 0.264 -2.8614997e+38
-0.069312356 0.032086316 0.264 -2.8879803e+38
-0.069145851 0.032207858 0.26500002 -2.847947e+38
-0.068976104 0.032329395 0.266 -2.8346026e+38
-0.068803124 0.032450933 0.26700002 -2.847947e+38
-0.068370834 0.032450933 0.26700002 -2.847947e+38
-0.067253426 0.032329395 0.266 -2.8213097e+38
-0.066822752 0.032329395 0.266 -2.8079653e+38
-0.066392086 0.032329395 0.266 -2.7680364e+38
-0.065961413 0.032329395 0.266 -2.754692e+38
-0.064855345 0.032207858 0.26500002 -2.7146588e+38
-0.064426288 0.032207858 0.26500002 -2.7013143e+38
-0.053909134 0.029290916 0.24100001 -2.7012628e+38
-0.053296868 0.029169381 0.24000001 -2.7679849e+38
-0.053128745 0.029290916 0.24100001 -2.7947252e+38
-0.052738551 0.029290916 0.24100001 -2.821414e+38
-0.051958162 0.029290916 0.24100001 -2.8481028e+38
-0.051781945 0.029412458 0.24200001 -2.9412524e+38
-0.051390134 0.029412458 0.24200001 -3.0346633e+38
-0.11450902 0.035100073 0.28500003 -3.1010701e+38
-0.11444775 0.035223227 0.28600001 -2.9542816e+38
-0.11352164 0.035223227 0.28600001 -2.7806482e+38
-0.11266329 0.035100073 0.28500003 -2.7539079e+38
-0.11220186 0.035100073 0.28500003 -2.7138746e+38
-0.11213249 0.035223227 0.28600001 -2.7138754e+38
-0.11120639 0.035223227 0.28600001 -2.660654e+38
-0.08785598 0.029681111 0.24100001 -2.5008341e+38
-0.087494016 0.030789535 0.25 -2.434165e+38
-0.087437607 0.030912694 0.25100002 -2.3941318e+38
-0.087031223 0.030912694 0.25100002 -2.3675995e+38
-0.086624838 0.030912694 0.25100002 -2.3542551e+38
-0.086218454 0.030912694 0.25100002 -2.3409107e+38
-0.085405692 0.030912694 0.25100002 -2.3276706e+38
-0.084999308 0.030912694 0.25100002 -2.3276706e+38
-0.083218858 0.03115901 0.25300002 -2.3677549e+38
-0.082809232 0.03115901 0.25300002 -2.3810478e+38
-0.082399614 0.03115901 0.25300002 -2.3810478e+38
-0.081580363 0.03115901 0.25300002 -2.3810482e+38
-0.081491575 0.031282168 0.25400001 -2.4078411e+38
-0.081399553 0.031405326 0.25500003 -2.4211855e+38
-0.082153708 0.032021116 0.26000002 -2.4612187e+38
-0.0813118 0.032021116 0.26000002 -2.4879075e+38
-0.081201963 0.032144275 0.26100001 -2.5412851e+38
-0.080779389 0.032144275 0.26100001 -2.5679739e+38
-0.080048934 0.032021116 0.26000002 -2.6613848e+38
-0.079207018 0.032021116 0.26000002 -2.7681396e+38
-0.078786068 0.032021116 0.26000002 -2.7948284e+38
-0.07836511 0.032021116 0.26000002 -2.8348616e+38
-0.078243941 0.032144275 0.26100001 -2.8615505e+38
-0.078119531 0.032267433 0.26200002 -2.8617066e+38
-0.081089795 0.034237962 0.27800003 -2.9684623e+38
-0.080929764 0.034361124 0.27900001 -2.9951511e+38
-0.080026329 0.034361124 0.27900001 -3.0084959e+38
-0.079574607 0.034361124 0.27900001 -3.0351847e+38
-0.071291111 0.032636907 0.26500002 -3.0350285e+38
-0.070862055 0.032636907 0.26500002 -2.9416177e+38
-0.070167221 0.032513749 0.264 -2.8748957e+38
-0.069312356 0.032513749 0.264 -2.8747401e+38
-0.068884924 0.032513749 0.264 -2.8480513e+38
-0.068716802 0.032636907 0.26500002 -2.8479474e+38
-0.068545438 0.032760065 0.266 -2.8479474e+38
-0.068114765 0.032760065 0.266 -2.847947e+38
-0.067253426 0.032760065 0.266 -2.8080696e+38
-0.066571549 0.032636907 0.26500002 -2.7813808e+38
-0.066142499 0.032636907 0.26500002 -2.7680364e+38
-0.065284394 0.032636907 0.26500002 -2.7146588e+38
-0.064855345 0.032636907 0.26500002 -2.7146588e+38
-0.053909134 0.029681111 0.24100001 -2.7146072e+38
-0.053296868 0.029557955 0.24000001 -2.7546405e+38
-0.053128745 0.029681111 0.24100001 -2.8080696e+38
-0.052738551 0.029681111 0.24100001 -2.821414e+38
-0.052565571 0.029804271 0.24200001 -2.821414e+38
-0.051781945 0.029804271 0.24200001 -2.9147198e+38
-0.051390134 0.029804271 0.24200001 -3.021475e+38
-0.087494016 0.031194299 0.25 -2.434165e+38
-0.087437607 0.031319078 0.25100002 -2.4208206e+38
-0.087031223 0.031319078 0.25100002 -2.3675995e+38
-0.086624838 0.031319078 0.25100002 -2.3542551e+38
-0.086218454 0.031319078 0.25100002 -2.3409107e+38
-0.082809232 0.031568632 0.25300002 -2.354463e+38
-0.082399614 0.031568632 0.25300002 -2.3678074e+38
-0.081580363 0.031568632 0.25300002 -2.3544634e+38
-0.081491575 0.03169341 0.25400001 -2.4078411e+38
-0.081399553 0.031818185 0.25500003 -2.4478743e+38
-0.082153708 0.032442074 0.26000002 -2.4879075e+38
-0.0813118 0.032442074 0.26000002 -2.5546295e+38
-0.080890842 0.032442074 0.26000002 -2.6612807e+38
-0.080469884 0.032442074 0.26000002 -2.7013139e+38
-0.079321712 0.032317296 0.259 -2.7814844e+38
-0.078902379 0.032317296 0.259 -2.8081732e+38
-0.078483038 0.032317296 0.259 -2.8482065e+38
-0.07764437 0.032317296 0.259 -2.8882393e+38
-0.077523194 0.032442074 0.26000002 -2.9017402e+38
-0.077398792 0.032566849 0.26100001 -2.9284291e+38
-0.071291111 0.03306596 0.26500002 -3.0884062e+38
-0.070862055 0.03306596 0.26500002 -2.9949953e+38
-0.070433006 0.03306596 0.26500002 -2.9014804e+38
-0.069049813 0.032816403 0.26300001 -2.9013247e+38
-0.068623997 0.032816403 0.26300001 -2.8879803e+38
-0.068457492 0.032941181 0.264 -2.847947e+38
-0.068287753 0.03306596 0.26500002 -2.847947e+38
-0.067858703 0.03306596 0.26500002 -2.847947e+38
-0.067000598 0.03306596 0.26500002 -2.8080181e+38
-0.066571549 0.03306596 0.26500002 -2.7946737e+38
-0.065465473 0.032941181 0.264 -2.7546405e+38
-0.06503804 0.032941181 0.264 -2.741296e+38
-0.05384871 0.029821752 0.23900001 -2.7012628e+38
-0.053461753 0.029821752 0.23900001 -2.7413476e+38
-0.053074796 0.029821752 0.23900001 -2.7680364e+38
-0.053128745 0.030071305 0.24100001 -2.8080696e+38
-0.052738551 0.030071305 0.24100001 -2.821414e+38
-0.052565571 0.030196084 0.24200001 -2.8481028e+38
-0.051781945 0.030196084 0.24200001 -2.9414601e+38
-0.051390134 0.030196084 0.24200001 -3.0615598e+38
-0.11456704 0.03589654 0.28400001 -3.0878295e+38
-0.11450902 0.036022935 0.28500003 -2.9406255e+38
-0.11404759 0.036022935 0.28500003 -2.7804926e+38
-0.11312472 0.036022935 0.28500003 -2.6738418e+38
-0.11266329 0.036022935 0.28500003 -2.6339648e+38
-0.11220186 0.036022935 0.28500003 -2.6206204e+38
-0.111279 0.036022935 0.28500003 -2.5940362e+38
-0.11081756 0.036022935 0.28500003 -2.5674515e+38
-0.11074334 0.03614933 0.28600001 -2.5541071e+38
-0.084167562 0.029576726 0.23400001 -2.4609053e+38
-0.081539892 0.03513816 0.27800003 -2.9816509e+38
-0.081381485 0.035264559 0.27900001 -3.0216841e+38
-0.080929764 0.035264559 0.27900001 -3.0350285e+38
-0.080766499 0.035390951 0.28 -3.0350285e+38
-0.079859823 0.035390951 0.28 -3.0617173e+38
-0.079122894 0.035264559 0.27900001 -3.0884062e+38
-0.055009574 0.030208707 0.23900001 -2.6612296e+38
-0.054008737 0.03008231 0.23800001 -2.6879184e+38
-0.053623401 0.03008231 0.23800001 -2.7146072e+38
-0.053461753 0.030208707 0.23900001 -2.741296e+38
-0.053074796 0.030208707 0.23900001 -2.7679849e+38
-0.052908294 0.030335104 0.24000001 -2.8080696e+38
-0.052738551 0.030461498 0.24100001 -2.8481028e+38
-0.052565571 0.030587895 0.24200001 -2.8747908e+38
-0.051781945 0.030587895 0.24200001 -3.0882993e+38
-0.11456704 0.036356352 0.28400001 -3.0211079e+38
-0.11450902 0.036484368 0.28500003 -2.8739043e+38
-0.11404759 0.036484368 0.28500003 -2.7404602e+38
-0.11312472 0.036484368 0.28500003 -2.6339137e+38
-0.11266329 0.036484368 0.28500003 -2.6072249e+38
-0.11220186 0.036484368 0.28500003 -2.6072249e+38
-0.111279 0.036484368 0.28500003 -2.5806403e+38
-0.11081756 0.036484368 0.28500003 -2.5540555e+38
-0.11074334 0.03661238 0.28600001 -2.5540555e+38
-0.087494016 0.032003831 0.25 -2.3942884e+38
-0.087437607 0.032131847 0.25100002 -2.3942884e+38
-0.087031223 0.032131847 0.25100002 -2.3942884e+38
-0.086624838 0.032131847 0.25100002 -2.3675995e+38
-0.086561956 0.032259859 0.252 -2.3143262e+38
-0.082809232 0.032387875 0.25300002 -2.3545146e+38
-0.082725301 0.032515895 0.25400001 -2.3812034e+38
-0.081580363 0.032387875 0.25300002 -2.4478739e+38
-0.081491575 0.032515895 0.25400001 -2.4880637e+38
-0.081521757 0.033027951 0.25800002 -2.5681305e+38
-0.080999061 0.03315597 0.259 -2.7014176e+38
-0.080890842 0.033283986 0.26000002 -2.7680356e+38
-0.079433173 0.033027951 0.25800002 -2.8080692e+38
-0.079015449 0.033027951 0.25800002 -2.8481024e+38
-0.078597732 0.033027951 0.25800002 -2.8747916e+38
-0.078180015 0.033027951 0.25800002 -2.9014804e+38
-0.07764437 0.03315597 0.259 -2.9282733e+38
-0.077225029 0.03315597 0.259 -2.9549621e+38
-0.077102244 0.033283986 0.26000002 -2.9816509e+38
-0.07697621 0.033411998 0.26100001 -2.9948913e+38
-0.081381485 0.035716277 0.27900001 -3.0216841e+38
-0.081219837 0.035844289 0.28 -3.0350285e+38
-0.080766499 0.035844289 0.28 -3.0350285e+38
-0.079859823 0.035844289 0.28 -3.0617173e+38
-0.079406485 0.035844289 0.28 -3.0750618e+38
-0.071291111 0.033924062 0.26500002 -3.0884062e+38
-0.070862055 0.033924062 0.26500002 -3.0350285e+38
-0.070167221 0.033796046 0.264 -2.9815469e+38
-0.069049813 0.03366803 0.26300001 -2.8614472e+38
-0.068623997 0.03366803 0.26300001 -2.8614472e+38
-0.068198182 0.03366803 0.26300001 -2.8480513e+38
-0.068030059 0.033796046 0.264 -2.8213625e+38
-0.067175195 0.033796046 0.264 -2.847947e+38
-0.066747762 0.033796046 0.264 -2.8080181e+38
-0.06632033 0.033796046 0.264 -2.8080181e+38
-0.11462183 0.036686528 0.28300002 -3.1679489e+38
-0.11456704 0.036816165 0.28400001 -2.9544384e+38
-0.11410723 0.036816165 0.28400001 -2.8471639e+38
-0.1131876 0.036816165 0.28400001 -2.6205697e+38
-0.11272779 0.036816165 0.28400001 -2.6072253e+38
-0.11226798 0.036816165 0.28400001 -2.5806407e+38
-0.11134835 0.036816165 0.28400001 -2.5672963e+38
-0.11088853 0.036816165 0.28400001 -2.5672963e+38
-0.11081756 0.036945801 0.28500003 -2.5273667e+38
-0.11035613 0.036945801 0.28500003 -2.5273667e+38
-0.084546424 0.030334447 0.23400001 -2.4609053e+38
-0.084167562 0.030334447 0.23400001 -2.4609053e+38
-0.083053388 0.03020481 0.23300001 -2.4609053e+38
-0.082321316 0.030075178 0.23200001 -2.4475609e+38
-0.083005339 0.030464081 0.23500001 -2.4475094e+38
-0.08227326 0.030334447 0.23400001 -2.4475094e+38
-0.087377965 0.032667864 0.252 -2.3677042e+38
-0.087315083 0.0327975 0.25300002 -2.3410154e+38
-0.086905457 0.0327975 0.25300002 -2.3143262e+38
-0.083136544 0.032927133 0.25400001 -2.381203e+38
-0.082399614 0.0327975 0.25300002 -2.447925e+38
-0.081580363 0.0327975 0.25300002 -2.4745627e+38
-0.081491575 0.032927133 0.25400001 -2.5412847e+38
-0.081621878 0.033316039 0.257 -2.5946627e+38
-0.081521757 0.033445671 0.25800002 -2.6480404e+38
-0.0813118 0.03370494 0.26000002 -2.7414508e+38
-0.080890842 0.03370494 0.26000002 -2.7947244e+38
-0.080160387 0.033575304 0.259 -2.7947244e+38
-0.079015449 0.033445671 0.25800002 -2.8481024e+38
-0.078597732 0.033445671 0.25800002 -2.8747916e+38
-0.078180015 0.033445671 0.25800002 -2.9148248e+38
-0.07764437 0.033575304 0.259 -2.9548581e+38
-0.077225029 0.033575304 0.259 -2.9815469e+38
-0.076805696 0.033575304 0.259 -2.9948913e+38
-0.076681286 0.03370494 0.26000002 -2.9948913e+38
-0.076553635 0.033834573 0.26100001 -2.9948913e+38
-0.081381485 0.036167994 0.27900001 -3.0216841e+38
-0.080929764 0.036167994 0.27900001 -3.0350285e+38
-0.080766499 0.036297627 0.28 -3.0350285e+38
-0.080145039 0.036427263 0.28100002 -3.0483729e+38
-0.079406485 0.036297627 0.28 -3.0617173e+38
-0.071291111 0.034353111 0.26500002 -3.0884062e+38
-0.070594653 0.034223478 0.264 -3.0483729e+38
-0.070167221 0.034223478 0.264 -3.0350285e+38
-0.069049813 0.034093842 0.26300001 -2.8615513e+38
-0.068623997 0.034093842 0.26300001 -2.8482069e+38
-0.068198182 0.034093842 0.26300001 -2.8480513e+38
-0.067346558 0.034093842 0.26300001 -2.8746363e+38
-0.066920742 0.034093842 0.26300001 -2.8479474e+38
-0.066494934 0.034093842 0.26300001 -2.8080181e+38
-0.055164747 0.030852981 0.23800001 -2.674574e+38
-0.054394074 0.030852981 0.23800001 -2.7012628e+38
-0.054008737 0.030852981 0.23800001 -2.754692e+38
-0.053623401 0.030852981 0.23800001 -2.7680364e+38
-0.053461753 0.030982617 0.23900001 -2.8747908e+38
-0.053074796 0.030982617 0.23900001 -2.9548572e+38
-0.052908294 0.031112254 0.24000001 -2.9949931e+38
-0.052957382 0.031371519 0.24200001 -3.0483707e+38
-0.084546424 0.030713307 0.23400001 -2.4609053e+38
-0.083807871 0.030582052 0.23300001 -2.4609053e+38
-0.082340486 0.030319545 0.23100001 -2.4609053e+38
-0.081592478 0.030319545 0.23100001 -2.4475094e+38
-0.081218474 0.030319545 0.23100001 -2.434165e+38
-0.081194445 0.0304508 0.23200001 -2.4076328e+38
-0.087315083 0.033207122 0.25300002 -2.3410154e+38
-0.083136544 0.033338375 0.25400001 -2.4212362e+38
-0.082399614 0.033207122 0.25300002 -2.4746138e+38
-0.081580363 0.033207122 0.25300002 -2.501303e+38
-0.081491575 0.033338375 0.25400001 -2.5546291e+38
-0.082357191 0.033863388 0.25800002 -2.5813179e+38
-0.08225707 0.033994641 0.259 -2.634696e+38
-0.082153708 0.034125898 0.26000002 -2.6747292e+38
-0.0813118 0.034125898 0.26000002 -2.7547952e+38
-0.080890842 0.034125898 0.26000002 -2.8080688e+38
-0.080469884 0.034125898 0.26000002 -2.8214132e+38
-0.079321712 0.033994641 0.259 -2.8614468e+38
-0.078902379 0.033994641 0.259 -2.888136e+38
-0.078483038 0.033994641 0.259 -2.9014804e+38
-0.07764437 0.033994641 0.259 -2.9548581e+38
-0.077225029 0.033994641 0.259 -2.9815469e+38
-0.076805696 0.033994641 0.259 -2.9815469e+38
-0.076386355 0.033994641 0.259 -2.9815469e+38
-0.076260328 0.034125898 0.26000002 -2.9948913e+38
-0.081381485 0.036619712 0.27900001 -3.0349245e+38
-0.080929764 0.036619712 0.27900001 -3.0349245e+38
-0.080766499 0.036750965 0.28 -3.0350285e+38
-0.079859823 0.036750965 0.28 -3.0350285e+38
-0.079406485 0.036750965 0.28 -3.0483729e+38
-0.078953147 0.036750965 0.28 -3.0483729e+38
-0.071291111 0.034782164 0.26500002 -3.1016465e+38
-0.070594653 0.034650911 0.264 -3.0749577e+38
-0.069475621 0.034519654 0.26300001 -3.0216841e+38
-0.068787262 0.034388404 0.26200002 -2.9416177e+38
-0.06836307 0.034388404 0.26200002 -2.8748957e+38
-0.068198182 0.034519654 0.26300001 -2.8482069e+38
-0.067346558 0.034519654 0.26300001 -2.8480513e+38
-0.066920742 0.034519654 0.26300001 -2.8480513e+38
-0.055550084 0.031238317 0.23800001 -2.6879184e+38
-0.055164747 0.031238317 0.23800001 -2.7012628e+38
-0.054394074 0.031238317 0.23800001 -2.8481024e+38
-0.054008737 0.031238317 0.23800001 -2.9815972e+38
-0.053623401 0.031238317 0.23800001 -2.9682528e+38
-0.053238064 0.031238317 0.23800001 -3.0483703e+38
-0.053074796 0.031369574 0.23900001 -3.0617147e+38
-0.11462183 0.037602916 0.28300002 -3.1279157e+38
-0.11416364 0.037602916 0.28300002 -2.8877164e+38
-0.11324725 0.037602916 0.28300002 -2.6603423e+38
-0.11278906 0.037602916 0.28300002 -2.5938809e+38
-0.11233087 0.037602916 0.28300002 -2.567192e+38
-0.11187267 0.037602916 0.28300002 -2.5406075e+38
-0.11134835 0.03773579 0.28400001 -2.5140227e+38
-0.11088853 0.03773579 0.28400001 -2.5006783e+38
-0.11042872 0.03773579 0.28400001 -2.5140223e+38
-0.11035613 0.037868664 0.28500003 -2.5140223e+38
-0.084546424 0.031092167 0.23400001 -2.4609053e+38
-0.083807871 0.030959293 0.23300001 -2.4609053e+38
-0.082696937 0.030826421 0.23200001 -2.4609053e+38
-0.081592478 0.030693548 0.23100001 -2.4475094e+38
-0.081218474 0.030693548 0.23100001 -2.434165e+38
-0.080844469 0.030693548 0.23100001 -2.4076328e+38
-0.080818824 0.030826421 0.23200001 -2.3942884e+38
-0.083218858 0.033616744 0.25300002 -2.381203e+38
-0.082809232 0.033616744 0.25300002 -2.4479254e+38
-0.082399614 0.033616744 0.25300002 -2.4879586e+38
-0.081580363 0.033616744 0.25300002 -2.5412847e+38
-0.055700395 0.031490784 0.23700002 -2.7546405e+38
-0.055316679 0.031490784 0.23700002 -2.768036e+38
-0.054549243 0.031490784 0.23700002 -3.0483196e+38
-0.054394074 0.031623654 0.23800001 -3.0883528e+38
-0.11462183 0.038061112 0.28300002 -3.1279157e+38
-0.11416364 0.038061112 0.28300002 -2.874372e+38
-0.11324725 0.038061112 0.28300002 -2.6470494e+38
-0.11278906 0.038061112 0.28300002 -2.567192e+38
-0.11233087 0.038061112 0.28300002 -2.5538476e+38
-0.11187267 0.038061112 0.28300002 -2.5272631e+38
-0.11095628 0.038061112 0.28300002 -2.5272631e+38
-0.11049809 0.038061112 0.28300002 -2.5139187e+38
-0.1100399 0.038061112 0.28300002 -2.5140223e+38
-0.10996891 0.038195606 0.28400001 -2.5140223e+38
-0.084546424 0.031471025 0.23400001 -2.4609053e+38
-0.083807871 0.031336535 0.23300001 -2.4609053e+38
-0.082696937 0.031202044 0.23200001 -2.4742497e+38
-0.082321316 0.031202044 0.23200001 -2.4609053e+38
-0.081945695 0.031202044 0.23200001 -2.4475094e+38
-0.081194445 0.031202044 0.23200001 -2.4076328e+38
-0.080818824 0.031202044 0.23200001 -2.3942884e+38
-0.080789946 0.031336535 0.23300001 -2.341015e+38
-0.082357191 0.034698822 0.25800002 -2.6613844e+38
-0.08225707 0.034833316 0.259 -2.6747292e+38
-0.082153708 0.03496781 0.26000002 -2.7281068e+38
-0.0813118 0.03496781 0.26000002 -2.7947248e+38
-0.08057972 0.034833316 0.259 -2.8214136e+38
-0.080160387 0.034833316 0.259 -2.8481024e+38
-0.079321712 0.034833316 0.259 -2.8747912e+38
-0.078902379 0.034833316 0.259 -2.888136e+38
-0.078483038 0.034833316 0.259 -2.9148248e+38
-0.07764437 0.034833316 0.259 -2.9415136e+38
-0.077225029 0.034833316 0.259 -2.9682025e+38
-0.076805696 0.034833316 0.259 -2.9815469e+38
-0.076386355 0.034833316 0.259 -2.9815469e+38
-0.07554768 0.034833316 0.259 -3.0082357e+38
-0.07541842 0.03496781 0.26000002 -3.0082357e+38
-0.080026329 0.037523147 0.27900001 -3.0349245e+38
-0.071022086 0.035505772 0.264 -3.0884062e+38
-0.070327252 0.035371281 0.26300001 -3.0617173e+38
-0.069475621 0.035371281 0.26300001 -3.0617173e+38
-0.069049813 0.035371281 0.26300001 -3.0350281e+38
-0.06836307 0.035236791 0.26200002 -2.9683061e+38
-0.06751468 0.035236791 0.26200002 -2.9148244e+38
-0.067346558 0.035371281 0.26300001 -2.8747916e+38
-0.066920742 0.035371281 0.26300001 -2.8747916e+38
-0.1142168 0.038383197 0.28200001 -3.1012269e+38
-0.11416364 0.038519308 0.28300002 -2.8476832e+38
-0.11324725 0.038519308 0.28300002 -2.633705e+38
-0.1123905 0.038383197 0.28200001 -2.567192e+38
-0.11193393 0.038383197 0.28200001 -2.5538476e+38
-0.11102078 0.038383197 0.28200001 -2.5272631e+38
-0.1105642 0.038383197 0.28200001 -2.5006783e+38
-0.11010763 0.038383197 0.28200001 -2.4873339e+38
-0.1100399 0.038519308 0.28300002 -2.5006783e+38
-0.10912351 0.038519308 0.28300002 -2.5140738e+38
-0.083218858 0.034435987 0.25300002 -2.4479254e+38
-0.082809232 0.034435987 0.25300002 -2.501303e+38
-0.082399614 0.034435987 0.25300002 -2.5146474e+38
-0.081580363 0.034435987 0.25300002 -2.5813179e+38
-0.081491575 0.034572098 0.25400001 -2.634696e+38
-0.082357191 0.035116542 0.25800002 -2.6747292e+38
-0.08225707 0.035252653 0.259 -2.6880736e+38
-0.081418395 0.035252653 0.259 -2.768036e+38
-0.080999061 0.035252653 0.259 -2.7947248e+38
-0.08057972 0.035252653 0.259 -2.8481024e+38
-0.080160387 0.035252653 0.259 -2.8614468e+38
-0.079321712 0.035252653 0.259 -2.8747912e+38
-0.078902379 0.035252653 0.259 -2.888136e+38
-0.078483038 0.035252653 0.259 -2.9148248e+38
-0.07764437 0.035252653 0.259 -2.9415136e+38
-0.077225029 0.035252653 0.259 -2.9548581e+38
-0.076805696 0.035252653 0.259 -2.9682025e+38
-0.076386355 0.035252653 0.259 -2.9682025e+38
-0.07554768 0.035252653 0.259 -2.9948913e+38
-0.075128347 0.035252653 0.259 -2.9948913e+38
-0.071178876 0.035797093 0.26300001 -3.0749577e+38
-0.070484042 0.035660986 0.26200002 -3.0750618e+38
-0.070327252 0.035797093 0.26300001 -3.0617173e+38
-0.069475621 0.035797093 0.26300001 -3.0617173e+38
-0.068787262 0.035660986 0.26200002 -3.0617173e+38
-0.06836307 0.035660986 0.26200002 -3.0350285e+38
-0.06751468 0.035660986 0.26200002 -2.9683065e+38
-0.067090489 0.035660986 0.26200002 -2.9549621e+38
-0.055700395 0.03225822 0.23700002 -3.0883524e+38
-0.051602487 0.033074882 0.24300002 -2.9015287e+38
-0.051209055 0.033074882 0.24300002 -2.9148731e+38
-0.050815623 0.033074882 0.24300002 -2.8881843e+38
-0.1142168 0.038839772 0.28200001 -3.1012269e+38
-0.11330365 0.038839772 0.28200001 -2.6871866e+38
-0.11284708 0.038839772 0.28200001 -2.6204646e+38
-0.1123905 0.038839772 0.28200001 -2.5538476e+38
-0.11193393 0.038839772 0.28200001 -2.5405032e+38
-0.11102078 0.038839772 0.28200001 -2.5139187e+38
-0.1105642 0.038839772 0.28200001 -2.5006783e+38
-0.11010763 0.038839772 0.28200001 -2.4873339e+38
-0.10919448 0.038839772 0.28200001 -2.4741457e+38
-0.083807871 0.032091018 0.23300001 -2.4475609e+38
-0.082696937 0.03195329 0.23200001 -2.4475094e+38
-0.082321316 0.03195329 0.23200001 -2.434165e+38
-0.081945695 0.03195329 0.23200001 -2.4475098e+38
-0.081194445 0.03195329 0.23200001 -2.4076328e+38
-0.080470473 0.031815559 0.23100001 -2.4076328e+38
-0.080443203 0.03195329 0.23200001 -2.341015e+38
-0.080412701 0.032091018 0.23300001 -2.3677038e+38
-0.083218858 0.034845609 0.25300002 -2.4879586e+38
-0.082809232 0.034845609 0.25300002 -2.5412847e+38
-0.082399614 0.034845609 0.25300002 -2.5546291e+38
-0.082314059 0.034983341 0.25400001 -2.6080067e+38
-0.081491575 0.034983341 0.25400001 -2.6480404e+38
-0.081621878 0.035396531 0.257 -2.7413472e+38
-0.081521757 0.035534259 0.25800002 -2.7546916e+38
-0.081418395 0.03567199 0.259 -2.8079649e+38
-0.080999061 0.03567199 0.259 -2.8479982e+38
-0.08057972 0.03567199 0.259 -2.8880314e+38
-0.080160387 0.03567199 0.259 -2.8880314e+38
-0.079321712 0.03567199 0.259 -2.9013758e+38
-0.078902379 0.03567199 0.259 -2.9147202e+38
-0.078483038 0.03567199 0.259 -2.941409e+38
-0.07764437 0.03567199 0.259 -2.9814426e+38
-0.077225029 0.03567199 0.259 -2.9814426e+38
-0.076805696 0.03567199 0.259 -2.9814426e+38
-0.076386355 0.03567199 0.259 -2.9682025e+38
-0.07554768 0.03567199 0.259 -2.9815469e+38
-0.075128347 0.03567199 0.259 -2.9948913e+38
-0.072749689 0.035534259 0.25800002 -3.0348202e+38
-0.071914248 0.035534259 0.25800002 -3.0482689e+38
-0.071496531 0.035534259 0.25800002 -3.0482689e+38
-0.07148274 0.035947446 0.26100001 -3.0616133e+38
-0.071060166 0.035947446 0.26100001 -3.0482689e+38
-0.070908234 0.036085177 0.26200002 -3.0616133e+38
-0.070484042 0.036085177 0.26200002 -3.0750618e+38
-0.069635652 0.036085177 0.26200002 -3.0617173e+38
-0.069211461 0.036085177 0.26200002 -3.0617173e+38
-0.068787262 0.036085177 0.26200002 -3.0750618e+38
-0.06836307 0.036085177 0.26200002 -3.0350285e+38
-0.06751468 0.036085177 0.26200002 -3.0216841e+38
-0.067090489 0.036085177 0.26200002 -2.9949438e+38
-0.051602487 0.033468314 0.24300002 -2.9013721e+38
-0.050422192 0.033468314 0.24300002 -2.8481507e+38
-0.083807871 0.032468256 0.23300001 -2.4475609e+38
-0.082696937 0.032328911 0.23200001 -2.4608538e+38
-0.082321316 0.032328911 0.23200001 -2.434165e+38
-0.081945695 0.032328911 0.23200001 -2.4475094e+38
-0.081194445 0.032328911 0.23200001 -2.4076328e+38
-0.080470473 0.032189559 0.23100001 -2.4076328e+38
-0.079722464 0.032189559 0.23100001 -2.3677038e+38
-0.082889929 0.035115883 0.252 -2.5146474e+38
-0.082809232 0.035255231 0.25300002 -2.5679735e+38
-0.082399614 0.035255231 0.25300002 -2.5946623e+38
-0.082314059 0.035394583 0.25400001 -2.6080067e+38
-0.081491575 0.035394583 0.25400001 -2.6747292e+38
-0.08108034 0.035394583 0.25400001 -2.701418e+38
-0.080986694 0.035533931 0.25500003 -2.768036e+38
-0.081205785 0.035812628 0.257 -2.7813804e+38
-0.080789685 0.035812628 0.257 -2.8346537e+38
-0.080686323 0.035951976 0.25800002 -2.8479982e+38
-0.080268607 0.035951976 0.25800002 -2.8880314e+38
-0.080160387 0.036091324 0.259 -2.9013758e+38
-0.079321712 0.036091324 0.259 -2.9147202e+38
-0.078902379 0.036091324 0.259 -2.9280646e+38
-0.078483038 0.036091324 0.259 -2.941409e+38
-0.07764437 0.036091324 0.259 -2.9680982e+38
-0.077225029 0.036091324 0.259 -2.9814426e+38
-0.076805696 0.036091324 0.259 -2.9814426e+38
-0.075673714 0.035951976 0.25800002 -2.9682025e+38
-0.07525599 0.035951976 0.25800002 -2.9815469e+38
-0.074838273 0.035951976 0.25800002 -2.9948913e+38
-0.074420556 0.035951976 0.25800002 -2.9815469e+38
-0.073585123 0.035951976 0.25800002 -3.0348202e+38
-0.073167406 0.035951976 0.25800002 -3.0214758e+38
-0.071771257 0.035673279 0.25600001 -3.061509e+38
-0.071496531 0.035951976 0.25800002 -3.0349245e+38
-0.071629815 0.036230676 0.26000002 -3.0349245e+38
-0.071208857 0.036230676 0.26000002 -3.0482689e+38
-0.071060166 0.036370024 0.26100001 -3.0482689e+38
-0.070908234 0.036509372 0.26200002 -3.0616133e+38
-0.070484042 0.036509372 0.26200002 -3.0749577e+38
-0.069369867 0.036370024 0.26100001 -3.0749577e+38
-0.068947293 0.036370024 0.26100001 -3.0749577e+38
-0.067841217 0.036230676 0.26000002 -3.0616133e+38
-0.067256995 0.036370024 0.26100001 -3.0483729e+38
-0.067090489 0.036509372 0.26200002 -3.0216326e+38
-0.052467391 0.033165 0.23800001 -2.9546457e+38
-0.052300885 0.033304349 0.23900001 -2.9413013e+38
-0.051602487 0.033861745 0.24300002 -2.8746833e+38
-0.050815623 0.033861745 0.24300002 -2.8481507e+38
-0.05062969 0.034001093 0.24400002 -2.8481507e+38
-0.11335683 0.039611954 0.28100002 -2.8076499e+38
-0.11290187 0.039611954 0.28100002 -2.6472581e+38
-0.11284708 0.039752923 0.28200001 -2.5938805e+38
-0.1123905 0.039752923 0.28200001 -2.5006783e+38
-0.11193393 0.039752923 0.28200001 -2.5006783e+38
-0.11102078 0.039752923 0.28200001 -2.4873339e+38
-0.11017214 0.039611954 0.28100002 -2.4873339e+38
-0.10971718 0.039611954 0.28100002 -2.4739895e+38
-0.10880727 0.039611954 0.28100002 -2.4608013e+38
-0.083072558 0.032704532 0.23200001 -2.4609053e+38
-0.082696937 0.032704532 0.23200001 -2.4608538e+38
-0.081592478 0.032563563 0.23100001 -2.4608538e+38
-0.081218474 0.032563563 0.23100001 -2.4475094e+38
-0.080844469 0.032563563 0.23100001 -2.4076328e+38
-0.080470473 0.032563563 0.23100001 -2.4076328e+38
-0.079377346 0.032422595 0.23 -2.3677038e+38
-0.077772014 0.032845497 0.23300001 -2.4078918e+38
-0.077394769 0.032845497 0.23300001 -2.4612694e+38
-0.053238064 0.033550337 0.23800001 -2.9546457e+38
-0.052467391 0.033550337 0.23800001 -2.9279569e+38
-0.052300885 0.033691306 0.23900001 -2.9279569e+38
-0.052565571 0.034114208 0.24200001 -2.9013721e+38
-0.05238935 0.034255177 0.24300002 -2.9013721e+38
-0.051602487 0.034255177 0.24300002 -2.8481507e+38
-0.051209055 0.034255177 0.24300002 -2.8215661e+38
-0.051024742 0.034396145 0.24400002 -2.8215661e+38
-0.05062969 0.034396145 0.24400002 -2.8215661e+38
-0.11295342 0.039924324 0.28 -2.8076499e+38
-0.11250008 0.039924324 0.28 -2.6339137e+38
-0.11244692 0.040066909 0.28100002 -2.5671916e+38
-0.11199196 0.040066909 0.28100002 -2.4873339e+38
-0.11108205 0.040066909 0.28100002 -2.4873339e+38
-0.11062709 0.040066909 0.28100002 -2.4873339e+38
-0.11017214 0.040066909 0.28100002 -2.4873339e+38
-0.10971718 0.040066909 0.28100002 -2.4739895e+38
-0.10842005 0.039924324 0.28 -2.4474569e+38
-0.083297931 0.035931889 0.252 -2.5945583e+38
-0.082889929 0.035931889 0.252 -2.6212471e+38
-0.081580363 0.036074478 0.25300002 -2.701418e+38
-0.081170745 0.036074478 0.25300002 -2.7281072e+38
-0.08108034 0.036217064 0.25400001 -2.754796e+38
-0.080986694 0.036359649 0.25500003 -2.7947248e+38
-0.080573827 0.036359649 0.25500003 -2.8080692e+38
-0.079748109 0.036359649 0.25500003 -2.874687e+38
-0.07933525 0.036359649 0.25500003 -2.8880314e+38
-0.079541385 0.036644828 0.257 -2.9013758e+38
-0.079125285 0.036644828 0.257 -2.9147202e+38
-0.078709193 0.036644828 0.257 -2.9147202e+38
-0.078902379 0.036929999 0.259 -2.9147206e+38
-0.078180015 0.036787409 0.25800002 -2.928065e+38
-0.077344581 0.036787409 0.25800002 -2.9680982e+38
-0.076926865 0.036787409 0.25800002 -2.9814426e+38
-0.076509148 0.036787409 0.25800002 -2.9680982e+38
-0.075673714 0.036787409 0.25800002 -2.994787e+38
-0.07525599 0.036787409 0.25800002 -2.9815469e+38
-0.074838273 0.036787409 0.25800002 -2.9815469e+38
-0.074420556 0.036787409 0.25800002 -2.9815469e+38
-0.073299907 0.036644828 0.257 -2.9948913e+38
-0.072883807 0.036644828 0.257 -2.9948913e+38
-0.072051615 0.036644828 0.257 -3.0348202e+38
-0.071356773 0.036502238 0.25600001 -3.061509e+38
-0.071496531 0.036787409 0.25800002 -3.0348202e+38
-0.071629815 0.037072588 0.26000002 -3.0349245e+38
-0.071208857 0.037072588 0.26000002 -3.0349245e+38
-0.070787907 0.037072588 0.26000002 -3.0349245e+38
-0.070637591 0.037215173 0.26100001 -3.0482689e+38
-0.070215017 0.037215173 0.26100001 -3.0749577e+38
-0.069369867 0.037215173 0.26100001 -3.0749577e+38
-0.068683125 0.037072588 0.26000002 -3.0749577e+38
-0.067580283 0.036929999 0.259 -3.0749577e+38
-0.066901639 0.036787409 0.25800002 -3.0616133e+38
-0.066741608 0.036929999 0.259 -3.0749577e+38
-0.11300174 0.040233456 0.27900001 -3.0878825e+38
-0.11255002 0.040233456 0.27900001 -2.8076499e+38
-0.11250008 0.040377658 0.28 -2.6339137e+38
-0.11204675 0.040377658 0.28 -2.5671916e+38
-0.11114007 0.040377658 0.28 -2.4608013e+38
-0.11068673 0.040377658 0.28 -2.4607498e+38
-0.1102334 0.040377658 0.28 -2.4474054e+38
-0.10978006 0.040377658 0.28 -2.4739895e+38
-0.10887339 0.040377658 0.28 -2.4739895e+38
-0.10842005 0.040377658 0.28 -2.4739895e+38
-0.082714491 0.033311568 0.23100001 -2.4742497e+38
-0.082340486 0.033311568 0.23100001 -2.4475609e+38
-0.081592478 0.033311568 0.23100001 -2.4608538e+38
-0.081218474 0.033311568 0.23100001 -2.4608538e+38
-0.080844469 0.033311568 0.23100001 -2.4475098e+38
-0.080470473 0.033311568 0.23100001 -2.4341654e+38
-0.079377346 0.033167362 0.23 -2.3942884e+38
-0.079004958 0.033167362 0.23 -2.3276706e+38
-0.077813849 0.033455778 0.23200001 -2.5143876e+38
-0.077438228 0.033455778 0.23200001 -2.5678699e+38
-0.077062607 0.033455778 0.23200001 -2.6079031e+38
-0.076311365 0.033455778 0.23200001 -2.6879695e+38
-0.080669098 0.036628306 0.25400001 -2.8080696e+38
-0.079846613 0.036628306 0.25400001 -2.874687e+38
-0.079435371 0.036628306 0.25400001 -2.8880314e+38
-0.07933525 0.036772512 0.25500003 -2.9013758e+38
-0.078922391 0.036772512 0.25500003 -2.9147202e+38
-0.078509524 0.036772512 0.25500003 -2.9147202e+38
-0.078402929 0.036916718 0.25600001 -2.9280646e+38
-0.078293093 0.037060924 0.257 -2.9147206e+38
-0.078180015 0.03720513 0.25800002 -2.928065e+38
-0.077344581 0.03720513 0.25800002 -2.9680982e+38
-0.0766287 0.037060924 0.257 -2.9814426e+38
-0.076509148 0.03720513 0.25800002 -2.9814426e+38
-0.075673714 0.03720513 0.25800002 -2.994787e+38
-0.07525599 0.03720513 0.25800002 -2.9815469e+38
-0.074548207 0.037060924 0.257 -2.9815469e+38
-0.073716007 0.037060924 0.257 -2.9948913e+38
-0.073299907 0.037060924 0.257 -2.9948913e+38
-0.072883807 0.037060924 0.257 -2.9948913e+38
-0.072051615 0.037060924 0.257 -3.0348202e+38
-0.071635514 0.037060924 0.257 -3.061509e+38
-0.071219414 0.037060924 0.257 -3.061509e+38
-0.071078815 0.03720513 0.25800002 -3.0349245e+38
-0.070934981 0.037349336 0.259 -3.0349245e+38
-0.07051564 0.037349336 0.259 -3.0349245e+38
-0.070366949 0.037493542 0.26000002 -3.0482689e+38
-0.069525033 0.037493542 0.26000002 -3.0749577e+38
-0.069104083 0.037493542 0.26000002 -3.0749577e+38
-0.067999624 0.037349336 0.259 -3.0749577e+38
-0.067319356 0.03720513 0.25800002 -3.0749577e+38
-0.066226229 0.037060924 0.257 -3.0616133e+38
-0.065810136 0.037060924 0.257 -3.0749577e+38
-0.05584747 0.034032598 0.23600002 -3.0213681e+38
-0.05546537 0.034032598 0.23600002 -2.9546461e+38
-0.054701176 0.034032598 0.23600002 -2.9013725e+38
-0.054319076 0.034032598 0.23600002 -2.9013725e+38
-0.053936981 0.034032598 0.23600002 -2.9013725e+38
-0.053781807 0.034176804 0.23700002 -2.8746837e+38
-0.053398091 0.034176804 0.23700002 -2.8613393e+38
-0.052630655 0.034176804 0.23700002 -2.8746837e+38
-0.052467391 0.03432101 0.23800001 -2.8746833e+38
-0.052300885 0.034465216 0.23900001 -2.8479945e+38
-0.052565571 0.034897834 0.24200001 -2.8348063e+38
-0.05238935 0.03504204 0.24300002 -2.8481507e+38
-0.051602487 0.03504204 0.24300002 -2.8348063e+38
-0.051419791 0.035186246 0.24400002 -2.8082217e+38
-0.051024742 0.035186246 0.24400002 -2.8082217e+38
-0.05062969 0.035186246 0.24400002 -2.8082217e+38
-0.05044052 0.035330452 0.245 -2.8215661e+38
-0.11300174 0.040685173 0.27900001 -3.0878825e+38
-0.11255002 0.040685173 0.27900001 -2.8343388e+38
-0.1120983 0.040685173 0.27900001 -2.6472581e+38
-0.11119486 0.040685173 0.27900001 -2.4608013e+38
-0.11074315 0.040685173 0.27900001 -2.4608013e+38
-0.11029143 0.040685173 0.27900001 -2.4474054e+38
-0.10983972 0.040685173 0.27900001 -2.4340609e+38
-0.10893628 0.040685173 0.27900001 -2.4340609e+38
-0.10848456 0.040685173 0.27900001 -2.4474569e+38
-0.10803284 0.040685173 0.27900001 -2.4341125e+38
-0.10758112 0.040685173 0.27900001 -2.4474569e+38
-0.082356416 0.033539746 0.23 -2.4741982e+38
-0.082340486 0.033685572 0.23100001 -2.4475094e+38
-0.081592478 0.033685572 0.23100001 -2.4608538e+38
-0.081218474 0.033685572 0.23100001 -2.4608538e+38
-0.080844469 0.033685572 0.23100001 -2.4341654e+38
-0.080470473 0.033685572 0.23100001 -2.420821e+38
-0.079377346 0.033539746 0.23 -2.3942884e+38
-0.079004958 0.033539746 0.23 -2.3542551e+38
-0.078600451 0.033685572 0.23100001 -2.3675991e+38
-0.07785245 0.033685572 0.23100001 -2.5143876e+38
-0.077813849 0.033831399 0.23200001 -2.5544208e+38
-0.077438228 0.033831399 0.23200001 -2.5946627e+38
-0.077062607 0.033831399 0.23200001 -2.634696e+38
-0.076311365 0.033831399 0.23200001 -2.7414512e+38
-0.07588581 0.033977222 0.23300001 -2.7413472e+38
-0.08076112 0.036893722 0.25300002 -2.8080692e+38
-0.079941876 0.036893722 0.25300002 -2.8481024e+38
-0.079846613 0.037039548 0.25400001 -2.8614468e+38
-0.079435371 0.037039548 0.25400001 -2.8614468e+38
-0.079024129 0.037039548 0.25400001 -2.8881356e+38
-0.078612886 0.037039548 0.25400001 -2.90148e+38
-0.077790402 0.037039548 0.25400001 -2.9148248e+38
-0.077683806 0.037185371 0.25500003 -2.9014804e+38
-0.07757397 0.037331197 0.25600001 -2.9014804e+38
-0.077460892 0.037477024 0.257 -2.9148248e+38
-0.077044792 0.037477024 0.257 -2.9415136e+38
-0.0766287 0.037477024 0.257 -2.9548581e+38
-0.076509148 0.037622847 0.25800002 -2.9548581e+38
-0.0753804 0.037477024 0.257 -2.994787e+38
-0.0749643 0.037477024 0.257 -2.9815469e+38
-0.074548207 0.037477024 0.257 -2.9948913e+38
-0.073716007 0.037477024 0.257 -2.9948913e+38
-0.073299907 0.037477024 0.257 -2.9948909e+38
-0.072883807 0.037477024 0.257 -2.9948909e+38
-0.072051615 0.037477024 0.257 -3.0348202e+38
-0.071635514 0.037477024 0.257 -3.061509e+38
-0.071219414 0.037477024 0.257 -3.061509e+38
-0.070803314 0.037477024 0.257 -3.061509e+38
-0.070661098 0.037622847 0.25800002 -3.061509e+38
-0.069825664 0.037622847 0.25800002 -3.0482689e+38
-0.069676965 0.037768673 0.259 -3.0616133e+38
-0.069257632 0.037768673 0.259 -3.0616133e+38
-0.068838298 0.037768673 0.259 -3.0616133e+38
-0.067737073 0.037622847 0.25800002 -3.0749577e+38
-0.067058429 0.037477024 0.257 -3.0883021e+38
-0.066226229 0.037477024 0.257 -3.0616133e+38
-0.056371786 0.034268875 0.23500001 -3.0080237e+38
-0.055991307 0.034268875 0.23500001 -2.9813349e+38
-0.05584747 0.034414697 0.23600002 -2.9413017e+38
-0.05546537 0.034414697 0.23600002 -2.9146129e+38
-0.054701176 0.034414697 0.23600002 -2.8879241e+38
-0.054319076 0.034414697 0.23600002 -2.8613393e+38
-0.053936981 0.034414697 0.23600002 -2.8746837e+38
-0.053554881 0.034414697 0.23600002 -2.8348067e+38
-0.053398091 0.034560524 0.23700002 -2.8348067e+38
-0.052630655 0.034560524 0.23700002 -2.8348067e+38
-0.052467391 0.034706347 0.23800001 -2.8348067e+38
-0.052300885 0.034852173 0.23900001 -2.8214623e+38
-0.052565571 0.035289649 0.24200001 -2.8348067e+38
-0.05238935 0.035435472 0.24300002 -2.8348067e+38
-0.052209891 0.035581298 0.24400002 -2.7948773e+38
-0.051419791 0.035581298 0.24400002 -2.7948773e+38
-0.051233858 0.035727121 0.245 -2.8082217e+38
-0.050837189 0.035727121 0.245 -2.8082217e+38
-0.05044052 0.035727121 0.245 -2.8082217e+38
-0.082356416 0.03391213 0.23 -2.4741982e+38
-0.081611648 0.03391213 0.23 -2.4475094e+38
-0.081592478 0.034059577 0.23100001 -2.4608538e+38
-0.081218474 0.034059577 0.23100001 -2.4475094e+38
-0.080844469 0.034059577 0.23100001 -2.4341654e+38
-0.080470473 0.034059577 0.23100001 -2.420821e+38
-0.079722464 0.034059577 0.23100001 -2.3942884e+38
-0.07934846 0.034059577 0.23100001 -2.3675995e+38
-0.078974456 0.034059577 0.23100001 -2.3409107e+38
-0.078600451 0.034059577 0.23100001 -2.4209772e+38
-0.078565091 0.03420702 0.23200001 -2.514388e+38
-0.077813849 0.03420702 0.23200001 -2.6344877e+38
-0.077772014 0.034354463 0.23300001 -2.6480404e+38
-0.077394769 0.034354463 0.23300001 -2.6880736e+38
-0.077017531 0.034354463 0.23300001 -2.701418e+38
-0.076640293 0.034354463 0.23300001 -2.76814e+38
-0.07588581 0.034354463 0.23300001 -2.7813804e+38
-0.075508565 0.034354463 0.23300001 -2.8080692e+38
-0.075131327 0.034354463 0.23300001 -2.8481024e+38
-0.08076112 0.037303343 0.25300002 -2.8481024e+38
-0.080669098 0.03745079 0.25400001 -2.8481024e+38
-0.079532258 0.037303343 0.25300002 -2.8747912e+38
-0.079122633 0.037303343 0.25300002 -2.8747912e+38
-0.078713007 0.037303343 0.25300002 -2.90148e+38
-0.077893764 0.037303343 0.25300002 -2.9148248e+38
-0.077484146 0.037303343 0.25300002 -2.9415136e+38
-0.077379167 0.03745079 0.25400001 -2.9148248e+38
-0.076967925 0.03745079 0.25400001 -2.9148248e+38
-0.076858088 0.03759823 0.25500003 -2.9415136e+38
-0.077044792 0.03789312 0.257 -2.9548581e+38
-0.0766287 0.03789312 0.257 -2.9682025e+38
-0.0757965 0.03789312 0.257 -2.9682025e+38
-0.0753804 0.03789312 0.257 -2.9815469e+38
-0.0749643 0.03789312 0.257 -2.9815469e+38
-0.073843651 0.037745677 0.25600001 -2.9815469e+38
-0.073429175 0.037745677 0.25600001 -2.9948913e+38
-0.073014691 0.037745677 0.25600001 -2.9948909e+38
-0.072883807 0.03789312 0.257 -2.9948909e+38
-0.072051615 0.03789312 0.257 -3.0082357e+38
-0.071635514 0.03789312 0.257 -3.0082357e+38
-0.071219414 0.03789312 0.257 -3.0349245e+38
-0.070803314 0.03789312 0.257 -3.0482689e+38
-0.070661098 0.038040563 0.25800002 -3.0482689e+38
-0.069825664 0.038040563 0.25800002 -3.0349245e+38
-0.069407947 0.038040563 0.25800002 -3.0616133e+38
-0.068990231 0.038040563 0.25800002 -3.0616133e+38
-0.067890629 0.03789312 0.257 -3.0616133e+38
-0.067474529 0.03789312 0.257 -3.0749577e+38
-0.066383019 0.037745677 0.25600001 -3.0749577e+38
-0.065968543 0.037745677 0.25600001 -3.0616133e+38
-0.055276524 0.03420702 0.23200001 -2.9279573e+38
-0.054900903 0.03420702 0.23200001 -2.8879241e+38
-0.054701176 0.034796797 0.23600002 -2.8613393e+38
-0.054319076 0.034796797 0.23600002 -2.8348067e+38
-0.053936981 0.034796797 0.23600002 -2.8348067e+38
-0.053554881 0.034796797 0.23600002 -2.8214623e+38
-0.053398091 0.03494424 0.23700002 -2.8214623e+38
-0.052630655 0.03494424 0.23700002 -2.8348067e+38
-0.052467391 0.035091683 0.23800001 -2.8214623e+38
-0.052300885 0.035239127 0.23900001 -2.8081179e+38
-0.052782781 0.035828903 0.24300002 -2.8214623e+38
-0.052604944 0.035976347 0.24400002 -2.8348067e+38
-0.052423868 0.036123794 0.245 -2.7948777e+38
-0.052027199 0.036123794 0.245 -2.7948777e+38
-0.051233858 0.036123794 0.245 -2.7948773e+38
-0.051044688 0.036271237 0.24600001 -2.8082217e+38
-0.050646398 0.036271237 0.24600001 -2.8082217e+38
-0.11259671 0.041439544 0.27800003 -3.1012269e+38
-0.11214661 0.041439544 0.27800003 -2.8476832e+38
-0.11169651 0.041439544 0.27800003 -2.6339141e+38
-0.11079631 0.041439544 0.27800003 -2.4607498e+38
-0.11034621 0.041439544 0.27800003 -2.4607498e+38
-0.10989612 0.041439544 0.27800003 -2.4474054e+38
-0.10899591 0.041439544 0.27800003 -2.4340609e+38
-0.10854582 0.041439544 0.27800003 -2.4073721e+38
-0.10764562 0.041439544 0.27800003 -2.4341125e+38
-0.10674542 0.041439544 0.27800003 -2.4341125e+38
-0.081611648 0.034284513 0.23 -2.4608538e+38
-0.081592478 0.034433577 0.23100001 -2.4608538e+38
-0.081218474 0.034433577 0.23100001 -2.4608538e+38
-0.080844469 0.034433577 0.23100001 -2.4341654e+38
-0.080470473 0.034433577 0.23100001 -2.4341654e+38
-0.079722464 0.034433577 0.23100001 -2.3942884e+38
-0.07934846 0.034433577 0.23100001 -2.3942884e+38
-0.078974456 0.034433577 0.23100001 -2.4209772e+38
-0.078940719 0.034582641 0.23200001 -2.5143884e+38
-0.078565091 0.034582641 0.23200001 -2.5811104e+38
-0.078526497 0.034731705 0.23300001 -2.6344877e+38
-0.077772014 0.034731705 0.23300001 -2.7146583e+38
-0.077394769 0.034731705 0.23300001 -2.768036e+38
-0.077017531 0.034731705 0.23300001 -2.7547956e+38
-0.076640293 0.034731705 0.23300001 -2.7814844e+38
-0.07588581 0.034731705 0.23300001 -2.7947248e+38
-0.075508565 0.034731705 0.23300001 -2.8481024e+38
-0.075131327 0.034731705 0.23300001 -2.8614468e+38
-0.075074919 0.034880769 0.23400001 -2.8614468e+38
-0.055412266 0.034433577 0.23100001 -2.9147169e+38
-0.055038262 0.034433577 0.23100001 -2.8613393e+38
-0.054664258 0.034433577 0.23100001 -2.8613393e+38
-0.053916253 0.034433577 0.23100001 -2.8479949e+38
-0.053774036 0.034582641 0.23200001 -2.8613393e+38
-0.053398412 0.034582641 0.23200001 -2.8214623e+38
-0.053936981 0.035178892 0.23600002 -2.8214623e+38
-0.053554881 0.035178892 0.23600002 -2.8214623e+38
-0.052790683 0.035178892 0.23600002 -2.8348067e+38
-0.052630655 0.035327956 0.23700002 -2.8348067e+38
-0.052467391 0.03547702 0.23800001 -2.8081179e+38
-0.11174321 0.041738961 0.27700001 -2.8744235e+38
-0.11084625 0.041738961 0.27700001 -2.5139187e+38
-0.11039777 0.041738961 0.27700001 -2.4607498e+38
-0.10994929 0.041738961 0.27700001 -2.4474054e+38
-0.10905233 0.041738961 0.27700001 -2.4340609e+38
-0.10860385 0.041738961 0.27700001 -2.4340609e+38
-0.10815537 0.041738961 0.27700001 -2.4073721e+38
-0.10770689 0.041738961 0.27700001 -2.4073721e+38
-0.10764562 0.041889641 0.27800003 -2.4073721e+38
-0.10674542 0.041889641 0.27800003 -2.4341125e+38
-0.077177882 0.037971906 0.252 -2.9814422e+38
-0.07707452 0.038122591 0.25300002 -2.9814426e+38
-0.076967925 0.038273271 0.25400001 -2.994787e+38
-0.076858088 0.038423952 0.25500003 -2.9815469e+38
-0.076745011 0.038574636 0.25600001 -2.9815469e+38
-0.075916052 0.038574636 0.25600001 -2.9815469e+38
-0.075501569 0.038574636 0.25600001 -2.9815469e+38
-0.075087093 0.038574636 0.25600001 -2.9815469e+38
-0.07467261 0.038574636 0.25600001 -2.9948913e+38
-0.073843651 0.038574636 0.25600001 -3.0082357e+38
-0.073142342 0.038423952 0.25500003 -3.0082357e+38
-0.072729483 0.038423952 0.25500003 -3.0082357e+38
-0.072185732 0.038574636 0.25600001 -3.0082357e+38
-0.072051615 0.03872532 0.257 -3.0082357e+38
-0.071635514 0.03872532 0.257 -3.0349245e+38
-0.071219414 0.03872532 0.257 -3.0349245e+38
-0.070803314 0.03872532 0.257 -3.0482689e+38
-0.070661098 0.038876001 0.25800002 -3.0482689e+38
-0.069555022 0.03872532 0.257 -3.0482689e+38
-0.069138922 0.03872532 0.257 -3.0616133e+38
-0.068722822 0.03872532 0.257 -3.0616133e+38
-0.067890629 0.03872532 0.257 -3.0749577e+38
-0.067211978 0.038574636 0.25600001 -3.1015423e+38
-0.066383019 0.038574636 0.25600001 -3.0749577e+38
-0.052957382 0.036465086 0.24200001 -2.8081179e+38
-0.052999996 0.036766447 0.24400002 -2.7815333e+38
-0.052604944 0.036766447 0.24400002 -2.7948777e+38
-0.052637845 0.037067816 0.24600001 -2.7948777e+38
-0.052239556 0.037067816 0.24600001 -2.7948777e+38
-0.051841266 0.037067816 0.24600001 -2.7948773e+38
-0.051044688 0.037067816 0.24600001 -2.7948773e+38
-0.050646398 0.037067816 0.24600001 -2.8082217e+38
-0.1109364 0.041882839 0.27500001 -2.9411455e+38
-0.11049116 0.041882839 0.27500001 -2.6206739e+38
-0.11044607 0.04203514 0.27600002 -2.5139187e+38
-0.10999922 0.04203514 0.27600002 -2.4607498e+38
-0.10955235 0.04203514 0.27600002 -2.4474054e+38
-0.10865863 0.04203514 0.27600002 -2.3941318e+38
-0.10821177 0.04203514 0.27600002 -2.3941318e+38
-0.10776491 0.04203514 0.27600002 -2.3941318e+38
-0.081611648 0.035029281 0.23 -2.4608538e+38
-0.081592478 0.035181586 0.23100001 -2.4608538e+38
-0.081218474 0.035181586 0.23100001 -2.4608538e+38
-0.080844469 0.035181586 0.23100001 -2.4209768e+38
-0.080818824 0.035333887 0.23200001 -2.4076324e+38
-0.080443203 0.035333887 0.23200001 -2.4076328e+38
-0.07934846 0.035181586 0.23100001 -2.4876992e+38
-0.078974456 0.035181586 0.23100001 -2.6077988e+38
-0.078600451 0.035181586 0.23100001 -2.6612807e+38
-0.078903735 0.035486188 0.23300001 -2.7013139e+38
-0.078526497 0.035486188 0.23300001 -2.7812761e+38
-0.077772014 0.035486188 0.23300001 -2.8346537e+38
-0.077394769 0.035486188 0.23300001 -2.874687e+38
-0.077017531 0.035486188 0.23300001 -2.848102e+38
-0.076640293 0.035486188 0.23300001 -2.8614464e+38
-0.07588581 0.035486188 0.23300001 -2.8747908e+38
-0.075508565 0.035486188 0.23300001 -2.9013754e+38
-0.075131327 0.035486188 0.23300001 -2.9147198e+38
-0.075074919 0.035638489 0.23400001 -2.90148e+38
-0.073999599 0.035486188 0.23300001 -2.9148244e+38
-0.07393834 0.035638489 0.23400001 -2.9148244e+38
-0.076769881 0.038379908 0.252 -2.9947866e+38
-0.076664895 0.038532212 0.25300002 -2.9947866e+38
-0.07614544 0.038684513 0.25400001 -3.008131e+38
-0.076032363 0.038836814 0.25500003 -3.008131e+38
-0.075619504 0.038836814 0.25500003 -3.008131e+38
-0.075206645 0.038836814 0.25500003 -3.008131e+38
-0.075087093 0.038989116 0.25600001 -3.0214754e+38
-0.07467261 0.038989116 0.25600001 -2.9948909e+38
-0.073843651 0.038989116 0.25600001 -3.0349241e+38
-0.073142342 0.038836814 0.25500003 -3.0349241e+38
-0.072729483 0.038836814 0.25500003 -3.0082353e+38
-0.072185732 0.038989116 0.25600001 -3.0082357e+38
-0.071771257 0.038989116 0.25600001 -3.0082357e+38
-0.07107804 0.038836814 0.25500003 -3.0349245e+38
-0.055172384 0.035029281 0.23 -2.8214623e+38
-0.055038262 0.035181586 0.23100001 -2.8081179e+38
-0.054664258 0.035181586 0.23100001 -2.8081179e+38
