# .PCD v0.7 - Point Cloud Data file format
VERSION 0.7
FIELDS x y z rgb
SIZE 4 4 4 4
TYPE F F F F
COUNT 1 1 1 1
WIDTH 963
HEIGHT 1
VIEWPOINT 0 0 0 1 0 0 0
POINTS 963
DATA ascii
-0.07908909 0.033834573 0.26100001 -2.9680978e+38
-0.078666516 0.033834573 0.26100001 -2.9548576e+38
-0.078243941 0.033834573 0.26100001 -2.9815465e+38
-0.077398792 0.033834573 0.26100001 -3.0349241e+38
-0.077271141 0.033964209 0.26200002 -3.0482685e+38
-0.081964865 0.036427263 0.28100002 -3.0349245e+38
-0.081509903 0.036427263 0.28100002 -3.0616133e+38
-0.081054948 0.036427263 0.28100002 -3.0483729e+38
-0.080145039 0.036427263 0.28100002 -3.0617173e+38
-0.079690084 0.036427263 0.28100002 -3.0617173e+38
-0.071291111 0.034353111 0.26500002 -3.1150435e+38
-0.070862055 0.034353111 0.26500002 -3.0750102e+38
-0.070167221 0.034223478 0.264 -3.0616658e+38
-0.068524718 0.033834573 0.26100001 -2.8881886e+38
-0.06836307 0.033964209 0.26200002 -2.8614997e+38
-0.06751468 0.033964209 0.26200002 -2.8481553e+38
-0.067346558 0.034093842 0.26300001 -2.8613961e+38
-0.066920742 0.034093842 0.26300001 -2.8480517e+38
-0.066242099 0.033964209 0.26200002 -2.8746363e+38
-0.054394074 0.030852981 0.23800001 -2.7146076e+38
-0.054008737 0.030852981 0.23800001 -2.7812765e+38
-0.053623401 0.030852981 0.23800001 -2.8213097e+38
-0.053461753 0.030982617 0.23900001 -2.8748423e+38
-0.053074796 0.030982617 0.23900001 -2.994942e+38
-0.052908294 0.031112254 0.24000001 -3.0083371e+38
-0.085288212 0.03084456 0.23500001 -2.4477171e+38
-0.084167562 0.030713307 0.23400001 -2.4477171e+38
-0.0837887 0.030713307 0.23400001 -2.4477171e+38
-0.083030984 0.030713307 0.23400001 -2.4477171e+38
-0.082652122 0.030713307 0.23400001 -2.4343212e+38
-0.08227326 0.030713307 0.23400001 -2.4343212e+38
-0.081894398 0.030713307 0.23400001 -2.4343212e+38
-0.087377965 0.033075865 0.252 -2.394288e+38
-0.086969964 0.033075865 0.252 -2.3675991e+38
-0.083218858 0.033207122 0.25300002 -2.381203e+38
-0.083136544 0.033338375 0.25400001 -2.4212362e+38
-0.082725301 0.033338375 0.25400001 -2.4746138e+38
-0.082314059 0.033338375 0.25400001 -2.501303e+38
-0.082225271 0.033469629 0.25500003 -2.568025e+38
-0.082133241 0.033600882 0.25600001 -2.5947139e+38
-0.081621878 0.033732135 0.257 -2.6881247e+38
-0.082153708 0.034125898 0.26000002 -2.7281579e+38
-0.082047112 0.034257147 0.26100001 -2.7281064e+38
-0.081201963 0.034257147 0.26100001 -2.8081732e+38
-0.080779389 0.034257147 0.26100001 -2.8482065e+38
-0.080356814 0.034257147 0.26100001 -2.8747912e+38
-0.079207018 0.034125898 0.26000002 -2.9280646e+38
-0.078786068 0.034125898 0.26000002 -2.9814422e+38
-0.07836511 0.034125898 0.26000002 -2.9682021e+38
-0.077523194 0.034125898 0.26000002 -2.9948909e+38
-0.077102244 0.034125898 0.26000002 -3.0349241e+38
-0.076681286 0.034125898 0.26000002 -3.0349241e+38
-0.07684695 0.034388404 0.26200002 -3.0349241e+38
-0.081964865 0.036882218 0.28100002 -3.0349245e+38
-0.081509903 0.036882218 0.28100002 -3.0482689e+38
-0.081054948 0.036882218 0.28100002 -3.0482689e+38
-0.080145039 0.036882218 0.28100002 -3.0616133e+38
-0.079690084 0.036882218 0.28100002 -3.0616133e+38
-0.079235129 0.036882218 0.28100002 -3.0883021e+38
-0.071022086 0.034650911 0.264 -3.115095e+38
-0.070327252 0.034519654 0.26300001 -3.0884062e+38
-0.069211461 0.034388404 0.26200002 -3.0483729e+38
-0.067841217 0.034125898 0.26000002 -2.8616559e+38
-0.067420259 0.034125898 0.26000002 -2.8614997e+38
-0.067256995 0.034257147 0.26100001 -2.8481553e+38
-0.067090489 0.034388404 0.26200002 -2.8613961e+38
-0.06666629 0.034388404 0.26200002 -2.8480517e+38
-0.066494934 0.034519654 0.26300001 -2.8746363e+38
-0.055164747 0.031238317 0.23800001 -2.7546409e+38
-0.054394074 0.031238317 0.23800001 -2.821414e+38
-0.054008737 0.031238317 0.23800001 -2.9415639e+38
-0.053623401 0.031238317 0.23800001 -3.1016968e+38
-0.11462183 0.037602916 0.28300002 -3.1811893e+38
-0.11416364 0.037602916 0.28300002 -2.9143011e+38
-0.11324725 0.037602916 0.28300002 -2.6072253e+38
-0.11278906 0.037602916 0.28300002 -2.5806407e+38
-0.11233087 0.037602916 0.28300002 -2.5672963e+38
-0.11187267 0.037602916 0.28300002 -2.5273671e+38
-0.11095628 0.037602916 0.28300002 -2.5008345e+38
-0.11049809 0.037602916 0.28300002 -2.5008345e+38
-0.1100399 0.037602916 0.28300002 -2.5008341e+38
-0.10912351 0.037602916 0.28300002 -2.5008341e+38
-0.084546424 0.031092167 0.23400001 -2.4477171e+38
-0.084167562 0.031092167 0.23400001 -2.4477171e+38
-0.0837887 0.031092167 0.23400001 -2.4343727e+38
-0.083030984 0.031092167 0.23400001 -2.4343212e+38
-0.082652122 0.031092167 0.23400001 -2.4343212e+38
-0.08227326 0.031092167 0.23400001 -2.4343212e+38
-0.081894398 0.031092167 0.23400001 -2.4343216e+38
-0.081863895 0.031225041 0.23500001 -2.4209772e+38
-0.087377965 0.03348387 0.252 -2.4076328e+38
-0.086969964 0.03348387 0.252 -2.3675995e+38
-0.083547786 0.033749618 0.25400001 -2.4212362e+38
-0.083136544 0.033749618 0.25400001 -2.4612694e+38
-0.083050996 0.033882488 0.25500003 -2.5013026e+38
-0.08263813 0.033882488 0.25500003 -2.5413358e+38
-0.082225271 0.033882488 0.25500003 -2.581369e+38
-0.055164747 0.031623654 0.23800001 -2.9415136e+38
-0.054394074 0.031623654 0.23800001 -3.0883528e+38
-0.11462183 0.038061112 0.28300002 -3.1678449e+38
-0.11416364 0.038061112 0.28300002 -2.9009567e+38
-0.11324725 0.038061112 0.28300002 -2.6072253e+38
-0.1123905 0.037926622 0.28200001 -2.5672963e+38
-0.11193393 0.037926622 0.28200001 -2.5406075e+38
-0.11102078 0.037926622 0.28200001 -2.5273671e+38
-0.1105642 0.037926622 0.28200001 -2.5008345e+38
-0.11010763 0.037926622 0.28200001 -2.4874901e+38
-0.10919448 0.037926622 0.28200001 -2.4874897e+38
-0.1087379 0.037926622 0.28200001 -2.5008341e+38
-0.084546424 0.031471025 0.23400001 -2.4477171e+38
-0.084167562 0.031471025 0.23400001 -2.4343212e+38
-0.0837887 0.031471025 0.23400001 -2.4343212e+38
-0.08267615 0.031336535 0.23300001 -2.4343212e+38
-0.082298905 0.031336535 0.23300001 -2.447666e+38
-0.081921667 0.031336535 0.23300001 -2.4343216e+38
-0.081894398 0.031471025 0.23400001 -2.4343216e+38
-0.081136681 0.031471025 0.23400001 -2.4076328e+38
-0.082133241 0.034429841 0.25600001 -2.6347471e+38
-0.081621878 0.034564335 0.257 -2.7015738e+38
-0.082153708 0.03496781 0.26000002 -2.7149182e+38
-0.0813118 0.03496781 0.26000002 -2.7682962e+38
-0.081201963 0.035102297 0.26100001 -2.834862e+38
-0.080779389 0.035102297 0.26100001 -2.8615509e+38
-0.080048934 0.03496781 0.26000002 -2.90148e+38
-0.079207018 0.03496781 0.26000002 -2.9415132e+38
-0.078786068 0.03496781 0.26000002 -2.9682021e+38
-0.07836511 0.03496781 0.26000002 -2.9682021e+38
-0.077225029 0.034833316 0.259 -2.9815465e+38
-0.076805696 0.034833316 0.259 -3.0082353e+38
-0.076386355 0.034833316 0.259 -3.0082353e+38
-0.076260328 0.03496781 0.26000002 -3.0082353e+38
-0.076131061 0.035102297 0.26100001 -3.0082357e+38
-0.081054948 0.037792131 0.28100002 -3.0082357e+38
-0.080145039 0.037792131 0.28100002 -3.0482685e+38
-0.079690084 0.037792131 0.28100002 -3.0616129e+38
-0.079235129 0.037792131 0.28100002 -3.0616129e+38
-0.070327252 0.035371281 0.26300001 -3.1016465e+38
-0.069211461 0.035236791 0.26200002 -3.0883021e+38
-0.068524718 0.035102297 0.26100001 -3.0218403e+38
-0.067420259 0.03496781 0.26000002 -2.9683065e+38
-0.066999301 0.03496781 0.26000002 -2.9282733e+38
-0.06683442 0.035102297 0.26100001 -2.9014289e+38
-0.066411845 0.035102297 0.26100001 -2.8880845e+38
-0.066242099 0.035236791 0.26200002 -2.8880845e+38
-0.11462183 0.038519308 0.28300002 -3.1678449e+38
-0.11416364 0.038519308 0.28300002 -2.8742679e+38
-0.11324725 0.038519308 0.28300002 -2.5938809e+38
-0.1123905 0.038383197 0.28200001 -2.5273671e+38
-0.11193393 0.038383197 0.28200001 -2.5273671e+38
-0.11102078 0.038383197 0.28200001 -2.5140227e+38
-0.1105642 0.038383197 0.28200001 -2.4741457e+38
-0.11010763 0.038383197 0.28200001 -2.4741457e+38
-0.10919448 0.038383197 0.28200001 -2.4874897e+38
-0.1087379 0.038383197 0.28200001 -2.4874897e+38
-0.084781513 0.034572098 0.25400001 -2.3545146e+38
-0.08437027 0.034572098 0.25400001 -2.3945478e+38
-0.083547786 0.034572098 0.25400001 -2.4746142e+38
-0.083463855 0.034708209 0.25500003 -2.5013026e+38
-0.083050996 0.034708209 0.25500003 -2.5546802e+38
-0.08263813 0.034708209 0.25500003 -2.581369e+38
-0.082225271 0.034708209 0.25500003 -2.6347467e+38
-0.082133241 0.03484432 0.25600001 -2.6215588e+38
-0.082357191 0.035116542 0.25800002 -2.6615921e+38
-0.08225707 0.035252653 0.259 -2.7015738e+38
-0.081418395 0.035252653 0.259 -2.7814844e+38
-0.0813118 0.035388764 0.26000002 -2.834862e+38
-0.080890842 0.035388764 0.26000002 -2.834862e+38
-0.080469884 0.035388764 0.26000002 -2.8615509e+38
-0.080048934 0.035388764 0.26000002 -2.8881356e+38
-0.078902379 0.035252653 0.259 -2.9548576e+38
-0.078483038 0.035252653 0.259 -2.9682021e+38
-0.07764437 0.035252653 0.259 -2.9682021e+38
-0.077225029 0.035252653 0.259 -2.9815465e+38
-0.076805696 0.035252653 0.259 -2.9948909e+38
-0.076386355 0.035252653 0.259 -3.0082357e+38
-0.07554768 0.035252653 0.259 -3.0082357e+38
-0.07541842 0.035388764 0.26000002 -3.0349245e+38
-0.069475621 0.035797093 0.26300001 -3.0883021e+38
-0.068524718 0.035524871 0.26100001 -3.0617173e+38
-0.067420259 0.035388764 0.26000002 -2.9684627e+38
-0.066999301 0.035388764 0.26000002 -2.9684627e+38
-0.066578344 0.035388764 0.26000002 -2.9816509e+38
-0.066411845 0.035524871 0.26100001 -2.9949953e+38
-0.1142168 0.038839772 0.28200001 -3.1545004e+38
-0.11330365 0.038839772 0.28200001 -2.6872917e+38
-0.11284708 0.038839772 0.28200001 -2.6072253e+38
-0.1123905 0.038839772 0.28200001 -2.5139712e+38
-0.11193393 0.038839772 0.28200001 -2.5273156e+38
-0.11102078 0.038839772 0.28200001 -2.5140227e+38
-0.1105642 0.038839772 0.28200001 -2.4608013e+38
-0.11010763 0.038839772 0.28200001 -2.4741457e+38
-0.10919448 0.038839772 0.28200001 -2.4741453e+38
-0.1087379 0.038839772 0.28200001 -2.4874897e+38
-0.084546424 0.032228746 0.23400001 -2.4477171e+38
-0.084167562 0.032228746 0.23400001 -2.4476656e+38
-0.083053388 0.032091018 0.23300001 -2.4476656e+38
-0.08267615 0.032091018 0.23300001 -2.4476656e+38
-0.082298905 0.032091018 0.23300001 -2.4476656e+38
-0.081921667 0.032091018 0.23300001 -2.4343212e+38
-0.081167184 0.032091018 0.23300001 -2.4343216e+38
-0.081136681 0.032228746 0.23400001 -2.4076328e+38
-0.080757819 0.032228746 0.23400001 -2.3942884e+38
-0.084447727 0.034845609 0.25300002 -2.3811518e+38
-0.083628476 0.034845609 0.25300002 -2.4746142e+38
-0.083463855 0.035121068 0.25500003 -2.5413358e+38
-0.083050996 0.035121068 0.25500003 -2.581369e+38
-0.08263813 0.035121068 0.25500003 -2.6080579e+38
-0.082225271 0.035121068 0.25500003 -2.6480911e+38
-0.082454078 0.035396531 0.257 -2.6613844e+38
-0.082357191 0.035534259 0.25800002 -2.7014176e+38
-0.081521757 0.035534259 0.25800002 -2.76814e+38
-0.081418395 0.03567199 0.259 -2.7948288e+38
-0.0813118 0.035809718 0.26000002 -2.834862e+38
-0.080890842 0.035809718 0.26000002 -2.8614468e+38
-0.080160387 0.03567199 0.259 -2.8881356e+38
-0.079321712 0.03567199 0.259 -2.9148244e+38
-0.078902379 0.03567199 0.259 -2.9415132e+38
-0.078483038 0.03567199 0.259 -2.9548576e+38
-0.07764437 0.03567199 0.259 -2.9947866e+38
-0.077225029 0.03567199 0.259 -3.008131e+38
-0.076509148 0.035534259 0.25800002 -3.008131e+38
-0.075673714 0.035534259 0.25800002 -3.0214758e+38
-0.07554768 0.03567199 0.259 -2.9948913e+38
-0.075128347 0.03567199 0.259 -3.0082357e+38
-0.074709013 0.03567199 0.259 -2.9948913e+38
-0.073585123 0.035534259 0.25800002 -3.0482689e+38
-0.072883807 0.035396531 0.257 -3.0482689e+38
-0.071771257 0.0352588 0.25600001 -3.0482685e+38
-0.07107804 0.035121068 0.25500003 -3.0616133e+38
-0.068524718 0.035947446 0.26100001 -3.0750618e+38
-0.067160949 0.03567199 0.259 -3.0350285e+38
-0.066999301 0.035809718 0.26000002 -3.0617173e+38
-0.065902941 0.03567199 0.259 -3.0617173e+38
-0.0654836 0.03567199 0.259 -3.0617173e+38
-0.051419791 0.033606041 0.24400002 -2.9147169e+38
-0.051024742 0.033606041 0.24400002 -2.9147169e+38
-0.083807871 0.032468256 0.23300001 -2.4476656e+38
-0.083053388 0.032468256 0.23300001 -2.4476656e+38
-0.08267615 0.032468256 0.23300001 -2.4476656e+38
-0.082298905 0.032468256 0.23300001 -2.4476656e+38
-0.081921667 0.032468256 0.23300001 -2.4343212e+38
-0.081167184 0.032468256 0.23300001 -2.4209776e+38
-0.081136681 0.032607608 0.23400001 -2.4076332e+38
-0.080412701 0.032468256 0.23300001 -2.3942888e+38
-0.080722459 0.032746956 0.23500001 -2.3675995e+38
-0.08034198 0.032746956 0.23500001 -2.3409107e+38
-0.084781513 0.035394583 0.25400001 -2.4078407e+38
-0.083628476 0.035255231 0.25300002 -2.5012515e+38
-0.083218858 0.035255231 0.25300002 -2.5546291e+38
-0.082809232 0.035255231 0.25300002 -2.5813694e+38
-0.082725301 0.035394583 0.25400001 -2.6080583e+38
-0.08263813 0.035533931 0.25500003 -2.6480915e+38
-0.082225271 0.035533931 0.25500003 -2.6614359e+38
-0.082454078 0.035812628 0.257 -2.6747288e+38
-0.081621878 0.035812628 0.257 -2.7547956e+38
-0.081521757 0.035951976 0.25800002 -2.76814e+38
-0.08110404 0.035951976 0.25800002 -2.8081732e+38
-0.0813118 0.036230676 0.26000002 -2.834862e+38
-0.08057972 0.036091324 0.259 -2.8747912e+38
-0.080160387 0.036091324 0.259 -2.8881356e+38
-0.079321712 0.036091324 0.259 -2.9148244e+38
-0.078597732 0.035951976 0.25800002 -2.9415132e+38
-0.078180015 0.035951976 0.25800002 -2.9548576e+38
-0.077344581 0.035951976 0.25800002 -2.9947866e+38
-0.076926865 0.035951976 0.25800002 -2.9814422e+38
-0.076509148 0.035951976 0.25800002 -2.9947866e+38
-0.075673714 0.035951976 0.25800002 -3.0214754e+38
-0.07525599 0.035951976 0.25800002 -3.0214758e+38
-0.074838273 0.035951976 0.25800002 -3.0348202e+38
-0.074420556 0.035951976 0.25800002 -2.9948913e+38
-0.073299907 0.035812628 0.257 -3.0349245e+38
-0.072185732 0.035673279 0.25600001 -3.0616133e+38
-0.071490899 0.035533931 0.25500003 -3.0482689e+38
-0.07107804 0.035533931 0.25500003 -3.0616133e+38
-0.070942298 0.035673279 0.25600001 -3.0616133e+38
-0.071354315 0.036091324 0.259 -3.0616133e+38
-0.070934981 0.036091324 0.259 -3.0749577e+38
-0.069635652 0.036509372 0.26200002 -3.1016465e+38
-0.068683125 0.036230676 0.26000002 -3.1016465e+38
-0.067580283 0.036091324 0.259 -3.0883021e+38
-0.067160949 0.036091324 0.259 -3.0617173e+38
-0.066741608 0.036091324 0.259 -3.0750618e+38
-0.065902941 0.036091324 0.259 -3.0750618e+38
-0.053781807 0.033025652 0.23700002 -3.0347651e+38
-0.053398091 0.033025652 0.23700002 -3.0347651e+38
-0.052630655 0.033025652 0.23700002 -2.9546986e+38
-0.052467391 0.033165 0.23800001 -2.9415104e+38
-0.052782781 0.033861745 0.24300002 -2.9148216e+38
-0.052604944 0.034001093 0.24400002 -2.9014772e+38
-0.052027199 0.034140442 0.245 -2.9015287e+38
-0.051233858 0.034140442 0.245 -2.8748399e+38
-0.1142168 0.039752923 0.28200001 -3.1412076e+38
-0.11330365 0.039752923 0.28200001 -2.6872917e+38
-0.11284708 0.039752923 0.28200001 -2.5938809e+38
-0.1123905 0.039752923 0.28200001 -2.5139712e+38
-0.11193393 0.039752923 0.28200001 -2.5139712e+38
-0.11102078 0.039752923 0.28200001 -2.5006783e+38
-0.11017214 0.039611954 0.28100002 -2.4608013e+38
-0.10971718 0.039611954 0.28100002 -2.4608013e+38
-0.10880727 0.039611954 0.28100002 -2.4741453e+38
-0.10835231 0.039611954 0.28100002 -2.4874897e+38
-0.083807871 0.032845497 0.23300001 -2.4476656e+38
-0.083053388 0.032845497 0.23300001 -2.4476656e+38
-0.08267615 0.032845497 0.23300001 -2.4476656e+38
-0.082652122 0.032986466 0.23400001 -2.447666e+38
-0.08227326 0.032986466 0.23400001 -2.4343216e+38
-0.081894398 0.032986466 0.23400001 -2.434322e+38
-0.080789946 0.032845497 0.23300001 -2.4076332e+38
-0.080412701 0.032845497 0.23300001 -2.4076332e+38
-0.07931634 0.032704532 0.23200001 -2.3409111e+38
-0.053781807 0.033409372 0.23700002 -2.9813349e+38
-0.053398091 0.033409372 0.23700002 -2.9813349e+38
-0.052630655 0.033409372 0.23700002 -2.9279573e+38
-0.052467391 0.033550337 0.23800001 -2.9414057e+38
-0.052999996 0.034396145 0.24400002 -2.9015287e+38
-0.052820537 0.034537114 0.245 -2.8881843e+38
-0.052423868 0.034537114 0.245 -2.9015287e+38
-0.052027199 0.034537114 0.245 -2.8881843e+38
-0.051233858 0.034537114 0.245 -2.8481511e+38
-0.050837189 0.034537114 0.245 -2.8748399e+38
-0.05044052 0.034537114 0.245 -2.8881843e+38
-0.11335683 0.040066909 0.28100002 -2.8743194e+38
-0.11290187 0.040066909 0.28100002 -2.6340183e+38
-0.11244692 0.040066909 0.28100002 -2.5672963e+38
-0.11199196 0.040066909 0.28100002 -2.5138672e+38
-0.11108205 0.040066909 0.28100002 -2.5138672e+38
-0.11062709 0.040066909 0.28100002 -2.5005227e+38
-0.11017214 0.040066909 0.28100002 -2.4608013e+38
-0.10971718 0.040066909 0.28100002 -2.4608013e+38
-0.10835231 0.040066909 0.28100002 -2.4875412e+38
-0.081491575 0.036217064 0.25400001 -2.7414508e+38
-0.081399553 0.036359649 0.25500003 -2.781484e+38
-0.081304282 0.036502238 0.25600001 -2.8081732e+38
-0.081205785 0.036644828 0.257 -2.8081732e+38
-0.080789685 0.036644828 0.257 -2.8482065e+38
-0.080373585 0.036644828 0.257 -2.8615509e+38
-0.080268607 0.036787409 0.25800002 -2.90148e+38
-0.079433173 0.036787409 0.25800002 -2.90148e+38
-0.079015449 0.036787409 0.25800002 -2.9148244e+38
-0.078597732 0.036787409 0.25800002 -2.9415132e+38
-0.078180015 0.036787409 0.25800002 -2.9415132e+38
-0.077344581 0.036787409 0.25800002 -2.9548576e+38
-0.076926865 0.036787409 0.25800002 -2.9814422e+38
-0.076509148 0.036787409 0.25800002 -2.9947866e+38
-0.075673714 0.036787409 0.25800002 -3.008131e+38
-0.07525599 0.036787409 0.25800002 -3.0214758e+38
-0.074838273 0.036787409 0.25800002 -3.0214758e+38
-0.074420556 0.036787409 0.25800002 -3.0348202e+38
-0.073299907 0.036644828 0.257 -3.0349245e+38
-0.072185732 0.036502238 0.25600001 -3.0482689e+38
-0.071490899 0.036359649 0.25500003 -3.0482689e+38
-0.07107804 0.036359649 0.25500003 -3.0482689e+38
-0.070942298 0.036502238 0.25600001 -3.0616133e+38
-0.071078815 0.036787409 0.25800002 -3.0616133e+38
-0.071208857 0.037072588 0.26000002 -3.0616133e+38
-0.070787907 0.037072588 0.26000002 -3.0616133e+38
-0.070366949 0.037072588 0.26000002 -3.0749577e+38
-0.069525033 0.037072588 0.26000002 -3.1016465e+38
-0.069104083 0.037072588 0.26000002 -3.1016465e+38
-0.067999624 0.036929999 0.259 -3.1016465e+38
-0.067580283 0.036929999 0.259 -3.0883021e+38
-0.067160949 0.036929999 0.259 -3.0749577e+38
-0.066741608 0.036929999 0.259 -3.0883021e+38
-0.065902941 0.036929999 0.259 -3.0884062e+38
-0.11295342 0.040377658 0.28 -2.8610276e+38
-0.11250008 0.040377658 0.28 -2.6607071e+38
-0.11204675 0.040377658 0.28 -2.5672963e+38
-0.11199196 0.040521868 0.28100002 -2.5272116e+38
-0.11108205 0.040521868 0.28100002 -2.5138672e+38
-0.11062709 0.040521868 0.28100002 -2.5005227e+38
-0.11017214 0.040521868 0.28100002 -2.4873339e+38
-0.10971718 0.040521868 0.28100002 -2.4873339e+38
-0.10880727 0.040521868 0.28100002 -2.4608009e+38
-0.10835231 0.040521868 0.28100002 -2.4741453e+38
-0.083072558 0.033455778 0.23200001 -2.4343216e+38
-0.082696937 0.033455778 0.23200001 -2.4610104e+38
-0.08267615 0.03359998 0.23300001 -2.447666e+38
-0.082652122 0.033744186 0.23400001 -2.4343216e+38
-0.08227326 0.033744186 0.23400001 -2.4343216e+38
-0.081894398 0.033744186 0.23400001 -2.434322e+38
-0.080789946 0.03359998 0.23300001 -2.4209776e+38
-0.079691961 0.033455778 0.23200001 -2.3675995e+38
-0.078974456 0.033311568 0.23100001 -2.3542551e+38
-0.078565091 0.033455778 0.23200001 -2.3675991e+38
-0.077813849 0.033455778 0.23200001 -2.501199e+38
-0.077438228 0.033455778 0.23200001 -2.5547861e+38
-0.077062607 0.033455778 0.23200001 -2.5814749e+38
-0.076311365 0.033455778 0.23200001 -2.6481969e+38
-0.08108034 0.036628306 0.25400001 -2.8081728e+38
-0.080986694 0.036772512 0.25500003 -2.834862e+38
-0.080889806 0.036916718 0.25600001 -2.834862e+38
-0.080475323 0.036916718 0.25600001 -2.8615509e+38
-0.07933525 0.036772512 0.25500003 -2.90148e+38
-0.079231888 0.036916718 0.25600001 -2.90148e+38
-0.079125285 0.037060924 0.257 -2.90148e+38
-0.079015449 0.03720513 0.25800002 -2.9148244e+38
-0.078597732 0.03720513 0.25800002 -2.9415132e+38
-0.078180015 0.03720513 0.25800002 -2.9415132e+38
-0.077344581 0.03720513 0.25800002 -2.9548576e+38
-0.076926865 0.03720513 0.25800002 -2.9947866e+38
-0.076509148 0.03720513 0.25800002 -3.008131e+38
-0.075673714 0.03720513 0.25800002 -3.008131e+38
-0.0749643 0.037060924 0.257 -3.0214758e+38
-0.074548207 0.037060924 0.257 -3.0348202e+38
-0.073716007 0.037060924 0.257 -3.061509e+38
-0.073014691 0.036916718 0.25600001 -3.034873e+38
-0.072185732 0.036916718 0.25600001 -3.0482689e+38
-0.071490899 0.036772512 0.25500003 -3.0482689e+38
-0.07107804 0.036772512 0.25500003 -3.0482689e+38
-0.070942298 0.036916718 0.25600001 -3.0616133e+38
-0.071078815 0.03720513 0.25800002 -3.0616133e+38
-0.070934981 0.037349336 0.259 -3.0616133e+38
-0.07051564 0.037349336 0.259 -3.0616133e+38
-0.069676965 0.037349336 0.259 -3.0883021e+38
-0.069525033 0.037493542 0.26000002 -3.0883021e+38
-0.068838298 0.037349336 0.259 -3.1016465e+38
-0.067999624 0.037349336 0.259 -3.1016465e+38
-0.067319356 0.03720513 0.25800002 -3.0883021e+38
-0.066901639 0.03720513 0.25800002 -3.0883021e+38
-0.066741608 0.037349336 0.259 -3.0883021e+38
-0.053936981 0.034032598 0.23600002 -2.9147165e+38
-0.053781807 0.034176804 0.23700002 -2.9147169e+38
-0.053398091 0.034176804 0.23700002 -2.9147169e+38
-0.052630655 0.034176804 0.23700002 -2.8746837e+38
-0.052467391 0.03432101 0.23800001 -2.9013725e+38
-0.053176217 0.03504204 0.24300002 -2.8746837e+38
-0.052999996 0.035186246 0.24400002 -2.9013725e+38
-0.052820537 0.035330452 0.245 -2.8746837e+38
-0.052423868 0.035330452 0.245 -2.8746837e+38
-0.052027199 0.035330452 0.245 -2.8746837e+38
-0.051233858 0.035330452 0.245 -2.8481511e+38
-0.050837189 0.035330452 0.245 -2.8748399e+38
-0.050646398 0.035474658 0.24600001 -2.8748399e+38
-0.11300174 0.040685173 0.27900001 -3.1412601e+38
-0.11255002 0.040685173 0.27900001 -2.874372e+38
-0.1120983 0.040685173 0.27900001 -2.6607071e+38
-0.11119486 0.040685173 0.27900001 -2.5138672e+38
-0.11114007 0.040830996 0.28 -2.5138672e+38
-0.11068673 0.040830996 0.28 -2.5139187e+38
-0.1102334 0.040830996 0.28 -2.5005743e+38
-0.10978006 0.040830996 0.28 -2.4739895e+38
-0.10842005 0.040830996 0.28 -2.4873335e+38
-0.10796671 0.040830996 0.28 -2.4741453e+38
-0.082714491 0.033685572 0.23100001 -2.447666e+38
-0.082696937 0.033831399 0.23200001 -2.447666e+38
-0.08267615 0.033977222 0.23300001 -2.4343216e+38
-0.082298905 0.033977222 0.23300001 -2.4343216e+38
-0.081921667 0.033977222 0.23300001 -2.4343216e+38
-0.081167184 0.033977222 0.23300001 -2.4343216e+38
-0.080789946 0.033977222 0.23300001 -2.4209772e+38
-0.079691961 0.033831399 0.23200001 -2.3675995e+38
-0.078974456 0.033685572 0.23100001 -2.3542551e+38
-0.078565091 0.033831399 0.23200001 -2.4610615e+38
-0.077813849 0.033831399 0.23200001 -2.567921e+38
-0.077438228 0.033831399 0.23200001 -2.5814749e+38
-0.077062607 0.033831399 0.23200001 -2.6348525e+38
-0.076311365 0.033831399 0.23200001 -2.714919e+38
-0.075935736 0.033831399 0.23200001 -2.7547956e+38
-0.075560115 0.033831399 0.23200001 -2.76814e+38
-0.075508565 0.033977222 0.23300001 -2.7814844e+38
-0.079846613 0.037039548 0.25400001 -2.8748953e+38
-0.079748109 0.037185371 0.25500003 -2.8882397e+38
-0.07933525 0.037185371 0.25500003 -2.9148244e+38
-0.078709193 0.037477024 0.257 -2.9415132e+38
-0.078597732 0.037622847 0.25800002 -2.9415132e+38
-0.078180015 0.037622847 0.25800002 -2.9415132e+38
-0.077344581 0.037622847 0.25800002 -2.9682021e+38
-0.076926865 0.037622847 0.25800002 -2.9947866e+38
-0.076509148 0.037622847 0.25800002 -3.008131e+38
-0.0753804 0.037477024 0.257 -3.008131e+38
-0.0749643 0.037477024 0.257 -3.0214758e+38
-0.074548207 0.037477024 0.257 -3.0348202e+38
-0.073716007 0.037477024 0.257 -3.061509e+38
-0.073014691 0.037331197 0.25600001 -3.034873e+38
-0.072185732 0.037331197 0.25600001 -3.0615618e+38
-0.071490899 0.037185371 0.25500003 -3.0482174e+38
-0.07107804 0.037185371 0.25500003 -3.0482174e+38
-0.070942298 0.037331197 0.25600001 -3.0615618e+38
-0.070803314 0.037477024 0.257 -3.0615618e+38
-0.070934981 0.037768673 0.259 -3.0615618e+38
-0.07051564 0.037768673 0.259 -3.0615618e+38
-0.069676965 0.037768673 0.259 -3.0883021e+38
-0.069257632 0.037768673 0.259 -3.1016465e+38
-0.068838298 0.037768673 0.259 -3.1016465e+38
-0.067737073 0.037622847 0.25800002 -3.1016465e+38
-0.067319356 0.037622847 0.25800002 -3.0883021e+38
-0.066226229 0.037477024 0.257 -3.0883021e+38
-0.065810136 0.037477024 0.257 -3.1016465e+38
-0.054701176 0.034414697 0.23600002 -2.9147165e+38
-0.054319076 0.034414697 0.23600002 -2.9147165e+38
-0.053936981 0.034414697 0.23600002 -2.9147165e+38
-0.053554881 0.034414697 0.23600002 -2.9013725e+38
-0.053398091 0.034560524 0.23700002 -2.8746837e+38
-0.052630655 0.034560524 0.23700002 -2.8613393e+38
-0.052467391 0.034706347 0.23800001 -2.8746837e+38
-0.053176217 0.035435472 0.24300002 -2.8746837e+38
-0.052999996 0.035581298 0.24400002 -2.8746837e+38
-0.052820537 0.035727121 0.245 -2.8746837e+38
-0.052423868 0.035727121 0.245 -2.8746837e+38
-0.052027199 0.035727121 0.245 -2.8746837e+38
-0.051233858 0.035727121 0.245 -2.8481511e+38
-0.051044688 0.035872947 0.24600001 -2.8748399e+38
-0.050646398 0.035872947 0.24600001 -2.8748399e+38
-0.082714491 0.034059577 0.23100001 -2.447666e+38
-0.082696937 0.03420702 0.23200001 -2.447666e+38
-0.082321316 0.03420702 0.23200001 -2.4343216e+38
-0.082298905 0.034354463 0.23300001 -2.4343216e+38
-0.081921667 0.034354463 0.23300001 -2.4343216e+38
-0.081167184 0.034354463 0.23300001 -2.4343216e+38
-0.080443203 0.03420702 0.23200001 -2.4209772e+38
-0.079691961 0.03420702 0.23200001 -2.3675995e+38
-0.07931634 0.03420702 0.23200001 -2.3942884e+38
-0.078940719 0.03420702 0.23200001 -2.4211325e+38
-0.078565091 0.03420702 0.23200001 -2.5145434e+38
-0.077813849 0.03420702 0.23200001 -2.6080067e+38
-0.077438228 0.03420702 0.23200001 -2.6613852e+38
-0.077062607 0.03420702 0.23200001 -2.7014184e+38
-0.076311365 0.03420702 0.23200001 -2.7947252e+38
-0.075935736 0.03420702 0.23200001 -2.8080696e+38
-0.075560115 0.03420702 0.23200001 -2.821414e+38
-0.075184494 0.03420702 0.23200001 -2.8081736e+38
-0.074433252 0.03420702 0.23200001 -2.8348625e+38
-0.080573827 0.03759823 0.25500003 -2.8748957e+38
-0.079435371 0.03745079 0.25400001 -2.8882397e+38
-0.079024129 0.03745079 0.25400001 -2.9415132e+38
-0.077484146 0.037303343 0.25300002 -2.9548576e+38
-0.078293093 0.03789312 0.257 -2.9682021e+38
-0.077460892 0.03789312 0.257 -2.9682021e+38
-0.077344581 0.038040563 0.25800002 -2.9682021e+38
-0.076926865 0.038040563 0.25800002 -2.9815465e+38
-0.0757965 0.03789312 0.257 -3.0082353e+38
-0.0753804 0.03789312 0.257 -2.9948909e+38
-0.0749643 0.03789312 0.257 -2.9948913e+38
-0.074548207 0.03789312 0.257 -3.0082357e+38
-0.073716007 0.03789312 0.257 -3.0349245e+38
-0.073014691 0.037745677 0.25600001 -3.034873e+38
-0.072185732 0.037745677 0.25600001 -3.0482174e+38
-0.071771257 0.037745677 0.25600001 -3.0482174e+38
-0.071356773 0.037745677 0.25600001 -3.0615618e+38
-0.070942298 0.037745677 0.25600001 -3.0615618e+38
-0.070803314 0.03789312 0.257 -3.0615618e+38
-0.070661098 0.038040563 0.25800002 -3.0615618e+38
-0.069825664 0.038040563 0.25800002 -3.0615618e+38
-0.069676965 0.03818801 0.259 -3.0883021e+38
-0.069257632 0.03818801 0.259 -3.1016465e+38
-0.068838298 0.03818801 0.259 -3.1016465e+38
-0.067737073 0.038040563 0.25800002 -3.0883021e+38
-0.067058429 0.03789312 0.257 -3.0883021e+38
-0.066226229 0.03789312 0.257 -3.0883021e+38
-0.065810136 0.03789312 0.257 -3.1016465e+38
-0.05546537 0.034796797 0.23600002 -2.9147165e+38
-0.054701176 0.034796797 0.23600002 -2.8746833e+38
-0.054319076 0.034796797 0.23600002 -2.8746833e+38
-0.053936981 0.034796797 0.23600002 -2.8746833e+38
-0.053554881 0.034796797 0.23600002 -2.8746833e+38
-0.052790683 0.034796797 0.23600002 -2.8746833e+38
-0.052630655 0.03494424 0.23700002 -2.8613389e+38
-0.053349197 0.03568146 0.24200001 -2.8746833e+38
-0.053395048 0.035976347 0.24400002 -2.8746833e+38
-0.052999996 0.035976347 0.24400002 -2.8746833e+38
-0.052820537 0.036123794 0.245 -2.8746833e+38
-0.052423868 0.036123794 0.245 -2.8746833e+38
-0.052027199 0.036123794 0.245 -2.8746833e+38
-0.051841266 0.036271237 0.24600001 -2.8348063e+38
-0.051044688 0.036271237 0.24600001 -2.8481507e+38
-0.050646398 0.036271237 0.24600001 -2.8481507e+38
-0.11259671 0.041439544 0.27800003 -3.1412601e+38
-0.11214661 0.041439544 0.27800003 -2.874372e+38
-0.11169651 0.041439544 0.27800003 -2.6607067e+38
-0.11079631 0.041439544 0.27800003 -2.5005227e+38
-0.11074315 0.041588608 0.27900001 -2.5005227e+38
-0.11029143 0.041588608 0.27900001 -2.5005743e+38
-0.10983972 0.041588608 0.27900001 -2.5005743e+38
-0.10893628 0.041588608 0.27900001 -2.4739895e+38
-0.10848456 0.041588608 0.27900001 -2.4341125e+38
-0.10803284 0.041588608 0.27900001 -2.4474569e+38
-0.10758112 0.041588608 0.27900001 -2.4608009e+38
-0.082696937 0.034582641 0.23200001 -2.4476656e+38
-0.082321316 0.034582641 0.23200001 -2.4343212e+38
-0.082298905 0.034731705 0.23300001 -2.4343212e+38
-0.081194445 0.034582641 0.23200001 -2.4476656e+38
-0.080818824 0.034582641 0.23200001 -2.4343212e+38
-0.080443203 0.034582641 0.23200001 -2.4076328e+38
-0.079691961 0.034582641 0.23200001 -2.3942884e+38
-0.07931634 0.034582641 0.23200001 -2.4209772e+38
-0.078940719 0.034582641 0.23200001 -2.487803e+38
-0.078565091 0.034582641 0.23200001 -2.5678695e+38
-0.077813849 0.034582641 0.23200001 -2.6880736e+38
-0.077438228 0.034582641 0.23200001 -2.7014184e+38
-0.077062607 0.034582641 0.23200001 -2.754796e+38
-0.076311365 0.034582641 0.23200001 -2.8481028e+38
-0.075935736 0.034582641 0.23200001 -2.8746874e+38
-0.075560115 0.034582641 0.23200001 -2.8880318e+38
-0.075184494 0.034582641 0.23200001 -2.8615513e+38
-0.074433252 0.034582641 0.23200001 -2.8615513e+38
-0.074057631 0.034582641 0.23200001 -2.8748957e+38
-0.055137545 0.034731705 0.23300001 -2.9147165e+38
-0.054760303 0.034731705 0.23300001 -2.8746833e+38
-0.054849871 0.035029832 0.23500001 -2.8746833e+38
-0.054237604 0.034880769 0.23400001 -2.8746833e+38
-0.054319076 0.035178892 0.23600002 -2.8746833e+38
-0.053936981 0.035178892 0.23600002 -2.8746833e+38
-0.053554881 0.035178892 0.23600002 -2.8613389e+38
-0.052790683 0.035178892 0.23600002 -2.8746833e+38
-0.052630655 0.035327956 0.23700002 -2.8613389e+38
-0.11174321 0.041738961 0.27700001 -2.8877679e+38
-0.11084625 0.041738961 0.27700001 -2.5672959e+38
-0.11079631 0.041889641 0.27800003 -2.5005227e+38
-0.11034621 0.041889641 0.27800003 -2.5005227e+38
-0.10989612 0.041889641 0.27800003 -2.5005743e+38
-0.10899591 0.041889641 0.27800003 -2.4739895e+38
-0.10854582 0.041889641 0.27800003 -2.4739895e+38
-0.10809572 0.041889641 0.27800003 -2.4341125e+38
-0.10764562 0.041889641 0.27800003 -2.4474569e+38
-0.079435371 0.038273271 0.25400001 -2.9548576e+38
-0.078713007 0.038122591 0.25300002 -2.9682021e+38
-0.077585883 0.037971906 0.252 -2.9548576e+38
-0.077177882 0.037971906 0.252 -2.9548576e+38
-0.077379167 0.038273271 0.25400001 -2.9682021e+38
-0.07757397 0.038574636 0.25600001 -2.9815465e+38
-0.077460892 0.03872532 0.257 -2.9815465e+38
-0.077044792 0.03872532 0.257 -3.0082353e+38
-0.0766287 0.03872532 0.257 -2.9948909e+38
-0.0757965 0.03872532 0.257 -3.0082357e+38
-0.0753804 0.03872532 0.257 -3.0082357e+38
-0.0749643 0.03872532 0.257 -3.0349245e+38
-0.074548207 0.03872532 0.257 -3.0349245e+38
-0.073429175 0.038574636 0.25600001 -3.0349245e+38
-0.073014691 0.038574636 0.25600001 -3.0482689e+38
-0.072185732 0.038574636 0.25600001 -3.0482689e+38
-0.071771257 0.038574636 0.25600001 -3.0482689e+38
-0.071356773 0.038574636 0.25600001 -3.0616133e+38
-0.070942298 0.038574636 0.25600001 -3.0749577e+38
-0.070113339 0.038574636 0.25600001 -3.0616133e+38
-0.07051564 0.039026681 0.259 -3.0616133e+38
-0.069676965 0.039026681 0.259 -3.0883021e+38
-0.069257632 0.039026681 0.259 -3.1016465e+38
-0.068838298 0.039026681 0.259 -3.0883021e+38
-0.067737073 0.038876001 0.25800002 -3.1016465e+38
-0.067058429 0.03872532 0.257 -3.0883021e+38
-0.053349197 0.036465086 0.24200001 -2.8746833e+38
-0.053176217 0.03661577 0.24300002 -2.8613389e+38
-0.052999996 0.036766447 0.24400002 -2.8613389e+38
-0.052604944 0.036766447 0.24400002 -2.8613389e+38
-0.052423868 0.036917131 0.245 -2.8481507e+38
-0.052239556 0.037067816 0.24600001 -2.8348063e+38
-0.051841266 0.037067816 0.24600001 -2.8348063e+38
-0.051044688 0.037067816 0.24600001 -2.8481507e+38
-0.05085228 0.037218496 0.24700001 -2.8481507e+38
-0.1109364 0.041882839 0.27500001 -2.9144567e+38
-0.11049116 0.041882839 0.27500001 -2.6607582e+38
-0.11084625 0.042187441 0.27700001 -2.5673474e+38
-0.11039777 0.042187441 0.27700001 -2.5005743e+38
-0.10994929 0.042187441 0.27700001 -2.5005743e+38
-0.10905233 0.042187441 0.27700001 -2.473938e+38
-0.10860385 0.042187441 0.27700001 -2.4474054e+38
-0.10815537 0.042187441 0.27700001 -2.4340609e+38
-0.10770689 0.042187441 0.27700001 -2.4341125e+38
-0.10764562 0.042339742 0.27800003 -2.4341125e+38
-0.082340486 0.035181586 0.23100001 -2.4476656e+38
-0.082321316 0.035333887 0.23200001 -2.4476656e+38
-0.082298905 0.035486188 0.23300001 -2.4476656e+38
-0.081194445 0.035333887 0.23200001 -2.4343212e+38
-0.081167184 0.035486188 0.23300001 -2.4476656e+38
-0.080443203 0.035333887 0.23200001 -2.4343216e+38
-0.079691961 0.035333887 0.23200001 -2.474459e+38
-0.07931634 0.035333887 0.23200001 -2.5812143e+38
-0.078940719 0.035333887 0.23200001 -2.6746251e+38
-0.078565091 0.035333887 0.23200001 -2.768036e+38
-0.078526497 0.035486188 0.23300001 -2.76814e+38
-0.077772014 0.035486188 0.23300001 -2.8080692e+38
-0.077394769 0.035486188 0.23300001 -2.8481024e+38
-0.077017531 0.035486188 0.23300001 -2.9147202e+38
-0.076640293 0.035486188 0.23300001 -2.9280646e+38
-0.07588581 0.035486188 0.23300001 -2.9280646e+38
-0.075508565 0.035486188 0.23300001 -2.941409e+38
-0.075131327 0.035486188 0.23300001 -2.9680978e+38
-0.074057631 0.035333887 0.23200001 -2.941409e+38
-0.07368201 0.035333887 0.23200001 -2.9814422e+38
-0.073306382 0.035333887 0.23200001 -2.9814422e+38
-0.079122633 0.038532212 0.25300002 -2.9947866e+38
-0.077993885 0.038379908 0.252 -2.9815465e+38
-0.076970123 0.038075306 0.25 -2.9815465e+38
-0.076871619 0.03822761 0.25100002 -2.9815465e+38
-0.076769881 0.038379908 0.252 -2.9948909e+38
-0.077159487 0.038989116 0.25600001 -2.9948909e+38
-0.077044792 0.039141417 0.257 -3.0082353e+38
-0.0766287 0.039141417 0.257 -3.0082357e+38
-0.0757965 0.039141417 0.257 -3.0349245e+38
-0.0753804 0.039141417 0.257 -3.0349245e+38
-0.0749643 0.039141417 0.257 -3.0349245e+38
-0.074548207 0.039141417 0.257 -3.0349245e+38
-0.073429175 0.038989116 0.25600001 -3.0349245e+38
-0.073014691 0.038989116 0.25600001 -3.0349245e+38
-0.072185732 0.038989116 0.25600001 -3.0482689e+38
-0.071771257 0.038989116 0.25600001 -3.0482689e+38
-0.071356773 0.038989116 0.25600001 -3.0616133e+38
-0.070942298 0.038989116 0.25600001 -3.0749577e+38
-0.070113339 0.038989116 0.25600001 -3.0616133e+38
-0.054760303 0.035486188 0.23300001 -2.8214619e+38
-0.054849871 0.03579079 0.23500001 -2.8348063e+38
-0.054237604 0.035638489 0.23400001 -2.8348063e+38
-0.054088913 0.03579079 0.23500001 -2.8348063e+38
-0.05370843 0.03579079 0.23500001 -2.8348063e+38
-0.052947473 0.03579079 0.23500001 -2.8348063e+38
-0.052790683 0.035943091 0.23600002 -2.8348067e+38
-0.053569648 0.037009202 0.24300002 -2.8481511e+38
-0.053176217 0.037009202 0.24300002 -2.8348067e+38
-0.052999996 0.037161499 0.24400002 -2.8348067e+38
-0.052604944 0.037161499 0.24400002 -2.8348067e+38
-0.052209891 0.037161499 0.24400002 -2.8348063e+38
-0.052239556 0.037466105 0.24600001 -2.8348063e+38
-0.051841266 0.037466105 0.24600001 -2.8348063e+38
-0.051652096 0.037618402 0.24700001 -2.8348063e+38
-0.05085228 0.037618402 0.24700001 -2.8215661e+38
-0.082340486 0.035555586 0.23100001 -2.4875426e+38
-0.082321316 0.035709508 0.23200001 -2.4875426e+38
-0.082298905 0.035863426 0.23300001 -2.46101e+38
-0.081921667 0.035863426 0.23300001 -2.4343212e+38
-0.081167184 0.035863426 0.23300001 -2.447666e+38
-0.080789946 0.035863426 0.23300001 -2.4610104e+38
-0.079691961 0.035709508 0.23200001 -2.6079031e+38
-0.07931634 0.035709508 0.23200001 -2.7013139e+38
-0.078940719 0.035709508 0.23200001 -2.768036e+38
-0.078903735 0.035863426 0.23300001 -2.8080692e+38
-0.078526497 0.035863426 0.23300001 -2.8481024e+38
-0.077772014 0.035863426 0.23300001 -2.8747912e+38
-0.077394769 0.035863426 0.23300001 -2.8747912e+38
-0.077017531 0.035863426 0.23300001 -2.9280646e+38
-0.076640293 0.035863426 0.23300001 -2.9280646e+38
-0.07588581 0.035863426 0.23300001 -2.941409e+38
-0.075508565 0.035863426 0.23300001 -2.9680978e+38
-0.075131327 0.035863426 0.23300001 -2.9814422e+38
-0.074057631 0.035709508 0.23200001 -2.9814422e+38
-0.07368201 0.035709508 0.23200001 -2.9947866e+38
-0.073306382 0.035709508 0.23200001 -2.9947866e+38
-0.073245123 0.035863426 0.23300001 -2.9947866e+38
-0.07737489 0.038480073 0.25 -2.9815465e+38
-0.076970123 0.038480073 0.25 -2.9948909e+38
-0.076160595 0.038480073 0.25 -3.0082353e+38
-0.07605885 0.038633995 0.25100002 -3.0349241e+38
-0.075953871 0.038787913 0.252 -3.0082353e+38
-0.075916052 0.039403595 0.25600001 -3.0082357e+38
-0.075501569 0.039403595 0.25600001 -3.0349245e+38
-0.075087093 0.039403595 0.25600001 -3.0349245e+38
-0.07467261 0.039403595 0.25600001 -3.0349245e+38
-0.073843651 0.039403595 0.25600001 -3.0482689e+38
-0.073429175 0.039403595 0.25600001 -3.0349245e+38
-0.073014691 0.039403595 0.25600001 -3.0349245e+38
-0.072185732 0.039403595 0.25600001 -3.0482689e+38
-0.071771257 0.039403595 0.25600001 -3.0482689e+38
-0.071635514 0.039557517 0.257 -3.0616133e+38
-0.070252314 0.039249673 0.25500003 -3.0616133e+38
-0.052947473 0.036171269 0.23500001 -2.8348063e+38
-0.052790683 0.036325186 0.23600002 -2.8348067e+38
-0.053349197 0.037248712 0.24200001 -2.8348067e+38
-0.053176217 0.037402634 0.24300002 -2.8348067e+38
-0.052999996 0.037556551 0.24400002 -2.8348067e+38
-0.052604944 0.037556551 0.24400002 -2.8348067e+38
-0.052209891 0.037556551 0.24400002 -2.8348063e+38
-0.052239556 0.037864394 0.24600001 -2.8348063e+38
-0.051841266 0.037864394 0.24600001 -2.8348063e+38
-0.051652096 0.038018312 0.24700001 -2.8348063e+38
-0.05085228 0.038018312 0.24700001 -2.8215661e+38
-0.1109364 0.042773321 0.27500001 -2.9677828e+38
-0.11049116 0.042773321 0.27500001 -2.6874471e+38
-0.11004592 0.042773321 0.27500001 -2.5406586e+38
-0.10960067 0.042773321 0.27500001 -2.5005743e+38
-0.10955235 0.042928863 0.27600002 -2.5005743e+38
-0.10865863 0.042928863 0.27600002 -2.473938e+38
-0.10821177 0.042928863 0.27600002 -2.4474054e+38
-0.10776491 0.042928863 0.27600002 -2.4073721e+38
-0.082321316 0.036085133 0.23200001 -2.4875426e+38
-0.082298905 0.036240667 0.23300001 -2.46101e+38
-0.081194445 0.036085133 0.23200001 -2.4610104e+38
-0.081167184 0.036240667 0.23300001 -2.4876992e+38
-0.080789946 0.036240667 0.23300001 -2.5544216e+38
-0.079691961 0.036085133 0.23200001 -2.7146583e+38
-0.07931634 0.036085133 0.23200001 -2.7813804e+38
-0.078940719 0.036085133 0.23200001 -2.8080692e+38
-0.078903735 0.036240667 0.23300001 -2.8481024e+38
-0.078526497 0.036240667 0.23300001 -2.8747912e+38
-0.077772014 0.036240667 0.23300001 -2.9147202e+38
-0.077394769 0.036240667 0.23300001 -2.9147202e+38
-0.077017531 0.036240667 0.23300001 -2.9280646e+38
-0.076640293 0.036240667 0.23300001 -2.941409e+38
-0.07588581 0.036240667 0.23300001 -2.9946304e+38
-0.075508565 0.036240667 0.23300001 -2.9680978e+38
-0.074433252 0.036085133 0.23200001 -2.9947866e+38
-0.073245123 0.036240667 0.23300001 -3.008131e+38
-0.073180616 0.036396209 0.23400001 -3.008131e+38
-0.075755827 0.038884837 0.25 -3.0349241e+38
-0.056169216 0.035462972 0.22800002 -2.9944716e+38
-0.055800069 0.035462972 0.22800002 -2.9677828e+38
-0.052947473 0.036551747 0.23500001 -2.7948773e+38
-0.052790683 0.036707286 0.23600002 -2.8082221e+38
-0.052630655 0.036862828 0.23700002 -2.8082221e+38
-0.053349197 0.037640523 0.24200001 -2.8082221e+38
-0.053176217 0.037796065 0.24300002 -2.8082221e+38
-0.052999996 0.0379516 0.24400002 -2.8082221e+38
-0.052604944 0.0379516 0.24400002 -2.8082221e+38
-0.052423868 0.038107142 0.245 -2.8215661e+38
-0.052027199 0.038107142 0.245 -2.8082217e+38
-0.052052002 0.038418218 0.24700001 -2.8082217e+38
-0.051652096 0.038418218 0.24700001 -2.8082217e+38
-0.051459685 0.038573761 0.24800001 -2.8215661e+38
-0.110533 0.043061405 0.27400002 -3.0079722e+38
-0.11008938 0.043061405 0.27400002 -2.7007915e+38
-0.10964575 0.043061405 0.27400002 -2.5406586e+38
-0.10875851 0.043061405 0.27400002 -2.5005743e+38
-0.10831489 0.043061405 0.27400002 -2.473938e+38
-0.10787126 0.043061405 0.27400002 -2.4605936e+38
-0.10781971 0.043218564 0.27500001 -2.4340609e+38
-0.075652465 0.039446764 0.25100002 -3.0349241e+38
-0.076032363 0.040075395 0.25500003 -3.0482685e+38
-0.075916052 0.040232554 0.25600001 -3.0482685e+38
-0.075501569 0.040232554 0.25600001 -3.0482685e+38
-0.075087093 0.040232554 0.25600001 -3.0482685e+38
-0.07467261 0.040232554 0.25600001 -3.0482689e+38
-0.073843651 0.040232554 0.25600001 -3.0748535e+38
-0.073429175 0.040232554 0.25600001 -3.0881979e+38
-0.073014691 0.040232554 0.25600001 -3.0748535e+38
-0.072185732 0.040232554 0.25600001 -3.0616133e+38
-0.071771257 0.040232554 0.25600001 -3.0616133e+38
-0.071635514 0.040389713 0.257 -3.0616133e+38
-0.059010919 0.035989277 0.22900002 -3.1016465e+38
-0.058384091 0.035832118 0.22800002 -3.1682635e+38
-0.056169216 0.035832118 0.22800002 -2.9678343e+38
-0.055800069 0.035832118 0.22800002 -2.9411455e+38
-0.11008938 0.043505028 0.27400002 -2.7141359e+38
-0.10964575 0.043505028 0.27400002 -2.5673474e+38
-0.10875851 0.043505028 0.27400002 -2.4872299e+38
-0.10831489 0.043505028 0.27400002 -2.4738339e+38
-0.10787126 0.043505028 0.27400002 -2.4738339e+38
-0.082321316 0.036836375 0.23200001 -2.5142318e+38
-0.082298905 0.03699515 0.23300001 -2.5010436e+38
-0.081921667 0.03699515 0.23300001 -2.5277324e+38
-0.081167184 0.03699515 0.23300001 -2.6612811e+38
-0.080789946 0.03699515 0.23300001 -2.7414516e+38
-0.080412701 0.03699515 0.23300001 -2.7814848e+38
-0.07931634 0.036836375 0.23200001 -2.8482065e+38
-0.078940719 0.036836375 0.23200001 -2.9147198e+38
-0.078903735 0.03699515 0.23300001 -2.9280642e+38
-0.078526497 0.03699515 0.23300001 -2.9280642e+38
-0.077772014 0.03699515 0.23300001 -2.9679412e+38
-0.077394769 0.03699515 0.23300001 -2.99463e+38
-0.077017531 0.03699515 0.23300001 -3.0079748e+38
-0.076640293 0.03699515 0.23300001 -3.0079748e+38
-0.07588581 0.03699515 0.23300001 -3.0079748e+38
-0.075508565 0.03699515 0.23300001 -3.0213193e+38
-0.074433252 0.036836375 0.23200001 -2.9947866e+38
-0.07255514 0.036836375 0.23200001 -3.0214754e+38
-0.07249064 0.03699515 0.23300001 -3.008131e+38
-0.076032363 0.040488254 0.25500003 -3.074853e+38
-0.075916052 0.040647034 0.25600001 -3.0881975e+38
-0.075501569 0.040647034 0.25600001 -3.0881975e+38
-0.075087093 0.040647034 0.25600001 -3.0881975e+38
-0.07467261 0.040647034 0.25600001 -3.0881975e+38
-0.073843651 0.040647034 0.25600001 -3.0881975e+38
-0.073429175 0.040647034 0.25600001 -3.0881975e+38
-0.073014691 0.040647034 0.25600001 -3.0881975e+38
-0.072185732 0.040647034 0.25600001 -3.0616129e+38
-0.054088913 0.037312709 0.23500001 -2.7815329e+38
-0.05370843 0.037312709 0.23500001 -2.7948773e+38
-0.053554881 0.037471484 0.23600002 -2.7948773e+38
-0.052790683 0.037471484 0.23600002 -2.8082217e+38
-0.052408587 0.037471484 0.23600002 -2.8082217e+38
-0.053176217 0.038582928 0.24300002 -2.8082217e+38
-0.052999996 0.038741704 0.24400002 -2.8082221e+38
-0.052820537 0.03890048 0.245 -2.8082221e+38
-0.052423868 0.03890048 0.245 -2.7948773e+38
-0.052239556 0.039059259 0.24600001 -2.7948773e+38
-0.052052002 0.039218035 0.24700001 -2.8082217e+38
-0.051861212 0.039376814 0.24800001 -2.8082217e+38
-0.051459685 0.039376814 0.24800001 -2.8082217e+38
-0.05126404 0.039535593 0.24900001 -2.8215661e+38
-0.10968758 0.043788254 0.273 -2.7676175e+38
-0.10880358 0.043788254 0.273 -2.5005743e+38
-0.10836157 0.043788254 0.273 -2.4872299e+38
-0.10791957 0.043788254 0.273 -2.4738855e+38
-0.10747757 0.043788254 0.273 -2.4738855e+38
-0.08267615 0.037372392 0.23300001 -2.514388e+38
-0.082298905 0.037372392 0.23300001 -2.5545255e+38
-0.081921667 0.037372392 0.23300001 -2.5945587e+38
-0.081167184 0.037372392 0.23300001 -2.7414512e+38
-0.080789946 0.037372392 0.23300001 -2.781641e+38
-0.080412701 0.037372392 0.23300001 -2.8216742e+38
-0.079658218 0.037372392 0.23300001 -2.90148e+38
-0.07928098 0.037372392 0.23300001 -2.914824e+38
-0.078903735 0.037372392 0.23300001 -2.914824e+38
-0.078526497 0.037372392 0.23300001 -2.9680974e+38
-0.077772014 0.037372392 0.23300001 -2.9680974e+38
-0.077394769 0.037372392 0.23300001 -2.9680974e+38
-0.077017531 0.037372392 0.23300001 -2.9947862e+38
-0.076640293 0.037372392 0.23300001 -2.9947862e+38
-0.07588581 0.037372392 0.23300001 -2.9814422e+38
-0.075508565 0.037372392 0.23300001 -2.9947866e+38
-0.074433252 0.037211996 0.23200001 -3.008131e+38
-0.071044624 0.036249619 0.22600001 -3.008131e+38
-0.070991457 0.036410011 0.22700001 -3.0214754e+38
-0.072179519 0.037211996 0.23200001 -3.0214754e+38
-0.067385547 0.036249619 0.22600001 -3.0881975e+38
-0.075501569 0.041061513 0.25600001 -3.1147301e+38
-0.075087093 0.041061513 0.25600001 -3.1280745e+38
-0.07467261 0.041061513 0.25600001 -3.1147301e+38
-0.073843651 0.041061513 0.25600001 -3.1147301e+38
-0.073142342 0.040901113 0.25500003 -3.1280745e+38
-0.059010919 0.036730807 0.22900002 -3.1283349e+38
-0.058384091 0.036570411 0.22800002 -3.1682635e+38
-0.056169216 0.036570411 0.22800002 -2.9411451e+38
-0.055800069 0.036570411 0.22800002 -2.8877675e+38
-0.052947473 0.037693188 0.23500001 -2.7948773e+38
-0.052566994 0.037693188 0.23500001 -2.8082217e+38
-0.052408587 0.03785358 0.23600002 -2.7948773e+38
-0.053176217 0.03897636 0.24300002 -2.8082217e+38
-0.05321721 0.039297152 0.245 -2.8082221e+38
-0.052820537 0.039297152 0.245 -2.8082221e+38
-0.052637845 0.039457548 0.24600001 -2.8082217e+38
-0.052239556 0.039457548 0.24600001 -2.8082217e+38
-0.052052002 0.039617945 0.24700001 -2.8082217e+38
-0.051861212 0.039778341 0.24800001 -2.8082217e+38
-0.051667184 0.039938737 0.24900001 -2.8215661e+38
-0.05126404 0.039938737 0.24900001 -2.8215661e+38
-0.08267615 0.037749633 0.23300001 -2.5811104e+38
-0.082298905 0.037749633 0.23300001 -2.6612811e+38
-0.081921667 0.037749633 0.23300001 -2.7413476e+38
-0.081167184 0.037749633 0.23300001 -2.7948288e+38
-0.080789946 0.037749633 0.23300001 -2.8216738e+38
-0.080412701 0.037749633 0.23300001 -2.8350182e+38
-0.079658218 0.037749633 0.23300001 -2.9148244e+38
-0.07928098 0.037749633 0.23300001 -2.9415128e+38
-0.078903735 0.037749633 0.23300001 -2.9415128e+38
-0.078526497 0.037749633 0.23300001 -2.9548572e+38
-0.077772014 0.037749633 0.23300001 -2.9814418e+38
-0.077394769 0.037749633 0.23300001 -2.9814418e+38
-0.077017531 0.037749633 0.23300001 -2.9947862e+38
-0.076640293 0.037749633 0.23300001 -3.0081306e+38
-0.07588581 0.037749633 0.23300001 -2.9814422e+38
-0.075508565 0.037749633 0.23300001 -2.9947866e+38
-0.075131327 0.037749633 0.23300001 -3.008131e+38
-0.074057631 0.03758762 0.23200001 -3.0214754e+38
-0.070678718 0.036615524 0.22600001 -3.0214754e+38
-0.070623927 0.036777537 0.22700001 -3.0348198e+38
-0.069888875 0.036777537 0.22700001 -3.0482685e+38
-0.069521353 0.036777537 0.22700001 -3.0482685e+38
-0.068483271 0.036615524 0.22600001 -3.074853e+38
-0.068117365 0.036615524 0.22600001 -3.0881975e+38
-0.067451671 0.036453508 0.22500001 -3.0881975e+38
-0.066723093 0.036453508 0.22500001 -3.1148863e+38
-0.066358805 0.036453508 0.22500001 -3.1280745e+38
-0.060598966 0.036939554 0.22800002 -3.0883017e+38
-0.060229819 0.036939554 0.22800002 -3.1016461e+38
-0.059491526 0.036939554 0.22800002 -3.1016461e+38
-0.05912238 0.036939554 0.22800002 -3.0883017e+38
-0.058753237 0.036939554 0.22800002 -3.1283349e+38
-0.058384091 0.036939554 0.22800002 -3.1417304e+38
-0.056169216 0.036939554 0.22800002 -2.9411451e+38
-0.055800069 0.036939554 0.22800002 -2.8744231e+38
-0.052947473 0.038073666 0.23500001 -2.7948773e+38
-0.052566994 0.038073666 0.23500001 -2.8082217e+38
-0.052408587 0.038235679 0.23600002 -2.8082217e+38
-0.053176217 0.039369792 0.24300002 -2.8082221e+38
-0.05321721 0.039693821 0.245 -2.8081706e+38
