# .PCD v0.7 - Point Cloud Data file format
VERSION 0.7
FIELDS x y z rgb
SIZE 4 4 4 4
TYPE F F F F
COUNT 1 1 1 1
WIDTH 960
HEIGHT 1
VIEWPOINT 0 0 0 1 0 0 0
POINTS 960
DATA ascii
-0.073344007 0.027233142 0.27100003 -2.754692e+38
-0.072466478 0.027233142 0.27100003 -2.7813808e+38
-0.072027713 0.027233142 0.27100003 -2.7947252e+38
-0.071588948 0.027233142 0.27100003 -2.7947252e+38
-0.070711419 0.027233142 0.27100003 -2.8080696e+38
-0.070272647 0.027233142 0.27100003 -2.7947244e+38
-0.069833882 0.027233142 0.27100003 -2.8080688e+38
-0.069395117 0.027233142 0.27100003 -2.7947244e+38
-0.068517588 0.027233142 0.27100003 -2.7546912e+38
-0.067827612 0.027132649 0.27000001 -2.7413468e+38
-0.063272744 0.02632872 0.26200002 -2.6612807e+38
-0.062608667 0.026228227 0.26100001 -2.6080076e+38
-0.061763518 0.026228227 0.26100001 -2.6080076e+38
-0.061385177 0.02642921 0.26300001 -2.6079035e+38
-0.060959365 0.02642921 0.26300001 -2.6079035e+38
-0.06053355 0.02642921 0.26300001 -2.6212475e+38
-0.059681926 0.02642921 0.26300001 -2.6879695e+38
-0.05925611 0.02642921 0.26300001 -2.7013139e+38
-0.058830298 0.02642921 0.26300001 -2.8079649e+38
-0.058404487 0.02642921 0.26300001 -2.8213093e+38
-0.057552859 0.02642921 0.26300001 -2.8880314e+38
-0.057127047 0.02642921 0.26300001 -2.9946816e+38
-0.056701235 0.02642921 0.26300001 -3.1147812e+38
-0.08740478 0.024812816 0.24300002 -3.0476925e+38
-0.087011345 0.024812816 0.24300002 -2.900904e+38
-0.086974367 0.024914928 0.24400002 -2.7541691e+38
-0.086579315 0.024914928 0.24400002 -2.6607582e+38
-0.086890697 0.025119146 0.24600001 -2.5674003e+38
-0.086843997 0.025221257 0.24700001 -2.5273671e+38
-0.086794063 0.025323369 0.24800001 -2.4740942e+38
-0.086392537 0.025323369 0.24800001 -2.4607498e+38
-0.085589483 0.025323369 0.24800001 -2.4475094e+38
-0.085531458 0.025425479 0.24900001 -2.4209768e+38
-0.085128307 0.025425479 0.24900001 -2.4209768e+38
-0.085065424 0.025527589 0.25 -2.4209768e+38
-0.084660664 0.025527589 0.25 -2.4476656e+38
-0.083851129 0.025527589 0.25 -2.4876988e+38
-0.083446369 0.025527589 0.25 -2.5010432e+38
-0.08337377 0.025629699 0.25100002 -2.5010432e+38
-0.082967386 0.025629699 0.25100002 -2.5010432e+38
-0.082561001 0.025629699 0.25100002 -2.5143876e+38
-0.081748232 0.025629699 0.25100002 -2.527732e+38
-0.081665918 0.025731809 0.252 -2.527732e+38
-0.081580363 0.02583392 0.25300002 -2.527732e+38
-0.082774915 0.026344473 0.25800002 -2.5011474e+38
-0.082676411 0.026446583 0.259 -2.5144919e+38
-0.08225707 0.026446583 0.259 -2.5144919e+38
-0.082153708 0.026548693 0.26000002 -2.5144919e+38
-0.0813118 0.026548693 0.26000002 -2.5278363e+38
-0.080972575 0.026855022 0.26300001 -2.5544212e+38
-0.080853023 0.026957134 0.264 -2.58111e+38
-0.08042559 0.026957134 0.264 -2.58111e+38
-0.079998158 0.026957134 0.264 -2.58111e+38
-0.079872131 0.027059244 0.26500002 -2.5811104e+38
-0.079014026 0.027059244 0.26500002 -2.5811104e+38
-0.078881517 0.027161352 0.266 -2.5944548e+38
-0.078745775 0.027263464 0.26700002 -2.6077993e+38
-0.078606799 0.027365576 0.26800001 -2.5944548e+38
-0.078464583 0.027467685 0.26900002 -2.5944548e+38
-0.078029051 0.027467685 0.26900002 -2.6077993e+38
-0.077593528 0.027467685 0.26900002 -2.6211437e+38
-0.076722473 0.027467685 0.26900002 -2.5945591e+38
-0.076570541 0.027569795 0.27000001 -2.6079035e+38
-0.076133393 0.027569795 0.27000001 -2.6079035e+38
-0.075696245 0.027569795 0.27000001 -2.6479367e+38
-0.075259097 0.027569795 0.27000001 -2.6612811e+38
-0.074660309 0.027671907 0.27100003 -2.7146588e+38
-0.074221537 0.027671907 0.27100003 -2.754692e+38
-0.073782772 0.027671907 0.27100003 -2.754692e+38
-0.073344007 0.027671907 0.27100003 -2.754692e+38
-0.072466478 0.027671907 0.27100003 -2.7813808e+38
-0.072027713 0.027671907 0.27100003 -2.7813808e+38
-0.071588948 0.027671907 0.27100003 -2.7947252e+38
-0.070711419 0.027671907 0.27100003 -2.8080696e+38
-0.070272647 0.027671907 0.27100003 -2.8080692e+38
-0.069833882 0.027671907 0.27100003 -2.8080692e+38
-0.069395117 0.027671907 0.27100003 -2.7947244e+38
-0.068264753 0.027569795 0.27000001 -2.7546912e+38
-0.067827612 0.027569795 0.27000001 -2.7413468e+38
-0.066705339 0.027467685 0.26900002 -2.6879691e+38
-0.062848546 0.026752913 0.26200002 -2.6080076e+38
-0.062424354 0.026752913 0.26200002 -2.5946631e+38
-0.062236805 0.026855022 0.26300001 -2.5946631e+38
-0.061385177 0.026855022 0.26300001 -2.6079035e+38
-0.060959365 0.026855022 0.26300001 -2.6079035e+38
-0.06053355 0.026855022 0.26300001 -2.6212479e+38
-0.059681926 0.026855022 0.26300001 -2.6879699e+38
-0.05925611 0.026855022 0.26300001 -2.7013143e+38
-0.058830298 0.026855022 0.26300001 -2.7813804e+38
-0.058404487 0.026855022 0.26300001 -2.7947248e+38
-0.057552859 0.026855022 0.26300001 -2.874687e+38
-0.057127047 0.026855022 0.26300001 -2.9545968e+38
-0.056701235 0.026855022 0.26300001 -3.0613521e+38
-0.087798208 0.025206247 0.24300002 -3.0611407e+38
-0.08740478 0.025206247 0.24300002 -2.8474753e+38
-0.087011345 0.025206247 0.24300002 -2.7940976e+38
-0.086974367 0.025309978 0.24400002 -2.6874471e+38
-0.086579315 0.025309978 0.24400002 -2.620725e+38
-0.086890697 0.025517436 0.24600001 -2.5540559e+38
-0.08719559 0.026126422 0.24800001 -2.5006783e+38
-0.086794063 0.026126422 0.24800001 -2.4607498e+38
-0.086392537 0.026126422 0.24800001 -2.4474054e+38
-0.085589483 0.026126422 0.24800001 -2.4474054e+38
-0.085531458 0.026231771 0.24900001 -2.434165e+38
-0.085128307 0.026231771 0.24900001 -2.434165e+38
-0.084725164 0.026231771 0.24900001 -2.4475094e+38
-0.084660664 0.026337119 0.25 -2.4475094e+38
-0.083851129 0.026337119 0.25 -2.4476656e+38
-0.083780155 0.026442468 0.25100002 -2.46101e+38
-0.08337377 0.026442468 0.25100002 -2.4876988e+38
-0.082967386 0.026442468 0.25100002 -2.5142314e+38
-0.082561001 0.026442468 0.25100002 -2.5275758e+38
-0.081748232 0.026442468 0.25100002 -2.5143876e+38
-0.081665918 0.026547814 0.252 -2.5277324e+38
-0.081580363 0.026653165 0.25300002 -2.514388e+38
-0.082774915 0.027179906 0.25800002 -2.5011479e+38
-0.082676411 0.027285255 0.259 -2.5011479e+38
-0.08225707 0.027285255 0.259 -2.5011479e+38
-0.082153708 0.027390605 0.26000002 -2.5144923e+38
-0.082361467 0.027601302 0.26200002 -2.5144923e+38
-0.082250014 0.027706647 0.26300001 -2.5144923e+38
-0.081824198 0.027706647 0.26300001 -2.5144923e+38
-0.081707887 0.027811997 0.264 -2.5278367e+38
-0.080853023 0.027811997 0.264 -2.5545259e+38
-0.08042559 0.027811997 0.264 -2.5545259e+38
-0.079998158 0.027811997 0.264 -2.5545259e+38
-0.079872131 0.027917346 0.26500002 -2.5545259e+38
-0.079742856 0.028022693 0.266 -2.5678703e+38
-0.079610355 0.028128043 0.26700002 -2.5545259e+38
-0.078745775 0.028128043 0.26700002 -2.5678703e+38
-0.078464583 0.02833874 0.26900002 -2.5678703e+38
-0.078319125 0.028444089 0.27000001 -2.5812147e+38
-0.078170426 0.028549438 0.27100003 -2.5812147e+38
-0.077731661 0.028549438 0.27100003 -2.5812147e+38
-0.077292897 0.028549438 0.27100003 -2.5945591e+38
-0.076415367 0.028549438 0.27100003 -2.607852e+38
-0.075976603 0.028549438 0.27100003 -2.6211964e+38
-0.075537838 0.028549438 0.27100003 -2.6612296e+38
-0.074660309 0.028549438 0.27100003 -2.7012628e+38
-0.074221537 0.028549438 0.27100003 -2.741296e+38
-0.073782772 0.028549438 0.27100003 -2.7679849e+38
-0.073344007 0.028549438 0.27100003 -2.7679849e+38
-0.072466478 0.028549438 0.27100003 -2.7680364e+38
-0.072027713 0.028549438 0.27100003 -2.7947252e+38
-0.071588948 0.028549438 0.27100003 -2.7947252e+38
-0.070450485 0.028444089 0.27000001 -2.8080696e+38
-0.070013344 0.028444089 0.27000001 -2.8080692e+38
-0.069576196 0.028444089 0.27000001 -2.8080692e+38
-0.068701901 0.028444089 0.27000001 -2.78138e+38
-0.068264753 0.028444089 0.27000001 -2.7546912e+38
-0.067827612 0.028444089 0.27000001 -2.7546912e+38
-0.066705339 0.02833874 0.26900002 -2.6879691e+38
-0.066023454 0.028233392 0.26800001 -2.6879695e+38
-0.063328311 0.027811997 0.264 -2.6079035e+38
-0.062662616 0.027706647 0.26300001 -2.6212479e+38
-0.062236805 0.027706647 0.26300001 -2.6212479e+38
-0.061618581 0.027811997 0.264 -2.6079035e+38
-0.060959365 0.027706647 0.26300001 -2.6079035e+38
-0.06053355 0.027706647 0.26300001 -2.607852e+38
-0.059681926 0.027706647 0.26300001 -2.6746255e+38
-0.05925611 0.027706647 0.26300001 -2.7013143e+38
-0.058830298 0.027706647 0.26300001 -2.7812761e+38
-0.058404487 0.027706647 0.26300001 -2.8079649e+38
-0.057552859 0.027706647 0.26300001 -2.8479982e+38
-0.056909833 0.027601302 0.26200002 -2.8746866e+38
-0.056485638 0.027601302 0.26200002 -2.9680974e+38
-0.087798208 0.025993111 0.24300002 -2.8206307e+38
-0.08740478 0.025993111 0.24300002 -2.7538576e+38
-0.087011345 0.025993111 0.24300002 -2.6871355e+38
-0.086617917 0.025993111 0.24300002 -2.6073295e+38
-0.086579315 0.026100079 0.24400002 -2.5806407e+38
-0.086890697 0.026314013 0.24600001 -2.5273671e+38
-0.08719559 0.026527949 0.24800001 -2.5006783e+38
-0.086794063 0.026527949 0.24800001 -2.4607498e+38
-0.086392537 0.026527949 0.24800001 -2.4474054e+38
-0.086337753 0.026634919 0.24900001 -2.4474054e+38
-0.085531458 0.026634919 0.24900001 -2.434165e+38
-0.085128307 0.026634919 0.24900001 -2.434165e+38
-0.085065424 0.026741883 0.25 -2.4475094e+38
-0.084660664 0.026741883 0.25 -2.4475094e+38
-0.084592924 0.026848853 0.25100002 -2.4209768e+38
-0.083780155 0.026848853 0.25100002 -2.4476656e+38
-0.08337377 0.026848853 0.25100002 -2.4476656e+38
-0.082967386 0.026848853 0.25100002 -2.4875426e+38
-0.082561001 0.026848853 0.25100002 -2.5142314e+38
-0.081748232 0.026848853 0.25100002 -2.5409202e+38
-0.081665918 0.026955817 0.252 -2.514388e+38
-0.081580363 0.027062787 0.25300002 -2.514388e+38
-0.081491575 0.027169755 0.25400001 -2.5011479e+38
-0.082357191 0.027597623 0.25800002 -2.4878034e+38
-0.08225707 0.027704593 0.259 -2.5011479e+38
-0.082469687 0.027918527 0.26100001 -2.5011479e+38
-0.08267583 0.028132461 0.26300001 -2.5144923e+38
-0.082562752 0.028239429 0.264 -2.5144923e+38
-0.08213532 0.028239429 0.264 -2.5144923e+38
-0.081707887 0.028239429 0.264 -2.5144923e+38
-0.080853023 0.028239429 0.264 -2.5545259e+38
-0.08042559 0.028239429 0.264 -2.5545259e+38
-0.079998158 0.028239429 0.264 -2.5545259e+38
-0.079872131 0.028346397 0.26500002 -2.5545259e+38
-0.079742856 0.028453363 0.266 -2.5678703e+38
-0.079610355 0.028560333 0.26700002 -2.5545259e+38
-0.079771161 0.028774267 0.26900002 -2.5678703e+38
-0.079630561 0.028881235 0.27000001 -2.5678703e+38
-0.078756273 0.028881235 0.27000001 -2.5812147e+38
-0.078609191 0.028988203 0.27100003 -2.5812147e+38
-0.078170426 0.028988203 0.27100003 -2.5812147e+38
-0.077731661 0.028988203 0.27100003 -2.5812147e+38
-0.077578112 0.029095169 0.27200001 -2.5812672e+38
-0.076415367 0.028988203 0.27100003 -2.5946116e+38
-0.075976603 0.028988203 0.27100003 -2.607956e+38
-0.075537838 0.028988203 0.27100003 -2.6612296e+38
-0.074660309 0.028988203 0.27100003 -2.6879184e+38
-0.074221537 0.028988203 0.27100003 -2.7546405e+38
-0.073782772 0.028988203 0.27100003 -2.7679849e+38
-0.073344007 0.028988203 0.27100003 -2.7679849e+38
-0.072466478 0.028988203 0.27100003 -2.7680364e+38
-0.072027713 0.028988203 0.27100003 -2.7947252e+38
-0.071588948 0.028988203 0.27100003 -2.8080696e+38
-0.070450485 0.028881235 0.27000001 -2.8080696e+38
-0.070013344 0.028881235 0.27000001 -2.8080692e+38
-0.069576196 0.028881235 0.27000001 -2.8080692e+38
-0.068701901 0.028881235 0.27000001 -2.7947244e+38
-0.068264753 0.028881235 0.27000001 -2.7680356e+38
-0.067576393 0.028774267 0.26900002 -2.7546912e+38
-0.066705339 0.028774267 0.26900002 -2.7013135e+38
-0.066023454 0.028667301 0.26800001 -2.6879695e+38
-0.06491252 0.028560333 0.26700002 -2.6612811e+38
-0.064238735 0.028453363 0.266 -2.6479367e+38
-0.062900878 0.028239429 0.264 -2.6211964e+38
-0.062473446 0.028239429 0.264 -2.6211964e+38
-0.062281035 0.028346397 0.26500002 -2.607852e+38
-0.061191149 0.028239429 0.264 -2.607852e+38
-0.06053355 0.028132461 0.26300001 -2.607852e+38
-0.059681926 0.028132461 0.26300001 -2.6746255e+38
-0.05925611 0.028132461 0.26300001 -2.7013143e+38
-0.058830298 0.028132461 0.26300001 -2.7546916e+38
-0.058404487 0.028132461 0.26300001 -2.7813804e+38
-0.057334028 0.028025495 0.26200002 -2.8479982e+38
-0.056909833 0.028025495 0.26200002 -2.8746866e+38
-0.087798208 0.026386542 0.24300002 -2.7139805e+38
-0.08740478 0.026386542 0.24300002 -2.6605514e+38
-0.087011345 0.026386542 0.24300002 -2.6338626e+38
-0.086617917 0.026386542 0.24300002 -2.5939851e+38
-0.086579315 0.026495131 0.24400002 -2.5406075e+38
-0.086890697 0.026712304 0.24600001 -2.4874386e+38
-0.08719559 0.026929477 0.24800001 -2.4740942e+38
-0.08714404 0.027038064 0.24900001 -2.4475094e+38
-0.086740896 0.027038064 0.24900001 -2.434165e+38
-0.086337753 0.027038064 0.24900001 -2.434165e+38
-0.085531458 0.027038064 0.24900001 -2.4208206e+38
-0.085470192 0.027146649 0.25 -2.4208206e+38
-0.085065424 0.027146649 0.25 -2.434165e+38
-0.084660664 0.027146649 0.25 -2.434165e+38
-0.084592924 0.027255237 0.25100002 -2.4209768e+38
-0.083780155 0.027255237 0.25100002 -2.4608538e+38
-0.08337377 0.027255237 0.25100002 -2.4608538e+38
-0.082967386 0.027255237 0.25100002 -2.4741982e+38
-0.082561001 0.027255237 0.25100002 -2.4875426e+38
-0.081748232 0.027255237 0.25100002 -2.5275758e+38
-0.081665918 0.027363822 0.252 -2.5010432e+38
-0.081580363 0.027472408 0.25300002 -2.5010432e+38
-0.081491575 0.027580997 0.25400001 -2.4878034e+38
-0.082357191 0.028015342 0.25800002 -2.4878034e+38
-0.08225707 0.028123928 0.259 -2.4878034e+38
-0.082153708 0.028232517 0.26000002 -2.5011479e+38
-0.08267583 0.028558273 0.26300001 -2.5144923e+38
-0.082562752 0.028666861 0.264 -2.5144923e+38
-0.08213532 0.028666861 0.264 -2.5144923e+38
-0.081707887 0.028666861 0.264 -2.5144923e+38
-0.080853023 0.028666861 0.264 -2.5278371e+38
-0.08042559 0.028666861 0.264 -2.5545259e+38
-0.079998158 0.028666861 0.264 -2.5545259e+38
-0.079872131 0.028775448 0.26500002 -2.5545259e+38
-0.079014026 0.028775448 0.26500002 -2.5545259e+38
-0.079771161 0.029209793 0.26900002 -2.5678703e+38
-0.079630561 0.029318381 0.27000001 -2.5678703e+38
-0.079486728 0.02942697 0.27100003 -2.5678703e+38
-0.078609191 0.02942697 0.27100003 -2.5945591e+38
-0.078458883 0.029535554 0.27200001 -2.5812147e+38
-0.078018494 0.029535554 0.27200001 -2.5945591e+38
-0.077578112 0.029535554 0.27200001 -2.5812672e+38
-0.077137731 0.029535554 0.27200001 -2.5812672e+38
-0.076256961 0.029535554 0.27200001 -2.6346448e+38
-0.075816572 0.029535554 0.27200001 -2.6612296e+38
-0.07537619 0.029535554 0.27200001 -2.674574e+38
-0.074221537 0.02942697 0.27100003 -2.741296e+38
-0.073782772 0.02942697 0.27100003 -2.7679849e+38
-0.073344007 0.02942697 0.27100003 -2.7546405e+38
-0.072466478 0.02942697 0.27100003 -2.7680364e+38
-0.071761928 0.029318381 0.27000001 -2.7947252e+38
-0.071324781 0.029318381 0.27000001 -2.8080696e+38
-0.070450485 0.029318381 0.27000001 -2.8346542e+38
-0.070013344 0.029318381 0.27000001 -2.8346542e+38
-0.068882979 0.029209793 0.26900002 -2.7947248e+38
-0.068447448 0.029209793 0.26900002 -2.7947248e+38
-0.068011925 0.029209793 0.26900002 -2.768036e+38
-0.067576393 0.029209793 0.26900002 -2.7546916e+38
-0.066457368 0.02910121 0.26800001 -2.7146583e+38
-0.066023454 0.02910121 0.26800001 -2.7013139e+38
-0.06491252 0.028992621 0.26700002 -2.6612296e+38
-0.064238735 0.028884033 0.266 -2.6478852e+38
-0.063139141 0.028775448 0.26500002 -2.6211964e+38
-0.062946722 0.028884033 0.266 -2.6211964e+38
-0.062281035 0.028775448 0.26500002 -2.607852e+38
-0.061191149 0.028666861 0.264 -2.607852e+38
-0.06053355 0.028558273 0.26300001 -2.6211964e+38
-0.059681926 0.028558273 0.26300001 -2.6612811e+38
-0.05925611 0.028558273 0.26300001 -2.6879699e+38
-0.058830298 0.028558273 0.26300001 -2.7413472e+38
-0.088585079 0.026779976 0.24300002 -2.7274288e+38
-0.087798208 0.026779976 0.24300002 -2.6340179e+38
-0.08740478 0.026779976 0.24300002 -2.607278e+38
-0.087011345 0.026779976 0.24300002 -2.5805892e+38
-0.086617917 0.026779976 0.24300002 -2.5805892e+38
-0.086579315 0.026890179 0.24400002 -2.540556e+38
-0.086890697 0.027110593 0.24600001 -2.4740942e+38
-0.08719559 0.027331004 0.24800001 -2.4607498e+38
-0.08714404 0.027441211 0.24900001 -2.434165e+38
-0.086740896 0.027441211 0.24900001 -2.434165e+38
-0.086337753 0.027441211 0.24900001 -2.4208206e+38
-0.085531458 0.027441211 0.24900001 -2.4208206e+38
-0.085470192 0.027551414 0.25 -2.4208206e+38
-0.085065424 0.027551414 0.25 -2.434165e+38
-0.084999308 0.02766162 0.25100002 -2.434165e+38
-0.084592924 0.02766162 0.25100002 -2.434165e+38
-0.083780155 0.02766162 0.25100002 -2.4475094e+38
-0.08337377 0.02766162 0.25100002 -2.4608538e+38
-0.082967386 0.02766162 0.25100002 -2.4608538e+38
-0.082561001 0.02766162 0.25100002 -2.4875426e+38
-0.081748232 0.02766162 0.25100002 -2.5142314e+38
-0.081665918 0.027771825 0.252 -2.5010432e+38
-0.081580363 0.02788203 0.25300002 -2.5010432e+38
-0.081491575 0.027992237 0.25400001 -2.4878034e+38
-0.082357191 0.028433058 0.25800002 -2.4878034e+38
-0.08225707 0.028543266 0.259 -2.4878034e+38
-0.082153708 0.028653473 0.26000002 -2.5011479e+38
-0.082361467 0.029298076 0.26200002 -2.5011479e+38
-0.082250014 0.029409898 0.26300001 -2.5011479e+38
-0.08213532 0.029521724 0.264 -2.5144923e+38
-0.081707887 0.029521724 0.264 -2.5011479e+38
-0.080853023 0.029521724 0.264 -2.5278367e+38
-0.08042559 0.029521724 0.264 -2.5545255e+38
-0.079998158 0.029521724 0.264 -2.5545255e+38
-0.079143293 0.029521724 0.264 -2.5545259e+38
-0.079014026 0.029633552 0.26500002 -2.5678703e+38
-0.079771161 0.030080847 0.26900002 -2.5678703e+38
-0.079630561 0.030192673 0.27000001 -2.5678703e+38
-0.079486728 0.030304499 0.27100003 -2.5678703e+38
-0.079339653 0.030416323 0.27200001 -2.5811632e+38
-0.078458883 0.030416323 0.27200001 -2.5812672e+38
-0.078018494 0.030416323 0.27200001 -2.5812672e+38
-0.077578112 0.030416323 0.27200001 -2.5946116e+38
-0.077137731 0.030416323 0.27200001 -2.5946116e+38
-0.076256961 0.030416323 0.27200001 -2.6346448e+38
-0.075816572 0.030416323 0.27200001 -2.6612296e+38
-0.07537619 0.030416323 0.27200001 -2.674574e+38
-0.07449542 0.030416323 0.27200001 -2.741296e+38
-0.074055038 0.030416323 0.27200001 -2.754692e+38
-0.073344007 0.030304499 0.27100003 -2.7680364e+38
-0.072199076 0.030192673 0.27000001 -2.7680364e+38
-0.071761928 0.030192673 0.27000001 -2.8080696e+38
-0.070625089 0.030080847 0.26900002 -2.8346542e+38
-0.070189558 0.030080847 0.26900002 -2.8346542e+38
-0.069754034 0.030080847 0.26900002 -2.8346542e+38
-0.068882979 0.030080847 0.26900002 -2.8213097e+38
-0.068192996 0.029969025 0.26800001 -2.8213097e+38
-0.067759089 0.029969025 0.26800001 -2.7680364e+38
-0.066891275 0.029969025 0.26800001 -2.768036e+38
-0.066457368 0.029969025 0.26800001 -2.7413472e+38
-0.066023454 0.029969025 0.26800001 -2.7013143e+38
-0.06491252 0.0298572 0.26700002 -2.6612296e+38
-0.06448023 0.0298572 0.26700002 -2.6211964e+38
-0.063808061 0.029745374 0.266 -2.6211964e+38
-0.062710084 0.029633552 0.26500002 -2.6211964e+38
-0.061618581 0.029521724 0.264 -2.607852e+38
-0.060959365 0.029409898 0.26300001 -2.607852e+38
-0.060763717 0.029521724 0.264 -2.6211964e+38
-0.059681926 0.029409898 0.26300001 -2.674574e+38
-0.05925611 0.029409898 0.26300001 -2.6879184e+38
-0.089004152 0.027453395 0.24200001 -2.7006868e+38
-0.08861234 0.027453395 0.24200001 -2.6207246e+38
-0.087828711 0.027453395 0.24200001 -2.5941403e+38
-0.0874369 0.027453395 0.24200001 -2.5674515e+38
-0.08740478 0.027566839 0.24300002 -2.5275233e+38
-0.087011345 0.027566839 0.24300002 -2.5275233e+38
-0.086617917 0.027566839 0.24300002 -2.5008345e+38
-0.086579315 0.027680282 0.24400002 -2.5008345e+38
-0.08719559 0.028134057 0.24800001 -2.4607498e+38
-0.08714404 0.028247502 0.24900001 -2.434165e+38
-0.086740896 0.028247502 0.24900001 -2.4208206e+38
-0.086337753 0.028247502 0.24900001 -2.3941318e+38
-0.08627972 0.028360944 0.25 -2.3941318e+38
-0.085470192 0.028360944 0.25 -2.3675991e+38
-0.085065424 0.028360944 0.25 -2.394288e+38
-0.084660664 0.028360944 0.25 -2.4076324e+38
-0.084592924 0.028474389 0.25100002 -2.394288e+38
-0.083780155 0.028474389 0.25100002 -2.4076324e+38
-0.08337377 0.028474389 0.25100002 -2.4209768e+38
-0.082967386 0.028474389 0.25100002 -2.4209768e+38
-0.082561001 0.028474389 0.25100002 -2.4476656e+38
-0.081748232 0.028474389 0.25100002 -2.4876988e+38
-0.081665918 0.028587831 0.252 -2.4876988e+38
-0.081580363 0.028701276 0.25300002 -2.4876988e+38
-0.081491575 0.02881472 0.25400001 -2.4611146e+38
-0.082357191 0.029268494 0.25800002 -2.4878034e+38
-0.08225707 0.029381938 0.259 -2.4878034e+38
-0.082153708 0.029495385 0.26000002 -2.4878034e+38
-0.082047112 0.029608825 0.26100001 -2.514388e+38
-0.082250014 0.029835712 0.26300001 -2.5277324e+38
-0.081824198 0.029835712 0.26300001 -2.5410768e+38
-0.080972575 0.029835712 0.26300001 -2.5410768e+38
-0.080546759 0.029835712 0.26300001 -2.5544212e+38
-0.080120951 0.029835712 0.26300001 -2.5278371e+38
-0.07926932 0.029835712 0.26300001 -2.5277856e+38
-0.079143293 0.029949157 0.264 -2.5544744e+38
-0.078715861 0.029949157 0.264 -2.5544744e+38
-0.079771161 0.030516375 0.26900002 -2.5678188e+38
-0.079630561 0.030629821 0.27000001 -2.5678188e+38
-0.079486728 0.030743266 0.27100003 -2.5678188e+38
-0.079339653 0.030856706 0.27200001 -2.5811632e+38
-0.078458883 0.030856706 0.27200001 -2.5812672e+38
-0.078018494 0.030856706 0.27200001 -2.5812672e+38
-0.077578112 0.030856706 0.27200001 -2.5946116e+38
-0.077137731 0.030856706 0.27200001 -2.5946116e+38
-0.076256961 0.030856706 0.27200001 -2.6346448e+38
-0.075816572 0.030856706 0.27200001 -2.6612296e+38
-0.07537619 0.030856706 0.27200001 -2.674574e+38
-0.07449542 0.030856706 0.27200001 -2.741296e+38
-0.074055038 0.030856706 0.27200001 -2.754692e+38
-0.073344007 0.030743266 0.27100003 -2.7680364e+38
-0.072199076 0.030629821 0.27000001 -2.7947252e+38
-0.070532285 0.030289488 0.26700002 -2.821414e+38
-0.070099995 0.030289488 0.26700002 -2.8479986e+38
-0.069667704 0.030289488 0.26700002 -2.8479986e+38
-0.069494724 0.030402934 0.26800001 -2.8346542e+38
-0.06862691 0.030402934 0.26800001 -2.8346542e+38
-0.068192996 0.030402934 0.26800001 -2.8213097e+38
-0.067759089 0.030402934 0.26800001 -2.7680364e+38
-0.066891275 0.030402934 0.26800001 -2.7680364e+38
-0.066457368 0.030402934 0.26800001 -2.7413476e+38
-0.065777101 0.030289488 0.26700002 -2.7013143e+38
-0.06491252 0.030289488 0.26700002 -2.6612296e+38
-0.06448023 0.030289488 0.26700002 -2.6612296e+38
-0.063808061 0.030176044 0.266 -2.6211964e+38
-0.062946722 0.030176044 0.266 -2.6211964e+38
-0.062281035 0.030062603 0.26500002 -2.6211964e+38
-0.08861234 0.027845208 0.24200001 -2.580691e+38
-0.087828711 0.027845208 0.24200001 -2.5542632e+38
-0.0874369 0.027845208 0.24200001 -2.5409188e+38
-0.087045088 0.027845208 0.24200001 -2.4875941e+38
-0.087011345 0.027960271 0.24300002 -2.4875941e+38
-0.086617917 0.027960271 0.24300002 -2.4874901e+38
-0.086579315 0.028075332 0.24400002 -2.4874901e+38
-0.08719559 0.028535584 0.24800001 -2.4475609e+38
-0.08714404 0.028650649 0.24900001 -2.434165e+38
-0.086740896 0.028650649 0.24900001 -2.434165e+38
-0.086337753 0.028650649 0.24900001 -2.3675991e+38
-0.08627972 0.02876571 0.25 -2.3675991e+38
-0.085470192 0.02876571 0.25 -2.3675991e+38
-0.085065424 0.02876571 0.25 -2.394288e+38
-0.084660664 0.02876571 0.25 -2.394288e+38
-0.084592924 0.028880773 0.25100002 -2.394288e+38
-0.083780155 0.028880773 0.25100002 -2.394288e+38
-0.08337377 0.028880773 0.25100002 -2.4076324e+38
-0.082967386 0.028880773 0.25100002 -2.4209772e+38
-0.082561001 0.028880773 0.25100002 -2.4343216e+38
-0.081748232 0.028880773 0.25100002 -2.4610104e+38
-0.081341848 0.028880773 0.25100002 -2.4610104e+38
-0.081580363 0.029110897 0.25300002 -2.4610104e+38
-0.081491575 0.029225962 0.25400001 -2.4611146e+38
-0.082357191 0.029686211 0.25800002 -2.474459e+38
-0.08225707 0.029801276 0.259 -2.4878034e+38
-0.082153708 0.029916339 0.26000002 -2.4878034e+38
-0.082047112 0.0300314 0.26100001 -2.514388e+38
-0.081937276 0.030146465 0.26200002 -2.514388e+38
-0.081824198 0.030261526 0.26300001 -2.5277324e+38
-0.080972575 0.030261526 0.26300001 -2.5410768e+38
-0.080546759 0.030261526 0.26300001 -2.5544212e+38
-0.080120951 0.030261526 0.26300001 -2.5278371e+38
-0.07926932 0.030261526 0.26300001 -2.5277856e+38
-0.078843512 0.030261526 0.26300001 -2.5544744e+38
-0.078715861 0.030376589 0.264 -2.5544744e+38
-0.079771161 0.030951902 0.26900002 -2.5678188e+38
-0.079630561 0.031066967 0.27000001 -2.5678188e+38
-0.079780035 0.031297091 0.27200001 -2.5811632e+38
-0.079339653 0.031297091 0.27200001 -2.5945076e+38
-0.078305326 0.031412154 0.273 -2.5946116e+38
-0.077863328 0.031412154 0.273 -2.6346448e+38
-0.076095313 0.031412154 0.273 -2.7013669e+38
-0.075653307 0.031412154 0.273 -2.7280557e+38
-0.075211301 0.031412154 0.273 -2.6880225e+38
-0.074327298 0.031412154 0.273 -2.7547445e+38
-0.073344007 0.03118203 0.27100003 -2.7680889e+38
-0.070532285 0.030721778 0.26700002 -2.8081221e+38
-0.070099995 0.030721778 0.26700002 -2.8213625e+38
-0.069667704 0.030721778 0.26700002 -2.8213625e+38
-0.068803124 0.030721778 0.26700002 -2.8346026e+38
-0.06862691 0.030836841 0.26800001 -2.8346542e+38
-0.068192996 0.030836841 0.26800001 -2.8346542e+38
-0.067759089 0.030836841 0.26800001 -2.7813808e+38
-0.066891275 0.030836841 0.26800001 -2.7680364e+38
-0.066457368 0.030836841 0.26800001 -2.754692e+38
-0.065777101 0.030721778 0.26700002 -2.7013143e+38
-0.06491252 0.030721778 0.26700002 -2.674574e+38
-0.06448023 0.030721778 0.26700002 -2.674574e+38
-0.063808061 0.030606713 0.266 -2.6211964e+38
-0.05238935 0.027960271 0.24300002 -2.8614468e+38
-0.051602487 0.027960271 0.24300002 -3.1014364e+38
-0.08861234 0.028237019 0.24200001 -2.5541066e+38
-0.087828711 0.028237019 0.24200001 -2.5409184e+38
-0.0874369 0.028237019 0.24200001 -2.527574e+38
-0.087045088 0.028237019 0.24200001 -2.4875941e+38
-0.086653277 0.028237019 0.24200001 -2.4875941e+38
-0.086617917 0.028353702 0.24300002 -2.4742497e+38
-0.085831054 0.028353702 0.24300002 -2.4742497e+38
-0.086843997 0.028820429 0.24700001 -2.4475609e+38
-0.08714404 0.029053794 0.24900001 -2.4208206e+38
-0.086740896 0.029053794 0.24900001 -2.4208206e+38
-0.086337753 0.029053794 0.24900001 -2.3941318e+38
-0.08627972 0.029170474 0.25 -2.3941318e+38
-0.085065424 0.029170474 0.25 -2.3675991e+38
-0.084999308 0.029287158 0.25100002 -2.3675991e+38
-0.084592924 0.029287158 0.25100002 -2.3675991e+38
-0.083780155 0.029287158 0.25100002 -2.394288e+38
-0.08337377 0.029287158 0.25100002 -2.394288e+38
-0.082967386 0.029287158 0.25100002 -2.3810482e+38
-0.082561001 0.029287158 0.25100002 -2.3943926e+38
-0.081748232 0.029287158 0.25100002 -2.4210814e+38
-0.081341848 0.029287158 0.25100002 -2.4210814e+38
-0.081580363 0.029520521 0.25300002 -2.4344258e+38
-0.081491575 0.029637203 0.25400001 -2.4611146e+38
-0.082153708 0.030337295 0.26000002 -2.474459e+38
-0.082047112 0.030453974 0.26100001 -2.514388e+38
-0.081937276 0.030570658 0.26200002 -2.514388e+38
-0.081824198 0.030687338 0.26300001 -2.5277324e+38
-0.080972575 0.030687338 0.26300001 -2.5277324e+38
-0.080546759 0.030687338 0.26300001 -2.5544212e+38
-0.079816304 0.030570658 0.26200002 -2.5144927e+38
-0.078967914 0.030570658 0.26200002 -2.5145452e+38
-0.078543723 0.030570658 0.26200002 -2.541234e+38
-0.078417696 0.030687338 0.26300001 -2.541234e+38
-0.079630561 0.031504113 0.27000001 -2.5679228e+38
-0.079780035 0.031737477 0.27200001 -2.5812672e+38
-0.079631343 0.03185416 0.273 -2.5946116e+38
-0.075211301 0.03185416 0.273 -2.9150851e+38
-0.074055038 0.031737477 0.27200001 -2.8216742e+38
-0.070964575 0.031154066 0.26700002 -2.8348109e+38
-0.070268117 0.031037385 0.266 -2.8081221e+38
-0.069837444 0.031037385 0.266 -2.8480513e+38
-0.068976104 0.031037385 0.266 -2.847947e+38
-0.068803124 0.031154066 0.26700002 -2.8346026e+38
-0.068370834 0.031154066 0.26700002 -2.8346026e+38
-0.067938544 0.031154066 0.26700002 -2.8346026e+38
-0.067073971 0.031154066 0.26700002 -2.7680364e+38
-0.066891275 0.03127075 0.26800001 -2.7680364e+38
-0.066209391 0.031154066 0.26700002 -2.754692e+38
-0.065777101 0.031154066 0.26700002 -2.7013143e+38
-0.06491252 0.031154066 0.26700002 -2.6879184e+38
-0.06448023 0.031154066 0.26700002 -2.674574e+38
-0.053349197 0.028237019 0.24200001 -2.7946737e+38
-0.052957382 0.028237019 0.24200001 -2.8080181e+38
-0.052565571 0.028237019 0.24200001 -2.821414e+38
-0.051781945 0.028237019 0.24200001 -2.9546479e+38
-0.051390134 0.028237019 0.24200001 -3.088092e+38
-0.08861234 0.028628832 0.24200001 -2.5008856e+38
-0.087828711 0.028628832 0.24200001 -2.5143341e+38
-0.0874369 0.028628832 0.24200001 -2.5143341e+38
-0.087045088 0.028628832 0.24200001 -2.4742497e+38
-0.086653277 0.028628832 0.24200001 -2.4742497e+38
-0.085869648 0.028628832 0.24200001 -2.4742497e+38
-0.085477836 0.028628832 0.24200001 -2.4742497e+38
-0.086843997 0.029220337 0.24700001 -2.4475609e+38
-0.08714404 0.029456941 0.24900001 -2.4208206e+38
-0.087089255 0.02957524 0.25 -2.4208206e+38
-0.086684488 0.02957524 0.25 -2.3941318e+38
-0.084999308 0.029693542 0.25100002 -2.3675991e+38
-0.082967386 0.029693542 0.25100002 -2.3677038e+38
-0.082561001 0.029693542 0.25100002 -2.3810482e+38
-0.081748232 0.029693542 0.25100002 -2.407737e+38
-0.053741008 0.028628832 0.24200001 -2.7679849e+38
-0.053349197 0.028628832 0.24200001 -2.8080181e+38
-0.052957382 0.028628832 0.24200001 -2.8080181e+38
-0.052565571 0.028628832 0.24200001 -2.821414e+38
-0.051781945 0.028628832 0.24200001 -2.9413039e+38
-0.051390134 0.028628832 0.24200001 -3.0614036e+38
-0.11352164 0.034297124 0.28600001 -3.0743813e+38
-0.1130586 0.034297124 0.28600001 -2.9542305e+38
-0.083705932 0.030219844 0.252 -2.3410146e+38
-0.082399614 0.030339764 0.25300002 -2.407737e+38
-0.081580363 0.030339764 0.25300002 -2.4210814e+38
-0.081491575 0.030459685 0.25400001 -2.4210814e+38
-0.082153708 0.031179206 0.26000002 -2.4611146e+38
-0.082047112 0.031299125 0.26100001 -2.5010436e+38
-0.081937276 0.031419046 0.26200002 -2.514388e+38
-0.081088886 0.031419046 0.26200002 -2.5277324e+38
-0.080664694 0.031419046 0.26200002 -2.5277324e+38
-0.080240496 0.031419046 0.26200002 -2.5410768e+38
-0.079816304 0.031419046 0.26200002 -2.5545259e+38
-0.078967914 0.031419046 0.26200002 -2.6346964e+38
-0.078543723 0.031419046 0.26200002 -2.6747296e+38
-0.078417696 0.031538963 0.26300001 -2.6748858e+38
-0.07799188 0.031538963 0.26300001 -2.7282634e+38
-0.079630561 0.032378405 0.27000001 -2.781641e+38
-0.079780035 0.032618243 0.27200001 -2.8350186e+38
-0.070698783 0.031898726 0.266 -2.8613957e+38
-0.070268117 0.031898726 0.266 -2.8613957e+38
-0.069837444 0.031898726 0.266 -2.8480513e+38
-0.068976104 0.031898726 0.266 -2.8080185e+38
-0.068545438 0.031898726 0.266 -2.8080185e+38
-0.068370834 0.032018647 0.26700002 -2.8080181e+38
-0.067938544 0.032018647 0.26700002 -2.8080181e+38
-0.067073971 0.032018647 0.26700002 -2.7679849e+38
-0.066641681 0.032018647 0.26700002 -2.7680364e+38
-0.066209391 0.032018647 0.26700002 -2.754692e+38
-0.065777101 0.032018647 0.26700002 -2.7412433e+38
-0.06491252 0.032018647 0.26700002 -2.7013143e+38
-0.06448023 0.032018647 0.26700002 -2.7013143e+38
-0.11404759 0.03463864 0.28500003 -3.1011739e+38
-0.11312472 0.03463864 0.28500003 -2.9273855e+38
-0.11266329 0.03463864 0.28500003 -2.8340798e+38
-0.11259554 0.034760177 0.28600001 -2.7807021e+38
-0.11213249 0.034760177 0.28600001 -2.7540133e+38
-0.08861234 0.029412458 0.24200001 -2.4742493e+38
-0.087828711 0.029412458 0.24200001 -2.5142825e+38
-0.0874369 0.029412458 0.24200001 -2.4742493e+38
-0.087045088 0.029412458 0.24200001 -2.4742497e+38
-0.086653277 0.029412458 0.24200001 -2.4609053e+38
-0.085514814 0.029290916 0.24100001 -2.4742497e+38
-0.085124627 0.029290916 0.24100001 -2.4609053e+38
-0.08714404 0.030263232 0.24900001 -2.4076324e+38
-0.087089255 0.03038477 0.25 -2.394288e+38
-0.086684488 0.03038477 0.25 -2.3675991e+38
-0.082889929 0.030627847 0.252 -2.3410146e+38
-0.082809232 0.030749388 0.25300002 -2.3677034e+38
-0.082399614 0.030749388 0.25300002 -2.3943922e+38
-0.081580363 0.030749388 0.25300002 -2.4077366e+38
-0.081491575 0.030870927 0.25400001 -2.3944963e+38
-0.081621878 0.031235546 0.257 -2.4211855e+38
-0.082153708 0.031600162 0.26000002 -2.4478743e+38
-0.082047112 0.0317217 0.26100001 -2.474459e+38
-0.081201963 0.0317217 0.26100001 -2.5011479e+38
-0.081088886 0.031843241 0.26200002 -2.5144923e+38
-0.080664694 0.031843241 0.26200002 -2.5545255e+38
-0.080240496 0.031843241 0.26200002 -2.5812143e+38
-0.079816304 0.031843241 0.26200002 -2.6212479e+38
-0.078967914 0.031843241 0.26200002 -2.7149186e+38
-0.078543723 0.031843241 0.26200002 -2.7816406e+38
-0.078417696 0.031964775 0.26300001 -2.7816406e+38
-0.07799188 0.031964775 0.26300001 -2.8350182e+38
-0.081631854 0.034395561 0.28300002 -2.9551179e+38
-0.081173658 0.034395561 0.28300002 -2.9951511e+38
-0.071990795 0.032329395 0.266 -3.0885623e+38
-0.071129456 0.032329395 0.266 -2.8882401e+38
-0.070433006 0.032207858 0.26500002 -2.8613957e+38
-0.070003957 0.032207858 0.26500002 -2.8613957e+38
-0.069145851 0.032207858 0.26500002 -2.8213625e+38
-0.068976104 0.032329395 0.266 -2.8213629e+38
-0.068545438 0.032329395 0.266 -2.8080185e+38
-0.068114765 0.032329395 0.266 -2.8080181e+38
-0.067938544 0.032450933 0.26700002 -2.8080181e+38
-0.067073971 0.032450933 0.26700002 -2.7813293e+38
-0.066641681 0.032450933 0.26700002 -2.7680364e+38
-0.066209391 0.032450933 0.26700002 -2.7680364e+38
-0.065777101 0.032450933 0.26700002 -2.7412433e+38
-0.053461753 0.029047839 0.23900001 -2.7146076e+38
-0.053296868 0.029169381 0.24000001 -2.7679853e+38
-0.053349197 0.029412458 0.24200001 -2.7946737e+38
-0.052957382 0.029412458 0.24200001 -2.8080181e+38
-0.052565571 0.029412458 0.24200001 -2.8481028e+38
-0.051781945 0.029412458 0.24200001 -2.9279595e+38
-0.051390134 0.029412458 0.24200001 -3.0480592e+38
-0.11450902 0.035100073 0.28500003 -3.1009139e+38
-0.11404759 0.035100073 0.28500003 -2.9541255e+38
-0.11312472 0.035100073 0.28500003 -2.7937863e+38
-0.11266329 0.035100073 0.28500003 -2.7273245e+38
-0.11220186 0.035100073 0.28500003 -2.7006357e+38
-0.111279 0.035100073 0.28500003 -2.6873428e+38
-0.11081756 0.035100073 0.28500003 -2.6873428e+38
-0.08861234 0.029804271 0.24200001 -2.4742493e+38
-0.087828711 0.029804271 0.24200001 -2.4875937e+38
-0.087075591 0.029681111 0.24100001 -2.4742493e+38
-0.086685397 0.029681111 0.24100001 -2.4742493e+38
-0.085905008 0.029681111 0.24100001 -2.4609053e+38
-0.085514814 0.029681111 0.24100001 -2.4742497e+38
-0.085124627 0.029681111 0.24100001 -2.4608538e+38
-0.08714404 0.030666379 0.24900001 -2.4076324e+38
-0.087089255 0.030789535 0.25 -2.4076324e+38
-0.086684488 0.030789535 0.25 -2.3675991e+38
-0.083218858 0.03115901 0.25300002 -2.3410146e+38
-0.082809232 0.03115901 0.25300002 -2.3677034e+38
-0.082399614 0.03115901 0.25300002 -2.3810478e+38
-0.082314059 0.031282168 0.25400001 -2.3810478e+38
-0.082225271 0.031405326 0.25500003 -2.3943922e+38
-0.082133241 0.031528484 0.25600001 -2.3944963e+38
-0.081621878 0.031651642 0.257 -2.4211851e+38
-0.082153708 0.032021116 0.26000002 -2.4478739e+38
-0.0813118 0.032021116 0.26000002 -2.5011474e+38
-0.081201963 0.032144275 0.26100001 -2.5545255e+38
-0.080779389 0.032144275 0.26100001 -2.5945587e+38
-0.080356814 0.032144275 0.26100001 -2.6480404e+38
-0.079934239 0.032144275 0.26100001 -2.6747292e+38
-0.07908909 0.032144275 0.26100001 -2.7814848e+38
-0.078967914 0.032267433 0.26200002 -2.8482065e+38
-0.078543723 0.032267433 0.26200002 -2.8748953e+38
-0.078417696 0.032390591 0.26300001 -2.8350182e+38
-0.078288428 0.032513749 0.264 -2.861707e+38
-0.081799977 0.034730598 0.28200001 -2.9951511e+38
-0.081631854 0.034853753 0.28300002 -3.0216837e+38
-0.081173658 0.034853753 0.28300002 -3.0483725e+38
-0.071291111 0.032636907 0.26500002 -3.0483729e+38
-0.070862055 0.032636907 0.26500002 -2.9282733e+38
-0.070433006 0.032636907 0.26500002 -2.8747916e+38
-0.070003957 0.032636907 0.26500002 -2.8614472e+38
-0.069145851 0.032636907 0.26500002 -2.8213625e+38
-0.068976104 0.032760065 0.266 -2.8213625e+38
-0.068545438 0.032760065 0.266 -2.8080181e+38
-0.068114765 0.032760065 0.266 -2.8213625e+38
-0.067253426 0.032760065 0.266 -2.7946737e+38
-0.066822752 0.032760065 0.266 -2.7813293e+38
-0.066392086 0.032760065 0.266 -2.7813293e+38
-0.065961413 0.032760065 0.266 -2.7679849e+38
-0.053461753 0.029434795 0.23900001 -2.7013673e+38
-0.053296868 0.029557955 0.24000001 -2.7547449e+38
-0.053349197 0.029804271 0.24200001 -2.8080181e+38
-0.052957382 0.029804271 0.24200001 -2.8213625e+38
-0.052565571 0.029804271 0.24200001 -2.8481028e+38
-0.051781945 0.029804271 0.24200001 -2.9014269e+38
-0.051390134 0.029804271 0.24200001 -3.0215265e+38
-0.087465785 0.030071305 0.24100001 -2.4742493e+38
-0.087075591 0.030071305 0.24100001 -2.4609049e+38
-0.086685397 0.030071305 0.24100001 -2.4609049e+38
-0.085905008 0.030071305 0.24100001 -2.4609053e+38
-0.085514814 0.030071305 0.24100001 -2.4609053e+38
-0.085124627 0.030071305 0.24100001 -2.4209768e+38
-0.08714404 0.031069525 0.24900001 -2.4209768e+38
-0.087089255 0.031194299 0.25 -2.4076324e+38
-0.087031223 0.031319078 0.25100002 -2.3675991e+38
-0.083136544 0.03169341 0.25400001 -2.3410146e+38
-0.082725301 0.03169341 0.25400001 -2.3677034e+38
-0.082314059 0.03169341 0.25400001 -2.3810478e+38
-0.082225271 0.031818185 0.25500003 -2.3810478e+38
-0.082454078 0.032067742 0.257 -2.421081e+38
-0.082357191 0.032192517 0.25800002 -2.4344254e+38
-0.08225707 0.032317296 0.259 -2.4744586e+38
-0.082153708 0.032442074 0.26000002 -2.5011474e+38
-0.0813118 0.032442074 0.26000002 -2.5945583e+38
-0.081201963 0.032566849 0.26100001 -2.6612807e+38
-0.080779389 0.032566849 0.26100001 -2.7146583e+38
-0.080356814 0.032566849 0.26100001 -2.754796e+38
-0.079934239 0.032566849 0.26100001 -2.7814848e+38
-0.07908909 0.032566849 0.26100001 -2.8482069e+38
-0.078666516 0.032566849 0.26100001 -2.90148e+38
-0.078543723 0.032691628 0.26200002 -2.9148244e+38
-0.078119531 0.032691628 0.26200002 -2.90148e+38
-0.078288428 0.032941181 0.264 -2.9682021e+38
-0.071291111 0.03306596 0.26500002 -3.0750613e+38
-0.070862055 0.03306596 0.26500002 -2.9816505e+38
-0.070433006 0.03306596 0.26500002 -2.8881356e+38
-0.069145851 0.03306596 0.26500002 -2.821414e+38
-0.068716802 0.03306596 0.26500002 -2.8213625e+38
-0.054008737 0.029696973 0.23800001 -2.6746785e+38
-0.05384871 0.029821752 0.23900001 -2.6880229e+38
-0.053461753 0.029821752 0.23900001 -2.7013673e+38
-0.053296868 0.029946528 0.24000001 -2.7547449e+38
-0.053349197 0.030196084 0.24200001 -2.8080181e+38
-0.052957382 0.030196084 0.24200001 -2.8213625e+38
-0.052565571 0.030196084 0.24200001 -2.8481028e+38
-0.051781945 0.030196084 0.24200001 -2.9415112e+38
-0.051390134 0.030196084 0.24200001 -3.0882997e+38
-0.11410723 0.03589654 0.28400001 -2.9137813e+38
-0.1131876 0.03589654 0.28400001 -2.7404091e+38
-0.11272779 0.03589654 0.28400001 -2.6870315e+38
-0.11226798 0.03589654 0.28400001 -2.6339137e+38
-0.11134835 0.03589654 0.28400001 -2.6072764e+38
-0.11088853 0.03589654 0.28400001 -2.6206208e+38
-0.11081756 0.036022935 0.28500003 -2.5940358e+38
-0.11035613 0.036022935 0.28500003 -2.5806914e+38
-0.087075591 0.030461498 0.24100001 -2.4609049e+38
-0.085905008 0.030461498 0.24100001 -2.4609053e+38
-0.085514814 0.030461498 0.24100001 -2.4609053e+38
-0.085124627 0.030461498 0.24100001 -2.4343212e+38
-0.084344238 0.030461498 0.24100001 -2.4209768e+38
-0.081509903 0.03551735 0.28100002 -3.0349245e+38
-0.081631854 0.035770141 0.28300002 -3.0482689e+38
-0.081173658 0.035770141 0.28300002 -3.0616133e+38
-0.068545438 0.033621404 0.266 -2.8213625e+38
-0.068114765 0.033621404 0.266 -2.8213629e+38
-0.067253426 0.033621404 0.266 -2.8080185e+38
-0.066822752 0.033621404 0.266 -2.7946741e+38
-0.066392086 0.033621404 0.266 -2.7813297e+38
-0.065961413 0.033621404 0.266 -2.7813297e+38
-0.055009574 0.030208707 0.23900001 -2.6479897e+38
-0.054008737 0.03008231 0.23800001 -2.6746785e+38
-0.053623401 0.03008231 0.23800001 -2.6880229e+38
-0.053238064 0.03008231 0.23800001 -2.7146076e+38
-0.053074796 0.030208707 0.23900001 -2.7679853e+38
-0.052908294 0.030335104 0.24000001 -2.8080181e+38
-0.052957382 0.030587895 0.24200001 -2.8480513e+38
-0.052565571 0.030587895 0.24200001 -2.8881867e+38
-0.11410723 0.036356352 0.28400001 -2.8736966e+38
-0.1131876 0.036356352 0.28400001 -2.6870315e+38
-0.11272779 0.036356352 0.28400001 -2.6603427e+38
-0.11226798 0.036356352 0.28400001 -2.6072253e+38
-0.11134835 0.036356352 0.28400001 -2.593932e+38
-0.11088853 0.036356352 0.28400001 -2.6072764e+38
-0.11042872 0.036356352 0.28400001 -2.5806914e+38
-0.10996891 0.036356352 0.28400001 -2.567347e+38
-0.08714404 0.031875815 0.24900001 -2.4076324e+38
-0.087089255 0.032003831 0.25 -2.4076324e+38
-0.087031223 0.032131847 0.25100002 -2.3941318e+38
-0.082725301 0.032515895 0.25400001 -2.3812034e+38
-0.082314059 0.032515895 0.25400001 -2.4077881e+38
-0.082225271 0.032643907 0.25500003 -2.4745102e+38
-0.082133241 0.032771923 0.25600001 -2.501199e+38
-0.081621878 0.032899939 0.257 -2.5945583e+38
-0.081521757 0.033027951 0.25800002 -2.6212471e+38
-0.0813118 0.033283986 0.26000002 -2.7679313e+38
-0.080890842 0.033283986 0.26000002 -2.8079649e+38
-0.080779389 0.033411998 0.26100001 -2.8079649e+38
-0.080356814 0.033411998 0.26100001 -2.7947248e+38
-0.079934239 0.033411998 0.26100001 -2.8481024e+38
-0.07908909 0.033411998 0.26100001 -2.90148e+38
-0.078666516 0.033411998 0.26100001 -2.9148244e+38
-0.078543723 0.033540014 0.26200002 -2.9415132e+38
-0.078119531 0.033540014 0.26200002 -2.9548576e+38
-0.081509903 0.035972305 0.28100002 -3.0349241e+38
-0.081631854 0.036228336 0.28300002 -3.0482689e+38
-0.081173658 0.036228336 0.28300002 -3.0482689e+38
-0.081000671 0.036356352 0.28400001 -3.0483729e+38
-0.071291111 0.033924062 0.26500002 -3.0750618e+38
-0.070862055 0.033924062 0.26500002 -3.0350285e+38
-0.070167221 0.033796046 0.264 -2.9683065e+38
-0.068623997 0.03366803 0.26300001 -2.8481028e+38
-0.068457492 0.033796046 0.264 -2.8480513e+38
-0.068287753 0.033924062 0.26500002 -2.8480513e+38
-0.067858703 0.033924062 0.26500002 -2.8213625e+38
-0.067000598 0.033924062 0.26500002 -2.8213629e+38
-0.066571549 0.033924062 0.26500002 -2.8080185e+38
-0.11416364 0.036686528 0.28300002 -2.9276967e+38
-0.11324725 0.036686528 0.28300002 -2.7535969e+38
-0.1131876 0.036816165 0.28400001 -2.6603427e+38
-0.11272779 0.036816165 0.28400001 -2.6336538e+38
-0.11226798 0.036816165 0.28400001 -2.5938809e+38
-0.11134835 0.036816165 0.28400001 -2.5406586e+38
-0.11088853 0.036816165 0.28400001 -2.5673474e+38
-0.11042872 0.036816165 0.28400001 -2.567347e+38
-0.10996891 0.036816165 0.28400001 -2.567347e+38
-0.084185116 0.03020481 0.23300001 -2.4609049e+38
-0.083807871 0.03020481 0.23300001 -2.4609049e+38
-0.083053388 0.03020481 0.23300001 -2.4609049e+38
-0.082321316 0.030075178 0.23200001 -2.4475605e+38
-0.087089255 0.032408595 0.25 -2.434165e+38
-0.087031223 0.032538231 0.25100002 -2.3941318e+38
-0.083136544 0.032927133 0.25400001 -2.367859e+38
-0.082725301 0.032927133 0.25400001 -2.4078922e+38
-0.082314059 0.032927133 0.25400001 -2.4479254e+38
-0.082225271 0.033056766 0.25500003 -2.5146474e+38
-0.082133241 0.033186402 0.25600001 -2.5545251e+38
-0.081621878 0.033316039 0.257 -2.6212471e+38
-0.081521757 0.033445671 0.25800002 -2.6746247e+38
-0.081418395 0.033575304 0.259 -2.7013135e+38
-0.0813118 0.03370494 0.26000002 -2.7546912e+38
-0.080890842 0.03370494 0.26000002 -2.8213093e+38
-0.080779389 0.033834573 0.26100001 -2.8213093e+38
-0.080356814 0.033834573 0.26100001 -2.8479986e+38
-0.079934239 0.033834573 0.26100001 -2.8746874e+38
-0.07908909 0.033834573 0.26100001 -2.9148248e+38
-0.078666516 0.033834573 0.26100001 -2.9680978e+38
-0.078243941 0.033834573 0.26100001 -2.9814422e+38
-0.078119531 0.033964209 0.26200002 -2.9814422e+38
-0.077271141 0.033964209 0.26200002 -3.0214754e+38
-0.081509903 0.036427263 0.28100002 -3.0615086e+38
-0.081631854 0.036686528 0.28300002 -3.0349245e+38
-0.081460483 0.036816165 0.28400001 -3.0482689e+38
-0.081000671 0.036816165 0.28400001 -3.0483729e+38
-0.071291111 0.034353111 0.26500002 -3.0750618e+38
-0.070862055 0.034353111 0.26500002 -3.0483729e+38
-0.067841217 0.03370494 0.26000002 -2.8348625e+38
-0.067679569 0.033834573 0.26100001 -2.8480513e+38
-0.068030059 0.034223478 0.264 -2.8480513e+38
-0.067175195 0.034223478 0.264 -2.8213625e+38
-0.067000598 0.034353111 0.26500002 -2.8213629e+38
-0.055396531 0.030982617 0.23900001 -2.674574e+38
-0.054394074 0.030852981 0.23800001 -2.7012632e+38
-0.054008737 0.030852981 0.23800001 -2.7278474e+38
-0.053623401 0.030852981 0.23800001 -2.7678806e+38
-0.053238064 0.030852981 0.23800001 -2.8614464e+38
-0.053074796 0.030982617 0.23900001 -2.9548572e+38
-0.052908294 0.031112254 0.24000001 -3.021786e+38
-0.052957382 0.031371519 0.24200001 -3.0351304e+38
-0.084185116 0.030582052 0.23300001 -2.4609049e+38
-0.083072558 0.0304508 0.23200001 -2.4742497e+38
-0.082696937 0.0304508 0.23200001 -2.4609053e+38
-0.081592478 0.030319545 0.23100001 -2.4475094e+38
-0.081218474 0.030319545 0.23100001 -2.4608538e+38
-0.080844469 0.030319545 0.23100001 -2.434165e+38
-0.083547786 0.033338375 0.25400001 -2.367859e+38
-0.083136544 0.033338375 0.25400001 -2.4078922e+38
-0.082725301 0.033338375 0.25400001 -2.4612698e+38
-0.082314059 0.033338375 0.25400001 -2.4879586e+38
-0.082225271 0.033469629 0.25500003 -2.5546806e+38
-0.082133241 0.033600882 0.25600001 -2.6079027e+38
-0.081621878 0.033732135 0.257 -2.6479363e+38
-0.081205785 0.033732135 0.257 -2.6879695e+38
-0.081418395 0.033994641 0.259 -2.7413472e+38
-0.080999061 0.033994641 0.259 -2.768036e+38
-0.080890842 0.034125898 0.26000002 -2.7947248e+38
-0.080469884 0.034125898 0.26000002 -2.8080692e+38
-0.080356814 0.034257147 0.26100001 -2.8481028e+38
-0.079934239 0.034257147 0.26100001 -2.8614472e+38
-0.07908909 0.034257147 0.26100001 -2.9414094e+38
-0.078666516 0.034257147 0.26100001 -2.9680982e+38
-0.078243941 0.034257147 0.26100001 -2.9814426e+38
-0.077398792 0.034257147 0.26100001 -3.008131e+38
-0.077271141 0.034388404 0.26200002 -3.0214754e+38
-0.071291111 0.034782164 0.26500002 -3.0750618e+38
-0.070862055 0.034782164 0.26500002 -3.0617173e+38
-0.067841217 0.034125898 0.26000002 -2.8350186e+38
-0.067420259 0.034125898 0.26000002 -2.8348625e+38
-0.067256995 0.034257147 0.26100001 -2.8348625e+38
-0.067090489 0.034388404 0.26200002 -2.8480513e+38
-0.065566689 0.034257147 0.26100001 -2.8213629e+38
-0.055783488 0.031369574 0.23900001 -2.7012628e+38
-0.055164747 0.031238317 0.23800001 -2.7146072e+38
-0.054394074 0.031238317 0.23800001 -2.8080696e+38
-0.054008737 0.031238317 0.23800001 -2.9414597e+38
-0.053623401 0.031238317 0.23800001 -3.0348705e+38
-0.053238064 0.031238317 0.23800001 -3.0483703e+38
-0.053074796 0.031369574 0.23900001 -3.0617147e+38
-0.11330365 0.037470046 0.28200001 -2.7537531e+38
-0.11284708 0.037470046 0.28200001 -2.6736867e+38
-0.11278906 0.037602916 0.28300002 -2.567192e+38
-0.11233087 0.037602916 0.28300002 -2.567192e+38
-0.11187267 0.037602916 0.28300002 -2.5406075e+38
-0.11095628 0.037602916 0.28300002 -2.5273671e+38
-0.11049809 0.037602916 0.28300002 -2.5273671e+38
-0.1100399 0.037602916 0.28300002 -2.5008856e+38
-0.10912351 0.037602916 0.28300002 -2.5008856e+38
-0.084185116 0.030959293 0.23300001 -2.4609049e+38
-0.083072558 0.030826421 0.23200001 -2.4742497e+38
-0.082340486 0.030693548 0.23100001 -2.4609053e+38
-0.081592478 0.030693548 0.23100001 -2.4475094e+38
-0.081218474 0.030693548 0.23100001 -2.4475094e+38
-0.080844469 0.030693548 0.23100001 -2.434165e+38
-0.080818824 0.030826421 0.23200001 -2.4208206e+38
-0.083547786 0.033749618 0.25400001 -2.3812034e+38
-0.083136544 0.033749618 0.25400001 -2.4212366e+38
-0.082725301 0.033749618 0.25400001 -2.4879586e+38
-0.082314059 0.033749618 0.25400001 -2.5146474e+38
-0.082225271 0.033882488 0.25500003 -2.568025e+38
-0.081631854 0.037602916 0.28300002 -3.0082357e+38
-0.081460483 0.03773579 0.28400001 -3.0349245e+38
-0.081000671 0.03773579 0.28400001 -3.0349241e+38
-0.055550084 0.031623654 0.23800001 -2.8079649e+38
-0.055164747 0.031623654 0.23800001 -2.9013758e+38
-0.054394074 0.031623654 0.23800001 -3.0750595e+38
-0.1142168 0.037926622 0.28200001 -3.1412076e+38
-0.11330365 0.037926622 0.28200001 -2.7404087e+38
-0.11284708 0.037926622 0.28200001 -2.6603423e+38
