# .PCD v0.7 - Point Cloud Data file format
VERSION 0.7
FIELDS x y z rgb
SIZE 4 4 4 4
TYPE F F F F
COUNT 1 1 1 1
WIDTH 974
HEIGHT 1
VIEWPOINT 0 0 0 1 0 0 0
POINTS 974
DATA ascii
0.017834241 0.0077783382 0.29900002 -2.4078415e+38
0.01831834 0.0077783382 0.29900002 -2.4078415e+38
0.018802438 0.0077783382 0.29900002 -2.4211859e+38
0.019286538 0.0077783382 0.29900002 -2.3813088e+38
0.020254737 0.0077783382 0.29900002 -2.3946017e+38
0.020738835 0.0077783382 0.29900002 -2.4212905e+38
0.021222934 0.0077783382 0.29900002 -2.4479793e+38
0.022191133 0.0077783382 0.29900002 -2.5812672e+38
0.022675233 0.0077783382 0.29900002 -2.6346448e+38
0.023159331 0.0077783382 0.29900002 -2.6481454e+38
0.02364343 0.0077783382 0.29900002 -2.6748342e+38
0.02461163 0.0077783382 0.29900002 -2.7282119e+38
0.025011797 0.0077523245 0.29800001 -2.7415563e+38
0.025494276 0.0077523245 0.29800001 -2.7682451e+38
0.026459236 0.0077523245 0.29800001 -2.7282634e+38
0.026851308 0.0077263094 0.29700002 -2.714919e+38
0.027332168 0.0077263094 0.29700002 -2.7015746e+38
0.028293889 0.0077263094 0.29700002 -2.714919e+38
-0.0015143772 0.0086587779 0.296 -2.3277742e+38
-0.00055589323 0.0086587779 0.296 -2.354463e+38
-7.6910175e-05 0.0086880317 0.29700002 -2.3277742e+38
0.00040395086 0.0086880317 0.29700002 -2.354463e+38
0.0008877911 0.0087172845 0.29800001 -2.3544634e+38
0.0013702712 0.0087172845 0.29800001 -2.3678078e+38
0.0018589685 0.0087465364 0.29900002 -2.3678078e+38
0.0028271668 0.0087465364 0.29900002 -2.3811523e+38
0.003311266 0.0087465364 0.29900002 -2.3944967e+38
0.0037953653 0.0087465364 0.29900002 -2.4211855e+38
0.0047635636 0.0087465364 0.29900002 -2.4879079e+38
0.0052476628 0.0087465364 0.29900002 -2.5412855e+38
0.0057509313 0.0087757893 0.30000001 -2.5546299e+38
0.0062366496 0.0087757893 0.30000001 -2.5679743e+38
0.0072080861 0.0087757893 0.30000001 -2.5813187e+38
0.0076938043 0.0087757893 0.30000001 -2.5812672e+38
0.0081522577 0.0087465364 0.29900002 -2.5946116e+38
0.0091204559 0.0087465364 0.29900002 -2.607956e+38
0.0096045556 0.0087465364 0.29900002 -2.6346448e+38
0.010088654 0.0087465364 0.29900002 -2.6346448e+38
0.011019873 0.0087172845 0.29800001 -2.6081637e+38
0.011502353 0.0087172845 0.29800001 -2.6081637e+38
0.011984834 0.0087172845 0.29800001 -2.5814749e+38
0.012467314 0.0087172845 0.29800001 -2.5814234e+38
0.013432274 0.0087172845 0.29800001 -2.5679228e+38
0.013961447 0.0087465364 0.29900002 -2.5545784e+38
0.014445546 0.0087465364 0.29900002 -2.5412855e+38
0.014929646 0.0087465364 0.29900002 -2.5412855e+38
0.015897844 0.0087465364 0.29900002 -2.4745635e+38
0.016381944 0.0087465364 0.29900002 -2.4346349e+38
0.016866041 0.0087465364 0.29900002 -2.4346349e+38
0.017834241 0.0087465364 0.29900002 -2.3812573e+38
0.01831834 0.0087465364 0.29900002 -2.3812573e+38
0.018802438 0.0087465364 0.29900002 -2.3946017e+38
0.019286538 0.0087465364 0.29900002 -2.3812573e+38
0.020254737 0.0087465364 0.29900002 -2.3946017e+38
0.020738835 0.0087465364 0.29900002 -2.3946017e+38
0.021222934 0.0087465364 0.29900002 -2.4479793e+38
0.022191133 0.0087465364 0.29900002 -2.554735e+38
0.022675233 0.0087465364 0.29900002 -2.6081126e+38
0.023159331 0.0087465364 0.29900002 -2.6614898e+38
0.02364343 0.0087465364 0.29900002 -2.7015231e+38
0.024529316 0.0087172845 0.29800001 -2.7415563e+38
0.025011797 0.0087172845 0.29800001 -2.7682966e+38
0.025494276 0.0087172845 0.29800001 -2.781641e+38
0.026459236 0.0087172845 0.29800001 -2.7282634e+38
0.026851308 0.0086880317 0.29700002 -2.714919e+38
0.027332168 0.0086880317 0.29700002 -2.7015746e+38
0.028293889 0.0086880317 0.29700002 -2.714919e+38
-0.0015143772 0.0091380207 0.296 -2.3277742e+38
-0.00055589323 0.0091380207 0.296 -2.3277742e+38
-7.6910175e-05 0.0091688922 0.29700002 -2.3277746e+38
0.00040395086 0.0091688922 0.29700002 -2.3277746e+38
0.00088481198 0.0091688922 0.29700002 -2.3544634e+38
0.0013702712 0.0091997646 0.29800001 -2.3678078e+38
0.0023352315 0.0091997646 0.29800001 -2.3678078e+38
0.0028177116 0.0091997646 0.29800001 -2.3811527e+38
0.0033001916 0.0091997646 0.29800001 -2.3944971e+38
0.0042651519 0.0091997646 0.29800001 -2.4612191e+38
0.004747632 0.0091997646 0.29800001 -2.4747197e+38
0.0052476628 0.0092306361 0.29900002 -2.5280973e+38
0.0057317619 0.0092306361 0.29900002 -2.5280973e+38
0.0062158611 0.0092306361 0.29900002 -2.5414417e+38
0.0071840594 0.0092306361 0.29900002 -2.5547861e+38
0.0076681585 0.0092306361 0.29900002 -2.5547346e+38
0.0081522577 0.0092306361 0.29900002 -2.568079e+38
0.0091204559 0.0092306361 0.29900002 -2.607956e+38
0.0095724324 0.0091997646 0.29800001 -2.6346448e+38
0.010054912 0.0091997646 0.29800001 -2.6346448e+38
0.011019873 0.0091997646 0.29800001 -2.6346448e+38
0.011502353 0.0091997646 0.29800001 -2.6346964e+38
0.011984834 0.0091997646 0.29800001 -2.6080076e+38
0.012467314 0.0091997646 0.29800001 -2.607956e+38
0.013432274 0.0091997646 0.29800001 -2.5679228e+38
0.013914754 0.0091997646 0.29800001 -2.5545784e+38
0.014397234 0.0091997646 0.29800001 -2.5412855e+38
0.014929646 0.0092306361 0.29900002 -2.5145967e+38
0.015897844 0.0092306361 0.29900002 -2.4745635e+38
0.016381944 0.0092306361 0.29900002 -2.4346349e+38
0.016866041 0.0092306361 0.29900002 -2.4346349e+38
0.017834241 0.0092306361 0.29900002 -2.3812573e+38
0.01831834 0.0092306361 0.29900002 -2.3812573e+38
0.018802438 0.0092306361 0.29900002 -2.3946017e+38
0.019286538 0.0092306361 0.29900002 -2.3812573e+38
0.020254737 0.0092306361 0.29900002 -2.3946021e+38
0.020738835 0.0092306361 0.29900002 -2.4212909e+38
0.021222934 0.0092306361 0.29900002 -2.4613242e+38
0.022191133 0.0092306361 0.29900002 -2.554735e+38
0.022599395 0.0091997646 0.29800001 -2.621457e+38
0.023081876 0.0091997646 0.29800001 -2.6614902e+38
0.024046836 0.0091997646 0.29800001 -2.7148675e+38
0.024529316 0.0091997646 0.29800001 -2.7282119e+38
0.025011797 0.0091997646 0.29800001 -2.7682966e+38
0.025494276 0.0091997646 0.29800001 -2.781641e+38
0.026370447 0.0091688922 0.29700002 -2.7282634e+38
0.026851308 0.0091688922 0.29700002 -2.714919e+38
0.027332168 0.0091688922 0.29700002 -2.7015746e+38
0.028293889 0.0091688922 0.29700002 -2.7148675e+38
0.029651763 0.0084588435 0.27400002 -2.8081732e+38
0.030095385 0.0084588435 0.27400002 -2.9682528e+38
-0.0040338971 0.0088374848 0.27200001 -2.7415534e+38
-0.0015143772 0.0096172625 0.296 -2.3277742e+38
-0.00055589323 0.0096172625 0.296 -2.354463e+38
-7.6651224e-05 0.0096172625 0.296 -2.3544634e+38
0.00040259075 0.0096172625 0.296 -2.3544634e+38
0.00088481198 0.0096497536 0.29700002 -2.3544634e+38
0.0018465341 0.0096497536 0.29700002 -2.3544638e+38
0.0023273951 0.0096497536 0.29700002 -2.3678083e+38
0.0027988006 0.0096172625 0.296 -2.3811527e+38
0.0037572847 0.0096172625 0.296 -2.4214461e+38
0.0042365268 0.0096172625 0.296 -2.4614793e+38
0.0047317003 0.0096497536 0.29700002 -2.5682346e+38
0.005230112 0.0096822446 0.29800001 -2.5682346e+38
0.005712592 0.0096822446 0.29800001 -2.5548902e+38
0.0066775521 0.0096822446 0.29800001 -2.5547861e+38
0.0071600322 0.0096822446 0.29800001 -2.5547861e+38
0.0076425122 0.0096822446 0.29800001 -2.5547346e+38
0.0081249923 0.0096822446 0.29800001 -2.568079e+38
0.0090899523 0.0096822446 0.29800001 -2.5814234e+38
0.0095724324 0.0096822446 0.29800001 -2.6081122e+38
0.010054912 0.0096822446 0.29800001 -2.6081122e+38
0.011019873 0.0096822446 0.29800001 -2.6081122e+38
0.011502353 0.0096822446 0.29800001 -2.6081122e+38
0.011984834 0.0096822446 0.29800001 -2.5814234e+38
0.012467314 0.0096822446 0.29800001 -2.5814234e+38
0.013432274 0.0096822446 0.29800001 -2.5679228e+38
0.013914754 0.0096822446 0.29800001 -2.5545784e+38
0.014397234 0.0096822446 0.29800001 -2.541234e+38
0.015362194 0.0096822446 0.29800001 -2.4879079e+38
0.015844675 0.0096822446 0.29800001 -2.4879079e+38
0.016327154 0.0096822446 0.29800001 -2.4346349e+38
0.016809635 0.0096822446 0.29800001 -2.4346349e+38
0.017774595 0.0096822446 0.29800001 -2.3946021e+38
0.018257074 0.0096822446 0.29800001 -2.3812577e+38
0.018739555 0.0096822446 0.29800001 -2.3946021e+38
0.019638393 0.0096497536 0.29700002 -2.3946021e+38
0.020119254 0.0096497536 0.29700002 -2.4080506e+38
0.020669475 0.0096822446 0.29800001 -2.4480838e+38
0.021151954 0.0096822446 0.29800001 -2.5281502e+38
0.022116916 0.0096822446 0.29800001 -2.6349055e+38
0.022599395 0.0096822446 0.29800001 -2.6482499e+38
0.023081876 0.0096822446 0.29800001 -2.6615943e+38
0.024046836 0.0096822446 0.29800001 -2.7016271e+38
0.024529316 0.0096822446 0.29800001 -2.7283159e+38
0.025011797 0.0096822446 0.29800001 -2.7416603e+38
0.025889587 0.0096497536 0.29700002 -2.7684006e+38
0.026370447 0.0096497536 0.29700002 -2.7417118e+38
0.026851308 0.0096497536 0.29700002 -2.714919e+38
0.027332168 0.0096497536 0.29700002 -2.7015746e+38
0.028293889 0.0096497536 0.29700002 -2.7148675e+38
0.029651763 0.0089024659 0.27400002 -2.7948288e+38
0.030095385 0.0089024659 0.27400002 -2.9281153e+38
-0.0040338971 0.009277869 0.27200001 -2.6745716e+38
-0.0010316381 0.010062395 0.29500002 -2.3277742e+38
-0.00055589323 0.010096504 0.296 -2.3277742e+38
-7.6651224e-05 0.010096504 0.296 -2.3544634e+38
0.00040259075 0.010096504 0.296 -2.3544634e+38
0.00088183273 0.010096504 0.296 -2.3544634e+38
0.0018340994 0.010062395 0.29500002 -2.3678083e+38
0.002303886 0.010028285 0.294 -2.3944971e+38
0.0032558937 0.010028285 0.294 -2.5148569e+38
0.0042222138 0.010062395 0.29500002 -2.608424e+38
0.004699837 0.010062395 0.29500002 -2.6618016e+38
0.0051950105 0.010096504 0.296 -2.6884904e+38
0.0061534946 0.010096504 0.296 -2.6217684e+38
0.0066327369 0.010096504 0.296 -2.5682346e+38
0.0071119787 0.010096504 0.296 -2.5548902e+38
0.0080704633 0.010096504 0.296 -2.5547346e+38
0.0085497051 0.010096504 0.296 -2.568079e+38
0.0090594497 0.010130614 0.29700002 -2.5814234e+38
0.0095403111 0.010130614 0.29700002 -2.6081122e+38
0.010502033 0.010130614 0.29700002 -2.6081122e+38
0.010982894 0.010130614 0.29700002 -2.6081122e+38
0.011463755 0.010130614 0.29700002 -2.6081122e+38
0.011944616 0.010130614 0.29700002 -2.5814234e+38
0.012906338 0.010130614 0.29700002 -2.568079e+38
0.013432274 0.010164725 0.29800001 -2.5413902e+38
0.013914754 0.010164725 0.29800001 -2.5147014e+38
0.014397234 0.010164725 0.29800001 -2.541234e+38
0.015362194 0.010164725 0.29800001 -2.4878564e+38
0.015844675 0.010164725 0.29800001 -2.4878564e+38
0.016272366 0.010130614 0.29700002 -2.4346349e+38
0.01717606 0.010096504 0.296 -2.4080506e+38
0.017655302 0.010096504 0.296 -2.3813618e+38
0.018134544 0.010096504 0.296 -2.3680174e+38
0.019093029 0.010096504 0.296 -2.4080506e+38
0.019572271 0.010096504 0.296 -2.4614282e+38
0.020051513 0.010096504 0.296 -2.514962e+38
0.020530755 0.010096504 0.296 -2.5950284e+38
0.021561837 0.010130614 0.29700002 -2.6884393e+38
0.022042697 0.010130614 0.29700002 -2.7418165e+38
0.02252356 0.010130614 0.29700002 -2.7951941e+38
0.02300442 0.010130614 0.29700002 -2.7284721e+38
0.023966143 0.010130614 0.29700002 -2.7149715e+38
0.024447003 0.010130614 0.29700002 -2.7283159e+38
0.024927864 0.010130614 0.29700002 -2.7416603e+38
0.025889587 0.010130614 0.29700002 -2.7684006e+38
0.026370447 0.010130614 0.29700002 -2.7550562e+38
0.026851308 0.010130614 0.29700002 -2.715023e+38
0.027332168 0.010130614 0.29700002 -2.6883342e+38
0.028293889 0.010130614 0.29700002 -2.7148675e+38
0.029651763 0.0093460884 0.27400002 -2.7814848e+38
0.030095385 0.0093460884 0.27400002 -2.8614979e+38
0.03098263 0.0093460884 0.27400002 -2.9949931e+38
0.03131156 0.0093119796 0.273 -3.0617151e+38
-0.0010316381 0.01101764 0.29500002 -2.3277742e+38
-0.00055401516 0.01101764 0.29500002 -2.3277742e+38
-7.6392265e-05 0.01101764 0.29500002 -2.3279308e+38
0.00040123065 0.01101764 0.29500002 -2.3412752e+38
0.0013564765 0.01101764 0.29500002 -2.5015125e+38
0.001827882 0.010980292 0.294 -2.5150131e+38
0.0066103288 0.01101764 0.29500002 -2.6884904e+38
0.0070879515 0.01101764 0.29500002 -2.675146e+38
0.008043197 0.01101764 0.29500002 -2.6351128e+38
0.0085208202 0.01101764 0.29500002 -2.6349566e+38
0.009028947 0.011054988 0.296 -2.6216122e+38
0.0095081888 0.011054988 0.296 -2.6082678e+38
0.010466672 0.011054988 0.296 -2.5949234e+38
0.010982894 0.011092336 0.29700002 -2.6082678e+38
0.011463755 0.011092336 0.29700002 -2.6081637e+38
0.011944616 0.011092336 0.29700002 -2.6081637e+38
0.012906338 0.011092336 0.29700002 -2.5814749e+38
0.013387199 0.011092336 0.29700002 -2.568079e+38
0.01386806 0.011092336 0.29700002 -2.5280458e+38
0.014348921 0.011092336 0.29700002 -2.5280458e+38
0.015310643 0.011092336 0.29700002 -2.4880126e+38
0.015791504 0.011092336 0.29700002 -2.4746682e+38
0.016696818 0.011054988 0.296 -2.4614278e+38
0.01717606 0.011054988 0.296 -2.4614278e+38
0.017536009 0.010980292 0.294 -2.5281498e+38
0.018488016 0.010980292 0.294 -2.6750949e+38
0.020939017 0.01101764 0.29500002 -2.8218833e+38
0.021489238 0.011054988 0.296 -2.8352277e+38
0.02196848 0.011054988 0.296 -2.8619161e+38
0.02252356 0.011092336 0.29700002 -2.888605e+38
0.023966143 0.011092336 0.29700002 -2.8085385e+38
0.024447003 0.011092336 0.29700002 -2.7951941e+38
0.024927864 0.011092336 0.29700002 -2.7418165e+38
0.025889587 0.011092336 0.29700002 -2.7550047e+38
0.026370447 0.011092336 0.29700002 -2.7550047e+38
0.026760899 0.011054988 0.296 -2.7415563e+38
0.027719382 0.011054988 0.296 -2.7148675e+38
0.028103359 0.01101764 0.29500002 -2.7148675e+38
0.029651763 0.010233333 0.27400002 -2.7414516e+38
0.029985549 0.010195986 0.273 -2.76814e+38
0.030869557 0.010195986 0.273 -2.8614464e+38
0.031196866 0.010158638 0.27200001 -2.9014796e+38
-0.0056889011 0.010404187 0.26700002 -2.7679828e+38
-0.0052763 0.010443155 0.26800001 -2.6476759e+38
-0.0010316381 0.011495263 0.29500002 -2.301242e+38
-0.00055401516 0.011495263 0.29500002 -2.3279308e+38
-7.6392265e-05 0.011495263 0.29500002 -2.3547237e+38
0.00087587442 0.011456296 0.294 -2.5282013e+38
0.0013518783 0.011456296 0.294 -2.5682346e+38
0.0018154476 0.011378362 0.29200003 -2.5817351e+38
0.0027609791 0.011378362 0.29200003 -2.6618016e+38
0.0032337448 0.011378362 0.29200003 -2.675146e+38
0.0065879207 0.011456296 0.294 -2.7151792e+38
0.0070879515 0.011495263 0.29500002 -2.7018348e+38
0.008043197 0.011495263 0.29500002 -2.6884904e+38
0.0085208202 0.011495263 0.29500002 -2.7018348e+38
0.0089984434 0.011495263 0.29500002 -2.6884904e+38
0.0095081888 0.01153423 0.296 -2.6884904e+38
0.010466672 0.01153423 0.296 -2.6883342e+38
0.010945915 0.01153423 0.296 -2.6349566e+38
0.011425157 0.01153423 0.296 -2.6216122e+38
0.011944616 0.011573197 0.29700002 -2.6216122e+38
0.012906338 0.011573197 0.29700002 -2.5949234e+38
0.013387199 0.011573197 0.29700002 -2.568183e+38
0.01386806 0.011573197 0.29700002 -2.5548386e+38
0.014348921 0.011573197 0.29700002 -2.5281498e+38
0.015310643 0.011573197 0.29700002 -2.5148054e+38
0.015738335 0.01153423 0.296 -2.5148054e+38
0.016640412 0.011495263 0.29500002 -2.5816836e+38
0.017118033 0.011495263 0.29500002 -2.6217168e+38
0.017536009 0.011456296 0.294 -2.6750945e+38
0.018488016 0.011456296 0.294 -2.7418165e+38
0.018964021 0.011456296 0.294 -2.7685057e+38
0.019440025 0.011456296 0.294 -2.7685057e+38
0.020392032 0.011456296 0.294 -2.8085389e+38
0.020868037 0.011456296 0.294 -2.8352277e+38
0.02141664 0.011495263 0.29500002 -2.8619165e+38
0.021894263 0.011495263 0.29500002 -2.8752605e+38
0.022447722 0.01153423 0.296 -2.9019494e+38
0.023406206 0.01153423 0.296 -2.888605e+38
0.023885448 0.01153423 0.296 -2.8619161e+38
0.024447003 0.011573197 0.29700002 -2.8352273e+38
0.024843933 0.01153423 0.296 -2.8085385e+38
0.025802417 0.01153423 0.296 -2.7683491e+38
0.026281659 0.01153423 0.296 -2.7416603e+38
0.026760899 0.01153423 0.296 -2.7283159e+38
0.027719382 0.01153423 0.296 -2.7282119e+38
0.028198624 0.01153423 0.296 -2.7148675e+38
0.029543545 0.01063799 0.273 -2.7015746e+38
0.029985549 0.01063799 0.273 -2.7015742e+38
0.030869557 0.01063799 0.273 -2.7947244e+38
0.031196866 0.010599023 0.27200001 -2.8214132e+38
0.03184177 0.010521089 0.27000001 -2.9682016e+38
0.032278918 0.010521089 0.27000001 -3.0483192e+38
-0.0069857687 0.010836476 0.26700002 -2.9816483e+38
-0.0065534795 0.010836476 0.26700002 -2.808171e+38
-0.0056889011 0.010836476 0.26700002 -2.6476755e+38
-0.0052566119 0.010836476 0.26700002 -2.5542651e+38
-0.0048243226 0.010836476 0.26700002 -2.5275762e+38
-0.0043920334 0.010836476 0.26700002 -2.4876992e+38
-0.0010316381 0.011972887 0.29500002 -2.3412752e+38
-0.00055401516 0.011972887 0.29500002 -2.3813084e+38
-7.6133307e-05 0.011932299 0.294 -2.4349463e+38
0.00087587442 0.011932299 0.294 -2.5817351e+38
0.0013426818 0.011851128 0.29200003 -2.5950795e+38
0.0022725407 0.011769956 0.29000002 -2.6350612e+38
0.0027420684 0.011769956 0.29000002 -2.6750945e+38
0.0032226702 0.011810542 0.29100001 -2.6884389e+38
0.0037065106 0.011851128 0.29200003 -2.7018348e+38
0.0041935886 0.011891714 0.29300001 -2.7018348e+38
0.0051599089 0.011932299 0.294 -2.7285236e+38
0.005635913 0.011932299 0.294 -2.7285236e+38
0.0061119166 0.011932299 0.294 -2.7151792e+38
0.0065879207 0.011932299 0.294 -2.7417118e+38
0.0075399289 0.011932299 0.294 -2.7417118e+38
0.0080159325 0.011932299 0.294 -2.7417118e+38
0.0085208202 0.011972887 0.29500002 -2.7550562e+38
0.0089984434 0.011972887 0.29500002 -2.7684006e+38
0.0099536888 0.011972887 0.29500002 -2.7684006e+38
0.010431312 0.011972887 0.29500002 -2.7950895e+38
0.010945915 0.012013472 0.296 -2.7950895e+38
0.011425157 0.012013472 0.296 -2.7684006e+38
0.012383641 0.012013472 0.296 -2.675146e+38
0.012862883 0.012013472 0.296 -2.6884904e+38
0.013387199 0.012054058 0.29700002 -2.6750945e+38
0.01386806 0.012054058 0.29700002 -2.6083724e+38
0.014348921 0.012054058 0.29700002 -2.6217168e+38
0.015259093 0.012013472 0.296 -2.6083724e+38
0.015685165 0.011972887 0.29500002 -2.6217168e+38
0.018425133 0.011891714 0.29300001 -2.7818497e+38
0.018899517 0.011891714 0.29300001 -2.7951941e+38
0.019373903 0.011891714 0.29300001 -2.7818497e+38
0.020392032 0.011932299 0.294 -2.8218833e+38
0.020868037 0.011932299 0.294 -2.8619165e+38
0.02134404 0.011932299 0.294 -2.875261e+38
0.021894263 0.011972887 0.29500002 -2.8886054e+38
0.022849509 0.011972887 0.29500002 -2.9818596e+38
0.023327131 0.011972887 0.29500002 -2.9418264e+38
0.023885448 0.012013472 0.296 -2.9151376e+38
0.024364691 0.012013472 0.296 -2.9017932e+38
0.024843933 0.012013472 0.296 -2.8884488e+38
0.025715247 0.011972887 0.29500002 -2.8217268e+38
0.02619287 0.011972887 0.29500002 -2.7950379e+38
0.026670491 0.011972887 0.29500002 -2.7550047e+38
0.027719382 0.012013472 0.296 -2.7149715e+38
0.028198624 0.012013472 0.296 -2.7016271e+38
0.03085278 0.010917649 0.26900002 -2.7814844e+38
0.031171994 0.010877063 0.26800001 -2.8214136e+38
0.031605903 0.010877063 0.26800001 -2.8881356e+38
0.032159362 0.010917649 0.26900002 -2.9682532e+38
-0.0069596055 0.011226561 0.266 -2.8479442e+38
-0.0060982648 0.011226561 0.266 -2.6209867e+38
-0.0056675947 0.011226561 0.266 -2.5275758e+38
-0.0052369242 0.011226561 0.266 -2.4610104e+38
-0.0048062541 0.011226561 0.266 -2.4610104e+38
-0.0039449139 0.011226561 0.266 -2.46101e+38
-0.0035010322 0.011184355 0.26500002 -2.3944963e+38
0.003211596 0.012239483 0.29000002 -2.6884389e+38
0.004164964 0.012281689 0.29100001 -2.6884904e+38
0.029758815 0.011268766 0.26700002 -2.6748854e+38
0.030191103 0.011268766 0.26700002 -2.7281068e+38
0.030508699 0.011226561 0.266 -2.7414512e+38
0.03137004 0.011226561 0.266 -2.8481024e+38
0.03180071 0.011226561 0.266 -2.888031e+38
0.032473721 0.011310971 0.26800001 -2.9680974e+38
0.032907628 0.011310971 0.26800001 -3.0215261e+38
-0.001028141 0.012884308 0.294 -2.4480305e+38
-0.00055213715 0.012884308 0.294 -2.4880637e+38
-7.6133307e-05 0.012884308 0.294 -2.5282009e+38
0.0008728953 0.012840483 0.29300001 -2.5817347e+38
0.0041935886 0.012840483 0.29300001 -2.6884904e+38
0.0051599089 0.012884308 0.294 -2.7151792e+38
0.005635913 0.012884308 0.294 -2.7417118e+38
0.0061119166 0.012884308 0.294 -2.7417118e+38
0.0065879207 0.012884308 0.294 -2.7417118e+38
0.0075399289 0.012884308 0.294 -2.7417118e+38
0.0080159325 0.012884308 0.294 -2.7550562e+38
0.0084919361 0.012884308 0.294 -2.7950895e+38
0.0089984434 0.012928132 0.29500002 -2.7950895e+38
0.0099536888 0.012928132 0.29500002 -2.7950895e+38
0.010431312 0.012928132 0.29500002 -2.7950895e+38
0.010908935 0.012928132 0.29500002 -2.8084339e+38
0.011425157 0.012971955 0.296 -2.7950895e+38
0.012383641 0.012971955 0.296 -2.7550562e+38
0.012862883 0.012971955 0.296 -2.7684006e+38
0.013342124 0.012971955 0.296 -2.7285236e+38
0.013821366 0.012971955 0.296 -2.7285236e+38
0.014779851 0.012971955 0.296 -2.741868e+38
0.015207542 0.012928132 0.29500002 -2.7285236e+38
0.015685165 0.012928132 0.29500002 -2.7685568e+38
0.017060006 0.012884308 0.294 -2.7952456e+38
0.017950747 0.012840483 0.29300001 -2.8217268e+38
0.018425133 0.012840483 0.29300001 -2.8217268e+38
0.018899517 0.012840483 0.29300001 -2.8350712e+38
0.019373903 0.012840483 0.29300001 -2.8350712e+38
0.020322671 0.012840483 0.29300001 -2.86176e+38
0.020797057 0.012840483 0.29300001 -2.8884488e+38
0.02134404 0.012884308 0.294 -2.9017932e+38
0.021820044 0.012884308 0.294 -2.9151376e+38
0.022772051 0.012884308 0.294 -2.995204e+38
0.023327131 0.012928132 0.29500002 -2.9818596e+38
0.023804754 0.012928132 0.29500002 -2.928482e+38
0.024282377 0.012928132 0.29500002 -2.9151376e+38
0.025237624 0.012928132 0.29500002 -2.8884488e+38
0.025628075 0.012884308 0.294 -2.86176e+38
0.026104078 0.012884308 0.294 -2.86176e+38
0.027056087 0.012884308 0.294 -2.8217268e+38
0.02753209 0.012884308 0.294 -2.7950379e+38
0.028198624 0.012971955 0.296 -2.7550047e+38
-0.0073902756 0.012087901 0.266 -2.8081175e+38
-0.0069596055 0.012087901 0.266 -2.5809005e+38
-0.0060982648 0.012087901 0.266 -2.4875426e+38
-0.0056675947 0.012087901 0.266 -2.4608538e+38
-0.0052369242 0.012087901 0.266 -2.4209768e+38
-0.0043591345 0.012042457 0.26500002 -2.4077366e+38
-0.0039152531 0.011997014 0.264 -2.3943922e+38
-0.003487821 0.011997014 0.264 -2.3678074e+38
0.0041506514 0.013178539 0.29000002 -2.6884904e+38
0.0046520424 0.013269424 0.29200003 -2.7018348e+38
0.0051423581 0.013314867 0.29300001 -2.7018348e+38
0.005635913 0.013360312 0.294 -2.7417118e+38
0.0061119166 0.013360312 0.294 -2.7417118e+38
0.0065879207 0.013360312 0.294 -2.7283674e+38
0.0075399289 0.013360312 0.294 -2.7417118e+38
0.0080159325 0.013360312 0.294 -2.7550562e+38
0.0084919361 0.013360312 0.294 -2.7684006e+38
0.0089679407 0.013360312 0.294 -2.7950895e+38
0.0099536888 0.013405755 0.29500002 -2.8084339e+38
0.010431312 0.013405755 0.29500002 -2.7950895e+38
0.010908935 0.013405755 0.29500002 -2.7950895e+38
0.011386557 0.013405755 0.29500002 -2.7950895e+38
0.012383641 0.013451197 0.296 -2.7684006e+38
0.012862883 0.013451197 0.296 -2.7950895e+38
0.013342124 0.013451197 0.296 -2.7685568e+38
0.013821366 0.013451197 0.296 -2.741868e+38
0.014729919 0.013405755 0.29500002 -2.7685568e+38
0.015207542 0.013405755 0.29500002 -2.741868e+38
0.016107997 0.013360312 0.294 -2.7819012e+38
0.016527593 0.013314867 0.29300001 -2.7685568e+38
0.017001979 0.013314867 0.29300001 -2.7952456e+38
0.017950747 0.013314867 0.29300001 -2.8217268e+38
0.018425133 0.013314867 0.29300001 -2.8217268e+38
0.018899517 0.013314867 0.29300001 -2.8484156e+38
0.019373903 0.013314867 0.29300001 -2.8350712e+38
0.020322671 0.013314867 0.29300001 -2.86176e+38
0.020797057 0.013314867 0.29300001 -2.8884488e+38
0.021271441 0.013314867 0.29300001 -2.9017932e+38
0.021820044 0.013360312 0.294 -2.9151376e+38
0.022772051 0.013360312 0.294 -2.995204e+38
0.023248056 0.013360312 0.294 -2.9818596e+38
0.023724059 0.013360312 0.294 -2.928482e+38
0.024676068 0.013360312 0.294 -2.9151376e+38
0.02515207 0.013360312 0.294 -2.8884488e+38
0.025628075 0.013360312 0.294 -2.8617604e+38
0.026104078 0.013360312 0.294 -2.8617604e+38
0.027056087 0.013360312 0.294 -2.848416e+38
0.02753209 0.013360312 0.294 -2.8217272e+38
0.028008094 0.013360312 0.294 -2.8083828e+38
0.029535903 0.012042457 0.26500002 -2.6615409e+38
0.029964954 0.012042457 0.26500002 -2.6747292e+38
0.030823056 0.012042457 0.26500002 -2.701418e+38
0.031252109 0.012042457 0.26500002 -2.7414512e+38
0.03180071 0.012087901 0.266 -2.7813804e+38
0.032231379 0.012087901 0.266 -2.8214136e+38
0.032907628 0.012178788 0.26800001 -2.9014265e+38
0.033341538 0.012178788 0.26800001 -2.9948373e+38
-0.0069596055 0.012518572 0.266 -2.5143341e+38
-0.0060982648 0.012518572 0.266 -2.4343212e+38
-0.0056462879 0.012471508 0.26500002 -2.4076324e+38
-0.0052172369 0.012471508 0.26500002 -2.3677034e+38
-0.0043591345 0.012471508 0.26500002 -2.4077366e+38
-0.0039152531 0.012424446 0.264 -2.3943922e+38
-0.003487821 0.012424446 0.264 -2.3678074e+38
-0.00091973162 0.012377384 0.26300001 -2.4214453e+38
-0.0004939186 0.012377384 0.26300001 -2.4481341e+38
-6.8364607e-05 0.012424446 0.264 -2.5015121e+38
0.00078352029 0.012377384 0.26300001 -2.5548897e+38
0.0041506514 0.013648067 0.29000002 -2.7016786e+38
0.0046520424 0.013742191 0.29200003 -2.715023e+38
0.0051599089 0.013836316 0.294 -2.715023e+38
0.005635913 0.013836316 0.294 -2.7283674e+38
0.0061119166 0.013836316 0.294 -2.7283674e+38
0.0065879207 0.013836316 0.294 -2.7283674e+38
0.0075142821 0.013789252 0.29300001 -2.7417118e+38
0.0080159325 0.013836316 0.294 -2.7417118e+38
0.0084919361 0.013836316 0.294 -2.7684006e+38
0.0089679407 0.013836316 0.294 -2.7684006e+38
0.0099199479 0.013836316 0.294 -2.7950895e+38
0.010431312 0.013883377 0.29500002 -2.8083298e+38
0.012862883 0.013930439 0.296 -2.7950895e+38
0.01329705 0.013883377 0.29500002 -2.7819012e+38
0.014252296 0.013883377 0.29500002 -2.7685568e+38
0.014679986 0.013836316 0.294 -2.7685568e+38
0.01515599 0.013836316 0.294 -2.7685568e+38
0.016053209 0.013789252 0.29300001 -2.7819012e+38
0.016527593 0.013789252 0.29300001 -2.7685568e+38
0.017001979 0.013789252 0.29300001 -2.8084339e+38
0.017950747 0.013789252 0.29300001 -2.8217268e+38
0.018425133 0.013789252 0.29300001 -2.8217268e+38
0.018899517 0.013789252 0.29300001 -2.8484156e+38
0.019373903 0.013789252 0.29300001 -2.8350712e+38
0.020322671 0.013789252 0.29300001 -2.86176e+38
0.020797057 0.013789252 0.29300001 -2.8884488e+38
0.021271441 0.013789252 0.29300001 -2.9017932e+38
0.022220211 0.013789252 0.29300001 -2.928482e+38
0.022694595 0.013789252 0.29300001 -2.995204e+38
0.023248056 0.013836316 0.294 -2.9818596e+38
0.023724059 0.013836316 0.294 -2.928482e+38
0.024676068 0.013836316 0.294 -2.9151376e+38
0.02515207 0.013836316 0.294 -2.8884488e+38
0.025540905 0.013789252 0.29300001 -2.9017936e+38
0.026489675 0.013789252 0.29300001 -2.8884492e+38
0.028786018 0.012518572 0.266 -2.6615414e+38
0.029535903 0.012471508 0.26500002 -2.6615409e+38
0.029964954 0.012471508 0.26500002 -2.6481965e+38
0.030823056 0.012471508 0.26500002 -2.6748854e+38
0.031252109 0.012471508 0.26500002 -2.7015742e+38
0.031681158 0.012471508 0.26500002 -2.7414508e+38
0.032231379 0.012518572 0.266 -2.7681396e+38
0.032907628 0.012612696 0.26800001 -2.8880821e+38
0.033341538 0.012612696 0.26800001 -2.9948373e+38
-0.0060982648 0.012949241 0.266 -2.367859e+38
-0.0056462879 0.012900559 0.26500002 -2.367859e+38
-0.0052172369 0.012900559 0.26500002 -2.3677034e+38
-0.004342685 0.012851878 0.264 -2.3811518e+38
-0.0039152531 0.012851878 0.264 -2.3678074e+38
-0.003487821 0.012851878 0.264 -2.354463e+38
-0.00091973162 0.012803197 0.26300001 -2.3680677e+38
-0.0004939186 0.012803197 0.26300001 -2.4347897e+38
-6.8364607e-05 0.012851878 0.264 -2.4481856e+38
0.00078352029 0.012803197 0.26300001 -2.5015117e+38
0.0012093332 0.012803197 0.26300001 -2.5148561e+38
0.0016289289 0.012754516 0.26200002 -2.5682337e+38
0.0046520424 0.014214956 0.29200003 -2.7016782e+38
0.0051599089 0.014312319 0.294 -2.7016782e+38
0.005635913 0.014312319 0.294 -2.7150226e+38
0.0060911281 0.014263637 0.29300001 -2.728367e+38
0.0070398976 0.014263637 0.29300001 -2.728367e+38
0.0075142821 0.014263637 0.29300001 -2.7283674e+38
0.015943632 0.014166275 0.29100001 -2.7819012e+38
0.016414778 0.014166275 0.29100001 -2.7819012e+38
0.017416717 0.014214956 0.29200003 -2.8217783e+38
0.017889483 0.014214956 0.29200003 -2.8217268e+38
0.018362248 0.014214956 0.29200003 -2.8217268e+38
0.018899517 0.014263637 0.29300001 -2.8350712e+38
0.019373903 0.014263637 0.29300001 -2.8350712e+38
0.020322671 0.014263637 0.29300001 -2.8484156e+38
0.020797057 0.014263637 0.29300001 -2.8884488e+38
0.021271441 0.014263637 0.29300001 -2.8884488e+38
0.022220211 0.014263637 0.29300001 -2.9151376e+38
0.022694595 0.014263637 0.29300001 -2.9818596e+38
0.023168981 0.014263637 0.29300001 -2.9818596e+38
0.023643365 0.014263637 0.29300001 -2.928482e+38
0.024592135 0.014263637 0.29300001 -2.915138e+38
0.028355347 0.012949241 0.266 -2.6748858e+38
0.029106852 0.012900559 0.26500002 -2.6615409e+38
0.029535903 0.012900559 0.26500002 -2.6615409e+38
0.029964954 0.012900559 0.26500002 -2.6348521e+38
0.030823056 0.012900559 0.26500002 -2.6615405e+38
0.031252109 0.012900559 0.26500002 -2.6748849e+38
0.031681158 0.012900559 0.26500002 -2.7414508e+38
0.032352548 0.012997922 0.26700002 -2.7681396e+38
0.032907628 0.013046604 0.26800001 -2.9015818e+38
-0.0060982648 0.013379912 0.266 -2.5547313e+38
-0.0043591345 0.013329611 0.26500002 -2.3678074e+38
-0.0039152531 0.013279309 0.264 -2.3678074e+38
-0.00091973162 0.01322901 0.26300001 -2.3414304e+38
-0.0004939186 0.01322901 0.26300001 -2.3814636e+38
-6.8364607e-05 0.013279309 0.264 -2.4214968e+38
0.00078352029 0.01322901 0.26300001 -2.46153e+38
0.0012093332 0.01322901 0.26300001 -2.5015632e+38
0.0016351462 0.01322901 0.26300001 -2.5549409e+38
0.0020687955 0.013279309 0.264 -2.5682853e+38
0.027928952 0.013178709 0.26200002 -2.6748858e+38
0.028353147 0.013178709 0.26200002 -2.6615414e+38
0.028887177 0.01322901 0.26300001 -2.6615409e+38
0.029424446 0.013279309 0.264 -2.6615409e+38
0.029851878 0.013279309 0.264 -2.6481961e+38
0.030823056 0.013329611 0.26500002 -2.6615405e+38
0.031252109 0.013329611 0.26500002 -2.6748849e+38
0.03180071 0.013379912 0.266 -2.7415023e+38
0.032352548 0.013430212 0.26700002 -2.9550128e+38
0.0046520424 0.015160487 0.29200003 -2.6616454e+38
0.0051423581 0.015212406 0.29300001 -2.6883342e+38
0.0056167431 0.015212406 0.29300001 -2.7016782e+38
0.017357072 0.015108569 0.29100001 -2.8216742e+38
0.017889483 0.015160487 0.29200003 -2.8216227e+38
0.018362248 0.015160487 0.29200003 -2.8216227e+38
0.018835014 0.015160487 0.29200003 -2.8483115e+38
0.019780546 0.015160487 0.29200003 -2.8483115e+38
0.020253312 0.015160487 0.29200003 -2.8616559e+38
0.020726077 0.015160487 0.29200003 -2.8750003e+38
0.021271441 0.015212406 0.29300001 -2.8750003e+38
0.022220211 0.015212406 0.29300001 -2.9016891e+38
0.022694595 0.015212406 0.29300001 -2.9550668e+38
0.023168981 0.015212406 0.29300001 -2.9684112e+38
0.023643365 0.015212406 0.29300001 -2.9283779e+38
-0.0052369242 0.014241252 0.266 -2.9817523e+38
-0.0039152531 0.014134174 0.264 -2.3678074e+38
-0.00091623451 0.014027097 0.26200002 -2.3147416e+38
-0.0004939186 0.014080636 0.26300001 -2.3414304e+38
-6.8105648e-05 0.014080636 0.26300001 -2.3681192e+38
0.00078352029 0.014080636 0.26300001 -2.4348412e+38
0.0012093332 0.014080636 0.26300001 -2.46153e+38
0.010919359 0.013973558 0.26100001 -2.7684006e+38
0.011764508 0.013973558 0.26100001 -2.7684006e+38
0.012187083 0.013973558 0.26100001 -2.7684006e+38
0.013877383 0.013973558 0.26100001 -2.7950895e+38
0.014354746 0.014027097 0.26200002 -2.7950895e+38
0.017828219 0.015579715 0.29100001 -2.8216742e+38
0.018299365 0.015579715 0.29100001 -2.8216742e+38
0.019241657 0.015579715 0.29100001 -2.8350186e+38
0.019712804 0.015579715 0.29100001 -2.848363e+38
0.020253312 0.015633253 0.29200003 -2.848363e+38
0.020726077 0.015633253 0.29200003 -2.8617074e+38
0.021198843 0.015633253 0.29200003 -2.8750518e+38
0.022144375 0.015633253 0.29200003 -2.9017407e+38
0.022617141 0.015633253 0.29200003 -2.9417224e+38
0.023168981 0.015686791 0.29300001 -2.9684112e+38
0.024035437 0.015633253 0.29200003 -2.9150335e+38
0.026132053 0.013973558 0.26100001 -2.8350716e+38
0.026554629 0.013973558 0.26100001 -2.8083828e+38
0.02739978 0.013973558 0.26100001 -2.7415567e+38
0.027928952 0.014027097 0.26200002 -2.6748858e+38
0.028353147 0.014027097 0.26200002 -2.6615414e+38
0.028887177 0.014080636 0.26300001 -2.6880736e+38
0.029424446 0.014134174 0.264 -2.6880736e+38
0.029851878 0.014134174 0.264 -2.6880732e+38
0.030823056 0.014187713 0.26500002 -2.7815866e+38
0.031252109 0.014187713 0.26500002 -2.9016863e+38
-0.0043591345 0.014616764 0.26500002 -2.7281575e+38
-0.00049204059 0.014451291 0.26200002 -2.328086e+38
0.00035634724 0.014451291 0.26200002 -2.3681192e+38
0.00078054116 0.014451291 0.26200002 -2.4214968e+38
0.0012093332 0.014506449 0.26300001 -2.4481856e+38
0.0016413636 0.014561606 0.264 -2.4614785e+38
0.0088064838 0.014396133 0.26100001 -2.7417114e+38
0.0096516339 0.014396133 0.26100001 -2.7550558e+38
0.010074208 0.014396133 0.26100001 -2.7684002e+38
0.010496784 0.014396133 0.26100001 -2.7550558e+38
0.010919359 0.014396133 0.26100001 -2.7684002e+38
0.011764508 0.014396133 0.26100001 -2.7684002e+38
0.012187083 0.014396133 0.26100001 -2.7684002e+38
0.012609658 0.014396133 0.26100001 -2.7684002e+38
0.013032232 0.014396133 0.26100001 -2.7684002e+38
0.013877383 0.014396133 0.26100001 -2.7684002e+38
0.014299957 0.014396133 0.26100001 -2.7950895e+38
0.014722532 0.014396133 0.26100001 -2.7950895e+38
0.015203134 0.014451291 0.26200002 -2.8083298e+38
0.025709478 0.014396133 0.26100001 -2.8617604e+38
0.026132053 0.014396133 0.26100001 -2.8350716e+38
0.026554629 0.014396133 0.26100001 -2.8217272e+38
0.02739978 0.014396133 0.26100001 -2.7283163e+38
0.027928952 0.014451291 0.26200002 -2.7015746e+38
0.028353147 0.014451291 0.26200002 -2.6615414e+38
0.028887177 0.014506449 0.26300001 -2.6880736e+38
0.029424446 0.014561606 0.264 -2.6880736e+38
0.029851878 0.014561606 0.264 -2.7415023e+38
0.030823056 0.014616764 0.26500002 -2.888237e+38
0.03137004 0.014671922 0.266 -2.9416147e+38
-0.00049204059 0.014875486 0.26200002 -2.3147416e+38
0.00035498713 0.014818707 0.26100001 -2.3547748e+38
0.00077756197 0.014818707 0.26100001 -2.4081524e+38
0.0012001368 0.014818707 0.26100001 -2.4348412e+38
0.0016289289 0.014875486 0.26200002 -2.4614785e+38
0.0020687955 0.014989038 0.264 -2.5015117e+38
0.0079613347 0.014818707 0.26100001 -2.7150226e+38
0.008351787 0.014761931 0.26000002 -2.7150226e+38
0.0087727429 0.014761931 0.26000002 -2.728367e+38
0.0096146548 0.014761931 0.26000002 -2.7417114e+38
0.010074208 0.014818707 0.26100001 -2.7550558e+38
0.010496784 0.014818707 0.26100001 -2.7550558e+38
0.010919359 0.014818707 0.26100001 -2.7550558e+38
0.011764508 0.014818707 0.26100001 -2.7550558e+38
0.012187083 0.014818707 0.26100001 -2.7684002e+38
0.012609658 0.014818707 0.26100001 -2.7684002e+38
0.013032232 0.014818707 0.26100001 -2.7684002e+38
0.013877383 0.014818707 0.26100001 -2.7684002e+38
0.014299957 0.014818707 0.26100001 -2.7950895e+38
0.014722532 0.014818707 0.26100001 -2.7684006e+38
0.015567682 0.014818707 0.26100001 -2.8083298e+38
0.015990257 0.014818707 0.26100001 -2.8083298e+38
0.016412832 0.014818707 0.26100001 -2.8216742e+38
0.016835406 0.014818707 0.26100001 -2.8216742e+38
0.024535401 0.014875486 0.26200002 -2.8617604e+38
0.02519002 0.014761931 0.26000002 -2.8617604e+38
0.025709478 0.014818707 0.26100001 -2.848416e+38
0.026132053 0.014818707 0.26100001 -2.8350716e+38
0.026554629 0.014818707 0.26100001 -2.8083828e+38
0.02739978 0.014818707 0.26100001 -2.7283159e+38
0.027928952 0.014875486 0.26200002 -2.7015746e+38
0.028353147 0.014875486 0.26200002 -2.6615414e+38
0.028887177 0.014932262 0.26300001 -2.7014176e+38
0.029424446 0.014989038 0.264 -2.7281064e+38
0.029964954 0.015045816 0.26500002 -2.8882378e+38
0.030508699 0.015102592 0.266 -2.9416155e+38
0.0053843078 0.015124491 0.259 -2.661645e+38
0.0058036447 0.015124491 0.259 -2.6883338e+38
0.0062229815 0.015124491 0.259 -2.6883338e+38
-6.7587731e-05 0.015663857 0.26100001 -2.3414304e+38
0.00035498713 0.015663857 0.26100001 -2.3547748e+38
0.00077458279 0.015603843 0.26000002 -2.3814636e+38
0.0016164944 0.015603843 0.26000002 -2.4481341e+38
0.0020374502 0.015603843 0.26000002 -2.4748229e+38
0.0024584059 0.015603843 0.26000002 -2.5148561e+38
0.0028793619 0.015603843 0.26000002 -2.5148561e+38
0.0037212735 0.015603843 0.26000002 -2.5814741e+38
0.0041422294 0.015603843 0.26000002 -2.6082674e+38
0.0045631854 0.015603843 0.26000002 -2.6216118e+38
0.0066679642 0.015603843 0.26000002 -2.7016782e+38
0.0075098756 0.015603843 0.26000002 -2.7150226e+38
0.007930832 0.015603843 0.26000002 -2.7150226e+38
0.008351787 0.015603843 0.26000002 -2.7150226e+38
0.0087727429 0.015603843 0.26000002 -2.728367e+38
0.0096516339 0.015663857 0.26100001 -2.7417114e+38
0.010074208 0.015663857 0.26100001 -2.7417114e+38
0.010496784 0.015663857 0.26100001 -2.7550558e+38
0.010919359 0.015663857 0.26100001 -2.7550558e+38
0.011764508 0.015663857 0.26100001 -2.7550558e+38
0.012187083 0.015663857 0.26100001 -2.7684002e+38
0.012609658 0.015663857 0.26100001 -2.7816406e+38
0.013032232 0.015663857 0.26100001 -2.7816406e+38
0.013877383 0.015663857 0.26100001 -2.7816406e+38
0.014299957 0.015663857 0.26100001 -2.781641e+38
0.014722532 0.015663857 0.26100001 -2.781641e+38
0.015567682 0.015663857 0.26100001 -2.781641e+38
0.015990257 0.015663857 0.26100001 -2.8083298e+38
0.016412832 0.015663857 0.26100001 -2.8216742e+38
0.017191859 0.015603843 0.26000002 -2.8216742e+38
0.017612815 0.015603843 0.26000002 -2.8216742e+38
0.018033771 0.015603843 0.26000002 -2.8350186e+38
0.018875683 0.015603843 0.26000002 -2.848363e+38
0.019296639 0.015603843 0.26000002 -2.8617074e+38
0.019717595 0.015603843 0.26000002 -2.8617074e+38
0.020138551 0.015603843 0.26000002 -2.9284295e+38
0.020980461 0.015603843 0.26000002 -2.9017407e+38
0.021401417 0.015603843 0.26000002 -2.8750518e+38
0.021822372 0.015603843 0.26000002 -2.86176e+38
0.022243328 0.015603843 0.26000002 -2.86176e+38
0.02401918 0.015663857 0.26100001 -2.86176e+38
0.024769064 0.015603843 0.26000002 -2.8484156e+38
0.02519002 0.015603843 0.26000002 -2.8484156e+38
0.025709478 0.015663857 0.26100001 -2.8350712e+38
0.026132053 0.015663857 0.26100001 -2.8217268e+38
0.026554629 0.015663857 0.26100001 -2.7950379e+38
0.027504759 0.015723873 0.26200002 -2.7283159e+38
0.027928952 0.015723873 0.26200002 -2.7548467e+38
0.028461365 0.015783887 0.26300001 -2.8349132e+38
0.028997015 0.015843902 0.264 -2.8749967e+38
0.029535903 0.015903918 0.26500002 -2.9283743e+38
-6.7587731e-05 0.016086431 0.26100001 -2.3414304e+38
0.00035362702 0.016024798 0.26000002 -2.3547748e+38
0.00077458279 0.016024798 0.26000002 -2.3814636e+38
0.0016164944 0.016024798 0.26000002 -2.4481341e+38
0.0020296138 0.015963165 0.259 -2.4748229e+38
0.0024489504 0.015963165 0.259 -2.5148561e+38
0.0032876241 0.015963165 0.259 -2.5547853e+38
0.0037069609 0.015963165 0.259 -2.5814741e+38
0.0041262978 0.015963165 0.259 -2.6082674e+38
0.0045456346 0.015963165 0.259 -2.6216118e+38
0.0053843078 0.015963165 0.259 -2.661645e+38
0.0058036447 0.015963165 0.259 -2.6883338e+38
0.0062229815 0.015963165 0.259 -2.6883338e+38
0.0070616542 0.015963165 0.259 -2.7016782e+38
0.0075098756 0.016024798 0.26000002 -2.7016782e+38
0.007930832 0.016024798 0.26000002 -2.7150226e+38
0.008351787 0.016024798 0.26000002 -2.7150226e+38
0.0087727429 0.016024798 0.26000002 -2.728367e+38
0.0096516339 0.016086431 0.26100001 -2.7417114e+38
0.010074208 0.016086431 0.26100001 -2.7417114e+38
0.010496784 0.016086431 0.26100001 -2.7550558e+38
0.010919359 0.016086431 0.26100001 -2.7550558e+38
0.011764508 0.016086431 0.26100001 -2.7684002e+38
0.012187083 0.016086431 0.26100001 -2.7950891e+38
0.012609658 0.016086431 0.26100001 -2.7816406e+38
0.013032232 0.016086431 0.26100001 -2.8083294e+38
0.013877383 0.016086431 0.26100001 -2.8083294e+38
0.014299957 0.016086431 0.26100001 -2.8083294e+38
0.014722532 0.016086431 0.26100001 -2.7816406e+38
0.015567682 0.016086431 0.26100001 -2.8083294e+38
0.015990257 0.016086431 0.26100001 -2.8083298e+38
0.016412832 0.016086431 0.26100001 -2.8216742e+38
0.017191859 0.016024798 0.26000002 -2.8216742e+38
0.017612815 0.016024798 0.26000002 -2.8216742e+38
0.018033771 0.016024798 0.26000002 -2.8350186e+38
0.018875683 0.016024798 0.26000002 -2.848363e+38
0.019296639 0.016024798 0.26000002 -2.848363e+38
0.019717595 0.016024798 0.26000002 -2.8617074e+38
0.020138551 0.016024798 0.26000002 -2.9150851e+38
0.020980461 0.016024798 0.26000002 -2.8750518e+38
0.021401417 0.016024798 0.26000002 -2.8750518e+38
0.021822372 0.016024798 0.26000002 -2.8750003e+38
0.022243328 0.016024798 0.26000002 -2.8616559e+38
0.02308524 0.016024798 0.26000002 -2.86176e+38
0.023506196 0.016024798 0.26000002 -2.8484156e+38
0.023927152 0.016024798 0.26000002 -2.8350712e+38
0.024769064 0.016024798 0.26000002 -2.8484156e+38
0.02519002 0.016024798 0.26000002 -2.8484156e+38
0.025709478 0.016086431 0.26100001 -2.8350712e+38
0.026132053 0.016086431 0.26100001 -2.8217268e+38
0.026554629 0.016086431 0.26100001 -2.7950379e+38
0.027504759 0.016148066 0.26200002 -2.7684006e+38
0.028035551 0.016209701 0.26300001 -2.8082755e+38
0.028569583 0.016271334 0.264 -2.8749975e+38
-0.00091273739 0.016509008 0.26100001 -2.5815252e+38
-6.7587731e-05 0.016509008 0.26100001 -2.3546192e+38
0.00035362702 0.016445754 0.26000002 -2.381308e+38
0.00077458279 0.016445754 0.26000002 -2.4081009e+38
0.0016102771 0.016382502 0.259 -2.4481341e+38
0.0020296138 0.016382502 0.259 -2.4748229e+38
0.0024489504 0.016382502 0.259 -2.5148561e+38
0.0032876241 0.016382502 0.259 -2.5547857e+38
0.0037069609 0.016382502 0.259 -2.5814745e+38
0.0041262978 0.016382502 0.259 -2.6082674e+38
0.0045456346 0.016382502 0.259 -2.6349562e+38
0.0053843078 0.016382502 0.259 -2.661645e+38
0.0058036447 0.016382502 0.259 -2.6883338e+38
0.0062229815 0.016382502 0.259 -2.6883338e+38
0.0070616542 0.016382502 0.259 -2.7016782e+38
0.0075098756 0.016445754 0.26000002 -2.7016782e+38
0.007930832 0.016445754 0.26000002 -2.7150226e+38
0.008351787 0.016445754 0.26000002 -2.7150226e+38
0.0088064838 0.016509008 0.26100001 -2.728367e+38
0.0096516339 0.016509008 0.26100001 -2.7417114e+38
0.010074208 0.016509008 0.26100001 -2.7683998e+38
0.010496784 0.016509008 0.26100001 -2.8084331e+38
0.010919359 0.016509008 0.26100001 -2.821829e+38
0.011764508 0.016509008 0.26100001 -2.9018954e+38
0.012187083 0.016509008 0.26100001 -2.9018954e+38
0.012609658 0.016509008 0.26100001 -2.9152398e+38
0.013032232 0.016509008 0.26100001 -2.888551e+38
0.013877383 0.016509008 0.26100001 -2.8618622e+38
0.014299957 0.016509008 0.26100001 -2.8618622e+38
0.014722532 0.016509008 0.26100001 -2.8618622e+38
0.015567682 0.016509008 0.26100001 -2.8217249e+38
0.015990257 0.016509008 0.26100001 -2.808329e+38
0.016412832 0.016509008 0.26100001 -2.808329e+38
0.016835406 0.016509008 0.26100001 -2.8083294e+38
0.017612815 0.016445754 0.26000002 -2.8216742e+38
0.018033771 0.016445754 0.26000002 -2.8350186e+38
0.018875683 0.016445754 0.26000002 -2.8350186e+38
0.019296639 0.016445754 0.26000002 -2.8350186e+38
0.019717595 0.016445754 0.26000002 -2.8617074e+38
0.020138551 0.016445754 0.26000002 -2.9150851e+38
0.020980461 0.016445754 0.26000002 -2.8750518e+38
0.021401417 0.016445754 0.26000002 -2.8617074e+38
0.021822372 0.016445754 0.26000002 -2.8750518e+38
0.022243328 0.016445754 0.26000002 -2.8617074e+38
0.02308524 0.016445754 0.26000002 -2.8484671e+38
0.023506196 0.016445754 0.26000002 -2.8484671e+38
0.023927152 0.016445754 0.26000002 -2.8484671e+38
0.024769064 0.016445754 0.26000002 -2.8484156e+38
0.025286904 0.016509008 0.26100001 -2.8350712e+38
0.025709478 0.016509008 0.26100001 -2.8350712e+38
0.026132053 0.016509008 0.26100001 -2.8217783e+38
0.026656371 0.016572261 0.26200002 -2.8084339e+38
0.027504759 0.016572261 0.26200002 -2.8216734e+38
0.028035551 0.016635513 0.26300001 -2.8616527e+38
0.028569583 0.016698766 0.264 -2.9016859e+38
0.031723835 0.017015031 0.26900002 -2.8749441e+38
-6.7587731e-05 0.016931582 0.26100001 -2.4881148e+38
0.00035362702 0.01686671 0.26000002 -2.3680151e+38
0.00077458279 0.01686671 0.26000002 -2.44803e+38
0.0016164944 0.01686671 0.26000002 -2.4614785e+38
0.0020296138 0.016801838 0.259 -2.4748229e+38
0.0024489504 0.016801838 0.259 -2.5282009e+38
0.0032876241 0.016801838 0.259 -2.5681301e+38
0.0037069609 0.016801838 0.259 -2.5814745e+38
0.0041262978 0.016801838 0.259 -2.6216118e+38
0.0045456346 0.016801838 0.259 -2.6349562e+38
0.0053843078 0.016801838 0.259 -2.661645e+38
0.0058036447 0.016801838 0.259 -2.6883338e+38
0.0062229815 0.016801838 0.259 -2.7016782e+38
0.0070616542 0.016801838 0.259 -2.6883338e+38
0.0075098756 0.01686671 0.26000002 -2.7016782e+38
0.007930832 0.01686671 0.26000002 -2.7150226e+38
0.008351787 0.01686671 0.26000002 -2.728367e+38
0.0088064838 0.016931582 0.26100001 -2.7417114e+38
0.0096516339 0.016931582 0.26100001 -2.9018954e+38
0.010074208 0.016931582 0.26100001 -2.9286353e+38
0.010496784 0.016931582 0.26100001 -2.9286353e+38
0.015990257 0.016931582 0.26100001 -2.8885506e+38
0.016412832 0.016931582 0.26100001 -2.835173e+38
0.016835406 0.016931582 0.26100001 -2.821829e+38
0.017612815 0.01686671 0.26000002 -2.8084335e+38
0.018033771 0.01686671 0.26000002 -2.8084335e+38
0.018875683 0.01686671 0.26000002 -2.848363e+38
0.019296639 0.01686671 0.26000002 -2.8350186e+38
0.019717595 0.01686671 0.26000002 -2.8617074e+38
0.020138551 0.01686671 0.26000002 -2.9150851e+38
0.020980461 0.01686671 0.26000002 -2.8617074e+38
0.021401417 0.01686671 0.26000002 -2.8617074e+38
0.021822372 0.01686671 0.26000002 -2.8750518e+38
0.022243328 0.01686671 0.26000002 -2.8617074e+38
0.02308524 0.01686671 0.26000002 -2.8618115e+38
0.023506196 0.01686671 0.26000002 -2.8351227e+38
0.023927152 0.01686671 0.26000002 -2.8484671e+38
0.024769064 0.01686671 0.26000002 -2.8351227e+38
0.025286904 0.016931582 0.26100001 -2.8351227e+38
0.025709478 0.016931582 0.26100001 -2.8351227e+38
0.026132053 0.016931582 0.26100001 -2.8484667e+38
0.026656371 0.016996454 0.26200002 -2.8484667e+38
0.027183926 0.017061327 0.26300001 -2.8484133e+38
0.027714718 0.017126197 0.264 -2.8484133e+38
0.028569583 0.017126197 0.264 -2.9016855e+38
0.031288307 0.017450558 0.26900002 -2.8615997e+38
0.031723835 0.017450558 0.26900002 -2.8482553e+38
0.00035362702 0.017708622 0.26000002 -2.9685645e+38
0.00077458279 0.017708622 0.26000002 -2.9550639e+38
0.0016164944 0.017708622 0.26000002 -2.528148e+38
0.0020296138 0.017640512 0.259 -2.5414924e+38
0.0024489504 0.017640512 0.259 -2.5814745e+38
0.0032876241 0.017640512 0.259 -2.6082678e+38
0.0037069609 0.017640512 0.259 -2.6216122e+38
0.0041262978 0.017640512 0.259 -2.6349562e+38
0.0045456346 0.017640512 0.259 -2.6483006e+38
0.0053843078 0.017640512 0.259 -2.6618012e+38
0.0058036447 0.017640512 0.259 -2.6751456e+38
0.0062229815 0.017640512 0.259 -2.68849e+38
0.0066679642 0.017708622 0.26000002 -2.741711e+38
0.0075098756 0.017708622 0.26000002 -2.835173e+38
0.007930832 0.017708622 0.26000002 -2.8885506e+38
0.018033771 0.017708622 0.26000002 -2.8886021e+38
0.018875683 0.017708622 0.26000002 -2.8351734e+38
0.019296639 0.017708622 0.26000002 -2.8617066e+38
0.019717595 0.017708622 0.26000002 -2.9150842e+38
0.020138551 0.017708622 0.26000002 -2.9549613e+38
0.020980461 0.017708622 0.26000002 -2.8484671e+38
0.021401417 0.017708622 0.26000002 -2.8484671e+38
0.021822372 0.017708622 0.26000002 -2.8618115e+38
0.022243328 0.017708622 0.26000002 -2.8484671e+38
0.02308524 0.017708622 0.26000002 -2.8618115e+38
0.023506196 0.017708622 0.26000002 -2.8351227e+38
0.023927152 0.017708622 0.26000002 -2.8484671e+38
0.024441754 0.017776731 0.26100001 -2.8618111e+38
0.025286904 0.017776731 0.26100001 -2.875051e+38
0.025709478 0.017776731 0.26100001 -2.875051e+38
0.026232176 0.017844843 0.26200002 -2.9151354e+38
0.026656371 0.017844843 0.26200002 -2.9151354e+38
0.027183926 0.017912952 0.26300001 -2.9018421e+38
0.027714718 0.017981062 0.264 -2.8751533e+38
0.02824875 0.018049173 0.26500002 -2.9016855e+38
0.030078029 0.018117283 0.266 -2.835015e+38
0.030738087 0.018253502 0.26800001 -2.8083262e+38
0.031288307 0.018321613 0.26900002 -2.7949818e+38
0.0020374502 0.018129578 0.26000002 -2.7550536e+38
0.0024489504 0.018059848 0.259 -2.6349028e+38
0.0032876241 0.018059848 0.259 -2.6481961e+38
0.0037069609 0.018059848 0.259 -2.6615405e+38
0.0041262978 0.018059848 0.259 -2.6483002e+38
0.0045456346 0.018059848 0.259 -2.6883334e+38
