# .PCD v0.7 - Point Cloud Data file format
VERSION 0.7
FIELDS x y z rgb
SIZE 4 4 4 4
TYPE F F F F
COUNT 1 1 1 1
WIDTH 942
HEIGHT 1
VIEWPOINT 0 0 0 1 0 0 0
POINTS 942
DATA ascii
0.022116916 0.00051512342 0.29800001 -2.5412851e+38
0.022599395 0.00051512342 0.29800001 -2.5813183e+38
0.023081876 0.00051512342 0.29800001 -2.6480404e+38
0.024046836 0.00051512342 0.29800001 -2.6880736e+38
0.024447003 0.00051339483 0.29700002 -2.701418e+38
0.024843933 0.00051166624 0.296 -2.7281068e+38
0.025715247 0.00050993758 0.29500002 -2.7281072e+38
0.026489675 0.0005064804 0.29300001 -2.7414516e+38
0.026872031 0.00050475181 0.29200003 -2.754796e+38
0.027344797 0.00050475181 0.29200003 -2.7547956e+38
0.02829033 0.00050475181 0.29200003 -2.7681396e+38
0.028960101 0.00050820899 0.294 -2.7681396e+38
0.029436106 0.00050820899 0.294 -2.7947759e+38
0.030339219 0.00049956597 0.289 -2.8214647e+38
0.031887233 0.00048746579 0.28200001 -3.0750595e+38
-0.0063504488 0.00092730246 0.27700001 -2.9146147e+38
-0.004688126 0.00095408381 0.28500003 -2.5676602e+38
-0.0042563546 0.0009607792 0.287 -2.5543158e+38
-0.0038048956 0.00096412684 0.28800002 -2.5276274e+38
-0.0028822899 0.00096747442 0.289 -2.4344254e+38
-0.0024227356 0.00097082218 0.29000002 -2.4344254e+38
-0.0019599432 0.00097416987 0.29100001 -2.421081e+38
-0.0014990288 0.00098086509 0.29300001 -2.421081e+38
-0.001028141 0.00098421285 0.294 -2.421081e+38
-0.00055213715 0.00098421285 0.294 -2.421081e+38
-7.6392265e-05 0.00098756049 0.29500002 -2.4211325e+38
0.00040123065 0.00098756049 0.29500002 -2.4077881e+38
0.0013564765 0.00098756049 0.29500002 -2.4211325e+38
0.0018403167 0.00099090813 0.296 -2.4077881e+38
0.0023195588 0.00099090813 0.296 -2.4077881e+38
0.0027988006 0.00099090813 0.296 -2.421081e+38
0.0037572847 0.00099090813 0.296 -2.4611142e+38
0.0042508394 0.00099425577 0.29700002 -2.487803e+38
0.0047317003 0.00099425577 0.29700002 -2.5278363e+38
0.0052125612 0.00099425577 0.29700002 -2.5678695e+38
0.0061742836 0.00099425577 0.29700002 -2.6212475e+38
0.0066551445 0.00099425577 0.29700002 -2.634696e+38
0.0071360054 0.00099425577 0.29700002 -2.6480404e+38
0.0076168664 0.00099425577 0.29700002 -2.6613852e+38
0.0085497051 0.00099090813 0.296 -2.6480404e+38
0.009028947 0.00099090813 0.296 -2.6480404e+38
0.0095081888 0.00099090813 0.296 -2.6613848e+38
0.010466672 0.00099090813 0.296 -2.6879695e+38
0.010945915 0.00099090813 0.296 -2.6746251e+38
0.011425157 0.00099090813 0.296 -2.6879695e+38
0.012383641 0.00099090813 0.296 -2.6479363e+38
0.012862883 0.00099090813 0.296 -2.6212475e+38
0.013342124 0.00099090813 0.296 -2.6079027e+38
0.013821366 0.00099090813 0.296 -2.5945583e+38
0.014779851 0.00099090813 0.296 -2.5545251e+38
0.015259093 0.00099090813 0.296 -2.5278363e+38
0.015791504 0.00099425577 0.29700002 -2.5144919e+38
0.016272366 0.00099425577 0.29700002 -2.487803e+38
0.017234087 0.00099425577 0.29700002 -2.4344254e+38
0.017714949 0.00099425577 0.29700002 -2.4344254e+38
0.01819581 0.00099425577 0.29700002 -2.4344254e+38
0.01867667 0.00099425577 0.29700002 -2.421081e+38
0.019704515 0.00099760341 0.29800001 -2.421081e+38
0.020186994 0.00099760341 0.29800001 -2.4078411e+38
0.020669475 0.00099760341 0.29800001 -2.4211855e+38
0.021151954 0.00099760341 0.29800001 -2.4612187e+38
0.022191133 0.0010009512 0.29900002 -2.5412851e+38
0.022675233 0.0010009512 0.29900002 -2.5813183e+38
0.023159331 0.0010009512 0.29900002 -2.634696e+38
0.024046836 0.00099760341 0.29800001 -2.6615409e+38
0.024529316 0.00099760341 0.29800001 -2.6748854e+38
0.024927864 0.00099425577 0.29700002 -2.6748858e+38
0.025802417 0.00099090813 0.296 -2.7015746e+38
0.02619287 0.00098756049 0.29500002 -2.714919e+38
0.027056087 0.00098421285 0.294 -2.714919e+38
0.02753209 0.00098421285 0.294 -2.7547956e+38
0.028103359 0.00098756049 0.29500002 -2.7547956e+38
0.028677866 0.00099090813 0.296 -2.7547952e+38
0.029536229 0.00098756049 0.29500002 -2.7680356e+38
0.031430658 0.00094404083 0.28200001 -2.9280642e+38
0.031887233 0.00094404083 0.28200001 -2.9814933e+38
-0.0063504488 0.0013757823 0.27700001 -2.7544822e+38
-0.0059232758 0.001380749 0.27800003 -2.6744158e+38
-0.0054928642 0.0013857158 0.27900001 -2.6076423e+38
-0.0028723166 0.0014304162 0.28800002 -2.4344254e+38
-0.0024227356 0.0014403497 0.29000002 -2.421081e+38
-0.0019666783 0.0014502831 0.29200003 -2.421081e+38
-0.0014990288 0.0014552498 0.29300001 -2.4077366e+38
-0.001028141 0.0014602166 0.294 -2.421081e+38
-0.00055213715 0.0014602166 0.294 -2.4077366e+38
-7.6392265e-05 0.0014651833 0.29500002 -2.4077881e+38
0.00040123065 0.0014651833 0.29500002 -2.3944437e+38
0.0013564765 0.0014651833 0.29500002 -2.4077881e+38
0.0018403167 0.0014701501 0.296 -2.3944963e+38
0.0023195588 0.0014701501 0.296 -2.3944963e+38
0.0028082561 0.0014751167 0.29700002 -2.3944963e+38
0.0032891172 0.0014751167 0.29700002 -2.4078407e+38
0.0042508394 0.0014751167 0.29700002 -2.4745631e+38
0.0047317003 0.0014751167 0.29700002 -2.5012519e+38
0.005230112 0.0014800834 0.29800001 -2.5412851e+38
0.005712592 0.0014800834 0.29800001 -2.5813183e+38
0.0066775521 0.0014800834 0.29800001 -2.6080071e+38
0.0071600322 0.0014800834 0.29800001 -2.634696e+38
0.0076425122 0.0014800834 0.29800001 -2.6480408e+38
0.0081249923 0.0014800834 0.29800001 -2.6480408e+38
0.0090594497 0.0014751167 0.29700002 -2.6480408e+38
0.0095403111 0.0014751167 0.29700002 -2.6613848e+38
0.010502033 0.0014751167 0.29700002 -2.6746251e+38
0.010982894 0.0014751167 0.29700002 -2.6746251e+38
0.011463755 0.0014751167 0.29700002 -2.6746247e+38
0.011944616 0.0014751167 0.29700002 -2.6479359e+38
0.012906338 0.0014751167 0.29700002 -2.6079027e+38
0.013387199 0.0014751167 0.29700002 -2.6079027e+38
0.01386806 0.0014751167 0.29700002 -2.5812139e+38
0.014348921 0.0014751167 0.29700002 -2.5678695e+38
0.015310643 0.0014751167 0.29700002 -2.5278363e+38
0.015791504 0.0014751167 0.29700002 -2.5144919e+38
0.016272366 0.0014751167 0.29700002 -2.487803e+38
0.017234087 0.0014751167 0.29700002 -2.4344254e+38
0.017714949 0.0014751167 0.29700002 -2.4344254e+38
0.018257074 0.0014800834 0.29800001 -2.4344254e+38
0.018739555 0.0014800834 0.29800001 -2.421081e+38
0.019704515 0.0014800834 0.29800001 -2.421081e+38
0.020186994 0.0014800834 0.29800001 -2.4078411e+38
0.020738835 0.0014850503 0.29900002 -2.4211855e+38
0.021222934 0.0014850503 0.29900002 -2.4478743e+38
0.022191133 0.0014850503 0.29900002 -2.5412851e+38
0.022675233 0.0014850503 0.29900002 -2.5813183e+38
0.023159331 0.0014850503 0.29900002 -2.634696e+38
0.02364343 0.0014850503 0.29900002 -2.6613848e+38
0.024529316 0.0014800834 0.29800001 -2.6615409e+38
0.025011797 0.0014800834 0.29800001 -2.6748858e+38
0.025889587 0.0014751167 0.29700002 -2.7015746e+38
0.026281659 0.0014701501 0.296 -2.7015746e+38
0.026760899 0.0014701501 0.296 -2.714919e+38
0.027719382 0.0014701501 0.296 -2.7414512e+38
0.028198624 0.0014701501 0.296 -2.7547956e+38
0.028677866 0.0014701501 0.296 -2.7547952e+38
0.029536229 0.0014651833 0.29500002 -2.7414508e+38
0.030974085 0.0014006159 0.28200001 -2.8214132e+38
0.031319205 0.0013956492 0.28100002 -2.848102e+38
0.032229114 0.0013956492 0.28100002 -2.914824e+38
0.032684073 0.0013956492 0.28100002 -2.9817012e+38
0.033256959 0.0014006159 0.28200001 -3.0617677e+38
-0.0067743836 0.0022645369 0.27600002 -2.5278338e+38
-0.0063275225 0.0022645369 0.27600002 -2.5809005e+38
-0.005901969 0.0022727419 0.27700001 -2.5542117e+38
-0.0054731769 0.0022809468 0.27800003 -2.5276274e+38
-0.0050411467 0.0022891515 0.27900001 -2.5142829e+38
-0.001980149 0.0024122242 0.294 -2.3943922e+38
-0.001028141 0.0024122242 0.294 -2.3943922e+38
-0.00055401516 0.0024204291 0.29500002 -2.4077366e+38
-7.6392265e-05 0.0024204291 0.29500002 -2.3943922e+38
0.00040123065 0.0024204291 0.29500002 -2.3943922e+38
0.00088183273 0.0024286339 0.296 -2.3944963e+38
0.0018465341 0.0024368386 0.29700002 -2.3811518e+38
0.0023273951 0.0024368386 0.29700002 -2.3944963e+38
0.0028082561 0.0024368386 0.29700002 -2.3944963e+38
0.0032891172 0.0024368386 0.29700002 -2.4078407e+38
0.0042651519 0.0024450435 0.29800001 -2.4745631e+38
0.004747632 0.0024450435 0.29800001 -2.5012519e+38
0.005230112 0.0024450435 0.29800001 -2.5412851e+38
0.005712592 0.0024450435 0.29800001 -2.5679739e+38
0.0066775521 0.0024450435 0.29800001 -2.5946631e+38
0.0071600322 0.0024450435 0.29800001 -2.6080076e+38
0.0076425122 0.0024450435 0.29800001 -2.6346964e+38
0.0081249923 0.0024450435 0.29800001 -2.6346964e+38
0.0090899523 0.0024450435 0.29800001 -2.6346964e+38
0.0095403111 0.0024368386 0.29700002 -2.6480408e+38
0.010502033 0.0024368386 0.29700002 -2.6746251e+38
0.010982894 0.0024368386 0.29700002 -2.6746251e+38
0.011463755 0.0024368386 0.29700002 -2.6746247e+38
0.011944616 0.0024368386 0.29700002 -2.6479359e+38
0.012906338 0.0024368386 0.29700002 -2.6079027e+38
0.013387199 0.0024368386 0.29700002 -2.5945583e+38
0.01386806 0.0024368386 0.29700002 -2.5812139e+38
0.014348921 0.0024368386 0.29700002 -2.5678695e+38
0.015310643 0.0024368386 0.29700002 -2.5278363e+38
0.015791504 0.0024368386 0.29700002 -2.5144919e+38
0.016272366 0.0024368386 0.29700002 -2.4878034e+38
0.017234087 0.0024368386 0.29700002 -2.4344258e+38
0.017774595 0.0024450435 0.29800001 -2.4210814e+38
0.018257074 0.0024450435 0.29800001 -2.4210814e+38
0.018739555 0.0024450435 0.29800001 -2.407737e+38
0.019704515 0.0024450435 0.29800001 -2.4078411e+38
0.020254737 0.0024532485 0.29900002 -2.4078415e+38
0.020738835 0.0024532485 0.29900002 -2.4211859e+38
0.021222934 0.0024532485 0.29900002 -2.4612191e+38
0.022191133 0.0024532485 0.29900002 -2.5412851e+38
0.022675233 0.0024532485 0.29900002 -2.5813183e+38
0.023159331 0.0024532485 0.29900002 -2.634696e+38
0.02364343 0.0024532485 0.29900002 -2.6613848e+38
0.02461163 0.0024532485 0.29900002 -2.6615409e+38
0.025011797 0.0024450435 0.29800001 -2.6748858e+38
0.025889587 0.0024368386 0.29700002 -2.6748858e+38
0.026370447 0.0024368386 0.29700002 -2.7015746e+38
0.026760899 0.0024286339 0.296 -2.7015746e+38
0.027719382 0.0024286339 0.296 -2.7281068e+38
0.028198624 0.0024286339 0.296 -2.7414512e+38
0.028677866 0.0024286339 0.296 -2.7414508e+38
0.030517509 0.0023137659 0.28200001 -2.78138e+38
0.030864246 0.0023055612 0.28100002 -2.78138e+38
0.031319205 0.0023055612 0.28100002 -2.7947244e+38
0.032229114 0.0023055612 0.28100002 -2.8214132e+38
0.032684073 0.0023055612 0.28100002 -2.8881352e+38
0.033139028 0.0023055612 0.28100002 -2.914824e+38
-0.0063275225 0.0027113976 0.27600002 -2.5143341e+38
-0.0058806618 0.0027113976 0.27600002 -2.5143341e+38
-0.0054534893 0.0027212217 0.27700001 -2.4877503e+38
-0.0050230781 0.0027310457 0.27800003 -2.4610615e+38
-0.0045894287 0.0027408695 0.27900001 -2.421081e+38
-0.001986884 0.0028980519 0.29500002 -2.3943922e+38
-0.0010316381 0.0028980519 0.29500002 -2.3943922e+38
-0.00055589323 0.0029078757 0.296 -2.3943922e+38
-7.6651224e-05 0.0029078757 0.296 -2.3943922e+38
0.00040259075 0.0029078757 0.296 -2.3943922e+38
0.00088183273 0.0029078757 0.296 -2.3811518e+38
0.0018465341 0.0029176997 0.29700002 -2.3811518e+38
0.0023273951 0.0029176997 0.29700002 -2.3944963e+38
0.0028177116 0.0029275236 0.29800001 -2.3944963e+38
0.0033001916 0.0029275236 0.29800001 -2.4078407e+38
0.0042651519 0.0029275236 0.29800001 -2.4745631e+38
0.0047635636 0.0029373476 0.29900002 -2.5012519e+38
0.0052476628 0.0029373476 0.29900002 -2.5412851e+38
0.0057317619 0.0029373476 0.29900002 -2.5679739e+38
0.0062158611 0.0029373476 0.29900002 -2.5813183e+38
0.0071840594 0.0029373476 0.29900002 -2.6080076e+38
0.0076681585 0.0029373476 0.29900002 -2.6346964e+38
0.0081522577 0.0029373476 0.29900002 -2.6346964e+38
0.0090899523 0.0029275236 0.29800001 -2.6346964e+38
0.0095724324 0.0029275236 0.29800001 -2.6480408e+38
0.010054912 0.0029275236 0.29800001 -2.6480408e+38
0.011019873 0.0029275236 0.29800001 -2.6746251e+38
0.011502353 0.0029275236 0.29800001 -2.6612807e+38
0.011984834 0.0029275236 0.29800001 -2.6212475e+38
0.012467314 0.0029275236 0.29800001 -2.6212471e+38
0.013432274 0.0029275236 0.29800001 -2.5945583e+38
0.013914754 0.0029275236 0.29800001 -2.5812139e+38
0.014397234 0.0029275236 0.29800001 -2.5678695e+38
0.015362194 0.0029275236 0.29800001 -2.5145959e+38
0.015844675 0.0029275236 0.29800001 -2.4879071e+38
0.016327154 0.0029275236 0.29800001 -2.4745631e+38
0.016809635 0.0029275236 0.29800001 -2.4478743e+38
0.017774595 0.0029275236 0.29800001 -2.4078411e+38
0.018257074 0.0029275236 0.29800001 -2.4078411e+38
0.018802438 0.0029373476 0.29900002 -2.3944967e+38
0.019286538 0.0029373476 0.29900002 -2.3944967e+38
0.020254737 0.0029373476 0.29900002 -2.4078415e+38
0.020738835 0.0029373476 0.29900002 -2.4211859e+38
0.021293916 0.0029471715 0.30000001 -2.4612191e+38
0.021779634 0.0029471715 0.30000001 -2.4879079e+38
0.022751071 0.0029471715 0.30000001 -2.5946631e+38
0.023159331 0.0029373476 0.29900002 -2.6480404e+38
0.02364343 0.0029373476 0.29900002 -2.6613848e+38
0.02461163 0.0029373476 0.29900002 -2.6880736e+38
0.025011797 0.0029275236 0.29800001 -2.6615414e+38
0.025494276 0.0029275236 0.29800001 -2.6748858e+38
0.026370447 0.0029176997 0.29700002 -2.7015746e+38
0.026851308 0.0029176997 0.29700002 -2.7015746e+38
0.027719382 0.0029078757 0.296 -2.7281068e+38
0.028198624 0.0029078757 0.296 -2.7414512e+38
0.028677866 0.0029078757 0.296 -2.7414512e+38
0.030409291 0.0027605172 0.28100002 -2.7547952e+38
0.030864246 0.0027605172 0.28100002 -2.7681396e+38
0.031319205 0.0027605172 0.28100002 -2.781484e+38
0.032229114 0.0027605172 0.28100002 -2.8080688e+38
0.032800384 0.002770341 0.28200001 -2.8748423e+38
-0.0058806618 0.0031582585 0.27600002 -2.6080045e+38
-0.0054338011 0.0031582585 0.27600002 -2.4210279e+38
-0.0045565297 0.0031697012 0.27700001 -2.4077366e+38
-0.0041080494 0.0031697012 0.27700001 -2.3943922e+38
-0.0036727812 0.0031811444 0.27800003 -2.3943922e+38
-0.0019936191 0.0033871178 0.296 -2.3810478e+38
-0.0015143772 0.0033871178 0.296 -2.3943922e+38
-0.00055589323 0.0033871178 0.296 -2.3943922e+38
-7.6651224e-05 0.0033871178 0.296 -2.3943922e+38
0.00040259075 0.0033871178 0.296 -2.3943922e+38
0.00088481198 0.0033985607 0.29700002 -2.3943922e+38
0.0018465341 0.0033985607 0.29700002 -2.3811518e+38
0.0023352315 0.0034100036 0.29800001 -2.3944963e+38
0.0028177116 0.0034100036 0.29800001 -2.3944963e+38
0.0033001916 0.0034100036 0.29800001 -2.4078407e+38
0.0042651519 0.0034100036 0.29800001 -2.4745631e+38
0.0047635636 0.0034214465 0.29900002 -2.4879075e+38
0.0052476628 0.0034214465 0.29900002 -2.5145963e+38
0.0057317619 0.0034214465 0.29900002 -2.5679743e+38
0.0062158611 0.0034214465 0.29900002 -2.5813187e+38
0.0071840594 0.0034214465 0.29900002 -2.6080076e+38
0.0076681585 0.0034214465 0.29900002 -2.6080076e+38
0.0081522577 0.0034214465 0.29900002 -2.6080076e+38
0.0091204559 0.0034214465 0.29900002 -2.6346964e+38
0.0096045556 0.0034214465 0.29900002 -2.6346964e+38
0.010054912 0.0034100036 0.29800001 -2.6480408e+38
0.011019873 0.0034100036 0.29800001 -2.6613852e+38
0.011502353 0.0034100036 0.29800001 -2.6612807e+38
0.011984834 0.0034100036 0.29800001 -2.6212475e+38
0.012467314 0.0034100036 0.29800001 -2.6212471e+38
0.013432274 0.0034100036 0.29800001 -2.5945583e+38
0.013914754 0.0034100036 0.29800001 -2.5812139e+38
0.014397234 0.0034100036 0.29800001 -2.5678695e+38
0.015362194 0.0034100036 0.29800001 -2.5145959e+38
0.015844675 0.0034100036 0.29800001 -2.4879071e+38
0.016327154 0.0034100036 0.29800001 -2.4612187e+38
0.016809635 0.0034100036 0.29800001 -2.4478743e+38
0.017774595 0.0034100036 0.29800001 -2.4078411e+38
0.01831834 0.0034214465 0.29900002 -2.3944967e+38
0.018802438 0.0034214465 0.29900002 -2.3944967e+38
0.019286538 0.0034214465 0.29900002 -2.3944971e+38
0.020254737 0.0034214465 0.29900002 -2.4078415e+38
0.020808198 0.0034328897 0.30000001 -2.4211859e+38
0.021293916 0.0034328897 0.30000001 -2.4612191e+38
0.021779634 0.0034328897 0.30000001 -2.5012523e+38
0.022751071 0.0034328897 0.30000001 -2.5946631e+38
0.023236789 0.0034328897 0.30000001 -2.6480408e+38
0.023722507 0.0034328897 0.30000001 -2.6613852e+38
0.02461163 0.0034214465 0.29900002 -2.6880736e+38
0.025011797 0.0034100036 0.29800001 -2.6615414e+38
0.025494276 0.0034100036 0.29800001 -2.6748858e+38
0.026370447 0.0033985607 0.29700002 -2.7015746e+38
0.026851308 0.0033985607 0.29700002 -2.7015746e+38
0.027332168 0.0033985607 0.29700002 -2.7015746e+38
0.028198624 0.0033871178 0.296 -2.7414512e+38
0.028580982 0.0033756748 0.29500002 -2.7414512e+38
0.030301074 0.0032040302 0.28 -2.7547952e+38
0.030864246 0.0032154731 0.28100002 -2.7547952e+38
0.031319205 0.0032154731 0.28100002 -2.7681396e+38
0.032229114 0.0032154731 0.28100002 -2.8214132e+38
-0.0054338011 0.003605119 0.27600002 -2.5946605e+38
-0.0045400797 0.003605119 0.27600002 -2.3944437e+38
-0.0040932186 0.003605119 0.27600002 -2.3944437e+38
-0.0036463579 0.003605119 0.27600002 -2.3811518e+38
0.03075441 0.0036573673 0.28 -2.7547952e+38
0.031661086 0.0036573673 0.28 -2.7815355e+38
0.032229114 0.0036704291 0.28100002 -2.8749464e+38
-0.0020003542 0.0043602828 0.29700002 -2.3678074e+38
-0.0015143772 0.0043456014 0.296 -2.3678074e+38
-0.0010386322 0.0043602828 0.29700002 -2.3678074e+38
-7.6910175e-05 0.0043602828 0.29700002 -2.3812034e+38
0.00040395086 0.0043602828 0.29700002 -2.367859e+38
0.00088481198 0.0043602828 0.29700002 -2.3811518e+38
0.0013702712 0.0043749637 0.29800001 -2.3811518e+38
0.0023352315 0.0043749637 0.29800001 -2.3811523e+38
0.0028177116 0.0043749637 0.29800001 -2.3811523e+38
0.003311266 0.0043896446 0.29900002 -2.3944967e+38
0.0037953653 0.0043896446 0.29900002 -2.4211855e+38
0.0047635636 0.0043896446 0.29900002 -2.4879075e+38
0.0052476628 0.0043896446 0.29900002 -2.5145963e+38
0.0057317619 0.0043896446 0.29900002 -2.5546295e+38
0.0062158611 0.0043896446 0.29900002 -2.5679739e+38
0.0071840594 0.0043896446 0.29900002 -2.5946631e+38
0.0076681585 0.0043896446 0.29900002 -2.6080076e+38
0.0081522577 0.0043896446 0.29900002 -2.6080076e+38
0.0091204559 0.0043896446 0.29900002 -2.6080076e+38
0.0096045556 0.0043896446 0.29900002 -2.6346964e+38
0.010054912 0.0043749637 0.29800001 -2.6480408e+38
0.011019873 0.0043749637 0.29800001 -2.6612811e+38
0.011502353 0.0043749637 0.29800001 -2.6612807e+38
0.011984834 0.0043749637 0.29800001 -2.6212475e+38
0.012467314 0.0043749637 0.29800001 -2.6212475e+38
0.013432274 0.0043749637 0.29800001 -2.5945587e+38
0.013914754 0.0043749637 0.29800001 -2.5812143e+38
0.014397234 0.0043749637 0.29800001 -2.5545251e+38
0.015362194 0.0043749637 0.29800001 -2.5144923e+38
0.015844675 0.0043749637 0.29800001 -2.5011479e+38
0.016327154 0.0043749637 0.29800001 -2.4745631e+38
0.016809635 0.0043749637 0.29800001 -2.4478743e+38
0.017834241 0.0043896446 0.29900002 -2.4078415e+38
0.01831834 0.0043896446 0.29900002 -2.3944971e+38
0.018802438 0.0043896446 0.29900002 -2.3944971e+38
0.019286538 0.0043896446 0.29900002 -2.3944971e+38
0.019836761 0.004404326 0.30000001 -2.3944971e+38
0.020808198 0.004404326 0.30000001 -2.4211859e+38
0.021293916 0.004404326 0.30000001 -2.474512e+38
0.021779634 0.004404326 0.30000001 -2.5012008e+38
0.022751071 0.004404326 0.30000001 -2.5946116e+38
0.023236789 0.004404326 0.30000001 -2.6479893e+38
0.023722507 0.004404326 0.30000001 -2.6613337e+38
0.02461163 0.0043896446 0.29900002 -2.6748858e+38
0.025095727 0.0043896446 0.29900002 -2.6615414e+38
0.025494276 0.0043749637 0.29800001 -2.6748858e+38
0.026370447 0.0043602828 0.29700002 -2.7015746e+38
0.026851308 0.0043602828 0.29700002 -2.7015746e+38
0.027332168 0.0043602828 0.29700002 -2.6748858e+38
0.028293889 0.0043602828 0.29700002 -2.7414516e+38
0.028580982 0.0043309205 0.29500002 -2.7281072e+38
-0.0045400797 0.0044988403 0.27600002 -2.5815256e+38
-0.0036463579 0.0044988403 0.27600002 -2.3678074e+38
-0.001986884 0.0048085432 0.29500002 -2.3678074e+38
-0.0015143772 0.0048248433 0.296 -2.3678074e+38
-0.0010386322 0.0048411437 0.29700002 -2.3678074e+38
-7.6910175e-05 0.0048411437 0.29700002 -2.3812034e+38
0.00040395086 0.0048411437 0.29700002 -2.367859e+38
0.0008877911 0.0048574437 0.29800001 -2.3678074e+38
0.0013702712 0.0048574437 0.29800001 -2.3678074e+38
0.0023352315 0.0048574437 0.29800001 -2.3678078e+38
0.0028177116 0.0048574437 0.29800001 -2.3811523e+38
0.003311266 0.0048737437 0.29900002 -2.3944967e+38
0.0037953653 0.0048737437 0.29900002 -2.4211855e+38
0.0047635636 0.0048737437 0.29900002 -2.4879075e+38
0.0052476628 0.0048737437 0.29900002 -2.5145963e+38
0.0057317619 0.0048737437 0.29900002 -2.5546299e+38
0.0062158611 0.0048737437 0.29900002 -2.5679743e+38
0.0071840594 0.0048737437 0.29900002 -2.5946631e+38
0.0076681585 0.0048737437 0.29900002 -2.5946631e+38
0.0081522577 0.0048737437 0.29900002 -2.5946631e+38
0.0091204559 0.0048737437 0.29900002 -2.6080076e+38
0.0096045556 0.0048737437 0.29900002 -2.6346964e+38
0.010088654 0.0048737437 0.29900002 -2.6480408e+38
0.010572754 0.0048737437 0.29900002 -2.6480408e+38
0.011502353 0.0048574437 0.29800001 -2.6479367e+38
0.011984834 0.0048574437 0.29800001 -2.6212479e+38
0.012467314 0.0048574437 0.29800001 -2.6079035e+38
0.013432274 0.0048574437 0.29800001 -2.5945587e+38
0.013914754 0.0048574437 0.29800001 -2.5812143e+38
0.014397234 0.0048574437 0.29800001 -2.5545255e+38
0.015362194 0.0048574437 0.29800001 -2.5011479e+38
0.015844675 0.0048574437 0.29800001 -2.4878034e+38
0.016327154 0.0048574437 0.29800001 -2.4878034e+38
0.016866041 0.0048737437 0.29900002 -2.4611146e+38
0.017834241 0.0048737437 0.29900002 -2.4078415e+38
0.01831834 0.0048737437 0.29900002 -2.4078415e+38
0.018802438 0.0048737437 0.29900002 -2.3944971e+38
0.019351043 0.0048900442 0.30000001 -2.3944971e+38
0.019836761 0.0048900442 0.30000001 -2.3944971e+38
0.020808198 0.0048900442 0.30000001 -2.4211859e+38
0.021293916 0.0048900442 0.30000001 -2.474512e+38
0.021779634 0.0048900442 0.30000001 -2.5012008e+38
0.022751071 0.0048900442 0.30000001 -2.607956e+38
0.023236789 0.0048900442 0.30000001 -2.6479893e+38
0.023722507 0.0048900442 0.30000001 -2.6746781e+38
0.02461163 0.0048737437 0.29900002 -2.6748342e+38
0.025095727 0.0048737437 0.29900002 -2.6615939e+38
0.025494276 0.0048574437 0.29800001 -2.6615939e+38
0.026459236 0.0048574437 0.29800001 -2.6882827e+38
0.026851308 0.0048411437 0.29700002 -2.6882827e+38
0.027332168 0.0048411437 0.29700002 -2.6882827e+38
0.028293889 0.0048411437 0.29700002 -2.7281072e+38
0.028677866 0.0048248433 0.296 -2.7281072e+38
-0.0045236303 0.0049277819 0.27500001 -3.0219947e+38
-0.0040932186 0.004945701 0.27600002 -2.3681188e+38
-0.0036463579 0.004945701 0.27600002 -2.3412748e+38
-0.001986884 0.0052861664 0.29500002 -2.354463e+38
-0.0015143772 0.0053040856 0.296 -2.354463e+38
-0.0010386322 0.0053220047 0.29700002 -2.354463e+38
-7.6910175e-05 0.0053220047 0.29700002 -2.367859e+38
0.00040531097 0.0053399238 0.29800001 -2.367859e+38
0.0008877911 0.0053399238 0.29800001 -2.3678074e+38
0.0013702712 0.0053399238 0.29800001 -2.3678074e+38
0.0023352315 0.0053399238 0.29800001 -2.3678078e+38
0.0028271668 0.0053578429 0.29900002 -2.3811523e+38
0.003311266 0.0053578429 0.29900002 -2.3944967e+38
0.0037953653 0.0053578429 0.29900002 -2.4211855e+38
0.0047635636 0.0053578429 0.29900002 -2.4879075e+38
0.0052652131 0.0053757625 0.30000001 -2.5145963e+38
0.0057509313 0.0053757625 0.30000001 -2.5412855e+38
0.0062158611 0.0053578429 0.29900002 -2.5546299e+38
0.0071840594 0.0053578429 0.29900002 -2.5946631e+38
0.0076681585 0.0053578429 0.29900002 -2.6080076e+38
0.0081522577 0.0053578429 0.29900002 -2.5946631e+38
0.0091204559 0.0053578429 0.29900002 -2.6080076e+38
0.0096045556 0.0053578429 0.29900002 -2.6346964e+38
0.010088654 0.0053578429 0.29900002 -2.6480408e+38
0.010572754 0.0053578429 0.29900002 -2.6480408e+38
0.011540952 0.0053578429 0.29900002 -2.6346964e+38
0.011984834 0.0053399238 0.29800001 -2.6080076e+38
0.012467314 0.0053399238 0.29800001 -2.5946631e+38
0.013432274 0.0053399238 0.29800001 -2.5813187e+38
0.013914754 0.0053399238 0.29800001 -2.5546299e+38
0.014397234 0.0053399238 0.29800001 -2.5412851e+38
0.015362194 0.0053399238 0.29800001 -2.4879075e+38
0.015844675 0.0053399238 0.29800001 -2.4745631e+38
0.016327154 0.0053399238 0.29800001 -2.4612191e+38
0.016866041 0.0053578429 0.29900002 -2.4478747e+38
0.017834241 0.0053578429 0.29900002 -2.4078415e+38
0.01831834 0.0053578429 0.29900002 -2.40779e+38
0.018802438 0.0053578429 0.29900002 -2.3944455e+38
0.019351043 0.0053757625 0.30000001 -2.3944455e+38
0.019836761 0.0053757625 0.30000001 -2.3944455e+38
0.020808198 0.0053757625 0.30000001 -2.4211344e+38
0.021293916 0.0053757625 0.30000001 -2.474512e+38
0.021779634 0.0053757625 0.30000001 -2.5012008e+38
0.022751071 0.0053757625 0.30000001 -2.607956e+38
0.023236789 0.0053757625 0.30000001 -2.6479893e+38
0.023722507 0.0053757625 0.30000001 -2.6746781e+38
0.024208225 0.0053757625 0.30000001 -2.6481454e+38
0.025095727 0.0053578429 0.29900002 -2.6615939e+38
0.025494276 0.0053399238 0.29800001 -2.6615939e+38
0.026459236 0.0053399238 0.29800001 -2.6882827e+38
0.026941719 0.0053399238 0.29800001 -2.6882827e+38
0.027424198 0.0053399238 0.29800001 -2.6882827e+38
0.027906679 0.0053399238 0.29800001 -2.6748858e+38
0.029157108 0.0053040856 0.296 -2.7015746e+38
-0.0040783882 0.0053730235 0.27500001 -2.8218797e+38
-0.0024561528 0.005744251 0.294 -2.354463e+38
-0.001986884 0.0057637892 0.29500002 -2.354463e+38
-0.0015143772 0.0057833274 0.296 -2.354463e+38
-0.0010386322 0.0058028656 0.29700002 -2.354463e+38
-7.6910175e-05 0.0058028656 0.29700002 -2.3678074e+38
0.00040531097 0.0058224038 0.29800001 -2.3678074e+38
0.0008877911 0.0058224038 0.29800001 -2.3678074e+38
0.0013702712 0.0058224038 0.29800001 -2.3678074e+38
0.0018589685 0.005841942 0.29900002 -2.3678078e+38
0.0028271668 0.005841942 0.29900002 -2.3811523e+38
0.003311266 0.005841942 0.29900002 -2.3944967e+38
0.0037953653 0.005841942 0.29900002 -2.4211855e+38
0.0047635636 0.005841942 0.29900002 -2.4879079e+38
0.0052652131 0.0058614807 0.30000001 -2.5145967e+38
0.0057509313 0.0058614807 0.30000001 -2.5412855e+38
0.0062366496 0.0058614807 0.30000001 -2.5546299e+38
0.0071840594 0.005841942 0.29900002 -2.5946116e+38
0.0076681585 0.005841942 0.29900002 -2.5946631e+38
0.0081522577 0.005841942 0.29900002 -2.5946631e+38
0.0091204559 0.005841942 0.29900002 -2.5946631e+38
0.0096045556 0.005841942 0.29900002 -2.6346448e+38
0.010088654 0.005841942 0.29900002 -2.6479893e+38
0.010572754 0.005841942 0.29900002 -2.6479893e+38
0.011540952 0.005841942 0.29900002 -2.6346964e+38
0.012025051 0.005841942 0.29900002 -2.6080076e+38
0.012467314 0.0058224038 0.29800001 -2.5946631e+38
0.013432274 0.0058224038 0.29800001 -2.5679743e+38
0.013914754 0.0058224038 0.29800001 -2.5546299e+38
0.014397234 0.0058224038 0.29800001 -2.5412851e+38
0.015362194 0.0058224038 0.29800001 -2.4879075e+38
0.015844675 0.0058224038 0.29800001 -2.4745631e+38
0.016327154 0.0058224038 0.29800001 -2.4612191e+38
0.016866041 0.005841942 0.29900002 -2.4478747e+38
0.017834241 0.005841942 0.29900002 -2.40779e+38
0.01831834 0.005841942 0.29900002 -2.40779e+38
0.018802438 0.005841942 0.29900002 -2.3944455e+38
0.019351043 0.0058614807 0.30000001 -2.3944455e+38
0.019836761 0.0058614807 0.30000001 -2.3944455e+38
0.020808198 0.0058614807 0.30000001 -2.4211344e+38
0.021293916 0.0058614807 0.30000001 -2.474512e+38
0.021779634 0.0058614807 0.30000001 -2.5145452e+38
0.022751071 0.0058614807 0.30000001 -2.607956e+38
0.023236789 0.0058614807 0.30000001 -2.6613337e+38
0.023722507 0.0058614807 0.30000001 -2.6746781e+38
0.024208225 0.0058614807 0.30000001 -2.6482495e+38
0.025095727 0.005841942 0.29900002 -2.6882827e+38
0.025579827 0.005841942 0.29900002 -2.6882827e+38
0.026459236 0.0058224038 0.29800001 -2.6882827e+38
0.026941719 0.0058224038 0.29800001 -2.6882827e+38
0.027424198 0.0058224038 0.29800001 -2.6882827e+38
0.029157108 0.0057833274 0.296 -2.6748858e+38
-0.0036463579 0.006286283 0.27600002 -2.661487e+38
-0.0024561528 0.0066962582 0.294 -2.3545146e+38
-0.001986884 0.0067190346 0.29500002 -2.3545146e+38
-0.0015143772 0.0067418106 0.296 -2.3545146e+38
-0.0010386322 0.0067645875 0.29700002 -2.354463e+38
-7.7169134e-05 0.0067873644 0.29800001 -2.354463e+38
0.00040531097 0.0067873644 0.29800001 -2.354463e+38
0.0008877911 0.0067873644 0.29800001 -2.354463e+38
0.0013702712 0.0067873644 0.29800001 -2.3678074e+38
0.0018589685 0.0068101403 0.29900002 -2.3678078e+38
0.0028271668 0.0068101403 0.29900002 -2.3811523e+38
0.003311266 0.0068101403 0.29900002 -2.3811523e+38
0.0037953653 0.0068101403 0.29900002 -2.4211855e+38
0.0047635636 0.0068101403 0.29900002 -2.4879079e+38
0.0052652131 0.0068329168 0.30000001 -2.5145967e+38
0.0057509313 0.0068329168 0.30000001 -2.5545784e+38
0.0062366496 0.0068329168 0.30000001 -2.5679228e+38
0.0071840594 0.0068101403 0.29900002 -2.5946116e+38
0.0076681585 0.0068101403 0.29900002 -2.5946116e+38
0.0081522577 0.0068101403 0.29900002 -2.5946116e+38
0.0091204559 0.0068101403 0.29900002 -2.607956e+38
0.0096045556 0.0068101403 0.29900002 -2.6346448e+38
0.010088654 0.0068101403 0.29900002 -2.6479893e+38
0.010572754 0.0068101403 0.29900002 -2.6479893e+38
0.011540952 0.0068101403 0.29900002 -2.6346964e+38
0.012025051 0.0068101403 0.29900002 -2.6080076e+38
0.012467314 0.0067873644 0.29800001 -2.5946631e+38
0.013432274 0.0067873644 0.29800001 -2.5679743e+38
0.013914754 0.0067873644 0.29800001 -2.5546299e+38
0.014397234 0.0067873644 0.29800001 -2.5412855e+38
0.015362194 0.0067873644 0.29800001 -2.5012523e+38
0.015844675 0.0067873644 0.29800001 -2.4879079e+38
0.016327154 0.0067873644 0.29800001 -2.4478747e+38
0.016866041 0.0068101403 0.29900002 -2.4478747e+38
0.017834241 0.0068101403 0.29900002 -2.40779e+38
0.01831834 0.0068101403 0.29900002 -2.40779e+38
0.018802438 0.0068101403 0.29900002 -2.3944455e+38
0.019351043 0.0068329168 0.30000001 -2.3944455e+38
0.019836761 0.0068329168 0.30000001 -2.40779e+38
0.020808198 0.0068329168 0.30000001 -2.4211344e+38
0.021293916 0.0068329168 0.30000001 -2.474512e+38
0.021779634 0.0068329168 0.30000001 -2.5145452e+38
0.022751071 0.0068329168 0.30000001 -2.6346448e+38
0.023236789 0.0068329168 0.30000001 -2.6613337e+38
0.023722507 0.0068329168 0.30000001 -2.6880225e+38
0.024208225 0.0068329168 0.30000001 -2.6748342e+38
0.025095727 0.0068101403 0.29900002 -2.7016271e+38
0.025579827 0.0068101403 0.29900002 -2.7016271e+38
0.026459236 0.0067873644 0.29800001 -2.7016271e+38
0.026941719 0.0067873644 0.29800001 -2.7016271e+38
0.027424198 0.0067873644 0.29800001 -2.6882827e+38
0.028093971 0.0068329168 0.30000001 -2.7015746e+38
-0.0036463579 0.0067331437 0.27600002 -2.7682422e+38
-0.0019936191 0.0072210524 0.296 -2.354463e+38
-0.0015194933 0.0072454484 0.29700002 -2.354463e+38
-0.0010386322 0.0072454484 0.29700002 -2.354463e+38
-7.7169134e-05 0.0072698444 0.29800001 -2.354463e+38
0.00040531097 0.0072698444 0.29800001 -2.354463e+38
0.0008877911 0.0072698444 0.29800001 -2.354463e+38
0.0013702712 0.0072698444 0.29800001 -2.3678074e+38
0.0018589685 0.007294239 0.29900002 -2.3678078e+38
0.0028271668 0.007294239 0.29900002 -2.3678078e+38
0.003311266 0.007294239 0.29900002 -2.3811523e+38
0.0037953653 0.007294239 0.29900002 -2.4078411e+38
0.0047635636 0.007294239 0.29900002 -2.4879079e+38
0.0052652131 0.007318635 0.30000001 -2.5145967e+38
0.0057509313 0.007318635 0.30000001 -2.5546299e+38
0.0062366496 0.007318635 0.30000001 -2.5679743e+38
0.0072080861 0.007318635 0.30000001 -2.5946116e+38
0.0076681585 0.007294239 0.29900002 -2.5946116e+38
0.0081522577 0.007294239 0.29900002 -2.5946116e+38
0.0091204559 0.007294239 0.29900002 -2.607956e+38
0.0096045556 0.007294239 0.29900002 -2.6479893e+38
0.010088654 0.007294239 0.29900002 -2.6479893e+38
0.010572754 0.007294239 0.29900002 -2.6479893e+38
0.011540952 0.007294239 0.29900002 -2.6346964e+38
0.011984834 0.0072698444 0.29800001 -2.6080076e+38
0.012467314 0.0072698444 0.29800001 -2.5946631e+38
0.013432274 0.0072698444 0.29800001 -2.5679743e+38
0.013914754 0.0072698444 0.29800001 -2.5546299e+38
0.014397234 0.0072698444 0.29800001 -2.5412855e+38
0.015362194 0.0072698444 0.29800001 -2.5012523e+38
0.015844675 0.0072698444 0.29800001 -2.4879079e+38
0.016327154 0.0072698444 0.29800001 -2.4478747e+38
0.016866041 0.007294239 0.29900002 -2.4478747e+38
0.017834241 0.007294239 0.29900002 -2.4078415e+38
0.01831834 0.007294239 0.29900002 -2.3944455e+38
0.018802438 0.007294239 0.29900002 -2.40779e+38
0.019286538 0.007294239 0.29900002 -2.3944455e+38
0.019836761 0.007318635 0.30000001 -2.40779e+38
0.020808198 0.007318635 0.30000001 -2.4478232e+38
0.021293916 0.007318635 0.30000001 -2.474512e+38
0.021779634 0.007318635 0.30000001 -2.541234e+38
0.022751071 0.007318635 0.30000001 -2.6081122e+38
0.023236789 0.007318635 0.30000001 -2.6481454e+38
0.023722507 0.007318635 0.30000001 -2.6748342e+38
0.02461163 0.007294239 0.29900002 -2.7282119e+38
0.025095727 0.007294239 0.29900002 -2.7282119e+38
0.025494276 0.0072698444 0.29800001 -2.7282119e+38
0.026459236 0.0072698444 0.29800001 -2.7148675e+38
0.026941719 0.0072698444 0.29800001 -2.7016271e+38
0.027424198 0.0072698444 0.29800001 -2.6882827e+38
0.028093971 0.007318635 0.30000001 -2.7015231e+38
-0.0036463579 0.0071800044 0.27600002 -2.7815866e+38
-0.002464507 0.0076742806 0.29500002 -2.3277742e+38
-0.0019936191 0.0077002947 0.296 -2.3277746e+38
-0.0015194933 0.0077263094 0.29700002 -2.3277746e+38
-0.0010386322 0.0077263094 0.29700002 -2.3277746e+38
-7.7169134e-05 0.0077523245 0.29800001 -2.3544634e+38
0.00040531097 0.0077523245 0.29800001 -2.3544634e+38
0.0008877911 0.0077523245 0.29800001 -2.3544634e+38
0.0013702712 0.0077523245 0.29800001 -2.3544634e+38
0.0023352315 0.0077523245 0.29800001 -2.3678078e+38
0.0028271668 0.0077783382 0.29900002 -2.3678078e+38
0.003311266 0.0077783382 0.29900002 -2.3811523e+38
0.0037953653 0.0077783382 0.29900002 -2.4078411e+38
0.0047635636 0.0077783382 0.29900002 -2.4879079e+38
0.0052652131 0.0078043533 0.30000001 -2.5145967e+38
0.0057509313 0.0078043533 0.30000001 -2.5546299e+38
0.0062366496 0.0078043533 0.30000001 -2.5679743e+38
0.0072080861 0.0078043533 0.30000001 -2.5946116e+38
0.0076681585 0.0077783382 0.29900002 -2.5946116e+38
0.0081522577 0.0077783382 0.29900002 -2.5946116e+38
0.0091204559 0.0077783382 0.29900002 -2.607956e+38
0.0096045556 0.0077783382 0.29900002 -2.6479893e+38
0.010088654 0.0077783382 0.29900002 -2.6479893e+38
0.010572754 0.0077783382 0.29900002 -2.6346448e+38
0.011502353 0.0077523245 0.29800001 -2.6346964e+38
0.011984834 0.0077523245 0.29800001 -2.6080076e+38
0.012467314 0.0077523245 0.29800001 -2.5946631e+38
0.013432274 0.0077523245 0.29800001 -2.5679743e+38
0.013914754 0.0077523245 0.29800001 -2.5546299e+38
0.014397234 0.0077523245 0.29800001 -2.5412855e+38
0.015362194 0.0077523245 0.29800001 -2.5012523e+38
0.015844675 0.0077523245 0.29800001 -2.4879079e+38
0.016327154 0.0077523245 0.29800001 -2.4478747e+38
0.016809635 0.0077523245 0.29800001 -2.4478747e+38
0.017774595 0.0077523245 0.29800001 -2.4078415e+38
0.01831834 0.0077783382 0.29900002 -2.40779e+38
0.018802438 0.0077783382 0.29900002 -2.40779e+38
0.019286538 0.0077783382 0.29900002 -2.3944455e+38
0.020254737 0.0077783382 0.29900002 -2.4211344e+38
0.020808198 0.0078043533 0.30000001 -2.4478232e+38
0.021293916 0.0078043533 0.30000001 -2.474512e+38
0.021779634 0.0078043533 0.30000001 -2.541234e+38
0.022751071 0.0078043533 0.30000001 -2.6081122e+38
0.023236789 0.0078043533 0.30000001 -2.6349051e+38
0.02364343 0.0077783382 0.29900002 -2.6615939e+38
0.02461163 0.0077783382 0.29900002 -2.7149715e+38
0.025095727 0.0077783382 0.29900002 -2.7283159e+38
0.025494276 0.0077523245 0.29800001 -2.7283159e+38
0.026370447 0.0077263094 0.29700002 -2.7148675e+38
0.026851308 0.0077263094 0.29700002 -2.7148675e+38
0.027424198 0.0077523245 0.29800001 -2.7015231e+38
-0.0036463579 0.0076268651 0.27600002 -2.7815866e+38
-0.002464507 0.008629526 0.29500002 -2.3277746e+38
-0.0019936191 0.0086587779 0.296 -2.3277746e+38
-0.0015194933 0.0086880317 0.29700002 -2.3277746e+38
-0.0010386322 0.0086880317 0.29700002 -2.3277746e+38
-7.7169134e-05 0.0087172845 0.29800001 -2.3544638e+38
0.00040531097 0.0087172845 0.29800001 -2.327775e+38
0.0008877911 0.0087172845 0.29800001 -2.3544638e+38
0.0013748694 0.0087465364 0.29900002 -2.3544638e+38
0.0018589685 0.0087465364 0.29900002 -2.3678083e+38
0.0028177116 0.0087172845 0.29800001 -2.3811527e+38
0.0033001916 0.0087172845 0.29800001 -2.3811527e+38
0.0037953653 0.0087465364 0.29900002 -2.4078415e+38
0.0047635636 0.0087465364 0.29900002 -2.5012523e+38
0.0052476628 0.0087465364 0.29900002 -2.5412855e+38
0.0057509313 0.0087757893 0.30000001 -2.5679743e+38
0.0062366496 0.0087757893 0.30000001 -2.5679743e+38
0.0072080861 0.0087757893 0.30000001 -2.5946116e+38
0.0076681585 0.0087465364 0.29900002 -2.5946116e+38
0.0081522577 0.0087465364 0.29900002 -2.5946116e+38
0.0091204559 0.0087465364 0.29900002 -2.607956e+38
0.0096045556 0.0087465364 0.29900002 -2.6479893e+38
0.010088654 0.0087465364 0.29900002 -2.6479893e+38
0.011019873 0.0087172845 0.29800001 -2.6346448e+38
0.011502353 0.0087172845 0.29800001 -2.6346964e+38
0.011984834 0.0087172845 0.29800001 -2.5946631e+38
0.012467314 0.0087172845 0.29800001 -2.5813187e+38
0.013432274 0.0087172845 0.29800001 -2.5679743e+38
0.013914754 0.0087172845 0.29800001 -2.5546299e+38
0.014397234 0.0087172845 0.29800001 -2.5412855e+38
0.015362194 0.0087172845 0.29800001 -2.5012523e+38
0.015844675 0.0087172845 0.29800001 -2.4879079e+38
0.016327154 0.0087172845 0.29800001 -2.4612191e+38
0.016809635 0.0087172845 0.29800001 -2.4478747e+38
0.017774595 0.0087172845 0.29800001 -2.4211859e+38
0.018257074 0.0087172845 0.29800001 -2.4078415e+38
0.018802438 0.0087465364 0.29900002 -2.4078415e+38
0.019286538 0.0087465364 0.29900002 -2.40779e+38
0.020254737 0.0087465364 0.29900002 -2.3946017e+38
0.020738835 0.0087465364 0.29900002 -2.4212905e+38
0.021222934 0.0087465364 0.29900002 -2.4613237e+38
0.022191133 0.0087465364 0.29900002 -2.554839e+38
0.022675233 0.0087465364 0.29900002 -2.6082167e+38
0.023159331 0.0087465364 0.29900002 -2.6349055e+38
0.02364343 0.0087465364 0.29900002 -2.6882831e+38
0.02461163 0.0087465364 0.29900002 -2.7283163e+38
0.025011797 0.0087172845 0.29800001 -2.7550047e+38
0.025889587 0.0086880317 0.29700002 -2.7415563e+38
0.026370447 0.0086880317 0.29700002 -2.7148675e+38
0.026851308 0.0086880317 0.29700002 -2.7148675e+38
0.027332168 0.0086880317 0.29700002 -2.7148675e+38
-0.0040783882 0.0084897159 0.27500001 -2.874893e+38
-0.0036463579 0.0085205864 0.27600002 -2.6613318e+38
-0.0032110899 0.0085514588 0.27700001 -2.4077881e+38
-0.0019936191 0.0091380207 0.296 -2.3277746e+38
-0.0015143772 0.0091380207 0.296 -2.3277746e+38
-0.0010386322 0.0091688922 0.29700002 -2.327775e+38
-7.7169134e-05 0.0091997646 0.29800001 -2.3544638e+38
0.00040531097 0.0091997646 0.29800001 -2.327775e+38
0.0008877911 0.0091997646 0.29800001 -2.3544638e+38
0.0013702712 0.0091997646 0.29800001 -2.3544638e+38
0.0023352315 0.0091997646 0.29800001 -2.3678083e+38
0.0028082561 0.0091688922 0.29700002 -2.3811527e+38
0.0032891172 0.0091688922 0.29700002 -2.3811527e+38
0.0042651519 0.0091997646 0.29800001 -2.4612191e+38
0.0047635636 0.0092306361 0.29900002 -2.5012523e+38
0.0052476628 0.0092306361 0.29900002 -2.5412855e+38
0.0057317619 0.0092306361 0.29900002 -2.5679228e+38
0.0062158611 0.0092306361 0.29900002 -2.5679228e+38
0.0071840594 0.0092306361 0.29900002 -2.5946116e+38
0.0076681585 0.0092306361 0.29900002 -2.5946116e+38
0.0081522577 0.0092306361 0.29900002 -2.5946116e+38
0.0091204559 0.0092306361 0.29900002 -2.607956e+38
0.0096045556 0.0092306361 0.29900002 -2.6479893e+38
0.010054912 0.0091997646 0.29800001 -2.6479893e+38
0.011019873 0.0091997646 0.29800001 -2.6346448e+38
0.011502353 0.0091997646 0.29800001 -2.607956e+38
0.011984834 0.0091997646 0.29800001 -2.607956e+38
0.012467314 0.0091997646 0.29800001 -2.5946631e+38
0.013432274 0.0091997646 0.29800001 -2.5679743e+38
0.013914754 0.0091997646 0.29800001 -2.5546299e+38
0.014397234 0.0091997646 0.29800001 -2.5412855e+38
0.015362194 0.0091997646 0.29800001 -2.4879079e+38
0.015844675 0.0091997646 0.29800001 -2.4879079e+38
0.016327154 0.0091997646 0.29800001 -2.4612191e+38
0.016809635 0.0091997646 0.29800001 -2.4478747e+38
0.017774595 0.0091997646 0.29800001 -2.4211859e+38
0.018257074 0.0091997646 0.29800001 -2.4078415e+38
0.018739555 0.0091997646 0.29800001 -2.4078415e+38
0.019704515 0.0091997646 0.29800001 -2.4211344e+38
0.020254737 0.0092306361 0.29900002 -2.3946021e+38
0.020738835 0.0092306361 0.29900002 -2.4346353e+38
0.021222934 0.0092306361 0.29900002 -2.4613242e+38
0.022191133 0.0092306361 0.29900002 -2.5680794e+38
0.022675233 0.0092306361 0.29900002 -2.621457e+38
0.023159331 0.0092306361 0.29900002 -2.6349055e+38
0.024046836 0.0091997646 0.29800001 -2.7016275e+38
0.024529316 0.0091997646 0.29800001 -2.7149719e+38
0.024927864 0.0091688922 0.29700002 -2.7550047e+38
0.025889587 0.0091688922 0.29700002 -2.7549007e+38
0.026370447 0.0091688922 0.29700002 -2.7282119e+38
0.026851308 0.0091688922 0.29700002 -2.7148675e+38
0.027332168 0.0091688922 0.29700002 -2.7148675e+38
0.029157108 0.0091380207 0.296 -2.7547445e+38
-0.0045236303 0.008934957 0.27500001 -2.9148224e+38
-0.0040932186 0.0089674471 0.27600002 -2.7813783e+38
-0.0036463579 0.0089674471 0.27600002 -2.594454e+38
-0.0032110899 0.0089999381 0.27700001 -2.4076324e+38
-0.0019936191 0.0096172625 0.296 -2.3277746e+38
-0.0015143772 0.0096172625 0.296 -2.3277746e+38
-0.0010386322 0.0096497536 0.29700002 -2.3277746e+38
-7.6910175e-05 0.0096497536 0.29700002 -2.3544634e+38
0.00040531097 0.0096822446 0.29800001 -2.3277746e+38
0.0008877911 0.0096822446 0.29800001 -2.3544634e+38
0.0013702712 0.0096822446 0.29800001 -2.3544634e+38
0.0023273951 0.0096497536 0.29700002 -2.3811523e+38
0.0027893451 0.0095847715 0.29500002 -2.3811527e+38
0.003744591 0.0095847715 0.29500002 -2.4478747e+38
0.0042365268 0.0096172625 0.296 -2.5012523e+38
0.0047317003 0.0096497536 0.29700002 -2.5814234e+38
0.005230112 0.0096822446 0.29800001 -2.568079e+38
0.0057317619 0.0097147347 0.29900002 -2.5547346e+38
0.0062158611 0.0097147347 0.29900002 -2.5547346e+38
0.0071840594 0.0097147347 0.29900002 -2.568079e+38
0.0076425122 0.0096822446 0.29800001 -2.568079e+38
0.0081249923 0.0096822446 0.29800001 -2.568079e+38
0.0090899523 0.0096822446 0.29800001 -2.5814234e+38
0.0095724324 0.0096822446 0.29800001 -2.6214566e+38
0.010054912 0.0096822446 0.29800001 -2.6214566e+38
0.011019873 0.0096822446 0.29800001 -2.6081122e+38
0.011502353 0.0096822446 0.29800001 -2.6081122e+38
0.011984834 0.0096822446 0.29800001 -2.5814234e+38
0.012467314 0.0096822446 0.29800001 -2.568079e+38
0.013432274 0.0096822446 0.29800001 -2.5414417e+38
0.013914754 0.0096822446 0.29800001 -2.5280973e+38
0.014397234 0.0096822446 0.29800001 -2.5147529e+38
0.015362194 0.0096822446 0.29800001 -2.4879079e+38
0.015791504 0.0096497536 0.29700002 -2.4879079e+38
0.016272366 0.0096497536 0.29700002 -2.4745635e+38
0.017234087 0.0096497536 0.29700002 -2.4478747e+38
0.017714949 0.0096497536 0.29700002 -2.4478747e+38
0.01819581 0.0096497536 0.29700002 -2.40779e+38
0.01867667 0.0096497536 0.29700002 -2.4211344e+38
0.019704515 0.0096822446 0.29800001 -2.3946021e+38
0.020186994 0.0096822446 0.29800001 -2.3813618e+38
0.020669475 0.0096822446 0.29800001 -2.4480838e+38
0.021151954 0.0096822446 0.29800001 -2.5014614e+38
0.022116916 0.0096822446 0.29800001 -2.6615943e+38
0.022599395 0.0096822446 0.29800001 -2.6482499e+38
0.023081876 0.0096822446 0.29800001 -2.6482499e+38
0.024046836 0.0096822446 0.29800001 -2.7016275e+38
0.024447003 0.0096497536 0.29700002 -2.7149719e+38
0.024927864 0.0096497536 0.29700002 -2.7416603e+38
0.025802417 0.0096172625 0.296 -2.7815895e+38
0.026281659 0.0096172625 0.296 -2.7415563e+38
0.026851308 0.0096497536 0.29700002 -2.7148675e+38
0.027332168 0.0096497536 0.29700002 -2.7148675e+38
0.029157108 0.0096172625 0.296 -2.7414001e+38
-0.0049508032 0.0093460884 0.27400002 -2.9283747e+38
-0.0045236303 0.009380199 0.27500001 -2.8080156e+38
-0.0040932186 0.0094143078 0.27600002 -2.621194e+38
-0.0036595699 0.0094484184 0.27700001 -2.5410764e+38
-0.0032110899 0.0094484184 0.27700001 -2.4076324e+38
-0.001986884 0.010062395 0.29500002 -2.3277746e+38
-0.0015143772 0.010096504 0.296 -2.3277746e+38
-0.00055589323 0.010096504 0.296 -2.3277746e+38
-7.6910175e-05 0.010130614 0.29700002 -2.3544634e+38
0.00040395086 0.010130614 0.29700002 -2.3277746e+38
0.00088481198 0.010130614 0.29700002 -2.3544634e+38
0.0018403167 0.010096504 0.296 -2.3811523e+38
0.0023117224 0.010062395 0.29500002 -2.4078411e+38
0.0032558937 0.010028285 0.294 -2.5147525e+38
0.0037318976 0.010028285 0.294 -2.5949234e+38
0.0042222138 0.010062395 0.29500002 -2.6349566e+38
0.0047157686 0.010096504 0.296 -2.6750945e+38
0.005230112 0.010164725 0.29800001 -2.6750945e+38
0.005712592 0.010164725 0.29800001 -2.6750945e+38
0.0066775521 0.010164725 0.29800001 -2.5816836e+38
0.0071360054 0.010130614 0.29700002 -2.5416504e+38
0.0076168664 0.010130614 0.29700002 -2.5548386e+38
0.0085785883 0.010130614 0.29700002 -2.5814234e+38
0.0090594497 0.010130614 0.29700002 -2.5814234e+38
0.0095724324 0.010164725 0.29800001 -2.6214566e+38
0.010054912 0.010164725 0.29800001 -2.6214566e+38
0.011019873 0.010164725 0.29800001 -2.6081122e+38
0.011502353 0.010164725 0.29800001 -2.6081122e+38
0.011984834 0.010164725 0.29800001 -2.5814234e+38
0.012467314 0.010164725 0.29800001 -2.568079e+38
0.013432274 0.010164725 0.29800001 -2.5414417e+38
0.013914754 0.010164725 0.29800001 -2.5280973e+38
0.014348921 0.010130614 0.29700002 -2.5147529e+38
0.015310643 0.010130614 0.29700002 -2.4879079e+38
0.015791504 0.010130614 0.29700002 -2.4879079e+38
0.016696818 0.010096504 0.296 -2.4478747e+38
0.01717606 0.010096504 0.296 -2.4478747e+38
0.017655302 0.010096504 0.296 -2.4478747e+38
0.018134544 0.010096504 0.296 -2.4211344e+38
0.019093029 0.010096504 0.296 -2.4212909e+38
0.019638393 0.010130614 0.29700002 -2.4613242e+38
0.020119254 0.010130614 0.29700002 -2.5014618e+38
0.020600114 0.010130614 0.29700002 -2.6082171e+38
0.021561837 0.010130614 0.29700002 -2.7950383e+38
0.022116916 0.010164725 0.29800001 -2.7950383e+38
0.02252356 0.010130614 0.29700002 -2.8083828e+38
0.02300442 0.010130614 0.29700002 -2.7683495e+38
0.023966143 0.010130614 0.29700002 -2.7149719e+38
0.024447003 0.010130614 0.29700002 -2.7149719e+38
0.024843933 0.010096504 0.296 -2.7416603e+38
0.025802417 0.010096504 0.296 -2.7815895e+38
0.02619287 0.010062395 0.29500002 -2.7682451e+38
0.026760899 0.010096504 0.296 -2.7282119e+38
0.027332168 0.010130614 0.29700002 -2.7148675e+38
-0.0049508032 0.010233333 0.27400002 -2.6744154e+38
-0.0045236303 0.010270682 0.27500001 -2.581005e+38
-0.0040932186 0.010308029 0.27600002 -2.5409718e+38
-0.0036463579 0.010308029 0.27600002 -2.4611142e+38
-0.0032110899 0.010345378 0.27700001 -2.3677034e+38
-0.001986884 0.01101764 0.29500002 -2.3144302e+38
-0.0010316381 0.01101764 0.29500002 -2.3144302e+38
-0.00055401516 0.01101764 0.29500002 -2.3277746e+38
-7.6651224e-05 0.011054988 0.296 -2.3544634e+38
0.00040259075 0.011054988 0.296 -2.3544634e+38
0.00088183273 0.011054988 0.296 -2.4213416e+38
0.0018340994 0.01101764 0.29500002 -2.5548897e+38
0.002303886 0.010980292 0.294 -2.6216118e+38
0.0032558937 0.010980292 0.294 -2.6616454e+38
0.0037318976 0.010980292 0.294 -2.675146e+38
0.0042079012 0.010980292 0.294 -2.6884904e+38
0.0080704633 0.011054988 0.296 -2.6217168e+38
0.0085497051 0.011054988 0.296 -2.6349051e+38
0.0090594497 0.011092336 0.29700002 -2.6082163e+38
0.0095403111 0.011092336 0.29700002 -2.6082163e+38
0.010502033 0.011092336 0.29700002 -2.6082163e+38
0.010982894 0.011092336 0.29700002 -2.5948719e+38
0.011463755 0.011092336 0.29700002 -2.5948719e+38
0.011944616 0.011092336 0.29700002 -2.568183e+38
0.012906338 0.011092336 0.29700002 -2.5548386e+38
0.013387199 0.011092336 0.29700002 -2.568079e+38
0.01386806 0.011092336 0.29700002 -2.5413902e+38
0.014348921 0.011092336 0.29700002 -2.5280458e+38
0.015310643 0.011092336 0.29700002 -2.4880126e+38
0.015738335 0.011054988 0.296 -2.4746682e+38
0.016696818 0.011054988 0.296 -2.4479793e+38
0.017118033 0.01101764 0.29500002 -2.4880126e+38
0.017595656 0.01101764 0.29500002 -2.5413902e+38
0.018550903 0.01101764 0.29500002 -2.714919e+38
0.019028526 0.01101764 0.29500002 -2.7283674e+38
0.019506149 0.01101764 0.29500002 -2.7550562e+38
0.020051513 0.011054988 0.296 -2.7950379e+38
