# .PCD v0.7 - Point Cloud Data file format
VERSION 0.7
FIELDS x y z rgb
SIZE 4 4 4 4
TYPE F F F F
COUNT 1 1 1 1
WIDTH 973
HEIGHT 1
VIEWPOINT 0 0 0 1 0 0 0
POINTS 973
DATA ascii
0.0046520424 0.0094872992 0.29200003 -2.3546192e+38
0.0051423581 0.0095197903 0.29300001 -2.3412748e+38
0.0056167431 0.0095197903 0.29300001 -2.3546192e+38
0.0060911281 0.0095197903 0.29300001 -2.3412748e+38
0.0065879207 0.0095522804 0.294 -2.3279308e+38
0.0075399289 0.0095522804 0.294 -2.301242e+38
0.008043197 0.0095847715 0.29500002 -2.301242e+38
0.0085497051 0.0096172625 0.296 -2.2878976e+38
0.011540952 0.0097147347 0.29900002 -2.44803e+38
0.012065268 0.0097472258 0.30000001 -2.4880633e+38
0.012550986 0.0097472258 0.30000001 -2.5282013e+38
0.013080161 0.0097797159 0.30100003 -2.5682346e+38
0.013567498 0.0097797159 0.30100003 -2.5683907e+38
0.014542173 0.0097797159 0.30100003 -2.5950795e+38
0.01502951 0.0097797159 0.30100003 -2.608424e+38
0.015516847 0.0097797159 0.30100003 -2.6217684e+38
0.016491521 0.0097797159 0.30100003 -2.675146e+38
0.01697886 0.0097797159 0.30100003 -2.675146e+38
0.01740817 0.0097472258 0.30000001 -2.7017833e+38
0.018379606 0.0097472258 0.30000001 -2.6884389e+38
0.018802438 0.0097147347 0.29900002 -2.7017833e+38
0.019286538 0.0097147347 0.29900002 -2.7550047e+38
0.020186994 0.0096822446 0.29800001 -2.7683491e+38
0.020669475 0.0096822446 0.29800001 -2.7683491e+38
0.021151954 0.0096822446 0.29800001 -2.7685568e+38
0.022116916 0.0096822446 0.29800001 -2.80859e+38
0.022599395 0.0096822446 0.29800001 -2.7819012e+38
0.023081876 0.0096822446 0.29800001 -2.7952456e+38
0.024046836 0.0096822446 0.29800001 -2.7952456e+38
0.024529316 0.0096822446 0.29800001 -2.80859e+38
0.025011797 0.0096822446 0.29800001 -2.7951941e+38
0.025494276 0.0096822446 0.29800001 -2.7818497e+38
0.026459236 0.0096822446 0.29800001 -2.6350612e+38
0.026941719 0.0096822446 0.29800001 -2.595028e+38
0.027424198 0.0096822446 0.29800001 -2.595028e+38
0.028293889 0.0096497536 0.29700002 -2.6482495e+38
0.028774751 0.0096497536 0.29700002 -2.648301e+38
0.030078031 0.0094548091 0.29100001 -2.6748858e+38
0.030549178 0.0094548091 0.29100001 -2.6748858e+38
0.030913725 0.0094223181 0.29000002 -2.6748858e+38
0.031852782 0.0094223181 0.29000002 -2.6615414e+38
0.03232231 0.0094223181 0.29000002 -2.6615414e+38
0.032678761 0.009389828 0.289 -2.6747296e+38
0.03361458 0.009389828 0.289 -2.6480408e+38
0.036213234 0.0087725036 0.27000001 -2.6747292e+38
0.036786124 0.0088049937 0.27100003 -2.6747292e+38
0.037663653 0.0088049937 0.27100003 -2.8349128e+38
0.038102418 0.0088049937 0.27100003 -3.0217344e+38
-0.00050706475 0.0092096496 0.27000001 -2.3677549e+38
-6.9918344e-05 0.0092096496 0.27000001 -2.3810993e+38
0.00036722806 0.0092096496 0.27000001 -2.3944437e+38
0.0012415209 0.0092096496 0.27000001 -2.3944963e+38
0.0016848845 0.0092437593 0.27100003 -2.4078407e+38
0.0021314863 0.009277869 0.27200001 -2.4078407e+38
0.0025718708 0.009277869 0.27200001 -2.4078407e+38
0.0051423581 0.0099941753 0.29300001 -2.3546196e+38
0.0056167431 0.0099941753 0.29300001 -2.3546196e+38
0.0060911281 0.0099941753 0.29300001 -2.3412752e+38
0.0070398976 0.0099941753 0.29300001 -2.3279308e+38
0.0075399289 0.010028285 0.294 -2.301242e+38
0.0080159325 0.010028285 0.294 -2.2878976e+38
0.0085208202 0.010062395 0.29500002 -2.2745532e+38
0.010466672 0.010096504 0.296 -2.381308e+38
0.010945915 0.010096504 0.296 -2.4346856e+38
0.011463755 0.010130614 0.29700002 -2.4747189e+38
0.012025051 0.010198833 0.29900002 -2.5280965e+38
0.012550986 0.010232944 0.30000001 -2.5548902e+38
0.013036705 0.010232944 0.30000001 -2.6082678e+38
0.013567498 0.010267054 0.30100003 -2.6216122e+38
0.014542173 0.010267054 0.30100003 -2.6351128e+38
0.01502951 0.010267054 0.30100003 -2.6351128e+38
0.015516847 0.010267054 0.30100003 -2.6618016e+38
0.016491521 0.010267054 0.30100003 -2.6884904e+38
0.016922452 0.010232944 0.30000001 -2.6884904e+38
0.01740817 0.010232944 0.30000001 -2.7017833e+38
0.01831834 0.010198833 0.29900002 -2.7550047e+38
0.018802438 0.010198833 0.29900002 -2.7550047e+38
0.019704515 0.010164725 0.29800001 -2.7950379e+38
0.020186994 0.010164725 0.29800001 -2.8216227e+38
0.020600114 0.010130614 0.29700002 -2.8216227e+38
0.021151954 0.010164725 0.29800001 -2.8217268e+38
0.022116916 0.010164725 0.29800001 -2.8484671e+38
0.022599395 0.010164725 0.29800001 -2.8217783e+38
0.023081876 0.010164725 0.29800001 -2.8885003e+38
0.024046836 0.010164725 0.29800001 -2.8619677e+38
0.024529316 0.010164725 0.29800001 -2.8619677e+38
0.025011797 0.010164725 0.29800001 -2.8352273e+38
0.025494276 0.010164725 0.29800001 -2.8218829e+38
0.026459236 0.010164725 0.29800001 -2.7151277e+38
0.026941719 0.010164725 0.29800001 -2.6482495e+38
0.027424198 0.010164725 0.29800001 -2.6349051e+38
0.028293889 0.010130614 0.29700002 -2.6748342e+38
0.028774751 0.010130614 0.29700002 -2.6615414e+38
0.03577609 0.0092096496 0.27000001 -2.6747292e+38
0.036079109 0.009175539 0.26900002 -2.6747292e+38
0.036650382 0.0092096496 0.27000001 -2.6747292e+38
0.037663653 0.0092437593 0.27100003 -2.8349128e+38
0.038102418 0.0092437593 0.27100003 -3.0217344e+38
0.033901472 0.0096110664 0.26900002 -2.6480408e+38
0.034643263 0.0095753381 0.26800001 -2.6613852e+38
0.03507717 0.0095753381 0.26800001 -2.6747296e+38
0.035511076 0.0095753381 0.26800001 -2.6880736e+38
0.036378894 0.0095753381 0.26800001 -2.6747292e+38
0.036950164 0.0096110664 0.26900002 -2.701418e+38
-0.00050706475 0.010083942 0.27000001 -2.3677549e+38
-6.9918344e-05 0.010083942 0.27000001 -2.3810993e+38
0.00036722806 0.010083942 0.27000001 -2.3810993e+38
0.0012415209 0.010083942 0.27000001 -2.3944963e+38
0.0016786671 0.010083942 0.27000001 -2.4078411e+38
0.0021236499 0.01012129 0.27100003 -2.4078411e+38
0.0025624153 0.01012129 0.27100003 -2.4078411e+38
0.0030011809 0.01012129 0.27100003 -2.4078411e+38
0.0034653335 0.010195986 0.273 -2.4078411e+38
0.0051423581 0.010942944 0.29300001 -2.3546196e+38
0.0056167431 0.010942944 0.29300001 -2.3546196e+38
0.0060911281 0.010942944 0.29300001 -2.3412752e+38
0.0070398976 0.010942944 0.29300001 -2.3279308e+38
0.0075142821 0.010942944 0.29300001 -2.3012424e+38
0.0079886671 0.010942944 0.29300001 -2.3012424e+38
0.0084919361 0.010980292 0.294 -2.287898e+38
0.0089679407 0.010980292 0.294 -2.2745536e+38
0.0099199479 0.010980292 0.294 -2.4214457e+38
0.010431312 0.01101764 0.29500002 -2.4748229e+38
0.010908935 0.01101764 0.29500002 -2.5148561e+38
0.011425157 0.011054988 0.296 -2.5681301e+38
0.011944616 0.011092336 0.29700002 -2.6081633e+38
0.012467314 0.011129685 0.29800001 -2.6348525e+38
0.013036705 0.011204381 0.30000001 -2.6615414e+38
0.014008142 0.011204381 0.30000001 -2.6883342e+38
0.01449386 0.011204381 0.30000001 -2.7016271e+38
0.014979579 0.011204381 0.30000001 -2.7149715e+38
0.015951015 0.011204381 0.30000001 -2.7151277e+38
0.016436733 0.011204381 0.30000001 -2.7285236e+38
0.016922452 0.011204381 0.30000001 -2.7151792e+38
0.017834241 0.011167032 0.29900002 -2.741868e+38
0.018257074 0.011129685 0.29800001 -2.7950895e+38
0.018739555 0.011129685 0.29800001 -2.7950895e+38
0.019638393 0.011092336 0.29700002 -2.8217268e+38
0.020119254 0.011092336 0.29700002 -2.8350712e+38
0.020600114 0.011092336 0.29700002 -2.8484156e+38
0.021561837 0.011092336 0.29700002 -2.8484156e+38
0.022042697 0.011092336 0.29700002 -2.86176e+38
0.02252356 0.011092336 0.29700002 -2.86176e+38
0.02300442 0.011092336 0.29700002 -2.9017932e+38
0.024046836 0.011129685 0.29800001 -2.8884488e+38
0.024529316 0.011129685 0.29800001 -2.9017932e+38
0.025011797 0.011129685 0.29800001 -2.86176e+38
0.025494276 0.011129685 0.29800001 -2.8884488e+38
0.026370447 0.011092336 0.29700002 -2.8217268e+38
0.037524674 0.010083942 0.27000001 -2.8349128e+38
0.038102418 0.01012129 0.27100003 -3.0217344e+38
0.00036722806 0.010521089 0.27000001 -2.3944433e+38
0.0012415209 0.010521089 0.27000001 -2.4078407e+38
0.0016786671 0.010521089 0.27000001 -2.4078411e+38
0.0021158135 0.010521089 0.27000001 -2.4078411e+38
0.0025624153 0.010560055 0.27100003 -2.4078411e+38
0.0030011809 0.010560055 0.27100003 -2.4078411e+38
0.0038787117 0.010560055 0.27100003 -2.3944967e+38
0.0051423581 0.011417329 0.29300001 -2.3546196e+38
0.0056167431 0.011417329 0.29300001 -2.3546196e+38
0.0061119166 0.011456296 0.294 -2.3412752e+38
0.0070398976 0.011417329 0.29300001 -2.3279312e+38
0.0075142821 0.011417329 0.29300001 -2.3012424e+38
0.0079886671 0.011417329 0.29300001 -2.287898e+38
0.0084630521 0.011417329 0.29300001 -2.287898e+38
0.0094118211 0.011417329 0.29300001 -2.4481345e+38
0.0098862061 0.011417329 0.29300001 -2.5015121e+38
0.010360591 0.011417329 0.29300001 -2.5282009e+38
0.010871956 0.011456296 0.294 -2.5548897e+38
0.011386557 0.011495263 0.29500002 -2.5949234e+38
0.012383641 0.01153423 0.296 -2.6481969e+38
0.012906338 0.011573197 0.29700002 -2.7015746e+38
0.013432274 0.011612165 0.29800001 -2.7016786e+38
0.013961447 0.011651131 0.29900002 -2.7016786e+38
0.01449386 0.011690099 0.30000001 -2.7149715e+38
0.014979579 0.011690099 0.30000001 -2.7283159e+38
0.015951015 0.011690099 0.30000001 -2.7550047e+38
0.016381944 0.011651131 0.29900002 -2.7550562e+38
0.016866041 0.011651131 0.29900002 -2.7684006e+38
0.017774595 0.011612165 0.29800001 -2.7950895e+38
0.01819581 0.011573197 0.29700002 -2.8216742e+38
0.01867667 0.011573197 0.29700002 -2.8216742e+38
0.019638393 0.011573197 0.29700002 -2.848363e+38
0.020119254 0.011573197 0.29700002 -2.8483115e+38
0.020600114 0.011573197 0.29700002 -2.8616559e+38
0.021561837 0.011573197 0.29700002 -2.8484156e+38
0.022042697 0.011573197 0.29700002 -2.86176e+38
0.02252356 0.011573197 0.29700002 -2.86176e+38
0.02300442 0.011573197 0.29700002 -2.9017932e+38
0.023966143 0.011573197 0.29700002 -2.86176e+38
0.024447003 0.011573197 0.29700002 -2.9017932e+38
0.024927864 0.011573197 0.29700002 -2.86176e+38
0.029758815 0.010404187 0.26700002 -2.6615414e+38
0.030191103 0.010404187 0.26700002 -2.6481969e+38
0.030623393 0.010404187 0.26700002 -2.6481969e+38
0.031055681 0.010404187 0.26700002 -2.6613852e+38
0.031920262 0.010404187 0.26700002 -2.6346448e+38
0.032352548 0.010404187 0.26700002 -2.6479893e+38
0.032784838 0.010404187 0.26700002 -2.6479893e+38
0.033217128 0.010404187 0.26700002 -2.6479893e+38
0.034081705 0.010404187 0.26700002 -2.6613337e+38
0.034643263 0.010443155 0.26800001 -2.6613337e+38
0.03507717 0.010443155 0.26800001 -2.6880225e+38
0.035511076 0.010443155 0.26800001 -2.6747296e+38
0.036378894 0.010443155 0.26800001 -2.6747296e+38
0.036950164 0.010482121 0.26900002 -2.7281072e+38
0.037524674 0.010521089 0.27000001 -2.8349128e+38
0.038102418 0.010560055 0.27100003 -3.0350788e+38
-0.00050706475 0.010958235 0.27000001 -2.83512e+38
-6.9918344e-05 0.010958235 0.27000001 -2.7016764e+38
0.00036722806 0.010958235 0.27000001 -2.5548879e+38
0.0012415209 0.010958235 0.27000001 -2.3945474e+38
0.0016786671 0.010958235 0.27000001 -2.3811518e+38
0.0021236499 0.010998821 0.27100003 -2.4078407e+38
0.0025529601 0.010958235 0.27000001 -2.4078411e+38
0.0030011809 0.010998821 0.27100003 -2.4078411e+38
0.0038787117 0.010998821 0.27100003 -2.4078411e+38
0.0051599089 0.011932299 0.294 -2.3546196e+38
0.005635913 0.011932299 0.294 -2.3546196e+38
0.0061119166 0.011932299 0.294 -2.3412752e+38
0.0070398976 0.011891714 0.29300001 -2.3279308e+38
0.0075142821 0.011891714 0.29300001 -2.3012424e+38
0.0079886671 0.011891714 0.29300001 -2.3012424e+38
0.0084630521 0.011891714 0.29300001 -2.3412756e+38
0.0094118211 0.011891714 0.29300001 -2.5281498e+38
0.0098862061 0.011891714 0.29300001 -2.568183e+38
0.010325231 0.011851128 0.29200003 -2.568183e+38
0.011309361 0.011891714 0.29300001 -2.6215607e+38
0.011823963 0.011932299 0.294 -2.6482495e+38
0.012299967 0.011932299 0.294 -2.6616454e+38
0.012862883 0.012013472 0.296 -2.7016786e+38
0.013387199 0.012054058 0.29700002 -2.715023e+38
0.013914754 0.012094645 0.29800001 -2.715023e+38
0.014445546 0.01213523 0.29900002 -2.7283674e+38
0.014929646 0.01213523 0.29900002 -2.7417118e+38
0.015897844 0.01213523 0.29900002 -2.7550562e+38
0.016327154 0.012094645 0.29800001 -2.7684006e+38
0.017234087 0.012054058 0.29700002 -2.7950895e+38
0.017714949 0.012054058 0.29700002 -2.7950895e+38
0.01819581 0.012054058 0.29700002 -2.8216742e+38
0.019093029 0.012013472 0.296 -2.848363e+38
0.019572271 0.012013472 0.296 -2.848363e+38
0.020051513 0.012013472 0.296 -2.8483115e+38
0.020530755 0.012013472 0.296 -2.8616559e+38
0.021489238 0.012013472 0.296 -2.8750003e+38
0.02196848 0.012013472 0.296 -2.8750003e+38
0.022447722 0.012013472 0.296 -2.8750003e+38
0.023406206 0.012013472 0.296 -2.9150335e+38
0.029106852 0.010755304 0.26500002 -2.7014184e+38
0.029535903 0.010755304 0.26500002 -2.688074e+38
0.030078029 0.010795891 0.266 -2.6747296e+38
0.030623393 0.010836476 0.26700002 -2.6747296e+38
0.031055681 0.010836476 0.26700002 -2.6613852e+38
0.031920262 0.010836476 0.26700002 -2.6479893e+38
0.032352548 0.010836476 0.26700002 -2.6613337e+38
0.032784838 0.010836476 0.26700002 -2.6479893e+38
0.033217128 0.010836476 0.26700002 -2.6613337e+38
0.034081705 0.010836476 0.26700002 -2.6746781e+38
0.034643263 0.010877063 0.26800001 -2.6613337e+38
0.03507717 0.010877063 0.26800001 -2.6880225e+38
0.035511076 0.010877063 0.26800001 -2.688074e+38
0.036378894 0.010877063 0.26800001 -2.6747296e+38
0.036950164 0.010917649 0.26900002 -2.7281072e+38
0.037524674 0.010958235 0.27000001 -2.8616016e+38
0.038102418 0.010998821 0.27100003 -3.0350788e+38
0.0012415209 0.011395381 0.27000001 -2.9552201e+38
0.0016786671 0.011395381 0.27000001 -2.7548463e+38
0.0021158135 0.011395381 0.27000001 -2.3945474e+38
0.0025529601 0.011395381 0.27000001 -2.3943922e+38
0.0034272529 0.011395381 0.27000001 -2.4078411e+38
0.0038787117 0.011437586 0.27100003 -2.4078411e+38
0.0088764299 0.012281689 0.29100001 -2.5148054e+38
0.0093475766 0.012281689 0.29100001 -2.5416504e+38
0.0098187234 0.012281689 0.29100001 -2.595028e+38
0.010761017 0.012281689 0.29100001 -2.6349051e+38
0.026961597 0.011184355 0.26500002 -2.7015746e+38
0.027390648 0.011184355 0.26500002 -2.7015746e+38
0.027819699 0.011184355 0.26500002 -2.714919e+38
0.02824875 0.011184355 0.26500002 -2.7015746e+38
0.029106852 0.011184355 0.26500002 -2.6748858e+38
0.029647358 0.011226561 0.266 -2.6615414e+38
0.030078029 0.011226561 0.266 -2.6481969e+38
0.030508699 0.011226561 0.266 -2.6481969e+38
0.031055681 0.011268766 0.26700002 -2.6348525e+38
0.031920262 0.011268766 0.26700002 -2.6613852e+38
0.032352548 0.011268766 0.26700002 -2.6613852e+38
0.032784838 0.011268766 0.26700002 -2.6613337e+38
0.033217128 0.011268766 0.26700002 -2.6613337e+38
0.034081705 0.011268766 0.26700002 -2.6746781e+38
0.034643263 0.011310971 0.26800001 -2.6746781e+38
0.03507717 0.011310971 0.26800001 -2.6880225e+38
0.035511076 0.011310971 0.26800001 -2.6481454e+38
0.036378894 0.011310971 0.26800001 -2.6481969e+38
0.036950164 0.011353176 0.26900002 -2.714919e+38
0.037524674 0.011395381 0.27000001 -2.8484133e+38
0.038102418 0.011437586 0.27100003 -3.0218906e+38
0.0051599089 0.012884308 0.294 -2.367964e+38
0.005635913 0.012884308 0.294 -2.367964e+38
0.0060911281 0.012840483 0.29300001 -2.3546196e+38
0.0070398976 0.012840483 0.29300001 -2.367964e+38
0.0074886368 0.012796659 0.29200003 -2.3680685e+38
0.011270762 0.012796659 0.29200003 -2.6882827e+38
0.011783745 0.012840483 0.29300001 -2.7016271e+38
0.01225813 0.012840483 0.29300001 -2.7016786e+38
0.012775972 0.012884308 0.294 -2.715023e+38
0.013821366 0.012971955 0.296 -2.7283674e+38
0.014397234 0.013059605 0.29800001 -2.7417118e+38
0.015362194 0.013059605 0.29800001 -2.7550562e+38
0.015791504 0.013015781 0.29700002 -2.7684006e+38
0.016272366 0.013015781 0.29700002 -2.7684006e+38
0.01717606 0.012971955 0.296 -2.8083298e+38
0.017655302 0.012971955 0.296 -2.8083298e+38
0.018550903 0.012928132 0.29500002 -2.8350186e+38
0.019028526 0.012928132 0.29500002 -2.8350186e+38
0.019572271 0.012971955 0.296 -2.848363e+38
0.020051513 0.012971955 0.296 -2.8349671e+38
0.020530755 0.012971955 0.296 -2.8616559e+38
0.021489238 0.012971955 0.296 -2.8616559e+38
0.02196848 0.012971955 0.296 -2.8750003e+38
0.022447722 0.012971955 0.296 -2.8750003e+38
0.023327131 0.012928132 0.29500002 -2.9016891e+38
0.0034272529 0.012269674 0.27000001 -2.5947134e+38
0.0038643992 0.012269674 0.27000001 -2.3945474e+38
0.004333409 0.012360561 0.27200001 -2.3813084e+38
0.0051423581 0.013314867 0.29300001 -2.3813084e+38
0.0056167431 0.013314867 0.29300001 -2.3813084e+38
0.0060703396 0.013269424 0.29200003 -2.3813084e+38
0.010254511 0.013178539 0.29000002 -2.6617501e+38
0.010761017 0.013223982 0.29100001 -2.6617501e+38
0.011232164 0.013223982 0.29100001 -2.7016271e+38
0.011703311 0.013223982 0.29100001 -2.7149715e+38
0.012216294 0.013269424 0.29200003 -2.715023e+38
0.013161826 0.013269424 0.29200003 -2.7417118e+38
0.014252296 0.013405755 0.29500002 -2.7417118e+38
0.014779851 0.013451197 0.296 -2.7550562e+38
0.015259093 0.013451197 0.296 -2.7550562e+38
0.015685165 0.013405755 0.29500002 -2.7684006e+38
0.016640412 0.013405755 0.29500002 -2.7684006e+38
0.017060006 0.013360312 0.294 -2.8083298e+38
0.017536009 0.013360312 0.294 -2.8083298e+38
0.018488016 0.013360312 0.294 -2.8216742e+38
0.018964021 0.013360312 0.294 -2.8216742e+38
0.019440025 0.013360312 0.294 -2.8350186e+38
0.01998377 0.013405755 0.29500002 -2.8350186e+38
0.020939017 0.013405755 0.29500002 -2.8616559e+38
0.021489238 0.013451197 0.296 -2.8483115e+38
0.02196848 0.013451197 0.296 -2.8750003e+38
0.022849509 0.013405755 0.29500002 -2.9016891e+38
0.025771327 0.012087901 0.266 -2.7015231e+38
0.026103493 0.012042457 0.26500002 -2.7015231e+38
0.026961597 0.012042457 0.26500002 -2.714919e+38
0.027390648 0.012042457 0.26500002 -2.714919e+38
0.027819699 0.012042457 0.26500002 -2.7282634e+38
0.02824875 0.012042457 0.26500002 -2.714919e+38
0.028786018 0.012087901 0.266 -2.714919e+38
0.029647358 0.012087901 0.266 -2.7015746e+38
0.030078029 0.012087901 0.266 -2.6614898e+38
0.030508699 0.012087901 0.266 -2.6614898e+38
0.031055681 0.012133344 0.26700002 -2.6614898e+38
0.031920262 0.012133344 0.26700002 -2.6615414e+38
0.032352548 0.012133344 0.26700002 -2.6615414e+38
0.032784838 0.012133344 0.26700002 -2.6481969e+38
0.033217128 0.012133344 0.26700002 -2.6481969e+38
0.034209352 0.012178788 0.26800001 -2.6615414e+38
0.034643263 0.012178788 0.26800001 -2.688074e+38
0.03507717 0.012178788 0.26800001 -2.7014184e+38
0.035511076 0.012178788 0.26800001 -2.6615414e+38
0.036079109 0.01222423 0.26900002 -2.6481969e+38
0.036650382 0.012269674 0.27000001 -2.7014176e+38
0.037524674 0.012269674 0.27000001 -2.9550635e+38
-0.0040635578 0.012895069 0.27400002 -3.0351304e+38
-0.0027127434 0.012800945 0.27200001 -3.0351304e+38
0.0034272529 0.01270682 0.27000001 -2.9283747e+38
0.0038787117 0.012753882 0.27100003 -2.7015198e+38
0.0043174773 0.012753882 0.27100003 -2.4211855e+38
0.0051423581 0.013789252 0.29300001 -2.4478743e+38
0.010724038 0.013648067 0.29000002 -2.675146e+38
0.011232164 0.013695128 0.29100001 -2.715023e+38
0.011703311 0.013695128 0.29100001 -2.715023e+38
0.012174457 0.013695128 0.29100001 -2.715023e+38
0.013161826 0.013742191 0.29200003 -2.7417118e+38
0.013634591 0.013742191 0.29200003 -2.7283674e+38
0.014155669 0.013789252 0.29300001 -2.7417118e+38
0.014679986 0.013836316 0.294 -2.7550562e+38
0.01515599 0.013836316 0.294 -2.7417118e+38
0.016053209 0.013789252 0.29300001 -2.7684006e+38
0.016471185 0.013742191 0.29200003 -2.7684006e+38
0.017416717 0.013742191 0.29200003 -2.8083298e+38
0.017889483 0.013742191 0.29200003 -2.8083298e+38
0.018362248 0.013742191 0.29200003 -2.8216742e+38
0.018835014 0.013742191 0.29200003 -2.8216742e+38
0.019373903 0.013789252 0.29300001 -2.8350186e+38
0.020392032 0.013836316 0.294 -2.8350186e+38
0.020868037 0.013836316 0.294 -2.848363e+38
0.02141664 0.013883377 0.29500002 -2.848363e+38
0.024909986 0.012518572 0.266 -2.7682451e+38
0.025674442 0.012471508 0.26500002 -2.7148675e+38
0.026103493 0.012471508 0.26500002 -2.7015231e+38
0.026961597 0.012471508 0.26500002 -2.714919e+38
0.027390648 0.012471508 0.26500002 -2.7282634e+38
0.027819699 0.012471508 0.26500002 -2.7282634e+38
0.028355347 0.012518572 0.266 -2.714919e+38
0.028786018 0.012518572 0.266 -2.714919e+38
0.029758815 0.012565633 0.26700002 -2.7015746e+38
0.030191103 0.012565633 0.26700002 -2.7015746e+38
0.030623393 0.012565633 0.26700002 -2.714919e+38
0.031055681 0.012565633 0.26700002 -2.7015742e+38
0.031920262 0.012565633 0.26700002 -2.7414508e+38
0.032352548 0.012565633 0.26700002 -2.7414508e+38
0.032784838 0.012565633 0.26700002 -2.7149182e+38
0.033341538 0.012612696 0.26800001 -2.7282626e+38
0.034209352 0.012612696 0.26800001 -2.7282626e+38
0.034643263 0.012612696 0.26800001 -2.7149182e+38
0.03507717 0.012612696 0.26800001 -2.7816402e+38
0.035511076 0.012612696 0.26800001 -2.7683473e+38
0.036079109 0.012659757 0.26900002 -2.8217249e+38
0.036650382 0.01270682 0.27000001 -2.8751021e+38
-0.0040783882 0.013387373 0.27500001 -2.9950971e+38
-0.0031763127 0.013338692 0.27400002 -2.9950971e+38
-0.0027227167 0.013290011 0.273 -3.021786e+38
-0.0018387095 0.013290011 0.273 -3.021786e+38
-0.001396706 0.013290011 0.273 -3.021786e+38
-0.00095120532 0.013241329 0.27200001 -3.0351304e+38
-7.0436261e-05 0.013241329 0.27200001 -3.0618192e+38
0.0038787117 0.013192647 0.27100003 -2.9417187e+38
0.011193565 0.014117594 0.29000002 -2.7150226e+38
0.011703311 0.014166275 0.29100001 -2.7150226e+38
0.012174457 0.014166275 0.29100001 -2.7150226e+38
0.01311675 0.014166275 0.29100001 -2.7417114e+38
0.013587898 0.014166275 0.29100001 -2.7417114e+38
0.014107357 0.014214956 0.29200003 -2.7417118e+38
0.014630054 0.014263637 0.29300001 -2.7550562e+38
0.015104439 0.014263637 0.29300001 -2.7417118e+38
0.015943632 0.014166275 0.29100001 -2.7550562e+38
0.016414778 0.014166275 0.29100001 -2.7684006e+38
0.017357072 0.014166275 0.29100001 -2.8083298e+38
0.017828219 0.014166275 0.29100001 -2.8083298e+38
0.018299365 0.014166275 0.29100001 -2.8083298e+38
0.019241657 0.014166275 0.29100001 -2.8350186e+38
0.019712804 0.014166275 0.29100001 -2.8216742e+38
0.020253312 0.014214956 0.29200003 -2.8216742e+38
0.024048647 0.012949241 0.266 -2.8349671e+38
0.024387289 0.012900559 0.26500002 -2.8216227e+38
0.025245391 0.012900559 0.26500002 -2.7682451e+38
0.025674442 0.012900559 0.26500002 -2.7282119e+38
0.026103493 0.012900559 0.26500002 -2.7148675e+38
0.026961597 0.012900559 0.26500002 -2.7282119e+38
0.027390648 0.012900559 0.26500002 -2.7282634e+38
0.027819699 0.012900559 0.26500002 -2.7416078e+38
0.028355347 0.012949241 0.266 -2.7282634e+38
0.028894236 0.012997922 0.26700002 -2.7416078e+38
0.029758815 0.012997922 0.26700002 -2.7816406e+38
0.030191103 0.012997922 0.26700002 -2.8350178e+38
0.030623393 0.012997922 0.26700002 -2.9017398e+38
0.031055681 0.012997922 0.26700002 -2.9151354e+38
0.031920262 0.012997922 0.26700002 -2.8883419e+38
0.032352548 0.012997922 0.26700002 -2.9950971e+38
0.032907628 0.013046604 0.26800001 -2.9285313e+38
0.033341538 0.013046604 0.26800001 -2.8618093e+38
0.034209352 0.013046604 0.26800001 -2.9285313e+38
-0.0031763127 0.013782314 0.27400002 -2.9950456e+38
-0.00273269 0.013782314 0.27400002 -2.9950456e+38
-0.0018387095 0.013732014 0.273 -2.9817527e+38
-0.001396706 0.013732014 0.273 -2.9817527e+38
-0.00095470232 0.013732014 0.273 -2.9817527e+38
-7.0436261e-05 0.013681713 0.27200001 -3.0351304e+38
0.00036994828 0.013681713 0.27200001 -3.0484748e+38
0.00081033277 0.013681713 0.27200001 -3.0618192e+38
0.023529187 0.013329611 0.26500002 -2.8616559e+38
0.023958238 0.013329611 0.26500002 -2.8483115e+38
0.024722693 0.013279309 0.264 -2.8216227e+38
0.025150126 0.013279309 0.264 -2.8082783e+38
0.025577558 0.013279309 0.264 -2.7549007e+38
0.026432423 0.013279309 0.264 -2.714919e+38
0.026859853 0.013279309 0.264 -2.7282634e+38
0.027390648 0.013329611 0.26500002 -2.7549518e+38
0.027819699 0.013329611 0.26500002 -2.8216738e+38
0.028355347 0.013379912 0.266 -2.8751025e+38
0.028894236 0.013430212 0.26700002 -2.8751025e+38
0.029758815 0.013430212 0.26700002 -2.9551686e+38
0.030191103 0.013430212 0.26700002 -2.9285838e+38
0.030623393 0.013430212 0.26700002 -2.9285838e+38
0.031055681 0.013430212 0.26700002 -2.9552201e+38
0.031920262 0.013430212 0.26700002 -2.9817523e+38
0.032473721 0.013480511 0.26800001 -2.9950967e+38
-0.0045400797 0.014329776 0.27600002 -2.9950971e+38
-0.0040783882 0.014277856 0.27500001 -2.9684083e+38
0.011154966 0.015004729 0.289 -2.715023e+38
0.011663093 0.015056649 0.29000002 -2.7283674e+38
0.012174457 0.015108569 0.29100001 -2.715023e+38
0.01311675 0.015108569 0.29100001 -2.7417118e+38
0.013587898 0.015108569 0.29100001 -2.7283674e+38
0.014059044 0.015108569 0.29100001 -2.7417118e+38
0.014580123 0.015160487 0.29200003 -2.7550562e+38
0.015472485 0.015108569 0.29100001 -2.7550562e+38
0.015943632 0.015108569 0.29100001 -2.7684006e+38
0.016827896 0.015056649 0.29000002 -2.781641e+38
0.017297424 0.015056649 0.29000002 -2.781641e+38
0.017766951 0.015056649 0.29000002 -2.781641e+38
0.018236479 0.015056649 0.29000002 -2.8083298e+38
0.019241657 0.015108569 0.29100001 -2.8216742e+38
0.019712804 0.015108569 0.29100001 -2.8216742e+38
0.020183951 0.015108569 0.29100001 -2.8083298e+38
0.020655097 0.015108569 0.29100001 -2.8216742e+38
-0.0045565297 0.014830176 0.27700001 -2.9950971e+38
-0.0040783882 0.014723098 0.27500001 -2.9817527e+38
-0.0031879051 0.014723098 0.27500001 -2.9683568e+38
-0.00273269 0.01466956 0.27400002 -2.9817012e+38
-0.0022890673 0.01466956 0.27400002 -2.9683568e+38
-0.001396706 0.014616022 0.273 -2.9550124e+38
-0.00095470232 0.014616022 0.273 -2.9284798e+38
-0.00051269878 0.014616022 0.273 -2.9418242e+38
0.00037130836 0.014616022 0.273 -2.968513e+38
0.00081331196 0.014616022 0.273 -2.9952018e+38
0.0012553156 0.014616022 0.273 -3.0218906e+38
0.012090784 0.015472637 0.289 -2.715023e+38
0.012602149 0.015526177 0.29000002 -2.7283674e+38
0.013071676 0.015526177 0.29000002 -2.7417118e+38
0.013541203 0.015526177 0.29000002 -2.7417118e+38
0.014059044 0.015579715 0.29100001 -2.7417118e+38
0.015001338 0.015579715 0.29100001 -2.7550562e+38
0.015472485 0.015579715 0.29100001 -2.7550562e+38
0.01588884 0.015526177 0.29000002 -2.7684006e+38
0.016827896 0.015526177 0.29000002 -2.7684006e+38
0.017297424 0.015526177 0.29000002 -2.7684006e+38
0.017766951 0.015526177 0.29000002 -2.781641e+38
0.018236479 0.015526177 0.29000002 -2.781641e+38
0.019175535 0.015526177 0.29000002 -2.8216742e+38
0.019645061 0.015526177 0.29000002 -2.8083298e+38
0.020114589 0.015526177 0.29000002 -2.8083298e+38
0.021053644 0.015526177 0.29000002 -2.8216742e+38
0.023529187 0.014187713 0.26500002 -2.848363e+38
0.023867831 0.014134174 0.264 -2.8350186e+38
0.024629047 0.014080636 0.26300001 -2.8349671e+38
0.025150126 0.014134174 0.264 -2.8349671e+38
0.025577558 0.014134174 0.264 -2.8216227e+38
0.026432423 0.014134174 0.264 -2.875051e+38
0.026859853 0.014134174 0.264 -2.9284287e+38
0.027390648 0.014187713 0.26500002 -2.9552201e+38
0.027819699 0.014187713 0.26500002 -2.9552201e+38
0.028355347 0.014241252 0.266 -2.9418757e+38
0.028894236 0.01429479 0.26700002 -2.9418757e+38
0.029758815 0.01429479 0.26700002 -2.9285313e+38
0.030191103 0.01429479 0.26700002 -2.9285313e+38
0.030738087 0.014348328 0.26800001 -2.9285313e+38
0.031171994 0.014348328 0.26800001 -2.9550639e+38
0.031605903 0.014348328 0.26800001 -2.9684083e+38
0.032473721 0.014348328 0.26800001 -2.9816483e+38
0.032907628 0.014348328 0.26800001 -2.9684079e+38
0.033341538 0.014348328 0.26800001 -2.9550635e+38
0.033901472 0.014401867 0.26900002 -2.9550635e+38
0.034772526 0.014401867 0.26900002 -2.9550635e+38
0.035338942 0.014455406 0.27000001 -2.9417191e+38
0.03577609 0.014455406 0.27000001 -2.9417191e+38
0.036213234 0.014455406 0.27000001 -2.9283747e+38
0.036786124 0.014508944 0.27100003 -2.9149258e+38
-0.0045565297 0.015278655 0.27700001 -2.9685645e+38
-0.0040932186 0.015223498 0.27600002 -2.9552201e+38
-0.0031879051 0.015168339 0.27500001 -2.9284798e+38
-0.00273269 0.015113182 0.27400002 -2.9284798e+38
-0.0022890673 0.015113182 0.27400002 -2.9284798e+38
-0.0014018221 0.015113182 0.27400002 -2.9284798e+38
-0.00095470232 0.015058025 0.273 -2.9151354e+38
-0.00051269878 0.015058025 0.273 -2.9284798e+38
0.00037130836 0.015058025 0.273 -2.9551686e+38
0.00081331196 0.015058025 0.273 -2.968513e+38
0.0012553156 0.015058025 0.273 -3.0085462e+38
0.0058484599 0.014396133 0.26100001 -2.6483002e+38
0.012090784 0.015940545 0.289 -2.715023e+38
0.012602149 0.015995704 0.29000002 -2.7283674e+38
0.013071676 0.015995704 0.29000002 -2.7417118e+38
0.013541203 0.015995704 0.29000002 -2.7417118e+38
0.01401073 0.015995704 0.29000002 -2.7550562e+38
0.014949786 0.015995704 0.29000002 -2.7550562e+38
0.015419314 0.015995704 0.29000002 -2.7550562e+38
0.01588884 0.015995704 0.29000002 -2.7550562e+38
0.016827896 0.015995704 0.29000002 -2.7684006e+38
0.017237777 0.015940545 0.289 -2.7550562e+38
0.017705686 0.015940545 0.289 -2.7550562e+38
0.018236479 0.015995704 0.29000002 -2.7684006e+38
0.019175535 0.015995704 0.29000002 -2.7950895e+38
0.019645061 0.015995704 0.29000002 -2.8083298e+38
0.020114589 0.015995704 0.29000002 -2.8083298e+38
0.021053644 0.015995704 0.29000002 -2.8083298e+38
0.02335161 0.014506449 0.26300001 -2.8748957e+38
0.024111206 0.014451291 0.26200002 -2.8350186e+38
0.024629047 0.014506449 0.26300001 -2.8483115e+38
0.025054861 0.014506449 0.26300001 -2.8483115e+38
0.025480675 0.014506449 0.26300001 -2.8350186e+38
0.0263323 0.014506449 0.26300001 -2.9551686e+38
0.026859853 0.014561606 0.264 -2.9551686e+38
0.027287286 0.014561606 0.264 -2.9552201e+38
0.027819699 0.014616764 0.26500002 -2.9418757e+38
0.028355347 0.014671922 0.266 -2.9550639e+38
0.028894236 0.014727079 0.26700002 -2.9283751e+38
0.029758815 0.014727079 0.26700002 -2.8883419e+38
0.030304179 0.014782236 0.26800001 -2.8882378e+38
0.030738087 0.014782236 0.26800001 -2.9015822e+38
0.031171994 0.014782236 0.26800001 -2.9015818e+38
0.031605903 0.014782236 0.26800001 -2.9149262e+38
0.032473721 0.014782236 0.26800001 -2.9149262e+38
0.032907628 0.014782236 0.26800001 -2.9283747e+38
0.033465944 0.014837394 0.26900002 -2.9016859e+38
0.033901472 0.014837394 0.26900002 -2.9016859e+38
0.03446465 0.014892552 0.27000001 -2.8883415e+38
0.035338942 0.014892552 0.27000001 -2.8883415e+38
0.035908591 0.014947709 0.27100003 -2.9015818e+38
0.036347356 0.014947709 0.27100003 -2.8882374e+38
-0.0045565297 0.015727134 0.27700001 -2.9685645e+38
-0.0040932186 0.015670359 0.27600002 -2.9552201e+38
-0.0031879051 0.015613581 0.27500001 -2.9284798e+38
-0.0027426635 0.015613581 0.27500001 -2.9284798e+38
-0.0022890673 0.015556805 0.27400002 -2.9284798e+38
-0.0014018221 0.015556805 0.27400002 -2.9151354e+38
-0.00095470232 0.015500029 0.273 -2.9151354e+38
-0.00051269878 0.015500029 0.273 -2.9151354e+38
0.00037130836 0.015500029 0.273 -2.9418242e+38
0.00081331196 0.015500029 0.273 -2.9551686e+38
0.0012553156 0.015500029 0.273 -2.9952018e+38
0.0050033103 0.014818707 0.26100001 -2.7816917e+38
0.0058260527 0.014761931 0.26000002 -2.6616446e+38
0.0062470082 0.014761931 0.26000002 -2.6483002e+38
0.007930832 0.014761931 0.26000002 -2.6618012e+38
0.008351787 0.014761931 0.26000002 -2.675146e+38
0.0087727429 0.014761931 0.26000002 -2.675146e+38
0.014949786 0.016465232 0.29000002 -2.7550562e+38
0.01588884 0.016465232 0.29000002 -2.7550562e+38
0.016769869 0.016408455 0.289 -2.7684006e+38
0.019109411 0.016408455 0.289 -2.7950895e+38
0.019577321 0.016408455 0.289 -2.7950895e+38
0.023687012 0.014875486 0.26200002 -2.8482069e+38
0.024111206 0.014875486 0.26200002 -2.8615513e+38
0.024535401 0.014875486 0.26200002 -2.8349671e+38
0.024959594 0.014875486 0.26200002 -2.8483115e+38
0.025807982 0.014875486 0.26200002 -2.9551179e+38
0.0263323 0.014932262 0.26300001 -2.9685645e+38
0.026758112 0.014932262 0.26300001 -2.9552201e+38
0.027287286 0.014989038 0.264 -2.9285309e+38
0.027819699 0.015045816 0.26500002 -2.9151865e+38
0.028355347 0.015102592 0.266 -2.9149262e+38
0.028894236 0.015159369 0.26700002 -2.874893e+38
0.029436361 0.015216145 0.26800001 -2.8615486e+38
0.030304179 0.015216145 0.26800001 -2.8215158e+38
0.030738087 0.015216145 0.26800001 -2.8482046e+38
0.031171994 0.015216145 0.26800001 -2.8482042e+38
0.031605903 0.015216145 0.26800001 -2.8615486e+38
0.032473721 0.015216145 0.26800001 -2.8615486e+38
0.033030417 0.015272922 0.26900002 -2.8616531e+38
0.033465944 0.015272922 0.26900002 -2.8749975e+38
0.034027502 0.015329698 0.27000001 -2.8616527e+38
0.03446465 0.015329698 0.27000001 -2.8616527e+38
0.035031062 0.015386474 0.27100003 -2.8615486e+38
0.035908591 0.015386474 0.27100003 -2.8748926e+38
0.036347356 0.015386474 0.27100003 -2.8748926e+38
0.0079003274 0.015124491 0.259 -2.7016782e+38
0.0083196647 0.015124491 0.259 -2.7016786e+38
0.0091583384 0.015124491 0.259 -2.715023e+38
0.0095776748 0.015124491 0.259 -2.715023e+38
0.0099970112 0.015124491 0.259 -2.7283674e+38
0.010835685 0.015124491 0.259 -2.7283674e+38
-0.0045565297 0.016624095 0.27700001 -2.9685645e+38
-0.0040932186 0.01656408 0.27600002 -2.9418757e+38
-0.0036463579 0.01656408 0.27600002 -2.9284798e+38
-0.0027426635 0.016504064 0.27500001 -2.9284798e+38
-0.0022974217 0.016504064 0.27500001 -2.9151354e+38
-0.0014018221 0.01644405 0.27400002 -2.9151354e+38
-0.00095819944 0.01644405 0.27400002 -2.901895e+38
-0.00051457679 0.01644405 0.27400002 -2.901895e+38
-7.0954171e-05 0.01644405 0.27400002 -2.9152394e+38
0.00081629114 0.01644405 0.27400002 -2.9419282e+38
0.0012599138 0.01644405 0.27400002 -2.9552726e+38
0.0017035365 0.01644405 0.27400002 -2.9953058e+38
0.0050033103 0.015663857 0.26100001 -2.8350689e+38
0.0058260527 0.015603843 0.26000002 -2.6749365e+38
0.0062470082 0.015603843 0.26000002 -2.6749365e+38
0.0066679642 0.015603843 0.26000002 -2.6616446e+38
0.0075098756 0.015603843 0.26000002 -2.7016782e+38
0.023174029 0.015663857 0.26100001 -2.8615513e+38
0.023596603 0.015663857 0.26100001 -2.8482069e+38
0.024111206 0.015723873 0.26200002 -2.8615513e+38
0.024535401 0.015723873 0.26200002 -2.8350186e+38
0.024959594 0.015723873 0.26200002 -2.9017407e+38
0.025480675 0.015783887 0.26300001 -2.9952018e+38
0.0263323 0.015783887 0.26300001 -2.9285313e+38
0.026859853 0.015843902 0.264 -2.8618093e+38
0.027287286 0.015843902 0.264 -2.8615482e+38
0.027924677 0.015963932 0.266 -2.821515e+38
0.028461946 0.016023947 0.26700002 -2.8081706e+38
0.028894236 0.016023947 0.26700002 -2.7948262e+38
0.029436361 0.016083961 0.26800001 -2.7814822e+38
0.030304179 0.016083961 0.26800001 -2.794827e+38
0.030738087 0.016083961 0.26800001 -2.8081714e+38
0.031171994 0.016083961 0.26800001 -2.8081714e+38
0.031723835 0.016143976 0.26900002 -2.8081714e+38
0.032159362 0.016143976 0.26900002 -2.8215158e+38
0.033030417 0.016143976 0.26900002 -2.8082755e+38
0.033465944 0.016143976 0.26900002 -2.8082755e+38
0.034027502 0.01620399 0.27000001 -2.8082755e+38
0.034592297 0.016264005 0.27100003 -2.8082755e+38
0.035031062 0.016264005 0.27100003 -2.8082755e+38
0.035908591 0.016264005 0.27100003 -2.8082751e+38
0.036347356 0.016264005 0.27100003 -2.8349639e+38
-0.0036463579 0.01701094 0.27600002 -2.9151354e+38
-0.0027426635 0.016949305 0.27500001 -2.9284798e+38
-0.0022974217 0.016949305 0.27500001 -2.9151354e+38
-0.00185218 0.016949305 0.27500001 -2.9151354e+38
-0.00096169661 0.016949305 0.27500001 -2.901895e+38
-0.00051457679 0.016887672 0.27400002 -2.9152394e+38
-7.0954171e-05 0.016887672 0.27400002 -2.9152394e+38
0.00081629114 0.016887672 0.27400002 -2.9419282e+38
0.001264512 0.016949305 0.27500001 -2.9552726e+38
0.0017097536 0.016949305 0.27500001 -2.9953058e+38
0.0054050968 0.016024798 0.26000002 -2.7283652e+38
0.0058260527 0.016024798 0.26000002 -2.7016253e+38
0.0062470082 0.016024798 0.26000002 -2.6749365e+38
0.0066679642 0.016024798 0.26000002 -2.7015738e+38
0.0074809911 0.015963165 0.259 -2.7016782e+38
0.0079003274 0.015963165 0.259 -2.7016782e+38
0.0083196647 0.015963165 0.259 -2.7016782e+38
0.0091583384 0.015963165 0.259 -2.7416074e+38
0.0095776748 0.015963165 0.259 -2.728263e+38
0.0099970112 0.015963165 0.259 -2.7416078e+38
0.010835685 0.015963165 0.259 -2.7549522e+38
0.011255022 0.015963165 0.259 -2.7682966e+38
0.011674359 0.015963165 0.259 -2.7682962e+38
0.012093695 0.015963165 0.259 -2.7816406e+38
0.012932369 0.015963165 0.259 -2.7684002e+38
0.013300154 0.015901532 0.25800002 -2.7550558e+38
0.013717872 0.015901532 0.25800002 -2.7684002e+38
0.014553307 0.015901532 0.25800002 -2.7684002e+38
0.014971024 0.015901532 0.25800002 -2.7684002e+38
0.01544839 0.015963165 0.259 -2.7950891e+38
0.015867727 0.015963165 0.259 -2.7950891e+38
0.021738442 0.015963165 0.259 -2.8350186e+38
0.022577114 0.015963165 0.259 -2.8350186e+38
0.022996452 0.015963165 0.259 -2.8350186e+38
0.023596603 0.016086431 0.26100001 -2.8216742e+38
0.02401918 0.016086431 0.26100001 -2.8350186e+38
0.024441754 0.016086431 0.26100001 -2.8483626e+38
0.024959594 0.016148066 0.26200002 -2.9284291e+38
0.025807982 0.016148066 0.26200002 -2.9685645e+38
0.0263323 0.016209701 0.26300001 -2.9016863e+38
0.026859853 0.016271334 0.264 -2.8349643e+38
0.027390648 0.016332969 0.26500002 -2.7948262e+38
0.027924677 0.016394602 0.266 -2.7814818e+38
0.028461946 0.016456235 0.26700002 -2.7681374e+38
0.028894236 0.016456235 0.26700002 -2.7681374e+38
0.029436361 0.016517868 0.26800001 -2.7415534e+38
0.030304179 0.016517868 0.26800001 -2.7682422e+38
0.030738087 0.016517868 0.26800001 -2.7949311e+38
0.031288307 0.016579503 0.26900002 -2.7815866e+38
0.031723835 0.016579503 0.26900002 -2.7815866e+38
0.032159362 0.016579503 0.26900002 -2.7815866e+38
0.033030417 0.016579503 0.26900002 -2.7949311e+38
0.033590358 0.016641138 0.27000001 -2.7949311e+38
0.034027502 0.016641138 0.27000001 -2.8082755e+38
0.034592297 0.016702771 0.27100003 -2.8082755e+38
0.035031062 0.016702771 0.27100003 -2.7949311e+38
0.035908591 0.016702771 0.27100003 -2.8082751e+38
0.036481481 0.016764404 0.27200001 -2.8082751e+38
-0.0036463579 0.017457802 0.27600002 -2.9151354e+38
-0.0027526368 0.017457802 0.27600002 -2.9284798e+38
-0.0023057759 0.017457802 0.27600002 -2.9151354e+38
-0.0018589152 0.017457802 0.27600002 -2.9151354e+38
-0.00096169661 0.017394548 0.27500001 -2.901895e+38
-0.00051645486 0.017394548 0.27500001 -2.9152394e+38
-7.121313e-05 0.017394548 0.27500001 -2.9152394e+38
0.00037402858 0.017394548 0.27500001 -2.9285838e+38
0.001264512 0.017394548 0.27500001 -2.9819614e+38
0.0054050968 0.016445754 0.26000002 -2.7417096e+38
0.0058260527 0.016445754 0.26000002 -2.7016253e+38
0.0062470082 0.016445754 0.26000002 -2.6749365e+38
0.0070616542 0.016382502 0.259 -2.7149186e+38
0.0074809911 0.016382502 0.259 -2.7016782e+38
0.0079003274 0.016382502 0.259 -2.7016782e+38
0.0083196647 0.016382502 0.259 -2.7150226e+38
0.0091583384 0.016382502 0.259 -2.7416074e+38
0.0095776748 0.016382502 0.259 -2.7416074e+38
0.0099970112 0.016382502 0.259 -2.7416078e+38
0.010835685 0.016382502 0.259 -2.7549522e+38
0.011255022 0.016382502 0.259 -2.7682966e+38
0.011674359 0.016382502 0.259 -2.7682962e+38
0.012093695 0.016382502 0.259 -2.7816406e+38
0.012932369 0.016382502 0.259 -2.7816406e+38
0.013351706 0.016382502 0.259 -2.7684002e+38
0.013717872 0.016319249 0.25800002 -2.7684002e+38
0.014553307 0.016319249 0.25800002 -2.7684002e+38
0.014971024 0.016319249 0.25800002 -2.7950886e+38
0.015388742 0.016319249 0.25800002 -2.8084331e+38
0.016224178 0.016319249 0.25800002 -2.8084331e+38
0.016641896 0.016319249 0.25800002 -2.8084331e+38
0.017059613 0.016319249 0.25800002 -2.8217775e+38
0.017477332 0.016319249 0.25800002 -2.8350178e+38
0.018312765 0.016319249 0.25800002 -2.8216738e+38
0.018803084 0.016382502 0.259 -2.8216738e+38
0.019148201 0.016319249 0.25800002 -2.8216738e+38
0.019983636 0.016319249 0.25800002 -2.8216742e+38
0.020480432 0.016382502 0.259 -2.8216742e+38
0.020899767 0.016382502 0.259 -2.8350186e+38
0.021319104 0.016382502 0.259 -2.8216742e+38
0.021738442 0.016382502 0.259 -2.8216742e+38
0.022577114 0.016382502 0.259 -2.8350186e+38
0.022996452 0.016382502 0.259 -2.8350186e+38
0.023506196 0.016445754 0.26000002 -2.8216742e+38
0.02401918 0.016509008 0.26100001 -2.8350186e+38
0.024535401 0.016572261 0.26200002 -2.8483626e+38
0.024959594 0.016572261 0.26200002 -2.9684623e+38
0.026432423 0.016698766 0.264 -2.8749971e+38
0.026961597 0.01676202 0.26500002 -2.7682418e+38
0.027494008 0.016825272 0.266 -2.7547934e+38
0.027924677 0.016825272 0.266 -2.7681378e+38
0.028461946 0.016888525 0.26700002 -2.7414486e+38
0.028894236 0.016888525 0.26700002 -2.7414486e+38
0.029436361 0.016951777 0.26800001 -2.7415534e+38
0.030304179 0.016951777 0.26800001 -2.7548978e+38
0.03085278 0.017015031 0.26900002 -2.7815866e+38
0.031288307 0.017015031 0.26900002 -2.7682422e+38
0.031723835 0.017015031 0.26900002 -2.7682422e+38
0.032159362 0.017015031 0.26900002 -2.7815866e+38
0.03315321 0.017078284 0.27000001 -2.7949311e+38
0.033590358 0.017078284 0.27000001 -2.7949311e+38
0.034027502 0.017078284 0.27000001 -2.8082755e+38
0.034592297 0.017141536 0.27100003 -2.7949311e+38
0.035031062 0.017141536 0.27100003 -2.7949306e+38
0.035600711 0.017204789 0.27200001 -2.8082751e+38
0.036481481 0.017204789 0.27200001 -2.8082751e+38
-0.0041228803 0.018034406 0.27800003 -2.9552201e+38
-0.0036595699 0.017969534 0.27700001 -2.9152394e+38
-0.0032110899 0.017969534 0.27700001 -2.901895e+38
-0.0023141301 0.017969534 0.27700001 -2.901895e+38
-0.0018656503 0.017969534 0.27700001 -2.901895e+38
-0.0014120544 0.017904662 0.27600002 -2.901895e+38
-0.00051833288 0.017904662 0.27600002 -2.9152394e+38
-7.1472088e-05 0.017904662 0.27600002 -2.9152394e+38
0.00037538868 0.017904662 0.27600002 -2.9419282e+38
0.0012691102 0.017904662 0.27600002 -2.9819614e+38
0.001715971 0.017904662 0.27600002 -2.9819614e+38
0.0050033103 0.016931582 0.26100001 -2.8751537e+38
0.0058260527 0.01686671 0.26000002 -2.7016253e+38
0.0062470082 0.01686671 0.26000002 -2.7016253e+38
0.0070616542 0.016801838 0.259 -2.7015742e+38
0.0074809911 0.016801838 0.259 -2.7016782e+38
0.0079003274 0.016801838 0.259 -2.7016782e+38
0.0083196647 0.016801838 0.259 -2.7150226e+38
0.0091583384 0.016801838 0.259 -2.7416074e+38
0.0095776748 0.016801838 0.259 -2.7416074e+38
0.0099970112 0.016801838 0.259 -2.7549518e+38
0.010835685 0.016801838 0.259 -2.7682962e+38
0.011255022 0.016801838 0.259 -2.7682962e+38
0.011674359 0.016801838 0.259 -2.7816406e+38
0.012093695 0.016801838 0.259 -2.7816406e+38
0.012932369 0.016801838 0.259 -2.7816406e+38
0.013351706 0.016801838 0.259 -2.7816406e+38
0.013771043 0.016801838 0.259 -2.7816406e+38
0.014553307 0.016736967 0.25800002 -2.8083294e+38
0.014971024 0.016736967 0.25800002 -2.7950886e+38
0.015388742 0.016736967 0.25800002 -2.8084331e+38
0.016224178 0.016736967 0.25800002 -2.8217775e+38
0.016641896 0.016736967 0.25800002 -2.8217775e+38
0.017059613 0.016736967 0.25800002 -2.8217775e+38
0.017477332 0.016736967 0.25800002 -2.8350178e+38
0.018312765 0.016736967 0.25800002 -2.8350182e+38
0.018730484 0.016736967 0.25800002 -2.8350182e+38
0.019148201 0.016736967 0.25800002 -2.8350182e+38
0.019641757 0.016801838 0.259 -2.8216738e+38
0.020480432 0.016801838 0.259 -2.8216738e+38
0.020899767 0.016801838 0.259 -2.8350182e+38
0.021319104 0.016801838 0.259 -2.8216738e+38
0.021738442 0.016801838 0.259 -2.8216738e+38
0.022577114 0.016801838 0.259 -2.8350182e+38
0.02308524 0.01686671 0.26000002 -2.8350182e+38
0.023506196 0.01686671 0.26000002 -2.8350182e+38
0.02401918 0.016931582 0.26100001 -2.8350182e+38
0.024535401 0.016996454 0.26200002 -2.9151358e+38
0.025054861 0.017061327 0.26300001 -2.9952022e+38
0.026632667 0.017255943 0.266 -2.8483083e+38
0.027494008 0.017255943 0.266 -2.7282086e+38
0.028029658 0.017320814 0.26700002 -2.741553e+38
0.028461946 0.017320814 0.26700002 -2.7015194e+38
0.029002454 0.017385686 0.26800001 -2.7015194e+38
0.029436361 0.017385686 0.26800001 -2.7282086e+38
0.030304179 0.017385686 0.26800001 -2.741553e+38
0.03085278 0.017450558 0.26900002 -2.7682418e+38
0.031288307 0.017450558 0.26900002 -2.7682418e+38
0.031723835 0.017450558 0.26900002 -2.7682418e+38
0.032278918 0.01751543 0.27000001 -2.7682422e+38
0.03315321 0.01751543 0.27000001 -2.7815866e+38
0.033590358 0.01751543 0.27000001 -2.7949311e+38
0.034153529 0.017580302 0.27100003 -2.7949311e+38
0.034592297 0.017580302 0.27100003 -2.7949311e+38
0.035160325 0.017645173 0.27200001 -2.7949306e+38
0.035600711 0.017645173 0.27200001 -2.7949306e+38
0.036615603 0.017710047 0.273 -2.7949306e+38
-0.0036727812 0.018934604 0.27800003 -2.9285313e+38
-0.0032110899 0.018866492 0.27700001 -2.9151869e+38
-0.0023141301 0.018866492 0.27700001 -2.8885506e+38
-0.0018656503 0.018866492 0.27700001 -2.901895e+38
-0.0014171705 0.018866492 0.27700001 -2.901895e+38
-0.00052021089 0.018866492 0.27700001 -2.901895e+38
-7.1731039e-05 0.018866492 0.27700001 -2.9152394e+38
0.00037538868 0.018798383 0.27600002 -2.9285838e+38
0.0012691102 0.018798383 0.27600002 -2.9819614e+38
0.0058484599 0.017776731 0.26100001 -2.8882378e+38
0.0062470082 0.017708622 0.26000002 -2.7681382e+38
0.0066679642 0.017708622 0.26000002 -2.7415023e+38
0.0074809911 0.017640512 0.259 -2.7547952e+38
0.0079003274 0.017640512 0.259 -2.7681396e+38
0.0083196647 0.017640512 0.259 -2.7416074e+38
0.0091583384 0.017640512 0.259 -2.7549518e+38
0.0095776748 0.017640512 0.259 -2.7549518e+38
0.0099970112 0.017640512 0.259 -2.7816406e+38
0.010835685 0.017640512 0.259 -2.7816406e+38
0.011255022 0.017640512 0.259 -2.7816406e+38
0.011674359 0.017640512 0.259 -2.7816406e+38
0.012093695 0.017640512 0.259 -2.8083294e+38
0.012932369 0.017640512 0.259 -2.808329e+38
0.013351706 0.017640512 0.259 -2.7816402e+38
0.013771043 0.017640512 0.259 -2.7816402e+38
0.014609717 0.017640512 0.259 -2.5414924e+38
0.014971024 0.017572403 0.25800002 -2.568025e+38
0.015388742 0.017572403 0.25800002 -2.6080583e+38
0.016224178 0.017572403 0.25800002 -2.7683473e+38
0.016641896 0.017572403 0.25800002 -2.8484137e+38
0.017059613 0.017572403 0.25800002 -2.8350693e+38
0.017477332 0.017572403 0.25800002 -2.8483622e+38
0.018312765 0.017572403 0.25800002 -2.8483622e+38
0.018730484 0.017572403 0.25800002 -2.8483622e+38
0.01922242 0.017640512 0.259 -2.8483622e+38
0.019641757 0.017640512 0.259 -2.8350178e+38
0.020480432 0.017640512 0.259 -2.8350178e+38
0.020899767 0.017640512 0.259 -2.8483626e+38
0.021319104 0.017640512 0.259 -2.8350182e+38
0.021738442 0.017640512 0.259 -2.8350182e+38
0.022577114 0.017640512 0.259 -2.8483626e+38
0.02308524 0.017708622 0.26000002 -2.8483626e+38
0.023506196 0.017708622 0.26000002 -2.8350178e+38
0.02401918 0.017776731 0.26100001 -2.875051e+38
0.024535401 0.017844843 0.26200002 -2.9952533e+38
0.025054861 0.017912952 0.26300001 -2.9952533e+38
0.026103493 0.018049173 0.26500002 -2.8883411e+38
0.026632667 0.018117283 0.266 -2.754793e+38
0.027165079 0.018185392 0.26700002 -2.7014154e+38
0.028029658 0.018185392 0.26700002 -2.6616424e+38
0.028461946 0.018185392 0.26700002 -2.6616424e+38
0.029002454 0.018253502 0.26800001 -2.6749868e+38
0.029436361 0.018253502 0.26800001 -2.6749872e+38
0.029981727 0.018321613 0.26900002 -2.701676e+38
0.03085278 0.018321613 0.26900002 -2.7150204e+38
0.031404626 0.018389722 0.27000001 -2.7283648e+38
0.03184177 0.018389722 0.27000001 -2.7283648e+38
0.032278918 0.018389722 0.27000001 -2.7417096e+38
0.03315321 0.018389722 0.27000001 -2.755054e+38
0.033714764 0.018457832 0.27100003 -2.755054e+38
0.034153529 0.018457832 0.27100003 -2.755054e+38
0.03471994 0.018525941 0.27200001 -2.7683984e+38
0.035160325 0.018525941 0.27200001 -2.7683984e+38
0.035731595 0.018594053 0.273 -2.7683984e+38
0.036306102 0.018662162 0.27400002 -2.768398e+38
-0.0036859927 0.019454431 0.27900001 -2.9152909e+38
-0.0032226823 0.019384703 0.27800003 -2.9019465e+38
-0.0027725834 0.019384703 0.27800003 -2.901895e+38
-0.0018723856 0.019384703 0.27800003 -2.901895e+38
-0.0014171705 0.019314973 0.27700001 -2.901895e+38
-0.00052021089 0.019314973 0.27700001 -2.901895e+38
-7.1731039e-05 0.019314973 0.27700001 -2.9152394e+38
0.00037674879 0.019314973 0.27700001 -2.9285838e+38
0.00082522864 0.019314973 0.27700001 -2.9419282e+38
0.0066679642 0.018129578 0.26000002 -2.8882378e+38
0.0075098756 0.018129578 0.26000002 -2.8082239e+38
0.0079003274 0.018059848 0.259 -2.8082239e+38
0.0083196647 0.018059848 0.259 -2.7948799e+38
0.0091583384 0.018059848 0.259 -2.7683473e+38
0.0095776748 0.018059848 0.259 -2.7683473e+38
