# .PCD v0.7 - Point Cloud Data file format
VERSION 0.7
FIELDS x y z rgb
SIZE 4 4 4 4
TYPE F F F F
COUNT 1 1 1 1
WIDTH 970
HEIGHT 1
VIEWPOINT 0 0 0 1 0 0 0
POINTS 970
DATA ascii
0.013867216 0.033129539 0.26900002 -2.8352245e+38
0.01473827 0.033129539 0.26900002 -2.8218801e+38
0.015173797 0.033129539 0.26900002 -2.8218801e+38
0.015609325 0.033129539 0.26900002 -2.8218801e+38
0.016044853 0.033129539 0.26900002 -2.8218801e+38
0.016915908 0.033129539 0.26900002 -2.8218801e+38
0.017351435 0.033129539 0.26900002 -2.8218801e+38
0.017786961 0.033129539 0.26900002 -2.8085357e+38
0.018222488 0.033129539 0.26900002 -2.8218801e+38
0.019093543 0.033129539 0.26900002 -2.8085357e+38
0.019529071 0.033129539 0.26900002 -2.7951913e+38
0.019964598 0.033129539 0.26900002 -2.8084316e+38
0.020758199 0.033006381 0.26800001 -2.8084316e+38
0.02127118 0.033129539 0.26900002 -2.7817428e+38
0.021706708 0.033129539 0.26900002 -2.7817428e+38
0.022306861 0.033375859 0.27100003 -2.7683984e+38
0.022913491 0.033622172 0.273 -2.7550536e+38
0.023441046 0.033745334 0.27400002 -2.7550536e+38
0.024410279 0.033252697 0.27000001 -2.7018311e+38
0.025868211 0.032883223 0.26700002 -2.5685429e+38
0.026300501 0.032883223 0.26700002 -2.541854e+38
0.028080756 0.033991646 0.27600002 -2.5952321e+38
0.028630977 0.034114804 0.27700001 -2.5952321e+38
0.029954335 0.034607437 0.28100002 -2.5952321e+38
0.030517509 0.034730598 0.28200001 -2.5952321e+38
0.030974085 0.034730598 0.28200001 -2.5952321e+38
0.031430658 0.034730598 0.28200001 -2.5952321e+38
0.031887233 0.034730598 0.28200001 -2.6085765e+38
0.032800384 0.034730598 0.28200001 -2.6218694e+38
0.033374891 0.034853753 0.28300002 -2.6352138e+38
0.033833086 0.034853753 0.28300002 -2.6352138e+38
0.034291279 0.034853753 0.28300002 -2.6619026e+38
0.034872264 0.034976911 0.28400001 -2.6619026e+38
0.035791889 0.034976911 0.28400001 -2.6752474e+38
0.036379348 0.035100073 0.28500003 -2.6885918e+38
0.036970049 0.035223227 0.28600001 -2.7019358e+38
0.037563983 0.035346389 0.287 -2.7286246e+38
-0.0057291165 0.036781311 0.29100001 -3.0353391e+38
-0.0052579697 0.036781311 0.29100001 -3.0086503e+38
-0.0043156766 0.036781311 0.29100001 -2.9819614e+38
-0.0038445296 0.036781311 0.29100001 -2.9551686e+38
-0.0033733831 0.036781311 0.29100001 -2.9284798e+38
-0.0024227356 0.036654916 0.29000002 -2.9152394e+38
-0.0019532079 0.036654916 0.29000002 -2.901895e+38
-0.0014785641 0.03652852 0.289 -2.901895e+38
-0.00054274709 0.03652852 0.289 -2.8753624e+38
-7.4838521e-05 0.03652852 0.289 -2.8887068e+38
0.00039443013 0.036654916 0.29000002 -2.8887068e+38
0.00086395774 0.036654916 0.29000002 -2.9153956e+38
0.0018030131 0.036654916 0.29000002 -2.9687732e+38
0.0060501313 0.03412699 0.27000001 -2.9952533e+38
0.0064872778 0.03412699 0.27000001 -2.9685645e+38
0.0069500706 0.034253389 0.27100003 -2.9418757e+38
0.0078276014 0.034253389 0.27100003 -2.9019465e+38
0.008266367 0.034253389 0.27100003 -2.8886021e+38
0.0086730095 0.03412699 0.27000001 -2.8618618e+38
0.0095473025 0.03412699 0.27000001 -2.8885506e+38
0.0099844486 0.03412699 0.27000001 -2.8618618e+38
0.010818524 0.034000594 0.26900002 -2.8485174e+38
0.011254052 0.034000594 0.26900002 -2.8485689e+38
0.011689579 0.034000594 0.26900002 -2.8485689e+38
0.012125107 0.034000594 0.26900002 -2.8485689e+38
0.012996161 0.034000594 0.26900002 -2.8352245e+38
0.013431689 0.034000594 0.26900002 -2.8485689e+38
0.013867216 0.034000594 0.26900002 -2.8352245e+38
0.01473827 0.034000594 0.26900002 -2.8352245e+38
0.015173797 0.034000594 0.26900002 -2.8218801e+38
0.015609325 0.034000594 0.26900002 -2.8218801e+38
0.016044853 0.034000594 0.26900002 -2.8218801e+38
0.016915908 0.034000594 0.26900002 -2.8218801e+38
0.017351435 0.034000594 0.26900002 -2.8085357e+38
0.017786961 0.034000594 0.26900002 -2.8218801e+38
0.018222488 0.034000594 0.26900002 -2.8351204e+38
0.019093543 0.034000594 0.26900002 -2.8085357e+38
0.019529071 0.034000594 0.26900002 -2.7951913e+38
0.019964598 0.034000594 0.26900002 -2.7951913e+38
0.020835653 0.034000594 0.26900002 -2.7951913e+38
0.02127118 0.034000594 0.26900002 -2.7685025e+38
0.021706708 0.034000594 0.26900002 -2.7685021e+38
0.022306861 0.034253389 0.27100003 -2.7551577e+38
0.022913491 0.034506179 0.273 -2.7284688e+38
0.023441046 0.034632578 0.27400002 -2.7284688e+38
0.023884669 0.034632578 0.27400002 -2.715124e+38
0.025003633 0.033747803 0.26700002 -2.6884867e+38
0.025868211 0.033747803 0.26700002 -2.5950759e+38
0.026300501 0.033747803 0.26700002 -2.5550427e+38
0.028080756 0.034885369 0.27600002 -2.5952321e+38
0.028630977 0.035011765 0.27700001 -2.5952321e+38
0.029604359 0.035643749 0.28200001 -2.5952321e+38
0.030517509 0.035643749 0.28200001 -2.5952321e+38
0.031083921 0.035770141 0.28300002 -2.5952321e+38
0.031542115 0.035770141 0.28300002 -2.5952321e+38
0.032000311 0.035770141 0.28300002 -2.6219209e+38
0.032916699 0.035770141 0.28300002 -2.6218694e+38
0.033374891 0.035770141 0.28300002 -2.6352138e+38
0.033952639 0.03589654 0.28400001 -2.6352142e+38
0.034412451 0.03589654 0.28400001 -2.661903e+38
0.034872264 0.03589654 0.28400001 -2.661903e+38
0.035917919 0.036022935 0.28500003 -2.6752474e+38
0.036506996 0.03614933 0.28600001 -2.6885918e+38
0.036970049 0.03614933 0.28600001 -2.7019362e+38
0.037563983 0.03627573 0.287 -2.7152806e+38
-0.0057094288 0.037124444 0.29000002 -3.0353391e+38
-0.0052399011 0.037124444 0.29000002 -3.0086503e+38
-0.0043008458 0.037124444 0.29000002 -2.9819614e+38
-0.0038313183 0.037124444 0.29000002 -2.9419282e+38
-0.0033617907 0.037124444 0.29000002 -2.9152394e+38
-0.0024227356 0.037124444 0.29000002 -2.9152394e+38
-0.0019532079 0.037124444 0.29000002 -2.901895e+38
-0.0014836803 0.037124444 0.29000002 -2.901895e+38
-0.00054274709 0.036996428 0.289 -2.8753624e+38
-7.4838521e-05 0.036996428 0.289 -2.8887068e+38
0.00039307005 0.036996428 0.289 -2.9020512e+38
0.00086395774 0.037124444 0.29000002 -2.9153956e+38
0.0018030131 0.037124444 0.29000002 -2.9687732e+38
0.0060501313 0.034564137 0.27000001 -2.9685645e+38
0.0065113045 0.034692153 0.27100003 -2.9685645e+38
0.0069500706 0.034692153 0.27100003 -2.9418757e+38
0.0078276014 0.034692153 0.27100003 -2.901895e+38
0.008266367 0.034692153 0.27100003 -2.8885506e+38
0.0087051326 0.034692153 0.27100003 -2.8618618e+38
0.0095473025 0.034564137 0.27000001 -2.8885506e+38
0.0099844486 0.034564137 0.27000001 -2.8618618e+38
0.010421596 0.034564137 0.27000001 -2.8485174e+38
0.011295888 0.034564137 0.27000001 -2.8485174e+38
0.011733035 0.034564137 0.27000001 -2.8485174e+38
0.012170181 0.034564137 0.27000001 -2.8485689e+38
0.012607328 0.034564137 0.27000001 -2.8485689e+38
0.01348162 0.034564137 0.27000001 -2.8485689e+38
0.013867216 0.034436122 0.26900002 -2.8352245e+38
0.01473827 0.034436122 0.26900002 -2.8352245e+38
0.015173797 0.034436122 0.26900002 -2.8218801e+38
0.015609325 0.034436122 0.26900002 -2.8218801e+38
0.016044853 0.034436122 0.26900002 -2.8218801e+38
0.016915908 0.034436122 0.26900002 -2.8085357e+38
0.017351435 0.034436122 0.26900002 -2.8085357e+38
0.017786961 0.034436122 0.26900002 -2.8218801e+38
0.018222488 0.034436122 0.26900002 -2.8351204e+38
0.019164523 0.034564137 0.27000001 -2.821776e+38
0.019601669 0.034564137 0.27000001 -2.821776e+38
0.020038815 0.034564137 0.27000001 -2.7951913e+38
0.020835653 0.034436122 0.26900002 -2.7951913e+38
0.021350255 0.034564137 0.27000001 -2.7685025e+38
0.021787401 0.034564137 0.27000001 -2.7685025e+38
0.022389175 0.034820165 0.27200001 -2.7551581e+38
0.022913491 0.034948185 0.273 -2.7418132e+38
0.023441046 0.035076201 0.27400002 -2.7284688e+38
0.023884669 0.035076201 0.27400002 -2.715124e+38
0.024500689 0.034692153 0.27100003 -2.7017796e+38
0.025097281 0.034308109 0.26800001 -2.6884867e+38
0.02553119 0.034308109 0.26800001 -2.6217647e+38
0.026300501 0.03418009 0.26700002 -2.5550427e+38
0.028080756 0.035332229 0.27600002 -2.6217647e+38
0.029604359 0.036100321 0.28200001 -2.5952321e+38
0.030167531 0.036228336 0.28300002 -2.5952321e+38
0.031083921 0.036228336 0.28300002 -2.5952321e+38
0.031542115 0.036228336 0.28300002 -2.6085765e+38
0.032000311 0.036228336 0.28300002 -2.6219209e+38
0.032573197 0.036356352 0.28400001 -2.6219209e+38
0.033492822 0.036356352 0.28400001 -2.6218694e+38
0.033952639 0.036356352 0.28400001 -2.6352142e+38
0.034412451 0.036356352 0.28400001 -2.661903e+38
0.034995053 0.036484368 0.28500003 -2.6752474e+38
0.035917919 0.036484368 0.28500003 -2.6885918e+38
0.036506996 0.03661238 0.28600001 -2.6885918e+38
0.036970049 0.03661238 0.28600001 -2.7019362e+38
0.037563983 0.0367404 0.287 -2.7152806e+38
-0.0043008458 0.037593972 0.29000002 -2.9819614e+38
-0.0038313183 0.037593972 0.29000002 -2.9419282e+38
-0.0033617907 0.037593972 0.29000002 -2.9152394e+38
-0.0024227356 0.037593972 0.29000002 -2.901895e+38
-0.0019532079 0.037593972 0.29000002 -2.8753624e+38
-0.0014785641 0.037464336 0.289 -2.8753624e+38
-0.00054274709 0.037464336 0.289 -2.8753624e+38
-7.4838521e-05 0.037464336 0.289 -2.8887068e+38
0.00039307005 0.037464336 0.289 -2.8887068e+38
0.0013288872 0.037464336 0.289 -2.92874e+38
0.0018030131 0.037593972 0.29000002 -2.9687732e+38
0.0060725394 0.035130918 0.27100003 -2.9952533e+38
0.0065113045 0.035130918 0.27100003 -2.9685645e+38
0.0069500706 0.035130918 0.27100003 -2.9418757e+38
0.0078276014 0.035130918 0.27100003 -2.901895e+38
0.008266367 0.035130918 0.27100003 -2.8885506e+38
0.0087051326 0.035130918 0.27100003 -2.8618618e+38
0.009582663 0.035130918 0.27100003 -2.8885506e+38
0.0099844486 0.035001285 0.27000001 -2.8618618e+38
0.010421596 0.035001285 0.27000001 -2.8485174e+38
0.011295888 0.035001285 0.27000001 -2.835173e+38
0.011733035 0.035001285 0.27000001 -2.8485174e+38
0.012170181 0.035001285 0.27000001 -2.8485174e+38
0.012607328 0.035001285 0.27000001 -2.8485174e+38
0.01348162 0.035001285 0.27000001 -2.8485689e+38
0.013918767 0.035001285 0.27000001 -2.8352245e+38
0.014355913 0.035001285 0.27000001 -2.8485689e+38
0.015230206 0.035001285 0.27000001 -2.8218801e+38
0.015667353 0.035001285 0.27000001 -2.8218801e+38
0.016104499 0.035001285 0.27000001 -2.8218801e+38
0.016541645 0.035001285 0.27000001 -2.8085357e+38
0.017415937 0.035001285 0.27000001 -2.8085357e+38
0.017853085 0.035001285 0.27000001 -2.8085357e+38
0.018290231 0.035001285 0.27000001 -2.8085357e+38
0.019164523 0.035001285 0.27000001 -2.8085357e+38
0.019601669 0.035001285 0.27000001 -2.8085357e+38
0.020038815 0.035001285 0.27000001 -2.7951913e+38
0.020475963 0.035001285 0.27000001 -2.7951913e+38
0.021350255 0.035001285 0.27000001 -2.7685025e+38
0.021868095 0.035130918 0.27100003 -2.7685025e+38
0.022389175 0.035260551 0.27200001 -2.7551581e+38
0.022913491 0.035390187 0.273 -2.7418132e+38
0.023355495 0.035390187 0.273 -2.7284688e+38
0.023884669 0.035519823 0.27400002 -2.715124e+38
0.024500689 0.035130918 0.27100003 -2.7017796e+38
0.025097281 0.034742016 0.26800001 -2.6617979e+38
0.02553119 0.034742016 0.26800001 -2.6217647e+38
0.026399005 0.034742016 0.26800001 -2.5550427e+38
0.028080756 0.035779089 0.27600002 -2.5952321e+38
0.029604359 0.036556896 0.28200001 -2.5952321e+38
0.030167531 0.036686528 0.28300002 -2.5952321e+38
0.031083921 0.036686528 0.28300002 -2.5952321e+38
0.031653572 0.036816165 0.28400001 -2.6085765e+38
0.032113384 0.036816165 0.28400001 -2.6085765e+38
0.032573197 0.036816165 0.28400001 -2.6085765e+38
0.033492822 0.036816165 0.28400001 -2.6218694e+38
0.034072187 0.036945801 0.28500003 -2.6352142e+38
0.03453362 0.036945801 0.28500003 -2.661903e+38
0.034995053 0.036945801 0.28500003 -2.6752474e+38
0.035580892 0.037075434 0.28600001 -2.6752474e+38
0.036506996 0.037075434 0.28600001 -2.6885918e+38
0.037099313 0.03720507 0.287 -2.7152806e+38
0.037563983 0.03720507 0.287 -2.7152806e+38
0.0060725394 0.035569686 0.27100003 -2.9952533e+38
0.0065113045 0.035569686 0.27100003 -2.9685645e+38
0.006975716 0.035700936 0.27200001 -2.9551686e+38
0.0074161007 0.035700936 0.27200001 -2.9284798e+38
0.0082968697 0.035700936 0.27200001 -2.8618622e+38
0.008737254 0.035700936 0.27200001 -2.8618622e+38
0.009582663 0.035569686 0.27100003 -2.8618622e+38
0.010021429 0.035569686 0.27100003 -2.8618622e+38
0.010460194 0.035569686 0.27100003 -2.8485174e+38
0.01089896 0.035569686 0.27100003 -2.8485174e+38
0.01177649 0.035569686 0.27100003 -2.8485174e+38
0.012215256 0.035569686 0.27100003 -2.8485174e+38
0.012654021 0.035569686 0.27100003 -2.835173e+38
0.013531552 0.035569686 0.27100003 -2.8485174e+38
0.013970317 0.035569686 0.27100003 -2.8352245e+38
0.014355913 0.03543843 0.27000001 -2.8485689e+38
0.015230206 0.03543843 0.27000001 -2.8218801e+38
0.015667353 0.03543843 0.27000001 -2.8218801e+38
0.016104499 0.03543843 0.27000001 -2.8218801e+38
0.016541645 0.03543843 0.27000001 -2.8085357e+38
0.017415937 0.03543843 0.27000001 -2.8085357e+38
0.017853085 0.03543843 0.27000001 -2.8085357e+38
0.018290231 0.03543843 0.27000001 -2.8085357e+38
0.019164523 0.03543843 0.27000001 -2.8085357e+38
0.019601669 0.03543843 0.27000001 -2.8085357e+38
0.020038815 0.03543843 0.27000001 -2.7951913e+38
0.020551799 0.035569686 0.27100003 -2.7951913e+38
0.020990565 0.035569686 0.27100003 -2.7685025e+38
0.021868095 0.035569686 0.27100003 -2.7685025e+38
0.022389175 0.035700936 0.27200001 -2.7551581e+38
0.022829561 0.035700936 0.27200001 -2.7418132e+38
0.023269944 0.035700936 0.27200001 -2.7284688e+38
0.023797499 0.035832189 0.273 -2.715124e+38
0.024500689 0.035569686 0.27100003 -2.7018311e+38
0.025190927 0.035307176 0.26900002 -2.6617979e+38
0.02553119 0.035175923 0.26800001 -2.6217647e+38
0.026399005 0.035175923 0.26800001 -2.5683871e+38
-0.0043008458 0.038533028 0.29000002 -2.9819618e+38
-0.0038313183 0.038533028 0.29000002 -2.9419282e+38
-0.0033617907 0.038533028 0.29000002 -2.9285838e+38
-0.0024227356 0.038533028 0.29000002 -2.9152394e+38
-0.0019532079 0.038533028 0.29000002 -2.8887068e+38
-0.0014836803 0.038533028 0.29000002 -2.8753624e+38
-0.00054274709 0.038400155 0.289 -2.8753628e+38
-7.4838521e-05 0.038400155 0.289 -2.8753628e+38
0.00039443013 0.038533028 0.29000002 -2.8887072e+38
0.0013288872 0.038400155 0.289 -2.9287404e+38
0.0017967958 0.038400155 0.289 -2.9554288e+38
0.0022490316 0.038134411 0.287 -2.9554288e+38
0.029709337 0.037602916 0.28300002 -2.5952321e+38
0.030167531 0.037602916 0.28300002 -2.5818877e+38
0.031193757 0.03773579 0.28400001 -2.6085765e+38
0.031653572 0.03773579 0.28400001 -2.5952321e+38
0.032113384 0.03773579 0.28400001 -2.6085765e+38
0.032573197 0.03773579 0.28400001 -2.6085765e+38
0.033149324 0.037868664 0.28500003 -2.6218694e+38
0.034072187 0.037868664 0.28500003 -2.661903e+38
0.03453362 0.037868664 0.28500003 -2.661903e+38
0.035117842 0.038001537 0.28600001 -2.6752474e+38
0.035580892 0.038001537 0.28600001 -2.6885918e+38
0.036506996 0.038001537 0.28600001 -2.7284688e+38
0.037099313 0.038134411 0.287 -2.7418132e+38
0.037563983 0.038134411 0.287 -2.7418132e+38
-0.004753924 0.038868062 0.289 -2.9953058e+38
-0.0042860154 0.038868062 0.289 -2.9819614e+38
-0.0038181068 0.038868062 0.289 -2.9419286e+38
-0.0028822899 0.038868062 0.289 -2.9152398e+38
-0.0024143814 0.038868062 0.289 -2.9152398e+38
-0.0019464727 0.038868062 0.289 -2.8887072e+38
-0.0014785641 0.038868062 0.289 -2.8753628e+38
-0.00054274709 0.038868062 0.289 -2.8753628e+38
-7.4838521e-05 0.038868062 0.289 -2.8887072e+38
0.00039307005 0.038868062 0.289 -2.8887072e+38
0.0013288872 0.038868062 0.289 -2.9287404e+38
0.0017967958 0.038868062 0.289 -2.9554288e+38
0.0022490316 0.038599081 0.287 -2.9554288e+38
0.006975716 0.036581706 0.27200001 -2.9419282e+38
0.0074161007 0.036581706 0.27200001 -2.9152394e+38
0.0082968697 0.036581706 0.27200001 -2.8618622e+38
0.008737254 0.036581706 0.27200001 -2.8618622e+38
0.0091776391 0.036581706 0.27200001 -2.8618622e+38
0.010058408 0.036581706 0.27200001 -2.8618622e+38
0.010460194 0.036447216 0.27100003 -2.8618622e+38
0.01089896 0.036447216 0.27100003 -2.8485178e+38
0.01177649 0.036447216 0.27100003 -2.8485174e+38
0.012215256 0.036447216 0.27100003 -2.8485174e+38
0.012654021 0.036447216 0.27100003 -2.835173e+38
0.013531552 0.036447216 0.27100003 -2.8485174e+38
0.013970317 0.036447216 0.27100003 -2.835173e+38
0.014409083 0.036447216 0.27100003 -2.835173e+38
0.014847848 0.036447216 0.27100003 -2.8352245e+38
0.015667353 0.036312722 0.27000001 -2.8218801e+38
0.016104499 0.036312722 0.27000001 -2.8218801e+38
0.016541645 0.036312722 0.27000001 -2.8085357e+38
0.017415937 0.036312722 0.27000001 -2.8085357e+38
0.017853085 0.036312722 0.27000001 -2.8085357e+38
0.018290231 0.036312722 0.27000001 -2.8085357e+38
0.019164523 0.036312722 0.27000001 -2.8085357e+38
0.019674268 0.036447216 0.27100003 -2.8085357e+38
0.020113034 0.036447216 0.27100003 -2.7951913e+38
0.020551799 0.036447216 0.27100003 -2.7951913e+38
0.020990565 0.036447216 0.27100003 -2.7951913e+38
0.021508407 0.036581706 0.27200001 -2.7685025e+38
0.022389175 0.036581706 0.27200001 -2.7551581e+38
0.022829561 0.036581706 0.27200001 -2.7550536e+38
0.023269944 0.036581706 0.27200001 -2.7417092e+38
0.024150714 0.036581706 0.27200001 -2.7283644e+38
0.024681507 0.036716197 0.273 -2.7150715e+38
0.024939453 0.036447216 0.27100003 -2.7150715e+38
0.029251143 0.038061112 0.28300002 -2.5951806e+38
0.029709337 0.038061112 0.28300002 -2.5818361e+38
0.03027413 0.038195606 0.28400001 -2.5818361e+38
0.031193757 0.038195606 0.28400001 -2.5951806e+38
0.031653572 0.038195606 0.28400001 -2.5951806e+38
0.032113384 0.038195606 0.28400001 -2.608525e+38
0.032687891 0.038330097 0.28500003 -2.608525e+38
0.033149324 0.038330097 0.28500003 -2.6218694e+38
0.034072187 0.038330097 0.28500003 -2.6352142e+38
0.03453362 0.038330097 0.28500003 -2.661903e+38
0.035117842 0.038464587 0.28600001 -2.70178e+38
0.035580892 0.038464587 0.28600001 -2.7151244e+38
0.036506996 0.038464587 0.28600001 -2.7284688e+38
0.037099313 0.038599081 0.287 -2.7418128e+38
0.037563983 0.038599081 0.287 -2.7551572e+38
-0.004753924 0.03933597 0.289 -3.0086503e+38
-0.0042860154 0.03933597 0.289 -2.9819614e+38
-0.0038181068 0.03933597 0.289 -2.9419282e+38
-0.0028822899 0.03933597 0.289 -2.9152398e+38
-0.0024143814 0.03933597 0.289 -2.9152398e+38
-0.0019464727 0.03933597 0.289 -2.8887072e+38
-0.0014785641 0.03933597 0.289 -2.8887072e+38
-0.00054274709 0.03933597 0.289 -2.8753628e+38
-7.4838521e-05 0.03933597 0.289 -2.8887072e+38
0.00039307005 0.03933597 0.289 -2.8887072e+38
0.0013288872 0.03933597 0.289 -2.9554288e+38
0.0017967958 0.03933597 0.289 -2.9687732e+38
0.0022490316 0.039063752 0.287 -2.9554288e+38
0.006975716 0.037022088 0.27200001 -2.9285838e+38
0.0074161007 0.037022088 0.27200001 -2.9152394e+38
0.0082968697 0.037022088 0.27200001 -2.8618622e+38
0.008737254 0.037022088 0.27200001 -2.8618622e+38
0.0091776391 0.037022088 0.27200001 -2.8618622e+38
0.010058408 0.037022088 0.27200001 -2.8618622e+38
0.010498792 0.037022088 0.27200001 -2.8618622e+38
0.010939177 0.037022088 0.27200001 -2.8485178e+38
0.011379561 0.037022088 0.27200001 -2.8485174e+38
0.012215256 0.036885981 0.27100003 -2.8485174e+38
0.012654021 0.036885981 0.27100003 -2.835173e+38
0.013531552 0.036885981 0.27100003 -2.8485174e+38
0.013970317 0.036885981 0.27100003 -2.835173e+38
0.014409083 0.036885981 0.27100003 -2.8485174e+38
0.014847848 0.036885981 0.27100003 -2.8485689e+38
0.01572538 0.036885981 0.27100003 -2.8218801e+38
0.016104499 0.03674987 0.27000001 -2.8218801e+38
0.016541645 0.03674987 0.27000001 -2.8085357e+38
0.017415937 0.03674987 0.27000001 -2.8085357e+38
0.017853085 0.03674987 0.27000001 -2.8085357e+38
0.018290231 0.03674987 0.27000001 -2.8218801e+38
0.018796736 0.036885981 0.27100003 -2.8085357e+38
0.019674268 0.036885981 0.27100003 -2.7951913e+38
0.020113034 0.036885981 0.27100003 -2.7951913e+38
0.020551799 0.036885981 0.27100003 -2.7951913e+38
0.021068022 0.037022088 0.27200001 -2.7951913e+38
0.021508407 0.037022088 0.27200001 -2.7685025e+38
0.022389175 0.037022088 0.27200001 -2.7551581e+38
0.022829561 0.037022088 0.27200001 -2.7418132e+38
0.023269944 0.037022088 0.27200001 -2.7284688e+38
0.023797499 0.037158202 0.273 -2.715124e+38
0.024681507 0.037158202 0.273 -2.7284159e+38
0.025123511 0.037158202 0.273 -2.7150715e+38
0.028792949 0.038519308 0.28300002 -2.5952321e+38
0.029354505 0.038655419 0.28400001 -2.5951806e+38
0.029814318 0.038655419 0.28400001 -2.5818361e+38
0.03027413 0.038655419 0.28400001 -2.5818361e+38
0.031193757 0.038655419 0.28400001 -2.5951806e+38
0.031653572 0.038655419 0.28400001 -2.5951806e+38
0.032226458 0.03879153 0.28500003 -2.608525e+38
0.032687891 0.03879153 0.28500003 -2.608525e+38
0.033149324 0.03879153 0.28500003 -2.6218694e+38
0.034072187 0.03879153 0.28500003 -2.6352138e+38
0.034654792 0.038927637 0.28600001 -2.6619026e+38
0.035117842 0.038927637 0.28600001 -2.70178e+38
0.035580892 0.038927637 0.28600001 -2.7151244e+38
0.036506996 0.038927637 0.28600001 -2.7284688e+38
0.037099313 0.039063752 0.287 -2.7418128e+38
0.037563983 0.039063752 0.287 -2.7551572e+38
-0.0047374745 0.03966615 0.28800002 -2.9953058e+38
-0.004271185 0.03966615 0.28800002 -2.9819614e+38
-0.0038048956 0.03966615 0.28800002 -2.92874e+38
-0.0028723166 0.03966615 0.28800002 -2.9020516e+38
-0.0024060272 0.03966615 0.28800002 -2.9020516e+38
-0.0019397376 0.03966615 0.28800002 -2.8887072e+38
-0.0010071585 0.03966615 0.28800002 -2.8753628e+38
-0.00054086908 0.03966615 0.28800002 -2.8753628e+38
-7.457957e-05 0.03966615 0.28800002 -2.8887072e+38
0.00039170994 0.03966615 0.28800002 -2.9020516e+38
0.0013242889 0.03966615 0.28800002 -2.9554292e+38
0.0017843611 0.039528422 0.287 -2.9687732e+38
0.0022568679 0.03966615 0.28800002 -2.9554288e+38
0.006975716 0.037462473 0.27200001 -2.9285838e+38
0.0074433652 0.037600204 0.273 -2.9152394e+38
0.0083273724 0.037600204 0.273 -2.8885506e+38
0.0087693762 0.037600204 0.273 -2.8618618e+38
0.0091776391 0.037462473 0.27200001 -2.8618618e+38
0.010058408 0.037462473 0.27200001 -2.8618618e+38
0.010498792 0.037462473 0.27200001 -2.8618618e+38
0.010939177 0.037462473 0.27200001 -2.8485174e+38
0.011379561 0.037462473 0.27200001 -2.8485174e+38
0.012260331 0.037462473 0.27200001 -2.8485174e+38
0.012700715 0.037462473 0.27200001 -2.835173e+38
0.013531552 0.037324745 0.27100003 -2.8485174e+38
0.013970317 0.037324745 0.27100003 -2.835173e+38
0.014409083 0.037324745 0.27100003 -2.8485174e+38
0.014847848 0.037324745 0.27100003 -2.8485689e+38
0.01572538 0.037324745 0.27100003 -2.8218801e+38
0.016164145 0.037324745 0.27100003 -2.8218801e+38
0.016602909 0.037324745 0.27100003 -2.8218801e+38
0.017041676 0.037324745 0.27100003 -2.8218801e+38
0.017919207 0.037324745 0.27100003 -2.8085357e+38
0.018357972 0.037324745 0.27100003 -2.8218801e+38
0.018796736 0.037324745 0.27100003 -2.8085357e+38
0.019674268 0.037324745 0.27100003 -2.8085357e+38
0.020113034 0.037324745 0.27100003 -2.7951913e+38
0.020627636 0.037462473 0.27200001 -2.7951913e+38
0.021068022 0.037462473 0.27200001 -2.7951913e+38
0.021508407 0.037462473 0.27200001 -2.7685025e+38
0.022389175 0.037462473 0.27200001 -2.7551581e+38
0.022913491 0.037600204 0.273 -2.7418132e+38
0.023355495 0.037600204 0.273 -2.7284688e+38
0.023884669 0.037737936 0.27400002 -2.715124e+38
0.02441708 0.037875663 0.27500001 -2.7017796e+38
0.025307564 0.037875663 0.27500001 -2.7150715e+38
0.027876562 0.0389775 0.28300002 -2.5550427e+38
0.028434878 0.039115231 0.28400001 -2.5685433e+38
0.029354505 0.039115231 0.28400001 -2.5951806e+38
0.029814318 0.039115231 0.28400001 -2.5818361e+38
0.03027413 0.039115231 0.28400001 -2.5818361e+38
0.031193757 0.039115231 0.28400001 -2.5951806e+38
0.031653572 0.039115231 0.28400001 -2.5951806e+38
0.032226458 0.039252963 0.28500003 -2.6218698e+38
0.032687891 0.039252963 0.28500003 -2.6218698e+38
0.033149324 0.039252963 0.28500003 -2.6218698e+38
0.034072187 0.039252963 0.28500003 -2.6352142e+38
0.03453362 0.039252963 0.28500003 -2.661903e+38
0.035117842 0.039390691 0.28600001 -2.6752474e+38
0.035580892 0.039390691 0.28600001 -2.6885918e+38
0.036506996 0.039390691 0.28600001 -2.7284688e+38
0.036970049 0.039390691 0.28600001 -2.7418128e+38
0.037563983 0.039528422 0.287 -2.7418128e+38
-0.0042563546 0.040457763 0.287 -3.0086503e+38
-0.0033270137 0.040457763 0.287 -2.9554288e+38
-0.0028623433 0.040457763 0.287 -2.9153956e+38
-0.0023976727 0.040457763 0.287 -2.9020512e+38
-0.0019330024 0.040457763 0.287 -2.9153956e+38
-0.0010036615 0.040457763 0.287 -2.9020516e+38
-0.00053899107 0.040457763 0.287 -2.9020516e+38
-7.4320611e-05 0.040457763 0.287 -2.915396e+38
0.00085502019 0.040457763 0.287 -2.9287404e+38
0.0013242889 0.040598728 0.28800002 -2.9687736e+38
0.0017905785 0.040598728 0.28800002 -2.9687736e+38
0.0022568679 0.040598728 0.28800002 -2.9687736e+38
0.0070013618 0.038484212 0.273 -2.9419282e+38
0.0074433652 0.038484212 0.273 -2.9152394e+38
0.0083273724 0.038484212 0.273 -2.8885506e+38
0.0087693762 0.038484212 0.273 -2.8885506e+38
0.00921138 0.038484212 0.273 -2.8618618e+38
0.010058408 0.038343243 0.27200001 -2.8618618e+38
0.010498792 0.038343243 0.27200001 -2.8618618e+38
0.010939177 0.038343243 0.27200001 -2.8485174e+38
0.011379561 0.038343243 0.27200001 -2.8485174e+38
0.012260331 0.038343243 0.27200001 -2.835173e+38
0.012700715 0.038343243 0.27200001 -2.8485174e+38
0.013141099 0.038343243 0.27200001 -2.8485174e+38
0.01402187 0.038343243 0.27200001 -2.835173e+38
0.014462254 0.038343243 0.27200001 -2.8485174e+38
0.014902638 0.038343243 0.27200001 -2.835173e+38
0.015343023 0.038343243 0.27200001 -2.8218286e+38
0.016223792 0.038343243 0.27200001 -2.8218801e+38
0.016602909 0.038202278 0.27100003 -2.8218801e+38
0.017041676 0.038202278 0.27100003 -2.8218801e+38
0.017919207 0.038202278 0.27100003 -2.8085357e+38
0.018425714 0.038343243 0.27200001 -2.8085357e+38
0.018866099 0.038343243 0.27200001 -2.8085357e+38
0.019306483 0.038343243 0.27200001 -2.8085357e+38
0.020187253 0.038343243 0.27200001 -2.7951913e+38
0.020627636 0.038343243 0.27200001 -2.7951913e+38
0.021068022 0.038343243 0.27200001 -2.8085357e+38
0.021508407 0.038343243 0.27200001 -2.7685025e+38
0.022389175 0.038343243 0.27200001 -2.7551581e+38
0.022913491 0.038484212 0.273 -2.7418132e+38
0.023441046 0.038625181 0.27400002 -2.7284688e+38
0.023971839 0.038766146 0.27500001 -2.715124e+38
0.02441708 0.038766146 0.27500001 -2.715124e+38
0.025043139 0.039048079 0.27700001 -2.7284159e+38
0.027418368 0.039893888 0.28300002 -2.541854e+38
0.027876562 0.039893888 0.28300002 -2.5285096e+38
0.028434878 0.040034857 0.28400001 -2.5685433e+38
0.033149324 0.040175825 0.28500003 -2.6218698e+38
0.034072187 0.040175825 0.28500003 -2.6352142e+38
0.03453362 0.040175825 0.28500003 -2.661903e+38
0.035117842 0.040316794 0.28600001 -2.6752474e+38
0.035580892 0.040316794 0.28600001 -2.6752474e+38
0.036506996 0.040316794 0.28600001 -2.7019362e+38
0.036970049 0.040316794 0.28600001 -2.7152802e+38
0.037433099 0.040316794 0.28600001 -2.7286246e+38
-0.00285237 0.040779844 0.28600001 -2.9554288e+38
-0.0023893185 0.040779844 0.28600001 -2.92874e+38
-0.0014632158 0.040779844 0.28600001 -2.9153956e+38
-0.0010001644 0.040779844 0.28600001 -2.9020512e+38
-0.00053711305 0.040779844 0.28600001 -2.92874e+38
0.00038898972 0.040779844 0.28600001 -2.9554288e+38
0.00085204112 0.040779844 0.28600001 -2.9554288e+38
0.0013150924 0.040779844 0.28600001 -2.9687732e+38
0.0070013618 0.038926214 0.273 -2.9419282e+38
0.0074433652 0.038926214 0.273 -2.9152394e+38
0.0083273724 0.038926214 0.273 -2.8885506e+38
0.0087693762 0.038926214 0.273 -2.8618618e+38
0.00921138 0.038926214 0.273 -2.8618618e+38
0.0096533829 0.038926214 0.273 -2.8618618e+38
0.010498792 0.038783628 0.27200001 -2.8485174e+38
0.010939177 0.038783628 0.27200001 -2.8485174e+38
0.011379561 0.038783628 0.27200001 -2.8618618e+38
0.012260331 0.038783628 0.27200001 -2.835173e+38
0.012700715 0.038783628 0.27200001 -2.835173e+38
0.013141099 0.038783628 0.27200001 -2.8485174e+38
0.01402187 0.038783628 0.27200001 -2.835173e+38
0.014462254 0.038783628 0.27200001 -2.835173e+38
0.014902638 0.038783628 0.27200001 -2.8485174e+38
0.015343023 0.038783628 0.27200001 -2.835173e+38
0.016223792 0.038783628 0.27200001 -2.8218286e+38
0.016664177 0.038783628 0.27200001 -2.8218801e+38
0.017104561 0.038783628 0.27200001 -2.8218801e+38
0.017985331 0.038783628 0.27200001 -2.8085357e+38
0.018425714 0.038783628 0.27200001 -2.8085357e+38
0.018866099 0.038783628 0.27200001 -2.8085357e+38
0.019306483 0.038783628 0.27200001 -2.8085357e+38
0.020187253 0.038783628 0.27200001 -2.7951913e+38
0.020627636 0.038783628 0.27200001 -2.7951913e+38
0.021068022 0.038783628 0.27200001 -2.8085357e+38
0.021508407 0.038783628 0.27200001 -2.7685025e+38
0.022471488 0.038926214 0.273 -2.7685021e+38
0.022913491 0.038926214 0.273 -2.7551577e+38
0.023441046 0.039068803 0.27400002 -2.7284688e+38
0.023971839 0.039211389 0.27500001 -2.7283644e+38
0.02450587 0.039353978 0.27600002 -2.7283644e+38
0.025043139 0.03949656 0.27700001 -2.7284159e+38
0.027418368 0.040352084 0.28300002 -2.5285096e+38
0.027975064 0.040494669 0.28400001 -2.5285096e+38
0.028434878 0.040494669 0.28400001 -2.5685433e+38
0.034072187 0.040637258 0.28500003 -2.6352142e+38
0.03453362 0.040637258 0.28500003 -2.661903e+38
0.035117842 0.040779844 0.28600001 -2.6752474e+38
0.035580892 0.040779844 0.28600001 -2.6752474e+38
0.036506996 0.040779844 0.28600001 -2.7019362e+38
0.036970049 0.040779844 0.28600001 -2.7152802e+38
0.037433099 0.040779844 0.28600001 -2.7152802e+38
-0.0010001644 0.041242894 0.28600001 -2.9554288e+38
-0.00053711305 0.041242894 0.28600001 -2.9687732e+38
0.00038898972 0.041242894 0.28600001 -2.9687732e+38
0.00085204112 0.041242894 0.28600001 -2.9687732e+38
0.0070270081 0.039512426 0.27400002 -2.9419282e+38
0.007470631 0.039512426 0.27400002 -2.9152394e+38
0.0079142535 0.039512426 0.27400002 -2.8885506e+38
0.0088014985 0.039512426 0.27400002 -2.8618618e+38
0.0092451219 0.039512426 0.27400002 -2.8618618e+38
0.0096533829 0.03936822 0.273 -2.8618618e+38
0.010537391 0.03936822 0.273 -2.8485174e+38
0.010979394 0.03936822 0.273 -2.8485174e+38
0.011421397 0.03936822 0.273 -2.8618618e+38
0.012305405 0.03936822 0.273 -2.835173e+38
0.012747409 0.03936822 0.273 -2.8485174e+38
0.013189412 0.03936822 0.273 -2.8751021e+38
0.01402187 0.03922401 0.27200001 -2.8485174e+38
0.014462254 0.03922401 0.27200001 -2.835173e+38
0.014902638 0.03922401 0.27200001 -2.835173e+38
0.015343023 0.03922401 0.27200001 -2.8485174e+38
0.016223792 0.03922401 0.27200001 -2.835173e+38
0.016664177 0.03922401 0.27200001 -2.8218801e+38
0.017104561 0.03922401 0.27200001 -2.8218801e+38
0.017985331 0.03922401 0.27200001 -2.8085357e+38
0.018425714 0.03922401 0.27200001 -2.8085357e+38
0.018866099 0.03922401 0.27200001 -2.8085357e+38
0.019306483 0.03922401 0.27200001 -2.8085357e+38
0.020187253 0.03922401 0.27200001 -2.7951913e+38
0.020627636 0.03922401 0.27200001 -2.7951913e+38
0.021068022 0.03922401 0.27200001 -2.8085353e+38
0.021587482 0.03936822 0.273 -2.7951909e+38
0.022471488 0.03936822 0.273 -2.7685021e+38
0.022997424 0.039512426 0.27400002 -2.7551577e+38
0.023441046 0.039512426 0.27400002 -2.7284688e+38
0.023971839 0.039656628 0.27500001 -2.7283644e+38
0.02450587 0.039800838 0.27600002 -2.7283644e+38
0.026864907 0.040666074 0.28200001 -2.5685429e+38
0.027418368 0.040810276 0.28300002 -2.5285096e+38
0.027876562 0.040810276 0.28300002 -2.5285096e+38
0.028434878 0.040954486 0.28400001 -2.5685433e+38
0.029354505 0.040954486 0.28400001 -2.5818877e+38
0.029814318 0.040954486 0.28400001 -2.5818877e+38
0.034072187 0.041098692 0.28500003 -2.6352142e+38
0.03453362 0.041098692 0.28500003 -2.661903e+38
0.034995053 0.041098692 0.28500003 -2.6752474e+38
0.035580892 0.041242894 0.28600001 -2.6752474e+38
0.036506996 0.041242894 0.28600001 -2.7152806e+38
0.036970049 0.041242894 0.28600001 -2.7152802e+38
0.037433099 0.041242894 0.28600001 -2.7152802e+38
0.0065833856 0.039956048 0.27400002 -2.9419282e+38
0.0070270081 0.039956048 0.27400002 -2.9419282e+38
0.0074978955 0.040101871 0.27500001 -2.9152394e+38
0.0079431375 0.040101871 0.27500001 -2.8885506e+38
0.0083883787 0.040101871 0.27500001 -2.8885506e+38
0.0092451219 0.039956048 0.27400002 -2.8618618e+38
0.0096887443 0.039956048 0.27400002 -2.8485174e+38
0.010537391 0.039810222 0.273 -2.8485174e+38
0.010979394 0.039810222 0.273 -2.8485174e+38
0.011421397 0.039810222 0.273 -2.8618618e+38
0.012305405 0.039810222 0.273 -2.835173e+38
0.012747409 0.039810222 0.273 -2.8485174e+38
0.013189412 0.039810222 0.273 -2.8618618e+38
0.013631416 0.039810222 0.273 -2.8485174e+38
0.014515423 0.039810222 0.273 -2.835173e+38
0.014957427 0.039810222 0.273 -2.835173e+38
0.015399431 0.039810222 0.273 -2.8485174e+38
0.015841434 0.039810222 0.273 -2.8218286e+38
0.016725441 0.039810222 0.273 -2.835173e+38
0.017167445 0.039810222 0.273 -2.8218286e+38
0.017609449 0.039810222 0.273 -2.8085357e+38
0.018493455 0.039810222 0.273 -2.8085357e+38
0.018935459 0.039810222 0.273 -2.8085357e+38
0.019377463 0.039810222 0.273 -2.8085357e+38
0.019819466 0.039810222 0.273 -2.8218801e+38
0.020703474 0.039810222 0.273 -2.7951913e+38
0.021145478 0.039810222 0.273 -2.8085353e+38
0.021587482 0.039810222 0.273 -2.7951909e+38
0.022110179 0.039956048 0.27400002 -2.7951909e+38
0.022997424 0.039956048 0.27400002 -2.7551577e+38
0.023526598 0.040101871 0.27500001 -2.7284688e+38
0.024059009 0.040247697 0.27600002 -2.7283644e+38
0.024594661 0.04039352 0.27700001 -2.7283644e+38
0.026314685 0.040976822 0.28100002 -2.6085765e+38
0.026864907 0.041122649 0.28200001 -2.5685433e+38
0.027418368 0.041268472 0.28300002 -2.52851e+38
0.027876562 0.041268472 0.28300002 -2.52851e+38
0.028792949 0.041268472 0.28300002 -2.5818877e+38
0.029354505 0.041414298 0.28400001 -2.5685433e+38
0.029814318 0.041414298 0.28400001 -2.5685433e+38
0.034072187 0.042021554 0.28500003 -2.6352138e+38
0.03453362 0.042021554 0.28500003 -2.6619026e+38
0.034995053 0.042021554 0.28500003 -2.675247e+38
0.035917919 0.042021554 0.28500003 -2.7284684e+38
0.036379348 0.042021554 0.28500003 -2.7418128e+38
0.036970049 0.042168997 0.28600001 -2.7418128e+38
0.037433099 0.042168997 0.28600001 -2.7551572e+38
0.0070526539 0.040992353 0.27500001 -2.9020512e+38
0.0074978955 0.040992353 0.27500001 -2.8753624e+38
0.0079431375 0.040992353 0.27500001 -2.8753624e+38
0.0083883787 0.040992353 0.27500001 -2.862018e+38
0.0092788627 0.040992353 0.27500001 -2.8618618e+38
0.0097241038 0.040992353 0.27500001 -2.8618618e+38
0.010132367 0.040843293 0.27400002 -2.8885506e+38
0.011019612 0.040843293 0.27400002 -2.8485174e+38
0.011421397 0.040694229 0.273 -2.8618618e+38
0.012305405 0.040694229 0.273 -2.835173e+38
0.012747409 0.040694229 0.273 -2.8485174e+38
0.013189412 0.040694229 0.273 -2.8485174e+38
0.013681348 0.040843293 0.27400002 -2.835173e+38
0.014124971 0.040843293 0.27400002 -2.835173e+38
0.015012216 0.040843293 0.27400002 -2.8485174e+38
0.015455838 0.040843293 0.27400002 -2.8485174e+38
0.015899461 0.040843293 0.27400002 -2.8218286e+38
0.016725441 0.040694229 0.273 -2.835173e+38
0.017167445 0.040694229 0.273 -2.835173e+38
0.017609449 0.040694229 0.273 -2.8084842e+38
0.018493455 0.040694229 0.273 -2.8218801e+38
0.018935459 0.040694229 0.273 -2.8218801e+38
0.019377463 0.040694229 0.273 -2.8085357e+38
0.019819466 0.040694229 0.273 -2.8218801e+38
0.020703474 0.040694229 0.273 -2.7951913e+38
0.021222932 0.040843293 0.27400002 -2.8085357e+38
0.021666555 0.040843293 0.27400002 -2.7951913e+38
0.022110179 0.040843293 0.27400002 -2.7951909e+38
0.022636114 0.040992353 0.27500001 -2.7685021e+38
0.023165287 0.041141421 0.27600002 -2.7550532e+38
0.024146181 0.041290481 0.27700001 -2.7283644e+38
0.024594661 0.041290481 0.27700001 -2.7283644e+38
0.026314685 0.041886736 0.28100002 -2.6617979e+38
0.026864907 0.042035799 0.28200001 -2.5950759e+38
0.027321482 0.042035799 0.28200001 -2.52851e+38
0.027876562 0.04218486 0.28300002 -2.5418544e+38
0.028792949 0.04218486 0.28300002 -2.5685433e+38
0.029251143 0.04218486 0.28300002 -2.5685433e+38
0.029814318 0.042333923 0.28400001 -2.5418544e+38
0.03027413 0.042333923 0.28400001 -2.5685433e+38
0.034995053 0.042482987 0.28500003 -2.6885914e+38
0.035917919 0.042482987 0.28500003 -2.7284684e+38
0.036379348 0.042482987 0.28500003 -2.7418128e+38
0.036840782 0.042482987 0.28500003 -2.7551572e+38
0.037302215 0.042482987 0.28500003 -2.7551572e+38
0.0079720216 0.04158828 0.27600002 -2.8753624e+38
0.0084188823 0.04158828 0.27600002 -2.8753624e+38
0.0088657439 0.04158828 0.27600002 -2.8618618e+38
0.0097241038 0.041437596 0.27500001 -2.8618618e+38
0.010169346 0.041437596 0.27500001 -2.8885506e+38
0.011019612 0.041286916 0.27400002 -2.8485174e+38
0.011463235 0.041286916 0.27400002 -2.8618618e+38
0.011906858 0.041286916 0.27400002 -2.8485174e+38
0.012794103 0.041286916 0.27400002 -2.8485174e+38
0.013237725 0.041286916 0.27400002 -2.8485174e+38
0.013731279 0.041437596 0.27500001 -2.835173e+38
0.014228072 0.04158828 0.27600002 -2.835173e+38
0.014674933 0.04158828 0.27600002 -2.835173e+38
0.015455838 0.041286916 0.27400002 -2.8485174e+38
0.015899461 0.041286916 0.27400002 -2.835173e+38
0.016786706 0.041286916 0.27400002 -2.835173e+38
0.01723033 0.041286916 0.27400002 -2.835173e+38
0.017673953 0.041286916 0.27400002 -2.8218286e+38
0.018117575 0.041286916 0.27400002 -2.8218286e+38
0.01900482 0.041286916 0.27400002 -2.8218286e+38
0.019448442 0.041286916 0.27400002 -2.8084842e+38
0.019892065 0.041286916 0.27400002 -2.8218286e+38
0.02077931 0.041286916 0.27400002 -2.8085357e+38
0.021222932 0.041286916 0.27400002 -2.8085357e+38
0.02174563 0.041437596 0.27500001 -2.7951913e+38
0.022190873 0.041437596 0.27500001 -2.7951909e+38
0.022718426 0.04158828 0.27600002 -2.7685021e+38
0.023165287 0.04158828 0.27600002 -2.7683976e+38
0.024146181 0.041738961 0.27700001 -2.7284159e+38
0.024683449 0.041889641 0.27800003 -2.7417603e+38
0.026221039 0.042191006 0.28 -2.6617979e+38
0.026769642 0.042341691 0.28100002 -2.5950759e+38
0.027321482 0.042492375 0.28200001 -2.52851e+38
0.028234633 0.042492375 0.28200001 -2.5685433e+38
0.028792949 0.042643052 0.28300002 -2.5685433e+38
0.029251143 0.042643052 0.28300002 -2.5685433e+38
0.029709337 0.042643052 0.28300002 -2.5685433e+38
0.030167531 0.042643052 0.28300002 -2.5685433e+38
0.031193757 0.042793736 0.28400001 -2.5818361e+38
0.034872264 0.042793736 0.28400001 -2.6885914e+38
0.035791889 0.042793736 0.28400001 -2.7418128e+38
0.036251701 0.042793736 0.28400001 -2.7551572e+38
0.0079720216 0.04203514 0.27600002 -2.8753624e+38
0.0084188823 0.04203514 0.27600002 -2.862018e+38
0.0088657439 0.04203514 0.27600002 -2.8618618e+38
0.0097594652 0.04203514 0.27600002 -2.8751021e+38
0.010206326 0.04203514 0.27600002 -2.901791e+38
0.011059829 0.041882839 0.27500001 -2.8618618e+38
0.011505071 0.041882839 0.27500001 -2.8485174e+38
0.011950313 0.041882839 0.27500001 -2.8485174e+38
0.012395554 0.041882839 0.27500001 -2.835173e+38
0.013286038 0.041882839 0.27500001 -2.8485174e+38
0.013781211 0.04203514 0.27600002 -2.8485174e+38
0.014228072 0.04203514 0.27600002 -2.8485174e+38
0.014674933 0.04203514 0.27600002 -2.835173e+38
0.015568654 0.04203514 0.27600002 -2.8485174e+38
0.015957488 0.041882839 0.27500001 -2.835173e+38
0.016786706 0.041730538 0.27400002 -2.835173e+38
0.01723033 0.041730538 0.27400002 -2.835173e+38
0.017673953 0.041730538 0.27400002 -2.8218286e+38
0.018117575 0.041730538 0.27400002 -2.8218286e+38
0.01900482 0.041730538 0.27400002 -2.8218286e+38
0.019448442 0.041730538 0.27400002 -2.8084842e+38
0.019892065 0.041730538 0.27400002 -2.8084842e+38
0.02077931 0.041730538 0.27400002 -2.8085357e+38
0.021300389 0.041882839 0.27500001 -2.8085357e+38
0.02174563 0.041882839 0.27500001 -2.7951913e+38
0.022190873 0.041882839 0.27500001 -2.7951909e+38
0.022718426 0.04203514 0.27600002 -2.7685021e+38
0.02324922 0.042187441 0.27700001 -2.7683976e+38
0.024146181 0.042187441 0.27700001 -2.7417603e+38
0.024683449 0.042339742 0.27800003 -2.7417603e+38
0.026221039 0.042644344 0.28 -2.6617979e+38
0.026769642 0.042796645 0.28100002 -2.5950759e+38
0.027224598 0.042796645 0.28100002 -2.52851e+38
0.028234633 0.04294895 0.28200001 -2.5685433e+38
0.028691208 0.04294895 0.28200001 -2.5685433e+38
0.029251143 0.043101247 0.28300002 -2.5685433e+38
0.029709337 0.043101247 0.28300002 -2.5685433e+38
0.030167531 0.043101247 0.28300002 -2.5685433e+38
0.031083921 0.043101247 0.28300002 -2.5951806e+38
0.034872264 0.043253548 0.28400001 -2.7019358e+38
0.035791889 0.043253548 0.28400001 -2.7685017e+38
0.036251701 0.043253548 0.28400001 -2.7551572e+38
0.0075251614 0.042928863 0.27600002 -2.9152394e+38
0.0079720216 0.042928863 0.27600002 -2.8885506e+38
0.0084493859 0.043084398 0.27700001 -2.8885506e+38
0.0088657439 0.042928863 0.27600002 -2.8618618e+38
0.0097594652 0.042928863 0.27600002 -2.8751021e+38
0.010206326 0.042928863 0.27600002 -2.901791e+38
0.011059829 0.042773321 0.27500001 -2.8618618e+38
0.011505071 0.042773321 0.27500001 -2.8618618e+38
0.011950313 0.042773321 0.27500001 -2.8485174e+38
0.012440629 0.042928863 0.27600002 -2.8485174e+38
0.01288749 0.042928863 0.27600002 -2.8485174e+38
0.013781211 0.042928863 0.27600002 -2.8485174e+38
0.014228072 0.042928863 0.27600002 -2.8485174e+38
0.014674933 0.042928863 0.27600002 -2.8485174e+38
0.015568654 0.042928863 0.27600002 -2.835173e+38
0.015957488 0.042773321 0.27500001 -2.835173e+38
0.016402731 0.042773321 0.27500001 -2.835173e+38
0.017293213 0.042773321 0.27500001 -2.8218286e+38
0.017738454 0.042773321 0.27500001 -2.8218286e+38
0.018183697 0.042773321 0.27500001 -2.8218286e+38
0.018628938 0.042773321 0.27500001 -2.8218286e+38
0.019519422 0.042773321 0.27500001 -2.8218286e+38
0.019964663 0.042773321 0.27500001 -2.8218286e+38
0.020409904 0.042773321 0.27500001 -2.8218801e+38
0.021300389 0.042773321 0.27500001 -2.8218797e+38
0.021824704 0.042928863 0.27600002 -2.8085353e+38
0.022271566 0.042928863 0.27600002 -2.7951905e+38
0.022800742 0.043084398 0.27700001 -2.7685017e+38
0.02324922 0.043084398 0.27700001 -2.7683976e+38
0.024146181 0.043084398 0.27700001 -2.7551047e+38
0.024683449 0.04323994 0.27800003 -2.7417603e+38
0.026221039 0.043551017 0.28 -2.6884867e+38
0.026674377 0.043551017 0.28 -2.6084203e+38
0.027224598 0.043706559 0.28100002 -2.5685433e+38
0.02813451 0.043706559 0.28100002 -2.5685433e+38
0.028691208 0.043862097 0.28200001 -2.5418544e+38
0.0071039461 0.043532878 0.27700001 -2.9285838e+38
0.0080009056 0.043532878 0.27700001 -2.8885506e+38
0.0084798895 0.043690037 0.27800003 -2.8885506e+38
0.0088978652 0.043532878 0.27700001 -2.8618618e+38
0.0097948248 0.043532878 0.27700001 -2.8618618e+38
0.010206326 0.043375723 0.27600002 -2.8885506e+38
0.010653187 0.043375723 0.27600002 -2.8618618e+38
0.011546908 0.043375723 0.27600002 -2.8618618e+38
0.011993769 0.043375723 0.27600002 -2.8485174e+38
0.012440629 0.043375723 0.27600002 -2.8485174e+38
0.01288749 0.043375723 0.27600002 -2.8485174e+38
0.013781211 0.043375723 0.27600002 -2.8485174e+38
0.014228072 0.043375723 0.27600002 -2.8485174e+38
0.014674933 0.043375723 0.27600002 -2.8485174e+38
0.015568654 0.043375723 0.27600002 -2.8086403e+38
0.015957488 0.043218564 0.27500001 -2.8086403e+38
0.016402731 0.043218564 0.27500001 -2.8086403e+38
0.017293213 0.043218564 0.27500001 -2.8086403e+38
0.017738454 0.043218564 0.27500001 -2.7952959e+38
0.018183697 0.043218564 0.27500001 -2.7952959e+38
0.018628938 0.043218564 0.27500001 -2.7952959e+38
0.019519422 0.043218564 0.27500001 -2.7952959e+38
0.019964663 0.043218564 0.27500001 -2.8086403e+38
0.020409904 0.043218564 0.27500001 -2.7952959e+38
0.020930983 0.043375723 0.27600002 -2.7952959e+38
0.021824704 0.043375723 0.27600002 -2.782003e+38
0.022271566 0.043375723 0.27600002 -2.7951905e+38
0.022800742 0.043532878 0.27700001 -2.7685017e+38
0.02324922 0.043532878 0.27700001 -2.7683976e+38
0.023783252 0.043690037 0.27800003 -2.7550532e+38
0.024683449 0.043690037 0.27800003 -2.7417603e+38
0.026674377 0.044004355 0.28 -2.6351091e+38
0.02813451 0.044161513 0.28100002 -2.5685429e+38
0.0071295924 0.044140138 0.27800003 -2.9286353e+38
0.0080297906 0.044140138 0.27800003 -2.8885506e+38
0.0084798895 0.044140138 0.27800003 -2.8885506e+38
0.0089299884 0.044140138 0.27800003 -2.8618618e+38
0.0097948248 0.043981358 0.27700001 -2.8885506e+38
0.010243305 0.043981358 0.27700001 -2.8885506e+38
0.010691784 0.043981358 0.27700001 -2.8618618e+38
0.011140265 0.043981358 0.27700001 -2.8618618e+38
0.012037224 0.043981358 0.27700001 -2.8485174e+38
0.012440629 0.043822583 0.27600002 -2.8485174e+38
0.01288749 0.043822583 0.27600002 -2.8485174e+38
0.013781211 0.043822583 0.27600002 -2.835173e+38
0.014228072 0.043822583 0.27600002 -2.8485174e+38
0.014674933 0.043822583 0.27600002 -2.8485174e+38
0.015568654 0.043822583 0.27600002 -2.8086403e+38
0.015957488 0.043663803 0.27500001 -2.8086403e+38
0.016402731 0.043663803 0.27500001 -2.8219847e+38
0.017293213 0.043663803 0.27500001 -2.8086403e+38
0.017738454 0.043663803 0.27500001 -2.7952959e+38
0.018183697 0.043663803 0.27500001 -2.7952959e+38
0.018628938 0.043663803 0.27500001 -2.8086403e+38
0.019519422 0.043663803 0.27500001 -2.7952959e+38
0.019964663 0.043663803 0.27500001 -2.7952959e+38
0.020409904 0.043663803 0.27500001 -2.7952959e+38
0.020930983 0.043822583 0.27600002 -2.7952959e+38
0.021824704 0.043822583 0.27600002 -2.7953475e+38
0.022271566 0.043822583 0.27600002 -2.7951905e+38
0.022800742 0.043981358 0.27700001 -2.7685017e+38
0.02324922 0.043981358 0.27700001 -2.7683976e+38
0.023783252 0.044140138 0.27800003 -2.7550532e+38
0.024683449 0.044140138 0.27800003 -2.7417603e+38
0.0071295924 0.044590235 0.27800003 -2.9285838e+38
0.0076069562 0.044750635 0.27900001 -2.9285838e+38
0.0085103922 0.044750635 0.27900001 -2.8885506e+38
0.0089299884 0.044590235 0.27800003 -2.8618618e+38
0.0093800873 0.044590235 0.27800003 -2.8618618e+38
0.010243305 0.044429839 0.27700001 -2.8885506e+38
0.010691784 0.044429839 0.27700001 -2.8618618e+38
0.011140265 0.044429839 0.27700001 -2.8618618e+38
0.012037224 0.044429839 0.27700001 -2.8485174e+38
0.012485704 0.044429839 0.27700001 -2.8485174e+38
0.012934184 0.044429839 0.27700001 -2.8485174e+38
0.013831144 0.044429839 0.27700001 -2.835173e+38
0.014279624 0.044429839 0.27700001 -2.8485174e+38
0.014674933 0.044269443 0.27600002 -2.8485174e+38
0.015568654 0.044269443 0.27600002 -2.8485174e+38
0.016015515 0.044269443 0.27600002 -2.8219847e+38
0.016402731 0.044109046 0.27500001 -2.8219847e+38
0.017293213 0.044109046 0.27500001 -2.8086403e+38
0.017738454 0.044109046 0.27500001 -2.7952959e+38
0.018183697 0.044109046 0.27500001 -2.7952959e+38
0.018628938 0.044109046 0.27500001 -2.8086403e+38
0.019519422 0.044109046 0.27500001 -2.7952959e+38
0.020037262 0.044269443 0.27600002 -2.7952959e+38
0.020484123 0.044269443 0.27600002 -2.7952959e+38
0.020930983 0.044269443 0.27600002 -2.7952959e+38
0.021824704 0.044269443 0.27600002 -2.7953475e+38
0.022352261 0.044429839 0.27700001 -2.7951909e+38
0.022800742 0.044429839 0.27700001 -2.7951909e+38
0.02324922 0.044429839 0.27700001 -2.7551572e+38
0.023783252 0.044590235 0.27800003 -2.7418128e+38
0.0062293946 0.045490433 0.27800003 -2.9819614e+38
0.0066794935 0.045490433 0.27800003 -2.9419282e+38
0.0071295924 0.045490433 0.27800003 -2.9285838e+38
0.0080297906 0.045490433 0.27800003 -2.8885506e+38
0.0085103922 0.04565407 0.27900001 -2.901895e+38
0.0089299884 0.045490433 0.27800003 -2.8618618e+38
0.0093800873 0.045490433 0.27800003 -2.8885506e+38
0.010243305 0.045326799 0.27700001 -2.8885506e+38
0.010691784 0.045326799 0.27700001 -2.8885506e+38
0.011140265 0.045326799 0.27700001 -2.8618618e+38
0.012037224 0.045326799 0.27700001 -2.8618618e+38
0.012485704 0.045326799 0.27700001 -2.8618618e+38
0.012934184 0.045326799 0.27700001 -2.8618618e+38
0.013831144 0.045326799 0.27700001 -2.8485174e+38
0.014279624 0.045326799 0.27700001 -2.8485174e+38
0.014674933 0.045163166 0.27600002 -2.8485174e+38
0.015568654 0.045163166 0.27600002 -2.8618618e+38
0.016015515 0.045163166 0.27600002 -2.8485174e+38
0.016462376 0.045163166 0.27600002 -2.8485174e+38
0.016909236 0.045163166 0.27600002 -2.835173e+38
0.017802957 0.045163166 0.27600002 -2.835173e+38
0.018249819 0.045163166 0.27600002 -2.835173e+38
0.018696679 0.045163166 0.27600002 -2.8086403e+38
0.019590402 0.045163166 0.27600002 -2.8086403e+38
0.020037262 0.045163166 0.27600002 -2.8086403e+38
0.020484123 0.045163166 0.27600002 -2.8086403e+38
0.020930983 0.045163166 0.27600002 -2.8086403e+38
0.021455301 0.045326799 0.27700001 -2.7953475e+38
0.022352261 0.045326799 0.27700001 -2.7951913e+38
