# .PCD v0.7 - Point Cloud Data file format
VERSION 0.7
FIELDS x y z rgb
SIZE 4 4 4 4
TYPE F F F F
COUNT 1 1 1 1
WIDTH 975
HEIGHT 1
VIEWPOINT 0 0 0 1 0 0 0
POINTS 975
DATA ascii
0.0055208942 0.013087652 0.28800002 -2.3812573e+38
0.0060079726 0.013133096 0.289 -2.3946017e+38
0.0064534736 0.013087652 0.28800002 -2.3813614e+38
0.0073860525 0.013087652 0.28800002 -2.5548902e+38
0.007852342 0.013087652 0.28800002 -2.6082678e+38
0.008318631 0.013087652 0.28800002 -2.608424e+38
0.0088154236 0.013133096 0.289 -2.6351128e+38
0.0092833322 0.013133096 0.289 -2.675146e+38
0.010254511 0.013178539 0.29000002 -2.7016786e+38
0.010724038 0.013178539 0.29000002 -2.715023e+38
0.011232164 0.013223982 0.29100001 -2.7416078e+38
0.011703311 0.013223982 0.29100001 -2.714919e+38
0.012299967 0.013360312 0.294 -2.7417118e+38
0.012775972 0.013360312 0.294 -2.7417118e+38
0.013342124 0.013451197 0.296 -2.7550562e+38
0.013821366 0.013451197 0.296 -2.7417118e+38
0.014779851 0.013451197 0.296 -2.7550562e+38
0.015259093 0.013451197 0.296 -2.7684006e+38
0.015685165 0.013405755 0.29500002 -2.7684006e+38
0.016640412 0.013405755 0.29500002 -2.8084339e+38
0.017118033 0.013405755 0.29500002 -2.8084339e+38
0.017595656 0.013405755 0.29500002 -2.8084339e+38
0.018550903 0.013405755 0.29500002 -2.8217268e+38
0.019028526 0.013405755 0.29500002 -2.8483115e+38
0.019506149 0.013405755 0.29500002 -2.8483115e+38
0.01998377 0.013405755 0.29500002 -2.8483115e+38
0.020939017 0.013405755 0.29500002 -2.8750007e+38
0.02134404 0.013360312 0.294 -2.9016895e+38
0.021820044 0.013360312 0.294 -2.9016895e+38
0.022772051 0.013360312 0.294 -2.9016895e+38
0.026432423 0.011997014 0.264 -2.7282119e+38
0.026859853 0.011997014 0.264 -2.7282119e+38
0.027287286 0.011997014 0.264 -2.7282119e+38
0.027714718 0.011997014 0.264 -2.7415563e+38
0.02824875 0.012042457 0.26500002 -2.7282119e+38
0.028786018 0.012087901 0.266 -2.7148675e+38
0.029647358 0.012087901 0.266 -2.7281072e+38
0.030078029 0.012087901 0.266 -2.7281072e+38
0.030508699 0.012087901 0.266 -2.7281072e+38
0.03137004 0.012087901 0.266 -2.688074e+38
0.031920262 0.012133344 0.26700002 -2.688074e+38
0.032352548 0.012133344 0.26700002 -2.688074e+38
0.032784838 0.012133344 0.26700002 -2.7014184e+38
0.033217128 0.012133344 0.26700002 -2.688074e+38
0.034081705 0.012133344 0.26700002 -2.7281072e+38
0.034513995 0.012133344 0.26700002 -2.7014184e+38
0.03507717 0.012178788 0.26800001 -2.7281072e+38
0.035511076 0.012178788 0.26800001 -2.7281068e+38
0.036378894 0.012178788 0.26800001 -2.7547427e+38
0.036950164 0.01222423 0.26900002 -2.8881867e+38
-0.0035935123 0.012800945 0.27200001 -3.035235e+38
-0.0031531279 0.012800945 0.27200001 -3.035235e+38
-0.0022640047 0.012753882 0.27100003 -3.035235e+38
-0.0018252392 0.012753882 0.27100003 -3.0485794e+38
-0.0013864738 0.012753882 0.27100003 -3.0485794e+38
-0.00050894276 0.012753882 0.27100003 -3.0884565e+38
-7.0177302e-05 0.012753882 0.27100003 -3.0886126e+38
0.00036858817 0.012753882 0.27100003 -3.0886126e+38
0.0055208942 0.013553942 0.28800002 -2.4346349e+38
0.0059871841 0.013553942 0.28800002 -2.4613237e+38
0.0064534736 0.013553942 0.28800002 -2.5016172e+38
0.0082897479 0.01350688 0.287 -2.661645e+38
0.0087849209 0.013553942 0.28800002 -2.6883338e+38
0.0092833322 0.013601003 0.289 -2.7150226e+38
0.010219149 0.013601003 0.289 -2.7150226e+38
0.010724038 0.013648067 0.29000002 -2.7150226e+38
0.011193565 0.013648067 0.29000002 -2.7416074e+38
0.011703311 0.013695128 0.29100001 -2.728263e+38
0.012174457 0.013695128 0.29100001 -2.7417118e+38
0.01329705 0.013883377 0.29500002 -2.7550562e+38
0.014252296 0.013883377 0.29500002 -2.7417118e+38
0.014729919 0.013883377 0.29500002 -2.7550562e+38
0.015207542 0.013883377 0.29500002 -2.7684006e+38
0.016107997 0.013836316 0.294 -2.7950895e+38
0.016584001 0.013836316 0.294 -2.7950895e+38
0.017060006 0.013836316 0.294 -2.8083298e+38
0.017536009 0.013836316 0.294 -2.8216742e+38
0.018488016 0.013836316 0.294 -2.8350186e+38
0.018964021 0.013836316 0.294 -2.8349671e+38
0.019440025 0.013836316 0.294 -2.8483115e+38
0.020392032 0.013836316 0.294 -2.8483115e+38
0.020868037 0.013836316 0.294 -2.8616559e+38
0.021271441 0.013789252 0.29300001 -2.8750003e+38
0.022220211 0.013789252 0.29300001 -2.8750003e+38
0.025577558 0.012424446 0.264 -2.7282119e+38
0.026432423 0.012424446 0.264 -2.7282119e+38
0.026859853 0.012424446 0.264 -2.7282119e+38
0.027287286 0.012424446 0.264 -2.7415563e+38
0.027714718 0.012424446 0.264 -2.7415563e+38
0.02824875 0.012471508 0.26500002 -2.7282119e+38
0.028786018 0.012518572 0.266 -2.7282119e+38
0.029647358 0.012518572 0.266 -2.754796e+38
0.030191103 0.012565633 0.26700002 -2.7414516e+38
0.030623393 0.012565633 0.26700002 -2.7281072e+38
0.031055681 0.012565633 0.26700002 -2.701418e+38
0.031920262 0.012565633 0.26700002 -2.7414508e+38
0.032352548 0.012565633 0.26700002 -2.7681396e+38
0.032784838 0.012565633 0.26700002 -2.7281064e+38
0.033217128 0.012565633 0.26700002 -2.7414508e+38
0.034081705 0.012565633 0.26700002 -2.7549514e+38
0.034643263 0.012612696 0.26800001 -2.7682958e+38
0.03507717 0.012612696 0.26800001 -2.7816402e+38
0.035511076 0.012612696 0.26800001 -2.8217249e+38
0.036378894 0.012612696 0.26800001 -2.9283751e+38
0.036950164 0.012659757 0.26900002 -2.9817527e+38
-0.0036067239 0.013290011 0.273 -3.0085462e+38
-0.0031531279 0.013241329 0.27200001 -3.0218906e+38
-0.0027127434 0.013241329 0.27200001 -2.9952018e+38
-0.0018252392 0.013192647 0.27100003 -3.0484232e+38
-0.0013864738 0.013192647 0.27100003 -3.0484232e+38
-0.00050894276 0.013192647 0.27100003 -3.0617677e+38
-7.0177302e-05 0.013192647 0.27100003 -3.0485794e+38
0.00036994828 0.013241329 0.27200001 -3.0619238e+38
0.00081033277 0.013241329 0.27200001 -3.0886126e+38
0.0012553156 0.013290011 0.273 -3.101957e+38
0.010650079 0.014020231 0.28800002 -2.728367e+38
0.011154966 0.014068912 0.289 -2.728367e+38
0.011663093 0.014117594 0.29000002 -2.728367e+38
0.012602149 0.014117594 0.29000002 -2.7417118e+38
0.013251975 0.014312319 0.294 -2.7550562e+38
0.014155669 0.014263637 0.29300001 -2.7417118e+38
0.014679986 0.014312319 0.294 -2.7550562e+38
0.01515599 0.014312319 0.294 -2.7684006e+38
0.016107997 0.014312319 0.294 -2.8083298e+38
0.016584001 0.014312319 0.294 -2.8083298e+38
0.017060006 0.014312319 0.294 -2.8083298e+38
0.017536009 0.014312319 0.294 -2.8083298e+38
0.018425133 0.014263637 0.29300001 -2.8350186e+38
0.018899517 0.014263637 0.29300001 -2.8349671e+38
0.019373903 0.014263637 0.29300001 -2.8349671e+38
0.020253312 0.014214956 0.29200003 -2.8483115e+38
0.020726077 0.014214956 0.29200003 -2.8616559e+38
0.021198843 0.014214956 0.29200003 -2.8616559e+38
0.025150126 0.012851878 0.264 -2.7815895e+38
0.025577558 0.012851878 0.264 -2.7415563e+38
0.0263323 0.012803197 0.26300001 -2.7282119e+38
0.026758112 0.012803197 0.26300001 -2.7282119e+38
0.027183926 0.012803197 0.26300001 -2.7415563e+38
0.027714718 0.012851878 0.264 -2.7549007e+38
0.02824875 0.012900559 0.26500002 -2.7282119e+38
0.028894236 0.012997922 0.26700002 -2.7415563e+38
0.029758815 0.012997922 0.26700002 -2.8483626e+38
0.030191103 0.012997922 0.26700002 -2.9416169e+38
0.030623393 0.012997922 0.26700002 -2.9683057e+38
0.031055681 0.012997922 0.26700002 -2.9817016e+38
0.031920262 0.012997922 0.26700002 -2.9551686e+38
0.032352548 0.012997922 0.26700002 -2.9551686e+38
0.032784838 0.012997922 0.26700002 -2.9685645e+38
0.033217128 0.012997922 0.26700002 -2.9552201e+38
0.034209352 0.013046604 0.26800001 -2.9152909e+38
0.034643263 0.013046604 0.26800001 -2.9419797e+38
0.03507717 0.013046604 0.26800001 -2.9419797e+38
-0.0040635578 0.013782314 0.27400002 -3.0085462e+38
-0.0031647203 0.013732014 0.273 -2.9952018e+38
-0.0027127434 0.013681713 0.27200001 -2.968513e+38
-0.0018319744 0.013681713 0.27200001 -2.9950456e+38
-0.0013915899 0.013681713 0.27200001 -3.0217344e+38
-0.00050894276 0.013631413 0.27100003 -3.0350788e+38
-7.0436261e-05 0.013681713 0.27200001 -3.0218906e+38
0.00036994828 0.013681713 0.27200001 -3.0485794e+38
0.00081331196 0.013732014 0.273 -3.0619238e+38
0.0012553156 0.013732014 0.273 -3.0886126e+38
0.024722693 0.013279309 0.264 -2.8349671e+38
0.025054861 0.01322901 0.26300001 -2.8082783e+38
0.025480675 0.01322901 0.26300001 -2.7682451e+38
0.0263323 0.01322901 0.26300001 -2.7282119e+38
0.026758112 0.01322901 0.26300001 -2.7415563e+38
0.027183926 0.01322901 0.26300001 -2.7549522e+38
0.027714718 0.013279309 0.264 -2.8083298e+38
0.028355347 0.013379912 0.266 -2.9017398e+38
0.028894236 0.013430212 0.26700002 -2.9284287e+38
0.029758815 0.013430212 0.26700002 -2.9952022e+38
0.030304179 0.013480511 0.26800001 -3.0350792e+38
0.030623393 0.013430212 0.26700002 -3.0217348e+38
0.031055681 0.013430212 0.26700002 -3.0217344e+38
0.011116369 0.01495281 0.28800002 -2.728367e+38
0.012090784 0.015004729 0.289 -2.7417118e+38
0.012558692 0.015004729 0.289 -2.7417118e+38
0.013071676 0.015056649 0.29000002 -2.7550562e+38
0.013681285 0.015212406 0.29300001 -2.7417118e+38
0.014155669 0.015212406 0.29300001 -2.7550562e+38
0.014679986 0.015264327 0.294 -2.7684006e+38
0.015104439 0.015212406 0.29300001 -2.781641e+38
0.015998419 0.015160487 0.29200003 -2.8083298e+38
0.017416717 0.015160487 0.29200003 -2.8083298e+38
0.017889483 0.015160487 0.29200003 -2.8083298e+38
0.018362248 0.015160487 0.29200003 -2.8216742e+38
0.019241657 0.015108569 0.29100001 -2.8216227e+38
0.019712804 0.015108569 0.29100001 -2.8349671e+38
0.020114589 0.015056649 0.29000002 -2.8349671e+38
0.021053644 0.015056649 0.29000002 -2.8483115e+38
0.021523172 0.015056649 0.29000002 -2.8483115e+38
-0.0031763127 0.01466956 0.27400002 -2.9552201e+38
-0.0027227167 0.014616022 0.273 -2.9551686e+38
-0.0018319744 0.014562482 0.27200001 -2.9418242e+38
-0.0013915899 0.014562482 0.27200001 -2.9551686e+38
-0.00095120532 0.014562482 0.27200001 -2.9817012e+38
-7.0436261e-05 0.014562482 0.27200001 -2.9551686e+38
0.00036994828 0.014562482 0.27200001 -2.9952018e+38
0.00081331196 0.014616022 0.273 -3.0218906e+38
0.0012553156 0.014616022 0.273 -3.0485794e+38
0.0016973192 0.014616022 0.273 -3.0619238e+38
0.0025813263 0.014616022 0.273 -3.0886126e+38
0.012048948 0.015419099 0.28800002 -2.7417118e+38
0.012558692 0.015472637 0.289 -2.7417118e+38
0.013026601 0.015472637 0.289 -2.7550562e+38
0.014155669 0.015686791 0.29300001 -2.7550047e+38
0.014630054 0.015686791 0.29300001 -2.7683491e+38
0.015525654 0.015633253 0.29200003 -2.7815895e+38
0.016827896 0.015526177 0.29000002 -2.8083298e+38
0.017297424 0.015526177 0.29000002 -2.8083298e+38
0.017766951 0.015526177 0.29000002 -2.8083298e+38
0.018236479 0.015526177 0.29000002 -2.8216742e+38
0.019175535 0.015526177 0.29000002 -2.8216227e+38
0.019577321 0.015472637 0.289 -2.8216227e+38
0.020045228 0.015472637 0.289 -2.8349671e+38
0.020981045 0.015472637 0.289 -2.8483115e+38
0.021448955 0.015472637 0.289 -2.8483115e+38
0.023867831 0.014134174 0.264 -2.8483115e+38
0.024629047 0.014080636 0.26300001 -2.8350186e+38
0.025054861 0.014080636 0.26300001 -2.848363e+38
0.025480675 0.014080636 0.26300001 -2.8350182e+38
0.026232176 0.014027097 0.26200002 -2.8751025e+38
0.026656371 0.014027097 0.26200002 -2.955169e+38
0.027183926 0.014080636 0.26300001 -2.9952018e+38
0.027714718 0.014134174 0.264 -2.968513e+38
0.028355347 0.014241252 0.266 -2.968513e+38
0.028894236 0.01429479 0.26700002 -2.9551686e+38
0.029436361 0.014348328 0.26800001 -2.9685645e+38
0.030304179 0.014348328 0.26800001 -3.0083375e+38
0.030738087 0.014348328 0.26800001 -2.9949931e+38
0.031055681 0.01429479 0.26700002 -3.0349221e+38
0.031920262 0.01429479 0.26700002 -3.0215776e+38
0.032352548 0.01429479 0.26700002 -3.0215776e+38
0.032907628 0.014348328 0.26800001 -2.9683039e+38
0.033341538 0.014348328 0.26800001 -2.9949927e+38
0.034209352 0.014348328 0.26800001 -2.9816483e+38
0.034643263 0.014348328 0.26800001 -2.9816483e+38
0.035208054 0.014401867 0.26900002 -2.9683039e+38
0.035643581 0.014401867 0.26900002 -2.9683039e+38
0.036213234 0.014455406 0.27000001 -2.9683039e+38
0.036650382 0.014455406 0.27000001 -2.9549591e+38
-0.0040783882 0.015168339 0.27500001 -2.9952533e+38
-0.0031763127 0.015113182 0.27400002 -2.9552201e+38
-0.00273269 0.015113182 0.27400002 -2.9418242e+38
-0.0018387095 0.015058025 0.273 -2.9418242e+38
-0.001396706 0.015058025 0.273 -2.9418242e+38
-0.00095120532 0.015002866 0.27200001 -2.9551686e+38
-7.0436261e-05 0.015002866 0.27200001 -2.9551686e+38
0.00037130836 0.015058025 0.273 -2.9952018e+38
0.00081331196 0.015058025 0.273 -3.0218906e+38
0.0012599138 0.015113182 0.27400002 -3.035235e+38
0.0017035365 0.015113182 0.27400002 -3.0619238e+38
0.0025813263 0.015058025 0.273 -3.0619238e+38
0.012515237 0.015885388 0.28800002 -2.7550562e+38
0.017237777 0.015940545 0.289 -2.8083298e+38
0.017705686 0.015940545 0.289 -2.8083298e+38
0.018641504 0.015940545 0.289 -2.8216742e+38
0.019043289 0.015885388 0.28800002 -2.8216742e+38
0.019577321 0.015940545 0.289 -2.8216742e+38
0.020045228 0.015940545 0.289 -2.8350186e+38
0.020908447 0.015885388 0.28800002 -2.8349671e+38
0.024111206 0.014451291 0.26200002 -2.8483115e+38
0.024535401 0.014451291 0.26200002 -2.848363e+38
0.024959594 0.014451291 0.26200002 -2.8617074e+38
0.025807982 0.014451291 0.26200002 -2.9150847e+38
0.026232176 0.014451291 0.26200002 -2.968513e+38
0.026656371 0.014451291 0.26200002 -2.9952018e+38
0.027504759 0.014451291 0.26200002 -2.968513e+38
0.028355347 0.014671922 0.266 -2.9418757e+38
0.028894236 0.014727079 0.26700002 -2.9018425e+38
0.029436361 0.014782236 0.26800001 -2.9549599e+38
0.030304179 0.014782236 0.26800001 -2.9681996e+38
0.030738087 0.014782236 0.26800001 -2.9281664e+38
0.031171994 0.014782236 0.26800001 -2.9682e+38
0.031605903 0.014782236 0.26800001 -2.9815444e+38
0.032473721 0.014782236 0.26800001 -2.9682e+38
0.032907628 0.014782236 0.26800001 -2.9415112e+38
0.033341538 0.014782236 0.26800001 -2.9682e+38
0.034209352 0.014782236 0.26800001 -2.9682e+38
0.034772526 0.014837394 0.26900002 -2.9682e+38
0.035208054 0.014837394 0.26900002 -2.9415112e+38
0.03577609 0.014892552 0.27000001 -2.9415108e+38
0.036213234 0.014892552 0.27000001 -2.9415108e+38
0.036786124 0.014947709 0.27100003 -2.9015814e+38
-0.0031879051 0.015613581 0.27500001 -2.9817527e+38
-0.00273269 0.015556805 0.27400002 -2.9418757e+38
-0.0022890673 0.015556805 0.27400002 -2.9418757e+38
-0.001396706 0.015500029 0.273 -2.9418757e+38
-0.00095470232 0.015500029 0.273 -2.9418757e+38
-0.00051269878 0.015500029 0.273 -2.9552201e+38
-7.0954171e-05 0.015556805 0.27400002 -2.9551686e+38
0.00081629114 0.015556805 0.27400002 -2.9953058e+38
0.0012599138 0.015556805 0.27400002 -2.9953058e+38
0.0017035365 0.015556805 0.27400002 -3.0219947e+38
0.0025813263 0.015500029 0.273 -3.0219947e+38
0.0050033103 0.014818707 0.26100001 -2.8083801e+38
0.0058260527 0.014761931 0.26000002 -2.7015742e+38
0.0062470082 0.014761931 0.26000002 -2.7015742e+38
0.0066679642 0.014761931 0.26000002 -2.7149186e+38
0.0075098756 0.014761931 0.26000002 -2.728263e+38
0.007930832 0.014761931 0.26000002 -2.728263e+38
0.008351787 0.014761931 0.26000002 -2.7416074e+38
0.019043289 0.016351677 0.28800002 -2.8217783e+38
0.01950958 0.016351677 0.28800002 -2.8350186e+38
0.023596603 0.014818707 0.26100001 -2.8483115e+38
0.024111206 0.014875486 0.26200002 -2.8483115e+38
0.024535401 0.014875486 0.26200002 -2.848363e+38
0.024959594 0.014875486 0.26200002 -2.8750518e+38
0.025807982 0.014875486 0.26200002 -2.9685134e+38
0.026232176 0.014875486 0.26200002 -3.021786e+38
0.026656371 0.014875486 0.26200002 -3.021786e+38
0.027504759 0.014875486 0.26200002 -2.9550639e+38
0.028894236 0.015159369 0.26700002 -2.8749975e+38
0.029436361 0.015216145 0.26800001 -2.874893e+38
0.030304179 0.015216145 0.26800001 -2.874893e+38
0.030738087 0.015216145 0.26800001 -2.874893e+38
0.031171994 0.015216145 0.26800001 -2.8882378e+38
0.031605903 0.015216145 0.26800001 -2.8882378e+38
0.032473721 0.015216145 0.26800001 -2.9148224e+38
0.032907628 0.015216145 0.26800001 -2.901478e+38
0.033341538 0.015216145 0.26800001 -2.9148224e+38
0.033901472 0.015272922 0.26900002 -2.9281668e+38
0.034772526 0.015272922 0.26900002 -2.9281668e+38
0.035338942 0.015329698 0.27000001 -2.9148224e+38
0.03577609 0.015329698 0.27000001 -2.9148224e+38
0.036347356 0.015386474 0.27100003 -2.9148224e+38
0.036786124 0.015386474 0.27100003 -2.8749971e+38
0.0079003274 0.015124491 0.259 -2.728263e+38
0.0083196647 0.015124491 0.259 -2.7416074e+38
0.0091583384 0.015124491 0.259 -2.7416074e+38
-0.0036463579 0.01656408 0.27600002 -2.9552201e+38
-0.0027426635 0.016504064 0.27500001 -2.9418757e+38
-0.0022890673 0.01644405 0.27400002 -2.9418757e+38
-0.0014018221 0.01644405 0.27400002 -2.9284798e+38
-0.00095819944 0.01644405 0.27400002 -2.9284798e+38
-0.00051457679 0.01644405 0.27400002 -2.9418242e+38
-7.0954171e-05 0.01644405 0.27400002 -2.9419282e+38
0.00081629114 0.01644405 0.27400002 -2.9819614e+38
0.0012599138 0.01644405 0.27400002 -2.9953058e+38
0.0017097536 0.016504064 0.27500001 -3.0219947e+38
0.0054050968 0.015603843 0.26000002 -2.7283137e+38
0.0058260527 0.015603843 0.26000002 -2.7016782e+38
0.0062470082 0.015603843 0.26000002 -2.6883338e+38
0.0066679642 0.015603843 0.26000002 -2.7016782e+38
0.0075098756 0.015603843 0.26000002 -2.7150226e+38
0.0096146548 0.015603843 0.26000002 -2.7549518e+38
0.010035611 0.015603843 0.26000002 -2.7682962e+38
0.02308524 0.015603843 0.26000002 -2.8882401e+38
0.023506196 0.015603843 0.26000002 -2.8748957e+38
0.02401918 0.015663857 0.26100001 -2.8748957e+38
0.024535401 0.015723873 0.26200002 -2.8882401e+38
0.024959594 0.015723873 0.26200002 -2.9549621e+38
0.026232176 0.015723873 0.26200002 -2.9950967e+38
0.026656371 0.015723873 0.26200002 -2.9016859e+38
0.027504759 0.015723873 0.26200002 -2.8482046e+38
0.028035551 0.015783887 0.26300001 -2.8082755e+38
0.029002454 0.016083961 0.26800001 -2.7949311e+38
0.029436361 0.016083961 0.26800001 -2.7815866e+38
0.030304179 0.016083961 0.26800001 -2.7949311e+38
0.030738087 0.016083961 0.26800001 -2.7949311e+38
0.031171994 0.016083961 0.26800001 -2.8082239e+38
0.031605903 0.016083961 0.26800001 -2.8082239e+38
0.032473721 0.016083961 0.26800001 -2.8349128e+38
0.033030417 0.016143976 0.26900002 -2.8349643e+38
0.033465944 0.016143976 0.26900002 -2.8483087e+38
0.033901472 0.016143976 0.26900002 -2.8349643e+38
0.03446465 0.01620399 0.27000001 -2.8349643e+38
0.035031062 0.016264005 0.27100003 -2.8616531e+38
0.035908591 0.016264005 0.27100003 -2.8349639e+38
0.036213234 0.01620399 0.27000001 -2.8349639e+38
0.036786124 0.016264005 0.27100003 -2.8483083e+38
0.037663653 0.016264005 0.27100003 -2.8616523e+38
-0.0036463579 0.01701094 0.27600002 -2.9552201e+38
-0.0027426635 0.016949305 0.27500001 -2.9418242e+38
-0.0022974217 0.016949305 0.27500001 -2.9418242e+38
-0.00185218 0.016949305 0.27500001 -2.9284802e+38
-0.00096169661 0.016949305 0.27500001 -2.9284802e+38
-0.00051645486 0.016949305 0.27500001 -2.9418246e+38
-7.121313e-05 0.016949305 0.27500001 -2.9285842e+38
0.00037402858 0.016949305 0.27500001 -2.9419286e+38
0.001264512 0.016949305 0.27500001 -2.9953063e+38
0.0017097536 0.016949305 0.27500001 -3.0086503e+38
0.0054050968 0.016024798 0.26000002 -2.7682422e+38
0.0058260527 0.016024798 0.26000002 -2.7016782e+38
0.0062470082 0.016024798 0.26000002 -2.6883338e+38
0.0066679642 0.016024798 0.26000002 -2.7016782e+38
0.0074809911 0.015963165 0.259 -2.7150226e+38
0.0079003274 0.015963165 0.259 -2.728367e+38
0.0083196647 0.015963165 0.259 -2.7549518e+38
0.0091583384 0.015963165 0.259 -2.7549518e+38
0.0095776748 0.015963165 0.259 -2.7549518e+38
0.0099970112 0.015963165 0.259 -2.7682962e+38
0.010835685 0.015963165 0.259 -2.7682962e+38
0.011255022 0.015963165 0.259 -2.7816406e+38
0.011674359 0.015963165 0.259 -2.7816406e+38
0.012093695 0.015963165 0.259 -2.7816406e+38
0.012932369 0.015963165 0.259 -2.7816406e+38
0.013300154 0.015901532 0.25800002 -2.7816406e+38
0.013717872 0.015901532 0.25800002 -2.8216738e+38
0.014553307 0.015901532 0.25800002 -2.8083294e+38
0.014971024 0.015901532 0.25800002 -2.8350182e+38
0.015388742 0.015901532 0.25800002 -2.8216738e+38
0.016224178 0.015901532 0.25800002 -2.8216738e+38
0.016641896 0.015901532 0.25800002 -2.8350182e+38
0.021319104 0.015963165 0.259 -2.8350186e+38
0.022072226 0.015901532 0.25800002 -2.8882401e+38
0.022489943 0.015901532 0.25800002 -2.8748957e+38
0.022996452 0.015963165 0.259 -2.8748957e+38
0.023506196 0.016024798 0.26000002 -2.8882401e+38
0.02401918 0.016086431 0.26100001 -2.8882401e+38
0.024441754 0.016086431 0.26100001 -2.8750514e+38
0.024959594 0.016148066 0.26200002 -2.9684623e+38
0.026232176 0.016148066 0.26200002 -2.9683039e+38
0.026656371 0.016148066 0.26200002 -2.874893e+38
0.027504759 0.016148066 0.26200002 -2.7814826e+38
0.028035551 0.016209701 0.26300001 -2.7815866e+38
0.029002454 0.016517868 0.26800001 -2.7682422e+38
0.029436361 0.016517868 0.26800001 -2.7682422e+38
0.029981727 0.016579503 0.26900002 -2.7682422e+38
0.03085278 0.016579503 0.26900002 -2.7949311e+38
0.031288307 0.016579503 0.26900002 -2.7948795e+38
0.031723835 0.016579503 0.26900002 -2.7948795e+38
0.032159362 0.016579503 0.26900002 -2.8082239e+38
0.033030417 0.016579503 0.26900002 -2.8349128e+38
0.033590358 0.016641138 0.27000001 -2.8349128e+38
0.034027502 0.016641138 0.27000001 -2.8349643e+38
0.034592297 0.016702771 0.27100003 -2.8349643e+38
0.035031062 0.016702771 0.27100003 -2.8483087e+38
0.035908591 0.016702771 0.27100003 -2.8349643e+38
0.036347356 0.016702771 0.27100003 -2.8082755e+38
0.036786124 0.016702771 0.27100003 -2.8349635e+38
-0.0036595699 0.017521054 0.27700001 -2.9552201e+38
-0.0027526368 0.017457802 0.27600002 -2.9418242e+38
-0.0023057759 0.017457802 0.27600002 -2.9418242e+38
-0.0018589152 0.017457802 0.27600002 -2.9284802e+38
-0.00096169661 0.017394548 0.27500001 -2.9418246e+38
-0.00051645486 0.017394548 0.27500001 -2.9418246e+38
-7.121313e-05 0.017394548 0.27500001 -2.9285842e+38
0.00037402858 0.017394548 0.27500001 -2.9419286e+38
0.001264512 0.017394548 0.27500001 -2.9953063e+38
0.0017035365 0.017331295 0.27400002 -3.0086507e+38
0.0054050968 0.016445754 0.26000002 -2.7815862e+38
0.0058260527 0.016445754 0.26000002 -2.7149182e+38
0.0062470082 0.016445754 0.26000002 -2.7149182e+38
0.0066679642 0.016445754 0.26000002 -2.7016782e+38
0.0074809911 0.016382502 0.259 -2.7150226e+38
0.0079003274 0.016382502 0.259 -2.728367e+38
0.0083196647 0.016382502 0.259 -2.7549518e+38
0.0091583384 0.016382502 0.259 -2.7814844e+38
0.0095776748 0.016382502 0.259 -2.7814844e+38
0.0099970112 0.016382502 0.259 -2.7816406e+38
0.010835685 0.016382502 0.259 -2.7816406e+38
0.011255022 0.016382502 0.259 -2.7816406e+38
0.011674359 0.016382502 0.259 -2.8083294e+38
0.012093695 0.016382502 0.259 -2.8083294e+38
0.012932369 0.016382502 0.259 -2.8083294e+38
0.013351706 0.016382502 0.259 -2.8083294e+38
0.013717872 0.016319249 0.25800002 -2.8216738e+38
0.014553307 0.016319249 0.25800002 -2.8216738e+38
0.014971024 0.016319249 0.25800002 -2.8350182e+38
0.015388742 0.016319249 0.25800002 -2.8216738e+38
0.016224178 0.016319249 0.25800002 -2.8350182e+38
0.016641896 0.016319249 0.25800002 -2.8350182e+38
0.017059613 0.016319249 0.25800002 -2.8483626e+38
0.017545074 0.016382502 0.259 -2.861707e+38
0.01796441 0.016382502 0.259 -2.8483626e+38
0.018803084 0.016382502 0.259 -2.8350186e+38
0.01922242 0.016382502 0.259 -2.848363e+38
0.019983636 0.016319249 0.25800002 -2.848363e+38
0.020401355 0.016319249 0.25800002 -2.8350186e+38
0.020819072 0.016319249 0.25800002 -2.848363e+38
0.02123679 0.016319249 0.25800002 -2.8350186e+38
0.022072226 0.016319249 0.25800002 -2.8882401e+38
0.022489943 0.016319249 0.25800002 -2.8882401e+38
0.022996452 0.016382502 0.259 -2.8882401e+38
0.023506196 0.016445754 0.26000002 -2.8882401e+38
0.02401918 0.016509008 0.26100001 -2.8882401e+38
0.024441754 0.016509008 0.26100001 -2.9150842e+38
0.024959594 0.016572261 0.26200002 -3.0084951e+38
0.026232176 0.016572261 0.26200002 -2.9149258e+38
0.026656371 0.016572261 0.26200002 -2.8081706e+38
0.027504759 0.016572261 0.26200002 -2.7547934e+38
0.028035551 0.016635513 0.26300001 -2.7548978e+38
0.029002454 0.016951777 0.26800001 -2.7548978e+38
0.029546199 0.017015031 0.26900002 -2.7548978e+38
0.029981727 0.017015031 0.26900002 -2.7548978e+38
0.03085278 0.017015031 0.26900002 -2.7815866e+38
0.031288307 0.017015031 0.26900002 -2.7815866e+38
0.031723835 0.017015031 0.26900002 -2.7815866e+38
0.032159362 0.017015031 0.26900002 -2.7948795e+38
0.03315321 0.017078284 0.27000001 -2.8349128e+38
0.033590358 0.017078284 0.27000001 -2.8349128e+38
0.034153529 0.017141536 0.27100003 -2.8082239e+38
0.034592297 0.017141536 0.27100003 -2.8349128e+38
0.035031062 0.017141536 0.27100003 -2.8349643e+38
0.035908591 0.017141536 0.27100003 -2.8349639e+38
0.036347356 0.017141536 0.27100003 -2.8082751e+38
0.036786124 0.017141536 0.27100003 -2.8349635e+38
-0.0045894287 0.018099276 0.27900001 -2.9952533e+38
-0.0036727812 0.018034406 0.27800003 -2.9551686e+38
-0.0032110899 0.017969534 0.27700001 -2.9551686e+38
-0.0023057759 0.017904662 0.27600002 -2.9418242e+38
-0.0018589152 0.017904662 0.27600002 -2.9284798e+38
-0.0014120544 0.017904662 0.27600002 -2.9418242e+38
-0.00051645486 0.017839789 0.27500001 -2.9418246e+38
-7.121313e-05 0.017839789 0.27500001 -2.9285842e+38
0.00037402858 0.017839789 0.27500001 -2.9419286e+38
0.001264512 0.017839789 0.27500001 -2.9953063e+38
0.0017035365 0.017774917 0.27400002 -3.0086507e+38
0.0054050968 0.01686671 0.26000002 -2.7949306e+38
0.0058484599 0.016931582 0.26100001 -2.7548467e+38
0.0062470082 0.01686671 0.26000002 -2.7415023e+38
0.0066679642 0.01686671 0.26000002 -2.7282626e+38
0.0074809911 0.016801838 0.259 -2.728263e+38
0.0079003274 0.016801838 0.259 -2.7416074e+38
0.0083196647 0.016801838 0.259 -2.7682962e+38
0.0091583384 0.016801838 0.259 -2.7814844e+38
0.0095776748 0.016801838 0.259 -2.7948288e+38
0.0099970112 0.016801838 0.259 -2.8081732e+38
0.010835685 0.016801838 0.259 -2.8083294e+38
0.011255022 0.016801838 0.259 -2.7816406e+38
0.011674359 0.016801838 0.259 -2.8216738e+38
0.012093695 0.016801838 0.259 -2.8216738e+38
0.012932369 0.016801838 0.259 -2.8083294e+38
0.013351706 0.016801838 0.259 -2.8083294e+38
0.013771043 0.016801838 0.259 -2.8216738e+38
0.014553307 0.016736967 0.25800002 -2.8216738e+38
0.014971024 0.016736967 0.25800002 -2.8350178e+38
0.015388742 0.016736967 0.25800002 -2.8350178e+38
0.016224178 0.016736967 0.25800002 -2.8617066e+38
0.016641896 0.016736967 0.25800002 -2.8483622e+38
0.017059613 0.016736967 0.25800002 -2.8483622e+38
0.017477332 0.016736967 0.25800002 -2.8617066e+38
0.018312765 0.016736967 0.25800002 -2.8483626e+38
0.018730484 0.016736967 0.25800002 -2.8483626e+38
0.019148201 0.016736967 0.25800002 -2.8483626e+38
0.019983636 0.016736967 0.25800002 -2.8483626e+38
0.020401355 0.016736967 0.25800002 -2.8350182e+38
0.020819072 0.016736967 0.25800002 -2.8483626e+38
0.02123679 0.016736967 0.25800002 -2.8483626e+38
0.022072226 0.016736967 0.25800002 -2.8617074e+38
0.022489943 0.016736967 0.25800002 -2.8617074e+38
0.022996452 0.016801838 0.259 -2.8617074e+38
0.023506196 0.01686671 0.26000002 -2.848363e+38
0.02401918 0.016931582 0.26100001 -2.8750518e+38
0.024535401 0.016996454 0.26200002 -2.9418246e+38
0.024959594 0.016996454 0.26200002 -3.0352354e+38
0.026232176 0.016996454 0.26200002 -2.888237e+38
0.026656371 0.016996454 0.26200002 -2.7814818e+38
0.027183926 0.017061327 0.26300001 -2.7282082e+38
0.028461946 0.017320814 0.26700002 -2.741553e+38
0.029002454 0.017385686 0.26800001 -2.7548974e+38
0.029546199 0.017450558 0.26900002 -2.741553e+38
0.029981727 0.017450558 0.26900002 -2.741553e+38
0.030530332 0.01751543 0.27000001 -2.7548978e+38
0.031404626 0.01751543 0.27000001 -2.7815866e+38
0.03184177 0.01751543 0.27000001 -2.7815866e+38
0.032278918 0.01751543 0.27000001 -2.7948795e+38
0.03315321 0.01751543 0.27000001 -2.8082239e+38
0.033714764 0.017580302 0.27100003 -2.8082239e+38
0.034153529 0.017580302 0.27100003 -2.8082239e+38
0.034592297 0.017580302 0.27100003 -2.8082239e+38
0.035160325 0.017645173 0.27200001 -2.8349128e+38
0.035600711 0.017645173 0.27200001 -2.8349128e+38
0.036347356 0.017580302 0.27100003 -2.8082755e+38
0.036786124 0.017580302 0.27100003 -2.8349635e+38
-0.0055125519 0.019070825 0.28 -3.035235e+38
-0.0050592152 0.019070825 0.28 -3.0085462e+38
-0.0045894287 0.019002713 0.27900001 -2.9952018e+38
-0.0036859927 0.019002713 0.27900001 -2.9419282e+38
-0.0032226823 0.018934604 0.27800003 -2.9419282e+38
-0.0023141301 0.018866492 0.27700001 -2.9285838e+38
-0.0018589152 0.018798383 0.27600002 -2.9285838e+38
-0.0014120544 0.018798383 0.27600002 -2.9152394e+38
-0.00051833288 0.018798383 0.27600002 -2.9285838e+38
-7.121313e-05 0.018730272 0.27500001 -2.9419282e+38
0.00037402858 0.018730272 0.27500001 -2.9552726e+38
0.001264512 0.018730272 0.27500001 -2.9819614e+38
0.0017035365 0.018662162 0.27400002 -3.0086503e+38
0.0058484599 0.017776731 0.26100001 -2.8749975e+38
0.0062710349 0.017776731 0.26100001 -2.7682422e+38
0.0066679642 0.017708622 0.26000002 -2.7548463e+38
0.0074809911 0.017640512 0.259 -2.7681911e+38
0.007930832 0.017708622 0.26000002 -2.7681911e+38
0.0083196647 0.017640512 0.259 -2.7683473e+38
0.0091583384 0.017640512 0.259 -2.7816402e+38
0.0095776748 0.017640512 0.259 -2.7816402e+38
0.0099970112 0.017640512 0.259 -2.808329e+38
0.010835685 0.017640512 0.259 -2.8216734e+38
0.011255022 0.017640512 0.259 -2.808329e+38
0.011674359 0.017640512 0.259 -2.8216734e+38
0.012093695 0.017640512 0.259 -2.8216734e+38
0.012932369 0.017640512 0.259 -2.8216734e+38
0.013351706 0.017640512 0.259 -2.8217249e+38
0.013771043 0.017640512 0.259 -2.8083805e+38
0.014609717 0.017640512 0.259 -2.5679206e+38
0.014971024 0.017572403 0.25800002 -2.5946609e+38
0.015388742 0.017572403 0.25800002 -2.6480385e+38
0.016224178 0.017572403 0.25800002 -2.8482572e+38
0.016641896 0.017572403 0.25800002 -2.8882904e+38
0.017059613 0.017572403 0.25800002 -2.9016348e+38
0.017477332 0.017572403 0.25800002 -2.9015837e+38
0.018312765 0.017572403 0.25800002 -2.8748953e+38
0.018730484 0.017572403 0.25800002 -2.8882397e+38
0.019148201 0.017572403 0.25800002 -2.8483626e+38
0.019983636 0.017572403 0.25800002 -2.8483626e+38
0.020401355 0.017572403 0.25800002 -2.8483626e+38
0.020819072 0.017572403 0.25800002 -2.861707e+38
0.02123679 0.017572403 0.25800002 -2.8483626e+38
0.022072226 0.017572403 0.25800002 -2.8750514e+38
0.022489943 0.017572403 0.25800002 -2.861707e+38
0.022996452 0.017640512 0.259 -2.861707e+38
0.023506196 0.017708622 0.26000002 -2.861707e+38
0.02401918 0.017776731 0.26100001 -2.9150847e+38
0.025807982 0.017844843 0.26200002 -2.8883411e+38
0.0263323 0.017912952 0.26300001 -2.7948262e+38
0.026758112 0.017912952 0.26300001 -2.7147598e+38
0.028029658 0.018185392 0.26700002 -2.7282082e+38
0.028461946 0.018185392 0.26700002 -2.7282082e+38
0.029002454 0.018253502 0.26800001 -2.7415526e+38
0.029546199 0.018321613 0.26900002 -2.7282086e+38
0.030093186 0.018389722 0.27000001 -2.741553e+38
0.030530332 0.018389722 0.27000001 -2.7548974e+38
0.031404626 0.018389722 0.27000001 -2.7417092e+38
0.03184177 0.018389722 0.27000001 -2.7417092e+38
0.032278918 0.018389722 0.27000001 -2.7683984e+38
0.032837234 0.018457832 0.27100003 -2.7683984e+38
0.033714764 0.018457832 0.27100003 -2.7683984e+38
0.034153529 0.018457832 0.27100003 -2.7817428e+38
0.03471994 0.018525941 0.27200001 -2.7817428e+38
0.035160325 0.018525941 0.27200001 -2.7817428e+38
0.035600711 0.018525941 0.27200001 -2.7817428e+38
0.036481481 0.018525941 0.27200001 -2.7817428e+38
0.036921866 0.018525941 0.27200001 -2.7817424e+38
0.037362248 0.018525941 0.27200001 -2.7817424e+38
-0.0055125519 0.019524161 0.28 -3.0218906e+38
-0.0050592152 0.019524161 0.28 -3.0085462e+38
-0.0046058781 0.019524161 0.28 -2.9952018e+38
-0.0036859927 0.019454431 0.27900001 -2.9419282e+38
-0.0032226823 0.019384703 0.27800003 -2.9285838e+38
-0.0023141301 0.019314973 0.27700001 -2.9285838e+38
-0.0018656503 0.019314973 0.27700001 -2.9152394e+38
-0.0014120544 0.019245245 0.27600002 -2.9152394e+38
-0.00051833288 0.019245245 0.27600002 -2.9152394e+38
-7.1472088e-05 0.019245245 0.27600002 -2.9419282e+38
0.00037402858 0.019175515 0.27500001 -2.9552726e+38
0.001264512 0.019175515 0.27500001 -2.9953058e+38
0.0017097536 0.019175515 0.27500001 -3.0086503e+38
0.0062710349 0.018199306 0.26100001 -2.9550635e+38
0.0066679642 0.018129578 0.26000002 -2.9016859e+38
0.0074809911 0.018059848 0.259 -2.8082755e+38
0.0079003274 0.018059848 0.259 -2.8349643e+38
0.0083196647 0.018059848 0.259 -2.8349128e+38
0.0087727429 0.018129578 0.26000002 -2.8349128e+38
0.0095776748 0.018059848 0.259 -2.8349128e+38
0.0099970112 0.018059848 0.259 -2.8349132e+38
0.010835685 0.018059848 0.259 -2.8217249e+38
0.011255022 0.018059848 0.259 -2.8217249e+38
0.011674359 0.018059848 0.259 -2.8217249e+38
0.012093695 0.018059848 0.259 -2.8217249e+38
0.012932369 0.018059848 0.259 -2.8217249e+38
0.013351706 0.018059848 0.259 -2.8349128e+38
0.013771043 0.018059848 0.259 -2.874946e+38
0.016224178 0.01799012 0.25800002 -2.7680867e+38
0.016641896 0.01799012 0.25800002 -2.874946e+38
0.017059613 0.01799012 0.25800002 -2.9016348e+38
0.017477332 0.01799012 0.25800002 -2.9015837e+38
0.018312765 0.01799012 0.25800002 -2.8882397e+38
0.018730484 0.01799012 0.25800002 -2.8882397e+38
0.019148201 0.01799012 0.25800002 -2.8882397e+38
0.019983636 0.01799012 0.25800002 -2.8882397e+38
0.020401355 0.01799012 0.25800002 -2.8882397e+38
0.020819072 0.01799012 0.25800002 -2.861707e+38
0.02123679 0.01799012 0.25800002 -2.8483626e+38
0.022072226 0.01799012 0.25800002 -2.8750514e+38
0.022577114 0.018059848 0.259 -2.861707e+38
0.02308524 0.018129578 0.26000002 -2.861707e+38
0.023596603 0.018199306 0.26100001 -2.8617066e+38
0.02401918 0.018199306 0.26100001 -2.9284287e+38
0.027165079 0.018617682 0.26700002 -2.7014154e+38
0.027700728 0.01868741 0.26800001 -2.7015194e+38
0.028568545 0.01868741 0.26800001 -2.7282086e+38
0.029110672 0.01875714 0.26900002 -2.741553e+38
0.029656038 0.018826868 0.27000001 -2.7282086e+38
0.030093186 0.018826868 0.27000001 -2.741553e+38
0.030643407 0.018896598 0.27100003 -2.741553e+38
0.031082172 0.018896598 0.27100003 -2.7548974e+38
0.031959701 0.018896598 0.27100003 -2.7417092e+38
0.03239847 0.018896598 0.27100003 -2.755054e+38
0.032837234 0.018896598 0.27100003 -2.7683984e+38
0.033714764 0.018896598 0.27100003 -2.7683984e+38
0.034279559 0.018966326 0.27200001 -2.7683984e+38
0.03471994 0.018966326 0.27200001 -2.7817428e+38
0.035160325 0.018966326 0.27200001 -2.7817428e+38
0.035600711 0.018966326 0.27200001 -2.7817428e+38
0.036481481 0.018966326 0.27200001 -2.7817428e+38
0.036921866 0.018966326 0.27200001 -2.7817424e+38
0.037362248 0.018966326 0.27200001 -2.7817424e+38
-0.0055125519 0.019977497 0.28 -3.0218906e+38
-0.0050592152 0.019977497 0.28 -3.0085462e+38
-0.0046058781 0.019977497 0.28 -2.9819618e+38
-0.0036859927 0.019906148 0.27900001 -2.9419282e+38
-0.0032342747 0.019906148 0.27900001 -2.9285838e+38
-0.0027725834 0.0198348 0.27800003 -2.9285838e+38
-0.0018656503 0.019763453 0.27700001 -2.9285838e+38
-0.0014171705 0.019763453 0.27700001 -2.9152394e+38
-0.00051833288 0.019692104 0.27600002 -2.9152394e+38
-7.1472088e-05 0.019692104 0.27600002 -2.9285838e+38
0.00037538868 0.019692104 0.27600002 -2.9419282e+38
0.001264512 0.019620756 0.27500001 -2.9953058e+38
0.0017097536 0.019620756 0.27500001 -3.0086503e+38
0.007930832 0.018550534 0.26000002 -2.9950967e+38
0.008351787 0.018550534 0.26000002 -2.9283747e+38
0.0087727429 0.018550534 0.26000002 -2.8883415e+38
0.0096146548 0.018550534 0.26000002 -2.8616527e+38
0.0099970112 0.018479185 0.259 -2.8616531e+38
0.010835685 0.018479185 0.259 -2.8350689e+38
0.011255022 0.018479185 0.259 -2.8350689e+38
0.011674359 0.018479185 0.259 -2.8350689e+38
0.012093695 0.018479185 0.259 -2.8083801e+38
0.012932369 0.018479185 0.259 -2.7815351e+38
0.013351706 0.018479185 0.259 -2.8080672e+38
0.013771043 0.018479185 0.259 -2.6879675e+38
0.0167064 0.018479185 0.259 -2.8748934e+38
0.017125737 0.018479185 0.259 -2.8882378e+38
0.017477332 0.018407838 0.25800002 -2.9016352e+38
0.018312765 0.018407838 0.25800002 -2.9015837e+38
0.018730484 0.018407838 0.25800002 -2.9282725e+38
0.019148201 0.018407838 0.25800002 -2.9015841e+38
0.019983636 0.018407838 0.25800002 -2.9015841e+38
0.020401355 0.018407838 0.25800002 -2.9015841e+38
0.020819072 0.018407838 0.25800002 -2.9015841e+38
0.021319104 0.018479185 0.259 -2.8882397e+38
0.021738442 0.018479185 0.259 -2.8882397e+38
0.022243328 0.018550534 0.26000002 -2.9015841e+38
0.02308524 0.018550534 0.26000002 -2.9017402e+38
0.023596603 0.018621881 0.26100001 -2.9151358e+38
0.02401918 0.018621881 0.26100001 -2.955169e+38
0.026300501 0.01904997 0.26700002 -2.7815858e+38
0.026832912 0.019121319 0.26800001 -2.7414486e+38
0.027266821 0.019121319 0.26800001 -2.7014154e+38
0.027700728 0.019121319 0.26800001 -2.6881754e+38
0.028675145 0.019192668 0.26900002 -2.7282086e+38
0.029110672 0.019192668 0.26900002 -2.7282086e+38
0.029656038 0.019264016 0.27000001 -2.7282086e+38
0.030204641 0.019335363 0.27100003 -2.7282086e+38
0.030643407 0.019335363 0.27100003 -2.741553e+38
0.031082172 0.019335363 0.27100003 -2.7548974e+38
0.031959701 0.019335363 0.27100003 -2.7417092e+38
0.03239847 0.019335363 0.27100003 -2.755054e+38
0.032837234 0.019335363 0.27100003 -2.7683984e+38
0.033398788 0.019406712 0.27200001 -2.7683984e+38
0.034279559 0.019406712 0.27200001 -2.7683984e+38
0.03471994 0.019406712 0.27200001 -2.7817428e+38
0.035160325 0.019406712 0.27200001 -2.7817428e+38
0.035600711 0.019406712 0.27200001 -2.7683984e+38
0.036615603 0.01947806 0.273 -2.7817428e+38
0.037057605 0.01947806 0.273 -2.768398e+38
0.011298478 0.018971488 0.26000002 -2.9151865e+38
0.011719434 0.018971488 0.26000002 -2.9018421e+38
0.012093695 0.018898522 0.259 -2.8484644e+38
0.012932369 0.018898522 0.259 -2.8349639e+38
0.013351706 0.018898522 0.259 -2.8482038e+38
0.013771043 0.018898522 0.259 -2.821515e+38
0.014609717 0.018898522 0.259 -2.8214619e+38
0.015867727 0.018898522 0.259 -2.6615377e+38
0.0167064 0.018898522 0.259 -2.8615486e+38
0.017125737 0.018898522 0.259 -2.874893e+38
0.017545074 0.018898522 0.259 -2.9016863e+38
0.018312765 0.018825555 0.25800002 -2.928324e+38
0.018730484 0.018825555 0.25800002 -2.9550128e+38
0.019148201 0.018825555 0.25800002 -2.928324e+38
0.019641757 0.018898522 0.259 -2.928324e+38
0.020480432 0.018898522 0.259 -2.928324e+38
0.020899767 0.018898522 0.259 -2.928324e+38
0.021319104 0.018898522 0.259 -2.928324e+38
0.021822372 0.018971488 0.26000002 -2.9016352e+38
0.022243328 0.018971488 0.26000002 -2.928324e+38
0.023174029 0.019044455 0.26100001 -2.9550128e+38
0.023596603 0.019044455 0.26100001 -2.9284798e+38
0.024111206 0.019117424 0.26200002 -2.9551686e+38
-0.0055125519 0.020884171 0.28 -3.0219947e+38
-0.0050592152 0.020884171 0.28 -2.9953058e+38
-0.0046058781 0.020884171 0.28 -2.9819618e+38
-0.0036859927 0.020809583 0.27900001 -2.9419286e+38
-0.0032342747 0.020809583 0.27900001 -2.9285842e+38
-0.0027725834 0.020734997 0.27800003 -2.9020512e+38
-0.0018723856 0.020734997 0.27800003 -2.9020512e+38
-0.0014171705 0.020660412 0.27700001 -2.9020512e+38
-0.00051833288 0.020585826 0.27600002 -2.9020512e+38
-7.1472088e-05 0.020585826 0.27600002 -2.9285838e+38
0.00037538868 0.020585826 0.27600002 -2.9419282e+38
0.0012691102 0.020585826 0.27600002 -2.9953058e+38
0.0017097536 0.02051124 0.27500001 -3.0086503e+38
0.026399005 0.019989135 0.26800001 -2.7681374e+38
0.026832912 0.019989135 0.26800001 -2.7014158e+38
0.027368562 0.020063723 0.26900002 -2.6880714e+38
0.02780409 0.020063723 0.26900002 -2.674831e+38
0.028675145 0.020063723 0.26900002 -2.7015198e+38
0.029218892 0.020138308 0.27000001 -2.7282086e+38
0.029765876 0.020212894 0.27100003 -2.7282086e+38
0.030204641 0.020212894 0.27100003 -2.7282086e+38
0.030643407 0.020212894 0.27100003 -2.741553e+38
0.031196866 0.02028748 0.27200001 -2.7548974e+38
0.032077637 0.02028748 0.27200001 -2.7283648e+38
0.032518018 0.02028748 0.27200001 -2.7284692e+38
0.032958403 0.02028748 0.27200001 -2.7418137e+38
0.033398788 0.02028748 0.27200001 -2.7418137e+38
0.034279559 0.02028748 0.27200001 -2.7418137e+38
0.03471994 0.02028748 0.27200001 -2.7551581e+38
0.035289593 0.020362068 0.273 -2.7685025e+38
0.035731595 0.020362068 0.273 -2.7551581e+38
0.036306102 0.020436654 0.27400002 -2.7685025e+38
-0.0046058781 0.021337509 0.28 -2.9819614e+38
-0.004152541 0.021337509 0.28 -2.9552726e+38
-0.0032342747 0.021261303 0.27900001 -2.9285838e+38
-0.0027825567 0.021261303 0.27900001 -2.9020512e+38
-0.0018723856 0.021185096 0.27800003 -2.9020512e+38
-0.0014222866 0.021185096 0.27800003 -2.8887068e+38
-0.00052021089 0.021108892 0.27700001 -2.9020512e+38
-7.1472088e-05 0.021032687 0.27600002 -2.9020512e+38
0.00037538868 0.021032687 0.27600002 -2.9153956e+38
0.0012691102 0.021032687 0.27600002 -2.9687732e+38
0.020138551 0.0198134 0.26000002 -2.9950967e+38
0.020980461 0.0198134 0.26000002 -2.9950967e+38
0.021401417 0.0198134 0.26000002 -2.9817523e+38
0.021822372 0.0198134 0.26000002 -2.9817523e+38
0.02232888 0.019889604 0.26100001 -2.9817523e+38
0.023174029 0.019889604 0.26100001 -2.9684079e+38
0.024111206 0.019965813 0.26200002 -2.9417187e+38
0.026300501 0.020346837 0.26700002 -2.7548445e+38
0.027470307 0.020575454 0.27000001 -2.6880709e+38
0.027907453 0.020575454 0.27000001 -2.674831e+38
0.028449578 0.020651659 0.27100003 -2.7015198e+38
0.028888345 0.020651659 0.27100003 -2.7015198e+38
0.029765876 0.020651659 0.27100003 -2.7282082e+38
0.030204641 0.020651659 0.27100003 -2.7282082e+38
0.030756481 0.020727864 0.27200001 -2.71502e+38
0.031196866 0.020727864 0.27200001 -2.7283644e+38
0.032077637 0.020727864 0.27200001 -2.7151244e+38
0.032518018 0.020727864 0.27200001 -2.7284692e+38
0.032958403 0.020727864 0.27200001 -2.7418137e+38
0.033398788 0.020727864 0.27200001 -2.7418137e+38
0.034279559 0.020727864 0.27200001 -2.7418137e+38
0.03471994 0.020727864 0.27200001 -2.7551581e+38
0.035289593 0.02080407 0.273 -2.7551581e+38
0.035862479 0.020880276 0.27400002 -2.7551581e+38
-0.0046058781 0.021790845 0.28 -2.9819614e+38
-0.004152541 0.021790845 0.28 -2.9552726e+38
-0.0032342747 0.02171302 0.27900001 -2.9285838e+38
-0.0027825567 0.02171302 0.27900001 -2.9285838e+38
-0.0018791208 0.02171302 0.27900001 -2.9020512e+38
-0.0014274028 0.02171302 0.27900001 -2.8887068e+38
-0.00097218779 0.021635195 0.27800003 -2.9020512e+38
-7.1989998e-05 0.021635195 0.27800003 -2.9020512e+38
0.00037674879 0.021557372 0.27700001 -2.9153956e+38
0.00082522864 0.021557372 0.27700001 -2.9554288e+38
0.023174029 0.020312181 0.26100001 -2.9417187e+38
0.024111206 0.020390006 0.26200002 -2.8882885e+38
0.026300501 0.020779127 0.26700002 -2.7148113e+38
0.027470307 0.021012601 0.27000001 -2.6747781e+38
0.028010814 0.021090426 0.27100003 -2.6748306e+38
0.028449578 0.021090426 0.27100003 -2.7015194e+38
0.028888345 0.021090426 0.27100003 -2.7015194e+38
0.029765876 0.021090426 0.27100003 -2.7015194e+38
0.030204641 0.021090426 0.27100003 -2.7282082e+38
0.030756481 0.021168249 0.27200001 -2.71502e+38
0.031196866 0.021168249 0.27200001 -2.7283644e+38
0.032077637 0.021168249 0.27200001 -2.715124e+38
0.032518018 0.021168249 0.27200001 -2.7284688e+38
0.032958403 0.021168249 0.27200001 -2.7418132e+38
0.033398788 0.021168249 0.27200001 -2.7418137e+38
0.03396358 0.021246074 0.273 -2.7418137e+38
0.034847587 0.021246074 0.273 -2.7551581e+38
0.035289593 0.021246074 0.273 -2.7551581e+38
0.035862479 0.021323899 0.27400002 -2.7685025e+38
-0.0046058781 0.022244183 0.28 -2.9819614e+38
-0.004152541 0.022244183 0.28 -2.9552726e+38
-0.0032458671 0.022244183 0.28 -2.9285838e+38
-0.0027825567 0.022164738 0.27900001 -2.9285838e+38
-0.0018791208 0.022164738 0.27900001 -2.9285838e+38
-0.0014274028 0.022164738 0.27900001 -2.9285838e+38
-0.0009756849 0.022164738 0.27900001 -2.9285838e+38
-7.1989998e-05 0.022085294 0.27800003 -2.9419282e+38
0.0003781089 0.022085294 0.27800003 -2.9552726e+38
0.00082820776 0.022085294 0.27800003 -2.9819614e+38
0.010919359 0.020734755 0.26100001 -2.9950967e+38
0.014245168 0.020655312 0.26000002 -2.9949923e+38
0.021483731 0.020734755 0.26100001 -2.9816479e+38
0.021906305 0.020734755 0.26100001 -2.9816479e+38
0.02232888 0.020734755 0.26100001 -2.9416147e+38
0.023174029 0.020734755 0.26100001 -2.8882885e+38
0.024111206 0.020814199 0.26200002 -2.8481507e+38
0.026300501 0.021211416 0.26700002 -2.7014665e+38
0.026933035 0.021370305 0.26900002 -2.6881225e+38
0.027572049 0.02152919 0.27100003 -2.6747781e+38
0.028010814 0.02152919 0.27100003 -2.6882265e+38
0.028449578 0.02152919 0.27100003 -2.7015709e+38
0.028888345 0.02152919 0.27100003 -2.7015194e+38
0.029765876 0.02152919 0.27100003 -2.7015194e+38
0.030316098 0.021608634 0.27200001 -2.7282082e+38
0.030756481 0.021608634 0.27200001 -2.71502e+38
0.031196866 0.021608634 0.27200001 -2.7283644e+38
0.032077637 0.021608634 0.27200001 -2.7151244e+38
0.032518018 0.021608634 0.27200001 -2.7284688e+38
0.033079576 0.021688078 0.273 -2.7418132e+38
0.033521578 0.021688078 0.273 -2.7418137e+38
0.03396358 0.021688078 0.273 -2.7418137e+38
0.034847587 0.021688078 0.273 -2.7551581e+38
0.035418857 0.021767521 0.27400002 -2.7551581e+38
0.035993364 0.021846963 0.27500001 -2.7551581e+38
-0.0050772838 0.023233537 0.28100002 -3.0086507e+38
-0.0046223276 0.023233537 0.28100002 -2.9687732e+38
-0.004152541 0.023150856 0.28 -2.92874e+38
-0.0032458671 0.023150856 0.28 -2.9285838e+38
-0.0027825567 0.023068173 0.27900001 -2.9285838e+38
-0.0018791208 0.023068173 0.27900001 -2.9152394e+38
-0.0014274028 0.023068173 0.27900001 -2.9152394e+38
-0.0009756849 0.023068173 0.27900001 -2.9285838e+38
-0.00052396691 0.023068173 0.27900001 -2.9285838e+38
0.00037946898 0.023068173 0.27900001 -2.9552726e+38
0.00082820776 0.022985492 0.27800003 -2.9819614e+38
0.0012783067 0.022985492 0.27800003 -2.9953058e+38
0.0021785044 0.022985492 0.27800003 -2.9687732e+38
0.0083839092 0.021579904 0.26100001 -2.9684079e+38
0.0088064838 0.021579904 0.26100001 -2.9684079e+38
0.0096516339 0.021579904 0.26100001 -2.9550639e+38
0.010074208 0.021579904 0.26100001 -2.9550639e+38
0.010496784 0.021579904 0.26100001 -2.9417195e+38
0.010919359 0.021579904 0.26100001 -2.9550639e+38
0.011764508 0.021579904 0.26100001 -2.9550635e+38
0.012187083 0.021579904 0.26100001 -2.9684079e+38
0.012609658 0.021579904 0.26100001 -2.9285309e+38
0.013032232 0.021579904 0.26100001 -2.9151865e+38
0.013877383 0.021579904 0.26100001 -2.9417191e+38
0.014245168 0.021497224 0.26000002 -2.9550635e+38
0.01508708 0.021497224 0.26000002 -2.9417191e+38
0.015508036 0.021497224 0.26000002 -2.9283747e+38
0.015928991 0.021497224 0.26000002 -2.9417191e+38
0.016349947 0.021497224 0.26000002 -2.9417191e+38
0.017191859 0.021497224 0.26000002 -2.9417191e+38
0.017612815 0.021497224 0.26000002 -2.9417191e+38
0.018033771 0.021497224 0.26000002 -2.9550635e+38
0.018875683 0.021497224 0.26000002 -2.9283747e+38
0.019370856 0.021579904 0.26100001 -2.9283747e+38
0.01979343 0.021579904 0.26100001 -2.9417191e+38
0.020216005 0.021579904 0.26100001 -2.9416151e+38
0.02063858 0.021579904 0.26100001 -2.9549595e+38
0.021483731 0.021579904 0.26100001 -2.888237e+38
0.021906305 0.021579904 0.26100001 -2.8748926e+38
0.02232888 0.021579904 0.26100001 -2.8615482e+38
0.023174029 0.021579904 0.26100001 -2.8215665e+38
0.023687012 0.021662587 0.26200002 -2.7948773e+38
0.024203235 0.021745268 0.26300001 -2.7948773e+38
0.026300501 0.022075994 0.26700002 -2.6881736e+38
0.026832912 0.022158675 0.26800001 -2.6748817e+38
0.027470307 0.022324041 0.27000001 -2.6748817e+38
0.028010814 0.022406721 0.27100003 -2.6616939e+38
0.028449578 0.022406721 0.27100003 -2.6750383e+38
0.028888345 0.022406721 0.27100003 -2.6750383e+38
0.029765876 0.022406721 0.27100003 -2.6750383e+38
0.030316098 0.022489402 0.27200001 -2.7017271e+38
0.030756481 0.022489402 0.27200001 -2.7016756e+38
0.031196866 0.022489402 0.27200001 -2.71502e+38
0.032077637 0.022489402 0.27200001 -2.7151244e+38
0.03263757 0.022572085 0.273 -2.7284688e+38
0.033079576 0.022572085 0.273 -2.7284688e+38
0.033521578 0.022572085 0.273 -2.7284688e+38
0.03396358 0.022572085 0.273 -2.7418132e+38
0.034975234 0.022654766 0.27400002 -2.7418132e+38
0.035418857 0.022654766 0.27400002 -2.7551577e+38
0.035993364 0.022737447 0.27500001 -2.7551577e+38
-0.0050772838 0.023688493 0.28100002 -3.0086507e+38
-0.0046223276 0.023688493 0.28100002 -2.9687732e+38
