# .PCD v0.7 - Point Cloud Data file format
VERSION 0.7
FIELDS x y z rgb
SIZE 4 4 4 4
TYPE F F F F
COUNT 1 1 1 1
WIDTH 961
HEIGHT 1
VIEWPOINT 0 0 0 1 0 0 0
POINTS 961
DATA ascii
0.002303886 0.0033642319 0.294 -2.5012515e+38
0.0032558937 0.0033642319 0.294 -2.4745627e+38
0.0037318976 0.0033642319 0.294 -2.4612183e+38
0.0042222138 0.0033756748 0.29500002 -2.4211851e+38
0.0047157686 0.0033871178 0.296 -2.4211851e+38
0.0052125612 0.0033985607 0.29700002 -2.4078407e+38
0.0061742836 0.0033985607 0.29700002 -2.3811523e+38
0.0066775521 0.0034100036 0.29800001 -2.3811527e+38
0.0071600322 0.0034100036 0.29800001 -2.3678083e+38
0.0076425122 0.0034100036 0.29800001 -2.3811527e+38
0.0081249923 0.0034100036 0.29800001 -2.3811527e+38
0.0091204559 0.0034214465 0.29900002 -2.4211855e+38
0.0096045556 0.0034214465 0.29900002 -2.4745631e+38
0.010054912 0.0034100036 0.29800001 -2.5145963e+38
0.011019873 0.0034100036 0.29800001 -2.5945587e+38
0.011502353 0.0034100036 0.29800001 -2.6079035e+38
0.011984834 0.0034100036 0.29800001 -2.6479367e+38
0.012467314 0.0034100036 0.29800001 -2.6480408e+38
0.013387199 0.0033985607 0.29700002 -2.6747296e+38
0.01386806 0.0033985607 0.29700002 -2.6747296e+38
0.014779851 0.0033871178 0.296 -2.7014184e+38
0.015259093 0.0033871178 0.296 -2.7014184e+38
0.015738335 0.0033871178 0.296 -2.7014184e+38
0.016696818 0.0033871178 0.296 -2.7281072e+38
0.017118033 0.0033756748 0.29500002 -2.701418e+38
0.017595656 0.0033756748 0.29500002 -2.7281068e+38
0.018550903 0.0033756748 0.29500002 -2.7281068e+38
-0.015320045 0.0036181812 0.27700001 -2.82136e+38
-0.014423085 0.0036181812 0.27700001 -2.594454e+38
-0.014025055 0.0036312432 0.27800003 -2.527732e+38
-0.013574956 0.0036312432 0.27800003 -2.5142829e+38
-0.012240461 0.0042428337 0.289 -2.3810993e+38
-0.011304644 0.0042428337 0.289 -2.3810993e+38
-0.010836735 0.0042428337 0.289 -2.3677549e+38
-0.0099351769 0.0042575151 0.29000002 -2.3677549e+38
-0.0094982907 0.004272196 0.29100001 -2.3677034e+38
-0.0091202063 0.0043162396 0.294 -2.3677034e+38
-0.0086736046 0.0043309205 0.29500002 -2.3677034e+38
-0.0081959823 0.0043309205 0.29500002 -2.4077366e+38
-0.0072652805 0.0043456014 0.296 -2.4611142e+38
-0.0067860386 0.0043456014 0.296 -2.474459e+38
-0.0063067968 0.0043456014 0.296 -2.5011479e+38
-0.005827555 0.0043456014 0.296 -2.5278367e+38
-0.0048690708 0.0043456014 0.296 -2.5546295e+38
-0.004389829 0.0043456014 0.296 -2.5679739e+38
-0.0039105872 0.0043456014 0.296 -2.5813183e+38
-0.0029421297 0.0043309205 0.29500002 -2.5946627e+38
-0.002464507 0.0043309205 0.29500002 -2.6080071e+38
-0.001986884 0.0043309205 0.29500002 -2.6080071e+38
-0.0010316381 0.0043309205 0.29500002 -2.5946627e+38
-0.00055401516 0.0043309205 0.29500002 -2.5813183e+38
-7.6392265e-05 0.0043309205 0.29500002 -2.5813183e+38
0.00040123065 0.0043309205 0.29500002 -2.5679739e+38
0.0013564765 0.0043309205 0.29500002 -2.5145963e+38
0.0018340994 0.0043309205 0.29500002 -2.5012519e+38
0.0023117224 0.0043309205 0.29500002 -2.4879075e+38
0.0027893451 0.0043309205 0.29500002 -2.4879075e+38
0.003744591 0.0043309205 0.29500002 -2.4478743e+38
0.0042222138 0.0043309205 0.29500002 -2.4211855e+38
0.0047157686 0.0043456014 0.296 -2.3944967e+38
0.0052125612 0.0043602828 0.29700002 -2.3944967e+38
0.005712592 0.0043749637 0.29800001 -2.3811527e+38
0.0066775521 0.0043749637 0.29800001 -2.3678083e+38
0.0071600322 0.0043749637 0.29800001 -2.3678083e+38
0.0076425122 0.0043749637 0.29800001 -2.3678083e+38
0.0081522577 0.0043896446 0.29900002 -2.3811527e+38
0.0091204559 0.0043896446 0.29900002 -2.4211859e+38
0.0096045556 0.0043896446 0.29900002 -2.4745635e+38
0.010088654 0.0043896446 0.29900002 -2.5145967e+38
0.010572754 0.0043896446 0.29900002 -2.5679743e+38
0.011502353 0.0043749637 0.29800001 -2.5946631e+38
0.011984834 0.0043749637 0.29800001 -2.6080076e+38
0.012467314 0.0043749637 0.29800001 -2.6480408e+38
0.013432274 0.0043749637 0.29800001 -2.6613852e+38
0.01386806 0.0043602828 0.29700002 -2.6747296e+38
0.014348921 0.0043602828 0.29700002 -2.688074e+38
0.015310643 0.0043602828 0.29700002 -2.7014184e+38
0.015738335 0.0043456014 0.296 -2.7014184e+38
0.016696818 0.0043456014 0.296 -2.7014184e+38
0.01717606 0.0043456014 0.296 -2.7014184e+38
0.017655302 0.0043456014 0.296 -2.7281072e+38
0.018134544 0.0043456014 0.296 -2.7414516e+38
0.019093029 0.0043456014 0.296 -2.7281072e+38
-0.016217005 0.0045151408 0.27700001 -2.8345994e+38
-0.015768524 0.0045151408 0.27700001 -2.7278441e+38
-0.015320045 0.0045151408 0.27700001 -2.6076934e+38
-0.014423085 0.0045151408 0.27700001 -2.5142829e+38
-0.013974605 0.0045151408 0.27700001 -2.4875941e+38
-0.013526125 0.0045151408 0.27700001 -2.4343727e+38
-0.012629166 0.0045151408 0.27700001 -2.3810478e+38
-0.012240461 0.0047107423 0.289 -2.3810478e+38
-0.011304644 0.0047107423 0.289 -2.3677549e+38
-0.0099351769 0.0047270423 0.29000002 -2.3677549e+38
-0.0095309298 0.0047596428 0.29200003 -2.3277742e+38
-0.0091202063 0.0047922432 0.294 -2.354463e+38
-0.0086736046 0.0048085432 0.29500002 -2.354463e+38
-0.0082237646 0.0048248433 0.296 -2.3811518e+38
-0.0072652805 0.0048248433 0.296 -2.4344254e+38
-0.0067860386 0.0048248433 0.296 -2.4611146e+38
-0.0063067968 0.0048248433 0.296 -2.4878034e+38
-0.005827555 0.0048248433 0.296 -2.5144923e+38
-0.0048690708 0.0048248433 0.296 -2.5412851e+38
-0.004389829 0.0048248433 0.296 -2.5679739e+38
-0.0039105872 0.0048248433 0.296 -2.5813183e+38
-0.0034313451 0.0048248433 0.296 -2.5679739e+38
-0.0024728612 0.0048248433 0.296 -2.5946627e+38
-0.001986884 0.0048085432 0.29500002 -2.5946627e+38
-0.0010316381 0.0048085432 0.29500002 -2.5946627e+38
-0.00055401516 0.0048085432 0.29500002 -2.5813183e+38
-7.6392265e-05 0.0048085432 0.29500002 -2.5679739e+38
0.00040123065 0.0048085432 0.29500002 -2.5679739e+38
0.0013564765 0.0048085432 0.29500002 -2.5145963e+38
0.0018340994 0.0048085432 0.29500002 -2.5012519e+38
0.0023117224 0.0048085432 0.29500002 -2.4879075e+38
0.0027893451 0.0048085432 0.29500002 -2.4879075e+38
0.003744591 0.0048085432 0.29500002 -2.4478743e+38
0.0042365268 0.0048248433 0.296 -2.4211855e+38
0.0047157686 0.0048248433 0.296 -2.3944967e+38
0.0051950105 0.0048248433 0.296 -2.3944967e+38
0.005712592 0.0048574437 0.29800001 -2.3811527e+38
0.0066775521 0.0048574437 0.29800001 -2.3678083e+38
0.0071600322 0.0048574437 0.29800001 -2.3678083e+38
0.0076681585 0.0048737437 0.29900002 -2.3678083e+38
0.0081522577 0.0048737437 0.29900002 -2.3811527e+38
0.0091204559 0.0048737437 0.29900002 -2.4211859e+38
0.0096045556 0.0048737437 0.29900002 -2.4745635e+38
0.010088654 0.0048737437 0.29900002 -2.5145967e+38
0.010572754 0.0048737437 0.29900002 -2.5546299e+38
0.011540952 0.0048737437 0.29900002 -2.5946631e+38
0.011984834 0.0048574437 0.29800001 -2.6080076e+38
0.012467314 0.0048574437 0.29800001 -2.6346964e+38
0.013432274 0.0048574437 0.29800001 -2.6613852e+38
0.013914754 0.0048574437 0.29800001 -2.6747296e+38
0.014348921 0.0048411437 0.29700002 -2.688074e+38
0.015310643 0.0048411437 0.29700002 -2.7014184e+38
0.015791504 0.0048411437 0.29700002 -2.7014184e+38
0.016696818 0.0048248433 0.296 -2.7014184e+38
0.01717606 0.0048248433 0.296 -2.7281072e+38
0.017655302 0.0048248433 0.296 -2.7281072e+38
0.018134544 0.0048248433 0.296 -2.7414516e+38
0.019093029 0.0048248433 0.296 -2.7281072e+38
-0.016665485 0.0049636206 0.27700001 -2.8214623e+38
-0.016217005 0.0049636206 0.27700001 -2.7145001e+38
-0.0157116 0.004945701 0.27600002 -2.6344337e+38
-0.014817878 0.004945701 0.27600002 -2.5142825e+38
-0.014371017 0.004945701 0.27600002 -2.4742497e+38
-0.013924156 0.004945701 0.27600002 -2.4742497e+38
-0.013030434 0.004945701 0.27600002 -2.4210283e+38
-0.012583573 0.004945701 0.27600002 -2.3678074e+38
-0.012136713 0.004945701 0.27600002 -2.3678074e+38
-0.0091202063 0.0052682469 0.294 -2.354463e+38
-0.0086736046 0.0052861664 0.29500002 -2.354463e+38
-0.0082237646 0.0053040856 0.296 -2.3811518e+38
-0.0072652805 0.0053040856 0.296 -2.4211851e+38
-0.0067860386 0.0053040856 0.296 -2.4478743e+38
-0.0063067968 0.0053040856 0.296 -2.4745631e+38
-0.005827555 0.0053040856 0.296 -2.4879075e+38
-0.0048690708 0.0053040856 0.296 -2.5412851e+38
-0.004389829 0.0053040856 0.296 -2.5546295e+38
-0.0039105872 0.0053040856 0.296 -2.5679739e+38
-0.0034313451 0.0053040856 0.296 -2.5679739e+38
-0.0024728612 0.0053040856 0.296 -2.5813183e+38
-0.0019936191 0.0053040856 0.296 -2.5946627e+38
-0.0010316381 0.0052861664 0.29500002 -2.5946627e+38
-0.00055401516 0.0052861664 0.29500002 -2.5813183e+38
-7.6392265e-05 0.0052861664 0.29500002 -2.5679739e+38
0.00040123065 0.0052861664 0.29500002 -2.5679739e+38
0.0013564765 0.0052861664 0.29500002 -2.5145963e+38
0.0018340994 0.0052861664 0.29500002 -2.5012519e+38
0.0023117224 0.0052861664 0.29500002 -2.4879075e+38
0.0027893451 0.0052861664 0.29500002 -2.4745631e+38
0.0037572847 0.0053040856 0.296 -2.4478743e+38
0.0042365268 0.0053040856 0.296 -2.4211855e+38
0.0047157686 0.0053040856 0.296 -2.3944967e+38
0.0051950105 0.0053040856 0.296 -2.3811523e+38
0.005712592 0.0053399238 0.29800001 -2.3811527e+38
0.0066775521 0.0053399238 0.29800001 -2.3811527e+38
0.0071600322 0.0053399238 0.29800001 -2.3678083e+38
0.0076681585 0.0053578429 0.29900002 -2.3678083e+38
0.0081522577 0.0053578429 0.29900002 -2.3811527e+38
0.0091204559 0.0053578429 0.29900002 -2.4211859e+38
0.0096045556 0.0053578429 0.29900002 -2.4745635e+38
0.010088654 0.0053578429 0.29900002 -2.5145967e+38
0.010572754 0.0053578429 0.29900002 -2.5679743e+38
0.011540952 0.0053578429 0.29900002 -2.5946631e+38
0.012025051 0.0053578429 0.29900002 -2.6080076e+38
0.012467314 0.0053399238 0.29800001 -2.6480408e+38
0.013432274 0.0053399238 0.29800001 -2.6613852e+38
0.013914754 0.0053399238 0.29800001 -2.6747296e+38
0.014348921 0.0053220047 0.29700002 -2.688074e+38
0.015310643 0.0053220047 0.29700002 -2.7014184e+38
0.015791504 0.0053220047 0.29700002 -2.7014184e+38
0.016272366 0.0053220047 0.29700002 -2.7014184e+38
0.01717606 0.0053040856 0.296 -2.7281072e+38
0.017655302 0.0053040856 0.296 -2.7281072e+38
0.018134544 0.0053040856 0.296 -2.7414516e+38
0.019093029 0.0053040856 0.296 -2.7414516e+38
-0.016665485 0.0054121003 0.27700001 -2.7280514e+38
-0.01615846 0.0053925617 0.27600002 -2.6342781e+38
-0.0157116 0.0053925617 0.27600002 -2.5542117e+38
-0.014817878 0.0053925617 0.27600002 -2.4875941e+38
-0.014318948 0.0053730235 0.27500001 -2.4609053e+38
-0.013873707 0.0053730235 0.27500001 -2.4609053e+38
-0.012983222 0.0053730235 0.27500001 -2.4076839e+38
-0.012492388 0.0053534852 0.27400002 -2.3677034e+38
-0.011605143 0.0053534852 0.27400002 -2.3677034e+38
-0.0091202063 0.005744251 0.294 -2.354463e+38
-0.0086736046 0.0057637892 0.29500002 -2.354463e+38
-0.0082237646 0.0057833274 0.296 -2.3811518e+38
-0.0072652805 0.0057833274 0.296 -2.4078411e+38
-0.0067860386 0.0057833274 0.296 -2.4478743e+38
-0.0063067968 0.0057833274 0.296 -2.4745631e+38
-0.005827555 0.0057833274 0.296 -2.4879075e+38
-0.0048690708 0.0057833274 0.296 -2.5412851e+38
-0.004389829 0.0057833274 0.296 -2.5412851e+38
-0.0039105872 0.0057833274 0.296 -2.5546295e+38
-0.0034313451 0.0057833274 0.296 -2.5679739e+38
-0.0024728612 0.0057833274 0.296 -2.5813183e+38
-0.0019936191 0.0057833274 0.296 -2.5813183e+38
-0.0015143772 0.0057833274 0.296 -2.5813183e+38
-0.00055589323 0.0057833274 0.296 -2.5813183e+38
-7.6651224e-05 0.0057833274 0.296 -2.5679739e+38
0.00040259075 0.0057833274 0.296 -2.5546295e+38
0.00088183273 0.0057833274 0.296 -2.5412851e+38
0.0018340994 0.0057637892 0.29500002 -2.4879075e+38
0.0023117224 0.0057637892 0.29500002 -2.4879075e+38
0.0027988006 0.0057833274 0.296 -2.4745631e+38
0.0037572847 0.0057833274 0.296 -2.4211855e+38
0.0042365268 0.0057833274 0.296 -2.4078411e+38
0.0047157686 0.0057833274 0.296 -2.3944967e+38
0.0052125612 0.0058028656 0.29700002 -2.3811523e+38
0.0061742836 0.0058028656 0.29700002 -2.3678083e+38
0.0066775521 0.0058224038 0.29800001 -2.3678083e+38
0.0071840594 0.005841942 0.29900002 -2.3678083e+38
0.0076681585 0.005841942 0.29900002 -2.3678083e+38
0.0081522577 0.005841942 0.29900002 -2.3678083e+38
0.0091204559 0.005841942 0.29900002 -2.4211859e+38
0.0096045556 0.005841942 0.29900002 -2.4745635e+38
0.010088654 0.005841942 0.29900002 -2.5145967e+38
0.010572754 0.005841942 0.29900002 -2.5679743e+38
0.011540952 0.005841942 0.29900002 -2.5946631e+38
0.012025051 0.005841942 0.29900002 -2.6080076e+38
0.012467314 0.0058224038 0.29800001 -2.6480408e+38
0.013432274 0.0058224038 0.29800001 -2.6613852e+38
0.013914754 0.0058224038 0.29800001 -2.6747296e+38
0.014397234 0.0058224038 0.29800001 -2.688074e+38
0.015310643 0.0058028656 0.29700002 -2.7014184e+38
0.015791504 0.0058028656 0.29700002 -2.7014184e+38
0.016272366 0.0058028656 0.29700002 -2.7014184e+38
0.017234087 0.0058028656 0.29700002 -2.7281072e+38
0.017655302 0.0057833274 0.296 -2.7281072e+38
0.018134544 0.0057833274 0.296 -2.7414516e+38
0.019093029 0.0057833274 0.296 -2.7281072e+38
-0.01615846 0.006286283 0.27600002 -2.6879671e+38
-0.014817878 0.006286283 0.27600002 -2.4609049e+38
-0.014318948 0.0062635066 0.27500001 -2.4210283e+38
-0.013873707 0.0062635066 0.27500001 -2.4076839e+38
-0.012936011 0.0062407306 0.27400002 -2.3677549e+38
-0.012492388 0.0062407306 0.27400002 -2.3677034e+38
-0.011520434 0.0061951778 0.27200001 -2.3410146e+38
-0.011080049 0.0061951778 0.27200001 -2.3410146e+38
-0.0091202063 0.0066962582 0.294 -2.3012416e+38
-0.0086736046 0.0067190346 0.29500002 -2.301242e+38
-0.0082237646 0.0067418106 0.296 -2.3412752e+38
-0.0072652805 0.0067418106 0.296 -2.3813084e+38
-0.0067860386 0.0067418106 0.296 -2.4213416e+38
-0.0063067968 0.0067418106 0.296 -2.434686e+38
-0.005827555 0.0067418106 0.296 -2.4480305e+38
-0.0048690708 0.0067418106 0.296 -2.4880637e+38
-0.004389829 0.0067418106 0.296 -2.5147525e+38
-0.0039105872 0.0067418106 0.296 -2.5280969e+38
-0.0034313451 0.0067418106 0.296 -2.5280969e+38
-0.0024728612 0.0067418106 0.296 -2.5414413e+38
-0.0019936191 0.0067418106 0.296 -2.5547861e+38
-0.0015143772 0.0067418106 0.296 -2.5681305e+38
-0.00055589323 0.0067418106 0.296 -2.5547861e+38
-7.6651224e-05 0.0067418106 0.296 -2.5414417e+38
0.00040259075 0.0067418106 0.296 -2.5280973e+38
0.00088183273 0.0067418106 0.296 -2.5147525e+38
0.0018403167 0.0067418106 0.296 -2.4613749e+38
0.0023195588 0.0067418106 0.296 -2.4613749e+38
0.0027988006 0.0067418106 0.296 -2.434686e+38
0.0037572847 0.0067418106 0.296 -2.3946528e+38
0.0042365268 0.0067418106 0.296 -2.3813084e+38
0.0047157686 0.0067418106 0.296 -2.3679644e+38
0.0052125612 0.0067645875 0.29700002 -2.35462e+38
0.0061742836 0.0067645875 0.29700002 -2.3412756e+38
0.0066775521 0.0067873644 0.29800001 -2.3412756e+38
0.0071600322 0.0067873644 0.29800001 -2.3279312e+38
0.0076681585 0.0068101403 0.29900002 -2.3412756e+38
0.0081522577 0.0068101403 0.29900002 -2.3412756e+38
0.0091204559 0.0068101403 0.29900002 -2.4211859e+38
0.0096045556 0.0068101403 0.29900002 -2.4745635e+38
0.010088654 0.0068101403 0.29900002 -2.5145967e+38
0.010572754 0.0068101403 0.29900002 -2.5679743e+38
0.011540952 0.0068101403 0.29900002 -2.5946631e+38
0.012025051 0.0068101403 0.29900002 -2.6080076e+38
0.012467314 0.0067873644 0.29800001 -2.6480408e+38
0.013432274 0.0067873644 0.29800001 -2.6613852e+38
0.013914754 0.0067873644 0.29800001 -2.688074e+38
0.014397234 0.0067873644 0.29800001 -2.688074e+38
0.015362194 0.0067873644 0.29800001 -2.7014184e+38
0.015791504 0.0067645875 0.29700002 -2.7014184e+38
0.016272366 0.0067645875 0.29700002 -2.7014184e+38
0.017234087 0.0067645875 0.29700002 -2.7281072e+38
0.017655302 0.0067418106 0.296 -2.7281072e+38
0.018134544 0.0067418106 0.296 -2.7414516e+38
0.019093029 0.0067418106 0.296 -2.7281072e+38
-0.014318948 0.0067087486 0.27500001 -2.4076839e+38
-0.013873707 0.0067087486 0.27500001 -2.4076839e+38
-0.012936011 0.0066843531 0.27400002 -2.3677034e+38
-0.012446796 0.006659958 0.273 -2.3677034e+38
-0.011520434 0.0066355621 0.27200001 -2.3410146e+38
-0.011080049 0.0066355621 0.27200001 -2.3410146e+38
-0.010678781 0.006659958 0.273 -2.3410146e+38
-0.0091202063 0.0071722618 0.294 -2.3277742e+38
-0.0086736046 0.0071966578 0.29500002 -2.301242e+38
-0.0082237646 0.0072210524 0.296 -2.3412752e+38
-0.0072652805 0.0072210524 0.296 -2.3813084e+38
-0.0067860386 0.0072210524 0.296 -2.4213416e+38
-0.0063067968 0.0072210524 0.296 -2.434686e+38
-0.005827555 0.0072210524 0.296 -2.4745631e+38
-0.0048690708 0.0072210524 0.296 -2.5012519e+38
-0.0044046594 0.0072454484 0.29700002 -2.5145963e+38
-0.0039237984 0.0072454484 0.29700002 -2.5147525e+38
-0.0034429375 0.0072454484 0.29700002 -2.5280969e+38
-0.0024812154 0.0072454484 0.29700002 -2.5414413e+38
-0.0020003542 0.0072454484 0.29700002 -2.5547861e+38
-0.0015143772 0.0072210524 0.296 -2.5681305e+38
-0.00055589323 0.0072210524 0.296 -2.5414417e+38
-7.6651224e-05 0.0072210524 0.296 -2.5280973e+38
0.00040259075 0.0072210524 0.296 -2.5147529e+38
0.00088183273 0.0072210524 0.296 -2.5147525e+38
0.0018403167 0.0072210524 0.296 -2.4613749e+38
0.0023195588 0.0072210524 0.296 -2.4613749e+38
0.0027988006 0.0072210524 0.296 -2.4480305e+38
0.0037572847 0.0072210524 0.296 -2.3946528e+38
0.0042365268 0.0072210524 0.296 -2.3813084e+38
0.0047157686 0.0072210524 0.296 -2.3679644e+38
0.0052125612 0.0072454484 0.29700002 -2.35462e+38
0.0061742836 0.0072454484 0.29700002 -2.3412756e+38
0.0066775521 0.0072698444 0.29800001 -2.3412756e+38
0.0071600322 0.0072698444 0.29800001 -2.3279312e+38
0.0076681585 0.007294239 0.29900002 -2.3412756e+38
0.0081522577 0.007294239 0.29900002 -2.3412756e+38
0.0091204559 0.007294239 0.29900002 -2.3946532e+38
0.0096045556 0.007294239 0.29900002 -2.4745635e+38
0.010088654 0.007294239 0.29900002 -2.5145967e+38
0.010572754 0.007294239 0.29900002 -2.5679743e+38
0.011540952 0.007294239 0.29900002 -2.5681305e+38
0.012025051 0.007294239 0.29900002 -2.5814749e+38
0.01250915 0.007294239 0.29900002 -2.6215081e+38
0.013432274 0.0072698444 0.29800001 -2.6348525e+38
0.013914754 0.0072698444 0.29800001 -2.6615414e+38
0.014397234 0.0072698444 0.29800001 -2.6615414e+38
0.015362194 0.0072698444 0.29800001 -2.6748858e+38
0.015791504 0.0072454484 0.29700002 -2.6748858e+38
0.016272366 0.0072454484 0.29700002 -2.7015746e+38
0.017234087 0.0072454484 0.29700002 -2.7015746e+38
0.017655302 0.0072210524 0.296 -2.714919e+38
0.018134544 0.0072210524 0.296 -2.754796e+38
0.019093029 0.0072210524 0.296 -2.7414516e+38
-0.014817878 0.0071800044 0.27600002 -2.8082746e+38
-0.014318948 0.0071539907 0.27500001 -2.4344765e+38
-0.013379633 0.0071279756 0.27400002 -2.3675991e+38
-0.012888799 0.0071019614 0.273 -2.3675991e+38
-0.012446796 0.0071019614 0.273 -2.3677034e+38
-0.011520434 0.0070759468 0.27200001 -2.3410146e+38
-0.011080049 0.0070759468 0.27200001 -2.3410146e+38
-0.0091202063 0.0076482655 0.294 -2.3277742e+38
-0.0086736046 0.0076742806 0.29500002 -2.301242e+38
-0.0082237646 0.0077002947 0.296 -2.3412752e+38
-0.0072652805 0.0077002947 0.296 -2.3813084e+38
-0.0067860386 0.0077002947 0.296 -2.4213416e+38
-0.0063067968 0.0077002947 0.296 -2.434686e+38
-0.005827555 0.0077002947 0.296 -2.4879075e+38
-0.0053663817 0.0077263094 0.29700002 -2.4879075e+38
-0.0044046594 0.0077263094 0.29700002 -2.5145963e+38
-0.0039237984 0.0077263094 0.29700002 -2.5147525e+38
-0.0034429375 0.0077263094 0.29700002 -2.5280969e+38
-0.0024812154 0.0077263094 0.29700002 -2.5414417e+38
-0.0020003542 0.0077263094 0.29700002 -2.5547861e+38
-0.0015194933 0.0077263094 0.29700002 -2.5547861e+38
-0.00055589323 0.0077002947 0.296 -2.5414417e+38
-7.6651224e-05 0.0077002947 0.296 -2.5280973e+38
0.00040259075 0.0077002947 0.296 -2.5147529e+38
0.00088183273 0.0077002947 0.296 -2.5147529e+38
0.0018403167 0.0077002947 0.296 -2.4613753e+38
0.0023195588 0.0077002947 0.296 -2.4480309e+38
0.0027988006 0.0077002947 0.296 -2.4480309e+38
0.0037572847 0.0077002947 0.296 -2.3946528e+38
0.0042365268 0.0077002947 0.296 -2.3813084e+38
0.0047317003 0.0077263094 0.29700002 -2.3679644e+38
0.0052125612 0.0077263094 0.29700002 -2.35462e+38
0.0061742836 0.0077263094 0.29700002 -2.3412756e+38
0.0066551445 0.0077263094 0.29700002 -2.3412756e+38
0.0071600322 0.0077523245 0.29800001 -2.3279312e+38
0.0076681585 0.0077783382 0.29900002 -2.3412756e+38
0.0081522577 0.0077783382 0.29900002 -2.3412756e+38
0.0091204559 0.0077783382 0.29900002 -2.3946532e+38
0.0096045556 0.0077783382 0.29900002 -2.4480309e+38
0.010088654 0.0077783382 0.29900002 -2.4880641e+38
0.010572754 0.0077783382 0.29900002 -2.5280973e+38
0.011540952 0.0077783382 0.29900002 -2.5681305e+38
0.012025051 0.0077783382 0.29900002 -2.6081637e+38
0.012467314 0.0077523245 0.29800001 -2.6215081e+38
0.013432274 0.0077523245 0.29800001 -2.634801e+38
0.013914754 0.0077523245 0.29800001 -2.6614898e+38
0.014397234 0.0077523245 0.29800001 -2.6481454e+38
0.015362194 0.0077523245 0.29800001 -2.7015231e+38
0.015791504 0.0077263094 0.29700002 -2.7015231e+38
0.016272366 0.0077263094 0.29700002 -2.7015231e+38
0.017234087 0.0077263094 0.29700002 -2.7015231e+38
0.017655302 0.0077002947 0.296 -2.7148675e+38
0.018134544 0.0077002947 0.296 -2.7414516e+38
0.019093029 0.0077002947 0.296 -2.7414516e+38
0.020930983 0.0071800044 0.27600002 -2.8081736e+38
0.02174563 0.0071539907 0.27500001 -3.0216833e+38
-0.014318948 0.0075992323 0.27500001 -3.0617147e+38
-0.012888799 0.0075439652 0.273 -2.3943395e+38
-0.012446796 0.0075439652 0.273 -2.3677034e+38
-0.011520434 0.007516331 0.27200001 -2.3410146e+38
0.020930983 0.0076268651 0.27600002 -2.7814848e+38
0.02174563 0.0075992323 0.27500001 -2.9282729e+38
-0.0086736046 0.008629526 0.29500002 -2.3144302e+38
-0.0082237646 0.0086587779 0.296 -2.3544634e+38
-0.0072652805 0.0086587779 0.296 -2.3946528e+38
-0.0067860386 0.0086587779 0.296 -2.4478743e+38
-0.0063067968 0.0086587779 0.296 -2.4612187e+38
-0.0058472427 0.0086880317 0.29700002 -2.4745631e+38
-0.0053663817 0.0086880317 0.29700002 -2.4879075e+38
-0.0044046594 0.0086880317 0.29700002 -2.5145963e+38
-0.0039237984 0.0086880317 0.29700002 -2.5147525e+38
-0.0034429375 0.0086880317 0.29700002 -2.5147525e+38
-0.0024812154 0.0086880317 0.29700002 -2.5414413e+38
-0.0020003542 0.0086880317 0.29700002 -2.5414417e+38
-0.0015194933 0.0086880317 0.29700002 -2.5414417e+38
-0.0010386322 0.0086880317 0.29700002 -2.5547861e+38
-7.6651224e-05 0.0086587779 0.296 -2.5280973e+38
0.00040259075 0.0086587779 0.296 -2.5147529e+38
0.00088183273 0.0086587779 0.296 -2.5147529e+38
0.0018403167 0.0086587779 0.296 -2.4613753e+38
0.0023195588 0.0086587779 0.296 -2.4480309e+38
0.0027988006 0.0086587779 0.296 -2.4480309e+38
0.0037572847 0.0086587779 0.296 -2.3946532e+38
0.0042365268 0.0086587779 0.296 -2.3813088e+38
0.0047317003 0.0086880317 0.29700002 -2.3679644e+38
0.0052125612 0.0086880317 0.29700002 -2.35462e+38
0.0061742836 0.0086880317 0.29700002 -2.3412756e+38
0.0066551445 0.0086880317 0.29700002 -2.3412756e+38
0.0071360054 0.0086880317 0.29700002 -2.3279312e+38
0.0076425122 0.0087172845 0.29800001 -2.3279312e+38
0.0081249923 0.0087172845 0.29800001 -2.3412756e+38
0.0091204559 0.0087465364 0.29900002 -2.3812573e+38
0.0096045556 0.0087465364 0.29900002 -2.4479793e+38
0.010088654 0.0087465364 0.29900002 -2.4880126e+38
0.010572754 0.0087465364 0.29900002 -2.5280458e+38
0.011502353 0.0087172845 0.29800001 -2.568079e+38
0.011984834 0.0087172845 0.29800001 -2.6081122e+38
0.012467314 0.0087172845 0.29800001 -2.6214566e+38
0.013432274 0.0087172845 0.29800001 -2.6481454e+38
0.013914754 0.0087172845 0.29800001 -2.6614898e+38
0.014397234 0.0087172845 0.29800001 -2.6614898e+38
0.015362194 0.0087172845 0.29800001 -2.7015231e+38
0.015791504 0.0086880317 0.29700002 -2.6748342e+38
0.016272366 0.0086880317 0.29700002 -2.7015231e+38
0.017234087 0.0086880317 0.29700002 -2.7015231e+38
0.017655302 0.0086587779 0.296 -2.7148675e+38
0.018134544 0.0086587779 0.296 -2.714919e+38
0.019093029 0.0086587779 0.296 -2.754796e+38
-0.013330802 0.008427972 0.273 -3.0483192e+38
-0.012888799 0.008427972 0.273 -3.075008e+38
-0.0091202063 0.0090762768 0.294 -2.3144302e+38
-0.0086736046 0.0091071492 0.29500002 -2.3144302e+38
-0.0081959823 0.0091071492 0.29500002 -2.3544634e+38
-0.0072652805 0.0091380207 0.296 -2.4211855e+38
-0.0067860386 0.0091380207 0.296 -2.4478747e+38
-0.0063067968 0.0091380207 0.296 -2.4745635e+38
-0.005827555 0.0091380207 0.296 -2.4879079e+38
-0.0053663817 0.0091688922 0.29700002 -2.4879079e+38
-0.0044046594 0.0091688922 0.29700002 -2.5145967e+38
-0.0039237984 0.0091688922 0.29700002 -2.5412851e+38
-0.0034429375 0.0091688922 0.29700002 -2.5412851e+38
-0.0024812154 0.0091688922 0.29700002 -2.5679739e+38
-0.0020003542 0.0091688922 0.29700002 -2.5414417e+38
-0.0015194933 0.0091688922 0.29700002 -2.5414417e+38
-0.0010386322 0.0091688922 0.29700002 -2.5547346e+38
-7.6910175e-05 0.0091688922 0.29700002 -2.5280458e+38
0.00040395086 0.0091688922 0.29700002 -2.5147014e+38
0.00088183273 0.0091380207 0.296 -2.5147529e+38
0.0018465341 0.0091688922 0.29700002 -2.4613753e+38
0.0023195588 0.0091380207 0.296 -2.4480309e+38
0.0027988006 0.0091380207 0.296 -2.4346865e+38
0.0037572847 0.0091380207 0.296 -2.3946532e+38
0.0042508394 0.0091688922 0.29700002 -2.3813088e+38
0.0047317003 0.0091688922 0.29700002 -2.3679644e+38
0.0052125612 0.0091688922 0.29700002 -2.35462e+38
0.0061742836 0.0091688922 0.29700002 -2.3412756e+38
0.0066551445 0.0091688922 0.29700002 -2.3412756e+38
0.0071360054 0.0091688922 0.29700002 -2.3412756e+38
0.0076425122 0.0091997646 0.29800001 -2.3279312e+38
0.0081249923 0.0091997646 0.29800001 -2.3412756e+38
0.0090899523 0.0091997646 0.29800001 -2.3946532e+38
0.0095724324 0.0091997646 0.29800001 -2.4613237e+38
0.010054912 0.0091997646 0.29800001 -2.4880126e+38
0.011019873 0.0091997646 0.29800001 -2.5547346e+38
0.011502353 0.0091997646 0.29800001 -2.568079e+38
0.011984834 0.0091997646 0.29800001 -2.6081122e+38
0.012467314 0.0091997646 0.29800001 -2.634801e+38
0.013432274 0.0091997646 0.29800001 -2.6481454e+38
0.013914754 0.0091997646 0.29800001 -2.6614898e+38
0.014397234 0.0091997646 0.29800001 -2.6614898e+38
0.015310643 0.0091688922 0.29700002 -2.7015231e+38
0.015791504 0.0091688922 0.29700002 -2.7015231e+38
0.016272366 0.0091688922 0.29700002 -2.7015231e+38
0.017234087 0.0091688922 0.29700002 -2.7148675e+38
0.017655302 0.0091380207 0.296 -2.7148675e+38
0.018134544 0.0091380207 0.296 -2.714919e+38
0.019028526 0.0091071492 0.29500002 -2.754796e+38
0.020930983 0.0085205864 0.27600002 -2.754796e+38
0.02174563 0.0084897159 0.27500001 -2.7948292e+38
0.022190873 0.0084897159 0.27500001 -2.8614464e+38
0.022636114 0.0084897159 0.27500001 -2.9415128e+38
0.023441046 0.0084588435 0.27400002 -3.0751121e+38
-0.013330802 0.0088699758 0.273 -3.0484748e+38
-0.012841588 0.0088374848 0.27200001 -3.021786e+38
-0.011960818 0.0088374848 0.27200001 -2.3812034e+38
-0.011520434 0.0088374848 0.27200001 -2.3410146e+38
-0.0086442027 0.0095522804 0.294 -2.3144302e+38
-0.0081959823 0.0095847715 0.29500002 -2.3544634e+38
-0.0072652805 0.0096172625 0.296 -2.4211855e+38
-0.0067860386 0.0096172625 0.296 -2.4478743e+38
-0.0063067968 0.0096172625 0.296 -2.4612187e+38
-0.005827555 0.0096172625 0.296 -2.4879079e+38
-0.0053663817 0.0096497536 0.29700002 -2.4879079e+38
-0.0044046594 0.0096497536 0.29700002 -2.5012523e+38
-0.0039237984 0.0096497536 0.29700002 -2.5412851e+38
-0.0034429375 0.0096497536 0.29700002 -2.5412851e+38
-0.0024812154 0.0096497536 0.29700002 -2.5679739e+38
-0.0020003542 0.0096497536 0.29700002 -2.5414417e+38
-0.0015194933 0.0096497536 0.29700002 -2.5414417e+38
-0.0010386322 0.0096497536 0.29700002 -2.5413902e+38
-7.6910175e-05 0.0096497536 0.29700002 -2.5280458e+38
0.00040395086 0.0096497536 0.29700002 -2.5147014e+38
0.00088481198 0.0096497536 0.29700002 -2.5147529e+38
0.0018465341 0.0096497536 0.29700002 -2.4613753e+38
0.0023273951 0.0096497536 0.29700002 -2.4480309e+38
0.0028082561 0.0096497536 0.29700002 -2.4346865e+38
0.0032891172 0.0096497536 0.29700002 -2.4346865e+38
0.0042508394 0.0096497536 0.29700002 -2.3813088e+38
0.0047317003 0.0096497536 0.29700002 -2.3679644e+38
0.0052125612 0.0096497536 0.29700002 -2.35462e+38
0.0061742836 0.0096497536 0.29700002 -2.3412756e+38
0.0066551445 0.0096497536 0.29700002 -2.3412756e+38
0.0071360054 0.0096497536 0.29700002 -2.3412756e+38
0.0076168664 0.0096497536 0.29700002 -2.3412756e+38
0.0081249923 0.0096822446 0.29800001 -2.3412756e+38
0.0090899523 0.0096822446 0.29800001 -2.3946532e+38
0.0095724324 0.0096822446 0.29800001 -2.4613237e+38
0.010502033 0.0096497536 0.29700002 -2.5280458e+38
0.010982894 0.0096497536 0.29700002 -2.5547346e+38
0.011463755 0.0096497536 0.29700002 -2.568079e+38
0.011984834 0.0096822446 0.29800001 -2.6081122e+38
0.012467314 0.0096822446 0.29800001 -2.634801e+38
0.013432274 0.0096822446 0.29800001 -2.6614898e+38
0.013914754 0.0096822446 0.29800001 -2.6748342e+38
0.014348921 0.0096497536 0.29700002 -2.6748342e+38
0.015310643 0.0096497536 0.29700002 -2.7015231e+38
0.015791504 0.0096497536 0.29700002 -2.7015231e+38
0.016272366 0.0096497536 0.29700002 -2.7148675e+38
0.01717606 0.0096172625 0.296 -2.7148675e+38
0.017655302 0.0096172625 0.296 -2.7148675e+38
0.018134544 0.0096172625 0.296 -2.7148675e+38
0.019093029 0.0096172625 0.296 -2.7282634e+38
0.021824704 0.0089674471 0.27600002 -2.7681404e+38
0.022190873 0.008934957 0.27500001 -2.7947248e+38
0.022636114 0.008934957 0.27500001 -2.8481024e+38
0.023441046 0.0089024659 0.27400002 -2.9815461e+38
0.023884669 0.0089024659 0.27400002 -2.9685134e+38
0.024328291 0.0089024659 0.27400002 -3.0485798e+38
-0.011960818 0.009277869 0.27200001 -2.8349128e+38
-0.0090581644 0.0099600647 0.29200003 -2.3276706e+38
-0.0081404159 0.0099941753 0.29300001 -2.3544634e+38
-0.007692195 0.010028285 0.294 -2.3811523e+38
-0.0072407359 0.010062395 0.29500002 -2.4211855e+38
-0.0067860386 0.010096504 0.296 -2.4478743e+38
-0.0063067968 0.010096504 0.296 -2.4612187e+38
-0.005827555 0.010096504 0.296 -2.4879079e+38
-0.0048690708 0.010096504 0.296 -2.5012523e+38
-0.0044046594 0.010130614 0.29700002 -2.5012523e+38
-0.0039237984 0.010130614 0.29700002 -2.5412855e+38
-0.0034429375 0.010130614 0.29700002 -2.5412855e+38
-0.0024812154 0.010130614 0.29700002 -2.5679743e+38
-0.0020003542 0.010130614 0.29700002 -2.5414417e+38
-0.0015194933 0.010130614 0.29700002 -2.5414417e+38
-0.0010386322 0.010130614 0.29700002 -2.5413902e+38
-7.6910175e-05 0.010130614 0.29700002 -2.5280458e+38
0.00040395086 0.010130614 0.29700002 -2.5147014e+38
0.00088481198 0.010130614 0.29700002 -2.5147014e+38
0.0018465341 0.010130614 0.29700002 -2.4746682e+38
0.0023273951 0.010130614 0.29700002 -2.4479793e+38
0.0028082561 0.010130614 0.29700002 -2.4346349e+38
0.0032891172 0.010130614 0.29700002 -2.4346349e+38
0.0042508394 0.010130614 0.29700002 -2.3812573e+38
0.0047317003 0.010130614 0.29700002 -2.3679129e+38
0.0052125612 0.010130614 0.29700002 -2.3679129e+38
0.0061742836 0.010130614 0.29700002 -2.3412756e+38
0.0066551445 0.010130614 0.29700002 -2.3279312e+38
0.0071360054 0.010130614 0.29700002 -2.3412756e+38
0.0076168664 0.010130614 0.29700002 -2.3412756e+38
0.0085785883 0.010130614 0.29700002 -2.3679644e+38
0.0090899523 0.010164725 0.29800001 -2.4346865e+38
0.0095081888 0.010096504 0.296 -2.4746682e+38
0.010466672 0.010096504 0.296 -2.568079e+38
0.010945915 0.010096504 0.296 -2.568079e+38
0.011425157 0.010096504 0.296 -2.5814234e+38
0.011944616 0.010130614 0.29700002 -2.6214566e+38
0.012906338 0.010130614 0.29700002 -2.6614898e+38
0.013387199 0.010130614 0.29700002 -2.6614898e+38
0.01386806 0.010130614 0.29700002 -2.6748342e+38
0.014348921 0.010130614 0.29700002 -2.6748342e+38
0.015310643 0.010130614 0.29700002 -2.7015231e+38
0.015738335 0.010096504 0.296 -2.7015231e+38
0.016696818 0.010096504 0.296 -2.7148675e+38
0.01717606 0.010096504 0.296 -2.7148675e+38
0.017655302 0.010096504 0.296 -2.7148675e+38
0.018550903 0.010062395 0.29500002 -2.7148675e+38
0.019093029 0.010096504 0.296 -2.7282634e+38
0.019440025 0.010028285 0.294 -2.7282634e+38
0.021824704 0.0094143078 0.27600002 -2.7414516e+38
0.022190873 0.009380199 0.27500001 -2.7813804e+38
0.022636114 0.009380199 0.27500001 -2.7947248e+38
0.023441046 0.0093460884 0.27400002 -2.8747912e+38
0.023884669 0.0093460884 0.27400002 -2.914824e+38
0.024681507 0.0093119796 0.273 -3.0617681e+38
-0.011520434 0.010158638 0.27200001 -2.8217249e+38
-0.01019928 0.010158638 0.27200001 -2.3144302e+38
-0.0097588962 0.010158638 0.27200001 -2.3010858e+38
-0.0094982907 0.010868249 0.29100001 -2.3010858e+38
-0.0090581644 0.010905596 0.29200003 -2.3144302e+38
-0.0081404159 0.010942944 0.29300001 -2.3544634e+38
-0.0076660314 0.010942944 0.29300001 -2.3546196e+38
-0.0072161909 0.010980292 0.294 -2.3946528e+38
-0.0067631132 0.01101764 0.29500002 -2.4213416e+38
-0.0063067968 0.011054988 0.296 -2.434686e+38
-0.005827555 0.011054988 0.296 -2.4613753e+38
-0.0048690708 0.011054988 0.296 -2.4747197e+38
-0.0044046594 0.011092336 0.29700002 -2.4880641e+38
-0.0039237984 0.011092336 0.29700002 -2.5147529e+38
-0.0034429375 0.011092336 0.29700002 -2.5147529e+38
-0.0024812154 0.011092336 0.29700002 -2.5414417e+38
-0.0020003542 0.011092336 0.29700002 -2.5414417e+38
-0.0015194933 0.011092336 0.29700002 -2.5414417e+38
-0.0010386322 0.011092336 0.29700002 -2.5413902e+38
-7.6910175e-05 0.011092336 0.29700002 -2.5280458e+38
0.00040395086 0.011092336 0.29700002 -2.5147014e+38
0.00088481198 0.011092336 0.29700002 -2.5147014e+38
0.0018465341 0.011092336 0.29700002 -2.4746682e+38
0.0023273951 0.011092336 0.29700002 -2.4613237e+38
0.0028082561 0.011092336 0.29700002 -2.4346349e+38
0.0037572847 0.011054988 0.296 -2.4212905e+38
0.0042365268 0.011054988 0.296 -2.3812573e+38
0.0047157686 0.011054988 0.296 -2.3812573e+38
0.0051950105 0.011054988 0.296 -2.3679129e+38
0.0061534946 0.011054988 0.296 -2.3412241e+38
0.0066327369 0.011054988 0.296 -2.3545685e+38
0.0071119787 0.011054988 0.296 -2.3545685e+38
0.0080704633 0.011054988 0.296 -2.5147529e+38
0.0085785883 0.011092336 0.29700002 -2.6081637e+38
0.0090594497 0.011092336 0.29700002 -2.6748858e+38
0.0095403111 0.011092336 0.29700002 -2.7149715e+38
0.010431312 0.01101764 0.29500002 -2.7950383e+38
0.010908935 0.01101764 0.29500002 -2.7950383e+38
0.011386557 0.01101764 0.29500002 -2.7819012e+38
0.012383641 0.011054988 0.296 -2.7685568e+38
0.012862883 0.011054988 0.296 -2.7018348e+38
0.013342124 0.011054988 0.296 -2.6618016e+38
0.013821366 0.011054988 0.296 -2.6351128e+38
0.014779851 0.011054988 0.296 -2.6882827e+38
0.015259093 0.011054988 0.296 -2.7016271e+38
0.015738335 0.011054988 0.296 -2.6882827e+38
0.016640412 0.01101764 0.29500002 -2.7016271e+38
0.017118033 0.01101764 0.29500002 -2.7016271e+38
0.017595656 0.01101764 0.29500002 -2.7016271e+38
0.018550903 0.01101764 0.29500002 -2.7149715e+38
0.019028526 0.01101764 0.29500002 -2.7282119e+38
0.019440025 0.010980292 0.294 -2.7415563e+38
0.021824704 0.010308029 0.27600002 -2.688074e+38
0.022190873 0.010270682 0.27500001 -2.7281068e+38
0.022636114 0.010270682 0.27500001 -2.7414512e+38
0.023441046 0.010233333 0.27400002 -2.7814844e+38
0.025031483 0.010158638 0.27200001 -2.8748423e+38
-0.0097947745 0.01063799 0.273 -2.3144302e+38
-0.0089961225 0.011300428 0.29000002 -2.3144302e+38
-0.0085559972 0.011339395 0.29100001 -2.3277746e+38
-0.0081126327 0.011378362 0.29200003 -2.3544634e+38
-0.0076660314 0.011417329 0.29300001 -2.3546196e+38
-0.0071916464 0.011417329 0.29300001 -2.3813084e+38
-0.0067401873 0.011456296 0.294 -2.421342e+38
-0.0062854905 0.011495263 0.29500002 -2.4346865e+38
-0.005827555 0.01153423 0.296 -2.4613753e+38
-0.0048690708 0.01153423 0.296 -2.4747197e+38
-0.004389829 0.01153423 0.296 -2.4880641e+38
-0.0039105872 0.01153423 0.296 -2.5147529e+38
-0.0034429375 0.011573197 0.29700002 -2.5280973e+38
-0.0024812154 0.011573197 0.29700002 -2.5280973e+38
-0.0020003542 0.011573197 0.29700002 -2.5414417e+38
-0.0015194933 0.011573197 0.29700002 -2.5414417e+38
-0.0010386322 0.011573197 0.29700002 -2.5413902e+38
-7.6910175e-05 0.011573197 0.29700002 -2.5280458e+38
0.00040395086 0.011573197 0.29700002 -2.5147014e+38
0.00088481198 0.011573197 0.29700002 -2.5147014e+38
0.0018465341 0.011573197 0.29700002 -2.4746682e+38
0.0023195588 0.01153423 0.296 -2.4613237e+38
0.0027988006 0.01153423 0.296 -2.4479793e+38
0.0037572847 0.01153423 0.296 -2.4212905e+38
0.0042222138 0.011495263 0.29500002 -2.3946017e+38
0.004699837 0.011495263 0.29500002 -2.3812573e+38
0.0056550829 0.011495263 0.29500002 -2.3545685e+38
0.0061327056 0.011495263 0.29500002 -2.3545685e+38
0.0066327369 0.01153423 0.296 -2.3813088e+38
0.0070879515 0.011495263 0.29500002 -2.4880641e+38
0.0080704633 0.01153423 0.296 -2.6615414e+38
0.0085497051 0.01153423 0.296 -2.7015231e+38
0.009028947 0.01153423 0.296 -2.7282119e+38
0.0099536888 0.011495263 0.29500002 -2.8082783e+38
0.010431312 0.011495263 0.29500002 -2.8217272e+38
0.010871956 0.011456296 0.294 -2.8217272e+38
0.011823963 0.011456296 0.294 -2.8085385e+38
0.012299967 0.011456296 0.294 -2.8085385e+38
0.012775972 0.011456296 0.294 -2.7951941e+38
0.01329705 0.011495263 0.29500002 -2.7685053e+38
0.014252296 0.011495263 0.29500002 -2.7017833e+38
0.014729919 0.011495263 0.29500002 -2.6884389e+38
0.015207542 0.011495263 0.29500002 -2.6750945e+38
0.015685165 0.011495263 0.29500002 -2.6750945e+38
0.016640412 0.011495263 0.29500002 -2.6750945e+38
0.017118033 0.011495263 0.29500002 -2.7016271e+38
0.017595656 0.011495263 0.29500002 -2.7016271e+38
0.018550903 0.011495263 0.29500002 -2.7149715e+38
0.019028526 0.011495263 0.29500002 -2.7282119e+38
0.019440025 0.011456296 0.294 -2.7282119e+38
0.022190873 0.010715923 0.27500001 -2.7014184e+38
0.022913491 0.01063799 0.273 -2.7414512e+38
0.0247554 0.010482121 0.26900002 -2.8481535e+38
0.025190927 0.010482121 0.26900002 -2.9147713e+38
0.025721719 0.010521089 0.27000001 -2.9414601e+38
0.026255751 0.010560055 0.27100003 -2.9682528e+38
-0.01019928 0.011039407 0.27200001 -2.3144302e+38
-0.0097947745 0.011079993 0.273 -2.3010858e+38
-0.0089961225 0.011769956 0.29000002 -2.3144302e+38
-0.0085559972 0.011810542 0.29100001 -2.3277746e+38
-0.0080848504 0.011810542 0.29100001 -2.3544634e+38
-0.0076398673 0.011851128 0.29200003 -2.3546196e+38
-0.0071916464 0.011891714 0.29300001 -2.3946528e+38
-0.0067172619 0.011891714 0.29300001 -2.4480309e+38
-0.0062641837 0.011932299 0.294 -2.4613753e+38
-0.005312176 0.011932299 0.294 -2.4747197e+38
-0.0048526214 0.011972887 0.29500002 -2.4747197e+38
-0.004389829 0.012013472 0.296 -2.4880641e+38
-0.0039105872 0.012013472 0.296 -2.5147529e+38
-0.0034313451 0.012013472 0.296 -2.5280973e+38
-0.0024728612 0.012013472 0.296 -2.5280973e+38
-0.0019936191 0.012013472 0.296 -2.5414417e+38
-0.0015143772 0.012013472 0.296 -2.5414417e+38
-0.00055589323 0.012013472 0.296 -2.5280458e+38
-7.6651224e-05 0.012013472 0.296 -2.5280458e+38
0.00040259075 0.012013472 0.296 -2.5147014e+38
0.00088183273 0.012013472 0.296 -2.5280458e+38
0.0018403167 0.012013472 0.296 -2.4746682e+38
0.0023195588 0.012013472 0.296 -2.4613237e+38
0.0027988006 0.012013472 0.296 -2.4613237e+38
0.003744591 0.011972887 0.29500002 -2.4346349e+38
0.0042079012 0.011932299 0.294 -2.3946017e+38
0.0051599089 0.011932299 0.294 -2.3812573e+38
0.005635913 0.011932299 0.294 -2.3946017e+38
0.0061119166 0.011932299 0.294 -2.4346349e+38
0.0065879207 0.011932299 0.294 -2.5547346e+38
0.0070879515 0.011972887 0.29500002 -2.6481454e+38
0.008043197 0.011972887 0.29500002 -2.7283159e+38
0.0085208202 0.011972887 0.29500002 -2.7416607e+38
0.0089984434 0.011972887 0.29500002 -2.7683495e+38
0.0099199479 0.011932299 0.294 -2.8083828e+38
0.010395952 0.011932299 0.294 -2.8350716e+38
0.010871956 0.011932299 0.294 -2.8350716e+38
0.011823963 0.011932299 0.294 -2.848416e+38
0.012299967 0.011932299 0.294 -2.8352273e+38
0.012732515 0.011891714 0.29300001 -2.8218829e+38
0.013681285 0.011891714 0.29300001 -2.8619161e+38
0.017060006 0.011932299 0.294 -2.6750945e+38
0.017536009 0.011932299 0.294 -2.6750945e+38
0.018488016 0.011932299 0.294 -2.7149715e+38
0.018964021 0.011932299 0.294 -2.7282119e+38
0.019373903 0.011891714 0.29300001 -2.7282119e+38
0.02174563 0.011161165 0.27500001 -2.6747296e+38
0.023617975 0.010795891 0.266 -2.7547952e+38
0.024048647 0.010795891 0.266 -2.7681911e+38
0.024387289 0.010755304 0.26500002 -2.7948799e+38
0.025097281 0.010877063 0.26800001 -2.8481535e+38
0.025626455 0.010917649 0.26900002 -2.8614979e+38
0.026158866 0.010958235 0.27000001 -2.8881867e+38
-0.0097947745 0.011521997 0.273 -2.3010858e+38
-0.0089961225 0.012239483 0.29000002 -2.3277746e+38
-0.0085559972 0.012281689 0.29100001 -2.3544634e+38
-0.0080848504 0.012281689 0.29100001 -2.3811523e+38
0.023100136 0.011184355 0.26500002 -2.7414512e+38
0.023440398 0.01114215 0.264 -2.7547956e+38
0.023867831 0.01114215 0.264 -2.7547952e+38
0.024387289 0.011184355 0.26500002 -2.7681396e+38
0.024909986 0.011226561 0.266 -2.7947759e+38
0.02553119 0.011310971 0.26800001 -2.8081203e+38
0.026061982 0.011353176 0.26900002 -2.8481535e+38
-0.0076398673 0.012796659 0.29200003 -2.5282009e+38
-0.0071671014 0.012796659 0.29200003 -2.5682342e+38
-0.0062215696 0.012796659 0.29200003 -2.6351124e+38
-0.0043749986 0.012928132 0.29500002 -2.5283575e+38
-0.0038973757 0.012928132 0.29500002 -2.5016687e+38
-0.0034313451 0.012971955 0.296 -2.5016687e+38
-0.0024728612 0.012971955 0.296 -2.5016687e+38
-0.0019936191 0.012971955 0.296 -2.5282013e+38
-0.0015143772 0.012971955 0.296 -2.5415457e+38
-0.00055589323 0.012971955 0.296 -2.5415457e+38
-7.6651224e-05 0.012971955 0.296 -2.5415457e+38
0.00040259075 0.012971955 0.296 -2.5148569e+38
0.00088183273 0.012971955 0.296 -2.5148054e+38
0.0018403167 0.012971955 0.296 -2.4880126e+38
0.0023117224 0.012928132 0.29500002 -2.5147014e+38
0.0027893451 0.012928132 0.29500002 -2.488013e+38
0.0037318976 0.012884308 0.294 -2.474773e+38
0.0041935886 0.012840483 0.29300001 -2.5148062e+38
0.0051423581 0.012840483 0.29300001 -2.6083724e+38
0.0056167431 0.012840483 0.29300001 -2.7017833e+38
0.0060911281 0.012840483 0.29300001 -2.6884389e+38
0.0070398976 0.012840483 0.29300001 -2.7284721e+38
0.0075142821 0.012840483 0.29300001 -2.7685057e+38
0.0080159325 0.012884308 0.294 -2.7818501e+38
0.0084919361 0.012884308 0.294 -2.8083828e+38
0.0089679407 0.012884308 0.294 -2.8217272e+38
0.0098862061 0.012840483 0.29300001 -2.8350716e+38
0.010360591 0.012840483 0.29300001 -2.848416e+38
0.011309361 0.012840483 0.29300001 -2.8884492e+38
0.011783745 0.012840483 0.29300001 -2.8884492e+38
0.01225813 0.012840483 0.29300001 -2.9017936e+38
0.012732515 0.012840483 0.29300001 -2.8884492e+38
0.013681285 0.012840483 0.29300001 -2.875261e+38
0.018488016 0.012884308 0.294 -2.7017833e+38
0.018964021 0.012884308 0.294 -2.7282123e+38
-0.0097588962 0.012360561 0.27200001 -2.2878976e+38
-0.0089961225 0.013178539 0.29000002 -2.3813084e+38
-0.0085559972 0.013223982 0.29100001 -2.4614793e+38
-0.0080848504 0.013223982 0.29100001 -2.5415457e+38
-0.0076137036 0.013223982 0.29100001 -2.5683907e+38
-0.0071671014 0.013269424 0.29200003 -2.5950795e+38
-0.001986884 0.013405755 0.29500002 -2.6084235e+38
-0.0010316381 0.013405755 0.29500002 -2.5950791e+38
-0.00055589323 0.013451197 0.296 -2.5683903e+38
-7.6651224e-05 0.013451197 0.296 -2.5949234e+38
0.00040259075 0.013451197 0.296 -2.5682346e+38
0.00088183273 0.013451197 0.296 -2.5548386e+38
0.0018340994 0.013405755 0.29500002 -2.5281502e+38
0.002303886 0.013360312 0.294 -2.5414946e+38
0.0032558937 0.013360312 0.294 -2.6215607e+38
0.0037192039 0.013314867 0.29300001 -2.5950284e+38
0.0070158709 0.013269424 0.29200003 -2.7418165e+38
0.0075142821 0.013314867 0.29300001 -2.7818501e+38
0.0079886671 0.013314867 0.29300001 -2.7818501e+38
0.0084630521 0.013314867 0.29300001 -2.8217272e+38
0.0094118211 0.013314867 0.29300001 -2.8350716e+38
0.0098524652 0.013269424 0.29200003 -2.8350716e+38
0.010325231 0.013269424 0.29200003 -2.848416e+38
0.011270762 0.013269424 0.29200003 -2.8884492e+38
0.011783745 0.013314867 0.29300001 -2.9017936e+38
0.01225813 0.013314867 0.29300001 -2.915138e+38
0.012732515 0.013314867 0.29300001 -2.9017936e+38
0.013681285 0.013314867 0.29300001 -2.915138e+38
0.014155669 0.013314867 0.29300001 -2.875261e+38
0.014630054 0.013314867 0.29300001 -2.875261e+38
0.022585534 0.011997014 0.264 -2.6748858e+38
0.023012966 0.011997014 0.264 -2.7281068e+38
0.023440398 0.011997014 0.264 -2.7281068e+38
0.023867831 0.011997014 0.264 -2.7414508e+38
0.024387289 0.012042457 0.26500002 -2.7547952e+38
0.024909986 0.012087901 0.266 -2.7547952e+38
-0.012036461 0.012424446 0.264 -2.9018421e+38
-0.011609029 0.012424446 0.264 -2.7550536e+38
-0.0097588962 0.012800945 0.27200001 -2.301242e+38
-0.0094982907 0.013695128 0.29100001 -2.4081013e+38
-0.0085559972 0.013695128 0.29100001 -2.5548902e+38
-0.0080848504 0.013695128 0.29100001 -2.5682346e+38
-0.0076137036 0.013695128 0.29100001 -2.5817351e+38
-0.0071425568 0.013695128 0.29100001 -2.608424e+38
-0.001028141 0.013836316 0.294 -2.7151788e+38
-0.00055401516 0.013883377 0.29500002 -2.7018344e+38
-7.6392265e-05 0.013883377 0.29500002 -2.6884904e+38
0.00040123065 0.013883377 0.29500002 -2.6884904e+38
0.0013564765 0.013883377 0.29500002 -2.6217168e+38
0.001827882 0.013836316 0.294 -2.6217168e+38
0.0027704346 0.013789252 0.29300001 -2.6617501e+38
0.0032448194 0.013789252 0.29300001 -2.6884389e+38
0.0037065106 0.013742191 0.29200003 -2.7017833e+38
0.0046520424 0.013742191 0.29200003 -2.7151277e+38
0.0051248078 0.013742191 0.29200003 -2.7284721e+38
0.0055975737 0.013742191 0.29200003 -2.7685053e+38
0.0060703396 0.013742191 0.29200003 -2.7418165e+38
0.0070158709 0.013742191 0.29200003 -2.7950379e+38
0.0074886368 0.013742191 0.29200003 -2.8083823e+38
0.0079614026 0.013742191 0.29200003 -2.8083823e+38
0.0089069335 0.013742191 0.29200003 -2.8350716e+38
0.0093796998 0.013742191 0.29200003 -2.848416e+38
0.0098187234 0.013695128 0.29100001 -2.848416e+38
0.010325231 0.013742191 0.29200003 -2.8617604e+38
0.011270762 0.013742191 0.29200003 -2.8884492e+38
0.011743529 0.013742191 0.29200003 -2.9017936e+38
0.012216294 0.013742191 0.29200003 -2.915138e+38
0.013161826 0.013742191 0.29200003 -2.8884492e+38
0.013634591 0.013742191 0.29200003 -2.915138e+38
0.014107357 0.013742191 0.29200003 -2.875261e+38
0.014580123 0.013742191 0.29200003 -2.875261e+38
0.021648357 0.012377384 0.26300001 -2.6615414e+38
0.022499982 0.012377384 0.26300001 -2.6748858e+38
0.022925796 0.012377384 0.26300001 -2.6748854e+38
0.02335161 0.012377384 0.26300001 -2.7015742e+38
0.023867831 0.012424446 0.264 -2.7414512e+38
0.024387289 0.012471508 0.26500002 -2.7414512e+38
0.025245391 0.012471508 0.26500002 -2.7547952e+38
-0.011990869 0.012803197 0.26300001 -2.8482572e+38
-0.011565056 0.012803197 0.26300001 -2.7014687e+38
-0.01071343 0.012803197 0.26300001 -2.4077366e+38
-0.0085559972 0.014166275 0.29100001 -2.5683907e+38
-0.0080848504 0.014166275 0.29100001 -2.5817351e+38
-0.0076137036 0.014166275 0.29100001 -2.5950795e+38
-0.0071425568 0.014166275 0.29100001 -2.608424e+38
-0.0014990288 0.014263637 0.29300001 -2.7685564e+38
-0.0010246439 0.014263637 0.29300001 -2.7285232e+38
-0.00055213715 0.014312319 0.294 -2.7285232e+38
-7.6392265e-05 0.014361001 0.29500002 -2.7151792e+38
0.00040123065 0.014361001 0.29500002 -2.7151792e+38
0.0013518783 0.014312319 0.294 -2.7017833e+38
0.0018216649 0.014263637 0.29300001 -2.6884389e+38
0.0027609791 0.014214956 0.29200003 -2.7151277e+38
0.0032337448 0.014214956 0.29200003 -2.7151277e+38
0.0037065106 0.014214956 0.29200003 -2.7151277e+38
0.0046520424 0.014214956 0.29200003 -2.7418165e+38
0.0051248078 0.014214956 0.29200003 -2.7418165e+38
0.0055975737 0.014214956 0.29200003 -2.8083823e+38
0.0060703396 0.014214956 0.29200003 -2.7950379e+38
0.0070158709 0.014214956 0.29200003 -2.7950379e+38
0.0074886368 0.014214956 0.29200003 -2.8083823e+38
0.0079614026 0.014214956 0.29200003 -2.8083823e+38
0.0089069335 0.014214956 0.29200003 -2.8350712e+38
0.0093475766 0.014166275 0.29100001 -2.8484156e+38
0.010254511 0.014117594 0.29000002 -2.86176e+38
0.010724038 0.014117594 0.29000002 -2.8884488e+38
0.011232164 0.014166275 0.29100001 -2.8884492e+38
0.011703311 0.014166275 0.29100001 -2.9017936e+38
0.012216294 0.014214956 0.29200003 -2.915138e+38
0.01311675 0.014166275 0.29100001 -2.9017936e+38
0.013587898 0.014166275 0.29100001 -2.915138e+38
0.014059044 0.014166275 0.29100001 -2.8886054e+38
0.021483731 0.012705835 0.26100001 -2.6615414e+38
0.021906305 0.012705835 0.26100001 -2.6748858e+38
