# .PCD v0.7 - Point Cloud Data file format
VERSION 0.7
FIELDS x y z rgb
SIZE 4 4 4 4
TYPE F F F F
COUNT 1 1 1 1
WIDTH 945
HEIGHT 1
VIEWPOINT 0 0 0 1 0 0 0
POINTS 945
DATA ascii
0.0064218738 -0.027082566 0.33500001 -2.4081009e+38
0.0069850478 -0.027163412 0.33600003 -2.4081009e+38
0.0075290524 -0.027163412 0.33600003 -2.4081009e+38
0.0080970833 -0.027244255 0.33700001 -2.4081009e+38
0.008642707 -0.027244255 0.33700001 -2.3814125e+38
0.0097339535 -0.027244255 0.33700001 -2.3814125e+38
0.010279577 -0.027244255 0.33700001 -2.3814125e+38
0.010857323 -0.027325096 0.33800003 -2.4081013e+38
0.011404566 -0.027325096 0.33800003 -2.4214457e+38
0.012499051 -0.027325096 0.33800003 -2.4081013e+38
0.013046294 -0.027325096 0.33800003 -2.4214461e+38
0.013593536 -0.027325096 0.33800003 -2.4347905e+38
0.014688022 -0.027325096 0.33800003 -2.4614793e+38
0.015235264 -0.027325096 0.33800003 -2.5148569e+38
0.015782505 -0.027325096 0.33800003 -2.5282013e+38
0.016329749 -0.027325096 0.33800003 -2.5548902e+38
0.017424233 -0.027325096 0.33800003 -2.6082678e+38
0.017918307 -0.027244255 0.33700001 -2.6082678e+38
0.018953146 -0.027163412 0.33600003 -2.6349566e+38
0.019497151 -0.027163412 0.33600003 -2.6349566e+38
0.019981507 -0.027082566 0.33500001 -2.6349566e+38
0.021003393 -0.027001724 0.33400002 -2.6616454e+38
0.021479657 -0.026920881 0.333 -2.6616454e+38
0.022018803 -0.026920881 0.333 -2.6349566e+38
0.023097098 -0.026920881 0.333 -2.6216122e+38
0.023636246 -0.026920881 0.333 -2.6216118e+38
0.024175392 -0.026920881 0.333 -2.6216118e+38
0.024714541 -0.026920881 0.333 -2.594923e+38
0.025792835 -0.026920881 0.333 -2.5414413e+38
0.026331982 -0.026920881 0.333 -2.5280969e+38
0.026871128 -0.026920881 0.333 -2.4748233e+38
0.027949423 -0.026920881 0.333 -2.4481349e+38
0.028488569 -0.026920881 0.333 -2.4347905e+38
0.029114889 -0.027001724 0.33400002 -2.4347905e+38
0.029655656 -0.027001724 0.33400002 -2.4347905e+38
0.030737188 -0.027001724 0.33400002 -2.4613753e+38
0.031277955 -0.027001724 0.33400002 -2.4747197e+38
0.031818721 -0.027001724 0.33400002 -2.5147529e+38
0.032801747 -0.026920881 0.333 -2.6215081e+38
0.033340894 -0.026920881 0.333 -2.6615414e+38
0.033981785 -0.027001724 0.33400002 -2.6748858e+38
0.03441919 -0.026920881 0.333 -2.7015746e+38
0.035497483 -0.026920881 0.333 -2.7015746e+38
0.036036629 -0.026920881 0.333 -2.714919e+38
0.038411081 -0.025627386 0.317 -2.9683568e+38
0.0035106062 -0.025114143 0.317 -2.3814121e+38
0.004036542 -0.025193367 0.31800002 -2.3680681e+38
0.0058443868 -0.026381733 0.333 -2.3814121e+38
0.0064218738 -0.026540181 0.33500001 -2.4081009e+38
0.0069850478 -0.026619406 0.33600003 -2.4081009e+38
0.0075514601 -0.02669863 0.33700001 -2.4081009e+38
0.0080970833 -0.02669863 0.33700001 -2.4081009e+38
0.008642707 -0.02669863 0.33700001 -2.3814125e+38
0.0097628385 -0.026777854 0.33800003 -2.3814125e+38
0.010310081 -0.026777854 0.33800003 -2.3814125e+38
0.010857323 -0.026777854 0.33800003 -2.3814125e+38
0.011404566 -0.026777854 0.33800003 -2.4081013e+38
0.012499051 -0.026777854 0.33800003 -2.4081013e+38
0.013084891 -0.02685708 0.33900002 -2.4081017e+38
0.013633753 -0.02685708 0.33900002 -2.4214461e+38
0.014182615 -0.02685708 0.33900002 -2.4347905e+38
0.015280338 -0.02685708 0.33900002 -2.5015125e+38
0.0158292 -0.02685708 0.33900002 -2.5282013e+38
0.016329749 -0.026777854 0.33800003 -2.5548902e+38
0.017424233 -0.026777854 0.33800003 -2.6082678e+38
0.017971477 -0.026777854 0.33800003 -2.6082678e+38
0.01846393 -0.02669863 0.33700001 -2.6216122e+38
0.019497151 -0.026619406 0.33600003 -2.6349566e+38
0.019981507 -0.026540181 0.33500001 -2.648301e+38
0.021066278 -0.026540181 0.33500001 -2.648301e+38
0.02154416 -0.026460957 0.33400002 -2.6217684e+38
0.022084927 -0.026460957 0.33400002 -2.608424e+38
0.023097098 -0.026381733 0.333 -2.5950795e+38
0.023636246 -0.026381733 0.333 -2.6216118e+38
0.024175392 -0.026381733 0.333 -2.6082674e+38
0.024714541 -0.026381733 0.333 -2.5682342e+38
0.025792835 -0.026381733 0.333 -2.5414413e+38
0.026331982 -0.026381733 0.333 -2.5280969e+38
0.026951825 -0.026460957 0.33400002 -2.4748237e+38
0.02749259 -0.026460957 0.33400002 -2.4614793e+38
0.028574124 -0.026460957 0.33400002 -2.4082579e+38
0.029114889 -0.026460957 0.33400002 -2.4347905e+38
0.029655656 -0.026460957 0.33400002 -2.4347905e+38
0.030737188 -0.026460957 0.33400002 -2.4613753e+38
0.031277955 -0.026460957 0.33400002 -2.4613753e+38
0.031818721 -0.026460957 0.33400002 -2.5147529e+38
0.032359488 -0.026460957 0.33400002 -2.5681305e+38
0.033441018 -0.026460957 0.33400002 -2.6481969e+38
0.033981785 -0.026460957 0.33400002 -2.6748858e+38
0.03441919 -0.026381733 0.333 -2.6748858e+38
0.035497483 -0.026381733 0.333 -2.7015746e+38
0.037266664 -0.025034918 0.31600001 -2.7816402e+38
0.038289912 -0.025034918 0.31600001 -2.9016352e+38
0.038924325 -0.025114143 0.317 -2.9684079e+38
0.0035106062 -0.024600901 0.317 -2.3680677e+38
0.004036542 -0.024678506 0.31800002 -2.3680677e+38
0.0064218738 -0.025997797 0.33500001 -2.3946524e+38
0.0069850478 -0.026075402 0.33600003 -2.3946524e+38
0.0075514601 -0.026153008 0.33700001 -2.3814121e+38
0.0081211105 -0.026230613 0.33800003 -2.3814121e+38
0.0086683528 -0.026230613 0.33800003 -2.3814125e+38
0.0097628385 -0.026230613 0.33800003 -2.3814125e+38
0.010310081 -0.026230613 0.33800003 -2.3814125e+38
0.010857323 -0.026230613 0.33800003 -2.3814125e+38
0.011438307 -0.026308218 0.33900002 -2.4081013e+38
0.01253603 -0.026308218 0.33900002 -2.4081017e+38
0.013084891 -0.026308218 0.33900002 -2.4081017e+38
0.013633753 -0.026308218 0.33900002 -2.4214461e+38
0.014182615 -0.026308218 0.33900002 -2.4480309e+38
0.015280338 -0.026308218 0.33900002 -2.5147529e+38
0.0158292 -0.026308218 0.33900002 -2.5414417e+38
0.016378062 -0.026308218 0.33900002 -2.5548902e+38
0.017424233 -0.026230613 0.33800003 -2.6082678e+38
0.017971477 -0.026230613 0.33800003 -2.6082678e+38
0.01846393 -0.026153008 0.33700001 -2.6216122e+38
0.019555178 -0.026153008 0.33700001 -2.6349566e+38
0.020041155 -0.026075402 0.33600003 -2.648301e+38
0.021066278 -0.025997797 0.33500001 -2.648301e+38
0.021608664 -0.025997797 0.33500001 -2.6217684e+38
0.022151049 -0.025997797 0.33500001 -2.6217684e+38
0.023166459 -0.025920192 0.33400002 -2.5950795e+38
0.023707226 -0.025920192 0.33400002 -2.6216122e+38
0.024247991 -0.025920192 0.33400002 -2.6082678e+38
0.024788758 -0.025920192 0.33400002 -2.5682342e+38
0.02587029 -0.025920192 0.33400002 -2.5414413e+38
0.026411057 -0.025920192 0.33400002 -2.5280969e+38
0.026951825 -0.025920192 0.33400002 -2.4748233e+38
0.02749259 -0.025920192 0.33400002 -2.4614789e+38
0.028574124 -0.025920192 0.33400002 -2.4214461e+38
0.029202059 -0.025997797 0.33500001 -2.4347905e+38
0.029744444 -0.025997797 0.33500001 -2.4347905e+38
0.03028683 -0.025997797 0.33500001 -2.4214461e+38
0.031371601 -0.025997797 0.33500001 -2.4481349e+38
0.031913985 -0.025997797 0.33500001 -2.5015125e+38
0.032456372 -0.025997797 0.33500001 -2.5681305e+38
0.033441018 -0.025920192 0.33400002 -2.6481969e+38
0.033981785 -0.025920192 0.33400002 -2.6748858e+38
0.03441919 -0.025842585 0.333 -2.6615414e+38
0.03675504 -0.024523295 0.31600001 -2.7416074e+38
0.037658732 -0.024445688 0.31500003 -2.7549514e+38
0.038168736 -0.024445688 0.31500003 -2.7816402e+38
0.038801532 -0.024523295 0.31600001 -2.8749464e+38
0.004036542 -0.023648784 0.31800002 -2.3680685e+38
0.0058970391 -0.024987394 0.33600003 -2.3680677e+38
0.0070058363 -0.02506176 0.33700001 -2.3814121e+38
0.0075738681 -0.025136128 0.33800003 -2.3680681e+38
0.0081211105 -0.025136128 0.33800003 -2.3680681e+38
0.0086683528 -0.025136128 0.33800003 -2.3814125e+38
0.0097628385 -0.025136128 0.33800003 -2.3680685e+38
0.010340584 -0.025210496 0.33900002 -2.3680685e+38
0.010889445 -0.025210496 0.33900002 -2.3814129e+38
0.011438307 -0.025210496 0.33900002 -2.4081017e+38
0.01253603 -0.025210496 0.33900002 -2.4081017e+38
0.013084891 -0.025210496 0.33900002 -2.4081017e+38
0.013633753 -0.025210496 0.33900002 -2.4214461e+38
0.014182615 -0.025210496 0.33900002 -2.4347905e+38
0.015280338 -0.025210496 0.33900002 -2.5148569e+38
0.0158292 -0.025210496 0.33900002 -2.5282013e+38
0.016378062 -0.025210496 0.33900002 -2.5548902e+38
0.017475784 -0.025210496 0.33900002 -2.6082678e+38
0.017971477 -0.025136128 0.33800003 -2.6082678e+38
0.018518718 -0.025136128 0.33800003 -2.6215607e+38
0.019555178 -0.02506176 0.33700001 -2.6349051e+38
0.0201008 -0.02506176 0.33700001 -2.6482495e+38
0.020585159 -0.024987394 0.33600003 -2.6349051e+38
0.021673167 -0.024987394 0.33600003 -2.6217168e+38
0.022217173 -0.024987394 0.33600003 -2.6217168e+38
0.022693435 -0.024913026 0.33500001 -2.608424e+38
0.023778204 -0.024913026 0.33500001 -2.6082678e+38
0.024320589 -0.024913026 0.33500001 -2.5949234e+38
0.024862975 -0.024913026 0.33500001 -2.5682346e+38
0.02540536 -0.024913026 0.33500001 -2.5415457e+38
0.026490131 -0.024913026 0.33500001 -2.5147529e+38
0.027032519 -0.024913026 0.33500001 -2.4748237e+38
0.027574904 -0.024913026 0.33500001 -2.4614793e+38
0.028659673 -0.024913026 0.33500001 -2.4214461e+38
0.029202059 -0.024913026 0.33500001 -2.4347905e+38
0.029833235 -0.024987394 0.33600003 -2.4214461e+38
0.030377239 -0.024987394 0.33600003 -2.4214461e+38
0.031465247 -0.024987394 0.33600003 -2.4614793e+38
0.032009251 -0.024987394 0.33600003 -2.5148569e+38
0.032456372 -0.024913026 0.33500001 -2.5682346e+38
0.033541143 -0.024913026 0.33500001 -2.648301e+38
0.033981785 -0.024838658 0.33400002 -2.6616454e+38
0.03441919 -0.024764292 0.333 -2.6615939e+38
0.036243416 -0.023500048 0.31600001 -2.6883342e+38
0.036638726 -0.023425682 0.31500003 -2.7149186e+38
0.037658732 -0.023425682 0.31500003 -2.728263e+38
0.038168736 -0.023425682 0.31500003 -2.7416074e+38
0.038801532 -0.023500048 0.31600001 -2.7682962e+38
0.0058970391 -0.02444339 0.33600003 -2.3547237e+38
0.0070058363 -0.024516137 0.33700001 -2.3814125e+38
0.0075738681 -0.024588885 0.33800003 -2.3680681e+38
0.0081211105 -0.024588885 0.33800003 -2.3680681e+38
0.0086683528 -0.024588885 0.33800003 -2.3680685e+38
0.0092428606 -0.024661634 0.33900002 -2.4081017e+38
0.010340584 -0.024661634 0.33900002 -2.3814129e+38
0.010889445 -0.024661634 0.33900002 -2.3814129e+38
0.011438307 -0.024661634 0.33900002 -2.3814129e+38
0.01253603 -0.024661634 0.33900002 -2.4081017e+38
0.013084891 -0.024661634 0.33900002 -2.4080502e+38
0.013633753 -0.024661634 0.33900002 -2.4080502e+38
0.014182615 -0.024661634 0.33900002 -2.4347905e+38
0.015280338 -0.024661634 0.33900002 -2.5148569e+38
0.0158292 -0.024661634 0.33900002 -2.5282013e+38
0.016378062 -0.024661634 0.33900002 -2.5548902e+38
0.017475784 -0.024661634 0.33900002 -2.6082163e+38
0.017971477 -0.024588885 0.33800003 -2.6082163e+38
0.018518718 -0.024588885 0.33800003 -2.6215607e+38
0.019555178 -0.024516137 0.33700001 -2.6349051e+38
0.0201008 -0.024516137 0.33700001 -2.6482495e+38
0.020646423 -0.024516137 0.33700001 -2.6349051e+38
0.021673167 -0.02444339 0.33600003 -2.6217168e+38
0.022217173 -0.02444339 0.33600003 -2.6217168e+38
0.022761177 -0.02444339 0.33600003 -2.6083724e+38
0.023849186 -0.02444339 0.33600003 -2.6216122e+38
0.02439319 -0.02444339 0.33600003 -2.5949234e+38
0.024937194 -0.02444339 0.33600003 -2.5682346e+38
0.025481198 -0.02444339 0.33600003 -2.5415457e+38
0.026569208 -0.02444339 0.33600003 -2.5015125e+38
0.027113212 -0.02444339 0.33600003 -2.4748237e+38
0.027657216 -0.02444339 0.33600003 -2.4614793e+38
0.028201221 -0.02444339 0.33600003 -2.4347905e+38
0.029289229 -0.02444339 0.33600003 -2.4214461e+38
0.029833235 -0.02444339 0.33600003 -2.4214461e+38
0.030377239 -0.02444339 0.33600003 -2.4347905e+38
0.031465247 -0.02444339 0.33600003 -2.4614793e+38
0.032009251 -0.02444339 0.33600003 -2.5148569e+38
0.032553256 -0.02444339 0.33600003 -2.5949234e+38
0.03309726 -0.02444339 0.33600003 -2.6216122e+38
0.034185268 -0.02444339 0.33600003 -2.6616454e+38
0.03441919 -0.024225144 0.333 -2.6615939e+38
0.036128722 -0.022915676 0.31500003 -2.6615939e+38
0.036638726 -0.022915676 0.31500003 -2.714919e+38
0.037658732 -0.022915676 0.31500003 -2.728263e+38
0.038168736 -0.022915676 0.31500003 -2.728263e+38
0.038801532 -0.022988426 0.31600001 -2.7416074e+38
0.039561976 -0.023133922 0.31800002 -2.7682962e+38
0.0059145899 -0.023970515 0.33700001 -2.3547237e+38
0.0070058363 -0.023970515 0.33700001 -2.3814125e+38
0.0075738681 -0.024041643 0.33800003 -2.3680681e+38
0.0081211105 -0.024041643 0.33800003 -2.3680681e+38
0.0086683528 -0.024041643 0.33800003 -2.3680685e+38
0.0092428606 -0.024112772 0.33900002 -2.3814129e+38
0.010340584 -0.024112772 0.33900002 -2.3814129e+38
0.010889445 -0.024112772 0.33900002 -2.3814129e+38
0.011438307 -0.024112772 0.33900002 -2.4081017e+38
0.01253603 -0.024112772 0.33900002 -2.4081017e+38
0.013084891 -0.024112772 0.33900002 -2.4080502e+38
0.013633753 -0.024112772 0.33900002 -2.4080502e+38
0.014182615 -0.024112772 0.33900002 -2.4481349e+38
0.015280338 -0.024112772 0.33900002 -2.5148569e+38
0.0158292 -0.024112772 0.33900002 -2.5415457e+38
0.016378062 -0.024112772 0.33900002 -2.5283575e+38
0.017475784 -0.024112772 0.33900002 -2.5816836e+38
0.017971477 -0.024041643 0.33800003 -2.5816836e+38
0.018518718 -0.024041643 0.33800003 -2.5816836e+38
0.019555178 -0.023970515 0.33700001 -2.6083724e+38
0.0201008 -0.023970515 0.33700001 -2.6217168e+38
0.020646423 -0.023970515 0.33700001 -2.6217168e+38
0.021673167 -0.023899386 0.33600003 -2.6217168e+38
0.022217173 -0.023899386 0.33600003 -2.6217168e+38
0.022761177 -0.023899386 0.33600003 -2.6217168e+38
0.023849186 -0.023899386 0.33600003 -2.5817351e+38
0.02439319 -0.023899386 0.33600003 -2.5683907e+38
0.024937194 -0.023899386 0.33600003 -2.5417019e+38
0.025481198 -0.023899386 0.33600003 -2.5150131e+38
0.026569208 -0.023899386 0.33600003 -2.5148569e+38
0.027113212 -0.023899386 0.33600003 -2.4748237e+38
0.027657216 -0.023899386 0.33600003 -2.4614793e+38
0.028201221 -0.023899386 0.33600003 -2.4347905e+38
0.029289229 -0.023899386 0.33600003 -2.4214461e+38
0.029833235 -0.023899386 0.33600003 -2.4214461e+38
0.030377239 -0.023899386 0.33600003 -2.4347905e+38
0.031465247 -0.023899386 0.33600003 -2.4614278e+38
0.032009251 -0.023899386 0.33600003 -2.5148054e+38
0.032553256 -0.023899386 0.33600003 -2.5948719e+38
0.03309726 -0.023899386 0.33600003 -2.6349051e+38
0.034185268 -0.023899386 0.33600003 -2.6882827e+38
0.03441919 -0.023685997 0.333 -2.6615939e+38
0.035505641 -0.022334544 0.31400001 -2.6615939e+38
0.036128722 -0.022405673 0.31500003 -2.6615939e+38
0.036638726 -0.022405673 0.31500003 -2.7015746e+38
0.037658732 -0.022405673 0.31500003 -2.714919e+38
0.038289912 -0.022476802 0.31600001 -2.714919e+38
0.038801532 -0.022476802 0.31600001 -2.728263e+38
0.039561976 -0.022619061 0.31800002 -2.7549518e+38
0.0058970391 -0.023355382 0.33600003 -2.367964e+38
0.0070058363 -0.02342489 0.33700001 -2.3814125e+38
0.0075738681 -0.0234944 0.33800003 -2.3680681e+38
0.0081211105 -0.0234944 0.33800003 -2.3680681e+38
0.0086683528 -0.0234944 0.33800003 -2.3680685e+38
0.0092428606 -0.023563912 0.33900002 -2.3814129e+38
0.010340584 -0.023563912 0.33900002 -2.3815691e+38
0.010889445 -0.023563912 0.33900002 -2.3815691e+38
0.011438307 -0.023563912 0.33900002 -2.3815691e+38
0.01253603 -0.023563912 0.33900002 -2.3815691e+38
0.013084891 -0.023563912 0.33900002 -2.3948619e+38
0.013633753 -0.023563912 0.33900002 -2.3815175e+38
0.014182615 -0.023563912 0.33900002 -2.4481349e+38
0.015280338 -0.023563912 0.33900002 -2.5148569e+38
0.0158292 -0.023563912 0.33900002 -2.5415457e+38
0.016378062 -0.023563912 0.33900002 -2.5417019e+38
0.017475784 -0.023563912 0.33900002 -2.5816836e+38
0.017971477 -0.0234944 0.33800003 -2.595028e+38
0.018518718 -0.0234944 0.33800003 -2.5950284e+38
0.019555178 -0.02342489 0.33700001 -2.6083728e+38
0.0201008 -0.02342489 0.33700001 -2.6217172e+38
0.020646423 -0.02342489 0.33700001 -2.6217168e+38
0.021737671 -0.02342489 0.33700001 -2.6217168e+38
0.022217173 -0.023355382 0.33600003 -2.6217168e+38
0.022761177 -0.023355382 0.33600003 -2.6217168e+38
0.023849186 -0.023355382 0.33600003 -2.5816836e+38
0.02439319 -0.023355382 0.33600003 -2.5683392e+38
0.024937194 -0.023355382 0.33600003 -2.5416504e+38
0.025481198 -0.023355382 0.33600003 -2.5149616e+38
0.026569208 -0.023355382 0.33600003 -2.4883243e+38
0.027113212 -0.023355382 0.33600003 -2.4748237e+38
0.027657216 -0.023355382 0.33600003 -2.4614793e+38
0.028201221 -0.023355382 0.33600003 -2.434739e+38
0.029289229 -0.023355382 0.33600003 -2.4213946e+38
0.029833235 -0.023355382 0.33600003 -2.4213946e+38
0.030467646 -0.02342489 0.33700001 -2.434739e+38
0.031465247 -0.023355382 0.33600003 -2.4747722e+38
0.032009251 -0.023355382 0.33600003 -2.5148054e+38
0.032553256 -0.023355382 0.33600003 -2.5948719e+38
0.03309726 -0.023355382 0.33600003 -2.6349051e+38
0.034185268 -0.023355382 0.33600003 -2.7016271e+38
0.035392568 -0.021756649 0.31300002 -2.6615939e+38
0.036014028 -0.021826159 0.31400001 -2.6615939e+38
0.036638726 -0.021895669 0.31500003 -2.6882827e+38
0.037658732 -0.021895669 0.31500003 -2.7149186e+38
0.038289912 -0.02196518 0.31600001 -2.728263e+38
0.038801532 -0.02196518 0.31600001 -2.7550025e+38
0.0058970391 -0.022267373 0.33600003 -2.3679644e+38
0.0070058363 -0.022333644 0.33700001 -2.3813088e+38
0.0075738681 -0.022399915 0.33800003 -2.3547241e+38
0.0081211105 -0.022399915 0.33800003 -2.3680685e+38
0.0086683528 -0.022399915 0.33800003 -2.3415358e+38
0.0092428606 -0.022466188 0.33900002 -2.3548802e+38
0.010340584 -0.022466188 0.33900002 -2.3815691e+38
0.010889445 -0.022466188 0.33900002 -2.3548802e+38
0.011438307 -0.022466188 0.33900002 -2.3815691e+38
0.01253603 -0.022466188 0.33900002 -2.3948619e+38
0.013084891 -0.022466188 0.33900002 -2.4082063e+38
0.013633753 -0.022466188 0.33900002 -2.3948619e+38
0.014182615 -0.022466188 0.33900002 -2.4480834e+38
0.015280338 -0.022466188 0.33900002 -2.4882728e+38
0.0158292 -0.022466188 0.33900002 -2.528306e+38
0.016378062 -0.022466188 0.33900002 -2.5683392e+38
0.017475784 -0.022466188 0.33900002 -2.595028e+38
0.017971477 -0.022399915 0.33800003 -2.595028e+38
0.018518718 -0.022399915 0.33800003 -2.595028e+38
0.019555178 -0.022333644 0.33700001 -2.6217168e+38
0.0201008 -0.022333644 0.33700001 -2.6217168e+38
0.020646423 -0.022333644 0.33700001 -2.6217168e+38
0.021737671 -0.022333644 0.33700001 -2.6217168e+38
0.022217173 -0.022267373 0.33600003 -2.6217168e+38
0.022761177 -0.022267373 0.33600003 -2.6217168e+38
0.023849186 -0.022267373 0.33600003 -2.5816836e+38
0.02439319 -0.022267373 0.33600003 -2.5683392e+38
0.024937194 -0.022267373 0.33600003 -2.5416504e+38
0.025481198 -0.022267373 0.33600003 -2.5149616e+38
0.026569208 -0.022267373 0.33600003 -2.4882728e+38
0.027113212 -0.022267373 0.33600003 -2.4482396e+38
0.027657216 -0.022267373 0.33600003 -2.4348952e+38
0.028201221 -0.022267373 0.33600003 -2.4215508e+38
0.029289229 -0.022267373 0.33600003 -2.3948619e+38
0.029833235 -0.022267373 0.33600003 -2.4082063e+38
0.030467646 -0.022333644 0.33700001 -2.4082063e+38
0.031013271 -0.022333644 0.33700001 -2.4348952e+38
0.032009251 -0.022267373 0.33600003 -2.5016172e+38
0.032553256 -0.022267373 0.33600003 -2.5948723e+38
0.03309726 -0.022267373 0.33600003 -2.6349055e+38
0.034083527 -0.0222011 0.33500001 -2.7016271e+38
0.035899334 -0.020743117 0.31300002 -2.6882827e+38
0.036522411 -0.02080939 0.31400001 -2.6883334e+38
0.0058970391 -0.021723369 0.33600003 -2.3679644e+38
0.0070058363 -0.02178802 0.33700001 -2.3813088e+38
0.0075514601 -0.02178802 0.33700001 -2.3547241e+38
0.0081211105 -0.021852674 0.33800003 -2.3680685e+38
0.0086683528 -0.021852674 0.33800003 -2.3415358e+38
0.0092428606 -0.021917326 0.33900002 -2.3548802e+38
0.010340584 -0.021917326 0.33900002 -2.3815691e+38
0.010889445 -0.021917326 0.33900002 -2.3548802e+38
0.011438307 -0.021917326 0.33900002 -2.3815691e+38
0.01253603 -0.021917326 0.33900002 -2.3948619e+38
0.013084891 -0.021917326 0.33900002 -2.434739e+38
0.013633753 -0.021917326 0.33900002 -2.4213946e+38
0.014182615 -0.021917326 0.33900002 -2.4480834e+38
0.015280338 -0.021917326 0.33900002 -2.4882728e+38
0.0158292 -0.021917326 0.33900002 -2.5149616e+38
0.016378062 -0.021917326 0.33900002 -2.5683392e+38
0.017475784 -0.021917326 0.33900002 -2.595028e+38
0.017971477 -0.021852674 0.33800003 -2.595028e+38
0.018518718 -0.021852674 0.33800003 -2.595028e+38
0.019613205 -0.021852674 0.33800003 -2.6217168e+38
0.0201008 -0.02178802 0.33700001 -2.6217168e+38
0.020646423 -0.02178802 0.33700001 -2.6217168e+38
0.021737671 -0.02178802 0.33700001 -2.6217168e+38
0.022217173 -0.021723369 0.33600003 -2.6217168e+38
0.022761177 -0.021723369 0.33600003 -2.6217168e+38
0.023849186 -0.021723369 0.33600003 -2.5816836e+38
0.02439319 -0.021723369 0.33600003 -2.5683392e+38
0.024937194 -0.021723369 0.33600003 -2.5416504e+38
0.025481198 -0.021723369 0.33600003 -2.5149616e+38
0.026569208 -0.021723369 0.33600003 -2.4882728e+38
0.027113212 -0.021723369 0.33600003 -2.4482396e+38
0.027657216 -0.021723369 0.33600003 -2.4348952e+38
0.028201221 -0.021723369 0.33600003 -2.4215508e+38
0.029289229 -0.021723369 0.33600003 -2.4082063e+38
0.029833235 -0.021723369 0.33600003 -2.4082063e+38
0.030467646 -0.02178802 0.33700001 -2.4215508e+38
0.031013271 -0.02178802 0.33700001 -2.4482396e+38
0.032009251 -0.021723369 0.33600003 -2.5149616e+38
0.032553256 -0.021723369 0.33600003 -2.581684e+38
0.03309726 -0.021723369 0.33600003 -2.6083728e+38
0.033981785 -0.021594062 0.33400002 -2.6882831e+38
0.0064218738 -0.021116329 0.33500001 -2.3813084e+38
0.0069850478 -0.021179363 0.33600003 -2.3813084e+38
0.0075514601 -0.021242397 0.33700001 -2.3679644e+38
0.0081211105 -0.021305431 0.33800003 -2.3813088e+38
0.0086683528 -0.021305431 0.33800003 -2.3680685e+38
0.0097628385 -0.021305431 0.33800003 -2.3548802e+38
0.010340584 -0.021368464 0.33900002 -2.3548802e+38
0.010889445 -0.021368464 0.33900002 -2.3548802e+38
0.011438307 -0.021368464 0.33900002 -2.3815691e+38
0.01253603 -0.021368464 0.33900002 -2.3948619e+38
0.013084891 -0.021368464 0.33900002 -2.421395e+38
0.013633753 -0.021368464 0.33900002 -2.421395e+38
0.014182615 -0.021368464 0.33900002 -2.4480838e+38
0.015280338 -0.021368464 0.33900002 -2.4882732e+38
0.0158292 -0.021368464 0.33900002 -2.5283064e+38
0.016378062 -0.021368464 0.33900002 -2.5683396e+38
0.017424233 -0.021305431 0.33800003 -2.6083728e+38
0.017971477 -0.021305431 0.33800003 -2.6083728e+38
0.018518718 -0.021305431 0.33800003 -2.5950284e+38
0.019555178 -0.021242397 0.33700001 -2.6217168e+38
0.0201008 -0.021242397 0.33700001 -2.6217168e+38
0.020646423 -0.021242397 0.33700001 -2.6217168e+38
0.021673167 -0.021179363 0.33600003 -2.6217168e+38
0.022217173 -0.021179363 0.33600003 -2.6217168e+38
0.022761177 -0.021179363 0.33600003 -2.6217168e+38
0.023849186 -0.021179363 0.33600003 -2.595028e+38
0.02439319 -0.021179363 0.33600003 -2.5683392e+38
0.024937194 -0.021179363 0.33600003 -2.5683392e+38
0.025481198 -0.021179363 0.33600003 -2.528306e+38
0.026569208 -0.021179363 0.33600003 -2.5016172e+38
0.027113212 -0.021179363 0.33600003 -2.4747722e+38
0.027657216 -0.021179363 0.33600003 -2.4747722e+38
0.028201221 -0.021179363 0.33600003 -2.4480834e+38
0.029289229 -0.021179363 0.33600003 -2.4480834e+38
0.029833235 -0.021179363 0.33600003 -2.4480834e+38
0.030377239 -0.021179363 0.33600003 -2.4348952e+38
0.031465247 -0.021179363 0.33600003 -2.4749284e+38
0.032009251 -0.021179363 0.33600003 -2.5149616e+38
0.032553256 -0.021179363 0.33600003 -2.581684e+38
0.03309726 -0.021179363 0.33600003 -2.6083728e+38
0.0064027039 -0.019971764 0.33400002 -2.3547241e+38
0.0069850478 -0.020091355 0.33600003 -2.3547241e+38
0.0075514601 -0.020151149 0.33700001 -2.3680685e+38
0.0080970833 -0.020151149 0.33700001 -2.3680685e+38
0.0086683528 -0.020210946 0.33800003 -2.368017e+38
0.0097628385 -0.020210946 0.33800003 -2.3548287e+38
0.010310081 -0.020210946 0.33800003 -2.3815175e+38
0.010889445 -0.020270742 0.33900002 -2.3815175e+38
0.011438307 -0.020270742 0.33900002 -2.3815175e+38
0.01253603 -0.020270742 0.33900002 -2.4082068e+38
0.013084891 -0.020270742 0.33900002 -2.4347394e+38
0.013633753 -0.020270742 0.33900002 -2.4347394e+38
0.014182615 -0.020270742 0.33900002 -2.4480838e+38
0.021673167 -0.020091355 0.33600003 -2.6350612e+38
0.022217173 -0.020091355 0.33600003 -2.6217168e+38
0.022761177 -0.020091355 0.33600003 -2.6217168e+38
0.023849186 -0.020091355 0.33600003 -2.595028e+38
0.02439319 -0.020091355 0.33600003 -2.5816836e+38
0.024937194 -0.020091355 0.33600003 -2.5683392e+38
0.025481198 -0.020091355 0.33600003 -2.528306e+38
0.026569208 -0.020091355 0.33600003 -2.5149616e+38
0.027113212 -0.020091355 0.33600003 -2.4749284e+38
0.027657216 -0.020091355 0.33600003 -2.4348952e+38
0.028201221 -0.020091355 0.33600003 -2.4614278e+38
0.029289229 -0.020091355 0.33600003 -2.4480838e+38
0.029833235 -0.020091355 0.33600003 -2.4614282e+38
0.030377239 -0.020091355 0.33600003 -2.4747726e+38
0.031465247 -0.020091355 0.33600003 -2.5148062e+38
0.032009251 -0.020091355 0.33600003 -2.5548394e+38
-0.0010701059 -0.01780205 0.30600002 -2.5144391e+38
-7.898183e-05 -0.017743874 0.30500001 -2.4611657e+38
0.00041483171 -0.017743874 0.30500001 -2.4344769e+38
0.0018714032 -0.017511167 0.30100003 -2.4078922e+38
0.0064027039 -0.019430997 0.33400002 -2.3547237e+38
0.0069642593 -0.019489175 0.33500001 -2.3547237e+38
0.0075290524 -0.019547351 0.33600003 -2.3547241e+38
0.0080970833 -0.019605527 0.33700001 -2.3680685e+38
0.008642707 -0.019605527 0.33700001 -2.368017e+38
0.0097628385 -0.019663703 0.33800003 -2.3548287e+38
0.010310081 -0.019663703 0.33800003 -2.3815175e+38
0.010857323 -0.019663703 0.33800003 -2.3948623e+38
0.011404566 -0.019663703 0.33800003 -2.3815179e+38
0.01253603 -0.019721881 0.33900002 -2.4082068e+38
0.013084891 -0.019721881 0.33900002 -2.4082068e+38
0.013633753 -0.019721881 0.33900002 -2.4215512e+38
0.021673167 -0.019547351 0.33600003 -2.6350617e+38
0.022217173 -0.019547351 0.33600003 -2.6217172e+38
0.022761177 -0.019547351 0.33600003 -2.6350617e+38
0.023849186 -0.019547351 0.33600003 -2.5950284e+38
0.02439319 -0.019547351 0.33600003 -2.581684e+38
0.024937194 -0.019547351 0.33600003 -2.5683392e+38
0.025481198 -0.019547351 0.33600003 -2.528306e+38
0.026569208 -0.019547351 0.33600003 -2.5149616e+38
0.027113212 -0.019547351 0.33600003 -2.4749284e+38
0.027657216 -0.019547351 0.33600003 -2.4482396e+38
0.028201221 -0.019547351 0.33600003 -2.4614278e+38
0.029289229 -0.019547351 0.33600003 -2.4614282e+38
0.029833235 -0.019547351 0.33600003 -2.4614282e+38
0.030377239 -0.019547351 0.33600003 -2.474773e+38
0.031465247 -0.019547351 0.33600003 -2.5148062e+38
0.032009251 -0.019547351 0.33600003 -2.5548394e+38
-0.0015604224 -0.017250061 0.30500001 -2.5010943e+38
-0.0010666088 -0.017250061 0.30500001 -2.4611657e+38
-7.8722878e-05 -0.017193502 0.30400002 -2.4344769e+38
0.0004134716 -0.017193502 0.30400002 -2.4211325e+38
0.00090566603 -0.017193502 0.30400002 -2.4078922e+38
0.0018714032 -0.01702383 0.30100003 -2.381308e+38
0.0064027039 -0.01889023 0.33400002 -2.3413793e+38
0.0069642593 -0.018946789 0.33500001 -2.3413793e+38
0.0075290524 -0.019003347 0.33600003 -2.3547241e+38
0.008073057 -0.019003347 0.33600003 -2.3680685e+38
0.008642707 -0.019059904 0.33700001 -2.3414843e+38
0.0097339535 -0.019059904 0.33700001 -2.3815175e+38
0.010279577 -0.019059904 0.33700001 -2.3815175e+38
0.023849186 -0.019003347 0.33600003 -2.6083728e+38
0.02439319 -0.019003347 0.33600003 -2.5950284e+38
0.024937194 -0.019003347 0.33600003 -2.5683396e+38
0.025481198 -0.019003347 0.33600003 -2.5283064e+38
0.026569208 -0.019003347 0.33600003 -2.514962e+38
0.027113212 -0.019003347 0.33600003 -2.4749288e+38
0.027657216 -0.019003347 0.33600003 -2.4749288e+38
0.028201221 -0.019003347 0.33600003 -2.4614282e+38
0.029289229 -0.019003347 0.33600003 -2.4614286e+38
0.029833235 -0.019003347 0.33600003 -2.474773e+38
0.030377239 -0.019003347 0.33600003 -2.474773e+38
0.031465247 -0.019003347 0.33600003 -2.5281506e+38
0.031913985 -0.018946789 0.33500001 -2.5548394e+38
-0.0015604224 -0.016756248 0.30500001 -2.4611653e+38
-0.0010631118 -0.016701309 0.30400002 -2.4611142e+38
-7.8722878e-05 -0.016701309 0.30400002 -2.4078922e+38
0.0004134716 -0.016701309 0.30400002 -2.3945478e+38
0.00090268685 -0.01664637 0.303 -2.3945478e+38
0.0018776204 -0.016591432 0.30200002 -2.3679636e+38
0.0038334457 -0.016591432 0.30200002 -2.2746572e+38
0.0043224022 -0.016591432 0.30200002 -2.2880016e+38
0.0064027039 -0.018349465 0.33400002 -2.3148466e+38
0.0069642593 -0.018404404 0.33500001 -2.3148466e+38
0.0075290524 -0.018459342 0.33600003 -2.328191e+38
0.008073057 -0.018459342 0.33600003 -2.3415354e+38
0.008642707 -0.018514279 0.33700001 -2.3414843e+38
0.0097339535 -0.018514279 0.33700001 -2.3948623e+38
0.010279577 -0.018514279 0.33700001 -2.3948623e+38
0.023778204 -0.018404404 0.33500001 -2.6083728e+38
0.024320589 -0.018404404 0.33500001 -2.5950284e+38
0.024862975 -0.018404404 0.33500001 -2.5683396e+38
0.02540536 -0.018404404 0.33500001 -2.5283064e+38
0.026490131 -0.018404404 0.33500001 -2.5283064e+38
0.027032519 -0.018404404 0.33500001 -2.4882732e+38
0.027574904 -0.018404404 0.33500001 -2.4749288e+38
0.028659673 -0.018404404 0.33500001 -2.4747726e+38
0.029202059 -0.018404404 0.33500001 -2.474773e+38
0.029744444 -0.018404404 0.33500001 -2.474773e+38
0.03028683 -0.018404404 0.33500001 -2.474773e+38
0.031371601 -0.018404404 0.33500001 -2.5281506e+38
0.031913985 -0.018404404 0.33500001 -2.5548394e+38
-7.8722878e-05 -0.01571692 0.30400002 -2.4078407e+38
0.0004134716 -0.01571692 0.30400002 -2.3811518e+38
0.00090268685 -0.01566522 0.303 -2.3546192e+38
0.0018776204 -0.01561352 0.30200002 -2.3679636e+38
0.0023665766 -0.01561352 0.30200002 -2.3679636e+38
0.0043224022 -0.01561352 0.30200002 -2.2613128e+38
0.022693435 -0.017319633 0.33500001 -2.6350617e+38
0.023778204 -0.017319633 0.33500001 -2.6083728e+38
0.024320589 -0.017319633 0.33500001 -2.5950284e+38
0.027032519 -0.017319633 0.33500001 -2.5016176e+38
0.02749259 -0.017267931 0.33400002 -2.4882732e+38
0.028574124 -0.017267931 0.33400002 -2.4749288e+38
-0.0010631118 -0.015224725 0.30400002 -2.8217756e+38
-7.8722878e-05 -0.015224725 0.30400002 -2.3680151e+38
0.00041211149 -0.015174645 0.303 -2.3546707e+38
0.00090268685 -0.015174645 0.303 -2.3546192e+38
0.0018776204 -0.015124563 0.30200002 -2.3546192e+38
0.0023665766 -0.015124563 0.30200002 -2.3679636e+38
0.0043224022 -0.015124563 0.30200002 -2.2613128e+38
0.0048272903 -0.015174645 0.303 -2.2481246e+38
0.024247991 -0.016727166 0.33400002 -2.5950284e+38
0.034374889 -0.015224725 0.30400002 -2.8216227e+38
0.035359278 -0.015224725 0.30400002 -3.0221512e+38
0.00090268685 -0.01468407 0.303 -2.3412748e+38
0.0018776204 -0.014635607 0.30200002 -2.3546196e+38
0.0023665766 -0.014635607 0.30200002 -2.3546196e+38
0.0048113586 -0.014635607 0.30200002 -2.2481246e+38
0.0057892711 -0.014635607 0.30200002 -2.3415358e+38
0.0062782275 -0.014635607 0.30200002 -2.4082579e+38
0.034261815 -0.01468407 0.303 -2.7550051e+38
0.035242964 -0.01468407 0.303 -2.9285327e+38
0.035851471 -0.01473253 0.30400002 -3.0486324e+38
0.00090268685 -0.014193494 0.303 -2.3546192e+38
0.0018776204 -0.01414665 0.30200002 -2.3413793e+38
0.0023665766 -0.01414665 0.30200002 -2.3413793e+38
0.0052827639 -0.014099807 0.30100003 -2.3148466e+38
0.0057701012 -0.014099807 0.30100003 -2.3815686e+38
0.0062574386 -0.014099807 0.30100003 -2.4216019e+38
0.034261815 -0.014193494 0.303 -2.7283163e+38
0.035242964 -0.014193494 0.303 -2.8350186e+38
0.03573354 -0.014193494 0.303 -2.9684627e+38
0.0018776204 -0.013168738 0.30200002 -2.3280349e+38
0.0023665766 -0.013168738 0.30200002 -2.3413793e+38
0.0043080896 -0.013125133 0.30100003 -2.2347802e+38
0.0052827639 -0.013125133 0.30100003 -2.3415354e+38
0.0057701012 -0.013125133 0.30100003 -2.3949131e+38
0.0062574386 -0.013125133 0.30100003 -2.4349463e+38
0.0067447764 -0.013125133 0.30100003 -2.4883243e+38
0.034637697 -0.013168738 0.30200002 -2.7016271e+38
0.035242964 -0.013212344 0.303 -2.7283674e+38
0.03573354 -0.013212344 0.303 -2.7950895e+38
0.036224116 -0.013212344 0.303 -2.9151354e+38
0.0018776204 -0.012679782 0.30200002 -2.4615296e+38
0.0043080896 -0.012637796 0.30100003 -2.2746572e+38
0.0052827639 -0.012637796 0.30100003 -2.3415354e+38
0.0057701012 -0.012637796 0.30100003 -2.4082575e+38
0.0062574386 -0.012637796 0.30100003 -2.4349463e+38
0.012592823 -0.012637796 0.30100003 -2.7418165e+38
0.013080161 -0.012637796 0.30100003 -2.7818497e+38
0.013567498 -0.012637796 0.30100003 -2.7818497e+38
0.01449386 -0.012595809 0.30000001 -2.8085385e+38
0.034637697 -0.012679782 0.30200002 -2.6882827e+38
0.035126653 -0.012679782 0.30200002 -2.7150226e+38
0.03573354 -0.012721768 0.303 -2.7684002e+38
0.036224116 -0.012721768 0.303 -2.9151869e+38
0.0023665766 -0.012190825 0.30200002 -2.5950252e+38
0.0043080896 -0.012150459 0.30100003 -2.3146904e+38
0.0052827639 -0.012150459 0.30100003 -2.3814125e+38
0.0057701012 -0.012150459 0.30100003 -2.4347901e+38
0.0062574386 -0.012150459 0.30100003 -2.4748233e+38
0.012592823 -0.012150459 0.30100003 -2.7418165e+38
0.013080161 -0.012150459 0.30100003 -2.7685053e+38
0.013567498 -0.012150459 0.30100003 -2.7818497e+38
0.014542173 -0.012150459 0.30100003 -2.7951941e+38
0.014979579 -0.012110092 0.30000001 -2.8085385e+38
0.034637697 -0.012190825 0.30200002 -2.7016786e+38
0.035126653 -0.012190825 0.30200002 -2.8219847e+38
0.03573354 -0.012231193 0.303 -2.9153956e+38
0.003820752 -0.011175784 0.30100003 -2.541492e+38
0.0052827639 -0.011175784 0.30100003 -2.4347897e+38
0.0057701012 -0.011175784 0.30100003 -2.4748233e+38
0.0062574386 -0.011175784 0.30100003 -2.5148565e+38
0.0067447764 -0.011175784 0.30100003 -2.5283575e+38
0.034637697 -0.011212912 0.30200002 -2.92874e+38
0.0052827639 -0.010688447 0.30100003 -2.5149588e+38
0.0057701012 -0.010688447 0.30100003 -2.4749791e+38
0.0062574386 -0.010688447 0.30100003 -2.5417011e+38
0.0067447764 -0.010688447 0.30100003 -2.6217675e+38
0.00725614 -0.010723957 0.30200002 -2.7819004e+38
0.034637697 -0.010235 0.30200002 -2.9286353e+38
0.010678834 -0.0097460439 0.30200002 -2.9153956e+38
0.011167791 -0.0097460439 0.30200002 -2.9020512e+38
0.011656747 -0.0097460439 0.30200002 -2.9287404e+38
0.01263466 -0.0097460439 0.30200002 -2.9552215e+38
0.013123617 -0.0097460439 0.30200002 -2.9952547e+38
0.013612573 -0.0097460439 0.30200002 -3.0219435e+38
0.014590485 -0.0097460439 0.30200002 -3.0487885e+38
0.01502951 -0.0097137727 0.30100003 -3.0621329e+38
0.032681871 -0.0097460439 0.30200002 -2.92874e+38
0.034261815 -0.0097783161 0.303 -2.8886021e+38
0.035242964 -0.0097783161 0.303 -2.8751537e+38
0.03573354 -0.0097783161 0.303 -2.8484648e+38
0.006767184 -0.008768131 0.30200002 -2.9687732e+38
0.00725614 -0.008768131 0.30200002 -2.9153956e+38
0.0082340529 -0.008768131 0.30200002 -2.862018e+38
0.0087230094 -0.008768131 0.30200002 -2.8353292e+38
0.0092119658 -0.008768131 0.30200002 -2.8219847e+38
0.0097330445 -0.008797165 0.303 -2.8218286e+38
0.010714196 -0.008797165 0.303 -2.821829e+38
0.011204771 -0.008797165 0.303 -2.821829e+38
0.011695346 -0.008797165 0.303 -2.8351219e+38
0.012676497 -0.008797165 0.303 -2.8618107e+38
0.013123617 -0.008768131 0.30200002 -2.9018439e+38
0.013612573 -0.008768131 0.30200002 -2.9285327e+38
0.014590485 -0.008768131 0.30200002 -2.9553777e+38
0.015079441 -0.008768131 0.30200002 -2.9820665e+38
0.015516847 -0.008739098 0.30100003 -2.9954109e+38
0.021151954 -0.008651997 0.29800001 -2.8886561e+38
0.022116916 -0.008651997 0.29800001 -2.8619677e+38
0.022599395 -0.008651997 0.29800001 -2.8619677e+38
0.030136965 -0.008739098 0.30100003 -2.9687732e+38
0.030726045 -0.008768131 0.30200002 -2.9153956e+38
0.033280663 -0.008797165 0.303 -2.8352241e+38
0.033771239 -0.008797165 0.303 -2.8085353e+38
0.034261815 -0.008797165 0.303 -2.7951909e+38
0.035242964 -0.008797165 0.303 -2.7951909e+38
0.03573354 -0.008797165 0.303 -2.7685021e+38
0.006767184 -0.0082791755 0.30200002 -2.9020512e+38
0.00725614 -0.0082791755 0.30200002 -2.8753624e+38
0.0082613183 -0.0083065899 0.303 -2.8218286e+38
0.0087518934 -0.0083065899 0.303 -2.8218286e+38
0.0092424694 -0.0083065899 0.303 -2.8084842e+38
0.0097330445 -0.0083065899 0.303 -2.8084846e+38
0.010714196 -0.0083065899 0.303 -2.7951402e+38
0.011204771 -0.0083065899 0.303 -2.8084846e+38
0.011695346 -0.0083065899 0.303 -2.8084331e+38
0.012676497 -0.0083065899 0.303 -2.8351219e+38
0.013167072 -0.0083065899 0.303 -2.8884995e+38
0.013657647 -0.0083065899 0.303 -2.9151883e+38
0.014148222 -0.0083065899 0.303 -2.9285327e+38
0.015079441 -0.0082791755 0.30200002 -2.9553777e+38
0.015568398 -0.0082791755 0.30200002 -2.9820665e+38
0.016491521 -0.0082517611 0.30100003 -3.0087553e+38
0.020669475 -0.0081695169 0.29800001 -3.0088068e+38
0.021151954 -0.0081695169 0.29800001 -2.9287404e+38
0.022116916 -0.0081695169 0.29800001 -2.8753113e+38
0.022599395 -0.0081695169 0.29800001 -2.8753113e+38
0.027608253 -0.0082243457 0.30000001 -2.9687732e+38
0.028093971 -0.0082243457 0.30000001 -2.9687732e+38
0.028674955 -0.0082517611 0.30100003 -2.9554288e+38
0.029649628 -0.0082517611 0.30100003 -2.9153956e+38
0.030726045 -0.0082791755 0.30200002 -2.8620695e+38
0.031215001 -0.0082791755 0.30200002 -2.8619129e+38
0.031808939 -0.0083065899 0.303 -2.8218797e+38
0.032790087 -0.0083065899 0.303 -2.8085353e+38
0.033280663 -0.0083065899 0.303 -2.7951909e+38
0.033771239 -0.0083065899 0.303 -2.7685021e+38
0.034261815 -0.0083065899 0.303 -2.7685021e+38
0.035359278 -0.0083340043 0.30400002 -2.7551577e+38
0.0067895921 -0.0078160148 0.303 -2.8885506e+38
0.0072801677 -0.0078160148 0.303 -2.835173e+38
0.0082613183 -0.0078160148 0.303 -2.8084842e+38
0.0087518934 -0.0078160148 0.303 -2.7951398e+38
0.0092424694 -0.0078160148 0.303 -2.7951398e+38
0.0097651668 -0.0078418097 0.30400002 -2.7951402e+38
0.010749555 -0.0078418097 0.30400002 -2.7951402e+38
0.01124175 -0.0078418097 0.30400002 -2.7951402e+38
0.011733945 -0.0078418097 0.30400002 -2.7686075e+38
0.012226139 -0.0078418097 0.30400002 -2.7819519e+38
0.013210528 -0.0078418097 0.30400002 -2.835278e+38
0.013702721 -0.0078418097 0.30400002 -2.8753113e+38
0.014194916 -0.0078418097 0.30400002 -2.9020001e+38
0.015129373 -0.0078160148 0.303 -2.9286889e+38
0.015619949 -0.0078160148 0.303 -2.9553777e+38
0.016057355 -0.007790219 0.30200002 -2.9820665e+38
0.01697886 -0.0077644237 0.30100003 -3.0087553e+38
0.022599395 -0.0076870369 0.29800001 -2.9687732e+38
0.023081876 -0.0076870369 0.29800001 -2.9554288e+38
0.028187618 -0.0077644237 0.30100003 -2.9419797e+38
0.028674955 -0.0077644237 0.30100003 -2.9152909e+38
0.029259175 -0.007790219 0.30200002 -2.8886021e+38
0.030237088 -0.007790219 0.30200002 -2.8485689e+38
0.030726045 -0.007790219 0.30200002 -2.8218801e+38
0.031318363 -0.0078160148 0.303 -2.8351204e+38
0.031808939 -0.0078160148 0.303 -2.8084316e+38
0.032790087 -0.0078160148 0.303 -2.7685021e+38
0.033280663 -0.0078160148 0.303 -2.7551577e+38
0.033882696 -0.0078418097 0.30400002 -2.7551577e+38
0.034374889 -0.0078418097 0.30400002 -2.7551577e+38
0.0048272903 -0.0068348642 0.303 -2.9554288e+38
0.0053178654 -0.0068348642 0.303 -2.9153956e+38
0.0062990165 -0.0068348642 0.303 -2.862018e+38
0.0067895921 -0.0068348642 0.303 -2.835173e+38
0.0072801677 -0.0068348642 0.303 -2.8218286e+38
0.0077963886 -0.0068574208 0.30400002 -2.7951398e+38
0.0087807775 -0.0068574208 0.30400002 -2.7684509e+38
0.0092729721 -0.0068574208 0.30400002 -2.7684509e+38
0.0097651668 -0.0068574208 0.30400002 -2.7684514e+38
0.010749555 -0.0068574208 0.30400002 -2.7152299e+38
0.01124175 -0.0068574208 0.30400002 -2.7419187e+38
0.011733945 -0.0068574208 0.30400002 -2.768556e+38
0.012226139 -0.0068574208 0.30400002 -2.768556e+38
0.013210528 -0.0068574208 0.30400002 -2.8085892e+38
0.013702721 -0.0068574208 0.30400002 -2.835278e+38
0.014194916 -0.0068574208 0.30400002 -2.8886557e+38
0.015179305 -0.0068574208 0.30400002 -2.9153449e+38
0.015671499 -0.0068574208 0.30400002 -2.9286893e+38
0.016110525 -0.0068348642 0.303 -2.9553781e+38
0.017035266 -0.0068123061 0.30200002 -2.9687225e+38
0.027122535 -0.0067671915 0.30000001 -2.8485685e+38
0.027608253 -0.0067671915 0.30000001 -2.8352241e+38
0.028187618 -0.0067897495 0.30100003 -2.8085353e+38
0.028674955 -0.0067897495 0.30100003 -2.7951909e+38
0.029259175 -0.0068123061 0.30200002 -2.781742e+38
0.030237088 -0.0068123061 0.30200002 -2.7817424e+38
0.030827787 -0.0068348642 0.303 -2.768398e+38
0.031318363 -0.0068348642 0.303 -2.768398e+38
0.031808939 -0.0068348642 0.303 -2.768398e+38
0.032790087 -0.0068348642 0.303 -2.7418132e+38
0.0333905 -0.0068574208 0.30400002 -2.7284684e+38
0.033882696 -0.0068574208 0.30400002 -2.7418128e+38
0.0048272903 -0.0063442881 0.303 -2.92874e+38
0.0053178654 -0.0063442881 0.303 -2.9153956e+38
0.0062990165 -0.0063442881 0.303 -2.8353292e+38
0.0068119997 -0.0063652266 0.30400002 -2.835173e+38
0.0073041944 -0.0063652266 0.30400002 -2.8218286e+38
0.0078220339 -0.006386165 0.30500001 -2.7951402e+38
0.0088096615 -0.006386165 0.30500001 -2.7684514e+38
0.0093034748 -0.006386165 0.30500001 -2.7684514e+38
0.0097972881 -0.006386165 0.30500001 -2.7684514e+38
0.010291102 -0.006386165 0.30500001 -2.7417625e+38
0.011278729 -0.006386165 0.30500001 -2.7551069e+38
0.011772542 -0.006386165 0.30500001 -2.7418672e+38
0.012266356 -0.006386165 0.30500001 -2.768556e+38
0.013253983 -0.006386165 0.30500001 -2.8085892e+38
0.013747797 -0.006386165 0.30500001 -2.835278e+38
0.014241611 -0.006386165 0.30500001 -2.8886557e+38
0.015179305 -0.0063652266 0.30400002 -2.9153445e+38
0.015671499 -0.0063652266 0.30400002 -2.9286889e+38
0.016110525 -0.0063442881 0.303 -2.9553777e+38
0.017035266 -0.0063233501 0.30200002 -2.9687221e+38
0.017466197 -0.0063024117 0.30100003 -2.9687221e+38
0.025179662 -0.0062814732 0.30000001 -2.8619129e+38
0.02566538 -0.0062814732 0.30000001 -2.8485685e+38
0.027122535 -0.0062814732 0.30000001 -2.8085353e+38
0.027700279 -0.0063024117 0.30100003 -2.7951909e+38
0.028187618 -0.0063024117 0.30100003 -2.7685021e+38
0.02877022 -0.0063233501 0.30200002 -2.7685021e+38
0.029259175 -0.0063233501 0.30200002 -2.7683976e+38
0.029846635 -0.0063442881 0.303 -2.7683976e+38
0.030827787 -0.0063442881 0.303 -2.7550536e+38
0.031318363 -0.0063442881 0.303 -2.7550536e+38
0.031808939 -0.0063442881 0.303 -2.7550536e+38
0.03240611 -0.0063652266 0.30400002 -2.7418128e+38
0.0333905 -0.0063652266 0.30400002 -2.7284684e+38
0.034105606 -0.006407103 0.30600002 -2.7284684e+38
0.006319805 -0.0058730324 0.30400002 -2.8353292e+38
0.0068119997 -0.0058730324 0.30400002 -2.8218286e+38
0.0073282206 -0.0058923513 0.30500001 -2.8084842e+38
0.0078476807 -0.0059116706 0.30600002 -2.7951402e+38
0.0083431136 -0.0059116706 0.30600002 -2.7684514e+38
0.0093339784 -0.0059116706 0.30600002 -2.7551069e+38
0.0098294113 -0.0059116706 0.30600002 -2.7551069e+38
0.010324844 -0.0059116706 0.30600002 -2.7417625e+38
0.011278729 -0.0058923513 0.30500001 -2.7551069e+38
0.011772542 -0.0058923513 0.30500001 -2.7419187e+38
0.012266356 -0.0058923513 0.30500001 -2.7686075e+38
0.013253983 -0.0058923513 0.30500001 -2.8085892e+38
0.013747797 -0.0058923513 0.30500001 -2.835278e+38
0.014241611 -0.0058923513 0.30500001 -2.8753113e+38
0.014735425 -0.0058923513 0.30500001 -2.9020001e+38
0.015671499 -0.0058730324 0.30400002 -2.9153445e+38
0.016163694 -0.0058730324 0.30400002 -2.9286889e+38
0.017035266 -0.0058343937 0.30200002 -2.9553777e+38
0.017466197 -0.0058150743 0.30100003 -2.9687221e+38
0.021293916 -0.0057957554 0.30000001 -2.982118e+38
0.021779634 -0.0057957554 0.30000001 -2.9687736e+38
0.022751071 -0.0057957554 0.30000001 -2.9552726e+38
0.023236789 -0.0057957554 0.30000001 -2.9152909e+38
0.023722507 -0.0057957554 0.30000001 -2.9019465e+38
0.024208225 -0.0057957554 0.30000001 -2.8619129e+38
0.02566538 -0.0057957554 0.30000001 -2.8085349e+38
0.026151098 -0.0057957554 0.30000001 -2.8085349e+38
0.026725605 -0.0058150743 0.30100003 -2.7951905e+38
0.027700279 -0.0058150743 0.30100003 -2.7685021e+38
0.028281264 -0.0058343937 0.30200002 -2.7551572e+38
0.02877022 -0.0058343937 0.30200002 -2.7551572e+38
0.029356061 -0.005853713 0.303 -2.7550532e+38
0.029846635 -0.005853713 0.303 -2.7550532e+38
0.030827787 -0.005853713 0.303 -2.7550532e+38
0.031421721 -0.0058730324 0.30400002 -2.7418132e+38
0.031913918 -0.0058730324 0.30400002 -2.7418132e+38
0.03240611 -0.0058730324 0.30400002 -2.7418128e+38
0.033114742 -0.0059116706 0.30600002 -2.7284684e+38
0.033829849 -0.0059503093 0.30800003 -2.7284684e+38
0.034551434 -0.0059889471 0.31 -2.7284684e+38
0.0058467807 -0.005398538 0.30500001 -2.8753624e+38
0.0068344073 -0.005398538 0.30500001 -2.8218286e+38
0.0073522483 -0.0054162382 0.30600002 -2.8084842e+38
0.0078476807 -0.0054162382 0.30600002 -2.7684509e+38
0.0083431136 -0.0054162382 0.30600002 -2.7684509e+38
0.0093339784 -0.0054162382 0.30600002 -2.7551069e+38
0.0098294113 -0.0054162382 0.30600002 -2.7417625e+38
0.010324844 -0.0054162382 0.30600002 -2.7417625e+38
0.010820276 -0.0054162382 0.30600002 -2.7284181e+38
0.011811142 -0.0054162382 0.30600002 -2.7419187e+38
0.012306574 -0.0054162382 0.30600002 -2.7419187e+38
0.012802007 -0.0054162382 0.30600002 -2.7819004e+38
0.013747797 -0.005398538 0.30500001 -2.835278e+38
0.014241611 -0.005398538 0.30500001 -2.8619668e+38
0.014735425 -0.005398538 0.30500001 -2.8886557e+38
0.015723052 -0.005398538 0.30500001 -2.9153445e+38
0.016163694 -0.0053808377 0.30400002 -2.9286889e+38
0.021293916 -0.0053100372 0.30000001 -2.9687736e+38
0.021779634 -0.0053100372 0.30000001 -2.9554292e+38
0.022751071 -0.0053100372 0.30000001 -2.9020512e+38
0.023236789 -0.0053100372 0.30000001 -2.862018e+38
0.023722507 -0.0053100372 0.30000001 -2.8353292e+38
0.024208225 -0.0053100372 0.30000001 -2.8352241e+38
0.025179662 -0.0053100372 0.30000001 -2.7951909e+38
0.025750931 -0.0053277374 0.30100003 -2.7951909e+38
0.026238268 -0.0053277374 0.30100003 -2.7685017e+38
0.026725605 -0.0053277374 0.30100003 -2.7685017e+38
0.027700279 -0.0053277374 0.30100003 -2.7551577e+38
0.028281264 -0.0053454372 0.30200002 -2.7551572e+38
0.02877022 -0.0053454372 0.30200002 -2.7551572e+38
0.029356061 -0.0053631375 0.303 -2.7550532e+38
0.029846635 -0.0053631375 0.303 -2.7550532e+38
0.030929528 -0.0053808377 0.30400002 -2.7550532e+38
0.031421721 -0.0053808377 0.30400002 -2.7284688e+38
0.031913918 -0.0053808377 0.30400002 -2.7284688e+38
0.032512709 -0.005398538 0.30500001 -2.7284684e+38
0.033222962 -0.0054339385 0.30700001 -2.7284684e+38
0.033939689 -0.005469338 0.30900002 -2.7284684e+38
0.034662887 -0.0055047385 0.31100002 -2.7284684e+38
0.0068568154 -0.0044253729 0.30600002 -2.821829e+38
0.0073522483 -0.0044253729 0.30600002 -2.7951402e+38
0.0078733265 -0.004439835 0.30700001 -2.7551069e+38
0.0083703781 -0.004439835 0.30700001 -2.7417625e+38
0.0088674296 -0.004439835 0.30700001 -2.7417625e+38
0.0098294113 -0.0044253729 0.30600002 -2.741711e+38
0.010324844 -0.0044253729 0.30600002 -2.7283666e+38
0.010820276 -0.0044253729 0.30600002 -2.7283666e+38
0.011811142 -0.0044253729 0.30600002 -2.7285228e+38
0.012306574 -0.0044253729 0.30600002 -2.7418672e+38
0.012802007 -0.0044253729 0.30600002 -2.768556e+38
0.013792871 -0.0044253729 0.30600002 -2.821934e+38
0.014288304 -0.0044253729 0.30600002 -2.8619673e+38
0.014735425 -0.0044109109 0.30500001 -2.8886561e+38
0.024288919 -0.0043530627 0.30100003 -2.7951913e+38
0.025263593 -0.0043530627 0.30100003 -2.7685021e+38
0.025750931 -0.0043530627 0.30100003 -2.7551577e+38
0.026238268 -0.0043530627 0.30100003 -2.7418132e+38
0.026725605 -0.0043530627 0.30100003 -2.7418132e+38
0.027792307 -0.0043675248 0.30200002 -2.7551577e+38
0.028281264 -0.0043675248 0.30200002 -2.7418132e+38
0.028865485 -0.0043819868 0.303 -2.7418132e+38
0.029356061 -0.0043819868 0.303 -2.7284688e+38
0.029945139 -0.0043964488 0.30400002 -2.7284688e+38
0.030929528 -0.0043964488 0.30400002 -2.7284688e+38
0.031525083 -0.0044109109 0.30500001 -2.7284688e+38
0.032018896 -0.0044109109 0.30500001 -2.7151244e+38
0.032725912 -0.004439835 0.30700001 -2.7284688e+38
0.033331182 -0.004454297 0.30800003 -2.7284688e+38
0.034049526 -0.0044832211 0.31 -2.7284688e+38
0.034662887 -0.0044976831 0.31100002 -2.7284688e+38
0.035392568 -0.0045266072 0.31300002 -2.7284688e+38
0.0073762746 -0.0039427835 0.30700001 -2.7686075e+38
0.0078733265 -0.0039427835 0.30700001 -2.7551069e+38
0.0083703781 -0.0039427835 0.30700001 -2.7417625e+38
0.0088674296 -0.0039427835 0.30700001 -2.7417625e+38
0.0098615326 -0.0039427835 0.30700001 -2.7417625e+38
