# .PCD v0.7 - Point Cloud Data file format
VERSION 0.7
FIELDS x y z rgb
SIZE 4 4 4 4
TYPE F F F F
COUNT 1 1 1 1
WIDTH 968
HEIGHT 1
VIEWPOINT 0 0 0 1 0 0 0
POINTS 968
DATA ascii
-0.0086736046 0.0091071492 0.29500002 -2.3144302e+38
-0.0081959823 0.0091071492 0.29500002 -2.3544634e+38
-0.0072407359 0.0091071492 0.29500002 -2.4078411e+38
-0.0067860386 0.0091380207 0.296 -2.4478743e+38
-0.0063281036 0.0091688922 0.29700002 -2.4612187e+38
-0.0058472427 0.0091688922 0.29700002 -2.4745631e+38
-0.0053663817 0.0091688922 0.29700002 -2.4745631e+38
-0.0044046594 0.0091688922 0.29700002 -2.5012519e+38
-0.0039237984 0.0091688922 0.29700002 -2.4880637e+38
-0.0034429375 0.0091688922 0.29700002 -2.5147525e+38
-0.0024812154 0.0091688922 0.29700002 -2.5280973e+38
-0.0020003542 0.0091688922 0.29700002 -2.5280973e+38
-0.0015194933 0.0091688922 0.29700002 -2.5414417e+38
-0.0010386322 0.0091688922 0.29700002 -2.5414417e+38
-7.6910175e-05 0.0091688922 0.29700002 -2.5280973e+38
0.00040395086 0.0091688922 0.29700002 -2.5280973e+38
0.00088481198 0.0091688922 0.29700002 -2.5147529e+38
0.0018465341 0.0091688922 0.29700002 -2.4613753e+38
0.0023273951 0.0091688922 0.29700002 -2.4480309e+38
0.0027988006 0.0091380207 0.296 -2.4346865e+38
0.0037572847 0.0091380207 0.296 -2.3946532e+38
0.0042365268 0.0091380207 0.296 -2.3813088e+38
0.0047157686 0.0091380207 0.296 -2.3679644e+38
0.0052125612 0.0091688922 0.29700002 -2.35462e+38
0.0061742836 0.0091688922 0.29700002 -2.3412756e+38
0.0066551445 0.0091688922 0.29700002 -2.3279312e+38
0.0071360054 0.0091688922 0.29700002 -2.3412756e+38
0.0076168664 0.0091688922 0.29700002 -2.3412241e+38
0.0081522577 0.0092306361 0.29900002 -2.3412241e+38
0.0091204559 0.0092306361 0.29900002 -2.3946017e+38
0.0096045556 0.0092306361 0.29900002 -2.4613237e+38
0.010054912 0.0091997646 0.29800001 -2.4880126e+38
0.011019873 0.0091997646 0.29800001 -2.5547346e+38
0.011502353 0.0091997646 0.29800001 -2.5814234e+38
0.011984834 0.0091997646 0.29800001 -2.6214566e+38
0.012467314 0.0091997646 0.29800001 -2.6214566e+38
0.013432274 0.0091997646 0.29800001 -2.6614898e+38
0.013914754 0.0091997646 0.29800001 -2.6748342e+38
0.014397234 0.0091997646 0.29800001 -2.6748342e+38
0.015310643 0.0091688922 0.29700002 -2.7015231e+38
0.015791504 0.0091688922 0.29700002 -2.7015231e+38
0.016272366 0.0091688922 0.29700002 -2.7015231e+38
0.01717606 0.0091380207 0.296 -2.7148675e+38
0.017655302 0.0091380207 0.296 -2.7148675e+38
0.018134544 0.0091380207 0.296 -2.7148675e+38
0.019093029 0.0091380207 0.296 -2.7547445e+38
0.021824704 0.0085205864 0.27600002 -2.7948288e+38
0.022271566 0.0085205864 0.27600002 -2.8614979e+38
0.022636114 0.0084897159 0.27500001 -2.9415644e+38
0.023526598 0.0084897159 0.27500001 -3.1016441e+38
-0.013281971 0.0088374848 0.27200001 -3.0218906e+38
-0.012841588 0.0088374848 0.27200001 -2.9952018e+38
-0.011960818 0.0088374848 0.27200001 -2.3415865e+38
-0.011562789 0.0088699758 0.273 -2.301242e+38
-0.011120785 0.0088699758 0.273 -2.2878976e+38
-0.0086442027 0.0095522804 0.294 -2.3144302e+38
-0.007692195 0.0095522804 0.294 -2.3811523e+38
-0.0072407359 0.0095847715 0.29500002 -2.4078411e+38
-0.0067860386 0.0096172625 0.296 -2.4478743e+38
-0.0063067968 0.0096172625 0.296 -2.4612187e+38
-0.0058472427 0.0096497536 0.29700002 -2.4879075e+38
-0.0053663817 0.0096497536 0.29700002 -2.4745631e+38
-0.0044046594 0.0096497536 0.29700002 -2.5012519e+38
-0.0039237984 0.0096497536 0.29700002 -2.5145963e+38
-0.0034429375 0.0096497536 0.29700002 -2.5412851e+38
-0.0024812154 0.0096497536 0.29700002 -2.5280973e+38
-0.0020003542 0.0096497536 0.29700002 -2.5280973e+38
-0.0015194933 0.0096497536 0.29700002 -2.5414417e+38
-0.0010386322 0.0096497536 0.29700002 -2.5414417e+38
-7.6910175e-05 0.0096497536 0.29700002 -2.5280973e+38
0.00040395086 0.0096497536 0.29700002 -2.5280973e+38
0.00088481198 0.0096497536 0.29700002 -2.5147529e+38
0.0018465341 0.0096497536 0.29700002 -2.4613753e+38
0.0023273951 0.0096497536 0.29700002 -2.4480309e+38
0.0027988006 0.0096172625 0.296 -2.421342e+38
0.0037572847 0.0096172625 0.296 -2.3946532e+38
0.0042365268 0.0096172625 0.296 -2.3813088e+38
0.0047157686 0.0096172625 0.296 -2.3679644e+38
0.0051950105 0.0096172625 0.296 -2.35462e+38
0.0061534946 0.0096172625 0.296 -2.3412756e+38
0.0066551445 0.0096497536 0.29700002 -2.3278797e+38
0.0071360054 0.0096497536 0.29700002 -2.3412241e+38
0.0076168664 0.0096497536 0.29700002 -2.3279837e+38
0.0085785883 0.0096497536 0.29700002 -2.3413281e+38
0.0090899523 0.0096822446 0.29800001 -2.3813614e+38
0.0095724324 0.0096822446 0.29800001 -2.4480834e+38
0.010054912 0.0096822446 0.29800001 -2.501461e+38
0.011019873 0.0096822446 0.29800001 -2.5547346e+38
0.011502353 0.0096822446 0.29800001 -2.5814234e+38
0.011984834 0.0096822446 0.29800001 -2.6214566e+38
0.012467314 0.0096822446 0.29800001 -2.634801e+38
0.013432274 0.0096822446 0.29800001 -2.6481454e+38
0.013914754 0.0096822446 0.29800001 -2.6614898e+38
0.014348921 0.0096497536 0.29700002 -2.7015231e+38
0.015310643 0.0096497536 0.29700002 -2.7015231e+38
0.015791504 0.0096497536 0.29700002 -2.7015231e+38
0.016696818 0.0096172625 0.296 -2.7148675e+38
0.01717606 0.0096172625 0.296 -2.7148675e+38
0.017655302 0.0096172625 0.296 -2.7148675e+38
0.018134544 0.0096172625 0.296 -2.7148675e+38
0.019093029 0.0096172625 0.296 -2.7282119e+38
0.019440025 0.0095522804 0.294 -2.7282119e+38
0.021824704 0.0089674471 0.27600002 -2.728263e+38
0.022271566 0.0089674471 0.27600002 -2.7947759e+38
0.022636114 0.008934957 0.27500001 -2.8481535e+38
0.023526598 0.008934957 0.27500001 -3.0081817e+38
0.023884669 0.0089024659 0.27400002 -3.0616109e+38
0.024328291 0.0089024659 0.27400002 -3.1550217e+38
-0.011960818 0.009277869 0.27200001 -2.7417621e+38
-0.011120785 0.0093119796 0.273 -2.2746572e+38
-0.0086442027 0.010028285 0.294 -2.2878976e+38
-0.007692195 0.010028285 0.294 -2.3546196e+38
-0.0072161909 0.010028285 0.294 -2.3813084e+38
-0.0067631132 0.010062395 0.29500002 -2.4478743e+38
-0.0063067968 0.010096504 0.296 -2.4612187e+38
-0.005827555 0.010096504 0.296 -2.4879075e+38
-0.0053663817 0.010130614 0.29700002 -2.4879075e+38
-0.0044046594 0.010130614 0.29700002 -2.5012523e+38
-0.0039237984 0.010130614 0.29700002 -2.5145967e+38
-0.0034429375 0.010130614 0.29700002 -2.5412855e+38
-0.0024812154 0.010130614 0.29700002 -2.5280973e+38
-0.0020003542 0.010130614 0.29700002 -2.5280973e+38
-0.0015194933 0.010130614 0.29700002 -2.5414417e+38
-0.0010386322 0.010130614 0.29700002 -2.5414417e+38
-7.6910175e-05 0.010130614 0.29700002 -2.5280973e+38
0.00040395086 0.010130614 0.29700002 -2.5280973e+38
0.00088481198 0.010130614 0.29700002 -2.5147529e+38
0.0018465341 0.010130614 0.29700002 -2.4613753e+38
0.0023195588 0.010096504 0.296 -2.4480309e+38
0.0027988006 0.010096504 0.296 -2.4346865e+38
0.0037572847 0.010096504 0.296 -2.3946532e+38
0.0042365268 0.010096504 0.296 -2.3813088e+38
0.0047157686 0.010096504 0.296 -2.3679644e+38
0.0051950105 0.010096504 0.296 -2.35462e+38
0.0061534946 0.010096504 0.296 -2.3412756e+38
0.0066327369 0.010096504 0.296 -2.3146393e+38
0.0071119787 0.010096504 0.296 -2.3279837e+38
0.0076168664 0.010130614 0.29700002 -2.3279837e+38
0.0085785883 0.010130614 0.29700002 -2.3413281e+38
0.0090594497 0.010130614 0.29700002 -2.4080502e+38
0.0095403111 0.010130614 0.29700002 -2.4747722e+38
0.010054912 0.010164725 0.29800001 -2.5281498e+38
0.011019873 0.010164725 0.29800001 -2.5548386e+38
0.011502353 0.010164725 0.29800001 -2.568183e+38
0.011984834 0.010164725 0.29800001 -2.6082163e+38
0.012906338 0.010130614 0.29700002 -2.634801e+38
0.013387199 0.010130614 0.29700002 -2.6481454e+38
0.01386806 0.010130614 0.29700002 -2.6614898e+38
0.014348921 0.010130614 0.29700002 -2.7015231e+38
0.015310643 0.010130614 0.29700002 -2.7015231e+38
0.015791504 0.010130614 0.29700002 -2.7015231e+38
0.016696818 0.010096504 0.296 -2.7148675e+38
0.01717606 0.010096504 0.296 -2.7148675e+38
0.017655302 0.010096504 0.296 -2.7148675e+38
0.018134544 0.010096504 0.296 -2.7148675e+38
0.019093029 0.010096504 0.296 -2.7282119e+38
0.019440025 0.010028285 0.294 -2.7282119e+38
0.021824704 0.0094143078 0.27600002 -2.7149186e+38
0.022271566 0.0094143078 0.27600002 -2.78138e+38
0.022636114 0.009380199 0.27500001 -2.8080688e+38
0.023526598 0.009380199 0.27500001 -2.8880825e+38
0.023884669 0.0093460884 0.27400002 -2.9281157e+38
0.024681507 0.0093119796 0.273 -3.0749038e+38
0.025123511 0.0093119796 0.273 -3.114937e+38
-0.011520434 0.010158638 0.27200001 -2.7016253e+38
-0.0081404159 0.010942944 0.29300001 -2.3279308e+38
-0.0076660314 0.010942944 0.29300001 -2.3546196e+38
-0.0072161909 0.010980292 0.294 -2.3946528e+38
-0.0067401873 0.010980292 0.294 -2.4346865e+38
-0.0062854905 0.01101764 0.29500002 -2.4480309e+38
-0.0053302445 0.01101764 0.29500002 -2.4879079e+38
-0.0048690708 0.011054988 0.296 -2.5012523e+38
-0.0044046594 0.011092336 0.29700002 -2.5012523e+38
-0.0039237984 0.011092336 0.29700002 -2.5145967e+38
-0.0034429375 0.011092336 0.29700002 -2.5412855e+38
-0.0024812154 0.011092336 0.29700002 -2.5280973e+38
-0.0020003542 0.011092336 0.29700002 -2.5280973e+38
-0.0015194933 0.011092336 0.29700002 -2.5414417e+38
-0.0010386322 0.011092336 0.29700002 -2.5414417e+38
-7.6910175e-05 0.011092336 0.29700002 -2.5280973e+38
0.00040395086 0.011092336 0.29700002 -2.5280973e+38
0.00088183273 0.011054988 0.296 -2.4880641e+38
0.0018403167 0.011054988 0.296 -2.4613753e+38
0.0023195588 0.011054988 0.296 -2.4613753e+38
0.0027988006 0.011054988 0.296 -2.4479793e+38
0.0037572847 0.011054988 0.296 -2.3946017e+38
0.0042365268 0.011054988 0.296 -2.3812573e+38
0.0047157686 0.011054988 0.296 -2.3812573e+38
0.0051950105 0.011054988 0.296 -2.3545685e+38
0.0061534946 0.011054988 0.296 -2.3545685e+38
0.0066327369 0.011054988 0.296 -2.3412241e+38
0.0071119787 0.011054988 0.296 -2.3545685e+38
0.0080704633 0.011054988 0.296 -2.501461e+38
0.0085497051 0.011054988 0.296 -2.5683396e+38
0.0090594497 0.011092336 0.29700002 -2.6083728e+38
0.0095403111 0.011092336 0.29700002 -2.6750945e+38
0.010502033 0.011092336 0.29700002 -2.7284721e+38
0.010982894 0.011092336 0.29700002 -2.7685053e+38
0.011463755 0.011092336 0.29700002 -2.8083823e+38
0.011944616 0.011092336 0.29700002 -2.7950379e+38
0.012906338 0.011092336 0.29700002 -2.7550047e+38
0.013387199 0.011092336 0.29700002 -2.6617501e+38
0.01386806 0.011092336 0.29700002 -2.6617501e+38
0.014348921 0.011092336 0.29700002 -2.6615939e+38
0.015259093 0.011054988 0.296 -2.6882827e+38
0.015738335 0.011054988 0.296 -2.6882827e+38
0.016696818 0.011054988 0.296 -2.7016271e+38
0.01717606 0.011054988 0.296 -2.7016271e+38
0.017655302 0.011054988 0.296 -2.7016271e+38
0.018134544 0.011054988 0.296 -2.7016271e+38
0.019028526 0.01101764 0.29500002 -2.7415563e+38
0.019440025 0.010980292 0.294 -2.7282119e+38
0.021824704 0.010308029 0.27600002 -2.7015742e+38
0.022271566 0.010308029 0.27600002 -2.7281064e+38
0.022636114 0.010270682 0.27500001 -2.7414508e+38
0.023441046 0.010233333 0.27400002 -2.7815355e+38
0.023797499 0.010195986 0.273 -2.7815355e+38
0.024681507 0.010195986 0.273 -2.8614979e+38
0.025031483 0.010158638 0.27200001 -2.9015311e+38
0.025471866 0.010158638 0.27200001 -2.9814933e+38
-0.0081404159 0.011417329 0.29300001 -2.301242e+38
-0.0076660314 0.011417329 0.29300001 -2.3546196e+38
-0.0071916464 0.011417329 0.29300001 -2.3946528e+38
-0.0067172619 0.011417329 0.29300001 -2.4346865e+38
-0.0062641837 0.011456296 0.294 -2.4480309e+38
-0.0053302445 0.011495263 0.29500002 -2.4613753e+38
-0.0048690708 0.01153423 0.296 -2.4747197e+38
-0.004389829 0.01153423 0.296 -2.4747197e+38
-0.0039237984 0.011573197 0.29700002 -2.4880641e+38
-0.0034429375 0.011573197 0.29700002 -2.5147529e+38
-0.0024812154 0.011573197 0.29700002 -2.5280973e+38
-0.0020003542 0.011573197 0.29700002 -2.5414417e+38
-0.0015194933 0.011573197 0.29700002 -2.5547861e+38
-0.0010386322 0.011573197 0.29700002 -2.5414417e+38
-7.6910175e-05 0.011573197 0.29700002 -2.5280973e+38
0.00040395086 0.011573197 0.29700002 -2.5280973e+38
0.00088183273 0.01153423 0.296 -2.5147529e+38
0.0018403167 0.01153423 0.296 -2.4747197e+38
0.0023195588 0.01153423 0.296 -2.4747197e+38
0.0027893451 0.011495263 0.29500002 -2.4479793e+38
0.003744591 0.011495263 0.29500002 -2.3946017e+38
0.0042222138 0.011495263 0.29500002 -2.3946017e+38
0.004699837 0.011495263 0.29500002 -2.3812573e+38
0.0056550829 0.011495263 0.29500002 -2.3545685e+38
0.0061327056 0.011495263 0.29500002 -2.3545685e+38
0.0066103288 0.011495263 0.29500002 -2.3679129e+38
0.0071119787 0.01153423 0.296 -2.4479793e+38
0.0080704633 0.01153423 0.296 -2.581684e+38
0.0085497051 0.01153423 0.296 -2.6350617e+38
0.009028947 0.01153423 0.296 -2.6884393e+38
0.0095081888 0.01153423 0.296 -2.7418169e+38
0.010466672 0.01153423 0.296 -2.7818497e+38
0.010945915 0.01153423 0.296 -2.7951941e+38
0.011425157 0.01153423 0.296 -2.8085385e+38
0.012383641 0.01153423 0.296 -2.8085389e+38
0.012862883 0.01153423 0.296 -2.8085389e+38
0.013342124 0.01153423 0.296 -2.7818501e+38
0.013821366 0.01153423 0.296 -2.7685057e+38
0.014779851 0.01153423 0.296 -2.6750945e+38
0.015259093 0.01153423 0.296 -2.6882827e+38
0.015738335 0.01153423 0.296 -2.6882827e+38
0.016696818 0.01153423 0.296 -2.7016271e+38
0.017118033 0.011495263 0.29500002 -2.7016271e+38
0.017595656 0.011495263 0.29500002 -2.7016271e+38
0.018550903 0.011495263 0.29500002 -2.7149715e+38
0.019028526 0.011495263 0.29500002 -2.7415563e+38
0.021824704 0.01075489 0.27600002 -2.6748854e+38
0.022190873 0.010715923 0.27500001 -2.7015738e+38
0.024061922 0.010560055 0.27100003 -2.781484e+38
0.024500689 0.010560055 0.27100003 -2.8080688e+38
0.024939453 0.010560055 0.27100003 -2.848102e+38
0.025816984 0.010560055 0.27100003 -2.9014796e+38
0.026255751 0.010560055 0.27100003 -2.9816487e+38
0.026694518 0.010560055 0.27100003 -3.0750595e+38
-0.0090581644 0.011851128 0.29200003 -2.2878976e+38
-0.0081126327 0.011851128 0.29200003 -2.3279308e+38
-0.0076398673 0.011851128 0.29200003 -2.3546196e+38
-0.0071916464 0.011891714 0.29300001 -2.3946528e+38
-0.0067172619 0.011891714 0.29300001 -2.434686e+38
-0.0057684919 0.011891714 0.29300001 -2.4747197e+38
-0.005312176 0.011932299 0.294 -2.4747197e+38
-0.0048526214 0.011972887 0.29500002 -2.4880641e+38
-0.004389829 0.012013472 0.296 -2.4747197e+38
-0.0039237984 0.012054058 0.29700002 -2.4880641e+38
-0.0034429375 0.012054058 0.29700002 -2.5147529e+38
-0.0024812154 0.012054058 0.29700002 -2.5280973e+38
-0.0020003542 0.012054058 0.29700002 -2.5413902e+38
-0.0015194933 0.012054058 0.29700002 -2.5547346e+38
-0.0010386322 0.012054058 0.29700002 -2.5414417e+38
-7.6651224e-05 0.012013472 0.296 -2.5280973e+38
0.00040259075 0.012013472 0.296 -2.5280973e+38
0.00088183273 0.012013472 0.296 -2.5147529e+38
0.0018403167 0.012013472 0.296 -2.4747197e+38
0.0023117224 0.011972887 0.29500002 -2.4747197e+38
0.0032558937 0.011932299 0.294 -2.4346349e+38
0.0037318976 0.011932299 0.294 -2.3946017e+38
0.0042079012 0.011932299 0.294 -2.3946017e+38
0.0051599089 0.011932299 0.294 -2.3812573e+38
0.005635913 0.011932299 0.294 -2.3812573e+38
0.0061119166 0.011932299 0.294 -2.4212905e+38
0.0066103288 0.011972887 0.29500002 -2.5414942e+38
0.0070879515 0.011972887 0.29500002 -2.6349051e+38
0.008043197 0.011972887 0.29500002 -2.6750945e+38
0.0085208202 0.011972887 0.29500002 -2.7017837e+38
0.0089984434 0.011972887 0.29500002 -2.7284725e+38
0.0099536888 0.011972887 0.29500002 -2.7818501e+38
0.010431312 0.011972887 0.29500002 -2.8085389e+38
0.010908935 0.011972887 0.29500002 -2.8085389e+38
0.011386557 0.011972887 0.29500002 -2.8218833e+38
0.012341804 0.011972887 0.29500002 -2.8218833e+38
0.012819426 0.011972887 0.29500002 -2.8352277e+38
0.01329705 0.011972887 0.29500002 -2.8352277e+38
0.014252296 0.011972887 0.29500002 -2.8085385e+38
0.014729919 0.011972887 0.29500002 -2.7951941e+38
0.015207542 0.011972887 0.29500002 -2.7818497e+38
0.015685165 0.011972887 0.29500002 -2.7017833e+38
0.016640412 0.011972887 0.29500002 -2.6750945e+38
0.017118033 0.011972887 0.29500002 -2.7016271e+38
0.017595656 0.011972887 0.29500002 -2.7016271e+38
0.018550903 0.011972887 0.29500002 -2.7016271e+38
0.019028526 0.011972887 0.29500002 -2.7282119e+38
0.019373903 0.011891714 0.29300001 -2.7282119e+38
0.0247554 0.010917649 0.26900002 -2.7948284e+38
0.025284573 0.010958235 0.27000001 -2.8348616e+38
0.025721719 0.010958235 0.27000001 -2.8348616e+38
0.026158866 0.010958235 0.27000001 -2.8881863e+38
0.026596013 0.010958235 0.27000001 -2.9682528e+38
-0.0094982907 0.012281689 0.29100001 -2.2878976e+38
0.023012966 0.01114215 0.264 -2.7414508e+38
0.023440398 0.01114215 0.264 -2.7547952e+38
0.023958238 0.011184355 0.26500002 -2.7681396e+38
0.025097281 0.011310971 0.26800001 -2.781484e+38
0.025721719 0.011395381 0.27000001 -2.7948284e+38
0.026158866 0.011395381 0.27000001 -2.8481535e+38
0.026596013 0.011395381 0.27000001 -2.9415644e+38
-0.0090581644 0.012796659 0.29200003 -2.3012416e+38
-0.0081126327 0.012796659 0.29200003 -2.4481345e+38
-0.0076398673 0.012796659 0.29200003 -2.4883235e+38
-0.0071671014 0.012796659 0.29200003 -2.5417011e+38
-0.0062215696 0.012796659 0.29200003 -2.635112e+38
-0.0048526214 0.012928132 0.29500002 -2.5683899e+38
-0.004389829 0.012971955 0.296 -2.4883235e+38
-0.0039105872 0.012971955 0.296 -2.5016679e+38
-0.0034429375 0.013015781 0.29700002 -2.5016679e+38
-0.0024812154 0.013015781 0.29700002 -2.5282009e+38
-0.0020003542 0.013015781 0.29700002 -2.5414942e+38
-0.0015194933 0.013015781 0.29700002 -2.5414942e+38
-0.0010386322 0.013015781 0.29700002 -2.5414942e+38
-7.6651224e-05 0.012971955 0.296 -2.5281498e+38
0.00040259075 0.012971955 0.296 -2.5281498e+38
0.0013564765 0.012928132 0.29500002 -2.5148054e+38
0.0018340994 0.012928132 0.29500002 -2.4747722e+38
0.002303886 0.012884308 0.294 -2.4747722e+38
0.0032558937 0.012884308 0.294 -2.4614278e+38
0.0037318976 0.012884308 0.294 -2.4482396e+38
0.0041935886 0.012840483 0.29300001 -2.4749284e+38
0.005635913 0.012884308 0.294 -2.6617501e+38
0.0061119166 0.012884308 0.294 -2.6884389e+38
0.0065879207 0.012884308 0.294 -2.7151792e+38
0.0075399289 0.012884308 0.294 -2.7418165e+38
0.0080159325 0.012884308 0.294 -2.7418165e+38
0.0084919361 0.012884308 0.294 -2.7685053e+38
0.0089679407 0.012884308 0.294 -2.7818497e+38
0.0099199479 0.012884308 0.294 -2.8218833e+38
0.010395952 0.012884308 0.294 -2.8352277e+38
0.010871956 0.012884308 0.294 -2.8619165e+38
0.011823963 0.012884308 0.294 -2.8619165e+38
0.012299967 0.012884308 0.294 -2.8352277e+38
0.012775972 0.012884308 0.294 -2.8619165e+38
0.013681285 0.012840483 0.29300001 -2.8352277e+38
0.014155669 0.012840483 0.29300001 -2.8619165e+38
0.014679986 0.012884308 0.294 -2.8619165e+38
0.01515599 0.012884308 0.294 -2.8619165e+38
0.016107997 0.012884308 0.294 -2.8752605e+38
0.016584001 0.012884308 0.294 -2.8619161e+38
0.017060006 0.012884308 0.294 -2.8085385e+38
0.017536009 0.012884308 0.294 -2.7685053e+38
0.018488016 0.012884308 0.294 -2.6884389e+38
0.018964021 0.012884308 0.294 -2.7149715e+38
-0.0090581644 0.013269424 0.29200003 -2.3679636e+38
-0.0081126327 0.013269424 0.29200003 -2.5016683e+38
-0.0076398673 0.013269424 0.29200003 -2.5417011e+38
-0.0071671014 0.013269424 0.29200003 -2.5950787e+38
-0.0062215696 0.013269424 0.29200003 -2.6618008e+38
-0.0057488042 0.013269424 0.29200003 -2.6618523e+38
-0.0052941074 0.013314867 0.29300001 -2.6351635e+38
-0.0048361719 0.013360312 0.294 -2.6351635e+38
-0.0043749986 0.013405755 0.29500002 -2.5951303e+38
-0.0039105872 0.013451197 0.296 -2.5951303e+38
-0.0034313451 0.013451197 0.296 -2.5817858e+38
-0.0024728612 0.013451197 0.296 -2.5683903e+38
-0.0019936191 0.013451197 0.296 -2.608424e+38
-0.0015143772 0.013451197 0.296 -2.5950795e+38
-0.00055589323 0.013451197 0.296 -2.5950795e+38
-7.6651224e-05 0.013451197 0.296 -2.5683907e+38
0.00040123065 0.013405755 0.29500002 -2.5683907e+38
0.0013564765 0.013405755 0.29500002 -2.5016687e+38
0.001827882 0.013360312 0.294 -2.5281498e+38
0.0027704346 0.013314867 0.29300001 -2.5416504e+38
0.0032448194 0.013314867 0.29300001 -2.5416504e+38
0.0070398976 0.013314867 0.29300001 -2.7685568e+38
0.0075142821 0.013314867 0.29300001 -2.7685568e+38
0.0080159325 0.013360312 0.294 -2.7685568e+38
0.0084919361 0.013360312 0.294 -2.7818501e+38
0.0089679407 0.013360312 0.294 -2.7951945e+38
0.0098862061 0.013314867 0.29300001 -2.848416e+38
0.010360591 0.013314867 0.29300001 -2.8617604e+38
0.011309361 0.013314867 0.29300001 -2.9017936e+38
0.011823963 0.013360312 0.294 -2.8884492e+38
0.01225813 0.013314867 0.29300001 -2.8619165e+38
0.012732515 0.013314867 0.29300001 -2.875261e+38
0.013634591 0.013269424 0.29200003 -2.8352277e+38
0.014107357 0.013269424 0.29200003 -2.8619165e+38
0.014630054 0.013314867 0.29300001 -2.8619165e+38
0.015104439 0.013314867 0.29300001 -2.875261e+38
0.016053209 0.013314867 0.29300001 -2.875261e+38
0.016527593 0.013314867 0.29300001 -2.8886054e+38
0.017001979 0.013314867 0.29300001 -2.8752605e+38
0.017536009 0.013360312 0.294 -2.8752605e+38
0.018425133 0.013314867 0.29300001 -2.7685053e+38
0.018899517 0.013314867 0.29300001 -2.7416603e+38
0.022585534 0.011997014 0.264 -2.7281064e+38
0.022925796 0.011951571 0.26300001 -2.7281064e+38
0.023440398 0.011997014 0.264 -2.7281064e+38
0.023867831 0.011997014 0.264 -2.7547952e+38
0.024387289 0.012042457 0.26500002 -2.7547952e+38
0.025003633 0.012133344 0.26700002 -2.7681396e+38
0.025626455 0.01222423 0.26900002 -2.7681396e+38
0.026158866 0.012269674 0.27000001 -2.8082755e+38
0.026596013 0.012269674 0.27000001 -3.0351304e+38
-0.0090581644 0.013742191 0.29200003 -2.4748233e+38
-0.0081126327 0.013742191 0.29200003 -2.5683907e+38
-0.0076398673 0.013742191 0.29200003 -2.5817343e+38
-0.0071671014 0.013742191 0.29200003 -2.6084231e+38
-0.0062215696 0.013742191 0.29200003 -2.6618008e+38
-0.0057488042 0.013742191 0.29200003 -2.6751967e+38
-0.0052760383 0.013742191 0.29200003 -2.6618523e+38
-0.0048032724 0.013742191 0.29200003 -2.6751967e+38
-0.0043601682 0.013836316 0.294 -2.6618523e+38
0.0008728953 0.013789252 0.29300001 -2.6618016e+38
0.0013472801 0.013789252 0.29300001 -2.608424e+38
0.0018216649 0.013789252 0.29300001 -2.6482495e+38
0.0027704346 0.013789252 0.29300001 -2.6350612e+38
0.0032448194 0.013789252 0.29300001 -2.6750945e+38
0.0070398976 0.013789252 0.29300001 -2.7819012e+38
0.0075142821 0.013789252 0.29300001 -2.7819012e+38
0.0079886671 0.013789252 0.29300001 -2.7819012e+38
0.0084630521 0.013789252 0.29300001 -2.7818501e+38
0.0094118211 0.013789252 0.29300001 -2.8350716e+38
0.0098862061 0.013789252 0.29300001 -2.8617604e+38
0.010360591 0.013789252 0.29300001 -2.8617604e+38
0.011309361 0.013789252 0.29300001 -2.9017936e+38
0.011783745 0.013789252 0.29300001 -2.8884492e+38
0.01225813 0.013789252 0.29300001 -2.875261e+38
0.013161826 0.013742191 0.29200003 -2.875261e+38
0.013634591 0.013742191 0.29200003 -2.8619165e+38
0.014107357 0.013742191 0.29200003 -2.8619165e+38
0.014580123 0.013742191 0.29200003 -2.875261e+38
0.015525654 0.013742191 0.29200003 -2.875261e+38
0.015998419 0.013742191 0.29200003 -2.8886054e+38
0.016527593 0.013789252 0.29300001 -2.8886054e+38
0.017001979 0.013789252 0.29300001 -2.9019494e+38
0.017950747 0.013789252 0.29300001 -2.9553785e+38
0.018425133 0.013789252 0.29300001 -2.9286897e+38
0.018899517 0.013789252 0.29300001 -2.7951941e+38
0.021730671 0.012424446 0.264 -2.6615409e+38
0.022499982 0.012377384 0.26300001 -2.7014176e+38
0.022925796 0.012377384 0.26300001 -2.7281064e+38
0.02335161 0.012377384 0.26300001 -2.7281064e+38
0.023867831 0.012424446 0.264 -2.7547952e+38
0.024387289 0.012471508 0.26500002 -2.7547952e+38
0.025003633 0.012565633 0.26700002 -2.7681911e+38
0.025626455 0.012659757 0.26900002 -2.7815355e+38
-0.011990869 0.012803197 0.26300001 -2.8748926e+38
-0.011096888 0.012754516 0.26200002 -2.5546291e+38
-0.010672694 0.012754516 0.26200002 -2.3811518e+38
-0.0094982907 0.014166275 0.29100001 -2.4883239e+38
-0.0081126327 0.014214956 0.29200003 -2.5683903e+38
-0.0076398673 0.014214956 0.29200003 -2.6084231e+38
-0.0071425568 0.014166275 0.29100001 -2.6084231e+38
-0.0062002633 0.014166275 0.29100001 -2.6751452e+38
-0.0057291165 0.014166275 0.29100001 -2.6751452e+38
-0.0052760383 0.014214956 0.29200003 -2.6884896e+38
-0.0048032724 0.014214956 0.29200003 -2.6884896e+38
-0.0038577411 0.014214956 0.29200003 -2.68849e+38
-0.0033849755 0.014214956 0.29200003 -2.68849e+38
0.00086991611 0.014214956 0.29200003 -2.7017833e+38
0.0013426818 0.014214956 0.29200003 -2.6884389e+38
0.0018154476 0.014214956 0.29200003 -2.7149715e+38
0.0027609791 0.014214956 0.29200003 -2.7283159e+38
0.0032337448 0.014214956 0.29200003 -2.7416603e+38
0.0037065106 0.014214956 0.29200003 -2.7151277e+38
0.0046520424 0.014214956 0.29200003 -2.7418165e+38
0.0051248078 0.014214956 0.29200003 -2.7418165e+38
0.0055975737 0.014214956 0.29200003 -2.7685053e+38
0.0060703396 0.014214956 0.29200003 -2.7685053e+38
0.0070398976 0.014263637 0.29300001 -2.7819012e+38
0.0075142821 0.014263637 0.29300001 -2.7952456e+38
0.0079886671 0.014263637 0.29300001 -2.7952456e+38
0.0084630521 0.014263637 0.29300001 -2.7818497e+38
0.0094118211 0.014263637 0.29300001 -2.8350712e+38
0.0098524652 0.014214956 0.29200003 -2.86176e+38
0.010325231 0.014214956 0.29200003 -2.8884488e+38
0.011270762 0.014214956 0.29200003 -2.9151376e+38
0.011743529 0.014214956 0.29200003 -2.8884488e+38
0.012216294 0.014214956 0.29200003 -2.9017936e+38
0.013161826 0.014214956 0.29200003 -2.875261e+38
0.013634591 0.014214956 0.29200003 -2.8619165e+38
0.014107357 0.014214956 0.29200003 -2.8619165e+38
0.014580123 0.014214956 0.29200003 -2.8886054e+38
0.015525654 0.014214956 0.29200003 -2.8886054e+38
0.015998419 0.014214956 0.29200003 -2.8886054e+38
0.016471185 0.014214956 0.29200003 -2.9019498e+38
0.017416717 0.014214956 0.29200003 -2.9286382e+38
0.017950747 0.014263637 0.29300001 -2.9687229e+38
0.018425133 0.014263637 0.29300001 -2.9687229e+38
0.018899517 0.014263637 0.29300001 -2.9019494e+38
0.021303238 0.012851878 0.264 -2.6615409e+38
0.021648357 0.012803197 0.26300001 -2.6615409e+38
0.022499982 0.012803197 0.26300001 -2.7015738e+38
0.022925796 0.012803197 0.26300001 -2.7015738e+38
0.02335161 0.012803197 0.26300001 -2.7015738e+38
0.023867831 0.012851878 0.264 -2.7282626e+38
0.024387289 0.012900559 0.26500002 -2.7282626e+38
0.025626455 0.013095285 0.26900002 -2.8616016e+38
-0.011945277 0.013178709 0.26200002 -2.741449e+38
-0.011096888 0.013178709 0.26200002 -2.5145959e+38
-0.010672694 0.013178709 0.26200002 -2.3811518e+38
-0.010209384 0.013128409 0.26100001 -2.3012416e+38
-0.0098618045 0.01322901 0.26300001 -2.3546192e+38
-0.0092842514 0.013631413 0.27100003 -2.4748233e+38
0.021222545 0.01322901 0.26300001 -2.6748854e+38
0.021990236 0.013178709 0.26200002 -2.6748849e+38
0.022499982 0.01322901 0.26300001 -2.7015738e+38
0.022925796 0.01322901 0.26300001 -2.7149182e+38
0.02335161 0.01322901 0.26300001 -2.7149182e+38
0.023867831 0.013279309 0.264 -2.7547952e+38
0.024387289 0.013329611 0.26500002 -2.7547952e+38
-0.0085559972 0.015108569 0.29100001 -2.5817347e+38
-0.0081126327 0.015160487 0.29200003 -2.6084235e+38
-0.0076137036 0.015108569 0.29100001 -2.6217675e+38
-0.0071425568 0.015108569 0.29100001 -2.635112e+38
-0.0062002633 0.015108569 0.29100001 -2.6884896e+38
-0.0057291165 0.015108569 0.29100001 -2.6884896e+38
-0.0052579697 0.015108569 0.29100001 -2.701834e+38
-0.0048032724 0.015160487 0.29200003 -2.68849e+38
-0.0038577411 0.015160487 0.29200003 -2.7018344e+38
-0.0033849755 0.015160487 0.29200003 -2.7018344e+38
-0.0029022365 0.015108569 0.29100001 -2.7151792e+38
-7.5356438e-05 0.015108569 0.29100001 -2.7285236e+38
0.00039579024 0.015108569 0.29100001 -2.741868e+38
0.00086693687 0.015108569 0.29100001 -2.7684006e+38
0.0013380835 0.015108569 0.29100001 -2.7684006e+38
0.0022803769 0.015108569 0.29100001 -2.7684006e+38
0.0027515236 0.015108569 0.29100001 -2.7684006e+38
0.0032337448 0.015160487 0.29200003 -2.7950895e+38
0.0037065106 0.015160487 0.29200003 -2.7684006e+38
0.0046520424 0.015160487 0.29200003 -2.7950895e+38
0.0051248078 0.015160487 0.29200003 -2.7950895e+38
0.0055975737 0.015160487 0.29200003 -2.8084339e+38
0.0060703396 0.015160487 0.29200003 -2.7950895e+38
0.0070158709 0.015160487 0.29200003 -2.8217783e+38
0.0074886368 0.015160487 0.29200003 -2.8217783e+38
0.0088764299 0.015108569 0.29100001 -2.8350712e+38
0.0093475766 0.015108569 0.29100001 -2.8350712e+38
0.0098187234 0.015108569 0.29100001 -2.86176e+38
0.010761017 0.015108569 0.29100001 -2.86176e+38
0.011232164 0.015108569 0.29100001 -2.9017932e+38
0.011703311 0.015108569 0.29100001 -2.8884488e+38
0.012174457 0.015108569 0.29100001 -2.9017932e+38
0.01311675 0.015108569 0.29100001 -2.9151376e+38
0.013634591 0.015160487 0.29200003 -2.9151376e+38
0.014059044 0.015108569 0.29100001 -2.9017936e+38
0.014580123 0.015160487 0.29200003 -2.9284824e+38
0.015525654 0.015160487 0.29200003 -2.915138e+38
0.015998419 0.015160487 0.29200003 -2.9284824e+38
0.016471185 0.015160487 0.29200003 -2.9284824e+38
0.017416717 0.015160487 0.29200003 -2.9551708e+38
-0.012793664 0.014027097 0.26200002 -2.8081714e+38
-0.01236947 0.014027097 0.26200002 -2.6747274e+38
-0.011945277 0.014027097 0.26200002 -2.5812654e+38
-0.011054534 0.013973558 0.26100001 -2.4480816e+38
-0.010631959 0.013973558 0.26100001 -2.3813595e+38
-0.010209384 0.013973558 0.26100001 -2.4081524e+38
-0.0094001126 0.014027097 0.26200002 -2.5149076e+38
-0.0080848504 0.015579715 0.29100001 -2.6349558e+38
-0.0076137036 0.015579715 0.29100001 -2.6217675e+38
-0.0066484842 0.015526177 0.29000002 -2.6618008e+38
-0.0062002633 0.015579715 0.29100001 -2.6751452e+38
-0.0057291165 0.015579715 0.29100001 -2.6884896e+38
-0.0052579697 0.015579715 0.29100001 -2.701834e+38
-0.0043156766 0.015579715 0.29100001 -2.68849e+38
-0.0038445296 0.015579715 0.29100001 -2.7018344e+38
-0.0033733831 0.015579715 0.29100001 -2.7151788e+38
-0.0029022365 0.015579715 0.29100001 -2.7151792e+38
-7.5356438e-05 0.015579715 0.29100001 -2.7285236e+38
0.00039579024 0.015579715 0.29100001 -2.741868e+38
0.00086693687 0.015579715 0.29100001 -2.7684006e+38
0.0013380835 0.015579715 0.29100001 -2.7684006e+38
0.0022803769 0.015579715 0.29100001 -2.7950895e+38
0.0027515236 0.015579715 0.29100001 -2.7950895e+38
0.0032226702 0.015579715 0.29100001 -2.7950895e+38
0.0037065106 0.015633253 0.29200003 -2.7950895e+38
0.0046520424 0.015633253 0.29200003 -2.7950895e+38
0.011193565 0.015526177 0.29000002 -2.9018447e+38
0.011703311 0.015579715 0.29100001 -2.8885003e+38
0.012174457 0.015579715 0.29100001 -2.9017932e+38
0.01311675 0.015579715 0.29100001 -2.9017932e+38
0.013587898 0.015579715 0.29100001 -2.9151376e+38
0.014059044 0.015579715 0.29100001 -2.9017932e+38
0.015001338 0.015579715 0.29100001 -2.9151376e+38
0.015472485 0.015579715 0.29100001 -2.9151376e+38
0.015943632 0.015579715 0.29100001 -2.928482e+38
0.020796731 0.014080636 0.26300001 -2.6615414e+38
0.021483731 0.013973558 0.26100001 -2.6748849e+38
0.021906305 0.013973558 0.26100001 -2.6748849e+38
0.022414431 0.014027097 0.26200002 -2.7015738e+38
0.022925796 0.014080636 0.26300001 -2.7149182e+38
0.02335161 0.014080636 0.26300001 -2.7282626e+38
0.023867831 0.014134174 0.264 -2.8082243e+38
0.024387289 0.014187713 0.26500002 -3.0217348e+38
-0.013217858 0.014451291 0.26200002 -2.9283743e+38
-0.012793664 0.014451291 0.26200002 -2.7679824e+38
-0.01236947 0.014451291 0.26200002 -2.621194e+38
-0.011477109 0.014396133 0.26100001 -2.4745627e+38
-0.011054534 0.014396133 0.26100001 -2.4347372e+38
-0.010631959 0.014396133 0.26100001 -2.3947039e+38
-0.010209384 0.014396133 0.26100001 -2.4348412e+38
-0.0093642343 0.014396133 0.26100001 -2.5149076e+38
-0.0089759184 0.014451291 0.26200002 -2.528252e+38
-0.0061789565 0.015995704 0.29000002 -2.6751452e+38
-0.0057291165 0.016050862 0.29100001 -2.6884896e+38
-0.0052579697 0.016050862 0.29100001 -2.701834e+38
-0.0043156766 0.016050862 0.29100001 -2.68849e+38
-0.0038445296 0.016050862 0.29100001 -2.7018344e+38
-0.0033733831 0.016050862 0.29100001 -2.7018344e+38
-0.0029022365 0.016050862 0.29100001 -2.7151792e+38
-0.0019599432 0.016050862 0.29100001 -2.741868e+38
-0.0014887966 0.016050862 0.29100001 -2.741868e+38
-0.0010176499 0.016050862 0.29100001 -2.741868e+38
-7.5356438e-05 0.016050862 0.29100001 -2.7550562e+38
0.00039579024 0.016050862 0.29100001 -2.7950895e+38
0.00086395774 0.015995704 0.29000002 -2.7950895e+38
0.0018030131 0.015995704 0.29000002 -2.7684006e+38
0.013587898 0.016050862 0.29100001 -2.9151376e+38
0.019370856 0.014396133 0.26100001 -2.7684006e+38
0.019717595 0.014340975 0.26000002 -2.7016786e+38
0.020138551 0.014340975 0.26000002 -2.6748858e+38
0.020980461 0.014340975 0.26000002 -2.7015738e+38
0.021483731 0.014396133 0.26100001 -2.6748849e+38
0.021906305 0.014396133 0.26100001 -2.6748849e+38
0.022414431 0.014451291 0.26200002 -2.7149182e+38
0.022925796 0.014506449 0.26300001 -2.7282626e+38
0.023440398 0.014561606 0.264 -2.7549514e+38
0.023867831 0.014561606 0.264 -2.9950456e+38
0.024387289 0.014616764 0.26500002 -3.0350788e+38
-0.013217858 0.014875486 0.26200002 -2.8081706e+38
-0.012793664 0.014875486 0.26200002 -2.6343826e+38
-0.012322259 0.014818707 0.26100001 -2.581005e+38
-0.011477109 0.014818707 0.26100001 -2.4612183e+38
-0.011054534 0.014818707 0.26100001 -2.4213412e+38
-0.010631959 0.014818707 0.26100001 -2.3946524e+38
-0.010209384 0.014818707 0.26100001 -2.4214968e+38
-0.0093642343 0.014818707 0.26100001 -2.4748744e+38
-0.0089416597 0.014818707 0.26100001 -2.5015632e+38
-0.0085517252 0.014875486 0.26200002 -2.5415965e+38
-0.0057291165 0.016522009 0.29100001 -2.6884896e+38
-0.0052579697 0.016522009 0.29100001 -2.701834e+38
-0.0043156766 0.016522009 0.29100001 -2.68849e+38
-0.0038445296 0.016522009 0.29100001 -2.7018344e+38
-0.0033733831 0.016522009 0.29100001 -2.7018344e+38
-0.0029022365 0.016522009 0.29100001 -2.7151792e+38
-0.0019532079 0.016465232 0.29000002 -2.7285236e+38
-0.0014836803 0.016465232 0.29000002 -2.7285236e+38
-0.0010141528 0.016465232 0.29000002 -2.741868e+38
-7.509748e-05 0.016465232 0.29000002 -2.7684006e+38
0.00039443013 0.016465232 0.29000002 -2.7684006e+38
0.00086395774 0.016465232 0.29000002 -2.7684006e+38
0.008351787 0.014761931 0.26000002 -2.8351227e+38
0.0087727429 0.014761931 0.26000002 -2.8484671e+38
0.0096146548 0.014761931 0.26000002 -2.8618115e+38
0.010074208 0.014818707 0.26100001 -2.8885003e+38
0.018803084 0.014705155 0.259 -2.8084339e+38
0.01922242 0.014705155 0.259 -2.7550562e+38
0.019717595 0.014761931 0.26000002 -2.7016786e+38
0.020138551 0.014761931 0.26000002 -2.6616454e+38
0.020980461 0.014761931 0.26000002 -2.7015742e+38
0.021483731 0.014818707 0.26100001 -2.7015742e+38
0.021906305 0.014818707 0.26100001 -2.7015738e+38
0.022414431 0.014875486 0.26200002 -2.7282626e+38
0.022925796 0.014932262 0.26300001 -2.7550029e+38
0.023440398 0.014989038 0.264 -2.9151358e+38
0.023867831 0.014989038 0.264 -2.9952533e+38
0.0074809911 0.015124491 0.259 -2.8084339e+38
0.0079003274 0.015124491 0.259 -2.8217783e+38
0.0083196647 0.015124491 0.259 -2.8217783e+38
0.0091583384 0.015124491 0.259 -2.8351227e+38
0.017545074 0.015124491 0.259 -2.9152938e+38
0.01796441 0.015124491 0.259 -2.888605e+38
0.018803084 0.015124491 0.259 -2.7819012e+38
0.01922242 0.015124491 0.259 -2.7550562e+38
-0.013217858 0.015723873 0.26200002 -2.6614337e+38
-0.012744834 0.015663857 0.26100001 -2.5409714e+38
-0.012322259 0.015663857 0.26100001 -2.5409714e+38
-0.011477109 0.015663857 0.26100001 -2.4211851e+38
-0.011054534 0.015663857 0.26100001 -2.3946524e+38
-0.010631959 0.015663857 0.26100001 -2.3679636e+38
-0.010209384 0.015663857 0.26100001 -2.3546707e+38
-0.009328356 0.015603843 0.26000002 -2.3814636e+38
-0.0089074001 0.015603843 0.26000002 -2.4348412e+38
-0.0085190851 0.015663857 0.26100001 -2.46153e+38
-0.0076739355 0.015663857 0.26100001 -2.5149076e+38
-0.0072513605 0.015663857 0.26100001 -2.5415965e+38
-0.0068549491 0.015723873 0.26200002 -2.5815256e+38
-0.0057291165 0.017464301 0.29100001 -2.6618008e+38
-0.0052579697 0.017464301 0.29100001 -2.6751452e+38
-0.0043156766 0.017464301 0.29100001 -2.6884896e+38
-0.0038445296 0.017464301 0.29100001 -2.7018344e+38
-0.0033733831 0.017464301 0.29100001 -2.7018344e+38
-0.0024227356 0.017404288 0.29000002 -2.7151792e+38
-0.0019532079 0.017404288 0.29000002 -2.7151792e+38
-0.0014836803 0.017404288 0.29000002 -2.7151792e+38
-0.0010141528 0.017404288 0.29000002 -2.7285236e+38
-7.509748e-05 0.017404288 0.29000002 -2.7550562e+38
0.00039443013 0.017404288 0.29000002 -2.7684006e+38
0.0096146548 0.015603843 0.26000002 -2.8484671e+38
0.010035611 0.015603843 0.26000002 -2.8885003e+38
0.010456567 0.015603843 0.26000002 -2.8618115e+38
0.011298478 0.015603843 0.26000002 -2.8885003e+38
0.011719434 0.015603843 0.26000002 -2.8885003e+38
0.01214039 0.015603843 0.26000002 -2.8885003e+38
0.012561345 0.015603843 0.26000002 -2.9017407e+38
0.013032232 0.015663857 0.26100001 -2.9150851e+38
0.019717595 0.015603843 0.26000002 -2.7016786e+38
0.020138551 0.015603843 0.26000002 -2.6616454e+38
0.020980461 0.015603843 0.26000002 -2.7015742e+38
0.021483731 0.015663857 0.26100001 -2.728263e+38
0.021990236 0.015723873 0.26200002 -2.7416585e+38
0.022414431 0.015723873 0.26200002 -2.9151358e+38
-0.012744834 0.016086431 0.26100001 -2.7814822e+38
-0.011477109 0.016086431 0.26100001 -2.4212366e+38
-0.011054534 0.016086431 0.26100001 -2.381308e+38
-0.010631959 0.016086431 0.26100001 -2.3412748e+38
-0.010209384 0.016086431 0.26100001 -2.3279819e+38
-0.009328356 0.016024798 0.26000002 -2.3414304e+38
-0.0089074001 0.016024798 0.26000002 -2.3814636e+38
-0.0080654891 0.016024798 0.26000002 -2.4481856e+38
-0.0076445327 0.016024798 0.26000002 -2.4748744e+38
-0.0072235772 0.016024798 0.26000002 -2.5149076e+38
-0.0068026213 0.016024798 0.26000002 -2.5548368e+38
-0.0059607099 0.016024798 0.26000002 -2.6082144e+38
-0.0055397539 0.016024798 0.26000002 -2.6482477e+38
-0.0052579697 0.017935447 0.29100001 -2.6618523e+38
-0.0043156766 0.017935447 0.29100001 -2.6751452e+38
-0.0038445296 0.017935447 0.29100001 -2.68849e+38
-0.0033617907 0.017873814 0.29000002 -2.68849e+38
-0.0024227356 0.017873814 0.29000002 -2.7151788e+38
-0.0019464727 0.017812179 0.289 -2.7151788e+38
0.0053635188 0.015901532 0.25800002 -2.7950895e+38
0.0057812366 0.015901532 0.25800002 -2.7950895e+38
0.006616672 0.015901532 0.25800002 -2.8084339e+38
0.0070616542 0.015963165 0.259 -2.8084339e+38
0.0074809911 0.015963165 0.259 -2.8216742e+38
0.0079003274 0.015963165 0.259 -2.8350186e+38
0.0083196647 0.015963165 0.259 -2.8350186e+38
0.0091583384 0.015963165 0.259 -2.848363e+38
0.0096146548 0.016024798 0.26000002 -2.8617074e+38
0.010035611 0.016024798 0.26000002 -2.8750518e+38
0.010456567 0.016024798 0.26000002 -2.8750518e+38
0.011298478 0.016024798 0.26000002 -2.9017407e+38
0.011719434 0.016024798 0.26000002 -2.8750518e+38
0.01214039 0.016024798 0.26000002 -2.9017407e+38
0.012561345 0.016024798 0.26000002 -2.9017407e+38
0.013403257 0.016024798 0.26000002 -2.9018447e+38
0.013824212 0.016024798 0.26000002 -2.9151891e+38
0.014245168 0.016024798 0.26000002 -2.9151891e+38
0.015029053 0.015963165 0.259 -2.9285335e+38
0.01544839 0.015963165 0.259 -2.9285335e+38
0.015867727 0.015963165 0.259 -2.9418779e+38
0.0167064 0.015963165 0.259 -2.9819111e+38
0.017125737 0.015963165 0.259 -2.9952555e+38
0.017545074 0.015963165 0.259 -2.9552223e+38
0.01796441 0.015963165 0.259 -2.9018447e+38
0.018803084 0.015963165 0.259 -2.8084339e+38
0.019296639 0.016024798 0.26000002 -2.7417118e+38
0.019717595 0.016024798 0.26000002 -2.7016786e+38
0.020138551 0.016024798 0.26000002 -2.6883342e+38
0.020980461 0.016024798 0.26000002 -2.728263e+38
0.021483731 0.016086431 0.26100001 -2.7549518e+38
0.021990236 0.016148066 0.26200002 -2.9285313e+38
0.022499982 0.016209701 0.26300001 -2.9685645e+38
-0.011054534 0.016509008 0.26100001 -2.3945478e+38
-0.010631959 0.016509008 0.26100001 -2.3545146e+38
-0.0089074001 0.016445754 0.26000002 -2.3547748e+38
-0.0080654891 0.016445754 0.26000002 -2.4081524e+38
-0.0076445327 0.016445754 0.26000002 -2.4348412e+38
-0.0072235772 0.016445754 0.26000002 -2.4748744e+38
-0.0068026213 0.016445754 0.26000002 -2.5015632e+38
-0.005937784 0.016382502 0.259 -2.5682853e+38
-0.0055184471 0.016382502 0.259 -2.5949741e+38
-0.005118798 0.016445754 0.26000002 -2.6084747e+38
-0.0043156766 0.018406594 0.29100001 -2.6618008e+38
-0.0038313183 0.018343342 0.29000002 -2.6751452e+38
-0.0033617907 0.018343342 0.29000002 -2.6884896e+38
-0.0024143814 0.018280089 0.289 -2.7018344e+38
0.0041262978 0.016382502 0.259 -2.7684002e+38
0.0045456346 0.016382502 0.259 -2.7950891e+38
0.0053635188 0.016319249 0.25800002 -2.7950891e+38
0.0057812366 0.016319249 0.25800002 -2.7950891e+38
0.006616672 0.016319249 0.25800002 -2.8216738e+38
0.0070616542 0.016382502 0.259 -2.8216738e+38
0.0074809911 0.016382502 0.259 -2.8216738e+38
0.0079003274 0.016382502 0.259 -2.8216738e+38
0.0083196647 0.016382502 0.259 -2.8350182e+38
0.0091583384 0.016382502 0.259 -2.848363e+38
0.0096146548 0.016445754 0.26000002 -2.848363e+38
0.010035611 0.016445754 0.26000002 -2.8617074e+38
0.010456567 0.016445754 0.26000002 -2.8617074e+38
0.011298478 0.016445754 0.26000002 -2.8750518e+38
0.011719434 0.016445754 0.26000002 -2.8750518e+38
0.01214039 0.016445754 0.26000002 -2.9017407e+38
0.012561345 0.016445754 0.26000002 -2.9017407e+38
0.013403257 0.016445754 0.26000002 -2.8885003e+38
0.013824212 0.016445754 0.26000002 -2.9018447e+38
0.014609717 0.016382502 0.259 -2.9285335e+38
0.015029053 0.016382502 0.259 -2.9285335e+38
0.01544839 0.016382502 0.259 -2.9285335e+38
0.015867727 0.016382502 0.259 -2.9418779e+38
0.0167064 0.016382502 0.259 -2.9819111e+38
0.017125737 0.016382502 0.259 -2.9952555e+38
0.017545074 0.016382502 0.259 -2.9552223e+38
0.01796441 0.016382502 0.259 -2.9018447e+38
0.018803084 0.016382502 0.259 -2.7950895e+38
0.019296639 0.016445754 0.26000002 -2.7417118e+38
0.019717595 0.016445754 0.26000002 -2.715023e+38
0.020138551 0.016445754 0.26000002 -2.7016786e+38
0.02063858 0.016509008 0.26100001 -2.715023e+38
0.021483731 0.016509008 0.26100001 -2.9284802e+38
-0.011477109 0.016931582 0.26100001 -2.8616527e+38
-0.011054534 0.016931582 0.26100001 -2.5814206e+38
-0.0080654891 0.01686671 0.26000002 -2.3681188e+38
-0.0076445327 0.01686671 0.26000002 -2.4081524e+38
-0.0071957945 0.016801838 0.259 -2.4481856e+38
-0.0063571208 0.016801838 0.259 -2.5149076e+38
-0.005937784 0.016801838 0.259 -2.5415965e+38
-0.0055184471 0.016801838 0.259 -2.5549409e+38
-0.0050991103 0.016801838 0.259 -2.5817858e+38
-0.0042604371 0.016801838 0.259 -2.6084231e+38
0.0028461386 0.016672093 0.257 -2.7684002e+38
0.0032622369 0.016672093 0.257 -2.7684002e+38
0.0036783356 0.016672093 0.257 -2.7684002e+38
0.0045105331 0.016672093 0.257 -2.7950891e+38
0.0049458011 0.016736967 0.25800002 -2.7950891e+38
0.0053635188 0.016736967 0.25800002 -2.7950891e+38
0.0057812366 0.016736967 0.25800002 -2.7950891e+38
0.006616672 0.016736967 0.25800002 -2.8216738e+38
0.0070616542 0.016801838 0.259 -2.8216738e+38
0.0074809911 0.016801838 0.259 -2.8216738e+38
0.0079003274 0.016801838 0.259 -2.8350182e+38
0.0083196647 0.016801838 0.259 -2.8483626e+38
0.0087727429 0.01686671 0.26000002 -2.8483626e+38
0.0096146548 0.01686671 0.26000002 -2.8483626e+38
0.010035611 0.01686671 0.26000002 -2.8750518e+38
0.010456567 0.01686671 0.26000002 -2.8617074e+38
0.011298478 0.01686671 0.26000002 -2.8750514e+38
0.011719434 0.01686671 0.26000002 -2.8750514e+38
0.01214039 0.01686671 0.26000002 -2.9017402e+38
0.012561345 0.01686671 0.26000002 -2.9017402e+38
0.013403257 0.01686671 0.26000002 -2.9018447e+38
0.013824212 0.01686671 0.26000002 -2.9018447e+38
0.014609717 0.016801838 0.259 -2.9151891e+38
0.015029053 0.016801838 0.259 -2.9151891e+38
0.01544839 0.016801838 0.259 -2.9285335e+38
0.015867727 0.016801838 0.259 -2.9285335e+38
0.0167064 0.016801838 0.259 -2.9819111e+38
0.017125737 0.016801838 0.259 -2.9952555e+38
0.017545074 0.016801838 0.259 -2.9552223e+38
0.01796441 0.016801838 0.259 -2.9018447e+38
0.018875683 0.01686671 0.26000002 -2.8084339e+38
0.019296639 0.01686671 0.26000002 -2.7417118e+38
0.019717595 0.01686671 0.26000002 -2.715023e+38
0.020138551 0.01686671 0.26000002 -2.7150226e+38
0.02063858 0.016931582 0.26100001 -2.7417114e+38
0.021141849 0.016996454 0.26200002 -2.9685645e+38
-0.010631959 0.017776731 0.26100001 -2.9016855e+38
-0.009328356 0.017708622 0.26000002 -2.5815759e+38
-0.0076151313 0.017640512 0.259 -2.3547744e+38
-0.0071957945 0.017640512 0.259 -2.408152e+38
-0.0063571208 0.017640512 0.259 -2.46153e+38
-0.005937784 0.017640512 0.259 -2.4881148e+38
-0.0055184471 0.017640512 0.259 -2.5414924e+38
-0.0050991103 0.017640512 0.259 -2.5150123e+38
-0.0042604371 0.017640512 0.259 -2.5817343e+38
-0.0038262699 0.017572403 0.25800002 -2.6084231e+38
0.0015978426 0.017504292 0.257 -2.741711e+38
0.0024205844 0.017436182 0.25600001 -2.741711e+38
0.002835064 0.017436182 0.25600001 -2.7550554e+38
0.0032495435 0.017436182 0.25600001 -2.7684002e+38
0.0036783356 0.017504292 0.257 -2.7684002e+38
0.0045105331 0.017504292 0.257 -2.7684002e+38
0.0049458011 0.017572403 0.25800002 -2.8083294e+38
0.0053635188 0.017572403 0.25800002 -2.8083294e+38
0.0057812366 0.017572403 0.25800002 -2.8083294e+38
0.0062229815 0.017640512 0.259 -2.8350182e+38
0.0070616542 0.017640512 0.259 -2.9018439e+38
0.0074809911 0.017640512 0.259 -2.9419282e+38
0.0079003274 0.017640512 0.259 -2.9419282e+38
0.008351787 0.017708622 0.26000002 -2.9552726e+38
0.0087727429 0.017708622 0.26000002 -2.9419282e+38
0.0096146548 0.017708622 0.26000002 -2.9819614e+38
0.010035611 0.017708622 0.26000002 -2.9819614e+38
0.010456567 0.017708622 0.26000002 -2.9953058e+38
0.011298478 0.017708622 0.26000002 -2.9819614e+38
0.01214039 0.017708622 0.26000002 -2.9152909e+38
0.012561345 0.017708622 0.26000002 -2.9152394e+38
0.013403257 0.017708622 0.26000002 -2.9018954e+38
0.013824212 0.017708622 0.26000002 -2.9018954e+38
0.014609717 0.017640512 0.259 -2.9151887e+38
0.015029053 0.017640512 0.259 -2.9151887e+38
0.01544839 0.017640512 0.259 -2.9285331e+38
0.015867727 0.017640512 0.259 -2.9285331e+38
0.0167064 0.017640512 0.259 -2.9552219e+38
0.017125737 0.017640512 0.259 -2.9952551e+38
0.017545074 0.017640512 0.259 -2.9819107e+38
0.018033771 0.017708622 0.26000002 -2.9018443e+38
0.018875683 0.017708622 0.26000002 -2.7950891e+38
0.019296639 0.017708622 0.26000002 -2.7551069e+38
0.019717595 0.017708622 0.26000002 -2.8485178e+38
0.020216005 0.017776731 0.26100001 -2.9151865e+38
-0.0076151313 0.018059848 0.259 -2.34143e+38
-0.0071957945 0.018059848 0.259 -2.408152e+38
-0.0063571208 0.018059848 0.259 -2.4348412e+38
-0.005937784 0.018059848 0.259 -2.4748744e+38
-0.0055184471 0.018059848 0.259 -2.528252e+38
-0.0050991103 0.018059848 0.259 -2.5415449e+38
-0.0042439876 0.01799012 0.25800002 -2.5683899e+38
-0.0038262699 0.01799012 0.25800002 -2.5817343e+38
-0.0029792422 0.01792039 0.257 -2.6084231e+38
-0.0025631436 0.01792039 0.257 -2.6618008e+38
-0.002147045 0.01792039 0.257 -2.6751452e+38
-0.0013097316 0.017850662 0.25600001 -2.6884896e+38
-0.00089525204 0.017850662 0.25600001 -2.7283666e+38
-0.00048077249 0.017850662 0.25600001 -2.7150222e+38
0.00034818662 0.017850662 0.25600001 -2.7150222e+38
0.00076266617 0.017850662 0.25600001 -2.741607e+38
0.0011771458 0.017850662 0.25600001 -2.741607e+38
0.0020061049 0.017850662 0.25600001 -2.7549514e+38
0.0024205844 0.017850662 0.25600001 -2.7549514e+38
0.002835064 0.017850662 0.25600001 -2.7682958e+38
0.0032495435 0.017850662 0.25600001 -2.7816402e+38
0.0036783356 0.01792039 0.257 -2.7816402e+38
0.0045105331 0.01792039 0.257 -2.808329e+38
0.0049458011 0.01799012 0.25800002 -2.8216734e+38
0.0053635188 0.01799012 0.25800002 -2.8350178e+38
0.0057812366 0.01799012 0.25800002 -2.9018954e+38
0.0062229815 0.018059848 0.259 -2.9419286e+38
0.0070616542 0.018059848 0.259 -2.9953058e+38
0.013824212 0.018129578 0.26000002 -2.9419797e+38
0.014245168 0.018129578 0.26000002 -2.9285842e+38
0.015029053 0.018059848 0.259 -2.9151883e+38
0.01544839 0.018059848 0.259 -2.9285327e+38
0.015867727 0.018059848 0.259 -2.9285327e+38
0.0167064 0.018059848 0.259 -2.9552215e+38
0.017125737 0.018059848 0.259 -2.9952547e+38
0.017612815 0.018129578 0.26000002 -2.9819107e+38
0.018033771 0.018129578 0.26000002 -2.9151887e+38
0.018875683 0.018129578 0.26000002 -2.8084331e+38
0.019296639 0.018129578 0.26000002 -2.8352245e+38
