# .PCD v0.7 - Point Cloud Data file format
VERSION 0.7
FIELDS x y z rgb
SIZE 4 4 4 4
TYPE F F F F
COUNT 1 1 1 1
WIDTH 981
HEIGHT 1
VIEWPOINT 0 0 0 1 0 0 0
POINTS 981
DATA ascii
0.081461966 0.0058224038 0.29800001 -2.9148751e+38
0.081669465 0.0058028656 0.29700002 -2.9415639e+38
0.082352966 0.0057833274 0.296 -2.9550124e+38
0.082552373 0.0057637892 0.29500002 -2.9550124e+38
0.083224542 0.005744251 0.294 -2.9550124e+38
0.083415851 0.0057247127 0.29300001 -2.9016348e+38
0.083890237 0.0057247127 0.29300001 -2.8882904e+38
0.084549449 0.0057051741 0.29200003 -2.8882904e+38
0.08473105 0.0056856358 0.29100001 -2.8882904e+38
0.08508452 0.0056465594 0.289 -2.9283236e+38
0.085256398 0.0056270212 0.28800002 -2.9550124e+38
0.085889712 0.005607483 0.287 -2.9684083e+38
0.086354382 0.005607483 0.287 -2.9950971e+38
0.086819053 0.005607483 0.287 -2.9817527e+38
0.087442651 0.0055879448 0.28600001 -2.9817527e+38
0.087905705 0.0055879448 0.28600001 -2.9816487e+38
0.088368751 0.0055879448 0.28600001 -2.9683043e+38
0.088982634 0.0055684065 0.28500003 -2.9549599e+38
0.089444071 0.0055684065 0.28500003 -2.9682e+38
0.0899055 0.0055684065 0.28500003 -2.9281668e+38
0.090828367 0.0055684065 0.28500003 -2.9281664e+38
0.091289796 0.0055684065 0.28500003 -2.9281664e+38
0.091751233 0.0055684065 0.28500003 -2.9281664e+38
0.092674099 0.0055684065 0.28500003 -2.9281664e+38
0.093135528 0.0055684065 0.28500003 -2.914822e+38
0.093596958 0.0055684065 0.28500003 -2.9014776e+38
0.094058394 0.0055684065 0.28500003 -2.9014776e+38
0.094981253 0.0055684065 0.28500003 -2.914822e+38
0.09544269 0.0055684065 0.28500003 -2.914822e+38
0.095904119 0.0055684065 0.28500003 -2.9014772e+38
0.096826985 0.0055684065 0.28500003 -2.9014772e+38
0.097288415 0.0055684065 0.28500003 -2.9014772e+38
0.097749852 0.0055684065 0.28500003 -2.9014772e+38
0.098211281 0.0055684065 0.28500003 -2.9014772e+38
0.099134147 0.0055684065 0.28500003 -2.8881328e+38
0.099945039 0.0055879448 0.28600001 -2.8881328e+38
0.10075916 0.005607483 0.287 -2.8881328e+38
0.10157653 0.0056270212 0.28800002 -2.9014772e+38
0.10239714 0.0056465594 0.289 -2.9014772e+38
0.10322098 0.0056660976 0.29000002 -2.8881328e+38
0.10369051 0.0056660976 0.29000002 -2.8881328e+38
0.10487838 0.0057051741 0.29200003 -2.9014772e+38
0.10920891 0.0058614807 0.30000001 -2.8747884e+38
0.10969463 0.0058614807 0.30000001 -2.8881843e+38
0.11018035 0.0058614807 0.30000001 -2.8748399e+38
0.11115178 0.0058614807 0.30000001 -2.8748399e+38
0.073997319 0.0068556927 0.30100003 -2.9685645e+38
0.074484654 0.0068556927 0.30100003 -2.9552201e+38
0.074971996 0.0068556927 0.30100003 -2.9551686e+38
0.075459331 0.0068556927 0.30100003 -2.9418242e+38
0.076434009 0.0068556927 0.30100003 -2.901791e+38
0.076921344 0.0068556927 0.30100003 -2.8617577e+38
0.077151507 0.0068329168 0.30000001 -2.8617577e+38
0.078122944 0.0068329168 0.30000001 -2.8484133e+38
0.078608662 0.0068329168 0.30000001 -2.8484133e+38
0.07909438 0.0068329168 0.30000001 -2.8350689e+38
0.080065817 0.0068329168 0.30000001 -2.8484133e+38
0.080551535 0.0068329168 0.30000001 -2.8882904e+38
0.080767132 0.0068101403 0.29900002 -2.8882904e+38
0.081735328 0.0068101403 0.29900002 -2.9283236e+38
0.081944443 0.0067873644 0.29800001 -2.9283236e+38
0.082150325 0.0067645875 0.29700002 -2.941668e+38
0.082552373 0.0067190346 0.29500002 -2.9683568e+38
0.083224542 0.0066962582 0.294 -2.941668e+38
0.083415851 0.0066734822 0.29300001 -2.9016348e+38
0.083890237 0.0066734822 0.29300001 -2.8882904e+38
0.084549449 0.0066507054 0.29200003 -2.874946e+38
0.08473105 0.0066279289 0.29100001 -2.8882904e+38
0.08508452 0.0065823765 0.289 -2.941668e+38
0.085256398 0.0065596001 0.28800002 -2.9683568e+38
0.085889712 0.0065368237 0.287 -2.9684083e+38
0.086354382 0.0065368237 0.287 -2.9950971e+38
0.086819053 0.0065368237 0.287 -2.9817527e+38
0.087748393 0.0065368237 0.287 -2.9684083e+38
0.087905705 0.0065140473 0.28600001 -2.9683043e+38
0.088368751 0.0065140473 0.28600001 -2.9683043e+38
0.089294858 0.0065140473 0.28600001 -2.9549599e+38
0.089757904 0.0065140473 0.28600001 -2.9149267e+38
0.0899055 0.0064912708 0.28500003 -2.9015822e+38
0.090828367 0.0064912708 0.28500003 -2.8748934e+38
0.091289796 0.0064912708 0.28500003 -2.8882374e+38
0.091751233 0.0064912708 0.28500003 -2.8882374e+38
0.092674099 0.0064912708 0.28500003 -2.874893e+38
0.093135528 0.0064912708 0.28500003 -2.874893e+38
0.093596958 0.0064912708 0.28500003 -2.874893e+38
0.094058394 0.0064912708 0.28500003 -2.9014776e+38
0.094981253 0.0064912708 0.28500003 -2.9014776e+38
0.09544269 0.0064912708 0.28500003 -2.8881332e+38
0.095904119 0.0064912708 0.28500003 -2.8881332e+38
0.096826985 0.0064912708 0.28500003 -2.9014776e+38
0.097288415 0.0064912708 0.28500003 -2.8881332e+38
0.097749852 0.0064912708 0.28500003 -2.8881332e+38
0.098555885 0.0065140473 0.28600001 -2.9014776e+38
0.099018931 0.0065140473 0.28600001 -2.8881332e+38
0.10029449 0.0065368237 0.287 -2.8747888e+38
0.10111024 0.0065596001 0.28800002 -2.8747888e+38
0.10192923 0.0065823765 0.289 -2.8881332e+38
0.10239714 0.0065823765 0.289 -2.8881332e+38
0.10322098 0.0066051525 0.29000002 -2.8747884e+38
0.10404806 0.0066279289 0.29100001 -2.8881328e+38
0.10920891 0.0068329168 0.30000001 -2.8480996e+38
0.10969463 0.0068329168 0.30000001 -2.8748399e+38
0.11018035 0.0068329168 0.30000001 -2.8481511e+38
0.11115178 0.0068329168 0.30000001 -2.8481507e+38
0.11260894 0.0068329168 0.30000001 -2.7682925e+38
0.074971996 0.0073430301 0.30100003 -2.9551686e+38
0.075459331 0.0073430301 0.30100003 -2.9418242e+38
0.076434009 0.0073430301 0.30100003 -2.901791e+38
0.076921344 0.0073430301 0.30100003 -2.8617577e+38
0.077408679 0.0073430301 0.30100003 -2.8617577e+38
0.078383356 0.0073430301 0.30100003 -2.8484133e+38
0.078608662 0.007318635 0.30000001 -2.8484133e+38
0.07909438 0.007318635 0.30000001 -2.8350689e+38
0.080065817 0.007318635 0.30000001 -2.8484133e+38
0.080551535 0.007318635 0.30000001 -2.8484133e+38
0.081037253 0.007318635 0.30000001 -2.8617577e+38
0.081735328 0.007294239 0.29900002 -2.9283236e+38
0.081944443 0.0072698444 0.29800001 -2.941668e+38
0.082150325 0.0072454484 0.29700002 -2.941668e+38
0.08283221 0.0072210524 0.296 -2.9683568e+38
0.083029993 0.0071966578 0.29500002 -2.9550124e+38
0.083700545 0.0071722618 0.294 -2.9016348e+38
0.083890237 0.0071478668 0.29300001 -2.9016348e+38
0.084549449 0.0071234712 0.29200003 -2.8882904e+38
0.08473105 0.0070990762 0.29100001 -2.8882904e+38
0.08508452 0.0070502851 0.289 -2.941668e+38
0.085256398 0.0070258896 0.28800002 -2.9817012e+38
0.086188979 0.0070258896 0.28800002 -2.9684083e+38
0.086354382 0.0070014936 0.287 -2.9817527e+38
0.086819053 0.0070014936 0.287 -2.9817527e+38
0.087748393 0.0070014936 0.287 -2.9550639e+38
0.087905705 0.0069770985 0.28600001 -2.9683043e+38
0.088368751 0.0069770985 0.28600001 -2.9683043e+38
0.089294858 0.0069770985 0.28600001 -2.9549599e+38
0.089757904 0.0069770985 0.28600001 -2.9149267e+38
0.090220958 0.0069770985 0.28600001 -2.9015822e+38
0.091147065 0.0069770985 0.28600001 -2.8748934e+38
0.091610111 0.0069770985 0.28600001 -2.8882378e+38
0.092073165 0.0069770985 0.28600001 -2.8882378e+38
0.092536218 0.0069770985 0.28600001 -2.8882374e+38
0.093462318 0.0069770985 0.28600001 -2.874893e+38
0.093925372 0.0069770985 0.28600001 -2.8615486e+38
0.094388418 0.0069770985 0.28600001 -2.8881336e+38
0.094851471 0.0069770985 0.28600001 -2.8881336e+38
0.095777579 0.0069770985 0.28600001 -2.8881336e+38
0.096240625 0.0069770985 0.28600001 -2.8881332e+38
0.096703678 0.0069770985 0.28600001 -2.8747888e+38
0.097629778 0.0069770985 0.28600001 -2.8881332e+38
0.098092832 0.0069770985 0.28600001 -2.8881332e+38
0.098900482 0.0070014936 0.287 -2.8881332e+38
0.099365152 0.0070014936 0.287 -2.8881332e+38
0.10017766 0.0070258896 0.28800002 -2.8747888e+38
0.10099341 0.0070502851 0.289 -2.8747888e+38
0.10192923 0.0070502851 0.289 -2.8747888e+38
0.10275145 0.0070746802 0.29000002 -2.8747888e+38
0.10357691 0.0070990762 0.29100001 -2.8747884e+38
0.10619339 0.0072454484 0.29700002 -2.8881328e+38
0.10715511 0.0072454484 0.29700002 -2.8480996e+38
0.10799837 0.0072698444 0.29800001 -2.8347552e+38
0.10920891 0.007318635 0.30000001 -2.8480996e+38
0.10969463 0.007318635 0.30000001 -2.8747884e+38
0.11018035 0.007318635 0.30000001 -2.8480996e+38
0.11115178 0.007318635 0.30000001 -2.8748399e+38
0.11260894 0.007318635 0.30000001 -2.7549481e+38
0.074484654 0.0078303674 0.30100003 -2.9552201e+38
0.074971996 0.0078303674 0.30100003 -2.9418242e+38
0.075459331 0.0078303674 0.30100003 -2.9284798e+38
0.076434009 0.0078303674 0.30100003 -2.901791e+38
0.076921344 0.0078303674 0.30100003 -2.8617577e+38
0.077408679 0.0078303674 0.30100003 -2.8617577e+38
0.078383356 0.0078303674 0.30100003 -2.8484133e+38
0.078608662 0.0078043533 0.30000001 -2.8484133e+38
0.07909438 0.0078043533 0.30000001 -2.8350689e+38
0.080065817 0.0078043533 0.30000001 -2.8617577e+38
0.080551535 0.0078043533 0.30000001 -2.8484133e+38
0.081037253 0.0078043533 0.30000001 -2.8751021e+38
0.081522971 0.0078043533 0.30000001 -2.8882904e+38
0.082219429 0.0077783382 0.29900002 -2.941668e+38
0.082426928 0.0077523245 0.29800001 -2.941668e+38
0.083112046 0.0077263094 0.29700002 -2.9683568e+38
0.083029993 0.0076742806 0.29500002 -2.941668e+38
0.083700545 0.0076482655 0.294 -2.9016348e+38
0.083890237 0.0076222518 0.29300001 -2.9016348e+38
0.084549449 0.0075962367 0.29200003 -2.874946e+38
0.08473105 0.0075702225 0.29100001 -2.9016348e+38
0.08508452 0.0075181937 0.289 -2.9550124e+38
0.085256398 0.0074921791 0.28800002 -2.9683568e+38
0.086188979 0.0074921791 0.28800002 -2.9817012e+38
0.086354382 0.007466164 0.287 -2.9817527e+38
0.086819053 0.007466164 0.287 -2.9817527e+38
0.087748393 0.007466164 0.287 -2.9550639e+38
0.087905705 0.0074401498 0.28600001 -2.9550639e+38
0.088368751 0.0074401498 0.28600001 -2.9417195e+38
0.089294858 0.0074401498 0.28600001 -2.9416155e+38
0.089757904 0.0074401498 0.28600001 -2.9149267e+38
0.090220958 0.0074401498 0.28600001 -2.9015822e+38
0.091147065 0.0074401498 0.28600001 -2.8748934e+38
0.091610111 0.0074401498 0.28600001 -2.8748934e+38
0.092073165 0.0074401498 0.28600001 -2.8748934e+38
0.092536218 0.0074401498 0.28600001 -2.874893e+38
0.093462318 0.0074401498 0.28600001 -2.861549e+38
0.093925372 0.0074401498 0.28600001 -2.861549e+38
0.094388418 0.0074401498 0.28600001 -2.8881336e+38
0.094851471 0.0074401498 0.28600001 -2.8881336e+38
0.095777579 0.0074401498 0.28600001 -2.8881336e+38
0.09657713 0.007466164 0.287 -2.8881336e+38
0.097041801 0.007466164 0.287 -2.8881336e+38
0.097506471 0.007466164 0.287 -2.8881332e+38
0.098435812 0.007466164 0.287 -2.8881332e+38
0.099245086 0.0074921791 0.28800002 -2.8881332e+38
0.099711373 0.0074921791 0.28800002 -2.8747888e+38
0.10052551 0.0075181937 0.289 -2.8747888e+38
0.10099341 0.0075181937 0.289 -2.8747888e+38
0.10228192 0.0075442079 0.29000002 -2.8747888e+38
0.10310577 0.0075702225 0.29100001 -2.8747888e+38
0.10357691 0.0075702225 0.29100001 -2.8747888e+38
0.10619339 0.0077263094 0.29700002 -2.8747888e+38
0.10751589 0.0077523245 0.29800001 -2.8347552e+38
0.10836079 0.0077783382 0.29900002 -2.8347552e+38
0.10920891 0.0078043533 0.30000001 -2.8480996e+38
0.10969463 0.0078043533 0.30000001 -2.8747884e+38
0.11054762 0.0078303674 0.30100003 -2.8480996e+38
0.11103496 0.0078303674 0.30100003 -2.8481511e+38
0.088368751 0.0079032015 0.28600001 -2.941668e+38
0.089294858 0.0079032015 0.28600001 -2.9283751e+38
0.089757904 0.0079032015 0.28600001 -2.9015822e+38
0.090220958 0.0079032015 0.28600001 -2.9015822e+38
0.091147065 0.0079032015 0.28600001 -2.8748934e+38
0.074732117 0.008834295 0.30200002 -2.9418757e+38
0.075221077 0.008834295 0.30200002 -2.9284798e+38
0.075710028 0.008834295 0.30200002 -2.9284798e+38
0.076434009 0.0088050421 0.30100003 -2.8751021e+38
0.076921344 0.0088050421 0.30100003 -2.8751021e+38
0.077408679 0.0088050421 0.30100003 -2.8484133e+38
0.078383356 0.0088050421 0.30100003 -2.8484133e+38
0.078870691 0.0088050421 0.30100003 -2.8484133e+38
0.079358026 0.0088050421 0.30100003 -2.8350689e+38
0.080065817 0.0087757893 0.30000001 -2.8617577e+38
0.080551535 0.0087757893 0.30000001 -2.8617577e+38
0.081037253 0.0087757893 0.30000001 -2.8751021e+38
0.081522971 0.0087757893 0.30000001 -2.8751021e+38
0.082494408 0.0087757893 0.30000001 -2.9151354e+38
0.082703523 0.0087465364 0.29900002 -2.9284798e+38
0.08339189 0.0087172845 0.29800001 -2.9284798e+38
0.083311453 0.0086587779 0.296 -2.9151354e+38
0.083700545 0.0086002732 0.294 -2.8751021e+38
0.083890237 0.0085710213 0.29300001 -2.8751021e+38
0.084549449 0.0085417684 0.29200003 -2.8617577e+38
0.08473105 0.0085125156 0.29100001 -2.8751021e+38
0.08537893 0.0084832627 0.29000002 -2.9550124e+38
0.085552432 0.0084540108 0.289 -2.9817012e+38
0.086188979 0.008424758 0.28800002 -2.9817012e+38
0.086655267 0.008424758 0.28800002 -2.9817012e+38
0.086819053 0.0083955051 0.287 -2.9683568e+38
0.087748393 0.0083955051 0.287 -2.9550124e+38
0.088213064 0.0083955051 0.287 -2.941668e+38
0.091930427 0.0083955051 0.287 -2.8748934e+38
0.092395097 0.0083955051 0.287 -2.8748934e+38
0.092859767 0.0083955051 0.287 -2.861549e+38
0.093324438 0.0083955051 0.287 -2.861549e+38
0.094253778 0.0083955051 0.287 -2.8482046e+38
0.094718449 0.0083955051 0.287 -2.861549e+38
0.095183119 0.0083955051 0.287 -2.8482046e+38
0.09611246 0.0083955051 0.287 -2.8747892e+38
0.09657713 0.0083955051 0.287 -2.8881336e+38
0.097041801 0.0083955051 0.287 -2.8747892e+38
0.097846217 0.008424758 0.28800002 -2.8881332e+38
0.098778792 0.008424758 0.28800002 -2.8482042e+38
0.099245086 0.008424758 0.28800002 -2.8482042e+38
0.10005759 0.0084540108 0.289 -2.8482042e+38
0.10052551 0.0084540108 0.289 -2.8482042e+38
0.10134287 0.0084832627 0.29000002 -2.8481e+38
0.10216347 0.0085125156 0.29100001 -2.8481e+38
0.10310577 0.0085125156 0.29100001 -2.8481e+38
0.10655093 0.0087172845 0.29800001 -2.8481e+38
0.10751589 0.0087172845 0.29800001 -2.8481e+38
0.10920891 0.0087757893 0.30000001 -2.8480996e+38
0.11006028 0.0088050421 0.30100003 -2.821515e+38
0.11054762 0.0088050421 0.30100003 -2.821515e+38
0.11103496 0.0088050421 0.30100003 -2.8482553e+38
0.11200964 0.0088050421 0.30100003 -2.7815329e+38
0.11249697 0.0088050421 0.30100003 -2.7548441e+38
0.074732117 0.0093232505 0.30200002 -2.9552201e+38
0.075221077 0.0093232505 0.30200002 -2.9151354e+38
0.075710028 0.0093232505 0.30200002 -2.9151354e+38
0.076687947 0.0093232505 0.30200002 -2.8751021e+38
0.076921344 0.009292379 0.30100003 -2.8617577e+38
0.077408679 0.009292379 0.30100003 -2.8484133e+38
0.078383356 0.009292379 0.30100003 -2.8484133e+38
0.078870691 0.009292379 0.30100003 -2.8484133e+38
0.079358026 0.009292379 0.30100003 -2.8350689e+38
0.080065817 0.0092615075 0.30000001 -2.8617577e+38
0.080551535 0.0092615075 0.30000001 -2.8617577e+38
0.081037253 0.0092615075 0.30000001 -2.8751021e+38
0.081522971 0.0092615075 0.30000001 -2.8751021e+38
0.082494408 0.0092615075 0.30000001 -2.9151354e+38
0.082980126 0.0092615075 0.30000001 -2.9151354e+38
0.083187625 0.0092306361 0.29900002 -2.9151354e+38
0.083592907 0.0091688922 0.29700002 -2.9151354e+38
0.083985239 0.0091071492 0.29500002 -2.8751021e+38
0.084176548 0.0090762768 0.294 -2.8751021e+38
0.084549449 0.0090145338 0.29200003 -2.8617577e+38
0.08473105 0.0089836624 0.29100001 -2.901791e+38
0.08537893 0.0089527909 0.29000002 -2.9418242e+38
0.085552432 0.0089219194 0.289 -2.9551686e+38
0.086188979 0.008891047 0.28800002 -2.9817012e+38
0.086655267 0.008891047 0.28800002 -2.9817012e+38
0.086819053 0.0088601755 0.287 -2.9683568e+38
0.087748393 0.0088601755 0.287 -2.9550124e+38
0.088213064 0.0088601755 0.287 -2.941668e+38
0.088677734 0.0088601755 0.287 -2.941668e+38
0.089142404 0.0088601755 0.287 -2.9283236e+38
0.090071745 0.0088601755 0.287 -2.8883419e+38
0.090536416 0.0088601755 0.287 -2.8749975e+38
0.091001086 0.0088601755 0.287 -2.8748934e+38
0.091930427 0.0088601755 0.287 -2.874893e+38
0.092395097 0.0088601755 0.287 -2.874893e+38
0.092859767 0.0088601755 0.287 -2.8615486e+38
0.093324438 0.0088601755 0.287 -2.8615486e+38
0.094582193 0.008891047 0.28800002 -2.8482042e+38
0.09504848 0.008891047 0.28800002 -2.8482042e+38
0.095514767 0.008891047 0.28800002 -2.8482042e+38
0.095981061 0.008891047 0.28800002 -2.8482042e+38
0.096913636 0.008891047 0.28800002 -2.8615486e+38
0.09737993 0.008891047 0.28800002 -2.8482042e+38
0.097846217 0.008891047 0.28800002 -2.8615486e+38
0.098778792 0.008891047 0.28800002 -2.8482042e+38
0.099589683 0.0089219194 0.289 -2.8482042e+38
0.10005759 0.0089219194 0.289 -2.8482042e+38
0.10052551 0.0089219194 0.289 -2.8482042e+38
0.10134287 0.0089527909 0.29000002 -2.8215154e+38
0.10216347 0.0089836624 0.29100001 -2.8215154e+38
0.10571252 0.0091688922 0.29700002 -2.8215154e+38
0.10655093 0.0091997646 0.29800001 -2.8215154e+38
0.10739259 0.0092306361 0.29900002 -2.808171e+38
0.10823748 0.0092615075 0.30000001 -2.8215154e+38
0.10957295 0.009292379 0.30100003 -2.821515e+38
0.11006028 0.009292379 0.30100003 -2.821515e+38
0.11091489 0.0093232505 0.30200002 -2.821515e+38
0.11140384 0.0093232505 0.30200002 -2.8482553e+38
0.11238175 0.0093232505 0.30200002 -2.7681885e+38
0.11249697 0.009292379 0.30100003 -2.7548441e+38
0.073750451 0.0098771891 0.30400002 -2.9952533e+38
0.073998429 0.0098446971 0.303 -2.9685645e+38
0.074488997 0.0098446971 0.303 -2.9685645e+38
0.07547015 0.0098446971 0.303 -2.9151354e+38
0.075960726 0.0098446971 0.303 -2.901791e+38
0.076451302 0.0098446971 0.303 -2.8751021e+38
0.077176899 0.009812207 0.30200002 -2.8617577e+38
0.077665858 0.009812207 0.30200002 -2.8484133e+38
0.078383356 0.0097797159 0.30100003 -2.8484133e+38
0.078870691 0.0097797159 0.30100003 -2.8350689e+38
0.079358026 0.0097797159 0.30100003 -2.8350689e+38
0.079845369 0.0097797159 0.30100003 -2.8484133e+38
0.080820039 0.0097797159 0.30100003 -2.8617577e+38
0.081307381 0.0097797159 0.30100003 -2.8751021e+38
0.081794716 0.0097797159 0.30100003 -2.8751021e+38
0.082282051 0.0097797159 0.30100003 -2.9151354e+38
0.082980126 0.0097472258 0.30000001 -2.9151354e+38
0.08339189 0.0096822446 0.29800001 -2.9151354e+38
0.083592907 0.0096497536 0.29700002 -2.9151358e+38
0.083985239 0.0095847715 0.29500002 -2.8751025e+38
0.084176548 0.0095522804 0.294 -2.9017914e+38
0.084839001 0.0095197903 0.29300001 -2.8751021e+38
0.085022219 0.0094872992 0.29200003 -2.901791e+38
0.085202195 0.0094548091 0.29100001 -2.9284798e+38
0.085848458 0.0094223181 0.29000002 -2.9551686e+38
0.086020336 0.009389828 0.289 -2.9685645e+38
0.086655267 0.0093573369 0.28800002 -2.9817527e+38
0.086819053 0.0093248459 0.287 -2.9684083e+38
0.087748393 0.0093248459 0.287 -2.9683043e+38
0.088213064 0.0093248459 0.287 -2.9549599e+38
0.088677734 0.0093248459 0.287 -2.9549599e+38
0.089142404 0.0093248459 0.287 -2.9416155e+38
0.090071745 0.0093248459 0.287 -2.8882378e+38
0.090536416 0.0093248459 0.287 -2.8882378e+38
0.091001086 0.0093248459 0.287 -2.861549e+38
0.091930427 0.0093248459 0.287 -2.874893e+38
0.092717029 0.0093573369 0.28800002 -2.874893e+38
0.093183324 0.0093573369 0.28800002 -2.8615486e+38
0.093649611 0.0093573369 0.28800002 -2.8615486e+38
0.094582193 0.0093573369 0.28800002 -2.8482042e+38
0.09504848 0.0093573369 0.28800002 -2.8482042e+38
0.095514767 0.0093573369 0.28800002 -2.8482042e+38
0.095981061 0.0093573369 0.28800002 -2.8482042e+38
0.096913636 0.0093573369 0.28800002 -2.8482042e+38
0.09737993 0.0093573369 0.28800002 -2.8482042e+38
0.098185956 0.009389828 0.289 -2.8482042e+38
0.098653868 0.009389828 0.289 -2.8482042e+38
0.099589683 0.009389828 0.289 -2.8482042e+38
0.10005759 0.009389828 0.289 -2.8215154e+38
0.10087334 0.0094223181 0.29000002 -2.8215154e+38
0.10134287 0.0094223181 0.29000002 -2.8481e+38
0.10216347 0.0094548091 0.29100001 -2.8481e+38
0.10558597 0.0096822446 0.29800001 -2.8481e+38
0.10606845 0.0096822446 0.29800001 -2.8481e+38
0.10690849 0.0097147347 0.29900002 -2.8481e+38
0.10775176 0.0097472258 0.30000001 -2.8481e+38
0.10859827 0.0097797159 0.30100003 -2.8481e+38
0.10944802 0.009812207 0.30200002 -2.8081706e+38
0.11042593 0.009812207 0.30200002 -2.8081706e+38
0.11164942 0.0098771891 0.30400002 -2.821515e+38
0.074734837 0.010369383 0.30400002 -2.9685645e+38
0.07571923 0.010369383 0.30400002 -2.9151354e+38
0.076211423 0.010369383 0.30400002 -2.901791e+38
0.076703615 0.010369383 0.30400002 -2.8751021e+38
0.077432454 0.010335273 0.303 -2.8484133e+38
0.077665858 0.010301163 0.30200002 -2.8484133e+38
0.078154817 0.010301163 0.30200002 -2.8484133e+38
0.079132728 0.010301163 0.30200002 -2.8350689e+38
0.07962168 0.010301163 0.30200002 -2.8350689e+38
0.080110639 0.010301163 0.30200002 -2.8484133e+38
0.080599599 0.010301163 0.30200002 -2.8484133e+38
0.081307381 0.010267054 0.30100003 -2.8751021e+38
0.081794716 0.010267054 0.30100003 -2.901791e+38
0.082282051 0.010267054 0.30100003 -2.9151354e+38
0.082980126 0.010232944 0.30000001 -2.9151354e+38
0.08339189 0.010164725 0.29800001 -2.9151354e+38
0.083592907 0.010130614 0.29700002 -2.9017914e+38
0.083985239 0.010062395 0.29500002 -2.8751025e+38
0.084176548 0.010028285 0.294 -2.9017914e+38
0.084652551 0.010028285 0.294 -2.8751025e+38
0.085313387 0.0099941753 0.29300001 -2.901791e+38
0.08549498 0.0099600647 0.29200003 -2.9284798e+38
0.085848458 0.0098918453 0.29000002 -2.9552201e+38
0.086020336 0.0098577365 0.289 -2.9685645e+38
0.086655267 0.0098236259 0.28800002 -2.9684083e+38
0.086819053 0.0097895162 0.287 -2.9684083e+38
0.087748393 0.0097895162 0.287 -2.9549599e+38
0.088213064 0.0097895162 0.287 -2.9549599e+38
0.088677734 0.0097895162 0.287 -2.9416155e+38
0.089142404 0.0097895162 0.287 -2.9149267e+38
0.090071745 0.0097895162 0.287 -2.8882378e+38
0.090536416 0.0097895162 0.287 -2.8882378e+38
0.09131816 0.0098236259 0.28800002 -2.8615486e+38
0.091784455 0.0098236259 0.28800002 -2.8615486e+38
0.092717029 0.0098236259 0.28800002 -2.9014776e+38
0.093183324 0.0098236259 0.28800002 -2.8881332e+38
0.093974784 0.0098577365 0.289 -2.8881332e+38
0.094442688 0.0098577365 0.289 -2.8881332e+38
0.095378511 0.0098577365 0.289 -2.8747888e+38
0.095846415 0.0098577365 0.289 -2.8747888e+38
0.096314326 0.0098577365 0.289 -2.8747888e+38
0.096782237 0.0098577365 0.289 -2.8747888e+38
0.097718053 0.0098577365 0.289 -2.8482042e+38
0.098185956 0.0098577365 0.289 -2.8482042e+38
0.098653868 0.0098577365 0.289 -2.8482042e+38
0.099464759 0.0098918453 0.29000002 -2.8482042e+38
0.10040382 0.0098918453 0.29000002 -2.8215154e+38
0.10087334 0.0098918453 0.29000002 -2.8215154e+38
0.10134287 0.0098918453 0.29000002 -2.8481e+38
0.10216347 0.0099259559 0.29100001 -2.8481e+38
0.10558597 0.010164725 0.29800001 -2.8481e+38
0.10642439 0.010198833 0.29900002 -2.8481e+38
0.10726604 0.010232944 0.30000001 -2.8347556e+38
0.10811093 0.010267054 0.30100003 -2.8481e+38
0.10895906 0.010301163 0.30200002 -2.8481e+38
0.10981043 0.010335273 0.303 -2.8081706e+38
0.11066503 0.010369383 0.30400002 -2.821515e+38
0.11311848 0.010505822 0.30800003 -2.821515e+38
0.11374533 0.010471713 0.30700001 -2.7948777e+38
0.074980676 0.01139112 0.30500001 -2.9551686e+38
0.075474493 0.01139112 0.30500001 -2.9418242e+38
0.07646212 0.01139112 0.30500001 -2.901791e+38
0.076703615 0.011353772 0.30400002 -2.8751021e+38
0.077195808 0.011353772 0.30400002 -2.8484133e+38
0.07792303 0.011316423 0.303 -2.8484133e+38
0.078413606 0.011316423 0.303 -2.8484133e+38
0.078904182 0.011316423 0.303 -2.8484133e+38
0.079885334 0.011316423 0.303 -2.8484133e+38
0.080375902 0.011316423 0.303 -2.8617577e+38
0.080599599 0.011279076 0.30200002 -2.8484133e+38
0.08157751 0.011279076 0.30200002 -2.8751021e+38
0.081794716 0.011241728 0.30100003 -2.901791e+38
0.082494408 0.011204381 0.30000001 -2.9151354e+38
0.082703523 0.011167032 0.29900002 -2.9151354e+38
0.08339189 0.011129685 0.29800001 -2.901791e+38
0.083311453 0.011054988 0.296 -2.9017914e+38
0.083985239 0.01101764 0.29500002 -2.8617581e+38
0.084462866 0.01101764 0.29500002 -2.8751025e+38
0.084652551 0.010980292 0.294 -2.8751025e+38
0.085313387 0.010942944 0.29300001 -2.9017914e+38
0.08549498 0.010905596 0.29200003 -2.9284802e+38
0.086144485 0.010868249 0.29100001 -2.9551686e+38
0.086317986 0.010830901 0.29000002 -2.9552201e+38
0.086956151 0.010793553 0.289 -2.9684083e+38
0.087121561 0.010756205 0.28800002 -2.9684083e+38
0.087587848 0.010756205 0.28800002 -2.9550639e+38
0.08852043 0.010756205 0.28800002 -2.9283751e+38
0.088986717 0.010756205 0.28800002 -2.9283751e+38
0.089142404 0.010718857 0.287 -2.9016863e+38
0.090385586 0.010756205 0.28800002 -2.8882378e+38
0.090851873 0.010756205 0.28800002 -2.8748934e+38
0.09131816 0.010756205 0.28800002 -2.9014776e+38
0.091784455 0.010756205 0.28800002 -2.8881332e+38
0.092717029 0.010756205 0.28800002 -2.9014776e+38
0.093506873 0.010793553 0.289 -2.8881332e+38
0.093974784 0.010793553 0.289 -2.8881332e+38
0.094442688 0.010793553 0.289 -2.8881332e+38
0.095378511 0.010793553 0.289 -2.8747888e+38
0.095846415 0.010793553 0.289 -2.8747888e+38
0.096314326 0.010793553 0.289 -2.8481e+38
0.096782237 0.010793553 0.289 -2.8747888e+38
0.097718053 0.010793553 0.289 -2.8481e+38
0.098185956 0.010793553 0.289 -2.8747888e+38
0.098995231 0.010830901 0.29000002 -2.8481e+38
0.099464759 0.010830901 0.29000002 -2.8747888e+38
0.10075004 0.010868249 0.29100001 -2.8747888e+38
0.10122118 0.010868249 0.29100001 -2.8481e+38
0.10169233 0.010868249 0.29100001 -2.8747884e+38
0.10216347 0.010868249 0.29100001 -2.8480996e+38
0.10594029 0.011167032 0.29900002 -2.8481e+38
0.10678032 0.011204381 0.30000001 -2.8215154e+38
0.10798115 0.011279076 0.30200002 -2.808171e+38
0.1084701 0.011279076 0.30200002 -2.808171e+38
0.10931986 0.011316423 0.303 -2.8215154e+38
0.11017284 0.011353772 0.30400002 -2.8081706e+38
0.11139309 0.011428468 0.30600002 -2.821515e+38
0.11261982 0.011503164 0.30800003 -2.8082221e+38
0.11311848 0.011503164 0.30800003 -2.8215665e+38
0.11411583 0.011503164 0.30800003 -2.7815333e+38
0.1146145 0.011503164 0.30800003 -2.7548445e+38
0.074486867 0.011884933 0.30500001 -2.9419797e+38
0.074980676 0.011884933 0.30500001 -2.9418242e+38
0.075474493 0.011884933 0.30500001 -2.9418242e+38
0.07646212 0.011884933 0.30500001 -2.901791e+38
0.076955929 0.011884933 0.30500001 -2.8751021e+38
0.077449746 0.011884933 0.30500001 -2.8484133e+38
0.078437373 0.011884933 0.30500001 -2.8484133e+38
0.078672394 0.011845966 0.30400002 -2.8484133e+38
0.079164587 0.011845966 0.30400002 -2.8484133e+38
0.079885334 0.011806999 0.303 -2.8617577e+38
0.080375902 0.011806999 0.303 -2.8617577e+38
0.080866478 0.011806999 0.303 -2.8484133e+38
0.08157751 0.011768033 0.30200002 -2.8751021e+38
0.081794716 0.011729065 0.30100003 -2.901791e+38
0.082494408 0.011690099 0.30000001 -2.9151354e+38
0.082703523 0.011651131 0.29900002 -2.9151354e+38
0.083112046 0.011573197 0.29700002 -2.901791e+38
0.083311453 0.01153423 0.296 -2.888551e+38
0.083985239 0.011495263 0.29500002 -2.8485178e+38
0.084462866 0.011495263 0.29500002 -2.8618622e+38
0.084652551 0.011456296 0.294 -2.8618622e+38
0.085313387 0.011417329 0.29300001 -2.9018954e+38
0.08549498 0.011378362 0.29200003 -2.9152398e+38
0.086440518 0.011378362 0.29200003 -2.9551686e+38
0.086615629 0.011339395 0.29100001 -2.9551686e+38
0.087257043 0.011300428 0.29000002 -2.9683568e+38
0.087424062 0.011261461 0.289 -2.9550124e+38
0.087891974 0.011261461 0.289 -2.9550124e+38
0.08852043 0.011222495 0.28800002 -2.9283236e+38
0.088986717 0.011222495 0.28800002 -2.9283236e+38
0.089453004 0.011222495 0.28800002 -2.8883419e+38
0.090385586 0.011222495 0.28800002 -2.901478e+38
0.090851873 0.011222495 0.28800002 -2.901478e+38
0.09131816 0.011222495 0.28800002 -2.901478e+38
0.092103146 0.011261461 0.289 -2.8881336e+38
0.093038969 0.011261461 0.289 -2.8881332e+38
0.093506873 0.011261461 0.289 -2.8747888e+38
0.093974784 0.011261461 0.289 -2.8881332e+38
0.094442688 0.011261461 0.289 -2.8881332e+38
0.095239013 0.011300428 0.29000002 -2.8881332e+38
0.096178062 0.011300428 0.29000002 -2.8481e+38
0.09664759 0.011300428 0.29000002 -2.8481e+38
0.097117119 0.011300428 0.29000002 -2.8747888e+38
0.098056175 0.011300428 0.29000002 -2.8747888e+38
0.098525703 0.011300428 0.29000002 -2.8747888e+38
0.098995231 0.011300428 0.29000002 -2.8481e+38
0.099807739 0.011339395 0.29100001 -2.8481e+38
0.10075004 0.011339395 0.29100001 -2.8747888e+38
0.10239124 0.011417329 0.29300001 -2.8747888e+38
0.10594029 0.011651131 0.29900002 -2.8481e+38
0.10678032 0.011690099 0.30000001 -2.8215154e+38
0.10798115 0.011768033 0.30200002 -2.808171e+38
0.1084701 0.011768033 0.30200002 -2.808171e+38
0.10968064 0.011845966 0.30400002 -2.8215154e+38
0.11089765 0.0119239 0.30600002 -2.821515e+38
0.11212115 0.012001834 0.30800003 -2.821515e+38
0.11298547 0.012040801 0.30900002 -2.8215665e+38
0.11348576 0.012040801 0.30900002 -2.8215665e+38
0.11411583 0.012001834 0.30800003 -2.7681885e+38
0.1146145 0.012001834 0.30800003 -2.7548441e+38
0.075226516 0.012419333 0.30600002 -2.9418242e+38
0.075474493 0.012378747 0.30500001 -2.9284798e+38
0.07646212 0.012378747 0.30500001 -2.901791e+38
0.076955929 0.012378747 0.30500001 -2.8751021e+38
0.077449746 0.012378747 0.30500001 -2.8617577e+38
0.078437373 0.012378747 0.30500001 -2.8484133e+38
0.078672394 0.012338161 0.30400002 -2.8617577e+38
0.079164587 0.012338161 0.30400002 -2.8484133e+38
0.08014898 0.012338161 0.30400002 -2.8882904e+38
0.080375902 0.012297574 0.303 -2.8617577e+38
0.080866478 0.012297574 0.303 -2.8484133e+38
0.08157751 0.012256988 0.30200002 -2.8751021e+38
0.081794716 0.012216402 0.30100003 -2.901791e+38
0.082494408 0.012175817 0.30000001 -2.9151354e+38
0.082703523 0.01213523 0.29900002 -2.9151354e+38
0.083112046 0.012054058 0.29700002 -2.9151354e+38
0.083311453 0.012013472 0.296 -2.888551e+38
0.083790697 0.012013472 0.296 -2.8485178e+38
0.084462866 0.011972887 0.29500002 -2.8485178e+38
0.084652551 0.011932299 0.294 -2.8618622e+38
0.085604563 0.011932299 0.294 -2.9152398e+38
0.085787773 0.011891714 0.29300001 -2.9285842e+38
0.086440518 0.011851128 0.29200003 -2.9419286e+38
0.086615629 0.011810542 0.29100001 -2.9551686e+38
0.087086782 0.011810542 0.29100001 -2.9551686e+38
0.087726571 0.011769956 0.29000002 -2.9550124e+38
0.088196099 0.011769956 0.29000002 -2.941668e+38
0.088827789 0.01172937 0.289 -2.9016348e+38
0.0892957 0.01172937 0.289 -2.9283236e+38
0.089453004 0.011688784 0.28800002 -2.8882904e+38
0.090385586 0.011688784 0.28800002 -2.8748934e+38
0.090851873 0.011688784 0.28800002 -2.861549e+38
0.091635242 0.01172937 0.289 -2.901478e+38
0.092103146 0.01172937 0.289 -2.8881336e+38
0.093038969 0.01172937 0.289 -2.8881332e+38
0.093506873 0.01172937 0.289 -2.8881332e+38
0.094299957 0.011769956 0.29000002 -2.8881332e+38
0.094769485 0.011769956 0.29000002 -2.8881332e+38
0.095239013 0.011769956 0.29000002 -2.8881332e+38
0.096178062 0.011769956 0.29000002 -2.8747888e+38
0.09664759 0.011769956 0.29000002 -2.8481e+38
0.097117119 0.011769956 0.29000002 -2.8747888e+38
0.098056175 0.011769956 0.29000002 -2.8747888e+38
0.098525703 0.011769956 0.29000002 -2.8747892e+38
0.099336594 0.011810542 0.29100001 -2.8481004e+38
0.10015072 0.011851128 0.29200003 -2.8481004e+38
0.10096809 0.011891714 0.29300001 -2.8481004e+38
0.10144247 0.011891714 0.29300001 -2.8481e+38
0.10594029 0.01213523 0.29900002 -2.8481e+38
0.10678032 0.012175817 0.30000001 -2.8215154e+38
0.1076236 0.012216402 0.30100003 -2.8215154e+38
0.10882928 0.012297574 0.303 -2.808171e+38
0.10968064 0.012338161 0.30400002 -2.8215154e+38
0.11089765 0.012419333 0.30600002 -2.821515e+38
0.11212115 0.012500505 0.30800003 -2.821515e+38
0.11298547 0.012541091 0.30900002 -2.8215661e+38
0.11348576 0.012541091 0.30900002 -2.8215661e+38
0.11398605 0.012541091 0.30900002 -2.7681885e+38
0.087086782 0.012281689 0.29100001 -2.9551686e+38
0.087726571 0.012239483 0.29000002 -2.9550124e+38
0.088196099 0.012239483 0.29000002 -2.941668e+38
0.088665627 0.012239483 0.29000002 -2.9283236e+38
0.0892957 0.012197278 0.289 -2.9283236e+38
0.089763604 0.012197278 0.289 -2.8882904e+38
0.090231515 0.012197278 0.289 -2.874946e+38
0.091167331 0.012197278 0.289 -2.861549e+38
0.091635242 0.012197278 0.289 -2.8748934e+38
0.092103146 0.012197278 0.289 -2.861549e+38
0.092891373 0.012239483 0.29000002 -2.874893e+38
0.093830429 0.012239483 0.29000002 -2.8615486e+38
0.094299957 0.012239483 0.29000002 -2.8615486e+38
0.094769485 0.012239483 0.29000002 -2.8615486e+38
0.095239013 0.012239483 0.29000002 -2.8615486e+38
0.096178062 0.012239483 0.29000002 -2.8482042e+38
0.09664759 0.012239483 0.29000002 -2.8215154e+38
0.097117119 0.012239483 0.29000002 -2.8482042e+38
0.098056175 0.012239483 0.29000002 -2.8482042e+38
0.098865449 0.012281689 0.29100001 -2.8482046e+38
0.099336594 0.012281689 0.29100001 -2.8215158e+38
0.075226516 0.013410198 0.30600002 -2.9418242e+38
0.075721949 0.013410198 0.30600002 -2.9284798e+38
0.07646212 0.013366374 0.30500001 -2.901791e+38
0.076955929 0.013366374 0.30500001 -2.8751021e+38
0.077449746 0.013366374 0.30500001 -2.8617577e+38
0.078437373 0.013366374 0.30500001 -2.8484133e+38
0.078931183 0.013366374 0.30500001 -2.8484133e+38
0.079164587 0.01332255 0.30400002 -2.8484133e+38
0.08014898 0.01332255 0.30400002 -2.8617577e+38
0.080641173 0.01332255 0.30400002 -2.8617577e+38
0.080866478 0.013278725 0.303 -2.8617577e+38
0.08184763 0.013278725 0.303 -2.901791e+38
0.081794716 0.013191077 0.30100003 -2.8885506e+38
0.082494408 0.013147253 0.30000001 -2.9151354e+38
0.082703523 0.013103428 0.29900002 -2.9151354e+38
0.083112046 0.013015781 0.29700002 -2.9017914e+38
0.083311453 0.012971955 0.296 -2.8751025e+38
0.083790697 0.012971955 0.296 -2.8751025e+38
0.084462866 0.012928132 0.29500002 -2.8751025e+38
0.084940486 0.012928132 0.29500002 -2.9017914e+38
0.085604563 0.012884308 0.294 -2.9418246e+38
0.085787773 0.012840483 0.29300001 -2.9418246e+38
0.086262159 0.012840483 0.29300001 -2.9685134e+38
0.08691328 0.012796659 0.29200003 -2.9551686e+38
0.10015072 0.012796659 0.29200003 -2.8215158e+38
0.10096809 0.012840483 0.29300001 -2.8215158e+38
0.10532317 0.013147253 0.30000001 -2.808171e+38
0.10594029 0.013103428 0.29900002 -2.8215154e+38
0.10678032 0.013147253 0.30000001 -2.8215154e+38
0.1076236 0.013191077 0.30100003 -2.8215154e+38
0.10882928 0.013278725 0.303 -2.8215154e+38
0.10968064 0.01332255 0.30400002 -2.8215154e+38
0.11089765 0.013410198 0.30600002 -2.821515e+38
0.11212115 0.013497847 0.30800003 -2.8482038e+38
0.074731082 0.01390563 0.30600002 -2.9419797e+38
0.075226516 0.01390563 0.30600002 -2.9285838e+38
0.075721949 0.01390563 0.30600002 -2.9152394e+38
0.07671281 0.01390563 0.30600002 -2.8885506e+38
0.077208243 0.01390563 0.30600002 -2.8618618e+38
0.077449746 0.013860187 0.30500001 -2.8485174e+38
0.078437373 0.013860187 0.30500001 -2.835173e+38
0.078931183 0.013860187 0.30500001 -2.835173e+38
0.079425 0.013860187 0.30500001 -2.835173e+38
0.08014898 0.013814745 0.30400002 -2.8617577e+38
0.080641173 0.013814745 0.30400002 -2.8617577e+38
0.081133366 0.013814745 0.30400002 -2.8617577e+38
0.08184763 0.013769301 0.303 -2.901791e+38
0.082066461 0.013723858 0.30200002 -2.9151354e+38
0.082282051 0.013678415 0.30100003 -2.9151354e+38
0.082703523 0.013587528 0.29900002 -2.9151354e+38
0.083112046 0.013496642 0.29700002 -2.901791e+38
0.083311453 0.013451197 0.296 -2.8751025e+38
0.083790697 0.013451197 0.296 -2.8751025e+38
0.084462866 0.013405755 0.29500002 -2.8751025e+38
0.084940486 0.013405755 0.29500002 -2.9017914e+38
0.085895732 0.013405755 0.29500002 -2.9418246e+38
0.086080566 0.013360312 0.294 -2.955169e+38
0.086262159 0.013314867 0.29300001 -2.9685134e+38
0.08691328 0.013269424 0.29200003 -2.9551686e+38
0.087086782 0.013223982 0.29100001 -2.9551686e+38
0.088029072 0.013223982 0.29100001 -2.9550124e+38
0.088500217 0.013223982 0.29100001 -2.9549084e+38
0.088665627 0.013178539 0.29000002 -2.9415639e+38
0.089604676 0.013178539 0.29000002 -2.9148751e+38
0.090074204 0.013178539 0.29000002 -2.8881863e+38
0.090231515 0.013133096 0.289 -2.8748419e+38
0.091167331 0.013133096 0.289 -2.8748419e+38
0.091952316 0.013178539 0.29000002 -2.8748934e+38
0.092421845 0.013178539 0.29000002 -2.861549e+38
0.092891373 0.013178539 0.29000002 -2.874893e+38
0.093830429 0.013178539 0.29000002 -2.8482042e+38
0.094299957 0.013178539 0.29000002 -2.8482042e+38
0.095096275 0.013223982 0.29100001 -2.8615486e+38
0.09556742 0.013223982 0.29100001 -2.8482042e+38
0.09650971 0.013223982 0.29100001 -2.8482042e+38
0.096980862 0.013223982 0.29100001 -2.8215154e+38
0.097452007 0.013223982 0.29100001 -2.8615486e+38
0.097923152 0.013223982 0.29100001 -2.8483087e+38
0.098865449 0.013223982 0.29100001 -2.8349643e+38
0.099336594 0.013223982 0.29100001 -2.8082755e+38
0.10015072 0.013269424 0.29200003 -2.8482046e+38
0.10131269 0.013360312 0.294 -2.8215158e+38
0.10435173 0.01363297 0.30000001 -2.8482042e+38
0.10483745 0.01363297 0.30000001 -2.8215154e+38
0.10532317 0.01363297 0.30000001 -2.808171e+38
0.10580888 0.01363297 0.30000001 -2.8215154e+38
0.10678032 0.01363297 0.30000001 -2.8215154e+38
0.1076236 0.013678415 0.30100003 -2.8215154e+38
0.10882928 0.013769301 0.303 -2.808171e+38
0.10968064 0.013814745 0.30400002 -2.808171e+38
0.11089765 0.01390563 0.30600002 -2.8215665e+38
0.11248519 0.01404196 0.30900002 -2.8482553e+38
0.074731082 0.014401062 0.30600002 -2.9419797e+38
0.075226516 0.014401062 0.30600002 -2.9418242e+38
0.075721949 0.014401062 0.30600002 -2.9284798e+38
0.07671281 0.014401062 0.30600002 -2.901791e+38
0.077208243 0.014401062 0.30600002 -2.8751021e+38
0.077703677 0.014401062 0.30600002 -2.8617577e+38
0.078437373 0.014354001 0.30500001 -2.8484133e+38
0.078931183 0.014354001 0.30500001 -2.8617577e+38
0.079425 0.014354001 0.30500001 -2.8484133e+38
0.079918809 0.014354001 0.30500001 -2.8484133e+38
0.080906436 0.014354001 0.30500001 -2.8617577e+38
0.081400253 0.014354001 0.30500001 -2.8617577e+38
0.081894062 0.014354001 0.30500001 -2.8751021e+38
0.082609951 0.014306939 0.30400002 -2.9151354e+38
0.082555421 0.014212814 0.30200002 -2.9151354e+38
0.082703523 0.014071627 0.29900002 -2.9151354e+38
0.083112046 0.013977502 0.29700002 -2.8751021e+38
0.083311453 0.013930439 0.296 -2.8751025e+38
0.083790697 0.013930439 0.296 -2.8751025e+38
0.084749177 0.013930439 0.296 -2.8751025e+38
0.085228421 0.013930439 0.296 -2.9017914e+38
0.085895732 0.013883377 0.29500002 -2.9418246e+38
0.086373359 0.013883377 0.29500002 -2.955169e+38
0.086556569 0.013836316 0.294 -2.9685134e+38
0.087210931 0.013789252 0.29300001 -2.9551686e+38
0.087086782 0.013695128 0.29100001 -2.9551686e+38
0.088029072 0.013695128 0.29100001 -2.9550124e+38
0.088500217 0.013695128 0.29100001 -2.9549084e+38
0.088971369 0.013695128 0.29100001 -2.9415639e+38
0.089604676 0.013648067 0.29000002 -2.9015307e+38
0.090074204 0.013648067 0.29000002 -2.8881863e+38
0.090543732 0.013648067 0.29000002 -2.8748419e+38
0.09101326 0.013648067 0.29000002 -2.8748419e+38
0.091952316 0.013648067 0.29000002 -2.8748934e+38
0.092740543 0.013695128 0.29100001 -2.861549e+38
0.093211688 0.013695128 0.29100001 -2.8748934e+38
0.093682833 0.013695128 0.29100001 -2.861549e+38
0.09462513 0.013695128 0.29100001 -2.8482046e+38
0.095096275 0.013695128 0.29100001 -2.8482046e+38
0.09556742 0.013695128 0.29100001 -2.8482046e+38
0.09650971 0.013695128 0.29100001 -2.8615486e+38
0.096980862 0.013695128 0.29100001 -2.8482042e+38
0.097452007 0.013695128 0.29100001 -2.8615486e+38
0.097923152 0.013695128 0.29100001 -2.8483087e+38
0.098865449 0.013695128 0.29100001 -2.8349643e+38
0.099677958 0.013742191 0.29200003 -2.8349643e+38
0.10015072 0.013742191 0.29200003 -2.8349643e+38
0.10131269 0.013836316 0.294 -2.8349643e+38
0.1051869 0.014165752 0.30100003 -2.8215154e+38
0.10602532 0.014212814 0.30200002 -2.8215154e+38
0.10580888 0.014118688 0.30000001 -2.8215154e+38
0.10678032 0.014118688 0.30000001 -2.8215154e+38
0.10798115 0.014212814 0.30200002 -2.8215154e+38
0.10918844 0.014306939 0.30400002 -2.8081706e+38
0.11040222 0.014401062 0.30600002 -2.821515e+38
0.11089765 0.014401062 0.30600002 -2.8215665e+38
0.11248519 0.01454225 0.30900002 -2.8482553e+38
0.12071934 0.015201123 0.32300001 -2.7282593e+38
0.12176525 0.015201123 0.32300001 -2.7416037e+38
0.074720852 0.014993859 0.30800003 -2.9685645e+38
0.075472355 0.014945176 0.30700001 -2.9284798e+38
0.075721949 0.014896495 0.30600002 -2.9151354e+38
0.07671281 0.014896495 0.30600002 -2.901791e+38
0.077208243 0.014896495 0.30600002 -2.8751021e+38
0.077703677 0.014896495 0.30600002 -2.8617577e+38
0.078199111 0.014896495 0.30600002 -2.8484133e+38
0.079189979 0.014896495 0.30600002 -2.8617577e+38
0.079685405 0.014896495 0.30600002 -2.8484133e+38
0.079918809 0.014847814 0.30500001 -2.8484133e+38
0.080906436 0.014847814 0.30500001 -2.8751021e+38
0.08166714 0.014896495 0.30600002 -2.8751021e+38
0.082162574 0.014896495 0.30600002 -2.8751021e+38
0.082881697 0.014847814 0.30500001 -2.901791e+38
0.083102144 0.014799134 0.30400002 -2.9151354e+38
0.082703523 0.014555725 0.29900002 -2.9151354e+38
0.083112046 0.014458364 0.29700002 -2.8751021e+38
0.083592907 0.014458364 0.29700002 -2.8751021e+38
0.083790697 0.014409682 0.296 -2.8751021e+38
0.084749177 0.014409682 0.296 -2.8751025e+38
0.085228421 0.014409682 0.296 -2.9017914e+38
0.085707664 0.014409682 0.296 -2.9284802e+38
0.086373359 0.014361001 0.29500002 -2.955169e+38
0.086850978 0.014361001 0.29500002 -2.9685134e+38
0.087508574 0.014312319 0.294 -2.9551686e+38
0.087386049 0.014214956 0.29200003 -2.9551686e+38
0.087858811 0.014214956 0.29200003 -2.9550124e+38
0.088500217 0.014166275 0.29100001 -2.9415639e+38
0.088971369 0.014166275 0.29100001 -2.9148751e+38
0.089442514 0.014166275 0.29100001 -2.9148751e+38
0.090384804 0.014166275 0.29100001 -2.8881863e+38
0.090855956 0.014166275 0.29100001 -2.8748419e+38
0.091327101 0.014166275 0.29100001 -2.8748419e+38
0.092269391 0.014166275 0.29100001 -2.8748934e+38
0.092740543 0.014166275 0.29100001 -2.861549e+38
0.093211688 0.014166275 0.29100001 -2.8748934e+38
0.093682833 0.014166275 0.29100001 -2.861549e+38
0.09462513 0.014166275 0.29100001 -2.8482046e+38
0.095096275 0.014166275 0.29100001 -2.861549e+38
0.09556742 0.014166275 0.29100001 -2.8482046e+38
0.09650971 0.014166275 0.29100001 -2.8482046e+38
0.096980862 0.014166275 0.29100001 -2.8215154e+38
0.097452007 0.014166275 0.29100001 -2.8615486e+38
0.097923152 0.014166275 0.29100001 -2.8483083e+38
0.099205188 0.014214956 0.29200003 -2.8483083e+38
0.099677958 0.014214956 0.29200003 -2.8349639e+38
0.10049371 0.014263637 0.29300001 -2.8349639e+38
0.10131269 0.014312319 0.294 -2.8349639e+38
0.1051869 0.014653089 0.30100003 -2.808171e+38
0.10602532 0.01470177 0.30200002 -2.808171e+38
0.10651428 0.01470177 0.30200002 -2.8215154e+38
0.10700323 0.01470177 0.30200002 -2.8215154e+38
0.10784813 0.014750451 0.303 -2.821515e+38
0.10941136 0.014896495 0.30600002 -2.821515e+38
0.11040222 0.014896495 0.30600002 -2.821515e+38
0.11248519 0.01504254 0.30900002 -2.8482553e+38
0.11982426 0.016196735 0.32200003 -2.7282597e+38
0.12086693 0.016196735 0.32200003 -2.7416041e+38
0.12138827 0.016196735 0.32200003 -2.7416041e+38
0.12190961 0.016196735 0.32200003 -2.7816374e+38
0.12243094 0.016196735 0.32200003 -2.7949818e+38
0.075206049 0.016095039 0.31 -2.9685645e+38
0.075463742 0.016043119 0.30900002 -2.9552201e+38
0.075969405 0.015939279 0.30700001 -2.901791e+38
0.076466456 0.015939279 0.30700001 -2.901791e+38
0.077460557 0.015939279 0.30700001 -2.8617577e+38
0.077957608 0.015939279 0.30700001 -2.8617577e+38
0.078199111 0.015887361 0.30600002 -2.8617577e+38
0.079189979 0.015887361 0.30600002 -2.8617577e+38
0.079685405 0.015887361 0.30600002 -2.8484133e+38
0.080180839 0.015887361 0.30600002 -2.8484133e+38
0.081171706 0.015887361 0.30600002 -2.8751021e+38
0.08166714 0.015887361 0.30600002 -2.8751021e+38
0.082162574 0.015887361 0.30600002 -2.901791e+38
0.082658 0.015887361 0.30600002 -2.9151354e+38
0.083375506 0.015835442 0.30500001 -2.9151358e+38
0.083112046 0.015420086 0.29700002 -2.8617581e+38
0.083592907 0.015420086 0.29700002 -2.8617581e+38
0.084073775 0.015420086 0.29700002 -2.8751025e+38
0.084749177 0.015368165 0.296 -2.9017914e+38
0.085228421 0.015368165 0.296 -2.9284802e+38
0.085707664 0.015368165 0.296 -2.9418246e+38
0.086666144 0.015368165 0.296 -2.9551686e+38
0.086850978 0.015316246 0.29500002 -2.9551686e+38
0.087210931 0.015212406 0.29300001 -2.9551686e+38
0.087685317 0.015212406 0.29300001 -2.9551686e+38
0.087858811 0.015160487 0.29200003 -2.9682528e+38
0.088804342 0.015160487 0.29200003 -2.9415639e+38
0.088971369 0.015108569 0.29100001 -2.9148751e+38
0.089442514 0.015108569 0.29100001 -2.9015307e+38
0.090384804 0.015108569 0.29100001 -2.8881863e+38
0.090855956 0.015108569 0.29100001 -2.8748419e+38
0.091327101 0.015108569 0.29100001 -2.8748934e+38
0.092269391 0.015108569 0.29100001 -2.8748934e+38
0.092740543 0.015108569 0.29100001 -2.861549e+38
0.093211688 0.015108569 0.29100001 -2.861549e+38
0.093682833 0.015108569 0.29100001 -2.861549e+38
0.09462513 0.015108569 0.29100001 -2.8482046e+38
0.095096275 0.015108569 0.29100001 -2.861549e+38
0.09556742 0.015108569 0.29100001 -2.8482046e+38
0.09650971 0.015108569 0.29100001 -2.8615486e+38
0.096980862 0.015108569 0.29100001 -2.8215154e+38
0.097786896 0.015160487 0.29200003 -2.8615486e+38
0.098259658 0.015160487 0.29200003 -2.8483083e+38
0.099205188 0.015160487 0.29200003 -2.8483083e+38
0.10001932 0.015212406 0.29300001 -2.8349639e+38
0.10083669 0.015264327 0.294 -2.8349639e+38
0.10131269 0.015264327 0.294 -2.8349639e+38
0.10574309 0.015783522 0.30400002 -2.8082751e+38
0.10658474 0.015835442 0.30500001 -2.7949306e+38
0.10721967 0.015783522 0.30400002 -2.8082751e+38
0.10771186 0.015783522 0.30400002 -2.8082751e+38
0.10856 0.015835442 0.30500001 -2.8482038e+38
0.11012647 0.0159912 0.30800003 -2.821515e+38
0.11062513 0.0159912 0.30800003 -2.8082221e+38
0.1114846 0.016043119 0.30900002 -2.8215665e+38
0.11248519 0.016043119 0.30900002 -2.8482553e+38
0.11893241 0.016666152 0.32100001 -2.7282593e+38
0.11945213 0.016666152 0.32100001 -2.7416037e+38
0.12049156 0.016666152 0.32100001 -2.7416037e+38
0.12101128 0.016666152 0.32100001 -2.7549481e+38
0.121531 0.016666152 0.32100001 -2.7682929e+38
0.075448647 0.016650485 0.31100002 -2.9685645e+38
0.075707957 0.016596947 0.31 -2.9552201e+38
0.076464318 0.016543409 0.30900002 -2.9151869e+38
0.076466456 0.016436331 0.30700001 -2.9018425e+38
0.077460557 0.016436331 0.30700001 -2.8617577e+38
0.077957608 0.016436331 0.30700001 -2.8617577e+38
0.078454666 0.016436331 0.30700001 -2.8617577e+38
0.079189979 0.016382793 0.30600002 -2.8617577e+38
0.079685405 0.016382793 0.30600002 -2.8484133e+38
0.080180839 0.016382793 0.30600002 -2.8617577e+38
0.081171706 0.016382793 0.30600002 -2.8751021e+38
0.08166714 0.016382793 0.30600002 -2.901791e+38
0.082162574 0.016382793 0.30600002 -2.901791e+38
0.082658 0.016382793 0.30600002 -2.9151354e+38
0.083102144 0.016275717 0.30400002 -2.9018954e+38
0.08339189 0.015954485 0.29800001 -2.8617581e+38
0.083592907 0.015900947 0.29700002 -2.8617581e+38
0.084073775 0.015900947 0.29700002 -2.8751025e+38
0.085035495 0.015900947 0.29700002 -2.9017914e+38
0.085516356 0.015900947 0.29700002 -2.9284802e+38
0.085707664 0.015847407 0.296 -2.9418246e+38
0.086666144 0.015847407 0.296 -2.968513e+38
0.087145388 0.015847407 0.296 -2.9551686e+38
0.087508574 0.015740331 0.294 -2.9551686e+38
0.087685317 0.015686791 0.29300001 -2.9551686e+38
0.088159695 0.015686791 0.29300001 -2.9682528e+38
0.088804342 0.015633253 0.29200003 -2.9415639e+38
0.089277111 0.015633253 0.29200003 -2.9148751e+38
0.089749873 0.015633253 0.29200003 -2.9015307e+38
0.090384804 0.015579715 0.29100001 -2.8881863e+38
0.090855956 0.015579715 0.29100001 -2.8748419e+38
0.091327101 0.015579715 0.29100001 -2.8748934e+38
0.092269391 0.015579715 0.29100001 -2.8748934e+38
0.093059234 0.015633253 0.29200003 -2.861549e+38
0.093211688 0.015579715 0.29100001 -2.861549e+38
0.093682833 0.015579715 0.29100001 -2.861549e+38
0.09462513 0.015579715 0.29100001 -2.8482046e+38
0.095096275 0.015579715 0.29100001 -2.8482046e+38
0.095895827 0.015633253 0.29200003 -2.8482046e+38
0.096368596 0.015633253 0.29200003 -2.8482042e+38
0.097314127 0.015633253 0.29200003 -2.8482042e+38
0.097786896 0.015633253 0.29200003 -2.8482042e+38
0.098259658 0.015633253 0.29200003 -2.8483083e+38
0.099070549 0.015686791 0.29300001 -2.8349639e+38
0.10001932 0.015686791 0.29300001 -2.8349639e+38
0.10083669 0.015740331 0.294 -2.8483083e+38
0.10165729 0.015793869 0.29500002 -2.8349639e+38
