# .PCD v0.7 - Point Cloud Data file format
VERSION 0.7
FIELDS x y z rgb
SIZE 4 4 4 4
TYPE F F F F
COUNT 1 1 1 1
WIDTH 948
HEIGHT 1
VIEWPOINT 0 0 0 1 0 0 0
POINTS 948
DATA ascii
0.10340478 -0.010777252 0.31800002 -2.6479897e+38
0.10410608 -0.010743362 0.317 -2.6346453e+38
0.1042893 -0.01070947 0.31600001 -2.6346448e+38
0.10531255 -0.01070947 0.31600001 -2.688074e+38
0.10582417 -0.01070947 0.31600001 -2.688074e+38
0.10599929 -0.01067558 0.31500003 -2.688074e+38
0.1070193 -0.01067558 0.31500003 -2.7413472e+38
0.10718794 -0.010641688 0.31400001 -2.7413472e+38
0.10769633 -0.010641688 0.31400001 -2.7278985e+38
0.1087131 -0.010641688 0.31400001 -2.7412433e+38
0.10922148 -0.010641688 0.31400001 -2.7278989e+38
0.10972987 -0.010641688 0.31400001 -2.7278989e+38
0.11039393 -0.010607799 0.31300002 -2.7145541e+38
0.1109007 -0.010607799 0.31300002 -2.7012097e+38
0.11140747 -0.010607799 0.31300002 -2.6878649e+38
0.11206184 -0.010573907 0.31200001 -2.6478321e+38
0.11256699 -0.010573907 0.31200001 -2.6478321e+38
0.11270972 -0.010540017 0.31100002 -2.6478321e+38
0.11300432 -0.010336672 0.30500001 -2.6745213e+38
0.1136182 -0.010302782 0.30400002 -2.6878657e+38
0.11373504 -0.010268891 0.303 -2.6878657e+38
0.11422561 -0.010268891 0.303 -2.7012101e+38
0.11520676 -0.010268891 0.303 -2.6878653e+38
0.11569733 -0.010268891 0.303 -2.6478321e+38
0.11618791 -0.010268891 0.303 -2.6878653e+38
0.11667848 -0.010268891 0.303 -2.7143979e+38
0.11765964 -0.010268891 0.303 -2.7544307e+38
0.073675841 -0.0094233276 0.29200003 -2.5010947e+38
0.074148603 -0.0094233276 0.29200003 -2.5010947e+38
0.074621372 -0.0094233276 0.29200003 -2.5010432e+38
0.075566903 -0.0094233276 0.29200003 -2.4876988e+38
0.10209878 -0.010391477 0.32200003 -2.6346453e+38
0.10230143 -0.010359205 0.32100001 -2.6479897e+38
0.10282114 -0.010359205 0.32100001 -2.6346453e+38
0.10353702 -0.010326934 0.32000002 -2.6479897e+38
0.10372995 -0.010294663 0.31900001 -2.6479897e+38
0.1047629 -0.010294663 0.31900001 -2.6346453e+38
0.10494936 -0.010262391 0.31800002 -2.6346448e+38
0.1063358 -0.010197847 0.31600001 -2.688074e+38
0.1070193 -0.010165576 0.31500003 -2.7413472e+38
0.1075293 -0.010165576 0.31500003 -2.7413472e+38
0.10769633 -0.010133304 0.31400001 -2.7412429e+38
0.1087131 -0.010133304 0.31400001 -2.7412433e+38
0.10922148 -0.010133304 0.31400001 -2.7278989e+38
0.10972987 -0.010133304 0.31400001 -2.7278989e+38
0.11023825 -0.010133304 0.31400001 -2.7278989e+38
0.11125503 -0.010133304 0.31400001 -2.7145541e+38
0.11140747 -0.010101032 0.31300002 -2.6878653e+38
0.11191423 -0.010101032 0.31300002 -2.6745209e+38
0.11256699 -0.01006876 0.31200001 -2.6478321e+38
0.11270972 -0.010036489 0.31100002 -2.6478321e+38
0.11263381 -0.0098105874 0.30400002 -2.6745213e+38
0.11324446 -0.0097783161 0.303 -2.7012101e+38
0.11335967 -0.0097460439 0.30200002 -2.7145545e+38
0.11580445 -0.0097460439 0.30200002 -2.6745209e+38
0.11678236 -0.0097460439 0.30200002 -2.7277423e+38
0.11727131 -0.0097460439 0.30200002 -2.7410863e+38
0.087532669 -0.0099927504 0.32600001 -2.4076839e+38
0.088060483 -0.0099927504 0.32600001 -2.4076839e+38
0.088588297 -0.0099927504 0.32600001 -2.3943922e+38
0.089116111 -0.0099927504 0.32600001 -2.4077366e+38
0.090171739 -0.0099927504 0.32600001 -2.4211855e+38
0.090699553 -0.0099927504 0.32600001 -2.4478743e+38
0.091227368 -0.0099927504 0.32600001 -2.4745631e+38
0.092282996 -0.0099927504 0.32600001 -2.4879075e+38
0.09281081 -0.0099927504 0.32600001 -2.5012519e+38
0.093338624 -0.0099927504 0.32600001 -2.5145963e+38
0.093866438 -0.0099927504 0.32600001 -2.5412851e+38
0.094922066 -0.0099927504 0.32600001 -2.5412851e+38
0.09544988 -0.0099927504 0.32600001 -2.5412851e+38
0.095977694 -0.0099927504 0.32600001 -2.5546299e+38
0.097033322 -0.0099927504 0.32600001 -2.5679743e+38
0.097561136 -0.0099927504 0.32600001 -2.5813187e+38
0.09808895 -0.0099927504 0.32600001 -2.5812672e+38
0.098840453 -0.0099620977 0.32500002 -2.594612e+38
0.09936665 -0.0099620977 0.32500002 -2.6079564e+38
0.09989284 -0.0099620977 0.32500002 -2.6079568e+38
0.10063463 -0.0099314451 0.324 -2.6079568e+38
0.10084699 -0.0099007925 0.32300001 -2.6346457e+38
0.10136995 -0.0099007925 0.32300001 -2.6613341e+38
0.07273031 -0.0084777959 0.29200003 -2.7011553e+38
0.073423527 -0.0084487619 0.29100001 -2.4877503e+38
0.073894672 -0.0084487619 0.29100001 -2.5010947e+38
0.074621372 -0.0084777959 0.29200003 -2.4876988e+38
0.075566903 -0.0084777959 0.29200003 -2.4876988e+38
0.076039672 -0.0084777959 0.29200003 -2.46101e+38
0.076512434 -0.0084777959 0.29200003 -2.4876988e+38
0.089895144 -0.0094359033 0.32500002 -2.4211855e+38
0.090421334 -0.0094359033 0.32500002 -2.4478743e+38
0.090947531 -0.0094359033 0.32500002 -2.4612187e+38
0.091999918 -0.0094359033 0.32500002 -2.4879075e+38
0.092526115 -0.0094359033 0.32500002 -2.5012519e+38
0.093052313 -0.0094359033 0.32500002 -2.5145963e+38
0.0941047 -0.0094359033 0.32500002 -2.5145963e+38
0.094630897 -0.0094359033 0.32500002 -2.5412851e+38
0.095157087 -0.0094359033 0.32500002 -2.5546295e+38
0.095683284 -0.0094359033 0.32500002 -2.5546299e+38
0.096735671 -0.0094359033 0.32500002 -2.5679743e+38
0.097623959 -0.0093197683 0.32100001 -2.6079564e+38
0.098356031 -0.0092907352 0.32000002 -2.6346457e+38
0.098874129 -0.0092907352 0.32000002 -2.6479901e+38
0.099392228 -0.0092907352 0.32000002 -2.6079568e+38
0.10022255 -0.0093197683 0.32100001 -2.6346457e+38
0.10126199 -0.0093197683 0.32100001 -2.6479897e+38
0.1017817 -0.0093197683 0.32100001 -2.6346453e+38
0.10230143 -0.0093197683 0.32100001 -2.6479897e+38
0.10282114 -0.0093197683 0.32100001 -2.6346453e+38
0.10386058 -0.0093197683 0.32100001 -2.6613341e+38
0.10438029 -0.0093197683 0.32100001 -2.6479897e+38
0.10490002 -0.0093197683 0.32100001 -2.6479897e+38
0.10593946 -0.0093197683 0.32100001 -2.6880225e+38
0.10645916 -0.0093197683 0.32100001 -2.6746781e+38
0.10697889 -0.0093197683 0.32100001 -2.7014184e+38
0.10768182 -0.0092907352 0.32000002 -2.7014184e+38
0.10819992 -0.0092907352 0.32000002 -2.7281072e+38
0.10871802 -0.0092907352 0.32000002 -2.7281072e+38
0.10941123 -0.0092617022 0.31900001 -2.7546916e+38
0.11027232 -0.0092907352 0.32000002 -2.7146583e+38
0.11176341 -0.0091165341 0.31400001 -2.6612811e+38
0.11191423 -0.0090875002 0.31300002 -2.6479367e+38
0.11256699 -0.0090584662 0.31200001 -2.6212479e+38
0.11678236 -0.008768131 0.30200002 -2.7143979e+38
0.11727131 -0.008768131 0.30200002 -2.714449e+38
0.073423527 -0.007977616 0.29100001 -2.4877503e+38
0.073894672 -0.007977616 0.29100001 -2.5010947e+38
0.074621372 -0.0080050305 0.29200003 -2.4876988e+38
0.075566903 -0.0080050305 0.29200003 -2.4876988e+38
0.076039672 -0.0080050305 0.29200003 -2.46101e+38
0.076250404 -0.007977616 0.29100001 -2.4876988e+38
0.077192701 -0.007977616 0.29100001 -2.4610615e+38
0.077663846 -0.007977616 0.29100001 -2.4210283e+38
0.078134991 -0.007977616 0.29100001 -2.3810993e+38
0.078606136 -0.007977616 0.29100001 -2.3810993e+38
0.079548433 -0.007977616 0.29100001 -2.3945478e+38
0.080019578 -0.007977616 0.29100001 -2.4078407e+38
0.080767326 -0.0080050305 0.29200003 -2.4478739e+38
0.093815148 -0.0088822944 0.324 -2.5546295e+38
0.094339721 -0.0088822944 0.324 -2.5813187e+38
0.094864301 -0.0088822944 0.324 -2.5946631e+38
0.095913447 -0.0088822944 0.324 -2.5813187e+38
0.096140377 -0.0088548791 0.32300001 -2.5946631e+38
0.096801735 -0.0087726358 0.32000002 -2.6480408e+38
0.097015701 -0.0087452214 0.31900001 -2.6479893e+38
0.098048665 -0.0087452214 0.31900001 -2.6346453e+38
0.098874129 -0.0087726358 0.32000002 -2.6479897e+38
0.099392228 -0.0087726358 0.32000002 -2.621457e+38
0.10022255 -0.0088000502 0.32100001 -2.6081126e+38
0.10126199 -0.0088000502 0.32100001 -2.621457e+38
0.1017817 -0.0088000502 0.32100001 -2.5814238e+38
0.10230143 -0.0088000502 0.32100001 -2.621457e+38
0.10301892 -0.0087726358 0.32000002 -2.621457e+38
0.10386058 -0.0088000502 0.32100001 -2.6348014e+38
0.10438029 -0.0088000502 0.32100001 -2.621457e+38
0.10490002 -0.0088000502 0.32100001 -2.6348014e+38
0.10593946 -0.0088000502 0.32100001 -2.7013669e+38
0.10612752 -0.0087726358 0.32000002 -2.6880225e+38
0.10664562 -0.0087726358 0.32000002 -2.7013669e+38
0.10768182 -0.0087726358 0.32000002 -2.7281072e+38
0.10819992 -0.0087726358 0.32000002 -2.7281072e+38
0.10871802 -0.0087726358 0.32000002 -2.7281072e+38
0.10923612 -0.0087726358 0.32000002 -2.7414516e+38
0.11027232 -0.0087726358 0.32000002 -2.7281072e+38
0.11079042 -0.0087726358 0.32000002 -2.7146588e+38
0.11130852 -0.0087726358 0.32000002 -2.7146588e+38
0.11182661 -0.0087726358 0.32000002 -2.7146588e+38
0.10760948 -0.0080324449 0.29300001 -2.6212475e+38
0.10855825 -0.0080324449 0.29300001 -2.6612811e+38
0.10903264 -0.0080324449 0.29300001 -2.6879699e+38
0.10988076 -0.0080598593 0.294 -2.6879699e+38
0.11035676 -0.0080598593 0.294 -2.6746251e+38
0.11130877 -0.0080598593 0.294 -2.6745209e+38
0.112165 -0.0080872737 0.29500002 -2.6745209e+38
0.11302446 -0.008114689 0.296 -2.6478321e+38
0.072952382 -0.0075064688 0.29100001 -2.7146555e+38
0.073423527 -0.0075064688 0.29100001 -2.4877499e+38
0.073894672 -0.0075064688 0.29100001 -2.5010943e+38
0.074365817 -0.0075064688 0.29100001 -2.5010432e+38
0.075308114 -0.0075064688 0.29100001 -2.4876988e+38
0.076039672 -0.007532265 0.29200003 -2.46101e+38
0.076512434 -0.007532265 0.29200003 -2.4877503e+38
0.077192701 -0.0075064688 0.29100001 -2.4877503e+38
0.077663846 -0.0075064688 0.29100001 -2.4343727e+38
0.078606136 -0.0075064688 0.29100001 -2.3944433e+38
0.079548433 -0.0075064688 0.29100001 -2.4212362e+38
0.080019578 -0.0075064688 0.29100001 -2.4479254e+38
0.080490723 -0.0075064688 0.29100001 -2.501303e+38
0.081433021 -0.0075064688 0.29100001 -2.4881148e+38
0.082185626 -0.007532265 0.29200003 -2.5280965e+38
0.094339721 -0.0083577186 0.324 -2.6481969e+38
0.094571508 -0.0083319228 0.32300001 -2.6748858e+38
0.09649922 -0.0082287416 0.31900001 -2.7282634e+38
0.097015701 -0.0082287416 0.31900001 -2.7415563e+38
0.098048665 -0.0082287416 0.31900001 -2.7547445e+38
0.098874129 -0.0082545364 0.32000002 -2.7680889e+38
0.099392228 -0.0082545364 0.32000002 -2.7148675e+38
0.10022255 -0.0082803313 0.32100001 -2.7282119e+38
0.10094653 -0.0082545364 0.32000002 -2.6082163e+38
0.10146463 -0.0082545364 0.32000002 -2.6081122e+38
0.10198273 -0.0082545364 0.32000002 -2.6081122e+38
0.10301892 -0.0082545364 0.32000002 -2.621457e+38
0.10353702 -0.0082545364 0.32000002 -2.6348014e+38
0.10405512 -0.0082545364 0.32000002 -2.621457e+38
0.10457323 -0.0082545364 0.32000002 -2.6348014e+38
0.10560942 -0.0082545364 0.32000002 -2.7013669e+38
0.10612752 -0.0082545364 0.32000002 -2.6880225e+38
0.10664562 -0.0082545364 0.32000002 -2.7013669e+38
0.10768182 -0.0082545364 0.32000002 -2.7414001e+38
0.10819992 -0.0082545364 0.32000002 -2.7280557e+38
0.10871802 -0.0082545364 0.32000002 -2.7280557e+38
0.10923612 -0.0082545364 0.32000002 -2.7547445e+38
0.11027232 -0.0082545364 0.32000002 -2.7014184e+38
0.11079042 -0.0082545364 0.32000002 -2.7146588e+38
0.11130852 -0.0082545364 0.32000002 -2.7146588e+38
0.10760948 -0.0075580599 0.29300001 -2.6479367e+38
0.10855825 -0.0075580599 0.29300001 -2.6612811e+38
0.10940476 -0.0075838557 0.294 -2.6879699e+38
0.10988076 -0.0075838557 0.294 -2.6879699e+38
0.11035676 -0.0075838557 0.294 -2.6746251e+38
0.11130877 -0.0075838557 0.294 -2.7010535e+38
0.11178477 -0.0075838557 0.294 -2.7010535e+38
0.11264262 -0.007609651 0.29500002 -2.6743647e+38
0.11350369 -0.0076354467 0.296 -2.6610203e+38
0.11436802 -0.007661242 0.29700002 -2.6610203e+38
0.072952382 -0.0070353225 0.29100001 -2.8882885e+38
0.073423527 -0.0070353225 0.29100001 -2.5011458e+38
0.077663846 -0.0070353225 0.29100001 -2.4343723e+38
0.078134991 -0.0070353225 0.29100001 -2.4077877e+38
0.078606136 -0.0070353225 0.29100001 -2.4344765e+38
0.079548433 -0.0070353225 0.29100001 -2.4879582e+38
0.080019578 -0.0070353225 0.29100001 -2.514647e+38
0.080490723 -0.0070353225 0.29100001 -2.5680246e+38
0.081433021 -0.0070353225 0.29100001 -2.5815256e+38
0.081904165 -0.0070353225 0.29100001 -2.6082674e+38
0.074621372 -0.0065867333 0.29200003 -2.5010943e+38
0.075566903 -0.0065867333 0.29200003 -2.5010432e+38
0.076039672 -0.0065867333 0.29200003 -2.4876988e+38
0.076512434 -0.0065867333 0.29200003 -2.4876988e+38
0.076985203 -0.0065867333 0.29200003 -2.46101e+38
0.082658388 -0.0065867333 0.29200003 -2.6883338e+38
0.099183112 -0.0072408947 0.32100001 -2.8750003e+38
0.10001343 -0.0072634527 0.32200003 -2.8750518e+38
0.10022255 -0.0072408947 0.32100001 -2.9017407e+38
0.10126199 -0.0072408947 0.32100001 -2.8083298e+38
0.10146463 -0.0072183381 0.32000002 -2.7415563e+38
0.10198273 -0.0072183381 0.32000002 -2.6614898e+38
0.10301892 -0.0072183381 0.32000002 -2.6479893e+38
0.10353702 -0.0072183381 0.32000002 -2.6613337e+38
0.10405512 -0.0072183381 0.32000002 -2.6613337e+38
0.10457323 -0.0072183381 0.32000002 -2.6746785e+38
0.10560942 -0.0072183381 0.32000002 -2.7013669e+38
0.10612752 -0.0072183381 0.32000002 -2.7013669e+38
0.10664562 -0.0072183381 0.32000002 -2.7414001e+38
0.10768182 -0.0072183381 0.32000002 -2.7679849e+38
0.10819992 -0.0072183381 0.32000002 -2.7546405e+38
0.10871802 -0.0072183381 0.32000002 -2.7546405e+38
0.10923612 -0.0072183381 0.32000002 -2.7546405e+38
0.11027232 -0.0072183381 0.32000002 -2.741296e+38
0.11079042 -0.0072183381 0.32000002 -2.7413476e+38
0.11130852 -0.0072183381 0.32000002 -2.7146588e+38
0.10760948 -0.0066092904 0.29300001 -2.7012101e+38
0.10855825 -0.0066092904 0.29300001 -2.7013143e+38
0.10903264 -0.0066092904 0.29300001 -2.6879699e+38
0.10950702 -0.0066092904 0.29300001 -2.6879699e+38
0.11035676 -0.0066318484 0.294 -2.7012101e+38
0.11130877 -0.0066318484 0.294 -2.6745213e+38
0.11178477 -0.0066318484 0.294 -2.6478325e+38
0.11264262 -0.006654405 0.29500002 -2.6344881e+38
0.11350369 -0.0066769631 0.296 -2.6478325e+38
0.11398294 -0.0066769631 0.296 -2.6610199e+38
0.074148603 -0.0061139679 0.29200003 -2.9680946e+38
0.074621372 -0.0061139679 0.29200003 -2.6344333e+38
0.075566903 -0.0061139679 0.29200003 -2.5011458e+38
0.076039672 -0.0061139679 0.29200003 -2.5011458e+38
0.076512434 -0.0061139679 0.29200003 -2.4877499e+38
0.076985203 -0.0061139679 0.29200003 -2.4610611e+38
0.077930734 -0.0061139679 0.29200003 -2.5010947e+38
0.078134991 -0.0060930294 0.29100001 -2.5144391e+38
0.078606136 -0.0060930294 0.29100001 -2.5277835e+38
0.079548433 -0.0060930294 0.29100001 -2.6345384e+38
0.080019578 -0.0060930294 0.29100001 -2.6479874e+38
0.080490723 -0.0060930294 0.29100001 -2.6880206e+38
0.081433021 -0.0060930294 0.29100001 -2.701418e+38
0.081904165 -0.0060930294 0.29100001 -2.7015742e+38
0.08237531 -0.0060930294 0.29100001 -2.7149186e+38
0.082846463 -0.0060930294 0.29100001 -2.7416074e+38
0.083603919 -0.0061139679 0.29200003 -2.7549518e+38
0.099183112 -0.0067211762 0.32100001 -2.9415662e+38
0.10001343 -0.0067421151 0.32200003 -2.9282218e+38
0.10022255 -0.0067211762 0.32100001 -2.9415662e+38
0.10126199 -0.0067211762 0.32100001 -2.8881886e+38
0.1017817 -0.0067211762 0.32100001 -2.8481553e+38
0.10198273 -0.0067002387 0.32000002 -2.8081221e+38
0.10301892 -0.0067002387 0.32000002 -2.6746781e+38
0.10353702 -0.0067002387 0.32000002 -2.6746781e+38
0.10405512 -0.0067002387 0.32000002 -2.6746781e+38
0.10457323 -0.0067002387 0.32000002 -2.6746781e+38
0.10560942 -0.0067002387 0.32000002 -2.7146072e+38
0.10612752 -0.0067002387 0.32000002 -2.7546405e+38
0.10664562 -0.0067002387 0.32000002 -2.7679849e+38
0.10768182 -0.0067002387 0.32000002 -2.7945694e+38
0.10819992 -0.0067002387 0.32000002 -2.781225e+38
0.10871802 -0.0067002387 0.32000002 -2.7945694e+38
0.10923612 -0.0067002387 0.32000002 -2.7945694e+38
0.11027232 -0.0067002387 0.32000002 -2.7678806e+38
0.11079042 -0.0067002387 0.32000002 -2.741296e+38
0.11130852 -0.0067002387 0.32000002 -2.7146072e+38
0.10462956 -0.0060720914 0.29000002 -2.6612296e+38
0.10650767 -0.0060720914 0.29000002 -2.7145545e+38
0.10855825 -0.0061349059 0.29300001 -2.7278989e+38
0.10903264 -0.0061349059 0.29300001 -2.6879699e+38
0.10988076 -0.0061558438 0.294 -2.6879699e+38
0.11035676 -0.0061558438 0.294 -2.7012101e+38
0.11130877 -0.0061558438 0.294 -2.6745213e+38
0.11178477 -0.0061558438 0.294 -2.6478325e+38
0.11264262 -0.0061767823 0.29500002 -2.6344877e+38
0.11350369 -0.0061977208 0.296 -2.6478321e+38
0.11398294 -0.0061977208 0.296 -2.6610199e+38
0.074621372 -0.005641202 0.29200003 -3.0082324e+38
0.075566903 -0.005641202 0.29200003 -2.8481511e+38
0.076039672 -0.005641202 0.29200003 -2.9015287e+38
0.076512434 -0.005641202 0.29200003 -2.8081706e+38
0.076985203 -0.005641202 0.29200003 -2.6880709e+38
0.077930734 -0.005641202 0.29200003 -2.6213497e+38
0.078403495 -0.005641202 0.29200003 -2.5813165e+38
0.078876264 -0.005641202 0.29200003 -2.5946609e+38
0.079548433 -0.0056218831 0.29100001 -2.7146563e+38
0.080019578 -0.0056218831 0.29100001 -2.7147091e+38
0.080490723 -0.0056218831 0.29100001 -2.7147091e+38
0.081433021 -0.0056218831 0.29100001 -2.7546912e+38
0.081904165 -0.0056218831 0.29100001 -2.7547956e+38
0.08237531 -0.0056218831 0.29100001 -2.76814e+38
0.082846463 -0.0056218831 0.29100001 -2.7814844e+38
0.083788753 -0.0056218831 0.29100001 -2.8081736e+38
0.084549449 -0.005641202 0.29200003 -2.8081736e+38
0.092772856 -0.0059889471 0.31 -2.8483115e+38
0.093274765 -0.0059889471 0.31 -2.8748446e+38
0.098356031 -0.0061821393 0.32000002 -2.9282218e+38
0.099183112 -0.0062014582 0.32100001 -2.9415662e+38
0.099702828 -0.0062014582 0.32100001 -2.9415662e+38
0.10022255 -0.0062014582 0.32100001 -2.9415662e+38
0.10126199 -0.0062014582 0.32100001 -2.9282218e+38
0.10146463 -0.0061821393 0.32000002 -2.8881886e+38
0.10198273 -0.0061821393 0.32000002 -2.8748442e+38
0.10301892 -0.0061821393 0.32000002 -2.7280557e+38
0.10353702 -0.0061821393 0.32000002 -2.6880225e+38
0.10405512 -0.0061821393 0.32000002 -2.6880225e+38
0.10457323 -0.0061821393 0.32000002 -2.6880229e+38
0.10560942 -0.0061821393 0.32000002 -2.7280557e+38
0.10612752 -0.0061821393 0.32000002 -2.7414001e+38
0.10664562 -0.0061821393 0.32000002 -2.7679849e+38
0.10768182 -0.0061821393 0.32000002 -2.7945694e+38
0.10819992 -0.0061821393 0.32000002 -2.7945694e+38
0.10871802 -0.0061821393 0.32000002 -2.7945694e+38
0.10923612 -0.0061821393 0.32000002 -2.7945694e+38
0.11027232 -0.0061821393 0.32000002 -2.781225e+38
0.11079042 -0.0061821393 0.32000002 -2.7678806e+38
0.11165635 -0.0062014582 0.32100001 -2.7411918e+38
0.10462956 -0.0056025637 0.29000002 -2.674574e+38
0.10509909 -0.0056025637 0.29000002 -2.7011586e+38
0.10520459 -0.0055832444 0.289 -2.714503e+38
0.10650767 -0.0056025637 0.29000002 -2.714503e+38
0.10855825 -0.0056605209 0.29300001 -2.7412433e+38
0.10903264 -0.0056605209 0.29300001 -2.6879699e+38
0.10988076 -0.0056798402 0.294 -2.6879699e+38
0.11035676 -0.0056798402 0.294 -2.6878657e+38
0.11130877 -0.0056798402 0.294 -2.6745213e+38
0.112165 -0.0056991596 0.29500002 -2.6745213e+38
0.11264262 -0.0056991596 0.29500002 -2.6743643e+38
0.11350369 -0.0057184785 0.296 -2.7143975e+38
0.11398294 -0.0057184785 0.296 -2.7011042e+38
0.079821795 -0.0051684366 0.29200003 -2.9149258e+38
0.080019578 -0.0051507363 0.29100001 -2.9016859e+38
0.080490723 -0.0051507363 0.29100001 -2.8883415e+38
0.081433021 -0.0051507363 0.29100001 -2.7948795e+38
0.081904165 -0.0051507363 0.29100001 -2.7947244e+38
0.08237531 -0.0051507363 0.29100001 -2.8214132e+38
0.082846463 -0.0051507363 0.29100001 -2.8214136e+38
0.083788753 -0.0051507363 0.29100001 -2.8481028e+38
0.084259897 -0.0051507363 0.29100001 -2.8614472e+38
0.085022219 -0.0051684366 0.29200003 -2.8482069e+38
0.093274765 -0.0054870383 0.31 -2.8881886e+38
0.093776673 -0.0054870383 0.31 -2.9282218e+38
0.098048665 -0.0056463396 0.31900001 -2.9282218e+38
0.098565146 -0.0056463396 0.31900001 -2.9549106e+38
0.099081621 -0.0056463396 0.31900001 -2.9549106e+38
0.099910326 -0.0056640399 0.32000002 -2.9549106e+38
0.10094653 -0.0056640399 0.32000002 -2.9415662e+38
0.10146463 -0.0056640399 0.32000002 -2.9415662e+38
0.10198273 -0.0056640399 0.32000002 -2.901533e+38
0.10301892 -0.0056640399 0.32000002 -2.7814333e+38
0.10353702 -0.0056640399 0.32000002 -2.7013669e+38
0.10372995 -0.0056463396 0.31900001 -2.6880225e+38
0.1047629 -0.0056463396 0.31900001 -2.7013673e+38
0.10527939 -0.0056463396 0.31900001 -2.7414001e+38
0.10579587 -0.0056463396 0.31900001 -2.7547445e+38
0.10631235 -0.0056463396 0.31900001 -2.7679849e+38
0.10734531 -0.0056463396 0.31900001 -2.7945694e+38
0.10786179 -0.0056463396 0.31900001 -2.8079138e+38
0.10837827 -0.0056463396 0.31900001 -2.7945694e+38
0.10923612 -0.0056640399 0.32000002 -2.7945694e+38
0.11027232 -0.0056640399 0.32000002 -2.781225e+38
0.11079042 -0.0056640399 0.32000002 -2.7678806e+38
0.10462956 -0.0051330361 0.29000002 -2.6879184e+38
0.10509909 -0.0051330361 0.29000002 -2.674574e+38
0.10556862 -0.0051330361 0.29000002 -2.674574e+38
0.10650767 -0.0051330361 0.29000002 -2.6879184e+38
0.10855825 -0.0051861363 0.29300001 -2.7146588e+38
0.10903264 -0.0051861363 0.29300001 -2.7013143e+38
0.10988076 -0.0052038366 0.294 -2.7013143e+38
0.11035676 -0.0052038366 0.294 -2.7278985e+38
0.11130877 -0.0052038366 0.294 -2.7946716e+38
0.112165 -0.0052215364 0.29500002 -2.9014269e+38
0.11264262 -0.0052215364 0.29500002 -2.901478e+38
0.11350369 -0.0052392366 0.296 -2.9148224e+38
0.081904165 -0.0042084432 0.29100001 -3.1017483e+38
0.08237531 -0.0042084432 0.29100001 -3.0617151e+38
0.082846463 -0.0042084432 0.29100001 -3.0349748e+38
0.083788753 -0.0042084432 0.29100001 -2.8881352e+38
0.084259897 -0.0042084432 0.29100001 -2.8881352e+38
0.08473105 -0.0042084432 0.29100001 -2.8747916e+38
0.08549498 -0.0042229053 0.29200003 -2.888136e+38
0.10031561 -0.004598917 0.31800002 -2.9549621e+38
0.10114755 -0.004613379 0.31900001 -2.9416177e+38
0.10166402 -0.004613379 0.31900001 -2.9416177e+38
0.10269699 -0.004613379 0.31900001 -2.8882401e+38
0.10321347 -0.004613379 0.31900001 -2.8482069e+38
0.10372995 -0.004613379 0.31900001 -2.7948292e+38
0.1047629 -0.004613379 0.31900001 -2.7414001e+38
0.10494936 -0.004598917 0.31800002 -2.7414001e+38
0.10546422 -0.004598917 0.31800002 -2.7547445e+38
0.10649395 -0.004598917 0.31800002 -2.7813293e+38
0.10700881 -0.004598917 0.31800002 -2.7813293e+38
0.10752367 -0.004598917 0.31800002 -2.7813293e+38
0.10803853 -0.004598917 0.31800002 -2.7813293e+38
0.10941123 -0.004613379 0.31900001 -2.7945694e+38
0.11027232 -0.0046278411 0.32000002 -2.781225e+38
0.11079042 -0.0046278411 0.32000002 -2.7678806e+38
0.10556862 -0.0041939812 0.29000002 -2.7012628e+38
0.10650767 -0.0041939812 0.29000002 -2.7012628e+38
0.10818774 -0.0042229053 0.29200003 -2.7813808e+38
0.10903264 -0.0042373668 0.29300001 -2.9415644e+38
0.10988076 -0.0042518289 0.294 -2.9682532e+38
0.11035676 -0.0042518289 0.294 -3.0215772e+38
0.11130877 -0.0042518289 0.294 -3.0082328e+38
0.112165 -0.0042662909 0.29500002 -3.0215772e+38
0.11264262 -0.0042662909 0.29500002 -3.0614539e+38
0.11350369 -0.004280753 0.296 -3.0881427e+38
0.075351305 -0.0037629821 0.29300001 -3.0617147e+38
0.076774463 -0.0037629821 0.29300001 -3.0617147e+38
0.077248849 -0.0037629821 0.29300001 -3.0617147e+38
0.077723235 -0.0037629821 0.29300001 -3.0483703e+38
0.082846463 -0.0037372964 0.29100001 -3.1284371e+38
0.083788753 -0.0037372964 0.29100001 -3.0349748e+38
0.084259897 -0.0037372964 0.29100001 -2.9682528e+38
0.084439874 -0.0037244535 0.29000002 -2.90148e+38
0.08537893 -0.0037244535 0.29000002 -2.9014804e+38
0.086144485 -0.0037372964 0.29100001 -2.9014804e+38
0.10256636 -0.0040712128 0.317 -2.8748442e+38
0.10359284 -0.0040712128 0.317 -2.8348109e+38
0.10410608 -0.0040712128 0.317 -2.7680889e+38
0.10461933 -0.0040712128 0.317 -2.7679849e+38
0.10513257 -0.0040712128 0.317 -2.7679849e+38
0.10615905 -0.0040712128 0.317 -2.7813293e+38
0.1066723 -0.0040712128 0.317 -2.7813293e+38
0.10718554 -0.0040712128 0.317 -2.7813293e+38
0.10821202 -0.0040712128 0.317 -2.7679849e+38
0.10906825 -0.0040840558 0.31800002 -2.7945694e+38
0.10992771 -0.0040968987 0.31900001 -2.781225e+38
0.10593265 -0.0037372964 0.29100001 -2.7146072e+38
0.10650767 -0.0037244535 0.29000002 -2.7146072e+38
0.10855825 -0.0037629821 0.29300001 -2.9148244e+38
0.10940476 -0.003775825 0.294 -3.008286e+38
0.10988076 -0.003775825 0.294 -3.008286e+38
0.112165 -0.003788668 0.29500002 -3.0214207e+38
0.11264262 -0.003788668 0.29500002 -3.0480054e+38
0.11350369 -0.0038015111 0.296 -3.0480054e+38
0.11398294 -0.0038015111 0.296 -3.0480569e+38
0.074656472 -0.0032998212 0.294 -3.0617147e+38
0.075132474 -0.0032998212 0.294 -3.0483703e+38
0.075608477 -0.0032998212 0.294 -3.0350259e+38
0.076300077 -0.0032885976 0.29300001 -3.0350259e+38
0.076774463 -0.0032885976 0.29300001 -3.0083371e+38
0.077248849 -0.0032885976 0.29300001 -3.0083371e+38
0.077723235 -0.0032885976 0.29300001 -2.9949927e+38
0.078671999 -0.0032885976 0.29300001 -3.0350259e+38
0.079146385 -0.0032885976 0.29300001 -3.0350259e+38
0.079821795 -0.0032773735 0.29200003 -3.0483703e+38
0.080294557 -0.0032773735 0.29200003 -3.0483707e+38
0.080767326 -0.0032773735 0.29200003 -3.0750595e+38
0.081240095 -0.0032773735 0.29200003 -3.0750595e+38
0.081904165 -0.0032661497 0.29100001 -3.1550217e+38
0.08237531 -0.0032661497 0.29100001 -3.1550217e+38
0.082846463 -0.0032661497 0.29100001 -3.1284371e+38
0.083788753 -0.0032661497 0.29100001 -3.1017483e+38
0.083970346 -0.0032549258 0.29000002 -3.0884039e+38
0.084439874 -0.0032549258 0.29000002 -3.008286e+38
0.084072284 -0.0031875826 0.28400001 -2.9014796e+38
0.10377768 -0.0035467464 0.31600001 -2.8348109e+38
0.10461933 -0.0035579705 0.317 -2.7947777e+38
0.10513257 -0.0035579705 0.317 -2.7814333e+38
0.10615905 -0.0035579705 0.317 -2.7813293e+38
0.1066723 -0.0035579705 0.317 -2.7813293e+38
0.10684742 -0.0035467464 0.31600001 -2.7946737e+38
0.10787067 -0.0035467464 0.31600001 -2.7679849e+38
0.10872526 -0.0035579705 0.317 -2.8079138e+38
0.10380086 -0.003243702 0.289 -2.6879184e+38
0.10462956 -0.0032549258 0.29000002 -2.7012628e+38
0.10509909 -0.0032549258 0.29000002 -2.741296e+38
0.10556862 -0.0032549258 0.29000002 -2.741296e+38
0.1061404 -0.003243702 0.289 -2.7813808e+38
0.10855825 -0.0032885976 0.29300001 -2.994942e+38
0.10940476 -0.0032998212 0.294 -3.0350259e+38
0.10988076 -0.0032998212 0.294 -3.0350259e+38
0.11120976 -0.0033110452 0.29500002 -3.0082324e+38
0.112165 -0.0033110452 0.29500002 -2.968043e+38
0.11302446 -0.0033222691 0.296 -2.9812834e+38
0.11350369 -0.0033222691 0.296 -3.0079722e+38
0.075132474 -0.0028238175 0.294 -3.0083371e+38
0.075608477 -0.0028238175 0.294 -3.0083371e+38
0.076084487 -0.0028238175 0.294 -3.0083371e+38
0.077036493 -0.0028238175 0.294 -2.9816483e+38
0.077512495 -0.0028238175 0.294 -2.9816483e+38
0.077988498 -0.0028238175 0.294 -2.9683039e+38
0.078940511 -0.0028238175 0.294 -2.9949927e+38
0.079146385 -0.0028142128 0.29300001 -2.9816483e+38
0.079620771 -0.0028142128 0.29300001 -2.9949931e+38
0.080294557 -0.0028046079 0.29200003 -2.9949416e+38
0.080767326 -0.0028046079 0.29200003 -3.008286e+38
0.081240095 -0.0028046079 0.29200003 -3.0483192e+38
0.082185626 -0.0028046079 0.29200003 -3.114937e+38
0.08237531 -0.0027950031 0.29100001 -3.1282814e+38
0.082846463 -0.0027950031 0.29100001 -3.1017483e+38
0.083788753 -0.0027950031 0.29100001 -3.1017483e+38
0.083680794 -0.0027757934 0.289 -3.1284371e+38
0.08377625 -0.0027181644 0.28300002 -2.9015307e+38
0.084532097 -0.0027277693 0.28400001 -2.90148e+38
0.08499191 -0.0027277693 0.28400001 -2.90148e+38
0.085609026 -0.0027181644 0.28300002 -2.9148248e+38
0.086371347 -0.0027277693 0.28400001 -2.9148248e+38
0.086831167 -0.0027277693 0.28400001 -2.9148248e+38
0.10380086 -0.0027757934 0.289 -2.6879184e+38
0.10426877 -0.0027757934 0.289 -2.7146072e+38
0.10473668 -0.0027757934 0.289 -2.754692e+38
0.10520459 -0.0027757934 0.289 -2.754692e+38
0.1061404 -0.0027757934 0.289 -2.821414e+38
0.10855825 -0.0028142128 0.29300001 -3.0349748e+38
0.11073213 -0.0028334223 0.29500002 -2.994888e+38
0.11120976 -0.0028334223 0.29500002 -2.9681992e+38
0.112165 -0.0028334223 0.29500002 -2.9412502e+38
0.11302446 -0.0028430272 0.296 -2.9413017e+38
0.11350369 -0.0028430272 0.296 -2.9413017e+38
0.1042893 -0.0025235005 0.31600001 -2.9148248e+38
0.10531255 -0.0025235005 0.31600001 -2.9015845e+38
0.10582417 -0.0025235005 0.31600001 -2.9816509e+38
0.1063358 -0.0025235005 0.31600001 -2.861707e+38
0.10684742 -0.0025235005 0.31600001 -2.8750514e+38
0.074432783 -0.0018781766 0.29500002 -3.021786e+38
0.075388029 -0.0018781766 0.29500002 -2.9684083e+38
0.075865649 -0.0018781766 0.29500002 -2.9684083e+38
0.076343276 -0.0018781766 0.29500002 -2.9550639e+38
0.077298522 -0.0018781766 0.29500002 -2.9417195e+38
0.077776141 -0.0018781766 0.29500002 -2.9283751e+38
0.078253768 -0.0018781766 0.29500002 -2.9283751e+38
0.078940511 -0.0018718098 0.294 -2.9016863e+38
0.079416513 -0.0018718098 0.294 -2.9283751e+38
0.079620771 -0.0018654433 0.29300001 -2.9283236e+38
0.080569543 -0.0018654433 0.29300001 -2.9682528e+38
0.080767326 -0.0018590766 0.29200003 -2.9682528e+38
0.081240095 -0.0018590766 0.29200003 -2.9815972e+38
0.082185626 -0.0018590766 0.29200003 -3.008286e+38
0.08237531 -0.0018527098 0.29100001 -3.0483192e+38
0.082846463 -0.0018527098 0.29100001 -3.0483192e+38
0.083788753 -0.0018527098 0.29100001 -3.0750595e+38
0.083970346 -0.0018463433 0.29000002 -3.0884039e+38
0.08377625 -0.0018017762 0.28300002 -3.0749553e+38
0.084234446 -0.0018017762 0.28300002 -2.9948373e+38
0.08515083 -0.0018017762 0.28300002 -2.9280642e+38
0.085609026 -0.0018017762 0.28300002 -2.9280642e+38
0.086067222 -0.0018017762 0.28300002 -2.9280646e+38
0.086525418 -0.0018017762 0.28300002 -2.941409e+38
0.087441802 -0.0018017762 0.28300002 -2.9414094e+38
0.087899998 -0.0018017762 0.28300002 -2.9680982e+38
0.088358194 -0.0018017762 0.28300002 -2.9414094e+38
0.089274578 -0.0018017762 0.28300002 -2.9415136e+38
0.10380086 -0.0018399765 0.289 -2.7546405e+38
0.10426877 -0.0018399765 0.289 -2.741296e+38
0.10473668 -0.0018399765 0.289 -2.754692e+38
0.10520459 -0.0018399765 0.289 -2.7680364e+38
0.1061404 -0.0018399765 0.289 -2.8614468e+38
0.11025451 -0.0018781766 0.29500002 -2.9949923e+38
0.11073213 -0.0018781766 0.29500002 -2.9415104e+38
0.11120976 -0.0018781766 0.29500002 -2.9014772e+38
0.11206597 -0.0018845433 0.296 -2.9147165e+38
0.11302446 -0.0018845433 0.296 -2.8746833e+38
0.073726609 -0.0014053015 0.296 -3.0351304e+38
0.074205853 -0.0014053015 0.296 -3.021786e+38
0.074432783 -0.0014005537 0.29500002 -3.021786e+38
0.075388029 -0.0014005537 0.29500002 -2.9684083e+38
0.075865649 -0.0014005537 0.29500002 -2.9684083e+38
0.076343276 -0.0014005537 0.29500002 -2.9550639e+38
0.077081308 -0.0014053015 0.296 -2.9283751e+38
0.077776141 -0.0014005537 0.29500002 -2.9283751e+38
0.078253768 -0.0014005537 0.29500002 -2.8883419e+38
0.078731388 -0.0014005537 0.29500002 -2.9283751e+38
0.079416513 -0.0013958062 0.294 -2.9016348e+38
0.079620771 -0.0013910586 0.29300001 -2.9016348e+38
0.080569543 -0.0013910586 0.29300001 -2.9549084e+38
0.080767326 -0.0013863109 0.29200003 -2.9549084e+38
0.081240095 -0.0013863109 0.29200003 -2.9815972e+38
0.082185626 -0.0013863109 0.29200003 -2.994942e+38
0.082658388 -0.0013863109 0.29200003 -2.994942e+38
0.082846463 -0.0013815633 0.29100001 -3.0349752e+38
0.083788753 -0.0013815633 0.29100001 -3.0617151e+38
0.083970346 -0.0013768156 0.29000002 -3.0617151e+38
0.08377625 -0.0013435821 0.28300002 -3.1415211e+38
0.084234446 -0.0013435821 0.28300002 -3.0615593e+38
0.08515083 -0.0013435821 0.28300002 -2.9414601e+38
0.085609026 -0.0013435821 0.28300002 -2.9281157e+38
0.086067222 -0.0013435821 0.28300002 -2.9280646e+38
0.086525418 -0.0013435821 0.28300002 -2.9280646e+38
0.087441802 -0.0013435821 0.28300002 -2.9414094e+38
0.087899998 -0.0013435821 0.28300002 -2.9680982e+38
0.088358194 -0.0013435821 0.28300002 -2.9414094e+38
0.089274578 -0.0013435821 0.28300002 -2.9415136e+38
0.089732774 -0.0013435821 0.28300002 -2.9148248e+38
0.090190969 -0.0013435821 0.28300002 -2.9415136e+38
0.090649165 -0.0013435821 0.28300002 -2.9147733e+38
0.091565549 -0.0013435821 0.28300002 -2.9147733e+38
0.092023745 -0.0013435821 0.28300002 -2.9147733e+38
0.092481941 -0.0013435821 0.28300002 -2.9415136e+38
0.10286505 -0.0013720681 0.289 -2.8081221e+38
0.10380086 -0.0013720681 0.289 -2.8081221e+38
0.10426877 -0.0013720681 0.289 -2.7947777e+38
0.10473668 -0.0013720681 0.289 -2.8081736e+38
0.10520459 -0.0013720681 0.289 -2.7814848e+38
0.10577314 -0.0013673203 0.28800002 -2.8614468e+38
0.11110749 -0.0014053015 0.296 -2.9281664e+38
0.11158673 -0.0014053015 0.296 -2.8747888e+38
0.11206597 -0.0014053015 0.296 -2.8481507e+38
0.1134063 -0.0014100492 0.29700002 -2.8214619e+38
0.073726609 -0.00092605955 0.296 -3.0351304e+38
0.074205853 -0.00092605955 0.296 -3.021786e+38
0.074685097 -0.00092605955 0.296 -2.9950971e+38
0.075643584 -0.00092605955 0.296 -2.9684083e+38
0.07612282 -0.00092605955 0.296 -2.9550639e+38
0.076602064 -0.00092605955 0.296 -2.9417195e+38
0.077081308 -0.00092605955 0.296 -2.9283751e+38
0.078039788 -0.00092605955 0.296 -2.9016863e+38
0.078253768 -0.00092293089 0.29500002 -2.9015822e+38
0.078731388 -0.00092293089 0.29500002 -2.9149267e+38
0.079416513 -0.00091980241 0.294 -2.9148751e+38
0.079620771 -0.00091667386 0.29300001 -2.9015307e+38
0.080569543 -0.00091667386 0.29300001 -2.9415639e+38
0.081043929 -0.00091667386 0.29300001 -2.9549084e+38
0.081240095 -0.0009135452 0.29200003 -2.9682528e+38
0.082185626 -0.0009135452 0.29200003 -2.9815976e+38
0.082658388 -0.0009135452 0.29200003 -2.9815976e+38
0.082846463 -0.00091041659 0.29100001 -3.0082864e+38
0.083788753 -0.00091041659 0.29100001 -3.0483707e+38
0.083445452 -0.00089164521 0.28500003 -3.1281767e+38
0.08377625 -0.00088538794 0.28300002 -3.1548655e+38
0.084234446 -0.00088538794 0.28300002 -3.1016441e+38
0.08515083 -0.00088538794 0.28300002 -2.9814929e+38
0.085609026 -0.00088538794 0.28300002 -2.9281153e+38
0.086067222 -0.00088538794 0.28300002 -2.9280646e+38
0.086525418 -0.00088538794 0.28300002 -2.9280646e+38
0.087441802 -0.00088538794 0.28300002 -2.9414094e+38
0.087899998 -0.00088538794 0.28300002 -2.9680982e+38
0.088358194 -0.00088538794 0.28300002 -2.928065e+38
0.089274578 -0.00088538794 0.28300002 -2.9415136e+38
0.089732774 -0.00088538794 0.28300002 -2.9015845e+38
0.090190969 -0.00088538794 0.28300002 -2.9015845e+38
0.090649165 -0.00088538794 0.28300002 -2.9148248e+38
0.091565549 -0.00088538794 0.28300002 -2.9415136e+38
0.092023745 -0.00088538794 0.28300002 -2.9148248e+38
0.092481941 -0.00088538794 0.28300002 -2.9415136e+38
0.092940137 -0.00088538794 0.28300002 -2.9415136e+38
0.093856521 -0.00088538794 0.28300002 -2.9815469e+38
0.094314717 -0.00088538794 0.28300002 -2.9816509e+38
0.094772913 -0.00088538794 0.28300002 -2.9816509e+38
0.095351174 -0.0008822594 0.28200001 -2.9417735e+38
0.095807746 -0.0008822594 0.28200001 -2.9417735e+38
0.096264325 -0.0008822594 0.28200001 -2.9551179e+38
0.097177476 -0.0008822594 0.28200001 -2.9417735e+38
0.097634047 -0.0008822594 0.28200001 -2.9150851e+38
0.098090626 -0.0008822594 0.28200001 -2.9017407e+38
0.098547198 -0.0008822594 0.28200001 -2.9282733e+38
0.099460348 -0.0008822594 0.28200001 -2.9282733e+38
0.099916928 -0.0008822594 0.28200001 -2.9416177e+38
0.1003735 -0.0008822594 0.28200001 -2.9416177e+38
0.10118763 -0.00088538794 0.28300002 -2.9416177e+38
0.10380086 -0.0009041595 0.289 -2.9015845e+38
0.10426877 -0.0009041595 0.289 -2.9015845e+38
0.10509909 -0.00090728805 0.29000002 -2.9416177e+38
0.10520459 -0.0009041595 0.289 -2.9416177e+38
0.10577314 -0.0009010309 0.28800002 -2.8348616e+38
0.11025451 -0.00092293089 0.29500002 -3.0215768e+38
0.11110749 -0.00092605955 0.296 -2.9413542e+38
0.11158673 -0.00092605955 0.296 -2.8746322e+38
0.11206597 -0.00092605955 0.296 -2.8348063e+38
0.07397569 3.2533837e-05 0.29700002 -3.021786e+38
0.07445655 3.2533837e-05 0.29700002 -2.9950971e+38
0.074937411 3.2533837e-05 0.29700002 -2.9950971e+38
0.075418271 3.2533837e-05 0.29700002 -2.9817527e+38
0.076379992 3.2533837e-05 0.29700002 -2.9550639e+38
0.076860853 3.2533837e-05 0.29700002 -2.9417195e+38
0.077081308 3.2424297e-05 0.296 -2.9283751e+38
0.078039788 3.2424297e-05 0.296 -2.9149267e+38
0.078519031 3.2424297e-05 0.296 -2.9015822e+38
0.078731388 3.2314754e-05 0.29500002 -2.9015822e+38
0.079686634 3.2314754e-05 0.29500002 -2.9148751e+38
0.079892516 3.2205211e-05 0.294 -2.9015307e+38
0.080368519 3.2205211e-05 0.294 -2.9148751e+38
0.081043929 3.2095671e-05 0.29300001 -2.9415639e+38
0.081518315 3.2095671e-05 0.29300001 -2.9549084e+38
0.081992693 3.2095671e-05 0.29300001 -2.9682528e+38
0.082658388 3.1986128e-05 0.29200003 -2.9815976e+38
0.083131157 3.1986128e-05 0.29200003 -2.9815976e+38
0.083788753 3.1876589e-05 0.29100001 -2.9949416e+38
0.083612472 3.1109797e-05 0.28400001 -3.0614547e+38
0.08377625 3.1000254e-05 0.28300002 -3.1281767e+38
0.084234446 3.1000254e-05 0.28300002 -3.1414696e+38
0.08515083 3.1000254e-05 0.28300002 -3.0749553e+38
0.085609026 3.1000254e-05 0.28300002 -3.0082332e+38
0.086067222 3.1000254e-05 0.28300002 -2.9681485e+38
0.086525418 3.1000254e-05 0.28300002 -2.9281153e+38
0.087441802 3.1000254e-05 0.28300002 -2.914824e+38
0.087899998 3.1000254e-05 0.28300002 -2.9415132e+38
0.088358194 3.1000254e-05 0.28300002 -2.90148e+38
0.089274578 3.1000254e-05 0.28300002 -2.9282733e+38
0.089732774 3.1000254e-05 0.28300002 -2.9015845e+38
0.090190969 3.1000254e-05 0.28300002 -2.9015845e+38
0.090649165 3.1000254e-05 0.28300002 -2.9415136e+38
0.091565549 3.1000254e-05 0.28300002 -2.9415136e+38
0.092023745 3.1000254e-05 0.28300002 -2.9415136e+38
0.092481941 3.1000254e-05 0.28300002 -2.9415136e+38
0.092940137 3.1000254e-05 0.28300002 -2.9415136e+38
0.093856521 3.1000254e-05 0.28300002 -2.9815469e+38
0.094314717 3.1000254e-05 0.28300002 -2.9683065e+38
0.094772913 3.1000254e-05 0.28300002 -2.9683065e+38
0.095689297 3.1000254e-05 0.28300002 -2.9549621e+38
0.095807746 3.0890715e-05 0.28200001 -2.9549617e+38
0.096264325 3.0890715e-05 0.28200001 -2.9683061e+38
0.097177476 3.0890715e-05 0.28200001 -2.9683061e+38
0.097634047 3.0890715e-05 0.28200001 -2.9683065e+38
0.098090626 3.0890715e-05 0.28200001 -2.9549621e+38
0.098547198 3.0890715e-05 0.28200001 -2.9683065e+38
0.099460348 3.0890715e-05 0.28200001 -2.9816509e+38
0.099916928 3.0890715e-05 0.28200001 -2.9816509e+38
0.1003735 3.0890715e-05 0.28200001 -2.9816509e+38
0.10118763 3.1000254e-05 0.28300002 -2.9949953e+38
0.10390798 3.1547963e-05 0.28800002 -2.9949953e+38
0.10473668 3.1657506e-05 0.289 -3.0216837e+38
0.10530685 3.1547963e-05 0.28800002 -2.8614979e+38
0.10577314 3.1547963e-05 0.28800002 -2.8081203e+38
0.11158673 3.2424297e-05 0.296 -2.8746833e+38
0.11206597 3.2424297e-05 0.296 -2.8081179e+38
0.1134063 3.2533837e-05 0.29700002 -2.7947731e+38
0.07397569 0.00051339483 0.29700002 -3.021786e+38
0.07445655 0.00051339483 0.29700002 -2.9950971e+38
0.074937411 0.00051339483 0.29700002 -2.9950971e+38
0.075418271 0.00051339483 0.29700002 -2.9817527e+38
0.076379992 0.00051339483 0.29700002 -2.9550639e+38
0.076860853 0.00051339483 0.29700002 -2.9417195e+38
0.077341713 0.00051339483 0.29700002 -2.9016863e+38
0.077822581 0.00051339483 0.29700002 -2.9149267e+38
0.078519031 0.00051166624 0.296 -2.9015822e+38
0.078998275 0.00051166624 0.296 -2.9015822e+38
0.079686634 0.00050993758 0.29500002 -2.9015307e+38
0.080164261 0.00050993758 0.29500002 -2.9015307e+38
0.080368519 0.00050820899 0.294 -2.9148751e+38
0.081320524 0.00050820899 0.294 -2.9148751e+38
0.081796527 0.00050820899 0.294 -2.9549084e+38
0.081992693 0.0005064804 0.29300001 -2.9549084e+38
0.082941465 0.0005064804 0.29300001 -2.9815976e+38
0.083131157 0.00050475181 0.29200003 -2.9815976e+38
0.083788753 0.00050302321 0.29100001 -2.9815972e+38
0.083612472 0.000490923 0.28400001 -3.0215261e+38
0.08377625 0.00048919441 0.28300002 -3.0749038e+38
0.084234446 0.00048919441 0.28300002 -3.1015926e+38
0.08515083 0.00048919441 0.28300002 -3.1016441e+38
0.085609026 0.00048919441 0.28300002 -3.0749553e+38
0.086067222 0.00048919441 0.28300002 -3.0082332e+38
0.086525418 0.00048919441 0.28300002 -2.9415112e+38
0.087441802 0.00048919441 0.28300002 -2.9681489e+38
0.087899998 0.00048919441 0.28300002 -2.9415132e+38
0.088358194 0.00048919441 0.28300002 -2.9148244e+38
0.089274578 0.00048919441 0.28300002 -2.9015845e+38
0.089732774 0.00048919441 0.28300002 -2.9015845e+38
0.090190969 0.00048919441 0.28300002 -2.9015845e+38
0.090649165 0.00048919441 0.28300002 -2.9148248e+38
0.091565549 0.00048919441 0.28300002 -2.9415136e+38
0.092023745 0.00048919441 0.28300002 -2.9415136e+38
0.092481941 0.00048919441 0.28300002 -2.9415136e+38
0.092940137 0.00048919441 0.28300002 -2.9415136e+38
0.093856521 0.00048919441 0.28300002 -2.9682025e+38
0.094314717 0.00048919441 0.28300002 -2.9683065e+38
0.094772913 0.00048919441 0.28300002 -2.9683065e+38
0.095689297 0.00048919441 0.28300002 -2.9549621e+38
0.095807746 0.00048746579 0.28200001 -2.9549621e+38
0.096264325 0.00048746579 0.28200001 -2.9683065e+38
0.097177476 0.00048746579 0.28200001 -2.9683061e+38
0.097634047 0.00048746579 0.28200001 -2.9683065e+38
0.098090626 0.00048746579 0.28200001 -2.9683065e+38
0.098547198 0.00048746579 0.28200001 -2.9683065e+38
0.099460348 0.00048746579 0.28200001 -2.9816509e+38
0.099916928 0.00048746579 0.28200001 -2.9816509e+38
0.10072944 0.00048919441 0.28300002 -2.9949953e+38
0.10118763 0.00048919441 0.28300002 -2.9949953e+38
0.10272335 0.00049438019 0.28600001 -3.0216841e+38
0.10426877 0.00049956597 0.289 -3.0216841e+38
0.10437427 0.00049783738 0.28800002 -3.0216841e+38
0.10530685 0.00049783738 0.28800002 -2.8480493e+38
0.10577314 0.00049783738 0.28800002 -2.808016e+38
0.11244458 0.00051339483 0.29700002 -2.8214623e+38
0.1134063 0.00051339483 0.29700002 -2.7947735e+38
0.07397569 0.00099425577 0.29700002 -2.9685645e+38
0.07445655 0.00099425577 0.29700002 -2.9685645e+38
0.074937411 0.00099425577 0.29700002 -2.9552201e+38
0.075418271 0.00099425577 0.29700002 -2.9418757e+38
0.076379992 0.00099425577 0.29700002 -2.9417195e+38
0.076860853 0.00099425577 0.29700002 -2.9417195e+38
0.077341713 0.00099425577 0.29700002 -2.9016863e+38
0.077822581 0.00099425577 0.29700002 -2.8883419e+38
0.078784302 0.00099425577 0.29700002 -2.8883419e+38
0.079265162 0.00099425577 0.29700002 -2.8749975e+38
0.079956762 0.00099090813 0.296 -2.8883419e+38
0.080164261 0.00098756049 0.29500002 -2.8882904e+38
0.080641881 0.00098756049 0.29500002 -2.9016348e+38
0.081597127 0.00098756049 0.29500002 -2.9283236e+38
0.082074746 0.00098756049 0.29500002 -2.9550124e+38
0.082272537 0.00098421285 0.294 -2.941668e+38
0.082941465 0.00098086509 0.29300001 -2.9683572e+38
0.083131157 0.00097751745 0.29200003 -2.9683572e+38
0.083788753 0.00097416987 0.29100001 -2.9682528e+38
0.083445452 0.00095408381 0.28500003 -2.9549084e+38
0.084072284 0.00095073617 0.28400001 -3.008286e+38
0.084234446 0.00094738859 0.28300002 -3.0749038e+38
0.08515083 0.00094738859 0.28300002 -3.0884039e+38
0.085609026 0.00094738859 0.28300002 -3.1017483e+38
0.086067222 0.00094738859 0.28300002 -3.0483703e+38
0.086525418 0.00094738859 0.28300002 -2.9683039e+38
0.087441802 0.00094738859 0.28300002 -2.9682e+38
0.087899998 0.00094738859 0.28300002 -2.9415128e+38
0.088358194 0.00094738859 0.28300002 -2.914824e+38
0.089274578 0.00094738859 0.28300002 -2.9415132e+38
0.089732774 0.00094738859 0.28300002 -2.9015841e+38
0.090190969 0.00094738859 0.28300002 -2.9015841e+38
0.090649165 0.00094738859 0.28300002 -2.9148244e+38
0.091565549 0.00094738859 0.28300002 -2.9415132e+38
0.092023745 0.00094738859 0.28300002 -2.9415132e+38
0.092481941 0.00094738859 0.28300002 -2.9415136e+38
0.092940137 0.00094738859 0.28300002 -2.9415136e+38
0.093856521 0.00094738859 0.28300002 -2.9682025e+38
0.094314717 0.00094738859 0.28300002 -2.9683065e+38
0.094772913 0.00094738859 0.28300002 -2.9683065e+38
0.095689297 0.00094738859 0.28300002 -2.9549621e+38
0.095807746 0.00094404083 0.28200001 -2.9549621e+38
0.096264325 0.00094404083 0.28200001 -2.9683065e+38
0.097177476 0.00094404083 0.28200001 -2.9683065e+38
0.097634047 0.00094404083 0.28200001 -2.9549621e+38
0.098090626 0.00094404083 0.28200001 -2.9683065e+38
0.098547198 0.00094404083 0.28200001 -2.9683065e+38
0.099460348 0.00094404083 0.28200001 -2.9816509e+38
0.099916928 0.00094404083 0.28200001 -2.9816509e+38
0.10072944 0.00094738859 0.28300002 -2.9949953e+38
0.10118763 0.00094738859 0.28300002 -2.9949953e+38
0.10236418 0.00095408381 0.28500003 -3.0216841e+38
0.10328704 0.00095408381 0.28500003 -3.0216841e+38
0.10374847 0.00095408381 0.28500003 -2.9949953e+38
0.1042099 0.00095408381 0.28500003 -2.8612375e+38
0.11244458 0.00099425577 0.29700002 -2.8214619e+38
0.1134063 0.00099425577 0.29700002 -2.8081179e+38
0.07397569 0.0014751167 0.29700002 -2.9685645e+38
0.074707247 0.0014800834 0.29800001 -2.9685645e+38
0.075189725 0.0014800834 0.29800001 -2.9552201e+38
0.075672202 0.0014800834 0.29800001 -2.9418757e+38
0.076154687 0.0014800834 0.29800001 -2.9151869e+38
0.077119648 0.0014800834 0.29800001 -2.9151869e+38
0.077602126 0.0014800834 0.29800001 -2.8751537e+38
0.077822581 0.0014751167 0.29700002 -2.8883419e+38
0.078784302 0.0014751167 0.29700002 -2.8883419e+38
0.079265162 0.0014751167 0.29700002 -2.8749975e+38
0.079746023 0.0014751167 0.29700002 -2.874946e+38
0.080435999 0.0014701501 0.296 -2.8882904e+38
0.080915242 0.0014701501 0.296 -2.8882904e+38
0.081394486 0.0014701501 0.296 -2.9283236e+38
0.082074746 0.0014651833 0.29500002 -2.941668e+38
0.082552373 0.0014651833 0.29500002 -2.941668e+38
0.083224542 0.0014602166 0.294 -2.9550124e+38
0.083415851 0.0014552498 0.29300001 -2.9550124e+38
0.083788753 0.0014453165 0.29100001 -2.9682528e+38
0.083970346 0.0014403497 0.29000002 -2.9549084e+38
0.084368311 0.001415516 0.28500003 -2.9815972e+38
0.084532097 0.0014105494 0.28400001 -3.008286e+38
0.08499191 0.0014105494 0.28400001 -3.0616636e+38
0.085609026 0.0014055826 0.28300002 -3.1017483e+38
0.086525418 0.0014055826 0.28300002 -3.0483703e+38
0.087441802 0.0014055826 0.28300002 -2.9683039e+38
0.087899998 0.0014055826 0.28300002 -2.9549084e+38
0.088358194 0.0014055826 0.28300002 -2.9415639e+38
0.089274578 0.0014055826 0.28300002 -2.9415128e+38
0.089732774 0.0014055826 0.28300002 -2.9416169e+38
0.090190969 0.0014055826 0.28300002 -2.9416169e+38
0.090649165 0.0014055826 0.28300002 -2.9282725e+38
0.091565549 0.0014055826 0.28300002 -2.9415132e+38
0.092023745 0.0014055826 0.28300002 -2.9415132e+38
0.092481941 0.0014055826 0.28300002 -2.9682025e+38
0.092940137 0.0014055826 0.28300002 -2.9548581e+38
0.093856521 0.0014055826 0.28300002 -2.9682025e+38
0.094314717 0.0014055826 0.28300002 -2.9682025e+38
0.094772913 0.0014055826 0.28300002 -2.9815469e+38
0.095689297 0.0014055826 0.28300002 -2.9549621e+38
0.096147493 0.0014055826 0.28300002 -2.9683065e+38
0.096605688 0.0014055826 0.28300002 -2.9683065e+38
0.097177476 0.0014006159 0.28200001 -2.9683065e+38
0.097634047 0.0014006159 0.28200001 -2.9549621e+38
0.098438464 0.0014055826 0.28300002 -2.9683065e+38
0.09889666 0.0014055826 0.28300002 -2.9549621e+38
0.099813044 0.0014055826 0.28300002 -2.9948913e+38
0.10027124 0.0014055826 0.28300002 -2.9948913e+38
0.10072944 0.0014055826 0.28300002 -3.0082357e+38
0.10154518 0.0014105494 0.28400001 -3.0082357e+38
0.10246482 0.0014105494 0.28400001 -3.0349245e+38
0.10328704 0.001415516 0.28500003 -3.0349237e+38
0.10374847 0.001415516 0.28500003 -2.9548572e+38
0.10384426 0.0014105494 0.28400001 -2.9145622e+38
0.074707247 0.0024450435 0.29800001 -2.9552201e+38
0.075189725 0.0024450435 0.29800001 -2.9551686e+38
0.075672202 0.0024450435 0.29800001 -2.9284798e+38
0.076154687 0.0024450435 0.29800001 -2.9151354e+38
0.077119648 0.0024450435 0.29800001 -2.9151354e+38
0.077602126 0.0024450435 0.29800001 -2.8617577e+38
0.078084603 0.0024450435 0.29800001 -2.8617577e+38
0.079049565 0.0024450435 0.29800001 -2.8484133e+38
0.07953205 0.0024450435 0.29800001 -2.8484133e+38
0.079746023 0.0024368386 0.29700002 -2.8484137e+38
0.080707744 0.0024368386 0.29700002 -2.8484137e+38
0.081188604 0.0024368386 0.29700002 -2.8617581e+38
0.081394486 0.0024286339 0.296 -2.8751025e+38
0.082074746 0.0024204291 0.29500002 -2.9151358e+38
0.082552373 0.0024204291 0.29500002 -2.9151358e+38
0.083224542 0.0024122242 0.294 -2.9550128e+38
0.083415851 0.0024040192 0.29300001 -2.9550128e+38
0.083603919 0.0023958145 0.29200003 -2.9416684e+38
0.083970346 0.0023794046 0.29000002 -2.9415639e+38
0.084323823 0.0023629952 0.28800002 -2.9148751e+38
0.084201291 0.0023465855 0.28600001 -2.9148751e+38
