# .PCD v0.7 - Point Cloud Data file format
VERSION 0.7
FIELDS x y z rgb
SIZE 4 4 4 4
TYPE F F F F
COUNT 1 1 1 1
WIDTH 998
HEIGHT 1
VIEWPOINT 0 0 0 1 0 0 0
POINTS 998
DATA ascii
0.076211423 0.011353772 0.30400002 -2.9151865e+38
0.076703615 0.011353772 0.30400002 -2.8751533e+38
0.077432454 0.011316423 0.303 -2.8749975e+38
0.07792303 0.011316423 0.303 -2.8883419e+38
0.078413606 0.011316423 0.303 -2.8749975e+38
0.078904182 0.011316423 0.303 -2.8749975e+38
0.07962168 0.011279076 0.30200002 -2.8350689e+38
0.079845369 0.011241728 0.30100003 -2.8484133e+38
0.080820039 0.011241728 0.30100003 -2.8617577e+38
0.081307381 0.011241728 0.30100003 -2.8751021e+38
0.081522971 0.011204381 0.30000001 -2.9017914e+38
0.082219429 0.011167032 0.29900002 -2.9151358e+38
0.082150325 0.011092336 0.29700002 -2.9017914e+38
0.08283221 0.011054988 0.296 -2.9151358e+38
0.083029993 0.01101764 0.29500002 -2.9151358e+38
0.083700545 0.010980292 0.294 -2.8617577e+38
0.084176548 0.010980292 0.294 -2.8751021e+38
0.084839001 0.010942944 0.29300001 -2.9151354e+38
0.085022219 0.010905596 0.29200003 -2.9550124e+38
0.08549498 0.010905596 0.29200003 -2.9550124e+38
0.086144485 0.010868249 0.29100001 -2.9683568e+38
0.086317986 0.010830901 0.29000002 -2.9817012e+38
0.087257043 0.010830901 0.29000002 -2.9550124e+38
0.087726571 0.010830901 0.29000002 -2.9683568e+38
0.088196099 0.010830901 0.29000002 -2.9550124e+38
0.088665627 0.010830901 0.29000002 -2.941668e+38
0.0892957 0.010793553 0.289 -2.9283236e+38
0.089763604 0.010793553 0.289 -2.9415639e+38
0.090231515 0.010793553 0.289 -2.9015307e+38
0.091167331 0.010793553 0.289 -2.9148224e+38
0.09131816 0.010756205 0.28800002 -2.8748934e+38
0.091784455 0.010756205 0.28800002 -2.861549e+38
0.092717029 0.010756205 0.28800002 -2.861549e+38
0.093183324 0.010756205 0.28800002 -2.861549e+38
0.093649611 0.010756205 0.28800002 -2.8482046e+38
0.094582193 0.010756205 0.28800002 -2.8748934e+38
0.09504848 0.010756205 0.28800002 -2.8215158e+38
0.095514767 0.010756205 0.28800002 -2.8482046e+38
0.095981061 0.010756205 0.28800002 -2.8482046e+38
0.096913636 0.010756205 0.28800002 -2.8747888e+38
0.09737993 0.010756205 0.28800002 -2.8747888e+38
0.098185956 0.010793553 0.289 -2.8481e+38
0.098653868 0.010793553 0.289 -2.8747888e+38
0.099464759 0.010830901 0.29000002 -2.8747888e+38
0.10365605 0.011129685 0.29800001 -2.8481e+38
0.10448799 0.011167032 0.29900002 -2.8480996e+38
0.1047508 0.011092336 0.29700002 -2.821515e+38
0.10944802 0.011279076 0.30200002 -2.8481511e+38
0.11079158 0.011316423 0.303 -2.8481507e+38
0.07646212 0.011884933 0.30500001 -2.9151865e+38
0.076703615 0.011845966 0.30400002 -2.8751533e+38
0.077195808 0.011845966 0.30400002 -2.8618089e+38
0.07792303 0.011806999 0.303 -2.8883419e+38
0.078413606 0.011806999 0.303 -2.8617577e+38
0.078904182 0.011806999 0.303 -2.8617577e+38
0.07962168 0.011768033 0.30200002 -2.8350693e+38
0.080110639 0.011768033 0.30200002 -2.8484137e+38
0.080820039 0.011729065 0.30100003 -2.8617581e+38
0.081307381 0.011729065 0.30100003 -2.8751025e+38
0.081794716 0.011729065 0.30100003 -2.9017914e+38
0.082494408 0.011690099 0.30000001 -2.9151358e+38
0.082426928 0.011612165 0.29800001 -2.9017914e+38
0.08283221 0.01153423 0.296 -2.9151358e+38
0.083029993 0.011495263 0.29500002 -2.9151358e+38
0.083700545 0.011456296 0.294 -2.8751025e+38
0.084176548 0.011456296 0.294 -2.8751025e+38
0.084839001 0.011417329 0.29300001 -2.941668e+38
0.085313387 0.011417329 0.29300001 -2.9550124e+38
0.08549498 0.011378362 0.29200003 -2.9683568e+38
0.086440518 0.011378362 0.29200003 -2.9683568e+38
0.086615629 0.011339395 0.29100001 -2.9817012e+38
0.087086782 0.011339395 0.29100001 -2.9817012e+38
0.087726571 0.011300428 0.29000002 -2.9683568e+38
0.088196099 0.011300428 0.29000002 -2.9550124e+38
0.088665627 0.011300428 0.29000002 -2.941668e+38
0.089604676 0.011300428 0.29000002 -2.9016348e+38
0.089763604 0.011261461 0.289 -2.9148751e+38
0.090231515 0.011261461 0.289 -2.9015307e+38
0.091167331 0.011261461 0.289 -2.9148224e+38
0.091635242 0.011261461 0.289 -2.8748934e+38
0.092103146 0.011261461 0.289 -2.861549e+38
0.092717029 0.011222495 0.28800002 -2.861549e+38
0.093183324 0.011222495 0.28800002 -2.861549e+38
0.093649611 0.011222495 0.28800002 -2.8482046e+38
0.094582193 0.011222495 0.28800002 -2.8748934e+38
0.09504848 0.011222495 0.28800002 -2.8215158e+38
0.095514767 0.011222495 0.28800002 -2.8482046e+38
0.095981061 0.011222495 0.28800002 -2.8215158e+38
0.096913636 0.011222495 0.28800002 -2.8747892e+38
0.097718053 0.011261461 0.289 -2.8747892e+38
0.098185956 0.011261461 0.289 -2.8481004e+38
0.098995231 0.011300428 0.29000002 -2.8747892e+38
0.099807739 0.011339395 0.29100001 -2.8747892e+38
0.10317357 0.011612165 0.29800001 -2.8747888e+38
0.10435173 0.011690099 0.30000001 -2.8481e+38
0.10448799 0.011651131 0.29900002 -2.8481e+38
0.10462101 0.011612165 0.29800001 -2.8481e+38
0.10523166 0.011573197 0.29700002 -2.821515e+38
0.10535658 0.01153423 0.296 -2.821515e+38
0.10895906 0.011768033 0.30200002 -2.821515e+38
0.10944802 0.011768033 0.30200002 -2.8481511e+38
0.11006028 0.011729065 0.30100003 -2.8215661e+38
0.07646212 0.012378747 0.30500001 -2.9018425e+38
0.076955929 0.012378747 0.30500001 -2.8751537e+38
0.077195808 0.012338161 0.30400002 -2.8618093e+38
0.078180201 0.012338161 0.30400002 -2.8484648e+38
0.078672394 0.012338161 0.30400002 -2.8484133e+38
0.078904182 0.012297574 0.303 -2.8617577e+38
0.079885334 0.012297574 0.303 -2.8484137e+38
0.080110639 0.012256988 0.30200002 -2.8484137e+38
0.080599599 0.012256988 0.30200002 -2.8484137e+38
0.08157751 0.012256988 0.30200002 -2.8751025e+38
0.082066461 0.012256988 0.30200002 -2.9018954e+38
0.082282051 0.012216402 0.30100003 -2.888551e+38
0.082703523 0.01213523 0.29900002 -2.888551e+38
0.08283221 0.012013472 0.296 -2.9018954e+38
0.083029993 0.011972887 0.29500002 -2.9151358e+38
0.083700545 0.011932299 0.294 -2.8751025e+38
0.084176548 0.011932299 0.294 -2.8751025e+38
0.084652551 0.011932299 0.294 -2.9016348e+38
0.085313387 0.011891714 0.29300001 -2.9550124e+38
0.08549498 0.011851128 0.29200003 -2.9817012e+38
0.086440518 0.011851128 0.29200003 -2.9817012e+38
0.08691328 0.011851128 0.29200003 -2.9817012e+38
0.087086782 0.011810542 0.29100001 -2.9817012e+38
0.088029072 0.011810542 0.29100001 -2.9683568e+38
0.088500217 0.011810542 0.29100001 -2.9550124e+38
0.088665627 0.011769956 0.29000002 -2.941668e+38
0.089604676 0.011769956 0.29000002 -2.9016348e+38
0.090074204 0.011769956 0.29000002 -2.9148751e+38
0.090231515 0.01172937 0.289 -2.9015307e+38
0.091167331 0.01172937 0.289 -2.9148224e+38
0.091635242 0.01172937 0.289 -2.8748934e+38
0.092103146 0.01172937 0.289 -2.861549e+38
0.093038969 0.01172937 0.289 -2.8483087e+38
0.093506873 0.01172937 0.289 -2.8483087e+38
0.093974784 0.01172937 0.289 -2.8483087e+38
0.094442688 0.01172937 0.289 -2.861549e+38
0.095378511 0.01172937 0.289 -2.8215158e+38
0.095846415 0.01172937 0.289 -2.8482046e+38
0.096314326 0.01172937 0.289 -2.8482046e+38
0.096782237 0.01172937 0.289 -2.8482046e+38
0.097718053 0.01172937 0.289 -2.8482046e+38
0.098525703 0.011769956 0.29000002 -2.8747892e+38
0.098995231 0.011769956 0.29000002 -2.8747892e+38
0.099807739 0.011810542 0.29100001 -2.8481004e+38
0.10317357 0.012094645 0.29800001 -2.8481004e+38
0.10483745 0.012175817 0.30000001 -2.8481e+38
0.10497209 0.01213523 0.29900002 -2.8747888e+38
0.10523166 0.012054058 0.29700002 -2.821515e+38
0.10606845 0.012094645 0.29800001 -2.8480996e+38
0.10690849 0.01213523 0.29900002 -2.8480996e+38
0.1084701 0.012256988 0.30200002 -2.8481511e+38
0.10895906 0.012256988 0.30200002 -2.8481511e+38
0.10944802 0.012256988 0.30200002 -2.8481507e+38
0.11006028 0.012216402 0.30100003 -2.8215661e+38
0.087086782 0.012281689 0.29100001 -2.9817012e+38
0.088029072 0.012281689 0.29100001 -2.9550124e+38
0.088500217 0.012281689 0.29100001 -2.9550124e+38
0.088971369 0.012281689 0.29100001 -2.941668e+38
0.089442514 0.012281689 0.29100001 -2.9283236e+38
0.090074204 0.012239483 0.29000002 -2.9148751e+38
0.090543732 0.012239483 0.29000002 -2.9015307e+38
0.09101326 0.012239483 0.29000002 -2.8881863e+38
0.091635242 0.012197278 0.289 -2.8748934e+38
0.092103146 0.012197278 0.289 -2.861549e+38
0.093038969 0.012197278 0.289 -2.8483087e+38
0.093506873 0.012197278 0.289 -2.8483087e+38
0.093974784 0.012197278 0.289 -2.8483087e+38
0.094442688 0.012197278 0.289 -2.8483087e+38
0.095378511 0.012197278 0.289 -2.8349643e+38
0.095846415 0.012197278 0.289 -2.8349643e+38
0.09664759 0.012239483 0.29000002 -2.8349643e+38
0.097117119 0.012239483 0.29000002 -2.8349643e+38
0.098056175 0.012239483 0.29000002 -2.8482046e+38
0.098525703 0.012239483 0.29000002 -2.8747892e+38
0.099336594 0.012281689 0.29100001 -2.8747892e+38
0.075472355 0.013454021 0.30700001 -2.9286353e+38
0.075721949 0.013410198 0.30600002 -2.9152909e+38
0.07671281 0.013410198 0.30600002 -2.8885506e+38
0.076955929 0.013366374 0.30500001 -2.8886021e+38
0.077449746 0.013366374 0.30500001 -2.8485689e+38
0.078437373 0.013366374 0.30500001 -2.8484648e+38
0.078672394 0.01332255 0.30400002 -2.8484133e+38
0.079164587 0.01332255 0.30400002 -2.8484133e+38
0.079885334 0.013278725 0.303 -2.8484137e+38
0.080375902 0.013278725 0.303 -2.8484137e+38
0.080866478 0.013278725 0.303 -2.8617581e+38
0.08184763 0.013278725 0.303 -2.8751021e+38
0.082066461 0.013234901 0.30200002 -2.9018954e+38
0.082555421 0.013234901 0.30200002 -2.9018954e+38
0.08283221 0.012971955 0.296 -2.9018954e+38
0.083029993 0.012928132 0.29500002 -2.9017914e+38
0.083700545 0.012884308 0.294 -2.8751025e+38
0.084176548 0.012884308 0.294 -2.8617581e+38
0.084652551 0.012884308 0.294 -2.9016352e+38
0.085313387 0.012840483 0.29300001 -2.9683568e+38
0.085787773 0.012840483 0.29300001 -2.9950456e+38
0.086440518 0.012796659 0.29200003 -2.9817012e+38
0.08691328 0.012796659 0.29200003 -2.9817012e+38
0.10015072 0.012796659 0.29200003 -2.8481004e+38
0.10131269 0.012884308 0.294 -2.8747892e+38
0.10317357 0.013059605 0.29800001 -2.8481004e+38
0.1051869 0.013191077 0.30100003 -2.8481004e+38
0.10532317 0.013147253 0.30000001 -2.8747892e+38
0.10580888 0.013147253 0.30000001 -2.8747888e+38
0.10642439 0.013103428 0.29900002 -2.8480996e+38
0.10726604 0.013147253 0.30000001 -2.8480996e+38
0.1084701 0.013234901 0.30200002 -2.8348067e+38
0.10895906 0.013234901 0.30200002 -2.8481511e+38
0.10944802 0.013234901 0.30200002 -2.8481511e+38
0.075472355 0.013951073 0.30700001 -2.9284798e+38
0.075721949 0.01390563 0.30600002 -2.9284798e+38
0.07671281 0.01390563 0.30600002 -2.901791e+38
0.077208243 0.01390563 0.30600002 -2.9018425e+38
0.077449746 0.013860187 0.30500001 -2.8618093e+38
0.078437373 0.013860187 0.30500001 -2.8484648e+38
0.078931183 0.013860187 0.30500001 -2.8484133e+38
0.079425 0.013860187 0.30500001 -2.8484133e+38
0.08014898 0.013814745 0.30400002 -2.8484137e+38
0.080641173 0.013814745 0.30400002 -2.8617577e+38
0.081133366 0.013814745 0.30400002 -2.8617577e+38
0.081625558 0.013814745 0.30400002 -2.901791e+38
0.082338206 0.013769301 0.303 -2.9018954e+38
0.082555421 0.013723858 0.30200002 -2.888551e+38
0.08283221 0.013451197 0.296 -2.888551e+38
0.083029993 0.013405755 0.29500002 -2.9017914e+38
0.083985239 0.013405755 0.29500002 -2.8751025e+38
0.084176548 0.013360312 0.294 -2.8751025e+38
0.084652551 0.013360312 0.294 -2.8751025e+38
0.085604563 0.013360312 0.294 -2.9418242e+38
0.085787773 0.013314867 0.29300001 -2.968513e+38
0.086262159 0.013314867 0.29300001 -2.968513e+38
0.08691328 0.013269424 0.29200003 -2.9817012e+38
0.087386049 0.013269424 0.29200003 -2.9817012e+38
0.087858811 0.013269424 0.29200003 -2.9683568e+38
0.088500217 0.013223982 0.29100001 -2.941668e+38
0.088971369 0.013223982 0.29100001 -2.9283236e+38
0.089442514 0.013223982 0.29100001 -2.9283236e+38
0.090384804 0.013223982 0.29100001 -2.8882904e+38
0.090543732 0.013178539 0.29000002 -2.874946e+38
0.09101326 0.013178539 0.29000002 -2.8881863e+38
0.091952316 0.013178539 0.29000002 -2.8616531e+38
0.092421845 0.013178539 0.29000002 -2.8483087e+38
0.093038969 0.013133096 0.289 -2.8483083e+38
0.093506873 0.013133096 0.289 -2.8483083e+38
0.093974784 0.013133096 0.289 -2.8483083e+38
0.094442688 0.013133096 0.289 -2.8483083e+38
0.095239013 0.013178539 0.29000002 -2.8483083e+38
0.096178062 0.013178539 0.29000002 -2.8483083e+38
0.09664759 0.013178539 0.29000002 -2.8349639e+38
0.097117119 0.013178539 0.29000002 -2.8349639e+38
0.097923152 0.013223982 0.29100001 -2.8482042e+38
0.098865449 0.013223982 0.29100001 -2.8482042e+38
0.099336594 0.013223982 0.29100001 -2.8482042e+38
0.10015072 0.013269424 0.29200003 -2.8215154e+38
0.10131269 0.013360312 0.294 -2.8482042e+38
0.10532317 0.01363297 0.30000001 -2.8482046e+38
0.10594029 0.013587528 0.29900002 -2.8215154e+38
0.10678032 0.01363297 0.30000001 -2.8480996e+38
0.10726604 0.01363297 0.30000001 -2.8480996e+38
0.1084701 0.013723858 0.30200002 -2.8347552e+38
0.10895906 0.013723858 0.30200002 -2.8480996e+38
0.10944802 0.013723858 0.30200002 -2.8481511e+38
0.074975304 0.014448125 0.30700001 -2.9685645e+38
0.075472355 0.014448125 0.30700001 -2.9284798e+38
0.075969405 0.014448125 0.30700001 -2.9284798e+38
0.07671281 0.014401062 0.30600002 -2.901791e+38
0.077208243 0.014401062 0.30600002 -2.901791e+38
0.077703677 0.014401062 0.30600002 -2.8617577e+38
0.078437373 0.014354001 0.30500001 -2.8484133e+38
0.078931183 0.014354001 0.30500001 -2.8484133e+38
0.079425 0.014354001 0.30500001 -2.8484133e+38
0.079918809 0.014354001 0.30500001 -2.8484133e+38
0.080906436 0.014354001 0.30500001 -2.8617577e+38
0.081133366 0.014306939 0.30400002 -2.8751021e+38
0.081625558 0.014306939 0.30400002 -2.901791e+38
0.082609951 0.014306939 0.30400002 -2.901791e+38
0.082828782 0.014259876 0.303 -2.901791e+38
0.08283221 0.013930439 0.296 -2.888551e+38
0.083311453 0.013930439 0.296 -2.9017914e+38
0.083985239 0.013883377 0.29500002 -2.9017914e+38
0.084462866 0.013883377 0.29500002 -2.8751025e+38
0.084652551 0.013836316 0.294 -2.9017914e+38
0.085604563 0.013836316 0.294 -2.9418246e+38
0.086080566 0.013836316 0.294 -2.9685134e+38
0.086262159 0.013789252 0.29300001 -2.9950456e+38
0.087210931 0.013789252 0.29300001 -2.9817012e+38
0.087386049 0.013742191 0.29200003 -2.9817012e+38
0.087858811 0.013742191 0.29200003 -2.9683568e+38
0.088804342 0.013742191 0.29200003 -2.9550124e+38
0.089277111 0.013742191 0.29200003 -2.941668e+38
0.089442514 0.013695128 0.29100001 -2.9283236e+38
0.090384804 0.013695128 0.29100001 -2.8882904e+38
0.090855956 0.013695128 0.29100001 -2.874946e+38
0.091327101 0.013695128 0.29100001 -2.8881863e+38
0.091952316 0.013648067 0.29000002 -2.8616531e+38
0.092421845 0.013648067 0.29000002 -2.8483087e+38
0.092891373 0.013648067 0.29000002 -2.8483083e+38
0.093830429 0.013648067 0.29000002 -2.8483083e+38
0.094299957 0.013648067 0.29000002 -2.8483083e+38
0.094769485 0.013648067 0.29000002 -2.8615486e+38
0.095239013 0.013648067 0.29000002 -2.8615486e+38
0.09650971 0.013695128 0.29100001 -2.8483083e+38
0.096980862 0.013695128 0.29100001 -2.8483083e+38
0.097452007 0.013695128 0.29100001 -2.8349639e+38
0.097923152 0.013695128 0.29100001 -2.8482042e+38
0.098865449 0.013695128 0.29100001 -2.8482042e+38
0.099677958 0.013742191 0.29200003 -2.8482042e+38
0.10049371 0.013789252 0.29300001 -2.8215154e+38
0.10131269 0.013836316 0.294 -2.8215154e+38
0.10532317 0.014118688 0.30000001 -2.8215154e+38
0.10594029 0.014071627 0.29900002 -2.8215154e+38
0.10678032 0.014118688 0.30000001 -2.8215154e+38
0.1076236 0.014165752 0.30100003 -2.8215154e+38
0.1084701 0.014212814 0.30200002 -2.8081706e+38
0.10931986 0.014259876 0.303 -2.821515e+38
0.10981043 0.014259876 0.303 -2.8215665e+38
0.074720852 0.014993859 0.30800003 -2.9552201e+38
0.075718194 0.014993859 0.30800003 -2.9418757e+38
0.075969405 0.014945176 0.30700001 -2.9285313e+38
0.076466456 0.014945176 0.30700001 -2.9151869e+38
0.077208243 0.014896495 0.30600002 -2.8751537e+38
0.077703677 0.014896495 0.30600002 -2.8618093e+38
0.078199111 0.014896495 0.30600002 -2.8617577e+38
0.079189979 0.014896495 0.30600002 -2.8484133e+38
0.079425 0.014847814 0.30500001 -2.8484133e+38
0.079918809 0.014847814 0.30500001 -2.8484133e+38
0.080906436 0.014847814 0.30500001 -2.8485174e+38
0.081400253 0.014847814 0.30500001 -2.8618618e+38
0.081625558 0.014799134 0.30400002 -2.8885506e+38
0.082609951 0.014799134 0.30400002 -2.8885506e+38
0.082555421 0.01470177 0.30200002 -2.8885506e+38
0.082703523 0.014555725 0.29900002 -2.901895e+38
0.083112046 0.014458364 0.29700002 -2.901791e+38
0.083592907 0.014458364 0.29700002 -2.8751021e+38
0.083790697 0.014409682 0.296 -2.8751021e+38
0.084462866 0.014361001 0.29500002 -2.901791e+38
0.084940486 0.014361001 0.29500002 -2.901791e+38
0.085895732 0.014361001 0.29500002 -2.9418246e+38
0.086080566 0.014312319 0.294 -2.9685134e+38
0.086556569 0.014312319 0.294 -2.9950456e+38
0.087210931 0.014263637 0.29300001 -2.9817012e+38
0.087386049 0.014214956 0.29200003 -2.9817012e+38
0.087858811 0.014214956 0.29200003 -2.9683568e+38
0.088804342 0.014214956 0.29200003 -2.9550124e+38
0.089277111 0.014214956 0.29200003 -2.9283236e+38
0.089749873 0.014214956 0.29200003 -2.9016348e+38
0.090695404 0.014214956 0.29200003 -2.9015307e+38
0.090855956 0.014166275 0.29100001 -2.8881863e+38
0.091327101 0.014166275 0.29100001 -2.8881863e+38
0.092269391 0.014166275 0.29100001 -2.8748934e+38
0.092740543 0.014166275 0.29100001 -2.861549e+38
0.093211688 0.014166275 0.29100001 -2.8615486e+38
0.093682833 0.014166275 0.29100001 -2.8615486e+38
0.094299957 0.014117594 0.29000002 -2.8615486e+38
0.095096275 0.014166275 0.29100001 -2.8615486e+38
0.09556742 0.014166275 0.29100001 -2.8615486e+38
0.09650971 0.014166275 0.29100001 -2.8615486e+38
0.096980862 0.014166275 0.29100001 -2.8615486e+38
0.097452007 0.014166275 0.29100001 -2.8482042e+38
0.098259658 0.014214956 0.29200003 -2.8482042e+38
0.099205188 0.014214956 0.29200003 -2.8747888e+38
0.10001932 0.014263637 0.29300001 -2.8747888e+38
0.10083669 0.014312319 0.294 -2.8215154e+38
0.10165729 0.014361001 0.29500002 -2.8215154e+38
0.10532317 0.014604406 0.30000001 -2.8215154e+38
0.10580888 0.014604406 0.30000001 -2.8482042e+38
0.10678032 0.014604406 0.30000001 -2.8215154e+38
0.1076236 0.014653089 0.30100003 -2.8215154e+38
0.074720852 0.0159912 0.30800003 -2.9552201e+38
0.075718194 0.0159912 0.30800003 -2.9418757e+38
0.076216862 0.0159912 0.30800003 -2.9285313e+38
0.076466456 0.015939279 0.30700001 -2.9151869e+38
0.077460557 0.015939279 0.30700001 -2.8751537e+38
0.077703677 0.015887361 0.30600002 -2.8751537e+38
0.078199111 0.015887361 0.30600002 -2.8617577e+38
0.079189979 0.015887361 0.30600002 -2.8484133e+38
0.079685405 0.015887361 0.30600002 -2.8484133e+38
0.079918809 0.015835442 0.30500001 -2.8485174e+38
0.080906436 0.015835442 0.30500001 -2.8618618e+38
0.081400253 0.015835442 0.30500001 -2.8618618e+38
0.081894062 0.015835442 0.30500001 -2.8885506e+38
0.082609951 0.015783522 0.30400002 -2.901895e+38
0.082828782 0.015731601 0.303 -2.901895e+38
0.083112046 0.015420086 0.29700002 -2.8751021e+38
0.083592907 0.015420086 0.29700002 -2.8751021e+38
0.083790697 0.015368165 0.296 -2.8751021e+38
0.084749177 0.015368165 0.296 -2.9151354e+38
0.085228421 0.015368165 0.296 -2.9151354e+38
0.085895732 0.015316246 0.29500002 -2.9418242e+38
0.086373359 0.015316246 0.29500002 -2.968513e+38
0.086556569 0.015264327 0.294 -2.9950456e+38
0.087210931 0.015212406 0.29300001 -2.9817012e+38
0.087685317 0.015212406 0.29300001 -2.9817012e+38
0.088159695 0.015212406 0.29300001 -2.9683568e+38
0.089108467 0.015212406 0.29300001 -2.941668e+38
0.089582853 0.015212406 0.29300001 -2.9016348e+38
0.089749873 0.015160487 0.29200003 -2.8882904e+38
0.090695404 0.015160487 0.29200003 -2.8881863e+38
0.091168173 0.015160487 0.29200003 -2.8748419e+38
0.091640942 0.015160487 0.29200003 -2.9014265e+38
0.092113703 0.015160487 0.29200003 -2.9014265e+38
0.092740543 0.015108569 0.29100001 -2.861549e+38
0.093211688 0.015108569 0.29100001 -2.861549e+38
0.093682833 0.015108569 0.29100001 -2.861549e+38
0.09462513 0.015108569 0.29100001 -2.8615486e+38
0.095096275 0.015108569 0.29100001 -2.8615486e+38
0.095895827 0.015160487 0.29200003 -2.8615486e+38
0.096368596 0.015160487 0.29200003 -2.8615486e+38
0.097314127 0.015160487 0.29200003 -2.8482042e+38
0.097786896 0.015160487 0.29200003 -2.8482042e+38
0.098259658 0.015160487 0.29200003 -2.8747888e+38
0.099070549 0.015212406 0.29300001 -2.8747888e+38
0.10001932 0.015212406 0.29300001 -2.8482042e+38
0.10083669 0.015264327 0.294 -2.8215154e+38
0.10165729 0.015316246 0.29500002 -2.8215154e+38
0.10282736 0.015420086 0.29700002 -2.8482042e+38
0.10435173 0.015575843 0.30000001 -2.8482042e+38
0.1051869 0.015627764 0.30100003 -2.8215154e+38
0.10532317 0.015575843 0.30000001 -2.8215154e+38
0.10580888 0.015575843 0.30000001 -2.8482042e+38
0.10678032 0.015575843 0.30000001 -2.821515e+38
0.1076236 0.015627764 0.30100003 -2.821515e+38
0.07496345 0.016543409 0.30900002 -2.9685645e+38
0.075463742 0.016543409 0.30900002 -2.9552201e+38
0.076216862 0.016489871 0.30800003 -2.9285313e+38
0.076715529 0.016489871 0.30800003 -2.9151869e+38
0.077460557 0.016436331 0.30700001 -2.8751537e+38
0.077957608 0.016436331 0.30700001 -2.8618093e+38
0.078454666 0.016436331 0.30700001 -2.8751537e+38
0.079189979 0.016382793 0.30600002 -2.8617577e+38
0.079685405 0.016382793 0.30600002 -2.8484133e+38
0.080180839 0.016382793 0.30600002 -2.8485174e+38
0.081171706 0.016382793 0.30600002 -2.8485174e+38
0.08166714 0.016382793 0.30600002 -2.8618618e+38
0.081894062 0.016329255 0.30500001 -2.901895e+38
0.082609951 0.016275717 0.30400002 -2.901895e+38
0.082828782 0.016222177 0.303 -2.901895e+38
0.08339189 0.015954485 0.29800001 -2.8751021e+38
0.083592907 0.015900947 0.29700002 -2.8751021e+38
0.084073775 0.015900947 0.29700002 -2.8751021e+38
0.085035495 0.015900947 0.29700002 -2.9151354e+38
0.085228421 0.015847407 0.296 -2.9284798e+38
0.085707664 0.015847407 0.296 -2.9418242e+38
0.086373359 0.015793869 0.29500002 -2.9551686e+38
0.086850978 0.015793869 0.29500002 -2.968513e+38
0.087508574 0.015740331 0.294 -2.9817012e+38
0.087685317 0.015686791 0.29300001 -2.9683568e+38
0.088159695 0.015686791 0.29300001 -2.9683568e+38
0.089108467 0.015686791 0.29300001 -2.9283236e+38
0.089582853 0.015686791 0.29300001 -2.9016348e+38
0.090057239 0.015686791 0.29300001 -2.9016348e+38
0.090531625 0.015686791 0.29300001 -2.874946e+38
0.091168173 0.015633253 0.29200003 -2.8881863e+38
0.091640942 0.015633253 0.29200003 -2.9014265e+38
0.092113703 0.015633253 0.29200003 -2.8880821e+38
0.093059234 0.015633253 0.29200003 -2.8881336e+38
0.093532003 0.015633253 0.29200003 -2.861549e+38
0.094004765 0.015633253 0.29200003 -2.861549e+38
0.094950296 0.015633253 0.29200003 -2.861549e+38
0.095423065 0.015633253 0.29200003 -2.861549e+38
0.096224241 0.015686791 0.29300001 -2.861549e+38
0.096698627 0.015686791 0.29300001 -2.861549e+38
0.097173013 0.015686791 0.29300001 -2.8482046e+38
0.098121777 0.015686791 0.29300001 -2.8482042e+38
0.098596163 0.015686791 0.29300001 -2.8747888e+38
0.099408671 0.015740331 0.294 -2.8747888e+38
0.10001932 0.015686791 0.29300001 -2.8482042e+38
0.10083669 0.015740331 0.294 -2.8482042e+38
0.10200189 0.015847407 0.296 -2.8215154e+38
0.10282736 0.015900947 0.29700002 -2.8215154e+38
0.10400389 0.016008023 0.29900002 -2.8215154e+38
0.10483745 0.016061561 0.30000001 -2.8215154e+38
0.10567424 0.016115101 0.30100003 -2.8215154e+38
0.10580888 0.016061561 0.30000001 -2.8215154e+38
0.10664892 0.016115101 0.30100003 -2.8215154e+38
0.07496345 0.017043699 0.30900002 -2.9685645e+38
0.075463742 0.017043699 0.30900002 -2.9552201e+38
0.076464318 0.017043699 0.30900002 -2.9285313e+38
0.076715529 0.016988542 0.30800003 -2.9018425e+38
0.077712871 0.016988542 0.30800003 -2.8751537e+38
0.078211546 0.016988542 0.30800003 -2.8618093e+38
0.078710213 0.016988542 0.30800003 -2.8751537e+38
0.079208888 0.016988542 0.30800003 -2.8751537e+38
0.08020623 0.016988542 0.30800003 -2.8484133e+38
0.080704898 0.016988542 0.30800003 -2.8617577e+38
0.080939919 0.016933382 0.30700001 -2.8617577e+38
0.081934027 0.016933382 0.30700001 -2.8885506e+38
0.082162574 0.016878225 0.30600002 -2.9151354e+38
0.082609951 0.016767912 0.30400002 -2.901895e+38
0.082828782 0.016712753 0.303 -2.901895e+38
0.08339189 0.016436964 0.29800001 -2.8618618e+38
0.083592907 0.016381808 0.29700002 -2.8617577e+38
0.084073775 0.016381808 0.29700002 -2.8751021e+38
0.085035495 0.016381808 0.29700002 -2.9284798e+38
0.085516356 0.016381808 0.29700002 -2.9418242e+38
0.085707664 0.016326649 0.296 -2.9418242e+38
0.086666144 0.016326649 0.296 -2.968513e+38
0.087145388 0.016326649 0.296 -2.968513e+38
0.087508574 0.016216334 0.294 -2.9551686e+38
0.087984584 0.016216334 0.294 -2.9418242e+38
0.088460587 0.016216334 0.294 -2.9683568e+38
0.08893659 0.016216334 0.294 -2.9550124e+38
0.089582853 0.016161175 0.29300001 -2.9016348e+38
0.090057239 0.016161175 0.29300001 -2.9016348e+38
0.090531625 0.016161175 0.29300001 -2.874946e+38
0.091480389 0.016161175 0.29300001 -2.8881863e+38
0.091954775 0.016161175 0.29300001 -2.9014265e+38
0.092429161 0.016161175 0.29300001 -2.8880821e+38
0.093377933 0.016161175 0.29300001 -2.8881336e+38
0.093852319 0.016161175 0.29300001 -2.861549e+38
0.094326697 0.016161175 0.29300001 -2.861549e+38
0.094801083 0.016161175 0.29300001 -2.861549e+38
0.095749855 0.016161175 0.29300001 -2.861549e+38
0.096552648 0.016216334 0.294 -2.8482046e+38
0.09702865 0.016216334 0.294 -2.8482046e+38
0.09750466 0.016216334 0.294 -2.861549e+38
0.098456666 0.016216334 0.294 -2.8615486e+38
0.098596163 0.016161175 0.29300001 -2.8615486e+38
0.099408671 0.016216334 0.294 -2.8482042e+38
0.099884674 0.016216334 0.294 -2.8215154e+38
0.10117967 0.016271492 0.29500002 -2.8482042e+38
0.10200189 0.016326649 0.296 -2.8215154e+38
0.10282736 0.016381808 0.29700002 -2.8215154e+38
0.10400389 0.016492123 0.29900002 -2.8215154e+38
0.10483745 0.016547279 0.30000001 -2.8215154e+38
0.10567424 0.016602438 0.30100003 -2.8215154e+38
0.10616159 0.016602438 0.30100003 -2.821515e+38
0.10700323 0.016657595 0.30200002 -2.821515e+38
0.087328605 0.016749116 0.29500002 -2.9551686e+38
0.087984584 0.016692339 0.294 -2.9418242e+38
0.088460587 0.016692339 0.294 -2.9550124e+38
0.08893659 0.016692339 0.294 -2.941668e+38
0.089888595 0.016692339 0.294 -2.9016348e+38
0.090364598 0.016692339 0.294 -2.9016348e+38
0.090531625 0.016635561 0.29300001 -2.874946e+38
0.091480389 0.016635561 0.29300001 -2.8881863e+38
0.091954775 0.016635561 0.29300001 -2.9148224e+38
0.092429161 0.016635561 0.29300001 -2.901478e+38
0.093377933 0.016635561 0.29300001 -2.8881336e+38
0.093852319 0.016635561 0.29300001 -2.8881336e+38
0.094648637 0.016692339 0.294 -2.8881336e+38
0.09512464 0.016692339 0.294 -2.8615486e+38
0.095600642 0.016692339 0.294 -2.8615486e+38
0.096552648 0.016692339 0.294 -2.8482042e+38
0.09702865 0.016692339 0.294 -2.8482046e+38
0.09750466 0.016692339 0.294 -2.861549e+38
0.098456666 0.016692339 0.294 -2.8615486e+38
0.098932669 0.016692339 0.294 -2.8615486e+38
0.099408671 0.016692339 0.294 -2.8482042e+38
0.10022442 0.016749116 0.29500002 -2.8215154e+38
0.10117967 0.016749116 0.29500002 -2.8482042e+38
0.075206049 0.018102674 0.31 -2.9552201e+38
0.075707957 0.018102674 0.31 -2.9552201e+38
0.076464318 0.018044278 0.30900002 -2.9151869e+38
0.076964609 0.018044278 0.30900002 -2.9018425e+38
0.077464901 0.018044278 0.30900002 -2.8751537e+38
0.078465477 0.018044278 0.30900002 -2.8618093e+38
0.078965768 0.018044278 0.30900002 -2.8751537e+38
0.07946606 0.018044278 0.30900002 -2.8751537e+38
0.079966344 0.018044278 0.30900002 -2.8617577e+38
0.080966927 0.018044278 0.30900002 -2.8617577e+38
0.081467219 0.018044278 0.30900002 -2.8617577e+38
0.081967503 0.018044278 0.30900002 -2.8751021e+38
0.082431078 0.017927486 0.30700001 -2.9151354e+38
0.082658 0.017869091 0.30600002 -2.9151354e+38
0.083102144 0.017752299 0.30400002 -2.9151354e+38
0.08339189 0.017401924 0.29800001 -2.8751021e+38
0.083592907 0.01734353 0.29700002 -2.8617577e+38
0.084073775 0.01734353 0.29700002 -2.901791e+38
0.085035495 0.01734353 0.29700002 -2.9285313e+38
0.085516356 0.01734353 0.29700002 -2.9418757e+38
0.085997216 0.01734353 0.29700002 -2.9418757e+38
0.086666144 0.017285133 0.296 -2.968513e+38
0.087145388 0.017285133 0.296 -2.9551686e+38
0.10186563 0.01734353 0.29700002 -2.8482042e+38
0.10317357 0.017401924 0.29800001 -2.8215154e+38
0.10435173 0.017518716 0.30000001 -2.8215154e+38
0.10567424 0.017577112 0.30100003 -2.8081706e+38
0.10651428 0.017635508 0.30200002 -2.821515e+38
0.10700323 0.017635508 0.30200002 -2.821515e+38
0.073434539 0.018664597 0.31100002 -2.9953058e+38
0.073700324 0.018604582 0.31 -2.9953058e+38
0.07470414 0.018604582 0.31 -2.9819614e+38
0.075206049 0.018604582 0.31 -2.9551686e+38
0.075707957 0.018604582 0.31 -2.9551686e+38
0.076711774 0.018604582 0.31 -2.9151354e+38
0.077213682 0.018604582 0.31 -2.901791e+38
0.077715591 0.018604582 0.31 -2.8751021e+38
0.078217499 0.018604582 0.31 -2.8617577e+38
0.079221316 0.018604582 0.31 -2.8751021e+38
0.079723231 0.018604582 0.31 -2.8617577e+38
0.08022514 0.018604582 0.31 -2.8617577e+38
0.080966927 0.018544568 0.30900002 -2.8617577e+38
0.081467219 0.018544568 0.30900002 -2.8617577e+38
0.081967503 0.018544568 0.30900002 -2.8751021e+38
0.082699582 0.018484553 0.30800003 -2.9284798e+38
0.082928129 0.018424537 0.30700001 -2.9151354e+38
0.083375506 0.018304508 0.30500001 -2.9151354e+38
0.083187625 0.01794442 0.29900002 -2.8617577e+38
0.083874367 0.017884405 0.29800001 -2.8617577e+38
0.084073775 0.017824391 0.29700002 -2.901791e+38
0.085035495 0.017824391 0.29700002 -2.9285313e+38
0.085516356 0.017824391 0.29700002 -2.9817527e+38
0.085997216 0.017824391 0.29700002 -2.9684083e+38
0.086478077 0.017824391 0.29700002 -2.9817012e+38
0.087145388 0.017764375 0.296 -2.9817012e+38
0.087328605 0.01770436 0.29500002 -2.9817012e+38
0.088283844 0.01770436 0.29500002 -2.9683568e+38
0.088460587 0.017644346 0.294 -2.9550124e+38
0.08893659 0.017644346 0.294 -2.9283236e+38
0.089888595 0.017644346 0.294 -2.8882904e+38
0.090364598 0.017644346 0.294 -2.874946e+38
0.0908406 0.017644346 0.294 -2.874946e+38
0.091316611 0.017644346 0.294 -2.8748419e+38
0.092268616 0.017644346 0.294 -2.9015822e+38
0.092744619 0.017644346 0.294 -2.8748934e+38
0.093220621 0.017644346 0.294 -2.861549e+38
0.094172634 0.017644346 0.294 -2.8615486e+38
0.094648637 0.017644346 0.294 -2.8482042e+38
0.09512464 0.017644346 0.294 -2.8615486e+38
0.095600642 0.017644346 0.294 -2.8615486e+38
0.096552648 0.017644346 0.294 -2.8482042e+38
0.09702865 0.017644346 0.294 -2.8482042e+38
0.09750466 0.017644346 0.294 -2.8615486e+38
0.098456666 0.017644346 0.294 -2.8615486e+38
0.098932669 0.017644346 0.294 -2.8615486e+38
0.099746801 0.01770436 0.29500002 -2.8482042e+38
0.10022442 0.01770436 0.29500002 -2.8215154e+38
0.1010434 0.017764375 0.296 -2.8215154e+38
0.10338029 0.018004434 0.30000001 -2.8215154e+38
0.10435173 0.018004434 0.30000001 -2.8215154e+38
0.10602532 0.018124463 0.30200002 -2.8081706e+38
0.10616159 0.01806445 0.30100003 -2.821515e+38
0.072931007 0.019168124 0.31100002 -2.9953058e+38
0.073434539 0.019168124 0.31100002 -2.9819614e+38
0.073700324 0.019106491 0.31 -2.9953058e+38
0.07470414 0.019106491 0.31 -2.968513e+38
0.075206049 0.019106491 0.31 -2.9551686e+38
0.075707957 0.019106491 0.31 -2.9551686e+38
0.076711774 0.019106491 0.31 -2.9151354e+38
0.077213682 0.019106491 0.31 -2.901791e+38
0.077715591 0.019106491 0.31 -2.8751021e+38
0.078217499 0.019106491 0.31 -2.8617577e+38
0.079221316 0.019106491 0.31 -2.8485174e+38
0.079723231 0.019106491 0.31 -2.8485174e+38
0.08022514 0.019106491 0.31 -2.8485174e+38
0.081228957 0.019106491 0.31 -2.8485174e+38
0.081467219 0.019044857 0.30900002 -2.8485174e+38
0.081967503 0.019044857 0.30900002 -2.8885506e+38
0.082968086 0.019044857 0.30900002 -2.9152394e+38
0.083198249 0.018983224 0.30800003 -2.9152394e+38
0.083648868 0.018859955 0.30600002 -2.901895e+38
0.083465844 0.018490152 0.30000001 -2.8485174e+38
0.084155828 0.018428519 0.29900002 -2.8618618e+38
0.084356844 0.018366884 0.29800001 -2.8885506e+38
0.085035495 0.018305251 0.29700002 -2.9418757e+38
0.085516356 0.018305251 0.29700002 -2.9817527e+38
0.085997216 0.018305251 0.29700002 -2.9817527e+38
0.086478077 0.018305251 0.29700002 -2.9817012e+38
0.087145388 0.018243616 0.296 -2.9817012e+38
0.087328605 0.018181983 0.29500002 -2.9817012e+38
0.088283844 0.018181983 0.29500002 -2.9683572e+38
0.088761471 0.018181983 0.29500002 -2.9550124e+38
0.08893659 0.01812035 0.294 -2.9283236e+38
0.089888595 0.01812035 0.294 -2.874946e+38
0.090364598 0.01812035 0.294 -2.8882904e+38
0.0908406 0.01812035 0.294 -2.874946e+38
0.091316611 0.01812035 0.294 -2.8748419e+38
0.092268616 0.01812035 0.294 -2.9015822e+38
0.092744619 0.01812035 0.294 -2.8748934e+38
0.093220621 0.01812035 0.294 -2.861549e+38
0.094172634 0.01812035 0.294 -2.8615486e+38
0.094970569 0.018181983 0.29500002 -2.8482042e+38
0.09512464 0.01812035 0.294 -2.8615486e+38
0.095600642 0.01812035 0.294 -2.8615486e+38
0.096881062 0.018181983 0.29500002 -2.8482042e+38
0.097358681 0.018181983 0.29500002 -2.8482042e+38
0.097836308 0.018181983 0.29500002 -2.8482042e+38
0.098313928 0.018181983 0.29500002 -2.8615486e+38
0.099269174 0.018181983 0.29500002 -2.8482042e+38
0.099746801 0.018181983 0.29500002 -2.8482042e+38
0.10022442 0.018181983 0.29500002 -2.8215154e+38
0.10138477 0.018305251 0.29700002 -2.8215154e+38
0.10448799 0.018428519 0.29900002 -2.821515e+38
0.10567424 0.018551787 0.30100003 -2.821515e+38
0.10616159 0.018551787 0.30100003 -2.821515e+38
0.11206184 0.019229759 0.31200001 -2.8083262e+38
0.072931007 0.019671652 0.31100002 -2.9953058e+38
0.073434539 0.019671652 0.31100002 -2.9819614e+38
0.073938064 0.019671652 0.31100002 -2.9953058e+38
0.074945122 0.019671652 0.31100002 -2.968513e+38
0.075206049 0.019608399 0.31 -2.9551686e+38
0.075707957 0.019608399 0.31 -2.9551686e+38
0.076711774 0.019608399 0.31 -2.9151354e+38
0.077213682 0.019608399 0.31 -2.901791e+38
0.077715591 0.019608399 0.31 -2.8617577e+38
0.078217499 0.019608399 0.31 -2.8617577e+38
0.079221316 0.019608399 0.31 -2.8485174e+38
0.079723231 0.019608399 0.31 -2.8485174e+38
0.08022514 0.019608399 0.31 -2.8485174e+38
0.081228957 0.019608399 0.31 -2.8485174e+38
0.081467219 0.019545147 0.30900002 -2.8618618e+38
0.081967503 0.019545147 0.30900002 -2.901895e+38
0.082968086 0.019545147 0.30900002 -2.9152394e+38
0.083198249 0.019481894 0.30800003 -2.9152394e+38
0.083425179 0.01941864 0.30700001 -2.901895e+38
0.084155828 0.018912617 0.29900002 -2.8618618e+38
0.084356844 0.018849365 0.29800001 -2.8885506e+38
0.084839329 0.018849365 0.29800001 -2.9151354e+38
0.085804291 0.018849365 0.29800001 -2.9552201e+38
0.086286768 0.018849365 0.29800001 -2.9685645e+38
0.086478077 0.018786112 0.29700002 -2.9552201e+38
0.087145388 0.018722858 0.296 -2.9817012e+38
0.087624632 0.018722858 0.296 -2.9817012e+38
0.088283844 0.018659607 0.29500002 -2.9683572e+38
0.088761471 0.018659607 0.29500002 -2.941668e+38
0.089239091 0.018659607 0.29500002 -2.9283236e+38
0.089888595 0.018596353 0.294 -2.874946e+38
0.090364598 0.018596353 0.294 -2.874946e+38
0.0908406 0.018596353 0.294 -2.874946e+38
0.091316611 0.018596353 0.294 -2.8616016e+38
0.092268616 0.018596353 0.294 -2.8749975e+38
0.093060076 0.018659607 0.29500002 -2.8616531e+38
0.093537703 0.018659607 0.29500002 -2.8483087e+38
0.094172634 0.018596353 0.294 -2.8349643e+38
0.094970569 0.018659607 0.29500002 -2.8349643e+38
0.095448188 0.018659607 0.29500002 -2.8615486e+38
0.095925815 0.018659607 0.29500002 -2.8615486e+38
0.096881062 0.018659607 0.29500002 -2.8615486e+38
0.097358681 0.018659607 0.29500002 -2.8482042e+38
0.097836308 0.018659607 0.29500002 -2.8482042e+38
0.098313928 0.018659607 0.29500002 -2.8615486e+38
0.099269174 0.018659607 0.29500002 -2.8482042e+38
0.099746801 0.018659607 0.29500002 -2.8482042e+38
0.10022442 0.018659607 0.29500002 -2.821515e+38
0.10504741 0.019102376 0.30200002 -2.821515e+38
0.10567424 0.019039124 0.30100003 -2.821515e+38
0.10580888 0.018975871 0.30000001 -2.821515e+38
0.11105154 0.019734906 0.31200001 -2.8482038e+38
0.11206184 0.019734906 0.31200001 -2.835015e+38
0.11292776 0.019798158 0.31300002 -2.835015e+38
0.11343453 0.019798158 0.31300002 -2.7551047e+38
0.11430533 0.019861411 0.31400001 -2.7150715e+38
0.11481372 0.019861411 0.31400001 -2.6750383e+38
0.11583049 0.019861411 0.31400001 -2.6617979e+38
0.072931007 0.020678708 0.31100002 -2.9953058e+38
0.073434539 0.020678708 0.31100002 -3.0085462e+38
0.073938064 0.020678708 0.31100002 -3.0085462e+38
0.07470414 0.020612217 0.31 -2.968513e+38
0.075206049 0.020612217 0.31 -2.9551686e+38
0.075707957 0.020612217 0.31 -2.9418242e+38
0.076711774 0.020612217 0.31 -2.901791e+38
0.077213682 0.020612217 0.31 -2.901791e+38
0.077715591 0.020612217 0.31 -2.8751021e+38
0.078217499 0.020612217 0.31 -2.8617577e+38
0.079221316 0.020612217 0.31 -2.8617577e+38
0.079723231 0.020612217 0.31 -2.8617577e+38
0.08022514 0.020612217 0.31 -2.8617577e+38
0.081228957 0.020612217 0.31 -2.8617577e+38
0.081467219 0.020545727 0.30900002 -2.8751021e+38
0.081967503 0.020545727 0.30900002 -2.9151354e+38
0.082968086 0.020545727 0.30900002 -2.9284798e+38
0.083468378 0.020545727 0.30900002 -2.9284798e+38
0.083696924 0.020479236 0.30800003 -2.9151354e+38
0.084300511 0.02014678 0.303 -2.835173e+38
0.084231399 0.020013798 0.30100003 -2.8485174e+38
0.084639922 0.019880816 0.29900002 -2.8885506e+38
0.085124023 0.019880816 0.29900002 -2.9284798e+38
0.085804291 0.019814325 0.29800001 -2.9551686e+38
0.086286768 0.019814325 0.29800001 -2.968513e+38
0.086769246 0.019814325 0.29800001 -2.9817012e+38
0.087145388 0.019681342 0.296 -2.9817012e+38
0.087624632 0.019681342 0.296 -2.9683568e+38
0.088103876 0.019681342 0.296 -2.9550124e+38
0.088761471 0.019614851 0.29500002 -2.941668e+38
0.089239091 0.019614851 0.29500002 -2.9016348e+38
0.089716718 0.019614851 0.29500002 -2.8882904e+38
0.090364598 0.019548362 0.294 -2.874946e+38
0.0908406 0.019548362 0.294 -2.874946e+38
0.09162721 0.019614851 0.29500002 -2.8482572e+38
0.092582457 0.019614851 0.29500002 -2.8616531e+38
0.093060076 0.019614851 0.29500002 -2.8616531e+38
0.093537703 0.019614851 0.29500002 -2.8616531e+38
0.094015323 0.019614851 0.29500002 -2.8483087e+38
0.094970569 0.019614851 0.29500002 -2.8349643e+38
0.095448188 0.019614851 0.29500002 -2.8483087e+38
0.095925815 0.019614851 0.29500002 -2.8483087e+38
0.096881062 0.019614851 0.29500002 -2.8483083e+38
0.097358681 0.019614851 0.29500002 -2.8482042e+38
0.097836308 0.019614851 0.29500002 -2.8482042e+38
0.098313928 0.019614851 0.29500002 -2.8615486e+38
0.099269174 0.019614851 0.29500002 -2.8482042e+38
0.099746801 0.019614851 0.29500002 -2.8482042e+38
0.10056417 0.019681342 0.296 -2.8482553e+38
0.1040695 0.020080289 0.30200002 -2.8482553e+38
0.1051869 0.020013798 0.30100003 -2.821515e+38
0.10580888 0.019947307 0.30000001 -2.8482038e+38
0.11019208 0.020678708 0.31100002 -2.821515e+38
0.11105154 0.020745199 0.31200001 -2.8482553e+38
0.11256699 0.020745199 0.31200001 -2.8083262e+38
0.11343453 0.02081169 0.31300002 -2.7150715e+38
0.1139413 0.02081169 0.31300002 -2.6750383e+38
0.11481372 0.020878181 0.31400001 -2.6484535e+38
0.11583049 0.020878181 0.31400001 -2.6617464e+38
0.11633888 0.020878181 0.31400001 -2.6884352e+38
0.11684726 0.020878181 0.31400001 -2.7017796e+38
0.11786403 0.020878181 0.31400001 -2.7418128e+38
0.11837242 0.020878181 0.31400001 -2.7685017e+38
0.072931007 0.021182235 0.31100002 -2.9953058e+38
0.073434539 0.021182235 0.31100002 -3.0085462e+38
0.073938064 0.021182235 0.31100002 -3.0085462e+38
0.07470414 0.021114126 0.31 -2.9950456e+38
0.075206049 0.021114126 0.31 -2.9817012e+38
0.075707957 0.021114126 0.31 -2.9683568e+38
0.076711774 0.021114126 0.31 -2.901791e+38
0.077213682 0.021114126 0.31 -2.901791e+38
0.077715591 0.021114126 0.31 -2.8751021e+38
0.078217499 0.021114126 0.31 -2.8617577e+38
0.079221316 0.021114126 0.31 -2.8617577e+38
0.079723231 0.021114126 0.31 -2.8617577e+38
0.08022514 0.021114126 0.31 -2.8617577e+38
0.081228957 0.021114126 0.31 -2.8617577e+38
0.081467219 0.021046016 0.30900002 -2.8751021e+38
0.081967503 0.021046016 0.30900002 -2.9151354e+38
0.082968086 0.021046016 0.30900002 -2.9284798e+38
0.083468378 0.021046016 0.30900002 -2.9284798e+38
0.083696924 0.020977907 0.30800003 -2.9151354e+38
0.084300511 0.020637356 0.303 -2.8484137e+38
0.084511243 0.020569246 0.30200002 -2.8617581e+38
0.085206077 0.020501135 0.30100003 -2.9017914e+38
0.085408717 0.020433025 0.30000001 -2.9284798e+38
0.086092219 0.020364914 0.29900002 -2.9685645e+38
0.08657632 0.020364914 0.29900002 -2.9685645e+38
0.086478077 0.020228695 0.29700002 -2.9817527e+38
0.087439798 0.020228695 0.29700002 -2.9817012e+38
0.087624632 0.020160584 0.296 -2.9550124e+38
0.088103876 0.020160584 0.296 -2.9550124e+38
0.089062355 0.020160584 0.296 -2.941668e+38
0.089239091 0.020092474 0.29500002 -2.9016348e+38
0.089716718 0.020092474 0.29500002 -2.8882904e+38
0.090671964 0.020092474 0.29500002 -2.874946e+38
0.091149583 0.020092474 0.29500002 -2.874946e+38
0.09162721 0.020092474 0.29500002 -2.8616016e+38
0.092582457 0.020092474 0.29500002 -2.8616531e+38
0.093060076 0.020092474 0.29500002 -2.8616531e+38
0.093537703 0.020092474 0.29500002 -2.8616531e+38
0.094015323 0.020092474 0.29500002 -2.8616531e+38
0.094970569 0.020092474 0.29500002 -2.8483087e+38
0.095448188 0.020092474 0.29500002 -2.8483087e+38
0.095925815 0.020092474 0.29500002 -2.8349643e+38
0.096881062 0.020092474 0.29500002 -2.8483087e+38
0.097358681 0.020092474 0.29500002 -2.8349639e+38
0.097836308 0.020092474 0.29500002 -2.8349639e+38
0.098313928 0.020092474 0.29500002 -2.8482042e+38
0.099269174 0.020092474 0.29500002 -2.8482042e+38
0.099746801 0.020092474 0.29500002 -2.8482042e+38
0.10056417 0.020160584 0.296 -2.8482553e+38
0.10483745 0.020433025 0.30000001 -2.8082746e+38
0.10532317 0.020433025 0.30000001 -2.7949302e+38
0.10616159 0.020501135 0.30100003 -2.8483079e+38
0.11019208 0.021182235 0.31100002 -2.8082746e+38
0.1106956 0.021182235 0.31100002 -2.835015e+38
0.11256699 0.021250347 0.31200001 -2.7682929e+38
0.11307213 0.021250347 0.31200001 -2.7017271e+38
0.1139413 0.021318456 0.31300002 -2.6750383e+38
0.11495483 0.021318456 0.31300002 -2.6617464e+38
0.1154616 0.021318456 0.31300002 -2.6617464e+38
0.11596836 0.021318456 0.31300002 -2.7017796e+38
0.11684726 0.021386566 0.31400001 -2.7017796e+38
0.11786403 0.021386566 0.31400001 -2.7418128e+38
0.11837242 0.021386566 0.31400001 -2.7685017e+38
0.072696507 0.021616034 0.31 -3.0085462e+38
0.073198415 0.021616034 0.31 -3.0350788e+38
0.073700324 0.021616034 0.31 -3.0350788e+38
0.07470414 0.021616034 0.31 -2.9950456e+38
0.075206049 0.021616034 0.31 -2.9817012e+38
0.075707957 0.021616034 0.31 -2.9683568e+38
0.076711774 0.021616034 0.31 -2.9283236e+38
0.077213682 0.021616034 0.31 -2.8751021e+38
0.077715591 0.021616034 0.31 -2.8751021e+38
0.078217499 0.021616034 0.31 -2.8751021e+38
0.079221316 0.021616034 0.31 -2.8617577e+38
0.079723231 0.021616034 0.31 -2.8617577e+38
0.08022514 0.021616034 0.31 -2.8617577e+38
0.081228957 0.021616034 0.31 -2.8751021e+38
0.081467219 0.021546306 0.30900002 -2.8751021e+38
0.081967503 0.021546306 0.30900002 -2.9151354e+38
0.082968086 0.021546306 0.30900002 -2.9284798e+38
0.083468378 0.021546306 0.30900002 -2.9284798e+38
0.083696924 0.021476576 0.30800003 -2.9151354e+38
0.084300511 0.02112793 0.303 -2.8484137e+38
0.084511243 0.021058202 0.30200002 -2.8617581e+38
0.085206077 0.020988474 0.30100003 -2.9151358e+38
0.085693412 0.020988474 0.30100003 -2.9418242e+38
0.085894436 0.020918742 0.30000001 -2.9551686e+38
0.08657632 0.020849014 0.29900002 -2.9685645e+38
0.086769246 0.020779286 0.29800001 -2.9817527e+38
0.087439798 0.020709557 0.29700002 -2.9817012e+38
0.087920658 0.020709557 0.29700002 -2.9550124e+38
0.088401519 0.020709557 0.29700002 -2.9550124e+38
0.089062355 0.020639826 0.296 -2.941668e+38
0.089541599 0.020639826 0.296 -2.9283236e+38
0.090020843 0.020639826 0.296 -2.8882904e+38
0.090979323 0.020639826 0.296 -2.874946e+38
0.091149583 0.020570097 0.29500002 -2.874946e+38
0.09162721 0.020570097 0.29500002 -2.8748934e+38
0.092582457 0.020570097 0.29500002 -2.8748934e+38
0.093375534 0.020639826 0.296 -2.8748934e+38
0.093854778 0.020639826 0.296 -2.8748934e+38
0.094334021 0.020639826 0.296 -2.8748934e+38
0.095292501 0.020639826 0.296 -2.8349643e+38
0.095771745 0.020639826 0.296 -2.8483087e+38
0.095925815 0.020570097 0.29500002 -2.8349643e+38
0.096881062 0.020570097 0.29500002 -2.8349643e+38
0.097358681 0.020570097 0.29500002 -2.8349643e+38
0.097836308 0.020570097 0.29500002 -2.8349643e+38
0.098313928 0.020570097 0.29500002 -2.8483083e+38
0.099269174 0.020570097 0.29500002 -2.8349639e+38
0.099746801 0.020570097 0.29500002 -2.8349639e+38
0.10056417 0.020639826 0.296 -2.8349635e+38
0.10483745 0.020918742 0.30000001 -2.8082746e+38
0.10567424 0.020988474 0.30100003 -2.7949302e+38
0.11019208 0.021685762 0.31100002 -2.8083262e+38
0.1106956 0.021685762 0.31100002 -2.835015e+38
0.11307213 0.021755494 0.31200001 -2.7017271e+38
0.11357728 0.021755494 0.31200001 -2.6616939e+38
0.11495483 0.021825222 0.31300002 -2.6884352e+38
0.1154616 0.021825222 0.31300002 -2.6884352e+38
0.11596836 0.021825222 0.31300002 -2.6884352e+38
0.11647513 0.021825222 0.31300002 -2.7017796e+38
0.11748866 0.021825222 0.31300002 -2.7418128e+38
0.11799543 0.021825222 0.31300002 -2.7685017e+38
0.086769246 0.021261765 0.29800001 -2.9817527e+38
0.087439798 0.021190418 0.29700002 -2.9817012e+38
0.087920658 0.021190418 0.29700002 -2.9683568e+38
0.088401519 0.021190418 0.29700002 -2.9550124e+38
0.08936324 0.021190418 0.29700002 -2.9283236e+38
0.0898441 0.021190418 0.29700002 -2.9016348e+38
0.090020843 0.021119067 0.296 -2.8882904e+38
0.090979323 0.021119067 0.296 -2.874946e+38
0.091458566 0.021119067 0.296 -2.874946e+38
0.09193781 0.021119067 0.296 -2.8748934e+38
0.092417054 0.021119067 0.296 -2.861549e+38
0.093375534 0.021119067 0.296 -2.8748934e+38
0.093854778 0.021119067 0.296 -2.8615486e+38
0.094334021 0.021119067 0.296 -2.8615486e+38
0.095292501 0.021119067 0.296 -2.8482042e+38
0.095771745 0.021119067 0.296 -2.8483083e+38
0.096250989 0.021119067 0.296 -2.8349639e+38
0.096730225 0.021119067 0.296 -2.8349643e+38
0.097688712 0.021119067 0.296 -2.8349639e+38
0.097836308 0.021047721 0.29500002 -2.8082751e+38
0.098313928 0.021047721 0.29500002 -2.8483083e+38
0.099269174 0.021047721 0.29500002 -2.8349639e+38
0.10008492 0.021119067 0.296 -2.8349639e+38
0.10056417 0.021119067 0.296 -2.8349635e+38
0.072194599 0.022619853 0.31 -3.0086507e+38
0.072696507 0.022619853 0.31 -3.0086507e+38
0.073198415 0.022619853 0.31 -3.0217344e+38
0.073700324 0.022619853 0.31 -3.0350788e+38
0.07470414 0.022619853 0.31 -2.9950971e+38
0.075206049 0.022619853 0.31 -2.9684083e+38
0.075707957 0.022619853 0.31 -2.9684083e+38
0.076711774 0.022619853 0.31 -2.9283236e+38
0.077213682 0.022619853 0.31 -2.9283236e+38
0.077715591 0.022619853 0.31 -2.9016348e+38
0.078217499 0.022619853 0.31 -2.901791e+38
0.079221316 0.022619853 0.31 -2.8617577e+38
0.079723231 0.022619853 0.31 -2.8617577e+38
0.08022514 0.022619853 0.31 -2.8617577e+38
0.081228957 0.022619853 0.31 -2.8751021e+38
0.081467219 0.022546886 0.30900002 -2.901791e+38
0.081967503 0.022546886 0.30900002 -2.9151354e+38
0.082968086 0.022546886 0.30900002 -2.9284798e+38
0.083468378 0.022546886 0.30900002 -2.9284798e+38
0.083696924 0.022473918 0.30800003 -2.9151354e+38
0.084144302 0.022327984 0.30600002 -2.8751021e+38
0.084300511 0.02210908 0.303 -2.8484137e+38
0.084511243 0.022036115 0.30200002 -2.8751025e+38
0.085206077 0.021963147 0.30100003 -2.9284802e+38
0.085693412 0.021963147 0.30100003 -2.9418242e+38
0.086180754 0.021963147 0.30100003 -2.968513e+38
0.086865872 0.021890178 0.30000001 -2.9685645e+38
0.10813178 0.022473918 0.30800003 -2.8083262e+38
0.11256699 0.022765787 0.31200001 -2.7282593e+38
0.11307213 0.022765787 0.31200001 -2.6749868e+38
0.11357728 0.022765787 0.31200001 -2.6616424e+38
0.11458757 0.022765787 0.31200001 -2.6884352e+38
0.1154616 0.022838755 0.31300002 -2.6884352e+38
0.11596836 0.022838755 0.31300002 -2.7017796e+38
0.11647513 0.022838755 0.31300002 -2.715124e+38
0.11748866 0.022838755 0.31300002 -2.7551572e+38
0.11799543 0.022838755 0.31300002 -2.7685017e+38
0.072194599 0.023121761 0.31 -3.0086503e+38
0.072696507 0.023121761 0.31 -3.0086503e+38
0.073198415 0.023121761 0.31 -3.0217344e+38
