# .PCD v0.7 - Point Cloud Data file format
VERSION 0.7
FIELDS x y z rgb
SIZE 4 4 4 4
TYPE F F F F
COUNT 1 1 1 1
WIDTH 926
HEIGHT 1
VIEWPOINT 0 0 0 1 0 0 0
POINTS 926
DATA ascii
-0.023017572 -0.042947277 0.354 -2.4745097e+38
-0.022507826 -0.043068599 0.35500002 -2.4745097e+38
-0.021358293 -0.043068599 0.35500002 -2.4878542e+38
-0.020783525 -0.043068599 0.35500002 -2.4878542e+38
-0.020208759 -0.043068599 0.35500002 -2.514543e+38
-0.019633992 -0.043068599 0.35500002 -2.5278878e+38
-0.01848446 -0.043068599 0.35500002 -2.6212986e+38
-0.017909693 -0.043068599 0.35500002 -2.6746762e+38
-0.017334927 -0.043068599 0.35500002 -2.6879691e+38
-0.016139802 -0.042947277 0.354 -2.7146579e+38
-0.015566655 -0.042947277 0.354 -2.7413468e+38
-0.014993506 -0.042947277 0.354 -2.7546912e+38
-0.013808095 -0.04282596 0.35300002 -2.7546912e+38
-0.013199069 -0.042704638 0.35200003 -2.7680356e+38
-0.01262916 -0.042704638 0.35200003 -2.7547427e+38
-0.01148934 -0.042704638 0.35200003 -2.7547427e+38
-0.01088841 -0.04258332 0.35100001 -2.7413983e+38
-0.010349521 -0.042704638 0.35200003 -2.7013651e+38
-0.0092097027 -0.042704638 0.35200003 -2.6613318e+38
-0.0086397938 -0.042704638 0.35200003 -2.6212986e+38
-0.008069884 -0.042704638 0.35200003 -2.6079542e+38
-0.0074999747 -0.042704638 0.35200003 -2.5946098e+38
-0.006360156 -0.042704638 0.35200003 -2.5278878e+38
-0.0057902467 -0.042704638 0.35200003 -2.5278878e+38
-0.0052203373 -0.042704638 0.35200003 -2.5278878e+38
-0.0046636392 -0.04282596 0.35300002 -2.514543e+38
-0.0035205823 -0.04282596 0.35300002 -2.5145434e+38
-0.0029490539 -0.04282596 0.35300002 -2.5545766e+38
-0.0023707903 -0.042704638 0.35200003 -2.5945583e+38
-0.0012309715 -0.042704638 0.35200003 -2.7013135e+38
-0.00066106219 -0.042704638 0.35200003 -2.7413468e+38
-9.1152804e-05 -0.042704638 0.35200003 -2.7680871e+38
0.001048666 -0.042704638 0.35200003 -2.7814315e+38
0.0016139771 -0.04258332 0.35100001 -2.7814315e+38
0.0027348851 -0.042340677 0.34900001 -2.848102e+38
0.0032904819 -0.042219359 0.34800002 -2.8881863e+38
0.0038428407 -0.042098042 0.347 -2.9148751e+38
-0.031168249 -0.041210573 0.34900001 -2.5276274e+38
-0.030124214 -0.041328657 0.35000002 -2.5010943e+38
-0.029641991 -0.041446738 0.35100001 -2.5010943e+38
-0.029073702 -0.041446738 0.35100001 -2.4877499e+38
-0.028586624 -0.041564818 0.35200003 -2.4611657e+38
-0.028016714 -0.041564818 0.35200003 -2.4611657e+38
-0.026876895 -0.041564818 0.35200003 -2.4611657e+38
-0.026306985 -0.041564818 0.35200003 -2.4611653e+38
-0.025810191 -0.041682903 0.35300002 -2.4344765e+38
-0.025238663 -0.041682903 0.35300002 -2.4611657e+38
-0.024095606 -0.041682903 0.35300002 -2.4611657e+38
-0.023590719 -0.041800983 0.354 -2.4611657e+38
-0.023017572 -0.041800983 0.354 -2.4611657e+38
-0.022507826 -0.041919068 0.35500002 -2.4611657e+38
-0.021418456 -0.042037148 0.35600001 -2.4745102e+38
-0.020842072 -0.042037148 0.35600001 -2.4745102e+38
-0.020265685 -0.042037148 0.35600001 -2.501199e+38
-0.019689299 -0.042037148 0.35600001 -2.5278363e+38
-0.018536529 -0.042037148 0.35600001 -2.6079027e+38
-0.017960142 -0.042037148 0.35600001 -2.6479359e+38
-0.017383758 -0.042037148 0.35600001 -2.6746247e+38
-0.016807372 -0.042037148 0.35600001 -2.6879691e+38
-0.015610627 -0.041919068 0.35500002 -2.7146583e+38
-0.01503586 -0.041919068 0.35500002 -2.7146583e+38
-0.013847211 -0.041800983 0.354 -2.7413468e+38
-0.013236566 -0.041682903 0.35300002 -2.7413468e+38
-0.012665038 -0.041682903 0.35300002 -2.7413468e+38
-0.01148934 -0.041564818 0.35200003 -2.7013135e+38
-0.010919431 -0.041564818 0.35200003 -2.6746247e+38
-0.010349521 -0.041564818 0.35200003 -2.6612803e+38
-0.0092097027 -0.041564818 0.35200003 -2.6212986e+38
-0.0086397938 -0.041564818 0.35200003 -2.5946098e+38
-0.008069884 -0.041564818 0.35200003 -2.5812654e+38
-0.0074999747 -0.041564818 0.35200003 -2.5545766e+38
-0.006360156 -0.041564818 0.35200003 -2.5011474e+38
-0.0058066961 -0.041682903 0.35300002 -2.5011474e+38
-0.0052351677 -0.041682903 0.35300002 -2.5011474e+38
-0.0046636392 -0.041682903 0.35300002 -2.501199e+38
-0.0035205823 -0.041682903 0.35300002 -2.501199e+38
-0.0029490539 -0.041682903 0.35300002 -2.5145434e+38
-0.0023775254 -0.041682903 0.35300002 -2.5812139e+38
-0.0012344687 -0.041682903 0.35300002 -2.6879691e+38
-0.00066294021 -0.041682903 0.35300002 -2.7146579e+38
-9.1152804e-05 -0.041564818 0.35200003 -2.7413983e+38
0.001048666 -0.041564818 0.35200003 -2.7546912e+38
0.0016185753 -0.041564818 0.35200003 -2.7546912e+38
0.0021760501 -0.041328657 0.35000002 -2.7546912e+38
0.0032904819 -0.041092493 0.34800002 -2.7947244e+38
0.0038428407 -0.040974412 0.347 -2.8080688e+38
-0.031257555 -0.040761985 0.35000002 -2.4878014e+38
-0.030778572 -0.040878449 0.35100001 -2.5010943e+38
-0.029641991 -0.040878449 0.35100001 -2.4877499e+38
-0.029156532 -0.040994909 0.35200003 -2.4610611e+38
-0.028586624 -0.040994909 0.35200003 -2.4344769e+38
-0.028016714 -0.040994909 0.35200003 -2.4344769e+38
-0.026876895 -0.040994909 0.35200003 -2.4611657e+38
-0.02638172 -0.041111376 0.35300002 -2.4344769e+38
-0.025810191 -0.041111376 0.35300002 -2.4344769e+38
-0.025238663 -0.041111376 0.35300002 -2.4344769e+38
-0.024163866 -0.041227836 0.354 -2.4344769e+38
-0.023590719 -0.041227836 0.354 -2.4611657e+38
-0.023082592 -0.0413443 0.35500002 -2.4611657e+38
-0.022571228 -0.041460764 0.35600001 -2.4611657e+38
-0.021418456 -0.041460764 0.35600001 -2.4745102e+38
-0.020842072 -0.041460764 0.35600001 -2.4744586e+38
-0.020322612 -0.041577224 0.35700002 -2.487803e+38
-0.019744607 -0.041577224 0.35700002 -2.5144919e+38
-0.018588597 -0.041577224 0.35700002 -2.5945583e+38
-0.018010594 -0.041577224 0.35700002 -2.6479359e+38
-0.017432589 -0.041577224 0.35700002 -2.6746251e+38
-0.016854584 -0.041577224 0.35700002 -2.6879695e+38
-0.015698574 -0.041577224 0.35700002 -2.7013139e+38
-0.015078215 -0.041460764 0.35600001 -2.7013139e+38
-0.014461094 -0.0413443 0.35500002 -2.7013139e+38
-0.013274064 -0.041227836 0.354 -2.7146583e+38
-0.012665038 -0.041111376 0.35300002 -2.7146583e+38
-0.011521981 -0.041111376 0.35300002 -2.6879691e+38
-0.010950453 -0.041111376 0.35300002 -2.6879691e+38
-0.010349521 -0.040994909 0.35200003 -2.6612803e+38
-0.0092097027 -0.040994909 0.35200003 -2.6079027e+38
-0.0086397938 -0.040994909 0.35200003 -2.5945583e+38
-0.008069884 -0.040994909 0.35200003 -2.5812139e+38
-0.007521282 -0.041111376 0.35300002 -2.5278363e+38
-0.0063782246 -0.041111376 0.35300002 -2.487803e+38
-0.0058066961 -0.041111376 0.35300002 -2.487803e+38
-0.0052351677 -0.041111376 0.35300002 -2.487803e+38
-0.0046636392 -0.041111376 0.35300002 -2.487803e+38
-0.0035305556 -0.041227836 0.354 -2.501199e+38
-0.0029574081 -0.041227836 0.354 -2.5145434e+38
-0.0023842608 -0.041227836 0.354 -2.5812139e+38
-0.0018111131 -0.041227836 0.354 -2.6479359e+38
-0.00066481822 -0.041227836 0.354 -2.7013135e+38
-9.1670721e-05 -0.041227836 0.354 -2.7413468e+38
0.001048666 -0.040994909 0.35200003 -2.7413468e+38
0.0016185753 -0.040994909 0.35200003 -2.7546912e+38
0.0021822674 -0.040878449 0.35100001 -2.7546912e+38
-0.031824227 -0.040195316 0.35000002 -2.7948266e+38
-0.030778572 -0.040310159 0.35100001 -2.4344765e+38
-0.029726442 -0.040424999 0.35200003 -2.4344769e+38
-0.029156532 -0.040424999 0.35200003 -2.4344769e+38
-0.028586624 -0.040424999 0.35200003 -2.4211325e+38
-0.028016714 -0.040424999 0.35200003 -2.4211325e+38
-0.026953248 -0.040539846 0.35300002 -2.4344769e+38
-0.02638172 -0.040539846 0.35300002 -2.4344769e+38
-0.025810191 -0.040539846 0.35300002 -2.4344769e+38
-0.025310162 -0.040654689 0.354 -2.4344769e+38
-0.024163866 -0.040654689 0.354 -2.4344769e+38
-0.023657359 -0.040769536 0.35500002 -2.4344769e+38
-0.023082592 -0.040769536 0.35500002 -2.4611657e+38
-0.022571228 -0.040884376 0.35600001 -2.4611657e+38
-0.022056626 -0.040999219 0.35700002 -2.4744586e+38
-0.020900616 -0.040999219 0.35700002 -2.4744586e+38
-0.020322612 -0.040999219 0.35700002 -2.487803e+38
-0.019799914 -0.041114066 0.35800001 -2.5144919e+38
-0.019220291 -0.041114066 0.35800001 -2.5678695e+38
-0.018061044 -0.041114066 0.35800001 -2.6212471e+38
-0.01748142 -0.041114066 0.35800001 -2.6746251e+38
-0.016854584 -0.040999219 0.35700002 -2.6879695e+38
-0.015698574 -0.040999219 0.35700002 -2.7013139e+38
-0.015078215 -0.040884376 0.35600001 -2.7013139e+38
-0.014501829 -0.040884376 0.35600001 -2.7013139e+38
-0.01331156 -0.040769536 0.35500002 -2.7013139e+38
-0.012700915 -0.040654689 0.354 -2.7013139e+38
-0.012127768 -0.040654689 0.354 -2.7013139e+38
-0.010950453 -0.040539846 0.35300002 -2.6746247e+38
-0.010378924 -0.040539846 0.35300002 -2.6612803e+38
-0.0098073957 -0.040539846 0.35300002 -2.6479359e+38
-0.0086643388 -0.040539846 0.35300002 -2.5812139e+38
-0.0080928104 -0.040539846 0.35300002 -2.5678695e+38
-0.007521282 -0.040539846 0.35300002 -2.5278363e+38
-0.0063782246 -0.040539846 0.35300002 -2.487803e+38
-0.0058066961 -0.040539846 0.35300002 -2.487803e+38
-0.0052499981 -0.040654689 0.354 -2.487803e+38
-0.0046768505 -0.040654689 0.354 -2.487803e+38
-0.0035305556 -0.040654689 0.354 -2.487803e+38
-0.0029657625 -0.040769536 0.35500002 -2.5011474e+38
-0.0023909961 -0.040769536 0.35500002 -2.5678695e+38
-0.0018162294 -0.040769536 0.35500002 -2.6479359e+38
-0.00066669623 -0.040769536 0.35500002 -2.7146579e+38
-9.1929673e-05 -0.040769536 0.35500002 -2.7413468e+38
0.00048283688 -0.040769536 0.35500002 -2.7546912e+38
0.0016185753 -0.040424999 0.35200003 -2.7413468e+38
0.0042523323 -0.037930273 0.33500001 -2.7680356e+38
0.0047804047 -0.03781705 0.33400002 -2.78138e+38
0.0053211711 -0.03781705 0.33400002 -2.7680356e+38
-0.031346861 -0.039173577 0.35100001 -2.4481319e+38
-0.030778572 -0.039173577 0.35100001 -2.4479254e+38
-0.029726442 -0.039285183 0.35200003 -2.4078407e+38
-0.029156532 -0.039285183 0.35200003 -2.4078407e+38
-0.028667834 -0.039396789 0.35300002 -2.4078407e+38
-0.028096305 -0.039396789 0.35300002 -2.4078407e+38
-0.026953248 -0.039396789 0.35300002 -2.4211851e+38
-0.026456457 -0.039508395 0.354 -2.4078407e+38
-0.02588331 -0.039508395 0.354 -2.4078407e+38
-0.025310162 -0.039508395 0.354 -2.4078407e+38
-0.024806891 -0.039620001 0.35500002 -2.4211851e+38
-0.023657359 -0.039620001 0.35500002 -2.4344254e+38
-0.023147613 -0.039731607 0.35600001 -2.4344254e+38
-0.022571228 -0.039731607 0.35600001 -2.4611142e+38
-0.022056626 -0.039843209 0.35700002 -2.4478739e+38
-0.020900616 -0.039843209 0.35700002 -2.4612183e+38
-0.020379538 -0.039954819 0.35800001 -2.4745627e+38
-0.019799914 -0.039954819 0.35800001 -2.5012515e+38
-0.019220291 -0.039954819 0.35800001 -2.5412847e+38
-0.018061044 -0.039954819 0.35800001 -2.6080067e+38
-0.01748142 -0.039954819 0.35800001 -2.6480404e+38
-0.016901797 -0.039954819 0.35800001 -2.6613848e+38
-0.015698574 -0.039843209 0.35700002 -2.6747292e+38
-0.01512057 -0.039843209 0.35700002 -2.6880736e+38
-0.014501829 -0.039731607 0.35600001 -2.6880736e+38
-0.013349058 -0.039731607 0.35600001 -2.6880736e+38
-0.012736795 -0.039620001 0.35500002 -2.6880736e+38
-0.012127768 -0.039508395 0.354 -2.6747292e+38
-0.010981473 -0.039508395 0.354 -2.6613848e+38
-0.010378924 -0.039396789 0.35300002 -2.6612803e+38
-0.0098073957 -0.039396789 0.35300002 -2.6479359e+38
-0.0086643388 -0.039396789 0.35300002 -2.5679735e+38
-0.0080928104 -0.039396789 0.35300002 -2.5546291e+38
-0.007521282 -0.039396789 0.35300002 -2.5145959e+38
-0.0069694407 -0.039508395 0.354 -2.4879071e+38
-0.0058231456 -0.039508395 0.354 -2.4612183e+38
-0.0052499981 -0.039508395 0.354 -2.4612183e+38
-0.0046900623 -0.039620001 0.35500002 -2.4612183e+38
-0.0041152956 -0.039620001 0.35500002 -2.4612183e+38
-0.0029741167 -0.039731607 0.35600001 -2.5144919e+38
-0.0023977312 -0.039731607 0.35600001 -2.5678695e+38
-0.0018213455 -0.039731607 0.35600001 -2.6479359e+38
-0.0012484569 -0.039843209 0.35700002 -2.6879691e+38
-9.1929673e-05 -0.039620001 0.35500002 -2.7413468e+38
0.00048283688 -0.039620001 0.35500002 -2.7413468e+38
-0.031257555 -0.038495302 0.35000002 -2.5148539e+38
-0.030778572 -0.038605288 0.35100001 -2.4212366e+38
-0.029726442 -0.038715273 0.35200003 -2.3944963e+38
-0.029239362 -0.038825262 0.35300002 -2.3944963e+38
-0.028667834 -0.038825262 0.35300002 -2.3944963e+38
-0.028175898 -0.038935248 0.354 -2.4078407e+38
-0.027602751 -0.038935248 0.354 -2.4078407e+38
-0.026456457 -0.038935248 0.354 -2.4078407e+38
-0.025956424 -0.039045237 0.35500002 -2.4078407e+38
-0.025381658 -0.039045237 0.35500002 -2.4078407e+38
-0.024806891 -0.039045237 0.35500002 -2.4211851e+38
-0.023723999 -0.039155222 0.35600001 -2.4344254e+38
-0.023147613 -0.039155222 0.35600001 -2.4211851e+38
-0.022634631 -0.039265204 0.35700002 -2.4478739e+38
-0.022056626 -0.039265204 0.35700002 -2.4478739e+38
-0.020959161 -0.039375193 0.35800001 -2.4612183e+38
-0.020379538 -0.039375193 0.35800001 -2.4745627e+38
-0.019799914 -0.039375193 0.35800001 -2.5012515e+38
-0.019220291 -0.039375193 0.35800001 -2.5412847e+38
-0.018061044 -0.039375193 0.35800001 -2.6080067e+38
-0.017530249 -0.039485179 0.35900003 -2.6480404e+38
-0.016901797 -0.039375193 0.35800001 -2.6613848e+38
-0.015742548 -0.039375193 0.35800001 -2.6747292e+38
-0.01512057 -0.039265204 0.35700002 -2.6880736e+38
-0.014542565 -0.039265204 0.35700002 -2.6880736e+38
-0.013349058 -0.039155222 0.35600001 -2.6880736e+38
-0.012736795 -0.039045237 0.35500002 -2.6880736e+38
-0.012162028 -0.039045237 0.35500002 -2.6747292e+38
-0.011012495 -0.039045237 0.35500002 -2.6613848e+38
-0.010408326 -0.038935248 0.354 -2.6612803e+38
-0.009835178 -0.038935248 0.354 -2.6479359e+38
-0.0086888829 -0.038935248 0.354 -2.5812139e+38
-0.0081157358 -0.038935248 0.354 -2.5546291e+38
-0.0075425883 -0.038935248 0.354 -2.5145959e+38
-0.0069694407 -0.038935248 0.354 -2.4879071e+38
-0.0058395951 -0.039045237 0.35500002 -2.4478739e+38
-0.0052648284 -0.039045237 0.35500002 -2.4478739e+38
-0.0046900623 -0.039045237 0.35500002 -2.4612183e+38
-0.0041268878 -0.039155222 0.35600001 -2.4612183e+38
-0.0029741167 -0.039155222 0.35600001 -2.4879071e+38
-0.0024044663 -0.039265204 0.35700002 -2.5678695e+38
-0.0018264616 -0.039265204 0.35700002 -2.6479359e+38
-0.0012484569 -0.039265204 0.35700002 -2.6879691e+38
-9.244759e-05 -0.039265204 0.35700002 -2.7413468e+38
0.0036988724 -0.036735516 0.33400002 -2.7013135e+38
0.0042396388 -0.036735516 0.33400002 -2.7413468e+38
0.0047660922 -0.036625531 0.333 -2.7546912e+38
0.0058443868 -0.036625531 0.333 -2.7680356e+38
0.0063835341 -0.036625531 0.333 -2.8481e+38
-0.031257555 -0.03792863 0.35000002 -2.5547313e+38
-0.030124214 -0.03792863 0.35000002 -2.4078922e+38
-0.029726442 -0.038145363 0.35200003 -2.3944963e+38
-0.029239362 -0.038253732 0.35300002 -2.3944963e+38
-0.028749045 -0.038362101 0.354 -2.3944963e+38
-0.028175898 -0.038362101 0.354 -2.4078407e+38
-0.027602751 -0.038362101 0.354 -2.4078407e+38
-0.026531192 -0.038470469 0.35500002 -2.4078407e+38
-0.025956424 -0.038470469 0.35500002 -2.4078407e+38
-0.025381658 -0.038470469 0.35500002 -2.4078407e+38
-0.02487677 -0.038578834 0.35600001 -2.4078407e+38
-0.023723999 -0.038578834 0.35600001 -2.4211851e+38
-0.023212636 -0.038687203 0.35700002 -2.4211851e+38
-0.022634631 -0.038687203 0.35700002 -2.4211851e+38
-0.022056626 -0.038687203 0.35700002 -2.4478739e+38
-0.020959161 -0.038795572 0.35800001 -2.4612183e+38
-0.020379538 -0.038795572 0.35800001 -2.4745627e+38
-0.019799914 -0.038795572 0.35800001 -2.5012515e+38
-0.019220291 -0.038795572 0.35800001 -2.5412847e+38
-0.018111492 -0.038903937 0.35900003 -2.6080067e+38
-0.017530249 -0.038903937 0.35900003 -2.6480404e+38
-0.016949005 -0.038903937 0.35900003 -2.6613848e+38
-0.015742548 -0.038795572 0.35800001 -2.6747292e+38
-0.01512057 -0.038687203 0.35700002 -2.6880736e+38
-0.014542565 -0.038687203 0.35700002 -2.6880736e+38
-0.013349058 -0.038578834 0.35600001 -2.6880736e+38
-0.012772672 -0.038578834 0.35600001 -2.6880736e+38
-0.012196287 -0.038578834 0.35600001 -2.6747292e+38
-0.011012495 -0.038470469 0.35500002 -2.6613848e+38
-0.010437728 -0.038470469 0.35500002 -2.6612803e+38
-0.0098629612 -0.038470469 0.35500002 -2.6479359e+38
-0.0092881946 -0.038470469 0.35500002 -2.6079027e+38
-0.0081386622 -0.038470469 0.35500002 -2.5546291e+38
-0.0075638951 -0.038470469 0.35500002 -2.5145959e+38
-0.0069891289 -0.038470469 0.35500002 -2.4879071e+38
-0.0058395951 -0.038470469 0.35500002 -2.4478739e+38
-0.0052796593 -0.038578834 0.35600001 -2.4478739e+38
-0.0047032735 -0.038578834 0.35600001 -2.4612183e+38
-0.0041268878 -0.038578834 0.35600001 -2.4612183e+38
-0.0035604758 -0.038687203 0.35700002 -2.4612183e+38
-0.0024044663 -0.038687203 0.35700002 -2.5546295e+38
-0.0018264616 -0.038687203 0.35700002 -2.634696e+38
-0.0012484569 -0.038687203 0.35700002 -2.6747292e+38
-0.00067233032 -0.038795572 0.35800001 -2.6880736e+38
0.0036988724 -0.036194749 0.33400002 -2.7146579e+38
0.0042269449 -0.036086384 0.333 -2.7413468e+38
0.0047660922 -0.036086384 0.333 -2.7546912e+38
0.0058443868 -0.036086384 0.333 -2.9949931e+38
-0.031168249 -0.037255209 0.34900001 -2.5813165e+38
-0.030124214 -0.037361961 0.35000002 -2.4078407e+38
-0.029726442 -0.037575454 0.35200003 -2.3944963e+38
-0.029322192 -0.03778895 0.354 -2.3944963e+38
-0.028749045 -0.03778895 0.354 -2.3944963e+38
-0.028255491 -0.037895702 0.35500002 -2.3944963e+38
-0.027680725 -0.037895702 0.35500002 -2.4078407e+38
-0.026531192 -0.037895702 0.35500002 -2.4078407e+38
-0.025956424 -0.037895702 0.35500002 -2.4078407e+38
-0.025453156 -0.03800245 0.35600001 -2.4078407e+38
-0.02487677 -0.03800245 0.35600001 -2.4078407e+38
-0.023723999 -0.03800245 0.35600001 -2.4078407e+38
-0.023212636 -0.038109198 0.35700002 -2.4211851e+38
-0.022634631 -0.038109198 0.35700002 -2.4211851e+38
-0.02211841 -0.038215946 0.35800001 -2.4478739e+38
-0.020959161 -0.038215946 0.35800001 -2.4612183e+38
-0.020379538 -0.038215946 0.35800001 -2.4745627e+38
-0.019799914 -0.038215946 0.35800001 -2.5012515e+38
-0.019220291 -0.038215946 0.35800001 -2.5412847e+38
-0.018111492 -0.038322695 0.35900003 -2.6080067e+38
-0.017530249 -0.038322695 0.35900003 -2.634696e+38
-0.016949005 -0.038322695 0.35900003 -2.6480404e+38
-0.015742548 -0.038215946 0.35800001 -2.6747292e+38
-0.015162924 -0.038215946 0.35800001 -2.6880736e+38
-0.014542565 -0.038109198 0.35700002 -2.6880736e+38
-0.013386556 -0.038109198 0.35700002 -2.6880736e+38
-0.012772672 -0.03800245 0.35600001 -2.6880736e+38
-0.012196287 -0.03800245 0.35600001 -2.6747292e+38
-0.011619901 -0.03800245 0.35600001 -2.6747292e+38
-0.01046713 -0.03800245 0.35600001 -2.6480404e+38
-0.0098907445 -0.03800245 0.35600001 -2.634696e+38
-0.0093143582 -0.03800245 0.35600001 -2.5946623e+38
-0.0081615876 -0.03800245 0.35600001 -2.5546291e+38
-0.0075852014 -0.03800245 0.35600001 -2.5145959e+38
-0.0070088161 -0.03800245 0.35600001 -2.4879071e+38
-0.0064324304 -0.03800245 0.35600001 -2.4745627e+38
-0.0052796593 -0.03800245 0.35600001 -2.4478739e+38
-0.0047164853 -0.038109198 0.35700002 -2.4612183e+38
-0.0041384804 -0.038109198 0.35700002 -2.4612183e+38
-0.0035604758 -0.038109198 0.35700002 -2.4612183e+38
-0.0024044663 -0.038109198 0.35700002 -2.5546295e+38
-0.0018264616 -0.038109198 0.35700002 -2.634696e+38
-0.001251954 -0.038215946 0.35800001 -2.6879695e+38
-9.2188631e-05 -0.03800245 0.35600001 -2.7281068e+38
0.0036877978 -0.035547234 0.333 -2.7146579e+38
0.0042269449 -0.035547234 0.333 -2.7814311e+38
0.0047660922 -0.035547234 0.333 -3.008286e+38
-0.031545099 -0.034675959 0.33500001 -2.8878726e+38
-0.031168249 -0.036125105 0.34900001 -2.5409718e+38
-0.030124214 -0.036228616 0.35000002 -2.3944963e+38
-0.029726442 -0.036435634 0.35200003 -2.3944963e+38
-0.029322192 -0.036642656 0.354 -2.3944963e+38
-0.028830258 -0.03674617 0.35500002 -2.3944963e+38
-0.028335085 -0.036849678 0.35600001 -2.3944963e+38
-0.027758699 -0.036849678 0.35600001 -2.3944963e+38
-0.026605926 -0.036849678 0.35600001 -2.3944963e+38
-0.026029542 -0.036849678 0.35600001 -2.4078407e+38
-0.025453156 -0.036849678 0.35600001 -2.4078407e+38
-0.02487677 -0.036849678 0.35600001 -2.4078407e+38
-0.023790641 -0.036953188 0.35700002 -2.4211851e+38
-0.023212636 -0.036953188 0.35700002 -2.4211851e+38
-0.022634631 -0.036953188 0.35700002 -2.4211851e+38
-0.02211841 -0.037056699 0.35800001 -2.4478739e+38
-0.020959161 -0.037056699 0.35800001 -2.4478739e+38
-0.020379538 -0.037056699 0.35800001 -2.4745627e+38
-0.019799914 -0.037056699 0.35800001 -2.4879071e+38
-0.019220291 -0.037056699 0.35800001 -2.5412847e+38
-0.018111492 -0.03716021 0.35900003 -2.6080071e+38
-0.01748142 -0.037056699 0.35800001 -2.6346964e+38
-0.016901797 -0.037056699 0.35800001 -2.6480408e+38
-0.015742548 -0.037056699 0.35800001 -2.6747292e+38
-0.015162924 -0.037056699 0.35800001 -2.6880736e+38
-0.014542565 -0.036953188 0.35700002 -2.6880736e+38
-0.013386556 -0.036953188 0.35700002 -2.6880736e+38
-0.012808551 -0.036953188 0.35700002 -2.6880736e+38
-0.012230546 -0.036953188 0.35700002 -2.6747292e+38
-0.011652541 -0.036953188 0.35700002 -2.6747292e+38
-0.01046713 -0.036849678 0.35600001 -2.6480404e+38
-0.0098907445 -0.036849678 0.35600001 -2.634696e+38
-0.0093143582 -0.036849678 0.35600001 -2.5946627e+38
-0.0081615876 -0.036849678 0.35600001 -2.5546295e+38
-0.0075852014 -0.036849678 0.35600001 -2.5145963e+38
-0.0070088161 -0.036849678 0.35600001 -2.4879075e+38
-0.0064504994 -0.036953188 0.35700002 -2.4745631e+38
-0.0052944901 -0.036953188 0.35700002 -2.4478743e+38
-0.0047164853 -0.036953188 0.35700002 -2.4612187e+38
-0.0041384804 -0.036953188 0.35700002 -2.4745631e+38
-0.0035604758 -0.036953188 0.35700002 -2.4745631e+38
-0.0024044663 -0.036953188 0.35700002 -2.5679739e+38
-0.0018264616 -0.036953188 0.35700002 -2.6480404e+38
-0.001251954 -0.037056699 0.35800001 -2.6880736e+38
-0.032532468 -0.034031685 0.33400002 -2.8478909e+38
-0.031991702 -0.034031685 0.33400002 -2.7678244e+38
-0.031545099 -0.034133576 0.33500001 -2.7277405e+38
-0.031168249 -0.035560053 0.34900001 -2.4877503e+38
-0.030124214 -0.035661947 0.35000002 -2.407737e+38
-0.029726442 -0.035865728 0.35200003 -2.3944967e+38
-0.028830258 -0.036171403 0.35500002 -2.3811518e+38
-0.028335085 -0.036273293 0.35600001 -2.3944963e+38
-0.027758699 -0.036273293 0.35600001 -2.3944963e+38
-0.026605926 -0.036273293 0.35600001 -2.3944963e+38
-0.026029542 -0.036273293 0.35600001 -2.4078407e+38
-0.025524653 -0.036375184 0.35700002 -2.4078407e+38
-0.024946649 -0.036375184 0.35700002 -2.4078407e+38
-0.023790641 -0.036375184 0.35700002 -2.4078407e+38
-0.023212636 -0.036375184 0.35700002 -2.4211851e+38
-0.022698034 -0.036477078 0.35800001 -2.4211851e+38
-0.02211841 -0.036477078 0.35800001 -2.4211851e+38
-0.020959161 -0.036477078 0.35800001 -2.4478739e+38
-0.020379538 -0.036477078 0.35800001 -2.4612183e+38
-0.01985522 -0.036578968 0.35900003 -2.4879071e+38
-0.019273978 -0.036578968 0.35900003 -2.5145959e+38
-0.018111492 -0.036578968 0.35900003 -2.6080071e+38
-0.01748142 -0.036477078 0.35800001 -2.6346964e+38
-0.016901797 -0.036477078 0.35800001 -2.6480408e+38
-0.015742548 -0.036477078 0.35800001 -2.6747296e+38
-0.015162924 -0.036477078 0.35800001 -2.6880736e+38
-0.014542565 -0.036375184 0.35700002 -2.6880736e+38
-0.013386556 -0.036375184 0.35700002 -2.6880736e+38
-0.012808551 -0.036375184 0.35700002 -2.6747292e+38
-0.012230546 -0.036375184 0.35700002 -2.6747292e+38
-0.011652541 -0.036375184 0.35700002 -2.6747292e+38
-0.010496533 -0.036375184 0.35700002 -2.6480404e+38
-0.0099185277 -0.036375184 0.35700002 -2.634696e+38
-0.0093405228 -0.036375184 0.35700002 -2.5813183e+38
-0.0087625179 -0.036375184 0.35700002 -2.5813183e+38
-0.0076065087 -0.036375184 0.35700002 -2.5145963e+38
-0.0070285038 -0.036375184 0.35700002 -2.4879075e+38
-0.0064504994 -0.036375184 0.35700002 -2.4879075e+38
-0.0052944901 -0.036375184 0.35700002 -2.4612187e+38
-0.0047164853 -0.036375184 0.35700002 -2.4612187e+38
-0.0041384804 -0.036375184 0.35700002 -2.4745631e+38
-0.0035604758 -0.036375184 0.35700002 -2.4745631e+38
-0.0024044663 -0.036375184 0.35700002 -2.5679739e+38
-0.0018264616 -0.036375184 0.35700002 -2.634696e+38
-0.001251954 -0.036477078 0.35800001 -2.688074e+38
-0.032974213 -0.033390649 0.333 -2.8213057e+38
-0.032435067 -0.033390649 0.333 -2.7143957e+38
-0.031991702 -0.033490919 0.33400002 -2.6476737e+38
-0.031545099 -0.033591188 0.33500001 -2.6476225e+38
-0.030124214 -0.035095274 0.35000002 -2.3810482e+38
-0.029726442 -0.035295818 0.35200003 -2.3811523e+38
-0.02891147 -0.035696909 0.35600001 -2.3811518e+38
-0.028414678 -0.035797179 0.35700002 -2.3944963e+38
-0.027836673 -0.035797179 0.35700002 -2.3944963e+38
-0.027258668 -0.035797179 0.35700002 -2.3811518e+38
-0.026102658 -0.035797179 0.35700002 -2.4078407e+38
-0.025524653 -0.035797179 0.35700002 -2.4078407e+38
-0.024946649 -0.035797179 0.35700002 -2.4078407e+38
-0.023790641 -0.035797179 0.35700002 -2.4211851e+38
-0.023277657 -0.035897452 0.35800001 -2.4211851e+38
-0.022698034 -0.035897452 0.35800001 -2.4211851e+38
-0.02211841 -0.035897452 0.35800001 -2.4211851e+38
-0.020959161 -0.035897452 0.35800001 -2.4478739e+38
-0.020436464 -0.035997722 0.35900003 -2.4745627e+38
-0.01985522 -0.035997722 0.35900003 -2.5012515e+38
-0.019273978 -0.035997722 0.35900003 -2.5145959e+38
-0.018111492 -0.035997722 0.35900003 -2.6080076e+38
-0.017530249 -0.035997722 0.35900003 -2.6346964e+38
-0.016901797 -0.035897452 0.35800001 -2.6480408e+38
-0.015742548 -0.035897452 0.35800001 -2.6613852e+38
-0.015162924 -0.035897452 0.35800001 -2.6747292e+38
-0.014583301 -0.035897452 0.35800001 -2.6880736e+38
-0.013386556 -0.035797179 0.35700002 -2.6880736e+38
-0.012808551 -0.035797179 0.35700002 -2.6880736e+38
-0.012230546 -0.035797179 0.35700002 -2.6880736e+38
-0.011652541 -0.035797179 0.35700002 -2.6747292e+38
-0.010496533 -0.035797179 0.35700002 -2.6480404e+38
-0.0099185277 -0.035797179 0.35700002 -2.634696e+38
-0.0093405228 -0.035797179 0.35700002 -2.5813183e+38
-0.0087625179 -0.035797179 0.35700002 -2.5813183e+38
-0.0076065087 -0.035797179 0.35700002 -2.5145963e+38
-0.0070285038 -0.035797179 0.35700002 -2.4879075e+38
-0.006468568 -0.035897452 0.35800001 -2.4879075e+38
-0.0053093205 -0.035897452 0.35800001 -2.4612191e+38
-0.0047296965 -0.035897452 0.35800001 -2.4612187e+38
-0.004150073 -0.035897452 0.35800001 -2.4745631e+38
-0.0035704491 -0.035897452 0.35800001 -2.4879075e+38
-0.0024112016 -0.035897452 0.35800001 -2.5414413e+38
-0.0018315779 -0.035897452 0.35800001 -2.6081633e+38
-0.001251954 -0.035897452 0.35800001 -2.6615414e+38
-0.032875191 -0.032752845 0.33200002 -2.6744661e+38
-0.032435067 -0.032851499 0.333 -2.6077445e+38
-0.031991702 -0.032950152 0.33400002 -2.5677113e+38
-0.031545099 -0.033048805 0.33500001 -2.5543158e+38
-0.028992683 -0.034641169 0.35700002 -2.3678074e+38
-0.028414678 -0.034641169 0.35700002 -2.3811518e+38
-0.027836673 -0.034641169 0.35700002 -2.3811518e+38
-0.027258668 -0.034641169 0.35700002 -2.3944963e+38
-0.026102658 -0.034641169 0.35700002 -2.3944963e+38
-0.025524653 -0.034641169 0.35700002 -2.4078407e+38
-0.024946649 -0.034641169 0.35700002 -2.4078407e+38
-0.024436904 -0.034738205 0.35800001 -2.4078407e+38
-0.023277657 -0.034738205 0.35800001 -2.4211851e+38
-0.022698034 -0.034738205 0.35800001 -2.4211851e+38
-0.02211841 -0.034738205 0.35800001 -2.4478739e+38
-0.021598948 -0.034835238 0.35900003 -2.4211851e+38
-0.020379538 -0.034738205 0.35800001 -2.4745627e+38
-0.01985522 -0.034835238 0.35900003 -2.5012515e+38
-0.019273978 -0.034835238 0.35900003 -2.5412847e+38
-0.018111492 -0.034835238 0.35900003 -2.6080071e+38
-0.01748142 -0.034738205 0.35800001 -2.6480408e+38
-0.016901797 -0.034738205 0.35800001 -2.6480408e+38
-0.015742548 -0.034738205 0.35800001 -2.6747296e+38
-0.015162924 -0.034738205 0.35800001 -2.688074e+38
-0.014583301 -0.034738205 0.35800001 -2.688074e+38
-0.013386556 -0.034641169 0.35700002 -2.7014184e+38
-0.012808551 -0.034641169 0.35700002 -2.688074e+38
-0.012230546 -0.034641169 0.35700002 -2.688074e+38
-0.011652541 -0.034641169 0.35700002 -2.6747292e+38
-0.010496533 -0.034641169 0.35700002 -2.6613848e+38
-0.0099185277 -0.034641169 0.35700002 -2.634696e+38
-0.0093405228 -0.034641169 0.35700002 -2.5813183e+38
-0.0087625179 -0.034641169 0.35700002 -2.5813183e+38
-0.007627815 -0.034738205 0.35800001 -2.5412851e+38
-0.007048191 -0.034738205 0.35800001 -2.5012519e+38
-0.006468568 -0.034738205 0.35800001 -2.4879075e+38
-0.0053093205 -0.034738205 0.35800001 -2.4745635e+38
-0.0047296965 -0.034738205 0.35800001 -2.4879079e+38
-0.004150073 -0.034738205 0.35800001 -2.4879079e+38
-0.0035704491 -0.034738205 0.35800001 -2.4879075e+38
-0.0024112016 -0.034738205 0.35800001 -2.5547857e+38
-0.0018315779 -0.034738205 0.35800001 -2.6081633e+38
-0.001251954 -0.034738205 0.35800001 -2.6616454e+38
-0.031895921 -0.031773206 0.333 -2.4877499e+38
-0.031545099 -0.031964034 0.33500001 -2.4610611e+38
-0.028992683 -0.034063164 0.35700002 -2.3544634e+38
-0.028414678 -0.034063164 0.35700002 -2.3678078e+38
-0.027836673 -0.034063164 0.35700002 -2.3811523e+38
-0.027258668 -0.034063164 0.35700002 -2.3811523e+38
-0.026102658 -0.034063164 0.35700002 -2.3944967e+38
-0.025524653 -0.034063164 0.35700002 -2.3944967e+38
-0.024946649 -0.034063164 0.35700002 -2.4078411e+38
-0.024436904 -0.03415858 0.35800001 -2.4078407e+38
-0.023277657 -0.03415858 0.35800001 -2.4211851e+38
-0.022698034 -0.03415858 0.35800001 -2.4211851e+38
-0.02211841 -0.03415858 0.35800001 -2.4478739e+38
-0.020959161 -0.03415858 0.35800001 -2.4478739e+38
-0.020436464 -0.034253996 0.35900003 -2.4745627e+38
-0.019799914 -0.03415858 0.35800001 -2.5012515e+38
-0.019220291 -0.03415858 0.35800001 -2.5412847e+38
-0.018061044 -0.03415858 0.35800001 -2.634696e+38
-0.01748142 -0.03415858 0.35800001 -2.6480408e+38
-0.016901797 -0.03415858 0.35800001 -2.6613852e+38
-0.015742548 -0.03415858 0.35800001 -2.6747296e+38
-0.015162924 -0.03415858 0.35800001 -2.688074e+38
-0.014583301 -0.03415858 0.35800001 -2.688074e+38
-0.013386556 -0.034063164 0.35700002 -2.7014184e+38
-0.012808551 -0.034063164 0.35700002 -2.688074e+38
-0.012230546 -0.034063164 0.35700002 -2.688074e+38
-0.011652541 -0.034063164 0.35700002 -2.6747296e+38
-0.010496533 -0.034063164 0.35700002 -2.6480404e+38
-0.0099185277 -0.034063164 0.35700002 -2.634696e+38
-0.0093405228 -0.034063164 0.35700002 -2.5946627e+38
-0.008787063 -0.03415858 0.35800001 -2.5813183e+38
-0.007627815 -0.03415858 0.35800001 -2.5412851e+38
-0.007048191 -0.03415858 0.35800001 -2.5145967e+38
-0.006468568 -0.03415858 0.35800001 -2.4879079e+38
-0.0053093205 -0.03415858 0.35800001 -2.4745635e+38
-0.0047296965 -0.03415858 0.35800001 -2.4879079e+38
-0.004150073 -0.03415858 0.35800001 -2.4879079e+38
-0.0035704491 -0.03415858 0.35800001 -2.5012519e+38
-0.0024112016 -0.03415858 0.35800001 -2.5547857e+38
-0.0018315779 -0.03415858 0.35800001 -2.6081633e+38
-0.001251954 -0.03415858 0.35800001 -2.6883342e+38
-0.033760622 -0.030483691 0.32500002 -2.5411279e+38
-0.033234429 -0.030483691 0.32500002 -2.5144391e+38
-0.032808874 -0.030577485 0.32600001 -2.4877503e+38
-0.031753246 -0.030577485 0.32600001 -2.4477171e+38
-0.031450935 -0.031327855 0.33400002 -2.4477167e+38
-0.028992683 -0.033485159 0.35700002 -2.354463e+38
-0.028414678 -0.033485159 0.35700002 -2.3678074e+38
-0.027836673 -0.033485159 0.35700002 -2.3811518e+38
-0.027258668 -0.033485159 0.35700002 -2.3811518e+38
-0.026102658 -0.033485159 0.35700002 -2.3811518e+38
-0.025524653 -0.033485159 0.35700002 -2.3944963e+38
-0.025016528 -0.033578958 0.35800001 -2.4078407e+38
-0.024436904 -0.033578958 0.35800001 -2.4078407e+38
-0.023277657 -0.033578958 0.35800001 -2.4211851e+38
-0.022698034 -0.033578958 0.35800001 -2.4211851e+38
-0.02211841 -0.033578958 0.35800001 -2.4478739e+38
-0.020959161 -0.033578958 0.35800001 -2.4478739e+38
-0.020379538 -0.033578958 0.35800001 -2.4745627e+38
-0.019799914 -0.033578958 0.35800001 -2.5012515e+38
-0.019220291 -0.033578958 0.35800001 -2.5412847e+38
-0.018061044 -0.033578958 0.35800001 -2.634696e+38
-0.01748142 -0.033578958 0.35800001 -2.6613848e+38
-0.016901797 -0.033578958 0.35800001 -2.6747292e+38
-0.015742548 -0.033578958 0.35800001 -2.6880736e+38
-0.015162924 -0.033578958 0.35800001 -2.6880736e+38
-0.014583301 -0.033578958 0.35800001 -2.6880736e+38
-0.013386556 -0.033485159 0.35700002 -2.701418e+38
-0.012808551 -0.033485159 0.35700002 -2.688074e+38
-0.012230546 -0.033485159 0.35700002 -2.688074e+38
-0.011685181 -0.033578958 0.35800001 -2.6747296e+38
-0.010525933 -0.033578958 0.35800001 -2.6480408e+38
-0.00994631 -0.033578958 0.35800001 -2.6346964e+38
-0.0093666865 -0.033578958 0.35800001 -2.5946627e+38
-0.008787063 -0.033578958 0.35800001 -2.5813183e+38
-0.007627815 -0.033578958 0.35800001 -2.5412855e+38
-0.007048191 -0.033578958 0.35800001 -2.5145967e+38
-0.006468568 -0.033578958 0.35800001 -2.5012523e+38
-0.0053093205 -0.033578958 0.35800001 -2.4879079e+38
-0.0047296965 -0.033578958 0.35800001 -2.4879079e+38
-0.004150073 -0.033578958 0.35800001 -2.4879079e+38
-0.0035704491 -0.033578958 0.35800001 -2.5012519e+38
-0.0024112016 -0.033578958 0.35800001 -2.5547857e+38
-0.0018315779 -0.033578958 0.35800001 -2.6215077e+38
-0.001251954 -0.033578958 0.35800001 -2.6883342e+38
-0.033656746 -0.029865317 0.324 -2.4878014e+38
-0.033132173 -0.029865317 0.324 -2.5011458e+38
-0.03208302 -0.029865317 0.324 -2.4610615e+38
-0.031558443 -0.029865317 0.324 -2.4343727e+38
-0.031129649 -0.029957496 0.32500002 -2.4343727e+38
-0.028992683 -0.032907154 0.35700002 -2.354463e+38
-0.028414678 -0.032907154 0.35700002 -2.354463e+38
-0.027836673 -0.032907154 0.35700002 -2.3678074e+38
-0.027258668 -0.032907154 0.35700002 -2.3811518e+38
-0.026102658 -0.032907154 0.35700002 -2.3811518e+38
-0.025524653 -0.032907154 0.35700002 -2.3944963e+38
-0.024946649 -0.032907154 0.35700002 -2.4078407e+38
-0.024436904 -0.032999333 0.35800001 -2.4078407e+38
-0.023277657 -0.032999333 0.35800001 -2.4211851e+38
-0.022698034 -0.032999333 0.35800001 -2.4478739e+38
-0.02211841 -0.032999333 0.35800001 -2.4612183e+38
-0.020959161 -0.032999333 0.35800001 -2.4213416e+38
-0.020379538 -0.032999333 0.35800001 -2.4480305e+38
-0.019799914 -0.032999333 0.35800001 -2.4880637e+38
-0.019220291 -0.032999333 0.35800001 -2.5147525e+38
-0.018061044 -0.032999333 0.35800001 -2.6480404e+38
-0.01748142 -0.032999333 0.35800001 -2.6613848e+38
-0.016901797 -0.032999333 0.35800001 -2.6747292e+38
-0.015742548 -0.032999333 0.35800001 -2.6615409e+38
-0.015162924 -0.032999333 0.35800001 -2.6748854e+38
-0.014583301 -0.032999333 0.35800001 -2.6748854e+38
-0.014003677 -0.032999333 0.35800001 -2.6748854e+38
-0.012844428 -0.032999333 0.35800001 -2.6748858e+38
-0.012264805 -0.032999333 0.35800001 -2.6615414e+38
-0.011685181 -0.032999333 0.35800001 -2.6481969e+38
-0.010525933 -0.032999333 0.35800001 -2.6215081e+38
-0.00994631 -0.032999333 0.35800001 -2.6081637e+38
-0.0093666865 -0.032999333 0.35800001 -2.5814749e+38
-0.008787063 -0.032999333 0.35800001 -2.5547861e+38
-0.007627815 -0.032999333 0.35800001 -2.5147529e+38
-0.007048191 -0.032999333 0.35800001 -2.5145967e+38
-0.006468568 -0.032999333 0.35800001 -2.5012523e+38
-0.0053093205 -0.032999333 0.35800001 -2.4879079e+38
-0.0047296965 -0.032999333 0.35800001 -2.5012523e+38
-0.004150073 -0.032999333 0.35800001 -2.5012523e+38
-0.0035704491 -0.032999333 0.35800001 -2.5012523e+38
-0.0024112016 -0.032999333 0.35800001 -2.5547861e+38
-0.0018315779 -0.032999333 0.35800001 -2.6215081e+38
0.0035770535 -0.02977314 0.32300001 -3.1017483e+38
-0.031983998 -0.028727228 0.32300001 -2.4211836e+38
-0.031461041 -0.028727228 0.32300001 -2.4343723e+38
-0.031033868 -0.028816165 0.324 -2.4210279e+38
-0.027836673 -0.031751145 0.35700002 -2.3545146e+38
-0.027258668 -0.031751145 0.35700002 -2.367859e+38
-0.026102658 -0.031751145 0.35700002 -2.367859e+38
-0.025596151 -0.031840086 0.35800001 -2.3944963e+38
-0.024946649 -0.031751145 0.35700002 -2.3944963e+38
-0.023790641 -0.031751145 0.35700002 -2.4478739e+38
-0.020900616 -0.031751145 0.35700002 -2.6883338e+38
-0.020379538 -0.031840086 0.35800001 -2.728367e+38
-0.019799914 -0.031840086 0.35800001 -2.7684002e+38
-0.019220291 -0.031840086 0.35800001 -2.8084335e+38
-0.018061044 -0.031840086 0.35800001 -2.8084335e+38
-0.01748142 -0.031840086 0.35800001 -2.728367e+38
-0.016901797 -0.031840086 0.35800001 -2.661645e+38
-0.015742548 -0.031840086 0.35800001 -2.6883342e+38
-0.015162924 -0.031840086 0.35800001 -2.6883338e+38
-0.014583301 -0.031840086 0.35800001 -2.6883338e+38
-0.014003677 -0.031840086 0.35800001 -2.6748854e+38
-0.012844428 -0.031840086 0.35800001 -2.6748858e+38
-0.012264805 -0.031840086 0.35800001 -2.7015746e+38
-0.011685181 -0.031840086 0.35800001 -2.6615414e+38
-0.010525933 -0.031840086 0.35800001 -2.6348525e+38
-0.00994631 -0.031840086 0.35800001 -2.6215081e+38
-0.0093666865 -0.031840086 0.35800001 -2.5814749e+38
-0.008787063 -0.031840086 0.35800001 -2.5547861e+38
-0.007627815 -0.031840086 0.35800001 -2.5280973e+38
-0.007048191 -0.031840086 0.35800001 -2.5280973e+38
-0.006468568 -0.031840086 0.35800001 -2.4880641e+38
-0.0053093205 -0.031840086 0.35800001 -2.5012008e+38
-0.0047296965 -0.031840086 0.35800001 -2.5145452e+38
-0.004150073 -0.031840086 0.35800001 -2.5145452e+38
-0.0035704491 -0.031840086 0.35800001 -2.5145452e+38
0.0020081834 -0.028727228 0.32300001 -2.7681404e+38
0.0030540966 -0.028727228 0.32300001 -2.8080688e+38
0.0035770535 -0.028727228 0.32300001 -2.8881352e+38
0.0041253967 -0.028905107 0.32500002 -2.9816483e+38
-0.032506954 -0.028204272 0.32300001 -2.9949927e+38
-0.018588597 -0.031173142 0.35700002 -2.8484667e+38
-0.018061044 -0.031260464 0.35800001 -2.8484667e+38
-0.01748142 -0.031260464 0.35800001 -2.8084335e+38
-0.016901797 -0.031260464 0.35800001 -2.7550558e+38
-0.015698574 -0.031173142 0.35700002 -2.7016786e+38
-0.01512057 -0.031173142 0.35700002 -2.6883342e+38
-0.014542565 -0.031173142 0.35700002 -2.6883342e+38
-0.013386556 -0.031173142 0.35700002 -2.6616454e+38
-0.012844428 -0.031260464 0.35800001 -2.6748858e+38
-0.012264805 -0.031260464 0.35800001 -2.7015746e+38
-0.011685181 -0.031260464 0.35800001 -2.6748342e+38
-0.010525933 -0.031260464 0.35800001 -2.6348525e+38
-0.00994631 -0.031260464 0.35800001 -2.6215081e+38
-0.0093666865 -0.031260464 0.35800001 -2.6081637e+38
-0.008787063 -0.031260464 0.35800001 -2.5681305e+38
-0.007627815 -0.031260464 0.35800001 -2.5280973e+38
-0.007048191 -0.031260464 0.35800001 -2.5280458e+38
-0.006468568 -0.031260464 0.35800001 -2.5147014e+38
-0.0053093205 -0.031260464 0.35800001 -2.5145456e+38
-0.0047296965 -0.031260464 0.35800001 -2.5145452e+38
0.00095929101 -0.028116953 0.32200003 -2.7549522e+38
0.0014806286 -0.028116953 0.32200003 -2.7549522e+38
0.0025233037 -0.028116953 0.32200003 -2.7414516e+38
0.0030540966 -0.028204272 0.32300001 -2.78138e+38
0.0035881279 -0.028291591 0.324 -2.8080688e+38
0.0041253967 -0.028378911 0.32500002 -2.9148224e+38
-0.0183302 -0.027595615 0.32200003 -2.8217783e+38
-0.017753555 -0.027509913 0.32100001 -2.8351227e+38
-0.014542565 -0.030595137 0.35700002 -2.7016786e+38
-0.013386556 -0.030595137 0.35700002 -2.7016786e+38
-0.012808551 -0.030595137 0.35700002 -2.6883342e+38
-0.012264805 -0.030680839 0.35800001 -2.6883342e+38
-0.011685181 -0.030680839 0.35800001 -2.6616454e+38
-0.010525933 -0.030680839 0.35800001 -2.6349566e+38
-0.00994631 -0.030680839 0.35800001 -2.6216122e+38
-0.0093666865 -0.030680839 0.35800001 -2.6082678e+38
-0.008787063 -0.030680839 0.35800001 -2.5682346e+38
-0.007627815 -0.030680839 0.35800001 -2.5413902e+38
-0.007048191 -0.030680839 0.35800001 -2.5280458e+38
-8.3125145e-05 -0.027509913 0.32100001 -2.7416074e+38
0.00043659337 -0.027509913 0.32100001 -2.7416074e+38
0.00095929101 -0.027595615 0.32200003 -2.7549522e+38
0.0014806286 -0.027595615 0.32200003 -2.7549522e+38
0.0025233037 -0.027595615 0.32200003 -2.714919e+38
0.0030540966 -0.027681315 0.32300001 -2.7547956e+38
0.0035881279 -0.027767014 0.324 -2.76814e+38
0.0041253967 -0.027852718 0.32500002 -2.8482046e+38
-0.022879241 -0.026906114 0.32000002 -2.568025e+38
-0.022361143 -0.026906114 0.32000002 -2.6080583e+38
-0.021258302 -0.026822034 0.31900001 -2.7015738e+38
-0.019770645 -0.026906114 0.32000002 -2.8083294e+38
-0.018792992 -0.026990194 0.32100001 -2.8217779e+38
-0.018273273 -0.026990194 0.32100001 -2.8351223e+38
-0.017753555 -0.026990194 0.32100001 -2.8351223e+38
-0.017233836 -0.026990194 0.32100001 -2.8484667e+38
-0.016194399 -0.026990194 0.32100001 -2.8618111e+38
-0.01567468 -0.026990194 0.32100001 -2.8484667e+38
-0.015202174 -0.027074277 0.32200003 -2.8484667e+38
-0.013386556 -0.030017132 0.35700002 -2.7417118e+38
-0.012808551 -0.030017132 0.35700002 -2.7550558e+38
-0.0016371645 -0.026906114 0.32000002 -2.928482e+38
-0.0011190651 -0.026906114 0.32000002 -2.9151891e+38
-8.3125145e-05 -0.026990194 0.32100001 -2.8083823e+38
0.00043659337 -0.026990194 0.32100001 -2.7416603e+38
0.00095929101 -0.027074277 0.32200003 -2.7549007e+38
0.0014806286 -0.027074277 0.32200003 -2.7549007e+38
0.0025233037 -0.027074277 0.32200003 -2.7414516e+38
0.0035881279 -0.027242439 0.324 -2.7948284e+38
-0.012264805 -0.029521592 0.35800001 -2.8351223e+38
-0.011685181 -0.029521592 0.35800001 -2.8217779e+38
-0.010525933 -0.029521592 0.35800001 -2.7950891e+38
-0.00994631 -0.029521592 0.35800001 -2.8217779e+38
-0.0093666865 -0.029521592 0.35800001 -2.7950891e+38
-0.008787063 -0.029521592 0.35800001 -2.7417114e+38
-0.023397341 -0.025869915 0.32000002 -2.5148032e+38
-0.022807743 -0.025789071 0.31900001 -2.5681808e+38
-0.021774784 -0.025789071 0.31900001 -2.6749365e+38
-0.021324944 -0.025869915 0.32000002 -2.7149697e+38
-0.020806843 -0.025869915 0.32000002 -2.7416585e+38
-0.020288745 -0.025869915 0.32000002 -2.7683473e+38
-0.019770645 -0.025869915 0.32000002 -2.7816402e+38
-0.018792992 -0.02595076 0.32100001 -2.8350178e+38
-0.018273273 -0.02595076 0.32100001 -2.8350178e+38
-0.017753555 -0.02595076 0.32100001 -2.8216734e+38
-0.017233836 -0.02595076 0.32100001 -2.8483622e+38
-0.016194399 -0.02595076 0.32100001 -2.8617066e+38
-0.01567468 -0.02595076 0.32100001 -2.861707e+38
-0.015154962 -0.02595076 0.32100001 -2.861707e+38
-0.014115525 -0.02595076 0.32100001 -2.8617074e+38
-0.012230546 -0.028861122 0.35700002 -2.8750514e+38
-0.011685181 -0.028941968 0.35800001 -2.8484667e+38
-0.003201436 -0.02595076 0.32100001 -2.9019494e+38
-0.0021552639 -0.025869915 0.32000002 -2.9286382e+38
-0.0016371645 -0.025869915 0.32000002 -2.955327e+38
-0.0011190651 -0.025869915 0.32000002 -2.955327e+38
-8.3125145e-05 -0.02595076 0.32100001 -2.9418264e+38
0.00043659337 -0.02595076 0.32100001 -2.928482e+38
0.00095929101 -0.026031602 0.32200003 -2.9552223e+38
0.0014806286 -0.026031602 0.32200003 -2.9151891e+38
0.0025233037 -0.026031602 0.32200003 -3.0218906e+38
-0.023324223 -0.025272591 0.31900001 -2.5281476e+38
-0.022807743 -0.025272591 0.31900001 -2.5548364e+38
-0.022361143 -0.025351815 0.32000002 -2.608214e+38
-0.021324944 -0.025351815 0.32000002 -2.7016249e+38
-0.020806843 -0.025351815 0.32000002 -2.7683984e+38
-0.020288745 -0.025351815 0.32000002 -2.8484648e+38
-0.019832429 -0.025431041 0.32100001 -2.8617577e+38
-0.018792992 -0.025431041 0.32100001 -2.9551686e+38
-0.018273273 -0.025431041 0.32100001 -2.9952018e+38
-0.017753555 -0.025431041 0.32100001 -3.0218906e+38
-0.017233836 -0.025431041 0.32100001 -3.0085462e+38
-0.016194399 -0.025431041 0.32100001 -2.968513e+38
-0.01567468 -0.025431041 0.32100001 -2.9284802e+38
-0.015154962 -0.025431041 0.32100001 -2.8617581e+38
-0.014115525 -0.025431041 0.32100001 -2.8617066e+38
-0.013553452 -0.025351815 0.32000002 -2.8483626e+38
-0.013035352 -0.025351815 0.32000002 -2.8483626e+38
-0.011999154 -0.025351815 0.32000002 -2.8750518e+38
-0.011481054 -0.025351815 0.32000002 -2.9017407e+38
-0.010962955 -0.025351815 0.32000002 -2.8750518e+38
-0.0042276615 -0.025351815 0.32000002 -2.9150851e+38
-0.00369797 -0.025272591 0.31900001 -2.9417739e+38
-0.0026650091 -0.025272591 0.31900001 -2.9551708e+38
-0.0021552639 -0.025351815 0.32000002 -2.955327e+38
-0.0016371645 -0.025351815 0.32000002 -2.9686714e+38
-0.0011190651 -0.025351815 0.32000002 -2.995204e+38
-8.3125145e-05 -0.025431041 0.32100001 -2.9952555e+38
0.00043659337 -0.025431041 0.32100001 -3.0085999e+38
0.00095929101 -0.025510265 0.32200003 -3.0753212e+38
0.0014806286 -0.025510265 0.32200003 -3.0486324e+38
-0.023397341 -0.024833716 0.32000002 -2.608109e+38
-0.022879241 -0.024833716 0.32000002 -2.7683976e+38
-0.014071551 -0.024833716 0.32000002 -2.9418757e+38
-0.013553452 -0.024833716 0.32000002 -2.9151358e+38
-0.013035352 -0.024833716 0.32000002 -2.8484137e+38
-0.011999154 -0.024833716 0.32000002 -2.8750514e+38
-0.011445175 -0.024756111 0.31900001 -2.9017402e+38
-0.010894436 -0.024678506 0.31800002 -2.8750514e+38
-0.0098647131 -0.024678506 0.31800002 -2.8750514e+38
-0.0093792537 -0.024756111 0.31900001 -2.8351223e+38
-0.0062803719 -0.024756111 0.31900001 -2.8750514e+38
-0.0052309614 -0.024678506 0.31800002 -2.9150847e+38
-0.0047161002 -0.024678506 0.31800002 -2.9150847e+38
-0.0042144503 -0.024756111 0.31900001 -2.9150851e+38
-0.00369797 -0.024756111 0.31900001 -2.9417739e+38
-0.0026650091 -0.024756111 0.31900001 -2.9418264e+38
-0.0021552639 -0.024833716 0.32000002 -2.9818596e+38
-0.0016371645 -0.024833716 0.32000002 -2.995204e+38
-0.0011190651 -0.024833716 0.32000002 -3.0219444e+38
-8.3125145e-05 -0.024911322 0.32100001 -3.035288e+38
0.00043659337 -0.024911322 0.32100001 -3.0486324e+38
0.00095929101 -0.024988927 0.32200003 -3.101957e+38
0.0014806286 -0.024988927 0.32200003 -3.0619238e+38
-0.018273273 -0.023871886 0.32100001 -3.0617147e+38
-0.011409298 -0.023648784 0.31800002 -2.9285313e+38
-0.010894436 -0.023648784 0.31800002 -2.8751537e+38
-0.0098647131 -0.023648784 0.31800002 -2.875051e+38
-0.0093498519 -0.023648784 0.31800002 -2.861707e+38
-0.0088349907 -0.023648784 0.31800002 -2.8750514e+38
-0.0072674807 -0.023574416 0.317 -2.8750518e+38
-0.0067542386 -0.023574416 0.317 -2.9017407e+38
-0.0057277544 -0.023574416 0.317 -2.9150851e+38
-0.0052309614 -0.023648784 0.31800002 -2.9284291e+38
-0.0047161002 -0.023648784 0.31800002 -2.9284291e+38
-0.0042144503 -0.02372315 0.31900001 -2.9551175e+38
-0.00369797 -0.02372315 0.31900001 -2.9951507e+38
-0.0026650091 -0.02372315 0.31900001 -3.0352354e+38
-0.0021552639 -0.023797518 0.32000002 -3.0485794e+38
-0.0016371645 -0.023797518 0.32000002 -3.0619238e+38
-0.0011225621 -0.023871886 0.32100001 -3.0886126e+38
-8.3125145e-05 -0.023871886 0.32100001 -3.0218906e+38
0.00043795345 -0.023946252 0.32200003 -3.0085462e+38
0.00095929101 -0.023946252 0.32200003 -2.9950971e+38
0.0014852268 -0.02402062 0.32300001 -2.9417195e+38
0.0020144007 -0.024094988 0.324 -2.9417187e+38
0.0025389765 -0.024094988 0.324 -2.9016855e+38
0.0030824628 -0.02424372 0.32600001 -2.8616523e+38
-0.020871866 -0.023352167 0.32100001 -2.9816479e+38
-0.020352148 -0.023352167 0.32100001 -2.9683035e+38
-0.019832429 -0.023352167 0.32100001 -3.0082328e+38
-0.018792992 -0.023352167 0.32100001 -3.0083371e+38
-0.018273273 -0.023352167 0.32100001 -3.0083371e+38
-0.017753555 -0.023352167 0.32100001 -3.0351304e+38
-0.017233836 -0.023352167 0.32100001 -3.0351304e+38
-0.01567468 -0.023352167 0.32100001 -3.101957e+38
-0.0098647131 -0.023133922 0.31800002 -2.9018425e+38
-0.0093498519 -0.023133922 0.31800002 -2.9015837e+38
-0.0088072075 -0.023061175 0.317 -2.9015837e+38
-0.0077807228 -0.023061175 0.317 -2.9017398e+38
-0.0072674807 -0.023061175 0.317 -2.9017402e+38
-0.0067755454 -0.023133922 0.31800002 -2.9150847e+38
-0.0062606842 -0.023133922 0.31800002 -2.9284291e+38
-0.0052309614 -0.023133922 0.31800002 -3.0085466e+38
-0.0047161002 -0.023133922 0.31800002 -3.021891e+38
-0.0042144503 -0.02320667 0.31900001 -3.035235e+38
-0.00369797 -0.02320667 0.31900001 -3.035235e+38
-8.3125145e-05 -0.023352167 0.32100001 -2.9684083e+38
0.00043795345 -0.023424914 0.32200003 -2.9417195e+38
0.00095929101 -0.023424914 0.32200003 -2.9016863e+38
0.0014898251 -0.023570411 0.324 -2.8616531e+38
0.0020144007 -0.023570411 0.324 -2.8749971e+38
0.0025389765 -0.023570411 0.324 -2.8483083e+38
0.0030824628 -0.023715908 0.32600001 -2.8349639e+38
-0.021911303 -0.022832448 0.32100001 -2.9416147e+38
-0.020871866 -0.022832448 0.32100001 -2.9149258e+38
-0.020352148 -0.022832448 0.32100001 -2.9149258e+38
-0.019832429 -0.022832448 0.32100001 -2.9415108e+38
-0.018792992 -0.022832448 0.32100001 -2.9683043e+38
-0.0183302 -0.022903576 0.32200003 -2.9816487e+38
-0.017808862 -0.022903576 0.32200003 -2.9817012e+38
