# .PCD v0.7 - Point Cloud Data file format
VERSION 0.7
FIELDS x y z rgb
SIZE 4 4 4 4
TYPE F F F F
COUNT 1 1 1 1
WIDTH 1169
HEIGHT 1
VIEWPOINT 0 0 0 1 0 0 0
POINTS 1169
DATA ascii
0.09889666 -0.0050091352 0.28300002 nan
0.099813044 -0.0050091352 0.28300002 nan
0.10027124 -0.0050091352 0.28300002 nan
0.10072944 -0.0050091352 0.28300002 nan
0.10118763 -0.0050091352 0.28300002 nan
0.10210402 -0.0050091352 0.28300002 nan
0.10256221 -0.0050091352 0.28300002 nan
0.10302041 -0.0050091352 0.28300002 nan
0.10393679 -0.0050091352 0.28300002 nan
0.10439499 -0.0050091352 0.28300002 nan
0.10485318 -0.0050091352 0.28300002 nan
0.10531138 -0.0050091352 0.28300002 nan
0.10622776 -0.0050091352 0.28300002 nan
0.10668596 -0.0050091352 0.28300002 nan
0.10714415 -0.0050091352 0.28300002 nan
0.10798258 -0.005026835 0.28400001 nan
0.1089022 -0.005026835 0.28400001 nan
0.10936201 -0.005026835 0.28400001 nan
0.10943513 -0.0050091352 0.28300002 nan
0.11035151 -0.0050091352 0.28300002 nan
0.11080971 -0.0050091352 0.28300002 nan
0.1112679 -0.0050091352 0.28300002 nan
0.1117261 -0.0050091352 0.28300002 nan
0.11264248 -0.0050091352 0.28300002 nan
0.11310068 -0.0050091352 0.28300002 nan
0.11355887 -0.0050091352 0.28300002 nan
0.11447526 -0.0050091352 0.28300002 nan
0.11493345 -0.0050091352 0.28300002 nan
0.11539165 -0.0050091352 0.28300002 nan
0.11584985 -0.0050091352 0.28300002 nan
0.11676623 -0.0050091352 0.28300002 nan
0.11722443 -0.0050091352 0.28300002 nan
0.11768262 -0.0050091352 0.28300002 nan
0.086615629 -0.0042084432 0.29100001 -3.3643532e+38
0.087257043 -0.0041939812 0.29000002 -3.3774881e+38
0.087726571 -0.0041939812 0.29000002 -3.3774881e+38
0.087891974 -0.0041795191 0.289 -3.3905719e+38
0.088827789 -0.0041795191 0.289 nan
0.088677734 -0.0041505951 0.287 nan
0.089294858 -0.004136133 0.28600001 -3.3770192e+38
0.089757904 -0.004136133 0.28600001 -3.3902074e+38
0.090220958 -0.004136133 0.28600001 nan
0.090828367 -0.004121671 0.28500003 nan
0.091289796 -0.004121671 0.28500003 nan
0.091429293 -0.0041072089 0.28400001 nan
0.092348926 -0.0041072089 0.28400001 nan
0.092808738 -0.0041072089 0.28400001 nan
0.092940137 -0.0040927469 0.28300002 nan
0.093856521 -0.0040927469 0.28300002 nan
0.094314717 -0.0040927469 0.28300002 nan
0.094772913 -0.0040927469 0.28300002 nan
0.095689297 -0.0040927469 0.28300002 nan
0.096147493 -0.0040927469 0.28300002 nan
0.096605688 -0.0040927469 0.28300002 nan
0.097063884 -0.0040927469 0.28300002 nan
0.097634047 -0.0040782848 0.28200001 nan
0.098090626 -0.0040782848 0.28200001 nan
0.098547198 -0.0040782848 0.28200001 nan
0.099460348 -0.0040782848 0.28200001 nan
0.099916928 -0.0040782848 0.28200001 nan
0.1003735 -0.0040782848 0.28200001 nan
0.10128665 -0.0040782848 0.28200001 nan
0.10174323 -0.0040782848 0.28200001 nan
0.1021998 -0.0040782848 0.28200001 nan
0.10265638 -0.0040782848 0.28200001 nan
0.10356953 -0.0040782848 0.28200001 nan
0.1040261 -0.0040782848 0.28200001 nan
0.10448268 -0.0040782848 0.28200001 nan
0.10539582 -0.0040782848 0.28200001 nan
0.10622776 -0.0040927469 0.28300002 nan
0.10668596 -0.0040927469 0.28300002 nan
0.10714415 -0.0040927469 0.28300002 nan
0.10806054 -0.0040927469 0.28300002 nan
0.10851873 -0.0040927469 0.28300002 nan
0.10897693 -0.0040927469 0.28300002 nan
0.10943513 -0.0040927469 0.28300002 nan
0.11035151 -0.0040927469 0.28300002 nan
0.11080971 -0.0040927469 0.28300002 nan
0.1112679 -0.0040927469 0.28300002 nan
0.11178789 -0.0040782848 0.28200001 nan
0.11224446 -0.0040782848 0.28200001 nan
0.11310068 -0.0040927469 0.28300002 nan
0.11355887 -0.0040927469 0.28300002 nan
0.11447526 -0.0040927469 0.28300002 nan
0.11452734 -0.0040782848 0.28200001 nan
0.11498391 -0.0040782848 0.28200001 nan
0.11589706 -0.0040782848 0.28200001 nan
0.11676623 -0.0040927469 0.28300002 nan
0.11722443 -0.0040927469 0.28300002 nan
0.086615629 -0.0037372964 0.29100001 -3.3642492e+38
0.087086782 -0.0037372964 0.29100001 -3.3642492e+38
0.087726571 -0.0037244535 0.29000002 -3.3774881e+38
0.087891974 -0.0037116106 0.289 -3.3906759e+38
0.088827789 -0.0037116106 0.289 -3.3905719e+38
0.088677734 -0.0036859245 0.287 -3.3905719e+38
0.089294858 -0.0036730815 0.28600001 nan
0.089757904 -0.0036730815 0.28600001 -3.3902078e+38
0.0899055 -0.0036602386 0.28500003 nan
0.090828367 -0.0036602386 0.28500003 nan
0.090969481 -0.0036473954 0.28400001 nan
0.091429293 -0.0036473954 0.28400001 nan
0.092348926 -0.0036473954 0.28400001 nan
0.092481941 -0.0036345529 0.28300002 nan
0.092940137 -0.0036345529 0.28300002 nan
0.093856521 -0.0036345529 0.28300002 nan
0.094314717 -0.0036345529 0.28300002 nan
0.094894595 -0.00362171 0.28200001 nan
0.095351174 -0.00362171 0.28200001 nan
0.095807746 -0.00362171 0.28200001 nan
0.096264325 -0.00362171 0.28200001 nan
0.097177476 -0.00362171 0.28200001 nan
0.097634047 -0.00362171 0.28200001 nan
0.098090626 -0.00362171 0.28200001 nan
0.098547198 -0.00362171 0.28200001 nan
0.099107653 -0.0036088668 0.28100002 nan
0.099562608 -0.0036088668 0.28100002 nan
0.10047252 -0.0036088668 0.28100002 nan
0.10092748 -0.0036088668 0.28100002 nan
0.10138243 -0.0036088668 0.28100002 nan
0.10183739 -0.0036088668 0.28100002 nan
0.10274731 -0.0036088668 0.28100002 nan
0.10320226 -0.0036088668 0.28100002 nan
0.10365722 -0.0036088668 0.28100002 nan
0.10448268 -0.00362171 0.28200001 nan
0.10539582 -0.00362171 0.28200001 nan
0.1058524 -0.00362171 0.28200001 nan
0.10630898 -0.00362171 0.28200001 nan
0.10676556 -0.00362171 0.28200001 nan
0.10767871 -0.00362171 0.28200001 nan
0.10813528 -0.00362171 0.28200001 nan
0.10859186 -0.00362171 0.28200001 nan
0.10950501 -0.00362171 0.28200001 nan
0.10996158 -0.00362171 0.28200001 nan
0.11041816 -0.00362171 0.28200001 nan
0.11087473 -0.00362171 0.28200001 nan
0.11178789 -0.00362171 0.28200001 nan
0.11224446 -0.00362171 0.28200001 nan
0.11270104 -0.00362171 0.28200001 nan
0.11361419 -0.00362171 0.28200001 nan
0.11407076 -0.00362171 0.28200001 nan
0.11452734 -0.00362171 0.28200001 nan
0.11503112 -0.0036088668 0.28100002 nan
0.11548607 -0.0036088668 0.28100002 nan
0.11635364 -0.00362171 0.28200001 nan
0.12502857 -0.00362171 0.28200001 nan
0.12549511 -0.0036088668 0.28100002 nan
0.12595007 -0.0036088668 0.28100002 nan
0.087086782 -0.0032661497 0.29100001 -3.3642492e+38
0.087726571 -0.0032549258 0.29000002 -3.3774881e+38
0.087891974 -0.003243702 0.289 -3.3906763e+38
0.088827789 -0.003243702 0.289 nan
0.088677734 -0.0032212541 0.287 nan
0.089142404 -0.0032212541 0.287 -3.3905723e+38
0.089757904 -0.0032100303 0.28600001 -3.390364e+38
0.0899055 -0.0031988064 0.28500003 -3.390364e+38
0.090828367 -0.0031988064 0.28500003 -3.3902074e+38
0.090969481 -0.0031875826 0.28400001 nan
0.091429293 -0.0031875826 0.28400001 nan
0.092023745 -0.0031763585 0.28300002 nan
0.092481941 -0.0031763585 0.28300002 nan
0.092940137 -0.0031763585 0.28300002 nan
0.093524873 -0.0031651349 0.28200001 nan
0.093981452 -0.0031651349 0.28200001 nan
0.094894595 -0.0031651349 0.28200001 nan
0.095351174 -0.0031651349 0.28200001 nan
0.095807746 -0.0031651349 0.28200001 nan
0.096264325 -0.0031651349 0.28200001 nan
0.097177476 -0.0031651349 0.28200001 nan
0.097287834 -0.0031539109 0.28100002 nan
0.097742788 -0.0031539109 0.28100002 nan
0.098652698 -0.0031539109 0.28100002 nan
0.099107653 -0.0031539109 0.28100002 nan
0.099562608 -0.0031539109 0.28100002 nan
0.10047252 -0.0031539109 0.28100002 nan
0.10092748 -0.0031539109 0.28100002 nan
0.10138243 -0.0031539109 0.28100002 nan
0.10183739 -0.0031539109 0.28100002 nan
0.10274731 -0.0031539109 0.28100002 nan
0.10320226 -0.0031539109 0.28100002 nan
0.10365722 -0.0031539109 0.28100002 nan
0.10411217 -0.0031539109 0.28100002 nan
0.10502208 -0.0031539109 0.28100002 nan
0.10547704 -0.0031539109 0.28100002 nan
0.105932 -0.0031539109 0.28100002 nan
0.10684191 -0.0031539109 0.28100002 nan
0.10729686 -0.0031539109 0.28100002 nan
0.10775182 -0.0031539109 0.28100002 nan
0.10820678 -0.0031539109 0.28100002 nan
0.10911669 -0.0031539109 0.28100002 nan
0.10957164 -0.0031539109 0.28100002 nan
0.1100266 -0.0031539109 0.28100002 nan
0.11093652 -0.0031539109 0.28100002 nan
0.11139147 -0.0031539109 0.28100002 nan
0.11184642 -0.0031539109 0.28100002 nan
0.11230138 -0.0031539109 0.28100002 nan
0.11321129 -0.0031539109 0.28100002 nan
0.11366625 -0.0031539109 0.28100002 nan
0.11412121 -0.0031539109 0.28100002 nan
0.11503112 -0.0031539109 0.28100002 nan
0.11548607 -0.0031539109 0.28100002 nan
0.11552843 -0.003142687 0.28 nan
0.12413024 -0.0031539109 0.28100002 nan
0.1245852 -0.0031539109 0.28100002 nan
0.12548514 -0.0031651349 0.28200001 nan
0.1263983 -0.0031651349 0.28200001 nan
0.087086782 -0.0027950031 0.29100001 -3.3509048e+38
0.087726571 -0.0027853984 0.29000002 -3.3774881e+38
0.088196099 -0.0027853984 0.29000002 -3.3906763e+38
0.088827789 -0.0027757934 0.289 -3.3906763e+38
0.088677734 -0.0027565837 0.287 -3.3906763e+38
0.089142404 -0.0027565837 0.287 -3.3906767e+38
0.089757904 -0.0027469788 0.28600001 nan
0.0899055 -0.0027373743 0.28500003 nan
0.090828367 -0.0027373743 0.28500003 -3.3770192e+38
0.090969481 -0.0027277693 0.28400001 nan
0.091429293 -0.0027277693 0.28400001 nan
0.092023745 -0.0027181644 0.28300002 -3.3902589e+38
0.092481941 -0.0027181644 0.28300002 nan
0.093068302 -0.0027085599 0.28200001 nan
0.093524873 -0.0027085599 0.28200001 nan
0.093981452 -0.0027085599 0.28200001 nan
0.094894595 -0.0027085599 0.28200001 nan
0.095013052 -0.0026989549 0.28100002 nan
0.095468007 -0.0026989549 0.28100002 nan
0.096377917 -0.0026989549 0.28100002 nan
0.096832871 -0.0026989549 0.28100002 nan
0.097287834 -0.0026989549 0.28100002 nan
0.097742788 -0.0026989549 0.28100002 nan
0.098652698 -0.0026989549 0.28100002 nan
0.098754957 -0.0026893502 0.28 nan
0.099208295 -0.0026893502 0.28 nan
0.10011497 -0.0026893502 0.28 nan
0.10056831 -0.0026893502 0.28 nan
0.10102164 -0.0026893502 0.28 nan
0.10192832 -0.0026893502 0.28 nan
0.10238165 -0.0026893502 0.28 nan
0.10283499 -0.0026893502 0.28 nan
0.10328833 -0.0026893502 0.28 nan
0.10419501 -0.0026893502 0.28 nan
0.10464834 -0.0026893502 0.28 nan
0.10510167 -0.0026893502 0.28 nan
0.10600835 -0.0026893502 0.28 nan
0.1064617 -0.0026893502 0.28 nan
0.10691503 -0.0026893502 0.28 nan
0.10736836 -0.0026893502 0.28 nan
0.10788834 -0.0026797452 0.27900001 nan
0.10834005 -0.0026797452 0.27900001 nan
0.10879178 -0.0026797452 0.27900001 nan
0.10969521 -0.0026797452 0.27900001 nan
0.11099506 -0.0026893502 0.28 nan
0.1114484 -0.0026893502 0.28 nan
0.11235508 -0.0026893502 0.28 nan
0.11280841 -0.0026893502 0.28 nan
0.11326175 -0.0026893502 0.28 nan
0.11371509 -0.0026893502 0.28 nan
0.11462176 -0.0026893502 0.28 nan
0.1150751 -0.0026893502 0.28 nan
0.11511583 -0.0026797452 0.27900001 nan
0.11601926 -0.0026797452 0.27900001 nan
0.11605353 -0.0026701402 0.27800003 nan
0.11785392 -0.0026701402 0.27800003 nan
0.11830402 -0.0026701402 0.27800003 nan
0.11920422 -0.0026701402 0.27800003 nan
0.11965432 -0.0026701402 0.27800003 nan
0.12010442 -0.0026701402 0.27800003 nan
0.1218916 -0.0026797452 0.27900001 nan
0.12234332 -0.0026797452 0.27900001 nan
0.12323517 -0.0026893502 0.28 nan
0.1236885 -0.0026893502 0.28 nan
0.1245852 -0.0026989549 0.28100002 nan
0.12549511 -0.0026989549 0.28100002 nan
0.1263983 -0.0027085599 0.28200001 nan
0.12685487 -0.0027085599 0.28200001 nan
0.088029072 -0.0018527098 0.29100001 -3.3774881e+38
0.088196099 -0.0018463433 0.29000002 -3.3906763e+38
0.08852043 -0.0018336098 0.28800002 nan
0.088986717 -0.0018336098 0.28800002 nan
0.089142404 -0.001827243 0.287 -3.3906767e+38
0.089757904 -0.0018208763 0.28600001 -3.3905723e+38
0.0899055 -0.0018145097 0.28500003 -3.3905723e+38
0.090828367 -0.0018145097 0.28500003 -3.3772275e+38
0.090969481 -0.001808143 0.28400001 nan
0.091429293 -0.001808143 0.28400001 -3.3771747e+38
0.092023745 -0.0018017762 0.28300002 -3.3770707e+38
0.092481941 -0.0018017762 0.28300002 -3.3902589e+38
0.093068302 -0.0017954097 0.28200001 nan
0.093524873 -0.0017954097 0.28200001 nan
0.093981452 -0.0017954097 0.28200001 nan
0.094558097 -0.001789043 0.28100002 nan
0.095013052 -0.001789043 0.28100002 nan
0.095468007 -0.001789043 0.28100002 nan
0.096377917 -0.001789043 0.28100002 nan
0.096832871 -0.001789043 0.28100002 nan
0.097287834 -0.001789043 0.28100002 nan
0.097848281 -0.0017826762 0.28 nan
0.098301619 -0.0017826762 0.28 nan
0.098754957 -0.0017826762 0.28 nan
0.099208295 -0.0017826762 0.28 nan
0.10011497 -0.0017826762 0.28 nan
0.10056831 -0.0017826762 0.28 nan
0.10066085 -0.0017763095 0.27900001 nan
0.10156429 -0.0017763095 0.27900001 nan
0.10201601 -0.0017763095 0.27900001 nan
0.10246772 -0.0017763095 0.27900001 nan
0.10337116 -0.0017763095 0.27900001 nan
0.10382288 -0.0017763095 0.27900001 nan
0.10427459 -0.0017763095 0.27900001 nan
0.10472631 -0.0017763095 0.27900001 nan
0.10562975 -0.0017763095 0.27900001 nan
0.10608147 -0.0017763095 0.27900001 nan
0.10653318 -0.0017763095 0.27900001 nan
0.10705155 -0.0017699427 0.27800003 nan
0.10750165 -0.0017699427 0.27800003 nan
0.10795175 -0.0017699427 0.27800003 nan
0.10885195 -0.0017699427 0.27800003 nan
0.10930204 -0.0017699427 0.27800003 nan
0.10975214 -0.0017699427 0.27800003 nan
0.11059865 -0.0017763095 0.27900001 nan
0.11150208 -0.0017763095 0.27900001 nan
0.1119538 -0.0017763095 0.27900001 nan
0.11240552 -0.0017763095 0.27900001 nan
0.11285724 -0.0017763095 0.27900001 nan
0.11376067 -0.0017763095 0.27900001 nan
0.11421239 -0.0017763095 0.27900001 nan
0.11466411 -0.0017763095 0.27900001 nan
0.11511583 -0.0017763095 0.27900001 nan
0.11560343 -0.0017699427 0.27800003 nan
0.11605353 -0.0017699427 0.27800003 nan
0.11695372 -0.0017699427 0.27800003 nan
0.11740383 -0.0017699427 0.27800003 nan
0.11785392 -0.0017699427 0.27800003 nan
0.11830402 -0.0017699427 0.27800003 nan
0.11920422 -0.0017699427 0.27800003 nan
0.11965432 -0.0017699427 0.27800003 nan
0.12010442 -0.0017699427 0.27800003 nan
0.12098816 -0.0017763095 0.27900001 nan
0.1218916 -0.0017763095 0.27900001 nan
0.12234332 -0.0017763095 0.27900001 nan
0.12279503 -0.0017763095 0.27900001 nan
0.1236885 -0.0017826762 0.28 nan
0.12414183 -0.0017826762 0.28 nan
0.12549511 -0.001789043 0.28100002 nan
0.1263983 -0.0017954097 0.28200001 nan
0.12685487 -0.0017954097 0.28200001 nan
0.087386049 -0.0013863109 0.29200003 -3.3509044e+38
0.088029072 -0.0013815633 0.29100001 -3.3774881e+38
0.088196099 -0.0013768156 0.29000002 -3.3906763e+38
0.08852043 -0.0013673203 0.28800002 nan
0.088986717 -0.0013673203 0.28800002 nan
0.089142404 -0.0013625727 0.287 -3.3906252e+38
0.089757904 -0.001357825 0.28600001 nan
0.090220958 -0.001357825 0.28600001 nan
0.090828367 -0.0013530775 0.28500003 -3.3905719e+38
0.090969481 -0.0013483298 0.28400001 nan
0.091429293 -0.0013483298 0.28400001 -3.3771747e+38
0.092023745 -0.0013435821 0.28300002 nan
0.092481941 -0.0013435821 0.28300002 -3.3902589e+38
0.093068302 -0.0013388345 0.28200001 nan
0.093524873 -0.0013388345 0.28200001 nan
0.09364818 -0.0013340869 0.28100002 nan
0.094558097 -0.0013340869 0.28100002 nan
0.095013052 -0.0013340869 0.28100002 nan
0.095468007 -0.0013340869 0.28100002 nan
0.096034937 -0.0013293392 0.28 nan
0.096488275 -0.0013293392 0.28 nan
0.096941613 -0.0013293392 0.28 nan
0.097848281 -0.0013293392 0.28 nan
0.097950548 -0.0013245916 0.27900001 nan
0.098402262 -0.0013245916 0.27900001 nan
0.099305697 -0.0013245916 0.27900001 nan
0.099757418 -0.0013245916 0.27900001 nan
0.10020913 -0.0013245916 0.27900001 nan
0.10066085 -0.0013245916 0.27900001 nan
0.10156429 -0.0013245916 0.27900001 nan
0.10201601 -0.0013245916 0.27900001 nan
0.10255056 -0.0013198439 0.27800003 nan
0.10300066 -0.0013198439 0.27800003 nan
0.10345075 -0.0013198439 0.27800003 nan
0.10390085 -0.0013198439 0.27800003 nan
0.10480105 -0.0013198439 0.27800003 nan
0.10525115 -0.0013198439 0.27800003 nan
0.10570125 -0.0013198439 0.27800003 nan
0.10615135 -0.0013198439 0.27800003 nan
0.10705155 -0.0013198439 0.27800003 nan
0.10750165 -0.0013198439 0.27800003 nan
0.10795175 -0.0013198439 0.27800003 nan
0.10885195 -0.0013198439 0.27800003 nan
0.10930204 -0.0013198439 0.27800003 nan
0.10975214 -0.0013198439 0.27800003 nan
0.11020225 -0.0013198439 0.27800003 nan
0.11110244 -0.0013198439 0.27800003 nan
0.11155254 -0.0013198439 0.27800003 nan
0.11200264 -0.0013198439 0.27800003 nan
0.11290284 -0.0013198439 0.27800003 nan
0.11335293 -0.0013198439 0.27800003 nan
0.11380304 -0.0013198439 0.27800003 nan
0.11425313 -0.0013198439 0.27800003 nan
0.11515333 -0.0013198439 0.27800003 nan
0.11560343 -0.0013198439 0.27800003 nan
0.11605353 -0.0013198439 0.27800003 nan
0.11695372 -0.0013198439 0.27800003 nan
0.11740383 -0.0013198439 0.27800003 nan
0.11785392 -0.0013198439 0.27800003 nan
0.11830402 -0.0013198439 0.27800003 nan
0.11920422 -0.0013198439 0.27800003 nan
0.11965432 -0.0013198439 0.27800003 nan
0.12010442 -0.0013198439 0.27800003 nan
0.12055451 -0.0013198439 0.27800003 nan
0.1218916 -0.0013245916 0.27900001 nan
0.12234332 -0.0013245916 0.27900001 nan
0.12279503 -0.0013245916 0.27900001 nan
0.12324675 -0.0013245916 0.27900001 nan
0.12414183 -0.0013293392 0.28 nan
0.12549511 -0.0013340869 0.28100002 nan
0.1263983 -0.0013388345 0.28200001 nan
0.12685487 -0.0013388345 0.28200001 nan
0.088029072 -0.00091041659 0.29100001 -3.3774881e+38
0.088500217 -0.00091041659 0.29100001 -3.3906763e+38
0.088827789 -0.0009041595 0.289 -3.3906767e+38
0.088986717 -0.0009010309 0.28800002 -3.3906767e+38
0.089142404 -0.0008979023 0.287 -3.3906252e+38
0.090071745 -0.0008979023 0.287 -3.3906767e+38
0.090220958 -0.00089477375 0.28600001 -3.3906767e+38
0.090828367 -0.00089164521 0.28500003 -3.3906759e+38
0.090969481 -0.0008885166 0.28400001 -3.3905719e+38
0.091429293 -0.0008885166 0.28400001 -3.3905719e+38
0.092023745 -0.00088538794 0.28300002 nan
0.092481941 -0.00088538794 0.28300002 -3.3770192e+38
0.093068302 -0.0008822594 0.28200001 -3.3904151e+38
0.093524873 -0.0008822594 0.28200001 -3.3637263e+38
0.09364818 -0.00087913091 0.28100002 -3.3902585e+38
0.094558097 -0.00087913091 0.28100002 nan
0.095013052 -0.00087913091 0.28100002 nan
0.095128261 -0.00087600225 0.28 nan
0.096034937 -0.00087600225 0.28 nan
0.096488275 -0.00087600225 0.28 nan
0.096941613 -0.00087600225 0.28 nan
0.097498827 -0.00087287364 0.27900001 nan
0.097599469 -0.0008697451 0.27800003 nan
0.098499663 -0.0008697451 0.27800003 nan
0.098949768 -0.0008697451 0.27800003 nan
0.099399865 -0.0008697451 0.27800003 nan
0.099849962 -0.0008697451 0.27800003 nan
0.10075016 -0.0008697451 0.27800003 nan
0.10120026 -0.0008697451 0.27800003 nan
0.10165036 -0.0008697451 0.27800003 nan
0.10255056 -0.0008697451 0.27800003 nan
0.10263015 -0.00086661655 0.27700001 nan
0.10307863 -0.00086661655 0.27700001 nan
0.10397559 -0.00086661655 0.27700001 nan
0.10442407 -0.00086661655 0.27700001 nan
0.10487255 -0.00086661655 0.27700001 nan
0.10532103 -0.00086661655 0.27700001 nan
0.10621799 -0.00086661655 0.27700001 nan
0.10666647 -0.00086661655 0.27700001 nan
0.10711495 -0.00086661655 0.27700001 nan
0.10801191 -0.00086661655 0.27700001 nan
0.10846039 -0.00086661655 0.27700001 nan
0.10890887 -0.00086661655 0.27700001 nan
0.10935735 -0.00086661655 0.27700001 nan
0.1102543 -0.00086661655 0.27700001 nan
0.11070278 -0.00086661655 0.27700001 nan
0.11155254 -0.0008697451 0.27800003 nan
0.11200264 -0.0008697451 0.27800003 nan
0.11290284 -0.0008697451 0.27800003 nan
0.11335293 -0.0008697451 0.27800003 nan
0.11380304 -0.0008697451 0.27800003 nan
0.11429062 -0.00086661655 0.27700001 nan
0.11473911 -0.00086661655 0.27700001 nan
0.11518759 -0.00086661655 0.27700001 nan
0.11563607 -0.00086661655 0.27700001 nan
0.11695372 -0.0008697451 0.27800003 nan
0.11740383 -0.0008697451 0.27800003 nan
0.11785392 -0.0008697451 0.27800003 nan
0.11830402 -0.0008697451 0.27800003 nan
0.11920422 -0.0008697451 0.27800003 nan
0.11965432 -0.0008697451 0.27800003 nan
0.12010442 -0.0008697451 0.27800003 nan
0.12055451 -0.0008697451 0.27800003 nan
0.1218916 -0.00087287364 0.27900001 nan
0.12234332 -0.00087287364 0.27900001 nan
0.12279503 -0.00087287364 0.27900001 nan
0.12324675 -0.00087287364 0.27900001 nan
0.12414183 -0.00087600225 0.28 nan
0.12549511 -0.00087913091 0.28100002 nan
0.1263983 -0.0008822594 0.28200001 nan
0.12685487 -0.0008822594 0.28200001 nan
0.12731144 -0.0008822594 0.28200001 nan
0.087685317 3.2095671e-05 0.29300001 -3.3375599e+38
0.087858811 3.1986128e-05 0.29200003 -3.3641441e+38
0.088827789 3.1657506e-05 0.289 -3.3641441e+38
0.088986717 3.1547963e-05 0.28800002 -3.3641441e+38
0.089453004 3.1547963e-05 0.28800002 -3.3906252e+38
0.090071745 3.1438423e-05 0.287 nan
0.090220958 3.132888e-05 0.28600001 nan
0.090828367 3.1219341e-05 0.28500003 -3.3906763e+38
0.091289796 3.1219341e-05 0.28500003 -3.3906759e+38
0.091429293 3.1109797e-05 0.28400001 -3.3906759e+38
0.092023745 3.1000254e-05 0.28300002 -3.3773319e+38
0.092481941 3.1000254e-05 0.28300002 -3.3772279e+38
0.093068302 3.0890715e-05 0.28200001 nan
0.093524873 3.0890715e-05 0.28200001 -3.3771232e+38
0.09364818 3.0781172e-05 0.28100002 -3.3770707e+38
0.094558097 3.0781172e-05 0.28100002 nan
0.095013052 3.0781172e-05 0.28100002 nan
0.095128261 3.0671632e-05 0.28 nan
0.096034937 3.0671632e-05 0.28 nan
0.096488275 3.0671632e-05 0.28 nan
0.097047105 3.0562089e-05 0.27900001 nan
0.097149372 3.0452547e-05 0.27800003 nan
0.097599469 3.0452547e-05 0.27800003 nan
0.098499663 3.0452547e-05 0.27800003 nan
0.098593831 3.0343006e-05 0.27700001 nan
0.099042311 3.0343006e-05 0.27700001 nan
0.099939272 3.0343006e-05 0.27700001 nan
0.10038775 3.0343006e-05 0.27700001 nan
0.10083623 3.0343006e-05 0.27700001 nan
0.10128471 3.0343006e-05 0.27700001 nan
0.10218167 3.0343006e-05 0.27700001 nan
0.10263015 3.0343006e-05 0.27700001 nan
0.10307863 3.0343006e-05 0.27700001 nan
0.10397559 3.0343006e-05 0.27700001 nan
0.10442407 3.0343006e-05 0.27700001 nan
0.10449395 3.0233465e-05 0.27600002 nan
0.10538767 3.0233465e-05 0.27600002 nan
0.10583453 3.0233465e-05 0.27600002 nan
0.1062814 3.0233465e-05 0.27600002 nan
0.10672826 3.0233465e-05 0.27600002 nan
0.10762198 3.0233465e-05 0.27600002 nan
0.10806884 3.0233465e-05 0.27600002 nan
0.1085157 3.0233465e-05 0.27600002 nan
0.10940942 3.0233465e-05 0.27600002 nan
0.10985629 3.0233465e-05 0.27600002 nan
0.11030314 3.0233465e-05 0.27600002 nan
0.11115126 3.0343006e-05 0.27700001 nan
0.11159974 3.0343006e-05 0.27700001 nan
0.1124967 3.0343006e-05 0.27700001 nan
0.11294518 3.0343006e-05 0.27700001 nan
0.11339366 3.0343006e-05 0.27700001 nan
0.11429062 3.0343006e-05 0.27700001 nan
0.11473911 3.0343006e-05 0.27700001 nan
0.11518759 3.0343006e-05 0.27700001 nan
0.11563607 3.0343006e-05 0.27700001 nan
0.11653303 3.0343006e-05 0.27700001 nan
0.11698151 3.0343006e-05 0.27700001 nan
0.11785392 3.0452547e-05 0.27800003 nan
0.11830402 3.0452547e-05 0.27800003 nan
0.11920422 3.0452547e-05 0.27800003 nan
0.11965432 3.0452547e-05 0.27800003 nan
0.12010442 3.0452547e-05 0.27800003 nan
0.12055451 3.0452547e-05 0.27800003 nan
0.12145472 3.0452547e-05 0.27800003 nan
0.12234332 3.0562089e-05 0.27900001 nan
0.12279503 3.0562089e-05 0.27900001 nan
0.12324675 3.0562089e-05 0.27900001 nan
0.12414183 3.0671632e-05 0.28 nan
0.12549511 3.0781172e-05 0.28100002 nan
0.12595007 3.0781172e-05 0.28100002 nan
0.12685487 3.0890715e-05 0.28200001 nan
0.12731144 3.0890715e-05 0.28200001 nan
0.088827789 0.00049956597 0.289 -3.3774885e+38
0.0892957 0.00049956597 0.289 -3.3774885e+38
0.089453004 0.00049783738 0.28800002 -3.3641441e+38
0.090071745 0.00049610878 0.287 nan
0.090536416 0.00049610878 0.287 nan
0.091147065 0.00049438019 0.28600001 -3.3906763e+38
0.091289796 0.0004926516 0.28500003 -3.3906767e+38
0.091429293 0.000490923 0.28400001 -3.3906767e+38
0.092348926 0.000490923 0.28400001 -3.3906767e+38
0.092481941 0.00048919441 0.28300002 -3.3905723e+38
0.092940137 0.00048919441 0.28300002 -3.3905723e+38
0.093524873 0.00048746579 0.28200001 -3.3772279e+38
0.09364818 0.00048573717 0.28100002 -3.3771747e+38
0.094558097 0.00048573717 0.28100002 -3.3770703e+38
0.095013052 0.00048573717 0.28100002 -3.3770703e+38
0.095128261 0.00048400857 0.28 nan
0.095691957 0.00048227998 0.27900001 nan
0.09614367 0.00048227998 0.27900001 nan
0.097047105 0.00048227998 0.27900001 nan
0.097149372 0.00048055139 0.27800003 nan
0.097599469 0.00048055139 0.27800003 nan
0.098145351 0.00047882277 0.27700001 nan
0.098593831 0.00047882277 0.27700001 nan
0.099042311 0.00047882277 0.27700001 nan
0.099939272 0.00047882277 0.27700001 nan
0.10002534 0.00047709417 0.27600002 nan
0.1004722 0.00047709417 0.27600002 nan
0.10136592 0.00047709417 0.27600002 nan
0.10181278 0.00047709417 0.27600002 nan
0.10225964 0.00047709417 0.27600002 nan
0.10270651 0.00047709417 0.27600002 nan
0.10360023 0.00047709417 0.27600002 nan
0.10404709 0.00047709417 0.27600002 nan
0.10449395 0.00047709417 0.27600002 nan
0.10538767 0.00047709417 0.27600002 nan
0.10583453 0.00047709417 0.27600002 nan
0.10589632 0.00047536558 0.27500001 nan
0.10678679 0.00047536558 0.27500001 nan
0.10723204 0.00047536558 0.27500001 nan
0.10767728 0.00047536558 0.27500001 nan
0.10812252 0.00047536558 0.27500001 nan
0.10901301 0.00047536558 0.27500001 nan
0.10945825 0.00047536558 0.27500001 nan
0.11030314 0.00047709417 0.27600002 nan
0.11075 0.00047709417 0.27600002 nan
0.11164372 0.00047709417 0.27600002 nan
0.11209059 0.00047709417 0.27600002 nan
0.11253744 0.00047709417 0.27600002 nan
0.11343117 0.00047709417 0.27600002 nan
0.11387803 0.00047709417 0.27600002 nan
0.11432489 0.00047709417 0.27600002 nan
0.11518759 0.00047882277 0.27700001 nan
0.11563607 0.00047882277 0.27700001 nan
0.11653303 0.00047882277 0.27700001 nan
0.11698151 0.00047882277 0.27700001 nan
0.11742999 0.00047882277 0.27700001 nan
0.11830402 0.00048055139 0.27800003 nan
0.11920422 0.00048055139 0.27800003 nan
0.11965432 0.00048055139 0.27800003 nan
0.12010442 0.00048055139 0.27800003 nan
0.12055451 0.00048055139 0.27800003 nan
0.12145472 0.00048055139 0.27800003 nan
0.12234332 0.00048227998 0.27900001 nan
0.12279503 0.00048227998 0.27900001 nan
0.12324675 0.00048227998 0.27900001 nan
0.12414183 0.00048400857 0.28 nan
0.12549511 0.00048573717 0.28100002 nan
0.1263983 0.00048746579 0.28200001 nan
0.12685487 0.00048746579 0.28200001 nan
0.12731144 0.00048746579 0.28200001 nan
0.087984584 0.00098421285 0.294 -3.3640926e+38
0.088665627 0.00097082218 0.29000002 -3.3641437e+38
0.0892957 0.00096747442 0.289 -3.3774885e+38
0.089453004 0.00096412684 0.28800002 -3.3774885e+38
0.090385586 0.00096412684 0.28800002 -3.3774885e+38
0.090536416 0.0009607792 0.287 -3.3774885e+38
0.091147065 0.0009574315 0.28600001 -3.3774885e+38
0.091289796 0.00095408381 0.28500003 -3.3774885e+38
0.091429293 0.00095073617 0.28400001 -3.3641441e+38
0.092348926 0.00095073617 0.28400001 -3.3906767e+38
0.092481941 0.00094738859 0.28300002 -3.3773319e+38
0.092940137 0.00094738859 0.28300002 -3.3773319e+38
0.093524873 0.00094404083 0.28200001 -3.3905723e+38
0.093981452 0.00094404083 0.28200001 -3.3772275e+38
0.094558097 0.00094069313 0.28100002 -3.3771747e+38
0.095013052 0.00094069313 0.28100002 -3.3771747e+38
0.095128261 0.00093734555 0.28 nan
0.096034937 0.00093734555 0.28 nan
0.09614367 0.00093399792 0.27900001 nan
0.096699268 0.00093065022 0.27800003 nan
0.097149372 0.00093065022 0.27800003 nan
0.09724839 0.00092730246 0.27700001 nan
0.098145351 0.00092730246 0.27700001 nan
0.098593831 0.00092730246 0.27700001 nan
0.099042311 0.00092730246 0.27700001 nan
0.099578477 0.00092395488 0.27600002 nan
0.10002534 0.00092395488 0.27600002 nan
0.1004722 0.00092395488 0.27600002 nan
0.10099865 0.00092060724 0.27500001 nan
0.10144389 0.00092060724 0.27500001 nan
0.10188914 0.00092060724 0.27500001 nan
0.10277962 0.00092060724 0.27500001 nan
0.10322487 0.00092060724 0.27500001 nan
0.10367011 0.00092060724 0.27500001 nan
0.10411534 0.00092060724 0.27500001 nan
0.10500583 0.00092060724 0.27500001 nan
0.10545107 0.00092060724 0.27500001 nan
0.10589632 0.00092060724 0.27500001 nan
0.10678679 0.00092060724 0.27500001 nan
0.10723204 0.00092060724 0.27500001 nan
0.10767728 0.00092060724 0.27500001 nan
0.10812252 0.00092060724 0.27500001 nan
0.10901301 0.00092060724 0.27500001 nan
0.10945825 0.00092060724 0.27500001 nan
0.10990349 0.00092060724 0.27500001 nan
0.11079397 0.00092060724 0.27500001 nan
0.11123921 0.00092060724 0.27500001 nan
0.11168446 0.00092060724 0.27500001 nan
0.1121297 0.00092060724 0.27500001 nan
0.11302018 0.00092060724 0.27500001 nan
0.11346542 0.00092060724 0.27500001 nan
0.11432489 0.00092395488 0.27600002 nan
0.11477175 0.00092395488 0.27600002 nan
0.11566547 0.00092395488 0.27600002 nan
0.11653303 0.00092730246 0.27700001 nan
0.11698151 0.00092730246 0.27700001 nan
0.11742999 0.00092730246 0.27700001 nan
0.11832694 0.00092730246 0.27700001 nan
0.11920422 0.00093065022 0.27800003 nan
0.11965432 0.00093065022 0.27800003 nan
0.12010442 0.00093065022 0.27800003 nan
0.12055451 0.00093065022 0.27800003 nan
0.12145472 0.00093065022 0.27800003 nan
0.12234332 0.00093399792 0.27900001 nan
0.12279503 0.00093399792 0.27900001 nan
0.12324675 0.00093399792 0.27900001 nan
0.12414183 0.00093734555 0.28 nan
0.12549511 0.00094069313 0.28100002 nan
0.1263983 0.00094404083 0.28200001 nan
0.12685487 0.00094404083 0.28200001 nan
0.12731144 0.00094404083 0.28200001 nan
0.088283844 0.0014651833 0.29500002 -3.3640926e+38
0.088460587 0.0014602166 0.294 -3.3641437e+38
0.088665627 0.0014403497 0.29000002 -3.3641437e+38
0.0892957 0.001435383 0.289 -3.3774885e+38
0.089763604 0.001435383 0.289 -3.3774885e+38
0.090385586 0.0014304162 0.28800002 -3.3774885e+38
0.090536416 0.0014254496 0.287 -3.3774885e+38
0.091147065 0.0014204828 0.28600001 -3.3641441e+38
0.091610111 0.0014204828 0.28600001 -3.3641441e+38
0.091751233 0.001415516 0.28500003 -3.3641441e+38
0.092348926 0.0014105494 0.28400001 -3.3906767e+38
0.092808738 0.0014105494 0.28400001 -3.3906763e+38
0.092940137 0.0014055826 0.28300002 -3.3773319e+38
0.093524873 0.0014006159 0.28200001 -3.3773319e+38
0.093981452 0.0014006159 0.28200001 -3.3905719e+38
0.094558097 0.0013956492 0.28100002 nan
0.095013052 0.0013956492 0.28100002 nan
0.095128261 0.0013906824 0.28 nan
0.096034937 0.0013906824 0.28 nan
0.09614367 0.0013857158 0.27900001 nan
0.096699268 0.001380749 0.27800003 nan
0.097149372 0.001380749 0.27800003 nan
0.09724839 0.0013757823 0.27700001 nan
0.098145351 0.0013757823 0.27700001 nan
0.098593831 0.0013757823 0.27700001 nan
0.098684758 0.0013708156 0.27600002 nan
0.099578477 0.0013708156 0.27600002 nan
0.10002534 0.0013708156 0.27600002 nan
0.10055342 0.0013658489 0.27500001 nan
0.10099865 0.0013658489 0.27500001 nan
0.10144389 0.0013658489 0.27500001 nan
0.10196225 0.0013608822 0.27400002 nan
0.10240588 0.0013608822 0.27400002 nan
0.1028495 0.0013608822 0.27400002 nan
0.10329312 0.0013608822 0.27400002 nan
0.10418037 0.0013608822 0.27400002 nan
0.10462399 0.0013608822 0.27400002 nan
0.10506761 0.0013608822 0.27400002 nan
0.10595486 0.0013608822 0.27400002 nan
0.10639848 0.0013608822 0.27400002 nan
0.1068421 0.0013608822 0.27400002 nan
0.10728572 0.0013608822 0.27400002 nan
0.10817297 0.0013608822 0.27400002 nan
0.10861659 0.0013608822 0.27400002 nan
0.10906021 0.0013608822 0.27400002 nan
0.10994746 0.0013608822 0.27400002 nan
0.11039108 0.0013608822 0.27400002 nan
0.1108347 0.0013608822 0.27400002 nan
0.11127833 0.0013608822 0.27400002 nan
0.11216557 0.0013608822 0.27400002 nan
0.11302018 0.0013658489 0.27500001 nan
0.11346542 0.0013658489 0.27500001 nan
0.11391066 0.0013658489 0.27500001 nan
0.11477175 0.0013708156 0.27600002 nan
0.11566547 0.0013708156 0.27600002 nan
0.11611234 0.0013708156 0.27600002 nan
0.11698151 0.0013757823 0.27700001 nan
0.11742999 0.0013757823 0.27700001 nan
0.11832694 0.0013757823 0.27700001 nan
0.11920422 0.001380749 0.27800003 nan
0.11965432 0.001380749 0.27800003 nan
0.12010442 0.001380749 0.27800003 nan
0.12055451 0.001380749 0.27800003 nan
0.12145472 0.001380749 0.27800003 nan
0.12234332 0.0013857158 0.27900001 nan
0.12279503 0.0013857158 0.27900001 nan
0.1236885 0.0013906824 0.28 nan
0.12414183 0.0013906824 0.28 nan
0.12548514 0.0014006159 0.28200001 nan
0.1263983 0.0014006159 0.28200001 nan
0.087439798 0.0024368386 0.29700002 -3.3774374e+38
0.087624632 0.0024286339 0.296 -3.3774374e+38
0.088283844 0.0024204291 0.29500002 -3.3640926e+38
0.088460587 0.0024122242 0.294 -3.3906763e+38
0.088665627 0.0023794046 0.29000002 nan
0.089604676 0.0023794046 0.29000002 -3.3906763e+38
0.089763604 0.0023711999 0.289 nan
0.090385586 0.0023629952 0.28800002 -3.3774885e+38
0.090851873 0.0023629952 0.28800002 -3.3774885e+38
0.091001086 0.0023547902 0.287 -3.3774885e+38
0.091610111 0.0023465855 0.28600001 -3.3641441e+38
0.091751233 0.0023383806 0.28500003 -3.3641441e+38
0.092348926 0.0023301758 0.28400001 -3.3906767e+38
0.092808738 0.0023301758 0.28400001 -3.3906763e+38
0.092940137 0.0023219709 0.28300002 -3.3773319e+38
0.093856521 0.0023219709 0.28300002 -3.3905723e+38
0.093981452 0.0023137659 0.28200001 -3.3905723e+38
0.094558097 0.0023055612 0.28100002 nan
0.095013052 0.0023055612 0.28100002 nan
0.095128261 0.0022973563 0.28 nan
0.096034937 0.0022973563 0.28 -3.3903636e+38
0.09614367 0.0022891515 0.27900001 -3.3903636e+38
0.096699268 0.0022809468 0.27800003 nan
0.097149372 0.0022809468 0.27800003 nan
0.09724839 0.0022727419 0.27700001 nan
0.098145351 0.0022727419 0.27700001 nan
0.098237894 0.0022645369 0.27600002 nan
0.098684758 0.0022645369 0.27600002 nan
0.099578477 0.0022645369 0.27600002 nan
0.09966293 0.0022563322 0.27500001 nan
0.10055342 0.0022563322 0.27500001 nan
0.10099865 0.0022563322 0.27500001 nan
0.10107501 0.0022481272 0.27400002 nan
0.10196225 0.0022481272 0.27400002 nan
0.10240588 0.0022481272 0.27400002 nan
0.1028495 0.0022481272 0.27400002 nan
0.10329312 0.0022481272 0.27400002 nan
0.10418037 0.0022481272 0.27400002 nan
0.10424215 0.0022399223 0.273 nan
0.10468415 0.0022399223 0.273 nan
0.10556816 0.0022399223 0.273 nan
0.10601017 0.0022399223 0.273 nan
0.10645217 0.0022399223 0.273 nan
0.10733618 0.0022399223 0.273 nan
0.10777818 0.0022399223 0.273 nan
0.10822018 0.0022399223 0.273 nan
0.10866219 0.0022399223 0.273 nan
0.10994746 0.0022481272 0.27400002 nan
0.11039108 0.0022481272 0.27400002 nan
0.1108347 0.0022481272 0.27400002 nan
0.11127833 0.0022481272 0.27400002 nan
0.11216557 0.0022481272 0.27400002 nan
0.11260919 0.0022481272 0.27400002 nan
0.11305282 0.0022481272 0.27400002 nan
0.11391066 0.0022563322 0.27500001 nan
0.11480115 0.0022563322 0.27500001 nan
0.11566547 0.0022645369 0.27600002 nan
0.11611234 0.0022645369 0.27600002 nan
0.11655919 0.0022645369 0.27600002 nan
0.11742999 0.0022727419 0.27700001 nan
0.11832694 0.0022727419 0.27700001 nan
0.11877542 0.0022727419 0.27700001 nan
0.1192239 0.0022727419 0.27700001 nan
0.12010442 0.0022809468 0.27800003 nan
0.12055451 0.0022809468 0.27800003 nan
0.1218916 0.0022891515 0.27900001 nan
0.12234332 0.0022891515 0.27900001 nan
0.12323517 0.0022973563 0.28 nan
0.1236885 0.0022973563 0.28 nan
0.1245852 0.0023055612 0.28100002 nan
0.087439798 0.0029176997 0.29700002 -3.3774374e+38
0.087624632 0.0029078757 0.296 -3.364093e+38
0.088103876 0.0029078757 0.296 -3.3906252e+38
0.088761471 0.0028980519 0.29500002 -3.3906763e+38
0.089604676 0.0028489323 0.29000002 -3.3906763e+38
0.089763604 0.0028391085 0.289 nan
0.090231515 0.0028391085 0.289 nan
0.090851873 0.0028292846 0.28800002 -3.3774885e+38
0.091001086 0.0028194606 0.287 -3.3641441e+38
0.091610111 0.0028096368 0.28600001 -3.3641441e+38
0.091751233 0.0027998127 0.28500003 -3.3641441e+38
0.092674099 0.0027998127 0.28500003 -3.3906767e+38
0.092808738 0.0027899889 0.28400001 nan
0.092940137 0.0027801651 0.28300002 -3.3905723e+38
0.093856521 0.0027801651 0.28300002 -3.3905723e+38
0.093981452 0.002770341 0.28200001 -3.3905723e+38
0.094894595 0.002770341 0.28200001 nan
0.095013052 0.0027605172 0.28100002 nan
0.095128261 0.0027506934 0.28 nan
0.096034937 0.0027506934 0.28 nan
0.096488275 0.0027506934 0.28 nan
0.097047105 0.0027408695 0.27900001 -3.3903636e+38
0.097149372 0.0027310457 0.27800003 nan
0.09724839 0.0027212217 0.27700001 nan
0.098145351 0.0027212217 0.27700001 nan
0.098237894 0.0027113976 0.27600002 nan
0.098684758 0.0027113976 0.27600002 nan
0.099217691 0.0027015738 0.27500001 nan
0.09966293 0.0027015738 0.27500001 nan
0.10055342 0.0027015738 0.27500001 nan
0.10063139 0.0026917497 0.27400002 nan
0.10107501 0.0026917497 0.27400002 nan
0.10159013 0.0026819259 0.273 nan
0.10203213 0.0026819259 0.273 nan
0.10247414 0.0026819259 0.273 nan
0.10335814 0.0026819259 0.273 nan
0.10380015 0.0026819259 0.273 nan
0.10424215 0.0026819259 0.273 nan
0.10468415 0.0026819259 0.273 nan
0.10556816 0.0026819259 0.273 nan
0.10601017 0.0026819259 0.273 nan
0.10650261 0.0026721021 0.27200001 nan
0.106943 0.0026721021 0.27200001 nan
0.10738339 0.0026721021 0.27200001 nan
0.10822018 0.0026819259 0.273 nan
0.10866219 0.0026819259 0.273 nan
0.10954619 0.0026819259 0.273 nan
0.1099882 0.0026819259 0.273 nan
0.1104302 0.0026819259 0.273 nan
0.11131421 0.0026819259 0.273 nan
0.11175621 0.0026819259 0.273 nan
0.11219822 0.0026819259 0.273 nan
0.11305282 0.0026917497 0.27400002 nan
0.11349644 0.0026917497 0.27400002 nan
0.11480115 0.0027015738 0.27500001 nan
0.11524639 0.0027015738 0.27500001 nan
0.11611234 0.0027113976 0.27600002 nan
0.11655919 0.0027113976 0.27600002 nan
0.11700606 0.0027113976 0.27600002 nan
0.11832694 0.0027212217 0.27700001 nan
0.11877542 0.0027212217 0.27700001 nan
0.1192239 0.0027212217 0.27700001 nan
0.12010442 0.0027310457 0.27800003 nan
0.12055451 0.0027310457 0.27800003 nan
0.1218916 0.0027408695 0.27900001 nan
0.12278183 0.0027506934 0.28 nan
0.12323517 0.0027506934 0.28 nan
0.12413024 0.0027605172 0.28100002 nan
0.1245852 0.0027605172 0.28100002 nan
0.087439798 0.0033985607 0.29700002 -3.3774374e+38
0.087920658 0.0033985607 0.29700002 -3.364093e+38
0.088103876 0.0033871178 0.296 -3.3906256e+38
0.088761471 0.0033756748 0.29500002 -3.3906763e+38
0.089604676 0.0033184597 0.29000002 -3.3906763e+38
0.090074204 0.0033184597 0.29000002 nan
0.090231515 0.0033070168 0.289 nan
0.090851873 0.0032955739 0.28800002 nan
0.091001086 0.0032841312 0.287 -3.3906767e+38
0.091610111 0.0032726882 0.28600001 -3.3906767e+38
0.092073165 0.0032726882 0.28600001 -3.3906767e+38
0.092674099 0.0032612451 0.28500003 -3.3906763e+38
0.092808738 0.0032498022 0.28400001 nan
0.093268551 0.0032498022 0.28400001 -3.3905723e+38
0.093856521 0.0032383592 0.28300002 -3.3905723e+38
0.093981452 0.0032269161 0.28200001 -3.3905723e+38
0.094894595 0.0032269161 0.28200001 nan
0.095013052 0.0032154731 0.28100002 nan
0.095468007 0.0032154731 0.28100002 nan
0.096377917 0.0032154731 0.28100002 nan
0.096488275 0.0032040302 0.28 nan
0.097047105 0.0031925873 0.27900001 -3.3903636e+38
0.097149372 0.0031811444 0.27800003 nan
0.09724839 0.0031697012 0.27700001 -3.3903636e+38
0.098145351 0.0031697012 0.27700001 nan
0.098237894 0.0031582585 0.27600002 nan
0.098684758 0.0031582585 0.27600002 nan
0.099217691 0.0031468156 0.27500001 nan
0.09966293 0.0031468156 0.27500001 nan
0.10018776 0.0031353724 0.27400002 nan
0.10063139 0.0031353724 0.27400002 nan
0.10107501 0.0031353724 0.27400002 nan
0.10159013 0.0031239295 0.273 nan
0.10203213 0.0031239295 0.273 nan
0.10247414 0.0031239295 0.273 nan
0.10335814 0.0031239295 0.273 nan
0.10380015 0.0031239295 0.273 nan
0.10386031 0.0031124866 0.27200001 nan
0.10474108 0.0031124866 0.27200001 nan
0.10518146 0.0031124866 0.27200001 nan
0.10562185 0.0031124866 0.27200001 nan
0.10650261 0.0031124866 0.27200001 nan
0.106943 0.0031124866 0.27200001 nan
0.10738339 0.0031124866 0.27200001 nan
0.10782377 0.0031124866 0.27200001 nan
0.10870454 0.0031124866 0.27200001 nan
0.10914492 0.0031124866 0.27200001 nan
0.10958531 0.0031124866 0.27200001 nan
0.11002569 0.0031124866 0.27200001 nan
0.11131421 0.0031239295 0.273 nan
0.11175621 0.0031239295 0.273 nan
0.11219822 0.0031239295 0.273 nan
0.11264022 0.0031239295 0.273 nan
0.11349644 0.0031353724 0.27400002 nan
0.11438368 0.0031353724 0.27400002 nan
0.11524639 0.0031468156 0.27500001 nan
0.11569163 0.0031468156 0.27500001 nan
0.11655919 0.0031582585 0.27600002 nan
0.11700606 0.0031582585 0.27600002 nan
0.11832694 0.0031697012 0.27700001 nan
0.11920422 0.0031811444 0.27800003 nan
0.11965432 0.0031811444 0.27800003 nan
0.12010442 0.0031811444 0.27800003 nan
0.12098816 0.0031925873 0.27900001 nan
0.12187515 0.0032040302 0.28 nan
0.12278183 0.0032040302 0.28 nan
0.12367528 0.0032154731 0.28100002 nan
0.12413024 0.0032154731 0.28100002 nan
0.12502857 0.0032269161 0.28200001 nan
0.095468007 0.0036704291 0.28100002 nan
0.096377917 0.0036704291 0.28100002 nan
0.096488275 0.0036573673 0.28 nan
0.097047105 0.0036443053 0.27900001 nan
0.097149372 0.0036312432 0.27800003 nan
0.09724839 0.0036181812 0.27700001 nan
0.098145351 0.0036181812 0.27700001 -3.3904151e+38
0.098237894 0.003605119 0.27600002 nan
0.098684758 0.003605119 0.27600002 nan
0.099217691 0.0035920569 0.27500001 nan
0.09966293 0.0035920569 0.27500001 nan
0.10018776 0.0035789949 0.27400002 nan
0.10063139 0.0035789949 0.27400002 nan
0.10114813 0.0035659331 0.273 nan
0.10159013 0.0035659331 0.273 nan
0.10203213 0.0035659331 0.273 nan
0.10247414 0.0035659331 0.273 nan
0.10335814 0.0035659331 0.273 nan
0.10341993 0.0035528711 0.27200001 nan
0.10386031 0.0035528711 0.27200001 nan
0.10474108 0.0035528711 0.27200001 nan
0.10518146 0.0035528711 0.27200001 nan
0.10562185 0.0035528711 0.27200001 nan
0.10611106 0.003539809 0.27100003 nan
0.10654983 0.003539809 0.27100003 nan
0.10698859 0.003539809 0.27100003 nan
0.10782377 0.0035528711 0.27200001 nan
0.10870454 0.0035528711 0.27200001 nan
0.10914492 0.0035528711 0.27200001 nan
0.10958531 0.0035528711 0.27200001 nan
0.11002569 0.0035528711 0.27200001 nan
0.11090646 0.0035528711 0.27200001 nan
0.11175621 0.0035659331 0.273 nan
0.11219822 0.0035659331 0.273 nan
0.11264022 0.0035659331 0.273 nan
0.11349644 0.0035789949 0.27400002 nan
0.11438368 0.0035789949 0.27400002 nan
0.11524639 0.0035920569 0.27500001 nan
0.11569163 0.0035920569 0.27500001 nan
0.11655919 0.003605119 0.27600002 nan
0.11742999 0.0036181812 0.27700001 nan
0.11832694 0.0036181812 0.27700001 nan
0.11920422 0.0036312432 0.27800003 nan
0.11965432 0.0036312432 0.27800003 nan
0.12053644 0.0036443053 0.27900001 nan
0.12142181 0.0036573673 0.28 nan
0.12187515 0.0036573673 0.28 nan
0.12276537 0.0036704291 0.28100002 nan
0.087920658 0.0043602828 0.29700002 -3.364093e+38
0.088103876 0.0043456014 0.296 -3.364093e+38
0.088761471 0.0043309205 0.29500002 nan
0.089277111 0.0042868769 0.29200003 -3.3906763e+38
0.089442514 0.004272196 0.29100001 -3.3906767e+38
0.090074204 0.0042575151 0.29000002 nan
0.090231515 0.0042428337 0.289 -3.3906767e+38
0.091167331 0.0042428337 0.289 nan
0.09131816 0.0042281528 0.28800002 -3.3906763e+38
0.091930427 0.0042134719 0.287 -3.3906763e+38
0.092073165 0.004198791 0.28600001 -3.3906763e+38
0.092674099 0.0041841096 0.28500003 -3.3906763e+38
0.092808738 0.0041694287 0.28400001 -3.3906763e+38
0.093268551 0.0041694287 0.28400001 -3.3906763e+38
0.093856521 0.0041547474 0.28300002 -3.3905723e+38
0.094314717 0.0041547474 0.28300002 -3.3905723e+38
0.094894595 0.0041400664 0.28200001 nan
0.095351174 0.0041400664 0.28200001 nan
0.12411541 0.0041400664 0.28200001 nan
0.12457199 0.0041400664 0.28200001 nan
0.12547192 0.0041547474 0.28300002 nan
0.087920658 0.0048411437 0.29700002 -3.364093e+38
0.088103876 0.0048248433 0.296 -3.364093e+38
0.089108467 0.0047759432 0.29300001 -3.3906763e+38
0.089277111 0.0047596428 0.29200003 -3.3906763e+38
0.089442514 0.0047433428 0.29100001 -3.3906767e+38
0.090384804 0.0047433428 0.29100001 nan
0.090543732 0.0047270423 0.29000002 -3.3906767e+38
0.091167331 0.0047107423 0.289 nan
0.09131816 0.0046944423 0.28800002 -3.3906763e+38
0.091930427 0.0046781423 0.287 nan
0.092073165 0.0046618422 0.28600001 -3.3906763e+38
0.092674099 0.0046455418 0.28500003 -3.3906763e+38
0.093135528 0.0046455418 0.28500003 nan
0.093268551 0.0046292418 0.28400001 -3.3906763e+38
0.093856521 0.0046129413 0.28300002 -3.3905723e+38
0.094314717 0.0046129413 0.28300002 -3.3905723e+38
0.094894595 0.0045966413 0.28200001 nan
0.095351174 0.0045966413 0.28200001 -3.3905719e+38
0.095468007 0.0045803413 0.28100002 nan
0.096377917 0.0045803413 0.28100002 nan
0.096832871 0.0045803413 0.28100002 nan
0.096941613 0.0045640413 0.28 nan
0.097498827 0.0045477408 0.27900001 nan
0.097599469 0.0045314408 0.27800003 nan
0.098145351 0.0045151408 0.27700001 nan
0.098237894 0.0044988403 0.27600002 nan
0.098684758 0.0044988403 0.27600002 -3.3904151e+38
0.099217691 0.0044825403 0.27500001 nan
0.09966293 0.0044825403 0.27500001 nan
0.10018776 0.0044662403 0.27400002 nan
0.10063139 0.0044662403 0.27400002 nan
0.10114813 0.0044499398 0.273 nan
0.10159013 0.0044499398 0.273 nan
0.10203213 0.0044499398 0.273 nan
0.10253916 0.0044336398 0.27200001 nan
0.10297954 0.0044336398 0.27200001 nan
0.10341993 0.0044336398 0.27200001 nan
0.10386031 0.0044336398 0.27200001 nan
0.10474108 0.0044336398 0.27200001 nan
0.10479477 0.0044173398 0.27100003 nan
0.10523354 0.0044173398 0.27100003 nan
0.10611106 0.0044173398 0.27100003 nan
0.10654983 0.0044173398 0.27100003 nan
0.10698859 0.0044173398 0.27100003 nan
0.10786613 0.0044173398 0.27100003 nan
0.1083049 0.0044173398 0.27100003 nan
0.10914492 0.0044336398 0.27200001 nan
0.10958531 0.0044336398 0.27200001 nan
0.11002569 0.0044336398 0.27200001 nan
0.11090646 0.0044336398 0.27200001 nan
0.11134684 0.0044336398 0.27200001 nan
0.11219822 0.0044499398 0.273 nan
0.11264022 0.0044499398 0.273 nan
0.11349644 0.0044662403 0.27400002 nan
0.11438368 0.0044662403 0.27400002 nan
0.11524639 0.0044825403 0.27500001 nan
0.11611234 0.0044988403 0.27600002 nan
0.11655919 0.0044988403 0.27600002 nan
0.11742999 0.0045151408 0.27700001 nan
0.11830402 0.0045314408 0.27800003 nan
0.11920422 0.0045314408 0.27800003 nan
0.11965432 0.0045314408 0.27800003 nan
0.12053644 0.0045477408 0.27900001 nan
0.12142181 0.0045640413 0.28 nan
0.12231041 0.0045803413 0.28100002 nan
0.12320226 0.0045966413 0.28200001 nan
0.12411541 0.0045966413 0.28200001 nan
0.12501372 0.0046129413 0.28300002 nan
0.12547192 0.0046129413 0.28300002 nan
0.088216685 0.0053399238 0.29800001 -3.364093e+38
0.088401519 0.0053220047 0.29700002 -3.364093e+38
0.089108467 0.0052503278 0.29300001 -3.3641437e+38
0.089277111 0.0052324082 0.29200003 -3.3507993e+38
0.089749873 0.0052324082 0.29200003 -3.3906767e+38
0.090384804 0.0052144891 0.29100001 nan
0.090543732 0.00519657 0.29000002 nan
0.091167331 0.0051786508 0.289 nan
0.091635242 0.0051786508 0.289 nan
0.091784455 0.0051607317 0.28800002 nan
0.092395097 0.0051428126 0.287 -3.3906763e+38
0.092536218 0.0051248935 0.28600001 -3.3906763e+38
0.093135528 0.0051069744 0.28500003 nan
0.093268551 0.0050890553 0.28400001 -3.3906763e+38
0.094188176 0.0050890553 0.28400001 -3.3773319e+38
0.094314717 0.0050711357 0.28300002 -3.3905723e+38
0.094772913 0.0050711357 0.28300002 nan
0.095351174 0.0050532166 0.28200001 nan
0.095807746 0.0050532166 0.28200001 -3.3905723e+38
0.096264325 0.0050532166 0.28200001 -3.3772279e+38
0.096832871 0.005035297 0.28100002 nan
0.096941613 0.0050173779 0.28 nan
0.097498827 0.0049994588 0.27900001 nan
0.097599469 0.0049815397 0.27800003 nan
0.098145351 0.0049636206 0.27700001 nan
0.098237894 0.004945701 0.27600002 nan
0.098684758 0.004945701 0.27600002 nan
0.099217691 0.0049277819 0.27500001 nan
0.09966293 0.0049277819 0.27500001 nan
0.10018776 0.0049098628 0.27400002 nan
0.10063139 0.0049098628 0.27400002 -3.3902589e+38
0.10114813 0.0048919437 0.273 nan
0.10159013 0.0048919437 0.273 nan
0.10165839 0.0048740245 0.27200001 nan
0.10253916 0.0048740245 0.27200001 nan
0.10297954 0.0048740245 0.27200001 nan
0.10341993 0.0048740245 0.27200001 nan
0.10386031 0.0048740245 0.27200001 nan
0.10435601 0.0048561054 0.27100003 nan
0.10479477 0.0048561054 0.27100003 nan
0.10523354 0.0048561054 0.27100003 nan
0.10611106 0.0048561054 0.27100003 nan
0.10654983 0.0048561054 0.27100003 nan
0.10698859 0.0048561054 0.27100003 nan
0.10786613 0.0048561054 0.27100003 nan
0.1083049 0.0048561054 0.27100003 nan
0.10874366 0.0048561054 0.27100003 nan
0.10918242 0.0048561054 0.27100003 nan
0.11002569 0.0048740245 0.27200001 nan
0.11090646 0.0048740245 0.27200001 nan
0.11134684 0.0048740245 0.27200001 nan
0.11178723 0.0048740245 0.27200001 nan
