# .PCD v0.7 - Point Cloud Data file format
VERSION 0.7
FIELDS x y z rgb
SIZE 4 4 4 4
TYPE F F F F
COUNT 1 1 1 1
WIDTH 1096
HEIGHT 1
VIEWPOINT 0 0 0 1 0 0 0
POINTS 1096
DATA ascii
-0.083807349 -0.020279214 0.30600002 nan
-0.082545839 -0.020212941 0.30500001 nan
-0.082052022 -0.020212941 0.30500001 nan
-0.081558213 -0.020212941 0.30500001 nan
-0.080834754 -0.020279214 0.30600002 nan
-0.08033932 -0.020279214 0.30600002 nan
-0.079843886 -0.020279214 0.30600002 nan
-0.079348452 -0.020279214 0.30600002 nan
-0.078357585 -0.020279214 0.30600002 nan
-0.077862158 -0.020279214 0.30600002 nan
-0.077113889 -0.020212941 0.30500001 nan
-0.076126263 -0.020212941 0.30500001 nan
-0.075632453 -0.020212941 0.30500001 nan
-0.075138636 -0.020212941 0.30500001 nan
-0.074151009 -0.020212941 0.30500001 nan
-0.073657192 -0.020212941 0.30500001 nan
-0.073403262 -0.020279214 0.30600002 nan
-0.072907828 -0.020279214 0.30600002 nan
-0.071916968 -0.020279214 0.30600002 nan
-0.071421534 -0.020279214 0.30600002 nan
-0.0709261 -0.020279214 0.30600002 nan
-0.070430666 -0.020279214 0.30600002 nan
-0.069439799 -0.020279214 0.30600002 nan
-0.068944372 -0.020279214 0.30600002 nan
-0.068448938 -0.020279214 0.30600002 nan
-0.067458071 -0.020279214 0.30600002 nan
-0.066962637 -0.020279214 0.30600002 nan
-0.066467203 -0.020279214 0.30600002 nan
-0.065971777 -0.020279214 0.30600002 nan
-0.064980909 -0.020279214 0.30600002 nan
-0.064485475 -0.020279214 0.30600002 nan
-0.063990042 -0.020279214 0.30600002 nan
-0.063494608 -0.020279214 0.30600002 nan
-0.062503748 -0.020279214 0.30600002 nan
-0.062008314 -0.020279214 0.30600002 nan
-0.06151288 -0.020279214 0.30600002 nan
-0.060522016 -0.020279214 0.30600002 nan
-0.060222749 -0.020345487 0.30700001 nan
-0.059725698 -0.020345487 0.30700001 nan
-0.059228644 -0.020345487 0.30700001 nan
-0.058922902 -0.020411758 0.30800003 nan
-0.058613919 -0.020478029 0.30900002 nan
-0.057613339 -0.020478029 0.30900002 -3.2049497e+38
-0.057297882 -0.020544302 0.31 -3.1385925e+38
-0.056979187 -0.020610575 0.31100002 -3.151937e+38
-0.056475658 -0.020610575 0.31100002 -3.0589946e+38
-0.056332082 -0.020743117 0.31300002 -3.0589946e+38
-0.056003671 -0.02080939 0.31400001 -3.0456506e+38
-0.055672023 -0.020875661 0.31500003 -3.0456506e+38
-0.054825515 -0.020941934 0.31600001 -3.0322547e+38
-0.054485772 -0.021008205 0.317 -3.0057221e+38
-0.054142788 -0.021074478 0.31800002 -3.0057221e+38
-0.053965203 -0.021207022 0.32000002 -2.9924817e+38
-0.053614128 -0.021273293 0.32100001 -2.9791373e+38
-0.053259812 -0.021339564 0.32200003 -2.9791373e+38
-0.052902263 -0.021405837 0.32300001 -2.9791373e+38
-0.052541472 -0.021472109 0.324 -2.9791373e+38
-0.051688679 -0.022002285 0.33200002 -2.9660024e+38
-0.051151149 -0.022002285 0.33200002 -2.952658e+38
-0.093715996 -0.019783782 0.30600002 nan
-0.093220569 -0.019783782 0.30600002 nan
-0.092229702 -0.019783782 0.30600002 nan
-0.091734268 -0.019783782 0.30600002 nan
-0.091238834 -0.019783782 0.30600002 nan
-0.0907434 -0.019783782 0.30600002 nan
-0.08975254 -0.019783782 0.30600002 nan
-0.089257106 -0.019783782 0.30600002 nan
-0.088761672 -0.019783782 0.30600002 nan
-0.088266239 -0.019783782 0.30600002 nan
-0.087275378 -0.019783782 0.30600002 nan
-0.086779945 -0.019783782 0.30600002 nan
-0.086284511 -0.019783782 0.30600002 nan
-0.085293643 -0.019783782 0.30600002 nan
-0.084521092 -0.019719128 0.30500001 nan
-0.084027283 -0.019719128 0.30500001 nan
-0.083039656 -0.019719128 0.30500001 nan
-0.082545839 -0.019719128 0.30500001 nan
-0.082052022 -0.019719128 0.30500001 nan
-0.081558213 -0.019719128 0.30500001 nan
-0.080570586 -0.019719128 0.30500001 nan
-0.080076769 -0.019719128 0.30500001 nan
-0.079582959 -0.019719128 0.30500001 nan
-0.078595333 -0.019719128 0.30500001 nan
-0.078101516 -0.019719128 0.30500001 nan
-0.077353254 -0.019654475 0.30400002 nan
-0.076368861 -0.019654475 0.30400002 nan
-0.075876668 -0.019654475 0.30400002 nan
-0.075384475 -0.019654475 0.30400002 nan
-0.074892282 -0.019654475 0.30400002 nan
-0.074151009 -0.019719128 0.30500001 nan
-0.073657192 -0.019719128 0.30500001 nan
-0.073163383 -0.019719128 0.30500001 nan
-0.072669566 -0.019719128 0.30500001 nan
-0.071681939 -0.019719128 0.30500001 nan
-0.071188129 -0.019719128 0.30500001 nan
-0.070694312 -0.019719128 0.30500001 nan
-0.069706686 -0.019719128 0.30500001 nan
-0.069212876 -0.019719128 0.30500001 nan
-0.068944372 -0.019783782 0.30600002 nan
-0.06822525 -0.019719128 0.30500001 nan
-0.067237623 -0.019719128 0.30500001 nan
-0.066743806 -0.019719128 0.30500001 nan
-0.066249996 -0.019719128 0.30500001 nan
-0.065262362 -0.019719128 0.30500001 nan
-0.064768553 -0.019719128 0.30500001 nan
-0.064274736 -0.019719128 0.30500001 nan
-0.063780926 -0.019719128 0.30500001 nan
-0.0627933 -0.019719128 0.30500001 nan
-0.062299486 -0.019719128 0.30500001 nan
-0.061805669 -0.019719128 0.30500001 nan
-0.06151288 -0.019783782 0.30600002 nan
-0.060522016 -0.019783782 0.30600002 nan
-0.060026582 -0.019783782 0.30600002 nan
-0.059531149 -0.019783782 0.30600002 nan
-0.059228644 -0.019848434 0.30700001 nan
-0.058234543 -0.019848434 0.30700001 -3.2582738e+38
-0.05792556 -0.019913087 0.30800003 -3.2450354e+38
-0.057613339 -0.019977739 0.30900002 -3.1916578e+38
-0.057297882 -0.020042393 0.31 -3.0854752e+38
-0.056795973 -0.020042393 0.31 -3.0988196e+38
-0.056475658 -0.020107046 0.31100002 -3.0456502e+38
-0.056332082 -0.020236351 0.31300002 -3.0456502e+38
-0.056003671 -0.020301005 0.31400001 -3.0455991e+38
-0.055672023 -0.020365657 0.31500003 -3.0322547e+38
-0.054825515 -0.02043031 0.31600001 -2.9923777e+38
-0.054485772 -0.020494964 0.317 -2.9924817e+38
-0.054142788 -0.020559616 0.31800002 -2.9924817e+38
-0.054133847 -0.020753575 0.32100001 -2.9924817e+38
-0.053614128 -0.020753575 0.32100001 -2.9924817e+38
-0.053259812 -0.020818226 0.32200003 -2.9791373e+38
-0.052902263 -0.02088288 0.32300001 -2.9524485e+38
-0.052541472 -0.020947533 0.324 -2.9791373e+38
-0.051688679 -0.021464756 0.33200002 -2.9793468e+38
-0.093903549 -0.019225314 0.30500001 nan
-0.093409739 -0.019225314 0.30500001 nan
-0.092915922 -0.019225314 0.30500001 nan
-0.091928296 -0.019225314 0.30500001 nan
-0.091734268 -0.019288348 0.30600002 nan
-0.091238834 -0.019288348 0.30600002 nan
-0.0907434 -0.019288348 0.30600002 nan
-0.08975254 -0.019288348 0.30600002 nan
-0.089257106 -0.019288348 0.30600002 nan
-0.088761672 -0.019288348 0.30600002 nan
-0.088266239 -0.019288348 0.30600002 nan
-0.087275378 -0.019288348 0.30600002 nan
-0.086779945 -0.019288348 0.30600002 nan
-0.086284511 -0.019288348 0.30600002 nan
-0.08501491 -0.019225314 0.30500001 nan
-0.084521092 -0.019225314 0.30500001 nan
-0.084027283 -0.019225314 0.30500001 nan
-0.083039656 -0.019225314 0.30500001 nan
-0.082545839 -0.019225314 0.30500001 nan
-0.081783004 -0.01916228 0.30400002 nan
-0.080798611 -0.01916228 0.30400002 nan
-0.080306418 -0.01916228 0.30400002 nan
-0.079814225 -0.01916228 0.30400002 nan
-0.078829832 -0.01916228 0.30400002 nan
-0.07833764 -0.01916228 0.30400002 nan
-0.077845447 -0.01916228 0.30400002 nan
-0.077353254 -0.01916228 0.30400002 nan
-0.076368861 -0.01916228 0.30400002 nan
-0.075876668 -0.01916228 0.30400002 nan
-0.075384475 -0.01916228 0.30400002 nan
-0.074892282 -0.01916228 0.30400002 nan
-0.073907889 -0.01916228 0.30400002 nan
-0.073415697 -0.01916228 0.30400002 nan
-0.072923504 -0.01916228 0.30400002 nan
-0.071939111 -0.01916228 0.30400002 nan
-0.071446918 -0.01916228 0.30400002 nan
-0.070954725 -0.01916228 0.30400002 nan
-0.070462532 -0.01916228 0.30400002 nan
-0.069478139 -0.01916228 0.30400002 nan
-0.069212876 -0.019225314 0.30500001 nan
-0.068719059 -0.019225314 0.30500001 nan
-0.06822525 -0.019225314 0.30500001 nan
-0.067237623 -0.019225314 0.30500001 nan
-0.066524975 -0.01916228 0.30400002 nan
-0.066032782 -0.01916228 0.30400002 nan
-0.065048389 -0.01916228 0.30400002 nan
-0.064556196 -0.01916228 0.30400002 nan
-0.064064004 -0.01916228 0.30400002 nan
-0.06307961 -0.01916228 0.30400002 nan
-0.062587418 -0.01916228 0.30400002 nan
-0.062299486 -0.019225314 0.30500001 nan
-0.061805669 -0.019225314 0.30500001 nan
-0.060818043 -0.019225314 0.30500001 nan
-0.060324229 -0.019225314 0.30500001 nan
-0.060026582 -0.019288348 0.30600002 nan
-0.059531149 -0.019288348 0.30600002 nan
-0.059035718 -0.019288348 0.30600002 nan
-0.058234543 -0.019351384 0.30700001 -3.2182941e+38
-0.05792556 -0.019414416 0.30800003 -3.138593e+38
-0.057613339 -0.019477449 0.30900002 -3.1252485e+38
-0.057113051 -0.019477449 0.30900002 -3.0588389e+38
-0.056795973 -0.019540485 0.31 -3.0721833e+38
-0.056475658 -0.019603519 0.31100002 -3.0456506e+38
-0.056332082 -0.019729586 0.31300002 -3.0456506e+38
-0.056003671 -0.01979262 0.31400001 -3.0455991e+38
-0.055672023 -0.019855652 0.31500003 -3.0322547e+38
-0.054825515 -0.019918686 0.31600001 -2.9923777e+38
-0.054657649 -0.020044755 0.31800002 -2.9924821e+38
-0.054313049 -0.020107787 0.31900001 -2.9924821e+38
-0.054133847 -0.020233857 0.32100001 -2.9924821e+38
-0.053781152 -0.020296888 0.32200003 -2.9791377e+38
-0.053259812 -0.020296888 0.32200003 -2.9791377e+38
-0.052902263 -0.020359924 0.32300001 -2.9791377e+38
-0.052541472 -0.020422958 0.324 -2.9791377e+38
-0.093903549 -0.018731501 0.30500001 nan
-0.093409739 -0.018731501 0.30500001 nan
-0.092915922 -0.018731501 0.30500001 nan
-0.091928296 -0.018731501 0.30500001 nan
-0.091734268 -0.018792916 0.30600002 nan
-0.091238834 -0.018792916 0.30600002 nan
-0.0907434 -0.018792916 0.30600002 nan
-0.08975254 -0.018792916 0.30600002 nan
-0.089257106 -0.018792916 0.30600002 nan
-0.088761672 -0.018792916 0.30600002 nan
-0.088266239 -0.018792916 0.30600002 nan
-0.087275378 -0.018792916 0.30600002 nan
-0.086779945 -0.018792916 0.30600002 nan
-0.085508719 -0.018731501 0.30500001 nan
-0.08501491 -0.018731501 0.30500001 nan
-0.084521092 -0.018731501 0.30500001 nan
-0.084027283 -0.018731501 0.30500001 nan
-0.083039656 -0.018731501 0.30500001 nan
-0.082275197 -0.018670086 0.30400002 nan
-0.081783004 -0.018670086 0.30400002 nan
-0.080798611 -0.018670086 0.30400002 nan
-0.080306418 -0.018670086 0.30400002 nan
-0.079551674 -0.018608673 0.303 nan
-0.07857053 -0.018608673 0.303 nan
-0.078079954 -0.018608673 0.303 nan
-0.077589378 -0.018608673 0.303 nan
-0.076608226 -0.018608673 0.303 nan
-0.07611765 -0.018608673 0.303 nan
-0.075627074 -0.018608673 0.303 nan
-0.075136498 -0.018608673 0.303 nan
-0.074155346 -0.018608673 0.303 nan
-0.07366477 -0.018608673 0.303 nan
-0.073174194 -0.018608673 0.303 nan
-0.072923504 -0.018670086 0.30400002 nan
-0.071939111 -0.018670086 0.30400002 nan
-0.071446918 -0.018670086 0.30400002 nan
-0.070954725 -0.018670086 0.30400002 nan
-0.070462532 -0.018670086 0.30400002 nan
-0.069478139 -0.018670086 0.30400002 nan
-0.068985946 -0.018670086 0.30400002 nan
-0.068268441 -0.018608673 0.303 nan
-0.067287289 -0.018608673 0.303 nan
-0.06679672 -0.018608673 0.303 nan
-0.066306144 -0.018608673 0.303 nan
-0.065324992 -0.018608673 0.303 nan
-0.064834416 -0.018608673 0.303 nan
-0.06434384 -0.018608673 0.303 nan
-0.063853264 -0.018608673 0.303 nan
-0.062872112 -0.018608673 0.303 nan
-0.062587418 -0.018670086 0.30400002 nan
-0.062095225 -0.018670086 0.30400002 nan
-0.061805669 -0.018731501 0.30500001 nan
-0.060818043 -0.018731501 0.30500001 nan
-0.060324229 -0.018731501 0.30500001 nan
-0.059830416 -0.018731501 0.30500001 nan
-0.059531149 -0.018792916 0.30600002 nan
-0.059035718 -0.018792916 0.30600002 -3.2982029e+38
-0.058234543 -0.018854331 0.30700001 -3.1783134e+38
-0.05792556 -0.018915744 0.30800003 -3.0854756e+38
-0.057426888 -0.018915744 0.30800003 -3.0854756e+38
-0.057113051 -0.01897716 0.30900002 -3.0323062e+38
-0.056795973 -0.019038575 0.31 -3.0456506e+38
-0.056657255 -0.018656258 0.31200001 -3.0323062e+38
-0.056332082 -0.018716054 0.31300002 -3.0456506e+38
-0.056003671 -0.018775851 0.31400001 -3.0190665e+38
-0.055672023 -0.018835643 0.31500003 -3.0057221e+38
-0.055512257 -0.018955236 0.317 -2.9923781e+38
-0.054657649 -0.019015033 0.31800002 -2.9924821e+38
-0.054313049 -0.019074827 0.31900001 -2.9791377e+38
-0.054133847 -0.019194419 0.32100001 -2.9924821e+38
-0.053781152 -0.019254213 0.32200003 -2.9791377e+38
-0.053259812 -0.019254213 0.32200003 -2.9791377e+38
-0.052902263 -0.01931401 0.32300001 -2.9791377e+38
-0.052541472 -0.019373806 0.324 -2.9791377e+38
-0.052337985 -0.019493397 0.32600001 -2.9791377e+38
-0.092915922 -0.017743874 0.30500001 nan
-0.091928296 -0.017743874 0.30500001 nan
-0.091734268 -0.01780205 0.30600002 nan
-0.091238834 -0.01780205 0.30600002 nan
-0.0907434 -0.01780205 0.30600002 nan
-0.08975254 -0.01780205 0.30600002 nan
-0.089257106 -0.01780205 0.30600002 nan
-0.088761672 -0.01780205 0.30600002 nan
-0.088266239 -0.01780205 0.30600002 nan
-0.086990163 -0.017743874 0.30500001 nan
-0.086496346 -0.017743874 0.30500001 nan
-0.085508719 -0.017743874 0.30500001 nan
-0.08501491 -0.017743874 0.30500001 nan
-0.084521092 -0.017743874 0.30500001 nan
-0.084027283 -0.017743874 0.30500001 nan
-0.08276739 -0.017685696 0.30400002 nan
-0.082275197 -0.017685696 0.30400002 nan
-0.081783004 -0.017685696 0.30400002 nan
-0.080798611 -0.017685696 0.30400002 nan
-0.08004225 -0.017627522 0.303 nan
-0.079551674 -0.017627522 0.303 nan
-0.07857053 -0.017627522 0.303 nan
-0.078079954 -0.017627522 0.303 nan
-0.077589378 -0.017627522 0.303 nan
-0.076608226 -0.017627522 0.303 nan
-0.07611765 -0.017627522 0.303 nan
-0.075627074 -0.017627522 0.303 nan
-0.075136498 -0.017627522 0.303 nan
-0.074155346 -0.017627522 0.303 nan
-0.07366477 -0.017627522 0.303 nan
-0.073174194 -0.017627522 0.303 nan
-0.072193049 -0.017627522 0.303 nan
-0.071702473 -0.017627522 0.303 nan
-0.071211897 -0.017627522 0.303 nan
-0.070721321 -0.017627522 0.303 nan
-0.069740169 -0.017627522 0.303 nan
-0.069249593 -0.017627522 0.303 nan
-0.068759017 -0.017627522 0.303 nan
-0.067554176 -0.017569344 0.30200002 nan
-0.067065224 -0.017569344 0.30200002 nan
-0.066576265 -0.017569344 0.30200002 nan
-0.065598354 -0.017569344 0.30200002 nan
-0.065109394 -0.017569344 0.30200002 nan
-0.064620443 -0.017569344 0.30200002 nan
-0.064131483 -0.017569344 0.30200002 nan
-0.063853264 -0.017627522 0.303 nan
-0.062872112 -0.017627522 0.303 nan
-0.062381539 -0.017627522 0.303 nan
-0.062095225 -0.017685696 0.30400002 nan
-0.061603028 -0.017685696 0.30400002 nan
-0.060818043 -0.017743874 0.30500001 nan
-0.060324229 -0.017743874 0.30500001 nan
-0.059830416 -0.017743874 0.30500001 -3.33808e+38
-0.059531149 -0.01780205 0.30600002 -3.1916578e+38
-0.059035718 -0.01780205 0.30600002 -3.164969e+38
-0.058234543 -0.017860228 0.30700001 -3.1118526e+38
-0.05792556 -0.017918404 0.30800003 -3.0587874e+38
-0.057426888 -0.017918404 0.30800003 -3.0587874e+38
-0.057113051 -0.01797658 0.30900002 -3.0189618e+38
-0.056795973 -0.018034758 0.31 -3.0323062e+38
-0.056657255 -0.01815111 0.31200001 -3.0057736e+38
-0.056332082 -0.018209288 0.31300002 -3.0057736e+38
-0.056003671 -0.018267464 0.31400001 -3.0057221e+38
-0.055672023 -0.01832564 0.31500003 -3.0057221e+38
-0.055512257 -0.018441994 0.317 -2.9790862e+38
-0.054657649 -0.018500172 0.31800002 -2.9924821e+38
-0.054313049 -0.018558348 0.31900001 -2.9791377e+38
-0.054133847 -0.018674701 0.32100001 -2.9924821e+38
-0.053781152 -0.018732877 0.32200003 -2.9791377e+38
-0.053425215 -0.018791053 0.32300001 -2.9791377e+38
-0.052902263 -0.018791053 0.32300001 -2.9524489e+38
-0.052703634 -0.018907407 0.32500002 -2.9791377e+38
-0.052337985 -0.018965583 0.32600001 -2.9791377e+38
-0.093220569 -0.017306618 0.30600002 nan
-0.092229702 -0.017306618 0.30600002 nan
-0.092034057 -0.017363176 0.30700001 nan
-0.091536999 -0.017363176 0.30700001 nan
-0.091039948 -0.017363176 0.30700001 nan
-0.090542898 -0.017363176 0.30700001 nan
-0.089257106 -0.017306618 0.30600002 nan
-0.088761672 -0.017306618 0.30600002 nan
-0.088266239 -0.017306618 0.30600002 nan
-0.087275378 -0.017306618 0.30600002 nan
-0.086779945 -0.017306618 0.30600002 nan
-0.085508719 -0.017250061 0.30500001 nan
-0.08501491 -0.017250061 0.30500001 nan
-0.084521092 -0.017250061 0.30500001 nan
-0.084027283 -0.017250061 0.30500001 nan
-0.08276739 -0.017193502 0.30400002 nan
-0.082275197 -0.017193502 0.30400002 nan
-0.081783004 -0.017193502 0.30400002 nan
-0.080798611 -0.017193502 0.30400002 nan
-0.08004225 -0.017136946 0.303 nan
-0.079551674 -0.017136946 0.303 nan
-0.07857053 -0.017136946 0.303 nan
-0.078079954 -0.017136946 0.303 nan
-0.077589378 -0.017136946 0.303 nan
-0.076608226 -0.017136946 0.303 nan
-0.075866438 -0.017080389 0.30200002 nan
-0.075377479 -0.017080389 0.30200002 nan
-0.074399568 -0.017080389 0.30200002 nan
-0.073910609 -0.017080389 0.30200002 nan
-0.073421657 -0.017080389 0.30200002 nan
-0.072932698 -0.017080389 0.30200002 nan
-0.071954787 -0.017080389 0.30200002 nan
-0.071465828 -0.017080389 0.30200002 nan
-0.070976876 -0.017080389 0.30200002 nan
-0.069998957 -0.017080389 0.30200002 nan
-0.069510005 -0.017080389 0.30200002 nan
-0.069021046 -0.017080389 0.30200002 nan
-0.068532087 -0.017080389 0.30200002 nan
-0.067330495 -0.01702383 0.30100003 nan
-0.066843159 -0.01702383 0.30100003 nan
-0.066355817 -0.01702383 0.30100003 nan
-0.065381147 -0.01702383 0.30100003 nan
-0.064893804 -0.01702383 0.30100003 nan
-0.064406469 -0.01702383 0.30100003 nan
-0.064131483 -0.017080389 0.30200002 nan
-0.063153572 -0.017080389 0.30200002 nan
-0.062664613 -0.017080389 0.30200002 nan
-0.062381539 -0.017136946 0.303 nan
-0.061890963 -0.017136946 0.303 nan
-0.061603028 -0.017193502 0.30400002 nan
-0.060618639 -0.017193502 0.30400002 nan
-0.060126446 -0.017193502 0.30400002 -3.23169e+38
-0.059830416 -0.017250061 0.30500001 -3.23169e+38
-0.059531149 -0.017306618 0.30600002 -3.1252485e+38
-0.059035718 -0.017306618 0.30600002 -3.1119041e+38
-0.058234543 -0.017363176 0.30700001 -3.0853194e+38
-0.05792556 -0.017419733 0.30800003 -3.0454429e+38
-0.057426888 -0.017419733 0.30800003 -3.0587874e+38
-0.057113051 -0.01747629 0.30900002 -3.0189103e+38
-0.056795973 -0.01753285 0.31 -3.0322547e+38
-0.056657255 -0.017645964 0.31200001 -3.0057736e+38
-0.056332082 -0.017702522 0.31300002 -3.0057736e+38
-0.056003671 -0.017759079 0.31400001 -3.0057221e+38
-0.055672023 -0.017815636 0.31500003 -3.0057221e+38
-0.054825515 -0.017872194 0.31600001 -2.9791377e+38
-0.054657649 -0.01798531 0.31800002 -2.9791377e+38
-0.054313049 -0.018041866 0.31900001 -2.9791377e+38
-0.054133847 -0.018154982 0.32100001 -2.9924821e+38
-0.053781152 -0.01821154 0.32200003 -2.9524489e+38
-0.053425215 -0.018268097 0.32300001 -2.9791377e+38
-0.053066045 -0.018324655 0.324 -2.9524489e+38
-0.052703634 -0.018381214 0.32500002 -2.9791377e+38
-0.052337985 -0.018437769 0.32600001 -2.9791377e+38
-0.092832513 -0.016921062 0.30800003 nan
-0.091835171 -0.016921062 0.30800003 nan
-0.091039948 -0.016866125 0.30700001 nan
-0.090542898 -0.016866125 0.30700001 nan
-0.089548796 -0.016866125 0.30700001 nan
-0.088761672 -0.016811186 0.30600002 nan
-0.088266239 -0.016811186 0.30600002 nan
-0.087275378 -0.016811186 0.30600002 nan
-0.086779945 -0.016811186 0.30600002 nan
-0.085508719 -0.016756248 0.30500001 nan
-0.08501491 -0.016756248 0.30500001 nan
-0.084521092 -0.016756248 0.30500001 nan
-0.084027283 -0.016756248 0.30500001 nan
-0.083039656 -0.016756248 0.30500001 nan
-0.082275197 -0.016701309 0.30400002 nan
-0.081783004 -0.016701309 0.30400002 nan
-0.080798611 -0.016701309 0.30400002 nan
-0.08004225 -0.01664637 0.303 nan
-0.079551674 -0.01664637 0.303 nan
-0.07857053 -0.01664637 0.303 nan
-0.078079954 -0.01664637 0.303 nan
-0.077589378 -0.01664637 0.303 nan
-0.076608226 -0.01664637 0.303 nan
-0.075866438 -0.016591432 0.30200002 nan
-0.075377479 -0.016591432 0.30200002 nan
-0.074399568 -0.016591432 0.30200002 nan
-0.073910609 -0.016591432 0.30200002 nan
-0.073421657 -0.016591432 0.30200002 nan
-0.072932698 -0.016591432 0.30200002 nan
-0.071954787 -0.016591432 0.30200002 nan
-0.071465828 -0.016591432 0.30200002 nan
-0.070976876 -0.016591432 0.30200002 nan
-0.069767185 -0.016536493 0.30100003 nan
-0.069279842 -0.016536493 0.30100003 nan
-0.068792507 -0.016536493 0.30100003 nan
-0.06781783 -0.016536493 0.30100003 nan
-0.067330495 -0.016536493 0.30100003 nan
-0.066621087 -0.016481556 0.30000001 nan
-0.065649651 -0.016481556 0.30000001 nan
-0.065163933 -0.016481556 0.30000001 nan
-0.064893804 -0.016536493 0.30100003 nan
-0.064406469 -0.016536493 0.30100003 nan
-0.063431799 -0.016536493 0.30100003 nan
-0.062944457 -0.016536493 0.30100003 nan
-0.062664613 -0.016591432 0.30200002 nan
-0.062175658 -0.016591432 0.30200002 nan
-0.061890963 -0.01664637 0.303 nan
-0.060909811 -0.01664637 0.303 nan
-0.060618639 -0.016701309 0.30400002 -3.2982025e+38
-0.060126446 -0.016701309 0.30400002 -3.1785207e+38
-0.059830416 -0.016756248 0.30500001 -3.1651763e+38
-0.059531149 -0.016811186 0.30600002 -3.0986638e+38
-0.059035718 -0.016811186 0.30600002 -3.0986638e+38
-0.058234543 -0.016866125 0.30700001 -3.0587867e+38
-0.05792556 -0.016921062 0.30800003 -3.0454945e+38
-0.057426888 -0.016921062 0.30800003 -3.0588389e+38
-0.057113051 -0.016976001 0.30900002 -3.0323062e+38
-0.056979187 -0.01708588 0.31100002 -3.0189618e+38
-0.056657255 -0.017140817 0.31200001 -3.0057736e+38
-0.056332082 -0.017195756 0.31300002 -3.0057736e+38
-0.056003671 -0.017250694 0.31400001 -3.0057221e+38
-0.055672023 -0.017305631 0.31500003 -3.0057221e+38
-0.055512257 -0.01741551 0.317 -2.9791377e+38
-0.054657649 -0.017470449 0.31800002 -2.9791377e+38
-0.054313049 -0.017525386 0.31900001 -2.9791377e+38
-0.053781152 -0.017690202 0.32200003 -2.9524489e+38
-0.053425215 -0.017745141 0.32300001 -2.9791377e+38
-0.053066045 -0.01780008 0.324 -2.9791377e+38
-0.052703634 -0.017855018 0.32500002 -2.9791377e+38
-0.092832513 -0.015923722 0.30800003 nan
-0.091835171 -0.015923722 0.30800003 nan
-0.091336496 -0.015923722 0.30800003 nan
-0.090837829 -0.015923722 0.30800003 nan
-0.089548796 -0.015872022 0.30700001 nan
-0.089051746 -0.015872022 0.30700001 nan
-0.088266239 -0.015820321 0.30600002 nan
-0.087275378 -0.015820321 0.30600002 nan
-0.086779945 -0.015820321 0.30600002 nan
-0.086284511 -0.015820321 0.30600002 nan
-0.08501491 -0.015768621 0.30500001 nan
-0.084521092 -0.015768621 0.30500001 nan
-0.084027283 -0.015768621 0.30500001 nan
-0.083039656 -0.015768621 0.30500001 nan
-0.082275197 -0.01571692 0.30400002 nan
-0.081783004 -0.01571692 0.30400002 nan
-0.080798611 -0.01571692 0.30400002 nan
-0.08004225 -0.01566522 0.303 nan
-0.079551674 -0.01566522 0.303 nan
-0.07857053 -0.01566522 0.303 nan
-0.078079954 -0.01566522 0.303 nan
-0.077589378 -0.01566522 0.303 nan
-0.07635539 -0.01561352 0.30200002 nan
-0.075866438 -0.01561352 0.30200002 nan
-0.075377479 -0.01561352 0.30200002 nan
-0.074399568 -0.01561352 0.30200002 nan
-0.073910609 -0.01561352 0.30200002 nan
-0.073421657 -0.01561352 0.30200002 nan
-0.072932698 -0.01561352 0.30200002 nan
-0.071954787 -0.01561352 0.30200002 nan
-0.07122919 -0.015561818 0.30100003 nan
-0.070741855 -0.015561818 0.30100003 nan
-0.069767185 -0.015561818 0.30100003 nan
-0.069279842 -0.015561818 0.30100003 nan
-0.068792507 -0.015561818 0.30100003 nan
-0.067592524 -0.015510119 0.30000001 nan
-0.067106806 -0.015510119 0.30000001 nan
-0.066621087 -0.015510119 0.30000001 nan
-0.065649651 -0.015510119 0.30000001 nan
-0.065163933 -0.015510119 0.30000001 nan
-0.064678214 -0.015510119 0.30000001 nan
-0.064192496 -0.015510119 0.30000001 nan
-0.06322106 -0.015510119 0.30000001 nan
-0.062944457 -0.015561818 0.30100003 nan
-0.062457122 -0.015561818 0.30100003 nan
-0.062175658 -0.01561352 0.30200002 nan
-0.061686702 -0.01561352 0.30200002 nan
-0.060909811 -0.01566522 0.303 -3.1784696e+38
-0.060618639 -0.01571692 0.30400002 -3.1517808e+38
-0.060126446 -0.01571692 0.30400002 -3.0986634e+38
-0.059830416 -0.015768621 0.30500001 -3.0986634e+38
-0.059531149 -0.015820321 0.30600002 -3.0188057e+38
-0.059035718 -0.015820321 0.30600002 -3.0454945e+38
-0.058234543 -0.015872022 0.30700001 -3.0189618e+38
-0.05792556 -0.015923722 0.30800003 -3.0189103e+38
-0.057613339 -0.015975421 0.30900002 -3.0189103e+38
-0.057297882 -0.016027123 0.31 -3.0189103e+38
-0.056979187 -0.016078824 0.31100002 -3.0189103e+38
-0.056657255 -0.016130524 0.31200001 -3.0189103e+38
-0.056332082 -0.016182223 0.31300002 -3.0189103e+38
-0.056003671 -0.016233925 0.31400001 -2.9923777e+38
-0.055848762 -0.016337324 0.31600001 -2.9923777e+38
-0.055512257 -0.016389025 0.317 -2.9791377e+38
-0.054657649 -0.016440727 0.31800002 -2.9791377e+38
-0.054313049 -0.016492426 0.31900001 -2.9791377e+38
-0.053948171 -0.016699227 0.32300001 -2.9791377e+38
-0.053590622 -0.016750928 0.324 -2.9791377e+38
-0.053229827 -0.016802629 0.32500002 -2.9791377e+38
-0.0528658 -0.016854329 0.32600001 -2.9791377e+38
-0.093133911 -0.015475133 0.30900002 nan
-0.092133336 -0.015475133 0.30900002 nan
-0.091336496 -0.015425051 0.30800003 nan
-0.090837829 -0.015425051 0.30800003 nan
-0.089840487 -0.015425051 0.30800003 nan
-0.089051746 -0.015374971 0.30700001 nan
-0.088554695 -0.015374971 0.30700001 nan
-0.087275378 -0.015324889 0.30600002 nan
-0.086779945 -0.015324889 0.30600002 nan
-0.086284511 -0.015324889 0.30600002 nan
-0.085293643 -0.015324889 0.30600002 nan
-0.084521092 -0.015274807 0.30500001 nan
-0.084027283 -0.015274807 0.30500001 nan
-0.083039656 -0.015274807 0.30500001 nan
-0.082545839 -0.015274807 0.30500001 nan
-0.082052022 -0.015274807 0.30500001 nan
-0.080798611 -0.015224725 0.30400002 nan
-0.080306418 -0.015224725 0.30400002 nan
-0.079551674 -0.015174645 0.303 nan
-0.07857053 -0.015174645 0.303 nan
-0.078079954 -0.015174645 0.303 nan
-0.077589378 -0.015174645 0.303 nan
-0.07635539 -0.015124563 0.30200002 nan
-0.075866438 -0.015124563 0.30200002 nan
-0.075377479 -0.015124563 0.30200002 nan
-0.074399568 -0.015124563 0.30200002 nan
-0.073910609 -0.015124563 0.30200002 nan
-0.073421657 -0.015124563 0.30200002 nan
-0.072203867 -0.015074481 0.30100003 nan
-0.071716532 -0.015074481 0.30100003 nan
-0.07122919 -0.015074481 0.30100003 nan
-0.070741855 -0.015074481 0.30100003 nan
-0.069767185 -0.015074481 0.30100003 nan
-0.069279842 -0.015074481 0.30100003 nan
-0.06856396 -0.015024401 0.30000001 nan
-0.067592524 -0.015024401 0.30000001 nan
-0.067106806 -0.015024401 0.30000001 nan
-0.066621087 -0.015024401 0.30000001 nan
-0.065649651 -0.015024401 0.30000001 nan
-0.065163933 -0.015024401 0.30000001 nan
-0.064678214 -0.015024401 0.30000001 nan
-0.064192496 -0.015024401 0.30000001 nan
-0.06322106 -0.015024401 0.30000001 nan
-0.062735341 -0.015024401 0.30000001 nan
-0.062457122 -0.015074481 0.30100003 nan
-0.061969783 -0.015074481 0.30100003 nan
-0.061686702 -0.015124563 0.30200002 -3.2182941e+38
-0.060909811 -0.015174645 0.303 -3.138593e+38
-0.060618639 -0.015224725 0.30400002 -3.1119041e+38
-0.060126446 -0.015224725 0.30400002 -3.0721312e+38
-0.059830416 -0.015274807 0.30500001 -3.0587867e+38
-0.059531149 -0.015324889 0.30600002 -3.0187541e+38
-0.059035718 -0.015324889 0.30600002 -3.0454429e+38
-0.058234543 -0.015374971 0.30700001 -3.0189103e+38
-0.05792556 -0.015425051 0.30800003 -3.0189103e+38
-0.057613339 -0.015475133 0.30900002 -3.0189103e+38
-0.057297882 -0.015525214 0.31 -3.0189103e+38
-0.056979187 -0.015575296 0.31100002 -3.0189103e+38
-0.056657255 -0.015625376 0.31200001 -2.9656889e+38
-0.056512058 -0.01572554 0.31400001 -2.9923777e+38
-0.056182027 -0.015775619 0.31500003 -2.9656889e+38
-0.055848762 -0.015825702 0.31600001 -2.9656889e+38
-0.055512257 -0.015875783 0.317 -2.9791377e+38
-0.054657649 -0.015925866 0.31800002 -2.9791377e+38
-0.054313049 -0.015975945 0.31900001 -2.9524489e+38
-0.053948171 -0.01617627 0.32300001 -2.9791377e+38
-0.053590622 -0.016226353 0.324 -2.9791377e+38
-0.053229827 -0.016276434 0.32500002 -2.9791377e+38
-0.093435317 -0.015023305 0.31 nan
-0.092133336 -0.014974843 0.30900002 nan
-0.091633044 -0.014974843 0.30900002 nan
-0.091132753 -0.014974843 0.30900002 nan
-0.089840487 -0.01492638 0.30800003 nan
-0.089341812 -0.01492638 0.30800003 nan
-0.088554695 -0.014877919 0.30700001 nan
-0.087560587 -0.014877919 0.30700001 nan
-0.087063536 -0.014877919 0.30700001 nan
-0.086566485 -0.014877919 0.30700001 nan
-0.085293643 -0.014829456 0.30600002 nan
-0.084798209 -0.014829456 0.30600002 nan
-0.084302783 -0.014829456 0.30600002 nan
-0.083039656 -0.014780994 0.30500001 nan
-0.082545839 -0.014780994 0.30500001 nan
-0.082052022 -0.014780994 0.30500001 nan
-0.080798611 -0.01473253 0.30400002 nan
-0.080306418 -0.01473253 0.30400002 nan
-0.079551674 -0.01468407 0.303 nan
-0.07857053 -0.01468407 0.303 nan
-0.078079954 -0.01468407 0.303 nan
-0.077589378 -0.01468407 0.303 nan
-0.076608226 -0.01468407 0.303 nan
-0.075866438 -0.014635607 0.30200002 nan
-0.075377479 -0.014635607 0.30200002 nan
-0.074399568 -0.014635607 0.30200002 nan
-0.073910609 -0.014635607 0.30200002 nan
-0.073421657 -0.014635607 0.30200002 nan
-0.072203867 -0.014587144 0.30100003 nan
-0.071716532 -0.014587144 0.30100003 nan
-0.07122919 -0.014587144 0.30100003 nan
-0.070741855 -0.014587144 0.30100003 nan
-0.069767185 -0.014587144 0.30100003 nan
-0.069049679 -0.014538683 0.30000001 nan
-0.06856396 -0.014538683 0.30000001 nan
-0.067592524 -0.014538683 0.30000001 nan
-0.067106806 -0.014538683 0.30000001 nan
-0.066399015 -0.01449022 0.29900002 nan
-0.06543082 -0.01449022 0.29900002 nan
-0.064946719 -0.01449022 0.29900002 nan
-0.064678214 -0.014538683 0.30000001 nan
-0.064192496 -0.014538683 0.30000001 nan
-0.06322106 -0.014538683 0.30000001 nan
-0.062735341 -0.014538683 0.30000001 nan
-0.062457122 -0.014587144 0.30100003 nan
-0.061969783 -0.014587144 0.30100003 -3.2980464e+38
-0.061686702 -0.014635607 0.30200002 -3.1517804e+38
-0.060909811 -0.01468407 0.303 -3.085424e+38
-0.060618639 -0.01473253 0.30400002 -3.0720796e+38
-0.060126446 -0.01473253 0.30400002 -3.0454429e+38
-0.059830416 -0.014780994 0.30500001 -3.0454429e+38
-0.059531149 -0.014829456 0.30600002 -3.0187541e+38
-0.059035718 -0.014829456 0.30600002 -3.0187541e+38
-0.058234543 -0.014877919 0.30700001 -2.9922215e+38
-0.05792556 -0.01492638 0.30800003 -2.9922215e+38
-0.057613339 -0.014974843 0.30900002 -3.0189103e+38
-0.057297882 -0.015023305 0.31 -3.0189103e+38
-0.056979187 -0.015071768 0.31100002 -3.0189103e+38
-0.056657255 -0.015120229 0.31200001 -2.9656889e+38
-0.056512058 -0.015217154 0.31400001 -2.9656889e+38
-0.056182027 -0.015265616 0.31500003 -2.9656889e+38
-0.055848762 -0.015314079 0.31600001 -2.9656889e+38
-0.055512257 -0.015362541 0.317 -2.9524489e+38
-0.054657649 -0.015411003 0.31800002 -2.9524489e+38
-0.054313049 -0.015459465 0.31900001 -2.9524489e+38
-0.053948171 -0.015653314 0.32300001 -2.9791373e+38
-0.053590622 -0.015701776 0.324 -2.9791373e+38
-0.053229827 -0.015750241 0.32500002 -2.9791373e+38
-0.093435317 -0.014521397 0.31 nan
-0.092933409 -0.014521397 0.31 nan
-0.091633044 -0.014474553 0.30900002 nan
-0.091132753 -0.014474553 0.30900002 nan
-0.090632468 -0.014474553 0.30900002 nan
-0.089341812 -0.014427709 0.30800003 nan
-0.088843144 -0.014427709 0.30800003 nan
-0.088344477 -0.014427709 0.30800003 nan
-0.087347135 -0.014427709 0.30800003 nan
-0.086566485 -0.014380868 0.30700001 nan
-0.086069435 -0.014380868 0.30700001 nan
-0.084798209 -0.014334024 0.30600002 nan
-0.084302783 -0.014334024 0.30600002 nan
-0.083807349 -0.014334024 0.30600002 nan
-0.082816482 -0.014334024 0.30600002 nan
-0.082052022 -0.01428718 0.30500001 nan
-0.080798611 -0.014240337 0.30400002 nan
-0.080306418 -0.014240337 0.30400002 nan
-0.079814225 -0.014240337 0.30400002 nan
-0.07857053 -0.014193494 0.303 nan
-0.078079954 -0.014193494 0.303 nan
-0.077589378 -0.014193494 0.303 nan
-0.076608226 -0.014193494 0.303 nan
-0.075866438 -0.01414665 0.30200002 nan
-0.075377479 -0.01414665 0.30200002 nan
-0.074399568 -0.01414665 0.30200002 nan
-0.073910609 -0.01414665 0.30200002 nan
-0.073421657 -0.01414665 0.30200002 nan
-0.072203867 -0.014099807 0.30100003 nan
-0.071716532 -0.014099807 0.30100003 nan
-0.07122919 -0.014099807 0.30100003 nan
-0.070741855 -0.014099807 0.30100003 nan
-0.069767185 -0.014099807 0.30100003 nan
-0.069049679 -0.014052965 0.30000001 nan
-0.06856396 -0.014052965 0.30000001 nan
-0.067592524 -0.014052965 0.30000001 nan
-0.066883117 -0.014006121 0.29900002 nan
-0.066399015 -0.014006121 0.29900002 nan
-0.06543082 -0.014006121 0.29900002 nan
-0.064946719 -0.014006121 0.29900002 nan
-0.064462617 -0.014006121 0.29900002 nan
-0.064192496 -0.014052965 0.30000001 nan
-0.06322106 -0.014052965 0.30000001 nan
-0.062735341 -0.014052965 0.30000001 nan
-0.062249623 -0.014052965 0.30000001 -3.2182406e+38
-0.061969783 -0.014099807 0.30100003 -3.2182406e+38
-0.061686702 -0.01414665 0.30200002 -3.1119037e+38
-0.060909811 -0.014193494 0.303 -3.0720796e+38
-0.060618639 -0.014240337 0.30400002 -3.0587352e+38
-0.060126446 -0.014240337 0.30400002 -3.0454429e+38
-0.059830416 -0.01428718 0.30500001 -3.0187541e+38
-0.059531149 -0.014334024 0.30600002 -3.0187541e+38
-0.059228644 -0.014380868 0.30700001 -3.0187541e+38
-0.058234543 -0.014380868 0.30700001 -2.9922215e+38
-0.05792556 -0.014427709 0.30800003 -2.9922215e+38
-0.057613339 -0.014474553 0.30900002 -3.0189103e+38
-0.057297882 -0.014521397 0.31 -2.9656889e+38
-0.056979187 -0.01456824 0.31100002 -2.9656889e+38
-0.056838848 -0.014661926 0.31300002 -2.9656889e+38
-0.056512058 -0.01470877 0.31400001 -2.9656889e+38
-0.056182027 -0.014755611 0.31500003 -2.9524485e+38
-0.055848762 -0.014802455 0.31600001 -2.9524485e+38
-0.055512257 -0.014849299 0.317 -2.9791377e+38
-0.055346012 -0.014426504 0.31900001 -2.9524485e+38
-0.054994088 -0.014607402 0.32300001 -2.9791373e+38
-0.054639772 -0.014652626 0.324 -2.9791373e+38
-0.053590622 -0.014652626 0.324 -2.9526047e+38
-0.053229827 -0.014697851 0.32500002 -2.9526047e+38
-0.053027965 -0.014788298 0.32700002 -2.9526051e+38
-0.052383516 -0.015059642 0.333 -2.9259163e+38
-0.052000053 -0.015104868 0.33400002 -2.9525536e+38
-0.093435317 -0.013517579 0.31 nan
-0.092933409 -0.013517579 0.31 nan
-0.091929592 -0.013517579 0.31 nan
-0.091427684 -0.013517579 0.31 nan
-0.090632468 -0.013473974 0.30900002 nan
-0.089631885 -0.013473974 0.30900002 nan
-0.088843144 -0.013430368 0.30800003 nan
-0.088344477 -0.013430368 0.30800003 nan
-0.087347135 -0.013430368 0.30800003 nan
-0.08684846 -0.013430368 0.30800003 nan
-0.086069435 -0.013386764 0.30700001 nan
-0.085075334 -0.013386764 0.30700001 nan
-0.084578276 -0.013386764 0.30700001 nan
-0.083807349 -0.013343158 0.30600002 nan
-0.082816482 -0.013343158 0.30600002 nan
-0.082321048 -0.013343158 0.30600002 nan
-0.081558213 -0.013299553 0.30500001 nan
-0.080570586 -0.013299553 0.30500001 nan
-0.079814225 -0.013255948 0.30400002 nan
-0.078829832 -0.013255948 0.30400002 nan
-0.07833764 -0.013255948 0.30400002 nan
-0.077589378 -0.013212344 0.303 nan
-0.076608226 -0.013212344 0.303 nan
-0.075866438 -0.013168738 0.30200002 nan
-0.075377479 -0.013168738 0.30200002 nan
-0.074399568 -0.013168738 0.30200002 nan
-0.073910609 -0.013168738 0.30200002 nan
-0.073421657 -0.013168738 0.30200002 nan
-0.072203867 -0.013125133 0.30100003 nan
-0.071716532 -0.013125133 0.30100003 nan
-0.07122919 -0.013125133 0.30100003 nan
-0.070741855 -0.013125133 0.30100003 nan
-0.069767185 -0.013125133 0.30100003 nan
-0.069049679 -0.013081527 0.30000001 nan
-0.06856396 -0.013081527 0.30000001 nan
-0.067592524 -0.013081527 0.30000001 nan
-0.066883117 -0.013037923 0.29900002 nan
-0.066399015 -0.013037923 0.29900002 nan
-0.06543082 -0.013037923 0.29900002 nan
-0.064946719 -0.013037923 0.29900002 nan
-0.064462617 -0.013037923 0.29900002 nan
-0.063494422 -0.013037923 0.29900002 -3.3111314e+38
-0.06322106 -0.013081527 0.30000001 -3.2181379e+38
-0.062735341 -0.013081527 0.30000001 -3.2047935e+38
-0.062457122 -0.013125133 0.30100003 -3.1384875e+38
-0.061969783 -0.013125133 0.30100003 -3.1384875e+38
-0.061686702 -0.013168738 0.30200002 -3.0587863e+38
-0.060909811 -0.013212344 0.303 -3.0454429e+38
-0.060618639 -0.013255948 0.30400002 -3.0454429e+38
-0.060126446 -0.013255948 0.30400002 -3.0187541e+38
-0.059830416 -0.013299553 0.30500001 -3.0187541e+38
-0.059531149 -0.013343158 0.30600002 -3.0187541e+38
-0.059228644 -0.013386764 0.30700001 -3.0187541e+38
-0.058922902 -0.013430368 0.30800003 -2.9788771e+38
-0.058613919 -0.013473974 0.30900002 -2.9922215e+38
-0.057613339 -0.013473974 0.30900002 -2.9922215e+38
-0.057482716 -0.013561185 0.31100002 -2.9656889e+38
-0.0571624 -0.013604788 0.31200001 -2.9656889e+38
-0.056838848 -0.013648394 0.31300002 -2.9656889e+38
-0.056512058 -0.013692 0.31400001 -2.9656889e+38
-0.056182027 -0.013735604 0.31500003 -2.9791373e+38
-0.055848762 -0.013779209 0.31600001 -2.9791373e+38
-0.055687372 -0.01386642 0.31800002 -2.9791373e+38
-0.055346012 -0.013910024 0.31900001 -2.9791373e+38
-0.054994088 -0.014084444 0.32300001 -2.9791373e+38
-0.054639772 -0.01412805 0.324 -2.9791373e+38
-0.053590622 -0.01412805 0.324 -2.9526047e+38
-0.053229827 -0.014171656 0.32500002 -2.9526047e+38
-0.053027965 -0.014258865 0.32700002 -2.9526047e+38
-0.052659079 -0.014302471 0.32800001 -2.9526047e+38
-0.052226208 -0.014476892 0.33200002 -2.9259163e+38
-0.052000053 -0.014564101 0.33400002 -2.9526051e+38
-0.051459286 -0.014564101 0.33400002 -2.9659495e+38
-0.093435317 -0.013015671 0.31 nan
-0.092933409 -0.013015671 0.31 nan
-0.091929592 -0.013015671 0.31 nan
-0.091427684 -0.013015671 0.31 nan
-0.090925775 -0.013015671 0.31 nan
-0.089631885 -0.012973684 0.30900002 nan
-0.089131594 -0.012973684 0.30900002 nan
-0.08863131 -0.012973684 0.30900002 nan
-0.087630726 -0.012973684 0.30900002 nan
-0.08684846 -0.012931698 0.30800003 nan
-0.086349793 -0.012931698 0.30800003 nan
-0.085352451 -0.012931698 0.30800003 nan
-0.084578276 -0.012889711 0.30700001 nan
-0.084081225 -0.012889711 0.30700001 nan
-0.083087124 -0.012889711 0.30700001 nan
-0.082321048 -0.012847726 0.30600002 nan
-0.081558213 -0.012805739 0.30500001 nan
-0.080570586 -0.012805739 0.30500001 nan
-0.080076769 -0.012805739 0.30500001 nan
-0.078829832 -0.012763754 0.30400002 nan
-0.07833764 -0.012763754 0.30400002 nan
-0.077845447 -0.012763754 0.30400002 nan
-0.076608226 -0.012721768 0.303 nan
-0.07611765 -0.012721768 0.303 nan
-0.075377479 -0.012679782 0.30200002 nan
-0.074399568 -0.012679782 0.30200002 nan
-0.073910609 -0.012679782 0.30200002 nan
-0.073421657 -0.012679782 0.30200002 nan
-0.072932698 -0.012679782 0.30200002 nan
-0.071716532 -0.012637796 0.30100003 nan
-0.07122919 -0.012637796 0.30100003 nan
-0.070741855 -0.012637796 0.30100003 nan
-0.069767185 -0.012637796 0.30100003 nan
-0.069049679 -0.012595809 0.30000001 nan
-0.06856396 -0.012595809 0.30000001 nan
-0.067592524 -0.012595809 0.30000001 nan
-0.066883117 -0.012553824 0.29900002 nan
-0.066399015 -0.012553824 0.29900002 nan
-0.06543082 -0.012553824 0.29900002 nan
-0.064946719 -0.012553824 0.29900002 nan
-0.064462617 -0.012553824 0.29900002 nan
-0.064192496 -0.012595809 0.30000001 -3.2314298e+38
-0.06322106 -0.012595809 0.30000001 -3.1516242e+38
-0.062735341 -0.012595809 0.30000001 -3.1649686e+38
-0.062457122 -0.012637796 0.30100003 -3.0853701e+38
-0.061969783 -0.012637796 0.30100003 -3.0853701e+38
-0.061686702 -0.012679782 0.30200002 -3.0587863e+38
-0.060909811 -0.012721768 0.303 -3.0454429e+38
-0.060618639 -0.012763754 0.30400002 -3.0187541e+38
-0.060126446 -0.012763754 0.30400002 -3.0054097e+38
-0.059830416 -0.012805739 0.30500001 -3.0187541e+38
-0.059531149 -0.012847726 0.30600002 -2.9788771e+38
-0.059228644 -0.012889711 0.30700001 -2.9922215e+38
-0.058922902 -0.012931698 0.30800003 -2.9922215e+38
-0.058613919 -0.012973684 0.30900002 -2.9788771e+38
-0.057799794 -0.013015671 0.31 -2.9656889e+38
-0.057482716 -0.013057656 0.31100002 -2.9656889e+38
-0.0571624 -0.013099642 0.31200001 -2.9656889e+38
-0.056838848 -0.013141628 0.31300002 -2.9656889e+38
-0.056512058 -0.013183614 0.31400001 -2.9656889e+38
-0.056360383 -0.013267586 0.31600001 -2.9791373e+38
-0.056025498 -0.013309573 0.317 -2.9791373e+38
-0.055687372 -0.013351559 0.31800002 -2.9791373e+38
-0.055346012 -0.013393544 0.31900001 -2.9791373e+38
-0.055001404 -0.01343553 0.32000002 -2.9791373e+38
-0.054994088 -0.013561488 0.32300001 -2.9791373e+38
-0.054639772 -0.013603475 0.324 -2.9791373e+38
-0.053756025 -0.013645461 0.32500002 -2.9526047e+38
-0.053393614 -0.013687446 0.32600001 -2.9526047e+38
-0.053027965 -0.013729433 0.32700002 -2.9526047e+38
-0.052659079 -0.013771418 0.32800001 -2.9526047e+38
-0.052226208 -0.013939363 0.33200002 -2.9259163e+38
-0.05184437 -0.013981348 0.333 -2.9526051e+38
-0.051459286 -0.014023335 0.33400002 -2.9659495e+38
-0.093736723 -0.012554128 0.31100002 nan
-0.093233198 -0.012554128 0.31100002 nan
-0.092729665 -0.012554128 0.31100002 nan
-0.091427684 -0.012513761 0.31 nan
-0.090925775 -0.012513761 0.31 nan
-0.090423867 -0.012513761 0.31 nan
-0.089131594 -0.012473394 0.30900002 nan
-0.08863131 -0.012473394 0.30900002 nan
-0.087630726 -0.012473394 0.30900002 nan
-0.087130435 -0.012473394 0.30900002 nan
-0.086349793 -0.012433028 0.30800003 nan
-0.085352451 -0.012433028 0.30800003 nan
-0.084853776 -0.012433028 0.30800003 nan
-0.084081225 -0.01239266 0.30700001 nan
-0.083087124 -0.01239266 0.30700001 nan
-0.082590073 -0.01239266 0.30700001 nan
-0.081825614 -0.012352293 0.30600002 nan
-0.080834754 -0.012352293 0.30600002 nan
-0.080076769 -0.012311926 0.30500001 nan
-0.079582959 -0.012311926 0.30500001 nan
-0.07833764 -0.01227156 0.30400002 nan
-0.077845447 -0.01227156 0.30400002 nan
-0.077353254 -0.01227156 0.30400002 nan
-0.07611765 -0.012231193 0.303 nan
-0.075627074 -0.012231193 0.303 nan
-0.075136498 -0.012231193 0.303 nan
-0.073910609 -0.012190825 0.30200002 nan
-0.073421657 -0.012190825 0.30200002 nan
-0.072932698 -0.012190825 0.30200002 nan
-0.071954787 -0.012190825 0.30200002 nan
-0.07122919 -0.012150459 0.30100003 nan
-0.070741855 -0.012150459 0.30100003 nan
-0.069767185 -0.012150459 0.30100003 nan
-0.069279842 -0.012150459 0.30100003 nan
-0.06856396 -0.012110092 0.30000001 nan
-0.067592524 -0.012110092 0.30000001 nan
-0.066883117 -0.012069725 0.29900002 nan
-0.066399015 -0.012069725 0.29900002 nan
-0.06543082 -0.012069725 0.29900002 nan
-0.064946719 -0.012069725 0.29900002 -3.258273e+38
-0.064462617 -0.012069725 0.29900002 -3.2315842e+38
-0.064192496 -0.012110092 0.30000001 -3.1650197e+38
-0.06322106 -0.012110092 0.30000001 -3.1250916e+38
-0.062735341 -0.012110092 0.30000001 -3.1250916e+38
-0.062457122 -0.012150459 0.30100003 -3.0853186e+38
-0.062175658 -0.012190825 0.30200002 -3.0853186e+38
-0.061890963 -0.012231193 0.303 -3.0587859e+38
-0.061603028 -0.01227156 0.30400002 -3.0320971e+38
-0.060618639 -0.01227156 0.30400002 -3.0188057e+38
-0.060126446 -0.01227156 0.30400002 -3.0054612e+38
-0.059830416 -0.012311926 0.30500001 -3.0054612e+38
-0.059531149 -0.012352293 0.30600002 -2.9789286e+38
-0.059228644 -0.01239266 0.30700001 -2.9789286e+38
-0.058922902 -0.012433028 0.30800003 -2.992273e+38
-0.058613919 -0.012473394 0.30900002 -2.992273e+38
-0.057799794 -0.012513761 0.31 -2.9657404e+38
-0.057482716 -0.012554128 0.31100002 -2.9656889e+38
-0.0571624 -0.012594495 0.31200001 -2.9656889e+38
-0.057020441 -0.012675229 0.31400001 -2.9656889e+38
-0.05669203 -0.012715596 0.31500003 -2.9656889e+38
-0.056360383 -0.012755963 0.31600001 -2.9791373e+38
-0.056025498 -0.01279633 0.317 -2.9791373e+38
-0.055687372 -0.012836697 0.31800002 -2.9524485e+38
-0.055346012 -0.012877065 0.31900001 -2.9524485e+38
-0.055164348 -0.013078899 0.324 -2.9791373e+38
-0.054639772 -0.013078899 0.324 -2.9791373e+38
-0.053756025 -0.013119265 0.32500002 -2.9791373e+38
-0.053393614 -0.013159633 0.32600001 -2.9791373e+38
-0.053027965 -0.0132 0.32700002 -2.9526047e+38
-0.052659079 -0.013240367 0.32800001 -2.9526047e+38
-0.052226208 -0.013401835 0.33200002 -2.9259163e+38
-0.05184437 -0.013442201 0.333 -2.9526051e+38
-0.051459286 -0.013482569 0.33400002 -2.9659495e+38
-0.093736723 -0.011547073 0.31100002 nan
-0.093233198 -0.011547073 0.31100002 nan
-0.092729665 -0.011547073 0.31100002 nan
-0.091722615 -0.011547073 0.31100002 nan
-0.091219082 -0.011547073 0.31100002 nan
-0.090423867 -0.011509944 0.31 nan
-0.08942005 -0.011509944 0.31 nan
-0.088918142 -0.011509944 0.31 nan
-0.088416234 -0.011509944 0.31 nan
-0.087130435 -0.011472815 0.30900002 nan
-0.086630151 -0.011472815 0.30900002 nan
-0.086129859 -0.011472815 0.30900002 nan
-0.084853776 -0.011435687 0.30800003 nan
-0.084355108 -0.011435687 0.30800003 nan
-0.083856441 -0.011435687 0.30800003 nan
-0.082590073 -0.011398557 0.30700001 nan
-0.081825614 -0.011361429 0.30600002 nan
-0.080834754 -0.011361429 0.30600002 nan
-0.08033932 -0.011361429 0.30600002 nan
-0.079582959 -0.011324299 0.30500001 nan
-0.078595333 -0.011324299 0.30500001 nan
-0.077845447 -0.01128717 0.30400002 nan
-0.077353254 -0.01128717 0.30400002 nan
-0.076368861 -0.01128717 0.30400002 nan
-0.075627074 -0.011250042 0.303 nan
-0.075136498 -0.011250042 0.303 nan
-0.074155346 -0.011250042 0.303 nan
-0.073421657 -0.011212912 0.30200002 nan
-0.072932698 -0.011212912 0.30200002 nan
-0.071954787 -0.011212912 0.30200002 nan
-0.071465828 -0.011212912 0.30200002 nan
-0.070741855 -0.011175784 0.30100003 nan
-0.069767185 -0.011175784 0.30100003 nan
-0.069279842 -0.011175784 0.30100003 nan
-0.068792507 -0.011175784 0.30100003 nan
-0.067592524 -0.011138655 0.30000001 nan
-0.067106806 -0.011138655 0.30000001 nan
-0.066621087 -0.011138655 0.30000001 nan
-0.06543082 -0.011101526 0.29900002 -3.3378709e+38
-0.065163933 -0.011138655 0.30000001 -3.1386944e+38
-0.064678214 -0.011138655 0.30000001 -3.0986612e+38
-0.064192496 -0.011138655 0.30000001 -3.0321482e+38
-0.06322106 -0.011138655 0.30000001 -3.0320971e+38
-0.062944457 -0.011175784 0.30100003 -3.0587859e+38
-0.062457122 -0.011175784 0.30100003 -3.0320971e+38
-0.062175658 -0.011212912 0.30200002 -3.0320971e+38
-0.061890963 -0.011250042 0.303 -3.0320971e+38
-0.061603028 -0.01128717 0.30400002 -3.0320971e+38
-0.060818043 -0.011324299 0.30500001 -3.0188052e+38
-0.060324229 -0.011324299 0.30500001 -3.0054612e+38
-0.060026582 -0.011361429 0.30600002 -3.0054612e+38
-0.059725698 -0.011398557 0.30700001 -2.9921168e+38
-0.059228644 -0.011398557 0.30700001 -3.0054612e+38
-0.058922902 -0.011435687 0.30800003 -2.9789286e+38
-0.058613919 -0.011472815 0.30900002 -2.992273e+38
-0.057799794 -0.011509944 0.31 -2.9657404e+38
-0.057667546 -0.011584201 0.31200001 -2.9657404e+38
-0.057345614 -0.01162133 0.31300002 -2.9657404e+38
-0.057020441 -0.011658459 0.31400001 -2.9657404e+38
-0.05669203 -0.011695588 0.31500003 -2.9657404e+38
-0.056360383 -0.011732717 0.31600001 -2.9924292e+38
-0.056025498 -0.011769846 0.317 -3.0057736e+38
-0.05586249 -0.011844103 0.31900001 -2.9524485e+38
-0.055519503 -0.011881232 0.32000002 -2.9524485e+38
-0.055164348 -0.012029747 0.324 -2.9791373e+38
-0.054808412 -0.012066877 0.32500002 -2.9791373e+38
-0.054449242 -0.012104006 0.32600001 -2.9791373e+38
-0.053557396 -0.012141134 0.32700002 -2.9524485e+38
-0.053190131 -0.012178264 0.32800001 -2.9526047e+38
-0.052819625 -0.012215392 0.32900003 -2.9526047e+38
-0.052383516 -0.012363908 0.333 -2.9259163e+38
-0.052000053 -0.012401036 0.33400002 -2.9791377e+38
-0.094038129 -0.011079054 0.31200001 nan
-0.093532979 -0.011079054 0.31200001 nan
-0.093027838 -0.011079054 0.31200001 nan
-0.091722615 -0.011043545 0.31100002 nan
-0.091219082 -0.011043545 0.31100002 nan
-0.090715557 -0.011043545 0.31100002 nan
-0.0897085 -0.011043545 0.31100002 nan
-0.089204974 -0.011043545 0.31100002 nan
-0.088416234 -0.011008035 0.31 nan
-0.087412417 -0.011008035 0.31 nan
-0.086630151 -0.010972525 0.30900002 nan
-0.086129859 -0.010972525 0.30900002 nan
-0.085129276 -0.010972525 0.30900002 nan
-0.084628992 -0.010972525 0.30900002 nan
-0.083856441 -0.010937016 0.30800003 nan
-0.082859099 -0.010937016 0.30800003 nan
-0.082093023 -0.010901505 0.30700001 nan
-0.081595972 -0.010901505 0.30700001 nan
-0.08033932 -0.010865996 0.30600002 nan
-0.079843886 -0.010865996 0.30600002 nan
-0.078595333 -0.010830485 0.30500001 nan
-0.078101516 -0.010830485 0.30500001 nan
-0.077607706 -0.010830485 0.30500001 nan
-0.076368861 -0.010794976 0.30400002 nan
-0.075876668 -0.010794976 0.30400002 nan
-0.075384475 -0.010794976 0.30400002 nan
-0.074155346 -0.010759466 0.303 nan
-0.07366477 -0.010759466 0.303 nan
-0.073174194 -0.010759466 0.303 nan
-0.071954787 -0.010723957 0.30200002 nan
-0.071465828 -0.010723957 0.30200002 nan
