# .PCD v0.7 - Point Cloud Data file format
VERSION 0.7
FIELDS x y z rgb
SIZE 4 4 4 4
TYPE F F F F
COUNT 1 1 1 1
WIDTH 960
HEIGHT 1
VIEWPOINT 0 0 0 1 0 0 0
POINTS 960
DATA ascii
-0.0039972439 0.03661577 0.24300002 -1.7075688e+38
-0.0036038123 0.03661577 0.24300002 -1.7074645e+38
-0.0028053564 0.036465086 0.24200001 -1.7074124e+38
-0.0024135436 0.036465086 0.24200001 -1.7073603e+38
-0.0016231831 0.036314402 0.24100001 -1.7072554e+38
-0.0012329895 0.036314402 0.24100001 -1.7071511e+38
-0.00084279582 0.036314402 0.24100001 -1.7069431e+38
-6.2408595e-05 0.036314402 0.24100001 -1.7067345e+38
0.00032778503 0.036314402 0.24100001 -1.7066824e+38
0.00072095788 0.036465086 0.24200001 -1.7066295e+38
0.0011127705 0.036465086 0.24200001 -1.7066295e+38
0.0015170178 0.036766447 0.24400002 -1.7065774e+38
0.0019199051 0.036917131 0.245 -1.7065774e+38
0.0023260303 0.037067816 0.24600001 -1.7464019e+38
0.0027243192 0.037067816 0.24600001 -1.7330575e+38
0.0031353016 0.037218496 0.24700001 -1.7196605e+38
0.0035352097 0.037218496 0.24700001 -1.7196605e+38
0.0043350258 0.037218496 0.24700001 -1.719712e+38
0.0047541037 0.03736918 0.24800001 -1.7462443e+38
0.0051764194 0.037519861 0.24900001 -1.7328999e+38
0.0055795657 0.037519861 0.24900001 -1.7459841e+38
0.0060067386 0.037670542 0.25 -1.7459841e+38
0.0064371498 0.037821226 0.25100002 -1.7591723e+38
0.0068707988 0.037971906 0.252 -1.7591723e+38
0.0073076868 0.038122591 0.25300002 -1.7591719e+38
0.0077478122 0.038273271 0.25400001 -1.7591719e+38
0.008223298 0.038574636 0.25600001 -1.7591713e+38
0.0086715184 0.03872532 0.257 -1.7591713e+38
0.0091583384 0.039026681 0.259 -1.7590151e+38
0.0096516339 0.039328046 0.26100001 -1.7590151e+38
0.010112808 0.03947873 0.26200002 -1.7855473e+38
0.010577219 0.039629411 0.26300001 -1.7722029e+38
0.011044869 0.039780091 0.264 -1.7986311e+38
0.011472301 0.039780091 0.264 -1.7852867e+38
0.011944807 0.039930776 0.26500002 -1.8251631e+38
0.012420552 0.040081456 0.266 -1.8118187e+38
0.012899536 0.040232141 0.26700002 -1.8382473e+38
0.013381757 0.040382821 0.26800001 -1.8115585e+38
0.013815666 0.040382821 0.26800001 -1.8646228e+38
0.01473827 0.040533502 0.26900002 -2.103465e+38
0.015173797 0.040533502 0.26900002 -2.103465e+38
-0.022089662 0.041425932 0.27200001 -2.1730046e+38
-0.021649277 0.041425932 0.27200001 -2.2263823e+38
-0.021208894 0.041425932 0.27200001 -2.027207e+38
-0.020768508 0.041425932 0.27200001 -2.0005182e+38
-0.01988774 0.041425932 0.27200001 -1.9339529e+38
-0.019375859 0.041273635 0.27100003 -1.9207125e+38
-0.018498328 0.041273635 0.27100003 -1.8940237e+38
-0.017992921 0.041121334 0.27000001 -1.8940237e+38
-0.013485845 0.039446019 0.259 -1.7209637e+38
-0.013066509 0.039446019 0.259 -1.7343081e+38
-0.012180624 0.039293718 0.25800002 -1.7075152e+38
-0.011762906 0.039293718 0.25800002 -1.7075671e+38
-0.011345188 0.039293718 0.25800002 -1.7075671e+38
-0.010509753 0.039293718 0.25800002 -1.7076199e+38
-0.0086333267 0.038379908 0.252 -1.7076199e+38
-0.0081926826 0.03822761 0.25100002 -1.7076199e+38
-0.0073505128 0.038075306 0.25 -1.7076199e+38
-0.0060380376 0.037466105 0.24600001 -1.7076199e+38
-0.0052201529 0.0373138 0.245 -1.7076724e+38
-0.0048037954 0.037161499 0.24400002 -1.7076209e+38
-0.0039972439 0.037009202 0.24300002 -1.7075688e+38
-0.0036038123 0.037009202 0.24300002 -1.7074645e+38
-0.0028053564 0.036856897 0.24200001 -1.7074124e+38
-0.0024135436 0.036856897 0.24200001 -1.7073603e+38
-0.0020217309 0.036856897 0.24200001 -1.7073081e+38
-0.0012381057 0.036856897 0.24200001 -1.7071511e+38
-0.00084279582 0.036704596 0.24100001 -1.7069431e+38
-6.2408595e-05 0.036704596 0.24100001 -1.7067345e+38
0.00032914514 0.036856897 0.24200001 -1.7066824e+38
0.00072095788 0.036856897 0.24200001 -1.7066295e+38
0.001121967 0.037161499 0.24400002 -1.7066816e+38
0.0015232351 0.0373138 0.245 -1.7065774e+38
0.0019277412 0.037466105 0.24600001 -1.7065774e+38
0.0023260303 0.037466105 0.24600001 -1.7198692e+38
0.0027243192 0.037466105 0.24600001 -1.7065248e+38
0.0031353016 0.037618402 0.24700001 -1.7330575e+38
0.0035352097 0.037618402 0.24700001 -1.7063687e+38
0.0039510494 0.037770707 0.24800001 -1.7196605e+38
0.0047541037 0.037770707 0.24800001 -1.719712e+38
0.0051764194 0.037923008 0.24900001 -1.719712e+38
0.0056019737 0.038075306 0.25 -1.7593285e+38
0.0060067386 0.038075306 0.25 -1.7459841e+38
0.0064371498 0.03822761 0.25100002 -1.7591723e+38
0.0068707988 0.038379908 0.252 -1.7591723e+38
0.0073076868 0.038532212 0.25300002 -1.7725163e+38
0.0077478122 0.038684513 0.25400001 -1.7591719e+38
0.008223298 0.038989116 0.25600001 -1.7725157e+38
0.0086715184 0.039141417 0.257 -1.7591713e+38
0.0091583384 0.039446019 0.259 -1.7590151e+38
0.0096516339 0.039750621 0.26100001 -1.7590151e+38
0.010112808 0.039902922 0.26200002 -1.7855473e+38
0.010577219 0.040055223 0.26300001 -1.7588585e+38
0.011044869 0.040207524 0.264 -1.7986311e+38
0.011472301 0.040207524 0.264 -1.7986311e+38
0.011944807 0.040359829 0.26500002 -1.8251631e+38
0.012420552 0.040512126 0.266 -1.8118187e+38
0.012899536 0.040664427 0.26700002 -1.8382469e+38
0.013331824 0.040664427 0.26700002 -1.8115581e+38
0.013815666 0.040816732 0.26800001 -1.9177398e+38
-0.022008451 0.0417124 0.27100003 -2.5857427e+38
-0.021569686 0.0417124 0.27100003 -2.3722322e+38
-0.021130919 0.0417124 0.27100003 -2.0670836e+38
-0.020253388 0.0417124 0.27100003 -1.920713e+38
-0.019814624 0.0417124 0.27100003 -1.9340574e+38
-0.019375859 0.0417124 0.27100003 -1.920713e+38
-0.018430067 0.041558478 0.27000001 -1.9073681e+38
-0.017992921 0.041558478 0.27000001 -1.8940237e+38
-0.017555775 0.041558478 0.27000001 -1.8539905e+38
-0.013537914 0.040019277 0.26000002 -1.7209637e+38
-0.013066509 0.039865356 0.259 -1.7343081e+38
-0.012227835 0.039865356 0.259 -1.734204e+38
-0.011762906 0.039711434 0.25800002 -1.7075671e+38
-0.011345188 0.039711434 0.25800002 -1.7075671e+38
-0.010509753 0.039711434 0.25800002 -1.7076714e+38
-0.0081926826 0.038633995 0.25100002 -1.7076199e+38
-0.0073799146 0.038633995 0.25100002 -1.7076199e+38
-0.0052414597 0.037864394 0.24600001 -1.7076724e+38
-0.0048037954 0.037556551 0.24400002 -1.7076209e+38
-0.0039972439 0.037402634 0.24300002 -1.7075688e+38
-0.0036038123 0.037402634 0.24300002 -1.7074645e+38
-0.0028169488 0.037402634 0.24300002 -1.7073603e+38
-0.0024135436 0.037248712 0.24200001 -1.7073603e+38
-0.0020217309 0.037248712 0.24200001 -1.7073603e+38
-0.0012381057 0.037248712 0.24200001 -1.7070992e+38
-0.00084629294 0.037248712 0.24200001 -1.7069431e+38
-0.00045448027 0.037248712 0.24200001 -1.7068388e+38
0.00032914514 0.037248712 0.24200001 -1.7067345e+38
0.000723937 0.037402634 0.24300002 -1.7066299e+38
0.0011311634 0.037864394 0.24600001 -1.706682e+38
0.0019277412 0.037864394 0.24600001 -1.7065774e+38
0.0023260303 0.037864394 0.24600001 -1.7198692e+38
0.0027243192 0.037864394 0.24600001 -1.7065248e+38
0.0031353016 0.038018312 0.24700001 -1.7330575e+38
0.0035352097 0.038018312 0.24700001 -1.7063687e+38
0.0039510494 0.038172234 0.24800001 -1.7063676e+38
0.0047541037 0.038172234 0.24800001 -1.719712e+38
0.0051764194 0.038326155 0.24900001 -1.719712e+38
0.0056019737 0.038480073 0.25 -1.7726729e+38
0.0060307658 0.038633995 0.25100002 -1.7593285e+38
0.0064371498 0.038633995 0.25100002 -1.7725167e+38
0.0068707988 0.038787913 0.252 -1.7725167e+38
0.0073076868 0.038941834 0.25300002 -1.7858611e+38
0.0077478122 0.039095756 0.25400001 -1.7725167e+38
0.008223298 0.039403595 0.25600001 -1.7591719e+38
0.0087052602 0.039711434 0.25800002 -1.7458275e+38
0.0096516339 0.040173195 0.26100001 -1.7590151e+38
0.010112808 0.040327117 0.26200002 -1.7855473e+38
0.010577219 0.040481035 0.26300001 -1.7722029e+38
0.011044869 0.040634956 0.264 -1.7986311e+38
0.011472301 0.040634956 0.264 -1.7986311e+38
0.011944807 0.040788878 0.26500002 -1.8251631e+38
0.012420552 0.040942796 0.266 -1.8118187e+38
0.012899536 0.041096717 0.26700002 -1.8647795e+38
0.013331824 0.041096717 0.26700002 -1.8380907e+38
0.013815666 0.041250639 0.26800001 -1.9841484e+38
-0.0052414597 0.03826268 0.24600001 -1.7076724e+38
-0.0048037954 0.0379516 0.24400002 -1.7076209e+38
-0.0039972439 0.037796065 0.24300002 -1.7075688e+38
-0.0036038123 0.037796065 0.24300002 -1.7074645e+38
-0.0028169488 0.037796065 0.24300002 -1.7074124e+38
-0.0024235172 0.037796065 0.24300002 -1.7073603e+38
-0.0020217309 0.037640523 0.24200001 -1.7073603e+38
-0.0012381057 0.037640523 0.24200001 -1.7070477e+38
-0.00084629294 0.037640523 0.24200001 -1.7069952e+38
-0.00045448027 0.037640523 0.24200001 -1.7068909e+38
-6.2926512e-05 0.037796065 0.24300002 -1.7066824e+38
0.000723937 0.037796065 0.24300002 -1.7066299e+38
0.0011311634 0.03826268 0.24600001 -1.7066299e+38
0.0019277412 0.03826268 0.24600001 -1.7065252e+38
0.0023260303 0.03826268 0.24600001 -1.7065248e+38
0.0027353936 0.038418218 0.24700001 -1.7065248e+38
0.0031353016 0.038418218 0.24700001 -1.7063687e+38
0.0035352097 0.038418218 0.24700001 -1.7330575e+38
0.0039510494 0.038573761 0.24800001 -1.7063161e+38
0.0043701273 0.038729299 0.24900001 -1.7330571e+38
0.004792443 0.038884837 0.25 -1.719712e+38
0.0056019737 0.038884837 0.25 -1.7727773e+38
-0.020615799 0.04243277 0.27000001 -2.3590966e+38
-0.020178653 0.04243277 0.27000001 -2.0272066e+38
-0.019741507 0.04243277 0.27000001 -2.0272066e+38
-0.019304359 0.04243277 0.27000001 -1.9474014e+38
-0.018430067 0.04243277 0.27000001 -1.9073681e+38
-0.017992921 0.04243277 0.27000001 -1.8940237e+38
-0.017555775 0.04243277 0.27000001 -1.8806793e+38
-0.016681481 0.04243277 0.27000001 -1.8672309e+38
-0.013589983 0.041018344 0.26100001 -1.734204e+38
-0.013116959 0.040861189 0.26000002 -1.7475484e+38
-0.012227835 0.040704031 0.259 -1.734204e+38
-0.011762906 0.040546868 0.25800002 -1.7075671e+38
-0.011345188 0.040546868 0.25800002 -1.7075671e+38
-0.010509753 0.040546868 0.25800002 -1.7075671e+38
-0.0081926826 0.039446764 0.25100002 -1.7076199e+38
-0.0073799146 0.039446764 0.25100002 -1.7076199e+38
-0.0069735302 0.039446764 0.25100002 -1.7076199e+38
0.0060307658 0.039446764 0.25100002 -1.7462447e+38
0.0064627957 0.039603919 0.252 -1.7594329e+38
0.0068707988 0.039603919 0.252 -1.7460885e+38
0.0073076868 0.039761078 0.25300002 -1.7593285e+38
0.0077478122 0.039918236 0.25400001 -1.7459841e+38
0.008223298 0.040232554 0.25600001 -1.7591719e+38
0.0092644198 0.041175503 0.26200002 -1.7591713e+38
0.009725593 0.041332662 0.26300001 -1.7591713e+38
0.010577219 0.041332662 0.26300001 -1.7722029e+38
0.011044869 0.041489821 0.264 -1.7986315e+38
0.011472301 0.041489821 0.264 -1.7986315e+38
0.011944807 0.04164698 0.26500002 -1.8251116e+38
0.012420552 0.041804135 0.266 -1.7984228e+38
0.012899536 0.041961297 0.26700002 -1.8779672e+38
0.013331824 0.041961297 0.26700002 -1.8779672e+38
-0.020103917 0.042711139 0.26900002 -2.1069081e+38
-0.019668389 0.042711139 0.26900002 -2.1069081e+38
-0.018727455 0.042552363 0.26800001 -1.9340044e+38
-0.018293548 0.042552363 0.26800001 -1.9073681e+38
-0.017926279 0.042711139 0.26900002 -1.8940237e+38
-0.017555775 0.042869918 0.27000001 -1.8940237e+38
-0.016124006 0.042552363 0.26800001 -1.8538865e+38
-0.013589983 0.041440919 0.26100001 -1.7607367e+38
-0.013116959 0.041282143 0.26000002 -1.7740811e+38
-0.012227835 0.041123364 0.259 -1.734204e+38
-0.011808499 0.041123364 0.259 -1.7075671e+38
-0.011345188 0.040964589 0.25800002 -1.7075671e+38
-0.010509753 0.040964589 0.25800002 -1.707515e+38
-0.0082253236 0.04001192 0.252 -1.7076199e+38
-0.0073799146 0.039853148 0.25100002 -1.7076199e+38
-0.0069735302 0.039853148 0.25100002 -1.7076199e+38
-0.0065671462 0.039853148 0.25100002 -1.7076199e+38
-0.0048234831 0.03890048 0.245 -1.7076209e+38
-0.0040136934 0.038741704 0.24400002 -1.7075688e+38
-0.0036038123 0.038582928 0.24300002 -1.7074645e+38
-0.0028169488 0.038582928 0.24300002 -1.7073603e+38
-0.0024235172 0.038582928 0.24300002 -1.7074118e+38
-0.0020300853 0.038582928 0.24300002 -1.7073597e+38
-0.0016366536 0.038582928 0.24300002 -1.7072556e+38
-0.00084979011 0.038582928 0.24300002 -1.7069952e+38
-0.00045635828 0.038582928 0.24300002 -1.7069431e+38
-6.3185464e-05 0.038741704 0.24400002 -1.7067345e+38
0.00033186536 0.038741704 0.24400002 -1.7067345e+38
0.00072989537 0.03890048 0.245 -1.7066299e+38
0.0011311634 0.039059259 0.24600001 -1.7066299e+38
0.0019277412 0.039059259 0.24600001 -1.7065252e+38
0.0023260303 0.039059259 0.24600001 -1.7198692e+38
0.0027353936 0.039218035 0.24700001 -1.7065248e+38
0.0031353016 0.039218035 0.24700001 -1.7330575e+38
0.0035352097 0.039218035 0.24700001 -1.7464019e+38
0.0039510494 0.039376814 0.24800001 -1.7063687e+38
0.0043701273 0.039535593 0.24900001 -1.7330575e+38
0.004792443 0.039694369 0.25 -1.7596937e+38
0.0052179974 0.039853148 0.25100002 -1.7463493e+38
0.0060307658 0.039853148 0.25100002 -1.7462447e+38
0.0064627957 0.04001192 0.252 -1.7594329e+38
0.0068980646 0.040170699 0.25300002 -1.7594329e+38
0.0073076868 0.040170699 0.25300002 -1.7726729e+38
0.0077478122 0.040329479 0.25400001 -1.7593285e+38
0.008223298 0.040647034 0.25600001 -1.7725163e+38
0.0092644198 0.041599698 0.26200002 -1.7591198e+38
0.009725593 0.041758474 0.26300001 -1.7591198e+38
0.010190004 0.041917253 0.264 -1.7590151e+38
0.011044869 0.041917253 0.264 -1.7720989e+38
0.011515756 0.042076033 0.26500002 -1.7720989e+38
0.011944807 0.042076033 0.26500002 -1.7851826e+38
0.012420552 0.042234808 0.266 -1.7718382e+38
0.012851222 0.042234808 0.266 -1.9044994e+38
0.013331824 0.042393584 0.26700002 -1.9044994e+38
-0.019161364 0.042986274 0.26800001 -2.0139147e+38
-0.018727455 0.042986274 0.26800001 -1.9738815e+38
-0.018293548 0.042986274 0.26800001 -1.9073681e+38
-0.017360711 0.042825874 0.26700002 -1.8940237e+38
-0.016991822 0.042986274 0.26800001 -1.8940237e+38
-0.016557915 0.042986274 0.26800001 -1.8939197e+38
-0.016124006 0.042986274 0.26800001 -1.8538865e+38
-0.015085412 0.042505082 0.26500002 -1.8406461e+38
-0.013116959 0.041703101 0.26000002 -1.7740807e+38
-0.012227835 0.041542701 0.259 -1.734204e+38
-0.011808499 0.041542701 0.259 -1.7075671e+38
-0.011389161 0.041542701 0.259 -1.7075671e+38
-0.010469018 0.041221909 0.257 -1.7075671e+38
-0.010052919 0.041221909 0.257 -1.7075671e+38
-0.0082253236 0.040419925 0.252 -1.7076199e+38
-0.0073799146 0.040259529 0.25100002 -1.7076199e+38
-0.0069735302 0.040259529 0.25100002 -1.7076199e+38
-0.0065671462 0.040259529 0.25100002 -1.7076199e+38
-0.0057314518 0.040099133 0.25 -1.7076203e+38
-0.0044268132 0.039297152 0.245 -1.7075688e+38
-0.0036186427 0.039136752 0.24400002 -1.7074645e+38
-0.0032235919 0.039136752 0.24400002 -1.7074124e+38
-0.0024334905 0.039136752 0.24400002 -1.7074118e+38
-0.0020384395 0.039136752 0.24400002 -1.7073597e+38
-0.0016433888 0.039136752 0.24400002 -1.7072556e+38
-0.0012483379 0.039136752 0.24400002 -1.7070992e+38
-0.00045823629 0.039136752 0.24400002 -1.7069431e+38
-6.3185464e-05 0.039136752 0.24400002 -1.7067345e+38
0.00033322547 0.039297152 0.245 -1.7066824e+38
0.00072989537 0.039297152 0.245 -1.7065252e+38
0.0011311634 0.039457548 0.24600001 -1.7066295e+38
0.0019277412 0.039457548 0.24600001 -1.7065774e+38
0.0023260303 0.039457548 0.24600001 -1.7198692e+38
0.0027353936 0.039617945 0.24700001 -1.7198692e+38
0.0031353016 0.039617945 0.24700001 -1.7330575e+38
0.0035495223 0.039778341 0.24800001 -1.7330575e+38
0.0039669811 0.039938737 0.24900001 -1.7063687e+38
0.0043876781 0.040099133 0.25 -1.7330575e+38
0.0048116129 0.040259529 0.25100002 -1.7463493e+38
0.0052387859 0.040419925 0.252 -1.7463493e+38
0.005646789 0.040419925 0.252 -1.719712e+38
0.0064627957 0.040419925 0.252 -1.7462447e+38
0.0068980646 0.040580321 0.25300002 -1.7329003e+38
0.0073365704 0.040740721 0.25400001 -1.7726729e+38
0.0077783158 0.040901113 0.25500003 -1.7593285e+38
0.008223298 0.041061513 0.25600001 -1.7858607e+38
0.0092997802 0.042184286 0.26300001 -1.7724642e+38
0.009725593 0.042184286 0.26300001 -1.7858086e+38
0.010190004 0.042344686 0.264 -1.7857039e+38
0.011044869 0.042344686 0.264 -1.7854437e+38
0.011515756 0.042505082 0.26500002 -1.7720993e+38
0.011944807 0.042505082 0.26500002 -1.7985275e+38
0.012373858 0.042505082 0.26500002 -1.7718386e+38
0.012851222 0.042665478 0.266 -2.0108372e+38
-0.013167408 0.042286068 0.26100001 -1.7740807e+38
-0.012696003 0.042124055 0.26000002 -1.7475484e+38
-0.011808499 0.041962039 0.259 -1.7075671e+38
-0.011389161 0.041962039 0.259 -1.7075671e+38
-0.010509753 0.041800022 0.25800002 -1.7075671e+38
-0.010092035 0.041800022 0.25800002 -1.7075671e+38
-0.0096368203 0.041638009 0.257 -1.7075671e+38
-0.0082579637 0.040989947 0.25300002 -1.7076199e+38
-0.0078173205 0.04082793 0.252 -1.7076199e+38
-0.0069735302 0.040665913 0.25100002 -1.7076199e+38
-0.0065671462 0.040665913 0.25100002 -1.7075156e+38
-0.0061607617 0.040665913 0.25100002 -1.7076199e+38
-0.0053266864 0.040503897 0.25 -1.7076203e+38
-0.0044448818 0.039855838 0.24600001 -1.7075688e+38
-0.0036334735 0.039693821 0.245 -1.7074645e+38
-0.0032235919 0.039531805 0.24400002 -1.7074124e+38
-0.0024334905 0.039531805 0.24400002 -1.7074639e+38
-0.0020384395 0.039531805 0.24400002 -1.7073597e+38
-0.0016433888 0.039531805 0.24400002 -1.7072556e+38
-0.0012483379 0.039531805 0.24400002 -1.7070992e+38
-0.00085678417 0.039693821 0.245 -1.7069952e+38
-6.3444422e-05 0.039693821 0.245 -1.7067867e+38
0.00033322547 0.039693821 0.245 -1.7066824e+38
0.00072989537 0.039693821 0.245 -1.7066295e+38
0.0011311634 0.039855838 0.24600001 -1.7066295e+38
0.0019277412 0.039855838 0.24600001 -1.7065774e+38
0.0023354855 0.040017851 0.24700001 -1.7065248e+38
0.0027353936 0.040017851 0.24700001 -1.7198692e+38
0.0031353016 0.040017851 0.24700001 -1.7065248e+38
0.0035495223 0.040179867 0.24800001 -1.7065248e+38
0.0039829127 0.040503897 0.25 -1.7063687e+38
0.0044052289 0.040665913 0.25100002 -1.7330575e+38
0.0048307823 0.04082793 0.252 -1.7330571e+38
0.0052387859 0.04082793 0.252 -1.7330571e+38
0.005646789 0.04082793 0.252 -1.719712e+38
0.0064884415 0.040989947 0.25300002 -1.7462447e+38
0.0068980646 0.040989947 0.25300002 -1.7329003e+38
0.0073365704 0.041151963 0.25400001 -1.7726733e+38
0.0077783158 0.041313976 0.25500003 -1.7726733e+38
0.0088402256 0.042448085 0.26200002 -1.7858607e+38
0.0092997802 0.042610101 0.26300001 -1.83903e+38
-0.019089868 0.043690454 0.26700002 -2.1330759e+38
-0.018657578 0.043690454 0.26700002 -2.1864535e+38
-0.01822529 0.043690454 0.26700002 -1.9871737e+38
-0.017360711 0.043690454 0.26700002 -1.9604855e+38
-0.016928421 0.043690454 0.26700002 -1.9471411e+38
-0.016496133 0.043690454 0.26700002 -1.9072641e+38
-0.015631555 0.043690454 0.26700002 -1.8539905e+38
-0.015085412 0.043363184 0.26500002 -1.8539905e+38
0.0097625731 0.043199547 0.264 -1.8124974e+38
0.010190004 0.043199547 0.264 -1.799153e+38
0.011044869 0.043199547 0.264 -1.8522698e+38
0.011515756 0.043363184 0.26500002 -1.8389254e+38
0.011944807 0.043363184 0.26500002 -1.8651448e+38
0.012373858 0.043363184 0.26500002 -1.8117672e+38
0.01323196 0.043363184 0.26500002 -2.1968243e+38
-0.019018371 0.043957487 0.266 -2.7057373e+38
-0.018587699 0.043957487 0.266 -2.3454384e+38
-0.01772636 0.043957487 0.266 -2.053583e+38
-0.017295688 0.043957487 0.266 -1.9871737e+38
-0.016865019 0.043957487 0.266 -1.9604849e+38
-0.016003679 0.043957487 0.266 -1.8939197e+38
-0.015514463 0.043792237 0.26500002 -1.8806793e+38
-0.015085412 0.043792237 0.26500002 -1.8539905e+38
-0.014119933 0.043461725 0.26300001 -1.8273017e+38
-0.013217858 0.043296475 0.26200002 -1.7874251e+38
-0.012696003 0.042965967 0.26000002 -1.7476525e+38
-0.011854091 0.042965967 0.26000002 -1.7209637e+38
-0.011433135 0.042965967 0.26000002 -1.7209637e+38
-0.010969825 0.042800713 0.259 -1.7075671e+38
-0.010092035 0.042635459 0.25800002 -1.7075671e+38
-0.0096743172 0.042635459 0.25800002 -1.7075671e+38
-0.0078173205 0.041643936 0.252 -1.7076714e+38
-0.0069735302 0.041478682 0.25100002 -1.7075671e+38
-0.0065671462 0.041478682 0.25100002 -1.7075156e+38
-0.0061607617 0.041478682 0.25100002 -1.7076199e+38
-0.0044448818 0.040652417 0.24600001 -1.7075688e+38
-0.0036334735 0.040487159 0.245 -1.7074645e+38
-0.0032368035 0.040487159 0.245 -1.7074124e+38
-0.0028401336 0.040487159 0.245 -1.7074124e+38
-0.0020467937 0.040487159 0.245 -1.7073603e+38
-0.0016501239 0.040487159 0.245 -1.707256e+38
-0.001253454 0.040487159 0.245 -1.7070996e+38
-0.00085678417 0.040487159 0.245 -1.7069437e+38
-6.3444422e-05 0.040487159 0.245 -1.7067867e+38
0.00033322547 0.040487159 0.245 -1.7066824e+38
0.00072989537 0.040487159 0.245 -1.7066299e+38
0.0011311634 0.040652417 0.24600001 -1.7066299e+38
0.0019277412 0.040652417 0.24600001 -1.7065772e+38
0.0023354855 0.040817667 0.24700001 -1.7198692e+38
0.0027353936 0.040817667 0.24700001 -1.7198692e+38
0.0031479953 0.040982921 0.24800001 -1.7464019e+38
0.0035638351 0.041148178 0.24900001 -1.7464019e+38
0.0039988444 0.041478682 0.25100002 -1.7330575e+38
0.0044052289 0.041478682 0.25100002 -1.7330575e+38
0.0048307823 0.041643936 0.252 -1.7331086e+38
0.0052387859 0.041643936 0.252 -1.7331086e+38
0.0056691971 0.04180919 0.25300002 -1.7464009e+38
0.0064884415 0.04180919 0.25300002 -1.7462447e+38
0.0068980646 0.04180919 0.25300002 -1.7462447e+38
0.0073365704 0.041974444 0.25400001 -1.8127065e+38
0.0077783158 0.042139698 0.25500003 -1.7860177e+38
0.0088402256 0.043296475 0.26200002 -1.8125499e+38
0.0092997802 0.043461725 0.26300001 -1.8258422e+38
0.0097625731 0.043626979 0.264 -1.8124978e+38
0.010190004 0.043626979 0.264 -1.8124974e+38
0.011044869 0.043626979 0.264 -1.8656142e+38
0.011472301 0.043626979 0.264 -1.8656142e+38
0.011944807 0.043792237 0.26500002 -1.9849843e+38
0.012373858 0.043792237 0.26500002 -2.0650507e+38
-0.01772636 0.044388156 0.266 -2.1996934e+38
-0.017295688 0.044388156 0.266 -2.0005177e+38
-0.016801616 0.044221286 0.26500002 -1.9738289e+38
-0.015943514 0.044221286 0.26500002 -1.8806793e+38
-0.015514463 0.044221286 0.26500002 -1.8806797e+38
-0.015085412 0.044221286 0.26500002 -1.8539909e+38
-0.014173621 0.044054411 0.264 -1.8406465e+38
-0.013694121 0.043887537 0.26300001 -1.8007695e+38
-0.012744834 0.043553796 0.26100001 -1.7608928e+38
-0.011854091 0.043386921 0.26000002 -1.7209637e+38
-0.011433135 0.043386921 0.26000002 -1.7209637e+38
-0.011012179 0.043386921 0.26000002 -1.7209637e+38
-0.010131151 0.043220051 0.259 -1.7075671e+38
-0.009711815 0.043220051 0.259 -1.707515e+38
-0.0087018451 0.042385686 0.25400001 -1.707515e+38
-0.0078173205 0.042051937 0.252 -1.7209637e+38
-0.0070013134 0.042051937 0.252 -1.707515e+38
-0.0065933103 0.042051937 0.252 -1.7076199e+38
-0.0061607617 0.041885067 0.25100002 -1.7076199e+38
-0.0053266864 0.041718192 0.25 -1.7076203e+38
-0.0044448818 0.041050702 0.24600001 -1.7076203e+38
-0.0036334735 0.040883832 0.245 -1.7074645e+38
-0.0032368035 0.040883832 0.245 -1.7074124e+38
-0.0028401336 0.040883832 0.245 -1.7074124e+38
-0.0020467937 0.040883832 0.245 -1.7073603e+38
-0.0016501239 0.040883832 0.245 -1.707256e+38
-0.001253454 0.040883832 0.245 -1.7070996e+38
-0.00085678417 0.040883832 0.245 -1.7069437e+38
-6.3444422e-05 0.040883832 0.245 -1.7067871e+38
0.00033322547 0.040883832 0.245 -1.7066828e+38
0.00072989537 0.040883832 0.245 -1.7066299e+38
0.0011311634 0.041050702 0.24600001 -1.7066299e+38
0.0019277412 0.041050702 0.24600001 -1.7065772e+38
0.0023354855 0.041217577 0.24700001 -1.7198692e+38
0.0027353936 0.041217577 0.24700001 -1.7198692e+38
0.0031479953 0.041384447 0.24800001 -1.7464019e+38
0.0035781476 0.041718192 0.25 -1.7597463e+38
0.0039988444 0.041885067 0.25100002 -1.7464015e+38
0.0044227792 0.042051937 0.252 -1.7330571e+38
0.0048307823 0.042051937 0.252 -1.7464009e+38
0.0052387859 0.042051937 0.252 -1.7464009e+38
0.0056691971 0.042218812 0.25300002 -1.7462447e+38
0.0064884415 0.042218812 0.25300002 -1.7729335e+38
0.0068980646 0.042218812 0.25300002 -1.7729335e+38
0.0073365704 0.042385686 0.25400001 -1.8127065e+38
0.0077783158 0.042552557 0.25500003 -1.7860177e+38
0.0088402256 0.043720666 0.26200002 -1.8392387e+38
0.0092997802 0.043887537 0.26300001 -1.852531e+38
0.009725593 0.043887537 0.26300001 -1.8258422e+38
0.010190004 0.044054411 0.264 -1.8258418e+38
0.011044869 0.044054411 0.264 -1.8789071e+38
0.011472301 0.044054411 0.264 -1.9055959e+38
0.011899733 0.044054411 0.264 -2.0647373e+38
0.012373858 0.044221286 0.26500002 -2.6252024e+38
-0.018088769 0.044650339 0.26500002 -2.6922889e+38
-0.017659718 0.044650339 0.26500002 -2.3586787e+38
-0.017230667 0.044650339 0.26500002 -2.0270504e+38
-0.016801616 0.044650339 0.26500002 -2.0003616e+38
-0.015943514 0.044650339 0.26500002 -1.8940241e+38
-0.015514463 0.044650339 0.26500002 -1.8541471e+38
-0.014601054 0.044481844 0.264 -1.8806797e+38
-0.014173621 0.044481844 0.264 -1.8806797e+38
-0.013694121 0.044313353 0.26300001 -1.8007695e+38
-0.012793664 0.044144861 0.26200002 -1.7608928e+38
-0.012322259 0.04397637 0.26100001 -1.7475484e+38
-0.011433135 0.043807879 0.26000002 -1.7076714e+38
-0.011012179 0.043807879 0.26000002 -1.7076714e+38
-0.010131151 0.043639384 0.259 -1.7075671e+38
-0.0087018451 0.042796928 0.25400001 -1.707515e+38
-0.0078173205 0.042459942 0.252 -1.7075671e+38
-0.0070013134 0.042459942 0.252 -1.707515e+38
-0.0065671462 0.042291451 0.25100002 -1.7076199e+38
-0.0061607617 0.042291451 0.25100002 -1.7076199e+38
-0.0053266864 0.04212296 0.25 -1.7076203e+38
-0.0044448818 0.041448992 0.24600001 -1.7076203e+38
-0.0040465929 0.041448992 0.24600001 -1.7076203e+38
-0.0032368035 0.041280501 0.245 -1.707516e+38
-0.0028401336 0.041280501 0.245 -1.7074639e+38
-0.0020467937 0.041280501 0.245 -1.7074118e+38
-0.0016501239 0.041280501 0.245 -1.7073075e+38
-0.001253454 0.041280501 0.245 -1.7071511e+38
-0.00085678417 0.041280501 0.245 -1.7069952e+38
-6.3444422e-05 0.041280501 0.245 -1.7068386e+38
0.00033322547 0.041280501 0.245 -1.7067343e+38
0.0007328745 0.041448992 0.24600001 -1.7066295e+38
0.0011311634 0.041448992 0.24600001 -1.7066295e+38
0.0019277412 0.041448992 0.24600001 -1.7065772e+38
0.0023354855 0.041617483 0.24700001 -1.7198692e+38
0.0027464682 0.041785974 0.24800001 -1.7332136e+38
0.0031860757 0.042291451 0.25100002 -1.7464015e+38
0.0039988444 0.042291451 0.25100002 -1.7596937e+38
0.0044227792 0.042459942 0.252 -1.7463493e+38
0.0048307823 0.042459942 0.252 -1.7597453e+38
0.0052387859 0.042459942 0.252 -1.7464009e+38
0.0056691971 0.042628434 0.25300002 -1.719712e+38
0.0064627957 0.042459942 0.252 -1.7464009e+38
0.0068980646 0.042628434 0.25300002 -1.7464009e+38
0.0073076868 0.042628434 0.25300002 -1.7994661e+38
0.0077783158 0.042965416 0.25500003 -1.7727773e+38
0.0088402256 0.044144861 0.26200002 -1.8392387e+38
0.0092644198 0.044144861 0.26200002 -1.852531e+38
0.009725593 0.044313353 0.26300001 -1.852531e+38
0.010577219 0.044313353 0.26300001 -1.8525306e+38
0.011044869 0.044481844 0.264 -1.9587648e+38
0.011472301 0.044481844 0.264 -1.9721092e+38
0.011899733 0.044481844 0.264 -2.4779442e+38
-0.0082253236 0.042867944 0.252 -1.707515e+38
-0.0078173205 0.042867944 0.252 -1.7075671e+38
-0.0070013134 0.042867944 0.252 -1.707515e+38
-0.0065671462 0.042697836 0.25100002 -1.7076199e+38
-0.0061607617 0.042697836 0.25100002 -1.7076199e+38
-0.0053266864 0.042527724 0.25 -1.7076203e+38
-0.0044629504 0.042017389 0.24700001 -1.707516e+38
-0.0040465929 0.041847281 0.24600001 -1.7076203e+38
-0.0032368035 0.04167717 0.245 -1.707516e+38
-0.0028401336 0.04167717 0.245 -1.7074639e+38
-0.0020467937 0.04167717 0.245 -1.7073597e+38
-0.0016501239 0.04167717 0.245 -1.7073075e+38
-0.001253454 0.04167717 0.245 -1.7071511e+38
-0.00085678417 0.04167717 0.245 -1.7070473e+38
-0.00046199231 0.041847281 0.24600001 -1.7069431e+38
0.00033458555 0.041847281 0.24600001 -1.7066824e+38
0.0007328745 0.041847281 0.24600001 -1.7066816e+38
0.0011311634 0.041847281 0.24600001 -1.7066816e+38
0.0015356697 0.042017389 0.24700001 -1.7065772e+38
0.001943414 0.042187504 0.24800001 -1.7065772e+38
0.0023543965 0.042357616 0.24900001 -1.7198692e+38
0.0027686171 0.042527724 0.25 -1.7332136e+38
0.0031860757 0.042697836 0.25100002 -1.7597459e+38
0.0039988444 0.042697836 0.25100002 -1.7463493e+38
0.0044227792 0.042867944 0.252 -1.7463493e+38
0.0048307823 0.042867944 0.252 -1.7597453e+38
0.0052595744 0.043038055 0.25300002 -1.7464009e+38
0.0056691971 0.043038055 0.25300002 -1.7464009e+38
0.0064884415 0.043038055 0.25300002 -1.7464009e+38
0.0068980646 0.043038055 0.25300002 -1.7464009e+38
0.0073076868 0.043038055 0.25300002 -1.7994661e+38
-0.017165646 0.045336708 0.264 -2.5189161e+38
-0.016310781 0.045336708 0.264 -1.9604855e+38
-0.015883349 0.045336708 0.264 -1.9471411e+38
-0.015455917 0.045336708 0.264 -1.8541471e+38
-0.014601054 0.045336708 0.264 -1.8674915e+38
-0.014119933 0.045164976 0.26300001 -1.8541471e+38
-0.013694121 0.045164976 0.26300001 -1.7875812e+38
-0.012793664 0.044993248 0.26200002 -1.7609969e+38
-0.012322259 0.044821519 0.26100001 -1.7209637e+38
-0.011433135 0.044649791 0.26000002 -1.7209637e+38
-0.011012179 0.044649791 0.26000002 -1.7209637e+38
-0.010131151 0.044478059 0.259 -1.7209637e+38
0.0077783158 0.043791138 0.25500003 -1.7994661e+38
0.008351787 0.044649791 0.26000002 -1.8260505e+38
0.0088064838 0.044821519 0.26100001 -1.8260505e+38
0.0092644198 0.044993248 0.26200002 -1.8392387e+38
0.010112808 0.044993248 0.26200002 -1.892408e+38
0.010577219 0.045164976 0.26300001 -1.9190969e+38
0.011003031 0.045164976 0.26300001 -2.2379548e+38
-0.016310781 0.045764141 0.264 -2.0933554e+38
-0.015883349 0.045764141 0.264 -2.080011e+38
-0.015397372 0.045590792 0.26300001 -1.8808355e+38
-0.014545746 0.045590792 0.26300001 -1.8674915e+38
-0.014119933 0.045590792 0.26300001 -1.8274583e+38
-0.013694121 0.045590792 0.26300001 -1.7743409e+38
-0.012793664 0.045417443 0.26200002 -1.7609969e+38
-0.01236947 0.045417443 0.26200002 -1.7209637e+38
-0.011477109 0.045244094 0.26100001 -1.7342566e+38
-0.011012179 0.045070745 0.26000002 -1.7209122e+38
-0.010131151 0.044897396 0.259 -1.7209637e+38
-0.0082253236 0.04368395 0.252 -1.7074629e+38
-0.0078173205 0.04368395 0.252 -1.7075671e+38
-0.0069735302 0.043510605 0.25100002 -1.707515e+38
-0.0065671462 0.043510605 0.25100002 -1.7074635e+38
-0.0061607617 0.043510605 0.25100002 -1.7075156e+38
-0.0053266864 0.043337256 0.25 -1.707516e+38
-0.004481019 0.042990558 0.24800001 -1.7076203e+38
-0.0040630423 0.042817205 0.24700001 -1.7076203e+38
-0.003250015 0.04264386 0.24600001 -1.7074639e+38
-0.002851726 0.04264386 0.24600001 -1.7074639e+38
-0.0024534371 0.04264386 0.24600001 -1.7074639e+38
-0.0016568592 0.04264386 0.24600001 -1.7073597e+38
-0.0012585702 0.04264386 0.24600001 -1.7072554e+38
-0.00086028129 0.04264386 0.24600001 -1.7070471e+38
-0.00046199231 0.04264386 0.24600001 -1.706995e+38
0.00033458555 0.04264386 0.24600001 -1.7067343e+38
0.0007328745 0.04264386 0.24600001 -1.706682e+38
0.0011311634 0.04264386 0.24600001 -1.706682e+38
0.0015356697 0.042817205 0.24700001 -1.7066812e+38
0.001943414 0.042990558 0.24800001 -1.7066812e+38
0.0023543965 0.043163907 0.24900001 -1.7199733e+38
0.0027686171 0.043337256 0.25 -1.7199733e+38
0.0031860757 0.043510605 0.25100002 -1.7332136e+38
0.0039988444 0.043510605 0.25100002 -1.7464015e+38
0.0044227792 0.04368395 0.252 -1.7464015e+38
0.0048307823 0.04368395 0.252 -1.7330571e+38
0.0052595744 0.043857303 0.25300002 -1.7330571e+38
0.0056691971 0.043857303 0.25300002 -1.7597453e+38
0.0061028465 0.044030651 0.25400001 -1.7597453e+38
0.0068980646 0.043857303 0.25300002 -1.7462447e+38
0.0073076868 0.043857303 0.25300002 -1.7994657e+38
0.0077783158 0.044203997 0.25500003 -1.8128101e+38
0.008351787 0.045070745 0.26000002 -1.8393949e+38
0.0088064838 0.045244094 0.26100001 -1.8393949e+38
0.0096516339 0.045244094 0.26100001 -1.8659275e+38
0.010112808 0.045417443 0.26200002 -1.9854021e+38
0.010537001 0.045417443 0.26200002 -1.9854021e+38
-0.015763022 0.045841638 0.26200002 -2.2790297e+38
-0.015397372 0.046016604 0.26300001 -1.9073681e+38
-0.014545746 0.046016604 0.26300001 -1.8674915e+38
-0.014119933 0.046016604 0.26300001 -1.8541471e+38
-0.013694121 0.046016604 0.26300001 -1.7743409e+38
-0.012793664 0.045841638 0.26200002 -1.7609969e+38
-0.01236947 0.045841638 0.26200002 -1.7343081e+38
-0.011477109 0.045666669 0.26100001 -1.7342566e+38
-0.011012179 0.045491703 0.26000002 -1.7209122e+38
-0.010591224 0.045491703 0.26000002 -1.7209122e+38
-0.0082253236 0.044091955 0.252 -1.7074629e+38
-0.0078173205 0.044091955 0.252 -1.707515e+38
-0.0070013134 0.044091955 0.252 -1.707515e+38
-0.0065671462 0.043916989 0.25100002 -1.707515e+38
-0.0061607617 0.043916989 0.25100002 -1.7075671e+38
-0.0053479932 0.043916989 0.25100002 -1.707516e+38
-0.0049022338 0.043567054 0.24900001 -1.707516e+38
-0.0040794918 0.043392085 0.24800001 -1.7076203e+38
-0.0036631345 0.043217115 0.24700001 -1.707516e+38
-0.002851726 0.043042149 0.24600001 -1.7074639e+38
-0.0024634104 0.043217115 0.24700001 -1.7074118e+38
-0.0016568592 0.043042149 0.24600001 -1.7073597e+38
-0.0012585702 0.043042149 0.24600001 -1.7072554e+38
-0.00086028129 0.043042149 0.24600001 -1.7070471e+38
-0.00046199231 0.043042149 0.24600001 -1.7070471e+38
0.00033458555 0.043042149 0.24600001 -1.7067343e+38
0.0007328745 0.043042149 0.24600001 -1.706682e+38
0.0011357616 0.043217115 0.24700001 -1.706682e+38
0.0015356697 0.043217115 0.24700001 -1.7066816e+38
0.001943414 0.043392085 0.24800001 -1.7066295e+38
0.0023543965 0.043567054 0.24900001 -1.7066814e+38
0.0027686171 0.04374202 0.25 -1.7066814e+38
0.0031860757 0.043916989 0.25100002 -1.7332136e+38
0.0039988444 0.043916989 0.25100002 -1.7597459e+38
0.0044052289 0.043916989 0.25100002 -1.7464015e+38
0.0048307823 0.044091955 0.252 -1.7330571e+38
0.0052595744 0.044266924 0.25300002 -1.7464015e+38
0.0057140128 0.044616859 0.25500003 -1.7597453e+38
0.0061028465 0.044441894 0.25400001 -1.7730897e+38
0.0069253291 0.044441894 0.25400001 -1.7729335e+38
0.0083196647 0.045316733 0.259 -1.8393949e+38
0.0087727429 0.045491703 0.26000002 -1.8393949e+38
0.0096516339 0.045666669 0.26100001 -1.8925638e+38
0.010074208 0.045666669 0.26100001 -2.0650511e+38
0.010537001 0.045841638 0.26200002 -2.225184e+38
-0.014914635 0.046265829 0.26200002 -2.0268417e+38
-0.01449044 0.046265829 0.26200002 -1.8674915e+38
-0.014119933 0.046442416 0.26300001 -1.8541471e+38
-0.013694121 0.046442416 0.26300001 -1.7743413e+38
-0.012842495 0.046442416 0.26300001 -1.7875817e+38
-0.01236947 0.046265829 0.26200002 -1.7475484e+38
-0.011945277 0.046265829 0.26200002 -1.7475484e+38
-0.011054534 0.046089243 0.26100001 -1.734204e+38
-0.010591224 0.045912657 0.26000002 -1.7075152e+38
-0.0082253236 0.044499956 0.252 -1.7074629e+38
-0.0078173205 0.044499956 0.252 -1.707515e+38
-0.0070013134 0.044499956 0.252 -1.7074629e+38
-0.0065933103 0.044499956 0.252 -1.7074629e+38
-0.0061607617 0.044323374 0.25100002 -1.707515e+38
-0.0053479932 0.044323374 0.25100002 -1.707516e+38
-0.0049219215 0.044146784 0.25 -1.707516e+38
-0.0040794918 0.043793611 0.24800001 -1.7076203e+38
-0.0036779649 0.043793611 0.24800001 -1.707516e+38
-0.0028633184 0.043617021 0.24700001 -1.7074639e+38
-0.0024634104 0.043617021 0.24700001 -1.7074118e+38
-0.0020635023 0.043617021 0.24700001 -1.7073597e+38
-0.0012636865 0.043617021 0.24700001 -1.7073075e+38
-0.00086028129 0.043440439 0.24600001 -1.7069952e+38
-0.00046199231 0.043440439 0.24600001 -1.7069952e+38
0.00033458555 0.043440439 0.24600001 -1.7067343e+38
0.00073585368 0.043617021 0.24700001 -1.706682e+38
0.0011357616 0.043617021 0.24700001 -1.706682e+38
0.0015356697 0.043617021 0.24700001 -1.7066816e+38
0.001943414 0.043793611 0.24800001 -1.7066816e+38
0.0023543965 0.043970197 0.24900001 -1.7066814e+38
0.0027686171 0.044146784 0.25 -1.7066814e+38
0.0031860757 0.044323374 0.25100002 -1.7332136e+38
0.0039988444 0.044323374 0.25100002 -1.7597459e+38
0.0044052289 0.044323374 0.25100002 -1.7464015e+38
0.0048307823 0.044499956 0.252 -1.7597459e+38
0.0052595744 0.044676546 0.25300002 -1.7597459e+38
0.0056916047 0.044853136 0.25400001 -1.7597453e+38
0.0061028465 0.044853136 0.25400001 -1.7730897e+38
0.0065653799 0.045206308 0.25600001 -1.8261549e+38
0.0069798594 0.045206308 0.25600001 -1.8128105e+38
0.0074521075 0.045559481 0.25800002 -1.8260509e+38
0.0078698248 0.045559481 0.25800002 -1.8393953e+38
0.0083196647 0.045736071 0.259 -1.8659275e+38
0.0087727429 0.045912657 0.26000002 -1.8792719e+38
0.0096146548 0.045912657 0.26000002 -1.9589735e+38
0.010074208 0.046089243 0.26100001 -2.277988e+38
-0.01449044 0.04711422 0.26200002 -1.9866008e+38
-0.012416682 0.047294043 0.26300001 -1.8139577e+38
-0.0082579637 0.045495789 0.25300002 -1.7073588e+38
-0.0078173205 0.045315962 0.252 -1.7073588e+38
-0.0070013134 0.045315962 0.252 -1.7073588e+38
-0.0065933103 0.045315962 0.252 -1.7073588e+38
-0.0061853072 0.045315962 0.252 -1.707411e+38
-0.0057773036 0.045315962 0.252 -1.7074635e+38
-0.0049416092 0.045136143 0.25100002 -1.7074635e+38
-0.0040959413 0.044776492 0.24900001 -1.707516e+38
-0.0036779649 0.044596665 0.24800001 -1.7074639e+38
-0.0028633184 0.044416837 0.24700001 -1.7074639e+38
-0.0024634104 0.044416837 0.24700001 -1.7074639e+38
-0.0020635023 0.044416837 0.24700001 -1.7074118e+38
-0.0012636865 0.044416837 0.24700001 -1.7072554e+38
-0.0008637784 0.044416837 0.24700001 -1.7070471e+38
-0.00046387035 0.044416837 0.24700001 -1.7070471e+38
-6.3962339e-05 0.044416837 0.24700001 -1.7068386e+38
0.00073585368 0.044416837 0.24700001 -1.7067341e+38
0.0011357616 0.044416837 0.24700001 -1.7067341e+38
0.0015356697 0.044416837 0.24700001 -1.7066816e+38
0.001943414 0.044596665 0.24800001 -1.7066816e+38
0.0023543965 0.044776492 0.24900001 -1.7066814e+38
0.0027686171 0.044956315 0.25 -1.7066814e+38
0.0031860757 0.045136143 0.25100002 -1.7864351e+38
0.0039988444 0.045136143 0.25100002 -1.7730903e+38
0.0044227792 0.045315962 0.252 -1.7597459e+38
0.0048307823 0.045315962 0.252 -1.7464015e+38
0.0052595744 0.045495789 0.25300002 -1.7597459e+38
0.0057140128 0.04585544 0.25500003 -1.7730381e+38
0.0061509004 0.046035267 0.25600001 -1.7730381e+38
0.0065653799 0.046035267 0.25600001 -1.8129667e+38
0.0070071244 0.046215095 0.257 -1.7996223e+38
0.0074521075 0.046394914 0.25800002 -1.8261549e+38
0.0078698248 0.046394914 0.25800002 -1.8128105e+38
0.0083196647 0.046574742 0.259 -1.8527393e+38
0.0091583384 0.046574742 0.259 -2.1049277e+38
0.0096146548 0.046754569 0.26000002 -2.3985047e+38
-0.0082579637 0.045905411 0.25300002 -1.7073588e+38
-0.007848341 0.045905411 0.25300002 -1.7073588e+38
-0.0070013134 0.045723967 0.252 -1.7073588e+38
-0.0065933103 0.045723967 0.252 -1.7073588e+38
-0.0061853072 0.045723967 0.252 -1.707411e+38
-0.0057773036 0.045723967 0.252 -1.7074114e+38
-0.0049416092 0.045542523 0.25100002 -1.7074114e+38
-0.0040959413 0.045179639 0.24900001 -1.7075156e+38
-0.0036779649 0.044998191 0.24800001 -1.7074635e+38
-0.0028749108 0.044998191 0.24800001 -1.707516e+38
-0.0024634104 0.044816747 0.24700001 -1.7074639e+38
-0.0020635023 0.044816747 0.24700001 -1.7074118e+38
-0.0012636865 0.044816747 0.24700001 -1.7072554e+38
-0.0008637784 0.044816747 0.24700001 -1.7070992e+38
-0.00046387035 0.044816747 0.24700001 -1.7070471e+38
-6.3962339e-05 0.044816747 0.24700001 -1.7068386e+38
0.00073585368 0.044816747 0.24700001 -1.7067341e+38
0.0011357616 0.044816747 0.24700001 -1.7067341e+38
0.0015418869 0.044998191 0.24800001 -1.7066816e+38
0.001943414 0.044998191 0.24800001 -1.7067337e+38
0.0023543965 0.045179639 0.24900001 -1.7066814e+38
0.0027686171 0.045361079 0.25 -1.7066814e+38
0.0031860757 0.045542523 0.25100002 -1.7864351e+38
0.0039988444 0.045542523 0.25100002 -1.7597459e+38
0.0044227792 0.045723967 0.252 -1.7730903e+38
0.0048499522 0.045905411 0.25300002 -1.7597459e+38
0.0052803634 0.046086859 0.25400001 -1.7464015e+38
0.0057140128 0.046268299 0.25500003 -1.7730381e+38
0.0061509004 0.046449747 0.25600001 -1.7730381e+38
0.0065910257 0.046631191 0.257 -1.8129152e+38
0.0070071244 0.046631191 0.257 -1.7995708e+38
0.0074521075 0.046812635 0.25800002 -1.8261549e+38
0.0078698248 0.046812635 0.25800002 -1.8261549e+38
0.0083196647 0.046994079 0.259 -1.8926163e+38
0.0091583384 0.046994079 0.259 -2.3045718e+38
-0.0082579637 0.046315037 0.25300002 -1.7072544e+38
-0.007848341 0.046315037 0.25300002 -1.7073065e+38
-0.0074387183 0.046315037 0.25300002 -1.7072544e+38
-0.0066194744 0.046315037 0.25300002 -1.7073065e+38
-0.0062098517 0.046315037 0.25300002 -1.7073586e+38
-0.0057773036 0.046131972 0.252 -1.7073073e+38
-0.0049416092 0.045948908 0.25100002 -1.7074114e+38
-0.0040959413 0.045582782 0.24900001 -1.7074635e+38
-0.0036779649 0.045399718 0.24800001 -1.7074635e+38
-0.0028749108 0.045399718 0.24800001 -1.7074639e+38
-0.0024733837 0.045399718 0.24800001 -1.7074639e+38
-0.0020635023 0.045216653 0.24700001 -1.7074118e+38
-0.0012636865 0.045216653 0.24700001 -1.7073075e+38
-0.0008637784 0.045216653 0.24700001 -1.7070992e+38
-0.00046387035 0.045216653 0.24700001 -1.7070471e+38
-6.3962339e-05 0.045216653 0.24700001 -1.7068386e+38
0.00073585368 0.045216653 0.24700001 -1.7067341e+38
0.0011357616 0.045216653 0.24700001 -1.7067863e+38
0.0015418869 0.045399718 0.24800001 -1.7066816e+38
0.0019512505 0.045582782 0.24900001 -1.7067337e+38
0.002363852 0.045765843 0.25 -1.7066814e+38
0.0027796915 0.045948908 0.25100002 -1.7066814e+38
0.0031860757 0.045948908 0.25100002 -1.7599025e+38
0.0036067725 0.046131972 0.252 -1.7332136e+38
0.0040307073 0.046315037 0.25300002 -1.7597463e+38
0.0048499522 0.046315037 0.25300002 -1.7597459e+38
0.0052803634 0.046498101 0.25400001 -1.7464015e+38
0.0057140128 0.046681162 0.25500003 -1.7730381e+38
0.0061509004 0.046864226 0.25600001 -1.7730381e+38
0.0065910257 0.047047291 0.257 -1.8129152e+38
0.0070071244 0.047047291 0.257 -1.7995708e+38
0.0074521075 0.047230352 0.25800002 -1.8261549e+38
0.0078698248 0.047230352 0.25800002 -1.8261549e+38
0.0087052602 0.047230352 0.25800002 -1.998798e+38
-0.0082579637 0.046724658 0.25300002 -1.7071503e+38
-0.007848341 0.046724658 0.25300002 -1.7072025e+38
-0.0074387183 0.046724658 0.25300002 -1.7072025e+38
-0.0066194744 0.046724658 0.25300002 -1.7072544e+38
-0.0061853072 0.046539973 0.252 -1.7073065e+38
-0.0057773036 0.046539973 0.252 -1.7073588e+38
-0.0049416092 0.046355292 0.25100002 -1.707411e+38
-0.0040959413 0.04598593 0.24900001 -1.7074629e+38
-0.0036779649 0.045801245 0.24800001 -1.707515e+38
-0.0028749108 0.045801245 0.24800001 -1.7074635e+38
-0.0024733837 0.045801245 0.24800001 -1.7074118e+38
-0.0020718565 0.045801245 0.24800001 -1.7074118e+38
-0.0016703296 0.045801245 0.24800001 -1.7073597e+38
-0.0008672754 0.045801245 0.24800001 -1.7070992e+38
-0.00046574837 0.045801245 0.24800001 -1.7070471e+38
-6.3962339e-05 0.045616563 0.24700001 -1.7068386e+38
0.00073585368 0.045616563 0.24700001 -1.7067341e+38
0.0011403599 0.045801245 0.24800001 -1.7067863e+38
0.0015418869 0.045801245 0.24800001 -1.7066816e+38
0.0019590869 0.046170611 0.25 -1.7067337e+38
0.002363852 0.046170611 0.25 -1.7067337e+38
0.0027796915 0.046355292 0.25100002 -1.7067337e+38
0.0031987694 0.046539973 0.252 -1.746558e+38
0.0036067725 0.046539973 0.252 -1.7332136e+38
0.0040307073 0.046724658 0.25300002 -1.7332136e+38
0.0044578807 0.04690934 0.25400001 -1.746558e+38
0.0052803634 0.04690934 0.25400001 -1.7332132e+38
0.0057140128 0.047094021 0.25500003 -1.7597459e+38
0.0061509004 0.047278706 0.25600001 -1.7597459e+38
0.0065653799 0.047278706 0.25600001 -1.8129152e+38
0.0070071244 0.047463387 0.257 -1.7995708e+38
0.007423223 0.047463387 0.257 -1.8261549e+38
0.0082554203 0.047463387 0.257 -2.1183237e+38
-0.007848341 0.047543902 0.25300002 -1.7068897e+38
-0.0074387183 0.047543902 0.25300002 -1.7068897e+38
-0.0066194744 0.047543902 0.25300002 -1.7069942e+38
-0.0062098517 0.047543902 0.25300002 -1.7070984e+38
-0.0058002295 0.047543902 0.25300002 -1.7071507e+38
-0.0049612969 0.04735598 0.252 -1.7072548e+38
-0.0045171562 0.046980139 0.25 -1.7072548e+38
-0.0036927953 0.04679222 0.24900001 -1.7073588e+38
-0.0028749108 0.046604302 0.24800001 -1.7074635e+38
-0.0024733837 0.046604302 0.24800001 -1.7074118e+38
-0.0020718565 0.046604302 0.24800001 -1.7074118e+38
-0.0016703296 0.046604302 0.24800001 -1.7073597e+38
-0.0008672754 0.046604302 0.24800001 -1.7072035e+38
-0.00046574837 0.046604302 0.24800001 -1.7070471e+38
-6.4221291e-05 0.046604302 0.24800001 -1.7068907e+38
0.00033730577 0.046604302 0.24800001 -1.7068386e+38
0.0011403599 0.046604302 0.24800001 -1.7067348e+38
0.0015481043 0.04679222 0.24900001 -1.7067341e+38
0.0019590869 0.046980139 0.25 -1.7067341e+38
0.0023733072 0.047168061 0.25100002 -1.7067859e+38
0.0027796915 0.047168061 0.25100002 -1.7067859e+38
0.0031987694 0.04735598 0.252 -1.7466621e+38
0.0036210851 0.047543902 0.25300002 -1.7333177e+38
0.0040307073 0.047543902 0.25300002 -1.746558e+38
0.0044578807 0.047731824 0.25400001 -1.7332136e+38
0.0052803634 0.047731824 0.25400001 -1.7332132e+38
0.0057140128 0.047919743 0.25500003 -1.7597459e+38
0.0061509004 0.048107665 0.25600001 -1.7597459e+38
0.0065653799 0.048107665 0.25600001 -1.8129667e+38
0.0069798594 0.048107665 0.25600001 -1.8129667e+38
0.007423223 0.048295587 0.257 -1.9987465e+38
-0.0074387183 0.047953524 0.25300002 -1.7068376e+38
-0.0066194744 0.047953524 0.25300002 -1.7068897e+38
-0.0062098517 0.047953524 0.25300002 -1.7068897e+38
-0.0057773036 0.047763985 0.252 -1.7069942e+38
-0.0049612969 0.047763985 0.252 -1.7071507e+38
-0.0040959413 0.047195368 0.24900001 -1.7072033e+38
-0.0036927953 0.047195368 0.24900001 -1.7072554e+38
-0.0028749108 0.047005828 0.24800001 -1.7074116e+38
-0.0024733837 0.047005828 0.24800001 -1.7073599e+38
-0.0020718565 0.047005828 0.24800001 -1.7073599e+38
-0.0016703296 0.047005828 0.24800001 -1.7073077e+38
-0.0008672754 0.047005828 0.24800001 -1.7071516e+38
-0.00046574837 0.047005828 0.24800001 -1.7069952e+38
-6.4221291e-05 0.047005828 0.24800001 -1.7068907e+38
0.00033866588 0.047195368 0.24900001 -1.7068386e+38
0.00074181199 0.047195368 0.24900001 -1.7067348e+38
0.0015481043 0.047195368 0.24900001 -1.7067341e+38
0.0019590869 0.047384907 0.25 -1.7067341e+38
0.0023733072 0.047574446 0.25100002 -1.7067339e+38
0.0027907661 0.047763985 0.252 -1.7067339e+38
0.0031987694 0.047763985 0.252 -1.7466621e+38
0.0036210851 0.047953524 0.25300002 -1.7333177e+38
0.0040307073 0.047953524 0.25300002 -1.746558e+38
0.0044578807 0.048143066 0.25400001 -1.746558e+38
0.0052803634 0.048143066 0.25400001 -1.7332132e+38
0.0057140128 0.048332602 0.25500003 -1.7731418e+38
0.0061268732 0.048332602 0.25500003 -1.7731418e+38
0.0065653799 0.048522145 0.25600001 -1.8660841e+38
0.0069798594 0.048522145 0.25600001 -1.8660841e+38
-0.0061853072 0.048171986 0.252 -1.7068376e+38
-0.0053479932 0.04798083 0.25100002 -1.7068901e+38
-0.0049022338 0.047598515 0.24900001 -1.7069424e+38
-0.0040959413 0.047598515 0.24900001 -1.7071507e+38
-0.0036779649 0.047407355 0.24800001 -1.7072029e+38
-0.0028749108 0.047407355 0.24800001 -1.7206519e+38
-0.0024733837 0.047407355 0.24800001 -1.7073599e+38
-0.002080211 0.047598515 0.24900001 -1.7073599e+38
-0.0016770647 0.047598515 0.24900001 -1.7073077e+38
-0.0012739185 0.047598515 0.24900001 -1.7072556e+38
-0.00046762638 0.047598515 0.24900001 -1.7069952e+38
-6.4480249e-05 0.047598515 0.24900001 -1.7068911e+38
0.00033866588 0.047598515 0.24900001 -1.706839e+38
0.00074181199 0.047598515 0.24900001 -1.7067867e+38
0.0011495564 0.047789671 0.25 -1.7067345e+38
0.0019590869 0.047789671 0.25 -1.706682e+38
0.0023733072 0.04798083 0.25100002 -1.7067339e+38
0.0027907661 0.048171986 0.252 -1.7067339e+38
0.0031987694 0.048171986 0.252 -1.7466621e+38
0.0036210851 0.048363145 0.25300002 -1.7333177e+38
0.0040307073 0.048363145 0.25300002 -1.746558e+38
0.0044578807 0.048554305 0.25400001 -1.746558e+38
0.0052803634 0.048554305 0.25400001 -1.7332132e+38
0.0056916047 0.048554305 0.25400001 -1.7864341e+38
0.0061268732 0.048745465 0.25500003 -1.7864341e+38
0.0065397336 0.048745465 0.25500003 -1.919253e+38
0.0069798594 0.048936624 0.25600001 -1.919253e+38
-0.0049022338 0.048001658 0.24900001 -1.706838e+38
-0.0040959413 0.048001658 0.24900001 -1.7071507e+38
-0.0036927953 0.048001658 0.24900001 -1.7072029e+38
-0.0032896493 0.048001658 0.24900001 -1.7073075e+38
-0.002483357 0.048001658 0.24900001 -1.7073599e+38
-0.002080211 0.048001658 0.24900001 -1.7073599e+38
-0.0016770647 0.048001658 0.24900001 -1.7073077e+38
-0.0012739185 0.048001658 0.24900001 -1.7072556e+38
-0.00046762638 0.048001658 0.24900001 -1.7070473e+38
-6.4480249e-05 0.048001658 0.24900001 -1.7069433e+38
