# .PCD v0.7 - Point Cloud Data file format
VERSION 0.7
FIELDS x y z rgb
SIZE 4 4 4 4
TYPE F F F F
COUNT 1 1 1 1
WIDTH 962
HEIGHT 1
VIEWPOINT 0 0 0 1 0 0 0
POINTS 962
DATA ascii
0.0089815361 0.03169341 0.25400001 -1.7456703e+38
0.0094297575 0.031818185 0.25500003 -1.7456703e+38
0.0098812161 0.031942964 0.25600001 -1.7722029e+38
0.010335913 0.032067742 0.257 -1.7855473e+38
0.010710175 0.031942964 0.25600001 -1.8119755e+38
0.013771043 0.032317296 0.259 -1.9047598e+38
-0.026742714 0.03589654 0.28400001 -2.2388393e+38
-0.026282899 0.03589654 0.28400001 -2.1988061e+38
-0.025363272 0.03589654 0.28400001 -1.9733079e+38
-0.024815772 0.035770141 0.28300002 -1.9069511e+38
-0.00476442 0.030587895 0.24200001 -1.7075688e+38
-0.0039478955 0.030335104 0.24000001 -1.7075688e+38
-0.0035444903 0.030208707 0.23900001 -1.7074645e+38
-0.0031575349 0.030208707 0.23900001 -1.7074124e+38
-0.0023836237 0.030208707 0.23900001 -1.7073081e+38
-0.0019966683 0.030208707 0.23900001 -1.7072039e+38
-0.0016097128 0.030208707 0.23900001 -1.7070992e+38
-0.00083580177 0.030208707 0.23900001 -1.7068386e+38
-0.0004488462 0.030208707 0.23900001 -1.7067865e+38
-6.1890685e-05 0.030208707 0.23900001 -1.706682e+38
0.00032642495 0.030335104 0.24000001 -1.7065256e+38
0.00071499951 0.030335104 0.24000001 -1.7063693e+38
0.0011081723 0.030461498 0.24100001 -1.706265e+38
0.0018885597 0.030461498 0.24100001 -1.7061086e+38
0.0022787533 0.030461498 0.24100001 -1.7060557e+38
0.0026800216 0.030587895 0.24200001 -1.7060557e+38
0.016581669 0.03513816 0.27800003 -2.0242344e+38
0.017093033 0.035264559 0.27900001 -2.0772986e+38
0.017544752 0.035264559 0.27900001 -2.0639542e+38
0.01799647 0.035264559 0.27900001 -2.1171227e+38
0.018514309 0.035390951 0.28 -2.1438116e+38
-0.026648548 0.036228336 0.28300002 -2.2654235e+38
-0.026190354 0.036228336 0.28300002 -2.2387346e+38
-0.025273966 0.036228336 0.28300002 -1.9733079e+38
-0.024728082 0.036100321 0.28200001 -1.9468278e+38
-0.023730483 0.035972305 0.28100002 -1.9337961e+38
-0.019018371 0.034052074 0.266 -1.8273532e+38
-0.018587699 0.034052074 0.266 -1.8140088e+38
-0.015940083 0.033027951 0.25800002 -1.7475476e+38
-0.015462201 0.032899939 0.257 -1.7475476e+38
-0.014630004 0.032899939 0.257 -1.747548e+38
-0.014213905 0.032899939 0.257 -1.7342036e+38
-0.013744119 0.032771923 0.25600001 -1.7075148e+38
-0.012864709 0.032643907 0.25500003 -1.7075148e+38
-0.011991777 0.032515895 0.25400001 -1.7075148e+38
-0.011580535 0.032515895 0.25400001 -1.7074627e+38
-0.010673343 0.032259859 0.252 -1.7075671e+38
-0.010183869 0.032003831 0.25 -1.7075671e+38
-0.0092993444 0.031747799 0.24800001 -1.7076199e+38
-0.0084620304 0.031619783 0.24700001 -1.7076199e+38
-0.0080294823 0.031491771 0.24600001 -1.7076203e+38
-0.007232904 0.031491771 0.24600001 -1.7075688e+38
-0.006834615 0.031491771 0.24600001 -1.7075688e+38
-0.0064101629 0.031363755 0.245 -1.7075688e+38
-0.0055938968 0.031235738 0.24400002 -1.7075688e+38
0.0030845276 0.031107724 0.24300002 -1.7060038e+38
0.0035065843 0.031363755 0.245 -1.7058995e+38
0.0039191861 0.031491771 0.24600001 -1.7058991e+38
0.004317475 0.031491771 0.24600001 -1.7192956e+38
0.0047349338 0.031619783 0.24700001 -1.7192952e+38
0.0051556304 0.031747799 0.24800001 -1.7058987e+38
0.0055795657 0.031875815 0.24900001 -1.7058987e+38
0.0060067386 0.032003831 0.25 -1.7192952e+38
0.0064371498 0.032131847 0.25100002 -1.7058987e+38
0.0068707988 0.032259859 0.252 -1.7058987e+38
0.0072788023 0.032259859 0.252 -1.7191387e+38
0.0077173091 0.032387875 0.25300002 -1.7458275e+38
0.0081590535 0.032515895 0.25400001 -1.7324825e+38
0.0086040366 0.032643907 0.25500003 -1.7324825e+38
0.0090522571 0.032771923 0.25600001 -1.7456707e+38
0.0098812161 0.032771923 0.25600001 -1.7854433e+38
0.010295696 0.032771923 0.25600001 -1.7854433e+38
0.016581669 0.035588261 0.27800003 -2.01089e+38
0.017031768 0.035588261 0.27800003 -2.1038313e+38
0.017544752 0.035716277 0.27900001 -2.1038313e+38
0.01799647 0.035716277 0.27900001 -2.143655e+38
-0.025641233 0.036556896 0.28200001 -1.9733075e+38
-0.025095351 0.036427263 0.28100002 -1.9866519e+38
-0.024640396 0.036427263 0.28100002 -2.0001529e+38
-0.023730483 0.036427263 0.28100002 -1.9337961e+38
-0.01944904 0.034482744 0.266 -1.8405936e+38
-0.019018371 0.034482744 0.266 -1.8273532e+38
-0.018587699 0.034482744 0.266 -1.8140088e+38
-0.016001865 0.033575304 0.259 -1.7475476e+38
-0.015522365 0.033445671 0.25800002 -1.7475476e+38
-0.015104648 0.033445671 0.25800002 -1.747548e+38
-0.014213905 0.033316039 0.257 -1.734204e+38
-0.013744119 0.033186402 0.25600001 -1.734204e+38
-0.012864709 0.033056766 0.25500003 -1.7075152e+38
-0.012451848 0.033056766 0.25500003 -1.7075152e+38
-0.011580535 0.032927133 0.25400001 -1.7075148e+38
-0.010673343 0.032667864 0.252 -1.7075146e+38
-0.010183869 0.032408595 0.25 -1.7075667e+38
-0.0092993444 0.032149326 0.24800001 -1.7076199e+38
-0.0084620304 0.032019693 0.24700001 -1.7075156e+38
-0.0080294823 0.031890061 0.24600001 -1.7076203e+38
-0.007232904 0.031890061 0.24600001 -1.7075688e+38
-0.006834615 0.031890061 0.24600001 -1.7075688e+38
-0.0064363265 0.031890061 0.24600001 -1.7076209e+38
-0.0056168227 0.031760424 0.245 -1.7076209e+38
-0.00476442 0.031371519 0.24200001 -1.7075688e+38
-0.0043545384 0.031241884 0.24100001 -1.7075688e+38
-0.0035593209 0.031112254 0.24000001 -1.7074645e+38
-0.0031707464 0.031112254 0.24000001 -1.7074124e+38
-0.0027821716 0.031112254 0.24000001 -1.7073603e+38
-0.0020050225 0.031112254 0.24000001 -1.707256e+38
-0.0016164479 0.031112254 0.24000001 -1.7072035e+38
-0.0012278734 0.031112254 0.24000001 -1.7070471e+38
-0.00045072421 0.031112254 0.24000001 -1.7068386e+38
-6.2149637e-05 0.031112254 0.24000001 -1.706682e+38
0.00032642495 0.031112254 0.24000001 -1.7066299e+38
0.00071499951 0.031112254 0.24000001 -1.7064216e+38
0.0011081723 0.031241884 0.24100001 -1.7063695e+38
0.0018885597 0.031241884 0.24100001 -1.7062131e+38
0.0022787533 0.031241884 0.24100001 -1.7061597e+38
0.0026800216 0.031371519 0.24200001 -1.7061597e+38
0.0030845276 0.031501155 0.24300002 -1.7060553e+38
0.0034922722 0.031630788 0.24400002 -1.705951e+38
0.0039191861 0.031890061 0.24600001 -1.7192952e+38
0.004317475 0.031890061 0.24600001 -1.7326396e+38
0.0047349338 0.032019693 0.24700001 -1.7192952e+38
0.0051556304 0.032149326 0.24800001 -1.7058987e+38
0.0055795657 0.032278962 0.24900001 -1.7058987e+38
0.0060067386 0.032408595 0.25 -1.7192952e+38
0.0064371498 0.032538231 0.25100002 -1.7058987e+38
0.0068435343 0.032538231 0.25100002 -1.7058987e+38
0.0072788023 0.032667864 0.252 -1.7191387e+38
0.0077173091 0.0327975 0.25300002 -1.7458275e+38
0.0081590535 0.032927133 0.25400001 -1.7590151e+38
0.0086040366 0.033056766 0.25500003 -1.7590151e+38
0.0090522571 0.033186402 0.25600001 -1.7855477e+38
0.0098812161 0.033186402 0.25600001 -1.7854433e+38
0.010295696 0.033186402 0.25600001 -1.7854433e+38
0.016522024 0.035908721 0.27700001 -2.037526e+38
0.016970502 0.035908721 0.27700001 -2.1038828e+38
0.017481867 0.036038358 0.27800003 -2.0905384e+38
0.01799647 0.036167994 0.27900001 -2.1303106e+38
-0.025912719 0.036750965 0.28 -2.2918516e+38
-0.025459381 0.036750965 0.28 -2.0132882e+38
-0.025006045 0.036750965 0.28 -2.039977e+38
-0.02409937 0.036750965 0.28 -2.0001529e+38
-0.023646032 0.036750965 0.28 -1.9337961e+38
-0.01944904 0.034913413 0.266 -1.853938e+38
-0.019018371 0.034913413 0.266 -1.8273017e+38
-0.018587699 0.034913413 0.266 -1.8273017e+38
-0.015582529 0.033994641 0.259 -1.7209629e+38
-0.015104648 0.033863388 0.25800002 -1.7209633e+38
-0.014269212 0.033863388 0.25800002 -1.7343081e+38
-0.013797807 0.033732135 0.257 -1.7209637e+38
-0.012915159 0.033600882 0.25600001 -1.7209637e+38
-0.012451848 0.033469629 0.25500003 -1.7075671e+38
-0.011534942 0.033207122 0.25300002 -1.7075152e+38
-0.010673343 0.033075865 0.252 -1.707515e+38
-0.010183869 0.032813359 0.25 -1.7075671e+38
-0.0092993444 0.032550853 0.24800001 -1.7075156e+38
-0.0084620304 0.0324196 0.24700001 -1.7075156e+38
-0.0080621224 0.0324196 0.24700001 -1.7075156e+38
-0.0076622143 0.0324196 0.24700001 -1.7076199e+38
-0.006834615 0.03228835 0.24600001 -1.7075688e+38
-0.0064363265 0.03228835 0.24600001 -1.7076209e+38
-0.0056168227 0.032157093 0.245 -1.7076209e+38
-0.0051775393 0.031894587 0.24300002 -1.7074645e+38
-0.004372607 0.031763334 0.24200001 -1.7075688e+38
-0.0035741513 0.031632081 0.24100001 -1.7074645e+38
-0.0031707464 0.031500828 0.24000001 -1.7074124e+38
-0.0027821716 0.031500828 0.24000001 -1.7073603e+38
-0.0020050225 0.031500828 0.24000001 -1.707256e+38
-0.0016164479 0.031500828 0.24000001 -1.7072035e+38
-0.0012278734 0.031500828 0.24000001 -1.7070471e+38
-0.00045072421 0.031500828 0.24000001 -1.7068386e+38
-6.2149637e-05 0.031500828 0.24000001 -1.706682e+38
0.00032642495 0.031500828 0.24000001 -1.7066299e+38
0.00071797869 0.031632081 0.24100001 -1.7064212e+38
0.0011081723 0.031632081 0.24100001 -1.7063691e+38
0.0018885597 0.031632081 0.24100001 -1.7062127e+38
0.0022882088 0.031763334 0.24200001 -1.7061597e+38
0.0026800216 0.031763334 0.24200001 -1.7062119e+38
0.0030845276 0.031894587 0.24300002 -1.7060553e+38
0.0035065843 0.032157093 0.245 -1.7060553e+38
0.0039191861 0.03228835 0.24600001 -1.7591723e+38
0.0043350258 0.0324196 0.24700001 -1.7591723e+38
0.0047349338 0.0324196 0.24700001 -1.7458279e+38
0.0051556304 0.032550853 0.24800001 -1.7191391e+38
0.0055795657 0.03268211 0.24900001 -1.7058987e+38
0.0060067386 0.032813359 0.25 -1.7058987e+38
0.006411504 0.032813359 0.25 -1.7192952e+38
0.0068435343 0.032944616 0.25100002 -1.7058987e+38
0.0072788023 0.033075865 0.252 -1.7191902e+38
0.0077173091 0.033207122 0.25300002 -1.745879e+38
0.0081590535 0.033338375 0.25400001 -1.7857039e+38
0.0086377775 0.033600882 0.25600001 -1.7857039e+38
0.0090522571 0.033600882 0.25600001 -1.7987877e+38
0.0098812161 0.033600882 0.25600001 -1.7854433e+38
0.010335913 0.033732135 0.257 -1.7854433e+38
0.010710175 0.033600882 0.25600001 -1.8385075e+38
0.017418982 0.036357202 0.27700001 -2.077194e+38
-0.012451848 0.033882488 0.25500003 -1.7075671e+38
-0.011534942 0.033616744 0.25300002 -1.7075671e+38
-0.010673343 0.03348387 0.252 -1.707515e+38
-0.010183869 0.033218127 0.25 -1.707515e+38
-0.0092993444 0.032952383 0.24800001 -1.7075156e+38
-0.0084620304 0.03281951 0.24700001 -1.7075156e+38
-0.0080621224 0.03281951 0.24700001 -1.7075156e+38
-0.0076622143 0.03281951 0.24700001 -1.7076199e+38
-0.0068623987 0.03281951 0.24700001 -1.7076203e+38
-0.0064363265 0.032686636 0.24600001 -1.7076724e+38
-0.0056168227 0.032553762 0.245 -1.7076203e+38
-0.0051775393 0.032288019 0.24300002 -1.707516e+38
-0.004372607 0.032155145 0.24200001 -1.7075688e+38
-0.0035741513 0.032022271 0.24100001 -1.7074645e+38
-0.0031839577 0.032022271 0.24100001 -1.7074124e+38
-0.002793764 0.032022271 0.24100001 -1.7074124e+38
-0.0024035703 0.032022271 0.24100001 -1.7073081e+38
-0.0016231831 0.032022271 0.24100001 -1.7072035e+38
-0.0012329895 0.032022271 0.24100001 -1.7070992e+38
-0.00084279582 0.032022271 0.24100001 -1.7068907e+38
-6.2408595e-05 0.032022271 0.24100001 -1.706682e+38
0.00032642495 0.031889401 0.24000001 -1.7066299e+38
0.00071797869 0.032022271 0.24100001 -1.7064212e+38
0.0011081723 0.032022271 0.24100001 -1.7064212e+38
0.0018885597 0.032022271 0.24100001 -1.7062648e+38
0.0022882088 0.032155145 0.24200001 -1.7062119e+38
0.0026800216 0.032155145 0.24200001 -1.7062119e+38
0.0030845276 0.032288019 0.24300002 -1.7193997e+38
0.0035065843 0.032553762 0.245 -1.7060553e+38
0.0039191861 0.032686636 0.24600001 -1.7591723e+38
0.0043350258 0.03281951 0.24700001 -1.7591723e+38
0.0047541037 0.032952383 0.24800001 -1.7591723e+38
0.0051556304 0.032952383 0.24800001 -1.7458279e+38
0.0055795657 0.033085257 0.24900001 -1.7192952e+38
0.0059827119 0.033085257 0.24900001 -1.7058987e+38
0.006411504 0.033218127 0.25 -1.7192952e+38
0.0068435343 0.033351 0.25100002 -1.7058987e+38
0.0072788023 0.03348387 0.252 -1.7191902e+38
0.0077173091 0.033616744 0.25300002 -1.745879e+38
0.0081911758 0.033882488 0.25500003 -1.7857035e+38
-0.025820171 0.037523147 0.27900001 -2.4383263e+38
-0.025368454 0.037523147 0.27900001 -2.133127e+38
-0.024465019 0.037523147 0.27900001 -2.0668745e+38
-0.02409937 0.037657637 0.28 -2.0401857e+38
-0.023646032 0.037657637 0.28 -1.9738293e+38
-0.01944904 0.035774756 0.266 -1.8538865e+38
-0.019018371 0.035774756 0.266 -1.8406461e+38
-0.018587699 0.035774756 0.266 -1.8273017e+38
-0.017659718 0.035640266 0.26500002 -1.8006129e+38
-0.015104648 0.034698822 0.25800002 -1.7209637e+38
-0.014269212 0.034698822 0.25800002 -1.7343081e+38
-0.013797807 0.034564335 0.257 -1.7343081e+38
-0.012915159 0.034429841 0.25600001 -1.7343081e+38
0.0086377775 0.034429841 0.25600001 -1.7857035e+38
0.0090876175 0.034564335 0.257 -1.7987877e+38
0.0095037157 0.034564335 0.257 -1.7987877e+38
0.010376131 0.034698822 0.25800002 -1.8119755e+38
0.010835685 0.034833316 0.259 -1.811923e+38
0.01116811 0.034564335 0.257 -1.811923e+38
0.01572538 0.036447216 0.27100003 -2.0241816e+38
-0.024827428 0.037838753 0.27800003 -2.1865046e+38
-0.024377329 0.037838753 0.27800003 -2.1334403e+38
-0.024013299 0.037974864 0.27900001 -2.0934071e+38
-0.023646032 0.038110975 0.28 -1.9738293e+38
-0.022495722 0.037702642 0.27700001 -1.9604334e+38
-0.019018371 0.036205426 0.266 -1.8406461e+38
-0.018587699 0.036205426 0.266 -1.8406461e+38
-0.017659718 0.036069315 0.26500002 -1.7874247e+38
-0.017165646 0.035933204 0.264 -1.7740803e+38
-0.015163192 0.035252653 0.259 -1.7209637e+38
-0.014269212 0.035116542 0.25800002 -1.7343081e+38
-0.013851495 0.035116542 0.25800002 -1.7343081e+38
-0.013381707 0.034980431 0.257 -1.7343081e+38
-0.012451848 0.034708209 0.25500003 -1.7209637e+38
-0.011580535 0.034572098 0.25400001 -1.7209637e+38
-0.0093368413 0.033891547 0.24900001 -1.7074635e+38
-0.0088978168 0.033755437 0.24800001 -1.7074635e+38
-0.0080621224 0.033619326 0.24700001 -1.7075156e+38
-0.0076622143 0.033619326 0.24700001 -1.7076199e+38
-0.0068623987 0.033619326 0.24700001 -1.7076203e+38
-0.0064363265 0.033483215 0.24600001 -1.7076203e+38
-0.0056168227 0.033347104 0.245 -1.7076724e+38
-0.0051988461 0.033210993 0.24400002 -1.707516e+38
-0.004372607 0.032938771 0.24200001 -1.7076203e+38
-0.0035741513 0.03280266 0.24100001 -1.7076203e+38
-0.0031839577 0.03280266 0.24100001 -1.7074639e+38
-0.002793764 0.03280266 0.24100001 -1.7074639e+38
-0.0024035703 0.03280266 0.24100001 -1.7073597e+38
-0.0016231831 0.03280266 0.24100001 -1.7072035e+38
-0.0012329895 0.03280266 0.24100001 -1.7070992e+38
-0.00084279582 0.03280266 0.24100001 -1.7069431e+38
-6.2408595e-05 0.03280266 0.24100001 -1.7066824e+38
0.00032778503 0.03280266 0.24100001 -1.7066303e+38
0.00071797869 0.03280266 0.24100001 -1.7064733e+38
0.0011081723 0.03280266 0.24100001 -1.7064733e+38
0.0018885597 0.03280266 0.24100001 -1.706421e+38
0.0022882088 0.032938771 0.24200001 -1.7063687e+38
0.0026910957 0.033074882 0.24300002 -1.7063165e+38
0.003097221 0.033210993 0.24400002 -1.7326926e+38
0.0035065843 0.033347104 0.245 -1.7193482e+38
0.0039191861 0.033483215 0.24600001 -1.7459845e+38
0.0043350258 0.033619326 0.24700001 -1.7326401e+38
0.0047541037 0.033755437 0.24800001 -1.7459841e+38
0.0051556304 0.033755437 0.24800001 -1.7326396e+38
0.0055795657 0.033891547 0.24900001 -1.7192956e+38
0.0059827119 0.033891547 0.24900001 -1.7326401e+38
0.006411504 0.034027655 0.25 -1.7192952e+38
0.0068435343 0.034163769 0.25100002 -1.7192952e+38
0.0072788023 0.034299877 0.252 -1.7458275e+38
0.0077173091 0.034435987 0.25300002 -1.7191387e+38
0.0081911758 0.034708209 0.25500003 -1.7857039e+38
0.0086377775 0.03484432 0.25600001 -1.7857039e+38
0.0090876175 0.034980431 0.257 -1.7987877e+38
0.0095406957 0.035116542 0.25800002 -1.7854433e+38
0.010376131 0.035116542 0.25800002 -1.8119755e+38
0.010835685 0.035252653 0.259 -1.8385075e+38
0.011211567 0.035116542 0.25800002 -1.8518519e+38
0.01572538 0.036885981 0.27100003 -2.0108372e+38
0.016223792 0.037022088 0.27200001 -2.0108372e+38
-0.024827428 0.038288854 0.27800003 -2.2263823e+38
-0.024377329 0.038288854 0.27800003 -2.1467852e+38
-0.02392723 0.038288854 0.27800003 -2.0934075e+38
-0.023477132 0.038288854 0.27800003 -1.9871737e+38
-0.022576934 0.038288854 0.27800003 -1.9737778e+38
-0.018587699 0.036636095 0.266 -1.8672313e+38
-0.017659718 0.036498368 0.26500002 -1.8139573e+38
-0.017165646 0.036360636 0.264 -1.7874247e+38
-0.015163192 0.03567199 0.259 -1.7343077e+38
-0.014269212 0.035534259 0.25800002 -1.7343081e+38
-0.013851495 0.035534259 0.25800002 -1.7343081e+38
-0.013381707 0.035396531 0.257 -1.7209637e+38
-0.012500679 0.0352588 0.25600001 -1.707672e+38
-0.011580535 0.034983341 0.25400001 -1.7076199e+38
-0.01112532 0.034845609 0.25300002 -1.7075156e+38
-0.0093368413 0.034294695 0.24900001 -1.7074635e+38
-0.0088978168 0.034156963 0.24800001 -1.7074635e+38
-0.0080621224 0.034019232 0.24700001 -1.7075156e+38
-0.0076622143 0.034019232 0.24700001 -1.7075156e+38
-0.006834615 0.033881504 0.24600001 -1.7076203e+38
-0.0064363265 0.033881504 0.24600001 -1.7076203e+38
-0.0056168227 0.033743773 0.245 -1.7076203e+38
-0.0051988461 0.033606041 0.24400002 -1.7076203e+38
-0.0043906756 0.033468314 0.24300002 -1.7076203e+38
-0.0039807945 0.033330586 0.24200001 -1.7076203e+38
-0.0031839577 0.033192854 0.24100001 -1.7074639e+38
-0.002793764 0.033192854 0.24100001 -1.7074118e+38
-0.0024035703 0.033192854 0.24100001 -1.7073597e+38
-0.0016231831 0.033192854 0.24100001 -1.7072035e+38
-0.0012329895 0.033192854 0.24100001 -1.7070992e+38
-0.00084279582 0.033192854 0.24100001 -1.7068911e+38
-6.2408595e-05 0.033192854 0.24100001 -1.7066824e+38
0.00032778503 0.033192854 0.24100001 -1.7066303e+38
0.00071797869 0.033192854 0.24100001 -1.7064733e+38
0.0011081723 0.033192854 0.24100001 -1.7064733e+38
0.0015045833 0.033330586 0.24200001 -1.7065252e+38
0.0019042323 0.033468314 0.24300002 -1.706421e+38
0.0026910957 0.033468314 0.24300002 -1.7063169e+38
0.003097221 0.033606041 0.24400002 -1.7592778e+38
0.0035065843 0.033743773 0.245 -1.7459333e+38
0.0039191861 0.033881504 0.24600001 -1.7459845e+38
0.0043350258 0.034019232 0.24700001 -1.7593289e+38
0.0047541037 0.034156963 0.24800001 -1.7725167e+38
0.0051556304 0.034156963 0.24800001 -1.7591723e+38
0.0055795657 0.034294695 0.24900001 -1.7192956e+38
0.0059827119 0.034294695 0.24900001 -1.7192956e+38
0.006411504 0.034432422 0.25 -1.7192952e+38
0.0068435343 0.03457015 0.25100002 -1.7192952e+38
0.0072788023 0.034707878 0.252 -1.7191387e+38
0.0077173091 0.034845609 0.25300002 -1.7191387e+38
0.0081911758 0.035121068 0.25500003 -1.7590151e+38
0.0086377775 0.0352588 0.25600001 -1.7590151e+38
0.009122978 0.035534259 0.25800002 -1.7987877e+38
0.0095406957 0.035534259 0.25800002 -1.7854433e+38
0.0099970112 0.03567199 0.259 -1.8253199e+38
0.010835685 0.03567199 0.259 -1.8518519e+38
0.011255022 0.03567199 0.259 -1.8518519e+38
0.011629284 0.035534259 0.25800002 -1.8782801e+38
0.015173797 0.037049286 0.26900002 -1.9444282e+38
0.01572538 0.037324745 0.27100003 -2.0106807e+38
0.016223792 0.037462473 0.27200001 -1.9973362e+38
-0.017659718 0.036927417 0.26500002 -1.8273021e+38
-0.017165646 0.036788069 0.264 -1.8007691e+38
-0.014269212 0.035951976 0.25800002 -1.7343081e+38
-0.013851495 0.035951976 0.25800002 -1.7209637e+38
-0.013433777 0.035951976 0.25800002 -1.7209122e+38
-0.01254951 0.035812628 0.257 -1.7076199e+38
-0.0120862 0.035673279 0.25600001 -1.7076199e+38
-0.011169294 0.035394583 0.25400001 -1.7075156e+38
-0.0088978168 0.03455849 0.24800001 -1.7074635e+38
-0.0080621224 0.034419138 0.24700001 -1.7075156e+38
-0.0076622143 0.034419138 0.24700001 -1.7075156e+38
-0.006834615 0.034279794 0.24600001 -1.7076199e+38
-0.0064363265 0.034279794 0.24600001 -1.7076203e+38
-0.0056168227 0.034140442 0.245 -1.7076203e+38
-0.0051988461 0.034001093 0.24400002 -1.7076203e+38
-0.0043906756 0.033861745 0.24300002 -1.7076203e+38
-0.0039807945 0.033722397 0.24200001 -1.7076203e+38
-0.0031971692 0.033722397 0.24200001 -1.707516e+38
-0.002793764 0.033583045 0.24100001 -1.7074639e+38
-0.0024035703 0.033583045 0.24100001 -1.7073597e+38
-0.0016231831 0.033583045 0.24100001 -1.7072035e+38
-0.0012329895 0.033583045 0.24100001 -1.7070471e+38
-0.00084279582 0.033583045 0.24100001 -1.7068911e+38
-6.2408595e-05 0.033583045 0.24100001 -1.7067345e+38
0.00032778503 0.033583045 0.24100001 -1.7066824e+38
0.00071797869 0.033583045 0.24100001 -1.7066295e+38
0.0011127705 0.033722397 0.24200001 -1.7065252e+38
0.0015108004 0.033861745 0.24300002 -1.7065252e+38
0.0019042323 0.033861745 0.24300002 -1.7065252e+38
0.0026910957 0.033861745 0.24300002 -1.7063169e+38
0.003097221 0.034001093 0.24400002 -1.7593818e+38
0.0039191861 0.034279794 0.24600001 -1.7459845e+38
0.0043350258 0.034419138 0.24700001 -1.7459845e+38
0.0047541037 0.03455849 0.24800001 -1.7326396e+38
0.0051556304 0.03455849 0.24800001 -1.7326396e+38
0.0055795657 0.034697838 0.24900001 -1.7192956e+38
0.0060067386 0.034837186 0.25 -1.7326401e+38
0.006411504 0.034837186 0.25 -1.7192956e+38
0.0068435343 0.034976535 0.25100002 -1.7192956e+38
0.0072788023 0.035115883 0.252 -1.7191387e+38
0.0077478122 0.035394583 0.25400001 -1.7191387e+38
0.008223298 0.035673279 0.25600001 -1.7590151e+38
0.0086715184 0.035812628 0.257 -1.7590151e+38
0.009122978 0.035951976 0.25800002 -1.7987877e+38
0.0095776748 0.036091324 0.259 -1.7854433e+38
0.0099970112 0.036091324 0.259 -1.8119755e+38
0.010835685 0.036091324 0.259 -1.8518519e+38
0.011255022 0.036091324 0.259 -1.8518519e+38
0.011629284 0.035951976 0.25800002 -1.8782801e+38
0.012093695 0.036091324 0.259 -1.8649357e+38
0.01473827 0.037484813 0.26900002 -1.9444282e+38
-0.024738122 0.039048079 0.27700001 -2.3592527e+38
-0.024289642 0.039048079 0.27700001 -2.160078e+38
-0.023841161 0.039048079 0.27700001 -2.1200448e+38
-0.022944201 0.039048079 0.27700001 -2.0137064e+38
-0.022495722 0.039048079 0.27700001 -1.9737778e+38
-0.021967649 0.038907114 0.27600002 -1.9737778e+38
-0.007232904 0.034678083 0.24600001 -1.7076203e+38
-0.006834615 0.034678083 0.24600001 -1.7076203e+38
-0.0064363265 0.034678083 0.24600001 -1.7076203e+38
-0.0056168227 0.034537114 0.245 -1.7076203e+38
-0.0051988461 0.034396145 0.24400002 -1.7076203e+38
-0.0043906756 0.034255177 0.24300002 -1.7076203e+38
-0.0039972439 0.034255177 0.24300002 -1.7076203e+38
-0.0031971692 0.034114208 0.24200001 -1.7074645e+38
-0.0028053564 0.034114208 0.24200001 -1.7074124e+38
-0.0024035703 0.033973239 0.24100001 -1.7073081e+38
-0.0016231831 0.033973239 0.24100001 -1.7072035e+38
-0.0012329895 0.033973239 0.24100001 -1.7070471e+38
-0.00084279582 0.033973239 0.24100001 -1.7068911e+38
-6.2408595e-05 0.033973239 0.24100001 -1.7067345e+38
0.00032778503 0.033973239 0.24100001 -1.7066824e+38
0.00071797869 0.033973239 0.24100001 -1.7066295e+38
0.0011173687 0.034255177 0.24300002 -1.7066295e+38
0.0015108004 0.034255177 0.24300002 -1.7065772e+38
0.0019120687 0.034396145 0.24400002 -1.7065772e+38
0.0023071195 0.034396145 0.24400002 -1.7065248e+38
0.0027132449 0.034537114 0.245 -1.7064206e+38
0.0031226082 0.034678083 0.24600001 -1.7593818e+38
0.015230206 0.03806131 0.27000001 -1.944272e+38
0.01572538 0.038202278 0.27100003 -1.9708036e+38
0.016223792 0.038343243 0.27200001 -1.9574592e+38
-0.024648815 0.039353978 0.27600002 -2.5052585e+38
-0.024201954 0.039353978 0.27600002 -2.173474e+38
-0.023308232 0.039353978 0.27600002 -2.067084e+38
-0.022944201 0.03949656 0.27700001 -2.0270508e+38
-0.022495722 0.03949656 0.27700001 -1.9738299e+38
-0.021967649 0.039353978 0.27600002 -1.9738299e+38
-0.021073928 0.039353978 0.27600002 -1.9206085e+38
-0.014743855 0.036929999 0.259 -1.747548e+38
-0.013851495 0.036787409 0.25800002 -1.734204e+38
-0.013433777 0.036787409 0.25800002 -1.734204e+38
-0.01254951 0.036644828 0.257 -1.7076199e+38
-0.012133412 0.036644828 0.257 -1.7076199e+38
-0.011213267 0.036359649 0.25500003 -1.7075156e+38
-0.010758053 0.036217064 0.25400001 -1.7076203e+38
-0.0088978168 0.035361543 0.24800001 -1.707516e+38
-0.0080621224 0.035218954 0.24700001 -1.7076203e+38
0.0035352097 0.035218954 0.24700001 -1.7195048e+38
0.0043350258 0.035218954 0.24700001 -1.7726733e+38
0.0047541037 0.035361543 0.24800001 -1.7459845e+38
0.0051556304 0.035361543 0.24800001 -1.7326401e+38
0.0055795657 0.035504133 0.24900001 -1.7192956e+38
0.0060067386 0.035646718 0.25 -1.7192956e+38
0.006411504 0.035646718 0.25 -1.7058991e+38
0.0068435343 0.035789303 0.25100002 -1.7192956e+38
0.0072788023 0.035931889 0.252 -1.7458279e+38
0.0091583384 0.036929999 0.259 -1.7854437e+38
0.0096146548 0.037072588 0.26000002 -1.7854437e+38
0.010035611 0.037072588 0.26000002 -1.8119759e+38
0.010456567 0.037072588 0.26000002 -1.7986315e+38
0.011298478 0.037072588 0.26000002 -1.838456e+38
0.011719434 0.037072588 0.26000002 -1.8782801e+38
0.013815666 0.038213283 0.26800001 -1.878071e+38
0.01473827 0.038355865 0.26900002 -1.944272e+38
0.015230206 0.038498454 0.27000001 -1.9309276e+38
0.015667353 0.038498454 0.27000001 -1.9839918e+38
0.016164145 0.038641043 0.27100003 -1.9839918e+38
-0.024114266 0.039656628 0.27500001 -2.2530711e+38
-0.023223782 0.039656628 0.27500001 -2.0804284e+38
-0.022778541 0.039656628 0.27500001 -2.0537396e+38
-0.022414511 0.039800838 0.27600002 -1.9871744e+38
-0.021967649 0.039800838 0.27600002 -1.9738299e+38
-0.021073928 0.039800838 0.27600002 -1.9073685e+38
-0.020552332 0.039656628 0.27500001 -1.8940241e+38
-0.014743855 0.037349336 0.259 -1.747548e+38
-0.013851495 0.03720513 0.25800002 -1.7342036e+38
-0.013433777 0.03720513 0.25800002 -1.734204e+38
-0.012598341 0.03720513 0.25800002 -1.7076199e+38
-0.012133412 0.037060924 0.257 -1.7076199e+38
-0.011257241 0.036916718 0.25600001 -1.7076199e+38
-0.010800406 0.036772512 0.25500003 -1.7076203e+38
-0.0080621224 0.035618864 0.24700001 -1.7076203e+38
-0.007232904 0.035474658 0.24600001 -1.7076203e+38
-0.006834615 0.035474658 0.24600001 -1.7076203e+38
-0.0064363265 0.035474658 0.24600001 -1.7076203e+38
-0.0056168227 0.035330452 0.245 -1.7076203e+38
-0.0052201529 0.035330452 0.245 -1.7076203e+38
-0.0048037954 0.035186246 0.24400002 -1.7075688e+38
-0.0039972439 0.03504204 0.24300002 -1.7075688e+38
-0.0031971692 0.034897834 0.24200001 -1.7074124e+38
-0.0028053564 0.034897834 0.24200001 -1.7074124e+38
-0.0024135436 0.034897834 0.24200001 -1.7073081e+38
-0.0020217309 0.034897834 0.24200001 -1.7073081e+38
-0.0012381057 0.034897834 0.24200001 -1.7069956e+38
-0.00084629294 0.034897834 0.24200001 -1.7068911e+38
-0.00045448027 0.034897834 0.24200001 -1.706839e+38
0.00032914514 0.034897834 0.24200001 -1.7066824e+38
0.00072095788 0.034897834 0.24200001 -1.7066295e+38
0.0011173687 0.03504204 0.24300002 -1.7066295e+38
0.0015108004 0.03504204 0.24300002 -1.7065252e+38
0.0019120687 0.035186246 0.24400002 -1.7065252e+38
0.002316575 0.035330452 0.245 -1.7330575e+38
0.0027132449 0.035330452 0.245 -1.7063687e+38
0.0031226082 0.035474658 0.24600001 -1.7063165e+38
0.0035352097 0.035618864 0.24700001 -1.7062644e+38
0.0039510494 0.03576307 0.24800001 -1.7593814e+38
0.0047541037 0.03576307 0.24800001 -1.7327441e+38
0.0051764194 0.035907276 0.24900001 -1.7193997e+38
0.0055795657 0.035907276 0.24900001 -1.7060553e+38
0.0060067386 0.036051482 0.25 -1.7060553e+38
0.006411504 0.036051482 0.25 -1.7060553e+38
0.0068435343 0.036195688 0.25100002 -1.7060553e+38
0.0072788023 0.036339894 0.252 -1.7192952e+38
0.0083196647 0.037349336 0.259 -1.7324825e+38
0.0087727429 0.037493542 0.26000002 -1.7191381e+38
0.0096146548 0.037493542 0.26000002 -1.7854437e+38
0.010035611 0.037493542 0.26000002 -1.8119763e+38
0.010456567 0.037493542 0.26000002 -1.7986319e+38
0.011298478 0.037493542 0.26000002 -1.838456e+38
0.011764508 0.037637748 0.26100001 -1.8516958e+38
0.012899536 0.038502984 0.26700002 -1.8516428e+38
0.013381757 0.03864719 0.26800001 -1.8382984e+38
0.013867216 0.038791392 0.26900002 -1.878071e+38
0.01473827 0.038791392 0.26900002 -1.9442195e+38
0.015230206 0.038935602 0.27000001 -1.9442195e+38
0.015667353 0.038935602 0.27000001 -2.0370563e+38
0.016164145 0.039079808 0.27100003 -2.0370563e+38
-0.023582954 0.039956048 0.27400002 -2.3990253e+38
-0.023139331 0.039956048 0.27400002 -2.1069606e+38
-0.022695709 0.039956048 0.27400002 -2.0936162e+38
-0.022252087 0.039956048 0.27400002 -1.9871744e+38
-0.021442816 0.040101871 0.27500001 -1.9073685e+38
-0.020997573 0.040101871 0.27500001 -1.9073685e+38
-0.020552332 0.040101871 0.27500001 -1.8674915e+38
-0.019447355 0.039664395 0.27200001 -1.8009261e+38
-0.014800781 0.0379145 0.26000002 -1.747548e+38
-0.013905182 0.037768673 0.259 -1.7342036e+38
-0.013433777 0.037622847 0.25800002 -1.734204e+38
-0.01254951 0.037477024 0.257 -1.7209637e+38
-0.012133412 0.037477024 0.257 -1.7209637e+38
-0.011257241 0.037331197 0.25600001 -1.7076199e+38
-0.010800406 0.037185371 0.25500003 -1.7076199e+38
-0.0080621224 0.03601877 0.24700001 -1.7076724e+38
-0.007232904 0.035872947 0.24600001 -1.7076203e+38
-0.006834615 0.035872947 0.24600001 -1.707516e+38
-0.0064363265 0.035872947 0.24600001 -1.7076203e+38
-0.0056168227 0.035727121 0.245 -1.7076203e+38
-0.0052201529 0.035727121 0.245 -1.7076203e+38
-0.0048037954 0.035581298 0.24400002 -1.7075688e+38
-0.0039972439 0.035435472 0.24300002 -1.7075688e+38
-0.0031971692 0.035289649 0.24200001 -1.7074124e+38
-0.0028053564 0.035289649 0.24200001 -1.7074124e+38
-0.0024135436 0.035289649 0.24200001 -1.7073603e+38
-0.0020217309 0.035289649 0.24200001 -1.7073081e+38
-0.0012381057 0.035289649 0.24200001 -1.7069956e+38
-0.00084629294 0.035289649 0.24200001 -1.7068911e+38
-0.00045448027 0.035289649 0.24200001 -1.706839e+38
0.00032914514 0.035289649 0.24200001 -1.7066824e+38
0.000723937 0.035435472 0.24300002 -1.7066816e+38
0.001121967 0.035581298 0.24400002 -1.7066816e+38
0.0015170178 0.035581298 0.24400002 -1.7065774e+38
0.0019120687 0.035581298 0.24400002 -1.7065252e+38
0.002316575 0.035727121 0.245 -1.7330575e+38
0.0027132449 0.035727121 0.245 -1.7330575e+38
0.0031226082 0.035872947 0.24600001 -1.7196609e+38
0.0035352097 0.03601877 0.24700001 -1.7063165e+38
0.0039510494 0.036164597 0.24800001 -1.7328488e+38
0.0047541037 0.036164597 0.24800001 -1.7061599e+38
0.0051764194 0.036310423 0.24900001 -1.7061078e+38
0.0055795657 0.036310423 0.24900001 -1.7060557e+38
0.0060067386 0.036456246 0.25 -1.7060557e+38
0.0064371498 0.036602072 0.25100002 -1.7060553e+38
0.0068435343 0.036602072 0.25100002 -1.7060553e+38
0.0073076868 0.036893722 0.25300002 -1.7192952e+38
0.0083196647 0.037768673 0.259 -1.7324825e+38
0.0087727429 0.0379145 0.26000002 -1.7191381e+38
0.0096146548 0.0379145 0.26000002 -1.7722033e+38
0.010035611 0.0379145 0.26000002 -1.7854433e+38
0.010456567 0.0379145 0.26000002 -1.7854433e+38
0.010919359 0.038060322 0.26100001 -1.8518004e+38
0.01138539 0.038206149 0.26200002 -1.838456e+38
0.012899536 0.03893527 0.26700002 -1.8250066e+38
0.013381757 0.039081097 0.26800001 -1.7983177e+38
0.013867216 0.039226919 0.26900002 -1.878071e+38
0.01473827 0.039226919 0.26900002 -1.9708036e+38
0.015230206 0.039372746 0.27000001 -1.9708036e+38
0.015667353 0.039372746 0.27000001 -2.0901206e+38
0.016104499 0.039372746 0.27000001 -2.103465e+38
-0.013905182 0.03818801 0.259 -1.747548e+38
-0.013433777 0.038040563 0.25800002 -1.7209633e+38
-0.01254951 0.03789312 0.257 -1.7209637e+38
-0.012133412 0.03789312 0.257 -1.7209637e+38
-0.011717314 0.03789312 0.257 -1.7076199e+38
-0.010800406 0.03759823 0.25500003 -1.707672e+38
-0.0099355699 0.03745079 0.25400001 -1.7076724e+38
-0.0076622143 0.03641868 0.24700001 -1.7076203e+38
-0.006834615 0.036271237 0.24600001 -1.7076203e+38
-0.0064363265 0.036271237 0.24600001 -1.7076203e+38
-0.0056168227 0.036123794 0.245 -1.7076724e+38
-0.0052201529 0.036123794 0.245 -1.7076203e+38
-0.0048037954 0.035976347 0.24400002 -1.7075688e+38
-0.0039972439 0.035828903 0.24300002 -1.7075688e+38
-0.0036038123 0.035828903 0.24300002 -1.7074645e+38
-0.0028053564 0.03568146 0.24200001 -1.7074124e+38
-0.0024135436 0.03568146 0.24200001 -1.7073603e+38
-0.0020217309 0.03568146 0.24200001 -1.7073081e+38
-0.0012381057 0.03568146 0.24200001 -1.7070477e+38
-0.00084629294 0.03568146 0.24200001 -1.7068911e+38
-0.00045448027 0.03568146 0.24200001 -1.706839e+38
-6.2926512e-05 0.035828903 0.24300002 -1.7067345e+38
0.000723937 0.035828903 0.24300002 -1.7066295e+38
0.001121967 0.035976347 0.24400002 -1.7066816e+38
0.0015232351 0.036123794 0.245 -1.7065774e+38
0.0019120687 0.035976347 0.24400002 -1.7065252e+38
0.002316575 0.036123794 0.245 -1.7065248e+38
0.0027243192 0.036271237 0.24600001 -1.7065248e+38
0.0031353016 0.03641868 0.24700001 -1.7196609e+38
0.0035352097 0.03641868 0.24700001 -1.7063165e+38
0.0039510494 0.036566123 0.24800001 -1.7196605e+38
0.0047541037 0.036566123 0.24800001 -1.7062119e+38
0.0051764194 0.03671357 0.24900001 -1.7061597e+38
0.0056019737 0.036861014 0.25 -1.706108e+38
0.0060067386 0.036861014 0.25 -1.706108e+38
0.0064371498 0.037008457 0.25100002 -1.7060557e+38
0.0068707988 0.0371559 0.252 -1.7060557e+38
0.0073076868 0.037303343 0.25300002 -1.7060553e+38
0.0083196647 0.03818801 0.259 -1.7591198e+38
-0.023054881 0.040694229 0.273 -2.2395184e+38
-0.022612877 0.040694229 0.273 -2.292896e+38
-0.021728871 0.040694229 0.273 -2.0004666e+38
-0.021286868 0.040694229 0.273 -1.9472973e+38
-0.020844864 0.040694229 0.273 -1.9339529e+38
-0.019960856 0.040694229 0.273 -1.920713e+38
-0.019518852 0.040694229 0.273 -1.8409589e+38
-0.018498328 0.040396105 0.27100003 -1.8543033e+38
0.0087727429 0.038756412 0.26000002 -1.7191391e+38
0.0096146548 0.038756412 0.26000002 -1.7456707e+38
0.010035611 0.038756412 0.26000002 -1.7854433e+38
0.010456567 0.038756412 0.26000002 -1.7854433e+38
0.010919359 0.038905472 0.26100001 -1.8252159e+38
0.01138539 0.039054535 0.26200002 -1.8118715e+38
0.011899733 0.039352659 0.264 -1.8251631e+38
0.012373858 0.039501727 0.26500002 -1.8118187e+38
0.012899536 0.03979985 0.26700002 -1.7983177e+38
0.013381757 0.039948914 0.26800001 -1.7983177e+38
0.013867216 0.040097974 0.26900002 -1.8779668e+38
0.01473827 0.040097974 0.26900002 -2.0106281e+38
0.015173797 0.040097974 0.26900002 -1.9972837e+38
-0.022970431 0.040985551 0.27200001 -2.7189777e+38
-0.022089662 0.040985551 0.27200001 -2.080428e+38
-0.021649277 0.040985551 0.27200001 -2.0537392e+38
-0.021208894 0.040985551 0.27200001 -1.9871744e+38
-0.020844864 0.041136231 0.273 -1.9871744e+38
-0.01988774 0.040985551 0.27200001 -1.920713e+38
-0.019447355 0.040985551 0.27200001 -1.8808359e+38
-0.018498328 0.04083487 0.27100003 -1.8808359e+38
-0.017992921 0.040684186 0.27000001 -1.8541471e+38
-0.014379825 0.039177366 0.26000002 -1.7608924e+38
-0.013485845 0.039026681 0.259 -1.747548e+38
-0.012598341 0.038876001 0.25800002 -1.7209637e+38
-0.012133412 0.03872532 0.257 -1.7209637e+38
-0.011717314 0.03872532 0.257 -1.7075156e+38
-0.010842761 0.038574636 0.25600001 -1.7076199e+38
-0.0099355699 0.038273271 0.25400001 -1.7076203e+38
-0.006834615 0.037067816 0.24600001 -1.7076722e+38
-0.0064363265 0.037067816 0.24600001 -1.7076722e+38
-0.0056168227 0.036917131 0.245 -1.7076722e+38
-0.0052201529 0.036917131 0.245 -1.7076722e+38
-0.0048037954 0.036766447 0.24400002 -1.7076207e+38
-0.0039972439 0.03661577 0.24300002 -1.7076207e+38
-0.0036038123 0.03661577 0.24300002 -1.7076207e+38
-0.0028053564 0.036465086 0.24200001 -1.7075164e+38
-0.0024135436 0.036465086 0.24200001 -1.7073603e+38
-0.0020217309 0.036465086 0.24200001 -1.7073081e+38
-0.0012381057 0.036465086 0.24200001 -1.7070477e+38
-0.00084629294 0.036465086 0.24200001 -1.7069431e+38
-0.00045635828 0.03661577 0.24300002 -1.7068909e+38
-6.2926512e-05 0.03661577 0.24300002 -1.7067345e+38
0.000723937 0.03661577 0.24300002 -1.7066295e+38
0.001121967 0.036766447 0.24400002 -1.7066816e+38
0.0015170178 0.036766447 0.24400002 -1.7065774e+38
0.0019199051 0.036917131 0.245 -1.7065252e+38
0.002316575 0.036917131 0.245 -1.7198692e+38
0.0027243192 0.037067816 0.24600001 -1.7198692e+38
0.0031353016 0.037218496 0.24700001 -1.7063687e+38
0.0035352097 0.037218496 0.24700001 -1.7063687e+38
0.0039510494 0.03736918 0.24800001 -1.7063165e+38
0.0043701273 0.037519861 0.24900001 -1.7063165e+38
0.0051764194 0.037519861 0.24900001 -1.7062123e+38
0.0056019737 0.037670542 0.25 -1.7062123e+38
0.0060067386 0.037670542 0.25 -1.7061601e+38
0.0064371498 0.037821226 0.25100002 -1.7061078e+38
0.0068707988 0.037971906 0.252 -1.7060557e+38
0.0073076868 0.038122591 0.25300002 -1.7192956e+38
0.0083196647 0.039026681 0.259 -1.7458279e+38
0.0087727429 0.039177366 0.26000002 -1.7191391e+38
0.0096146548 0.039177366 0.26000002 -1.7324309e+38
0.010035611 0.039177366 0.26000002 -1.7854437e+38
0.010456567 0.039177366 0.26000002 -1.7720993e+38
0.010919359 0.039328046 0.26100001 -1.8252159e+38
0.01138539 0.03947873 0.26200002 -1.8118715e+38
0.011899733 0.039780091 0.264 -1.8251631e+38
0.012373858 0.039930776 0.26500002 -1.8118187e+38
0.012851222 0.040081456 0.266 -1.7983177e+38
0.013381757 0.040382821 0.26800001 -1.7983177e+38
0.013815666 0.040382821 0.26800001 -1.904499e+38
0.01473827 0.040533502 0.26900002 -2.0769329e+38
0.015173797 0.040533502 0.26900002 -2.0635885e+38
-0.022089662 0.041425932 0.27200001 -2.1864539e+38
-0.021649277 0.041425932 0.27200001 -2.2131427e+38
-0.021208894 0.041425932 0.27200001 -2.027207e+38
-0.020768508 0.041425932 0.27200001 -2.0005182e+38
-0.01988774 0.041425932 0.27200001 -1.9339529e+38
-0.019375859 0.041273635 0.27100003 -1.9073685e+38
-0.018498328 0.041273635 0.27100003 -1.9073685e+38
-0.017992921 0.041121334 0.27000001 -1.8806797e+38
-0.014379825 0.03959832 0.26000002 -1.747548e+38
-0.013485845 0.039446019 0.259 -1.747548e+38
-0.012598341 0.039293718 0.25800002 -1.7209633e+38
-0.012133412 0.039141417 0.257 -1.7209633e+38
-0.011717314 0.039141417 0.257 -1.7075671e+38
-0.010842761 0.038989116 0.25600001 -1.7076199e+38
-0.010387546 0.038836814 0.25500003 -1.7076199e+38
-0.0068623987 0.037618402 0.24700001 -1.7076722e+38
-0.0064363265 0.037466105 0.24600001 -1.7076722e+38
-0.0056168227 0.0373138 0.245 -1.7076722e+38
-0.0052201529 0.0373138 0.245 -1.7076722e+38
-0.0048037954 0.037161499 0.24400002 -1.7076722e+38
-0.0039972439 0.037009202 0.24300002 -1.7076722e+38
-0.0036038123 0.037009202 0.24300002 -1.7076722e+38
-0.0028169488 0.037009202 0.24300002 -1.7075158e+38
-0.0024235172 0.037009202 0.24300002 -1.7074118e+38
-0.0020300853 0.037009202 0.24300002 -1.7073597e+38
-0.0016366536 0.037009202 0.24300002 -1.7072554e+38
-0.00084979011 0.037009202 0.24300002 -1.7069952e+38
-0.00045635828 0.037009202 0.24300002 -1.7068909e+38
-6.2926512e-05 0.037009202 0.24300002 -1.7067345e+38
0.000723937 0.037009202 0.24300002 -1.7066816e+38
0.001121967 0.037161499 0.24400002 -1.7066816e+38
0.0015170178 0.037161499 0.24400002 -1.7065252e+38
0.0019199051 0.0373138 0.245 -1.7065252e+38
0.0023260303 0.037466105 0.24600001 -1.7065248e+38
0.0027353936 0.037618402 0.24700001 -1.7198692e+38
0.0031353016 0.037618402 0.24700001 -1.7063687e+38
0.0035495223 0.037770707 0.24800001 -1.7063687e+38
0.0039510494 0.037770707 0.24800001 -1.7063687e+38
0.0043701273 0.037923008 0.24900001 -1.7063687e+38
0.0051764194 0.037923008 0.24900001 -1.7062123e+38
0.0056019737 0.038075306 0.25 -1.7062644e+38
0.0060307658 0.03822761 0.25100002 -1.7062123e+38
0.0064371498 0.03822761 0.25100002 -1.7061599e+38
0.0068707988 0.038379908 0.252 -1.7061078e+38
0.0083196647 0.039446019 0.259 -1.7458283e+38
0.0087727429 0.03959832 0.26000002 -1.7191395e+38
0.0096146548 0.03959832 0.26000002 -1.758964e+38
0.010035611 0.03959832 0.26000002 -1.7721518e+38
0.010456567 0.03959832 0.26000002 -1.7588074e+38
0.010919359 0.039750621 0.26100001 -1.8119759e+38
0.01138539 0.039902922 0.26200002 -1.7852871e+38
0.011899733 0.040207524 0.264 -1.7851826e+38
0.012373858 0.040359829 0.26500002 -1.7851826e+38
0.012851222 0.040512126 0.266 -1.7983181e+38
0.013331824 0.040664427 0.26700002 -1.7983181e+38
0.013815666 0.040816732 0.26800001 -1.9043949e+38
-0.022008451 0.0417124 0.27100003 -2.5855866e+38
-0.021569686 0.0417124 0.27100003 -2.3987649e+38
-0.021130919 0.0417124 0.27100003 -2.067084e+38
-0.020253388 0.0417124 0.27100003 -1.9738299e+38
-0.019814624 0.0417124 0.27100003 -1.9604855e+38
-0.019375859 0.0417124 0.27100003 -1.9206085e+38
-0.018430067 0.041558478 0.27000001 -1.9073685e+38
-0.017992921 0.041558478 0.27000001 -1.8806797e+38
-0.016991822 0.041250639 0.26800001 -1.8274583e+38
-0.014379825 0.040019277 0.26000002 -1.747548e+38
-0.013485845 0.039865356 0.259 -1.7343077e+38
-0.013066509 0.039865356 0.259 -1.7343077e+38
-0.012180624 0.039711434 0.25800002 -1.7209633e+38
-0.011717314 0.039557517 0.257 -1.7075671e+38
-0.010885117 0.039557517 0.257 -1.7076199e+38
-0.010428282 0.039403595 0.25600001 -1.7076199e+38
-0.0068623987 0.038018312 0.24700001 -1.7076722e+38
-0.0064363265 0.037864394 0.24600001 -1.7076722e+38
-0.0056168227 0.037710473 0.245 -1.7076722e+38
-0.0052201529 0.037710473 0.245 -1.7077243e+38
-0.0048037954 0.037556551 0.24400002 -1.7076722e+38
-0.0039972439 0.037402634 0.24300002 -1.7076722e+38
-0.0036038123 0.037402634 0.24300002 -1.7076722e+38
-0.0028169488 0.037402634 0.24300002 -1.7075158e+38
-0.0024235172 0.037402634 0.24300002 -1.7074118e+38
-0.0020300853 0.037402634 0.24300002 -1.7073597e+38
-0.0016366536 0.037402634 0.24300002 -1.7072554e+38
-0.00084979011 0.037402634 0.24300002 -1.7069952e+38
-0.00045635828 0.037402634 0.24300002 -1.7069431e+38
-6.2926512e-05 0.037402634 0.24300002 -1.7067345e+38
0.000723937 0.037402634 0.24300002 -1.7067337e+38
0.001121967 0.037556551 0.24400002 -1.7066816e+38
0.0015232351 0.037710473 0.245 -1.7065774e+38
0.0019199051 0.037710473 0.245 -1.7065252e+38
0.0023260303 0.037864394 0.24600001 -1.7198692e+38
0.0027353936 0.038018312 0.24700001 -1.7065248e+38
0.0031479953 0.038172234 0.24800001 -1.7463493e+38
0.0035495223 0.038172234 0.24800001 -1.7196605e+38
0.0039669811 0.038326155 0.24900001 -1.7196605e+38
0.0043701273 0.038326155 0.24900001 -1.7196605e+38
0.004792443 0.038480073 0.25 -1.706264e+38
0.0052179974 0.038633995 0.25100002 -1.706264e+38
0.0060307658 0.038633995 0.25100002 -1.706264e+38
0.0064627957 0.038787913 0.252 -1.7061599e+38
0.0068707988 0.038787913 0.252 -1.7061599e+38
0.0073365704 0.039095756 0.25400001 -1.7326401e+38
0.0083196647 0.039865356 0.259 -1.7591206e+38
0.0087727429 0.040019277 0.26000002 -1.7324318e+38
0.0096146548 0.040019277 0.26000002 -1.7589644e+38
0.010035611 0.040019277 0.26000002 -1.7721518e+38
0.010456567 0.040019277 0.26000002 -1.7588074e+38
0.010919359 0.040173195 0.26100001 -1.7986319e+38
0.01138539 0.040327117 0.26200002 -1.7852875e+38
0.011899733 0.040634956 0.264 -1.7851831e+38
0.012373858 0.040788878 0.26500002 -1.7718386e+38
0.012851222 0.040942796 0.266 -1.7983181e+38
0.013331824 0.041096717 0.26700002 -1.7983181e+38
0.013815666 0.041250639 0.26800001 -1.9442195e+38
-0.0081600435 0.038884837 0.25 -1.7077243e+38
-0.0073211105 0.038729299 0.24900001 -1.7076722e+38
-0.0064624907 0.038418218 0.24700001 -1.7076207e+38
-0.0060380376 0.03826268 0.24600001 -1.7076207e+38
-0.0052201529 0.038107142 0.245 -1.7076207e+38
-0.0048037954 0.0379516 0.24400002 -1.7076207e+38
-0.0040136934 0.0379516 0.24400002 -1.7076722e+38
-0.0036186427 0.0379516 0.24400002 -1.7076722e+38
-0.0028169488 0.037796065 0.24300002 -1.7075158e+38
-0.0024235172 0.037796065 0.24300002 -1.7074118e+38
-0.0020300853 0.037796065 0.24300002 -1.7073597e+38
-0.0016366536 0.037796065 0.24300002 -1.7073075e+38
-0.00084979011 0.037796065 0.24300002 -1.7069952e+38
-0.00045635828 0.037796065 0.24300002 -1.7069431e+38
-6.2926512e-05 0.037796065 0.24300002 -1.7067345e+38
0.000723937 0.037796065 0.24300002 -1.7067337e+38
0.001121967 0.0379516 0.24400002 -1.7066816e+38
0.0015232351 0.038107142 0.245 -1.7066293e+38
0.0019277412 0.03826268 0.24600001 -1.7065772e+38
0.0023354855 0.038418218 0.24700001 -1.7198692e+38
0.0027353936 0.038418218 0.24700001 -1.7065248e+38
0.0031479953 0.038573761 0.24800001 -1.7463497e+38
0.0035638351 0.038729299 0.24900001 -1.7463497e+38
0.0039669811 0.038729299 0.24900001 -1.7196609e+38
0.0043876781 0.038884837 0.25 -1.7196609e+38
0.004792443 0.038884837 0.25 -1.7063165e+38
-0.020615799 0.04243277 0.27000001 -2.2926347e+38
-0.020178653 0.04243277 0.27000001 -2.0272066e+38
-0.019741507 0.04243277 0.27000001 -1.9871733e+38
-0.019304359 0.04243277 0.27000001 -1.9472973e+38
-0.018430067 0.04243277 0.27000001 -1.9339533e+38
-0.017926279 0.042275611 0.26900002 -1.9206089e+38
-0.016991822 0.042118456 0.26800001 -1.8539909e+38
-0.016003679 0.041804135 0.266 -1.8007695e+38
-0.014379825 0.040861189 0.26000002 -1.7608928e+38
-0.013537914 0.040861189 0.26000002 -1.7475484e+38
-0.013066509 0.040704031 0.259 -1.7475484e+38
-0.012227835 0.040704031 0.259 -1.7075671e+38
-0.011808499 0.040704031 0.259 -1.7209637e+38
-0.010885117 0.040389713 0.257 -1.7074635e+38
-0.010469018 0.040389713 0.257 -1.7075156e+38
0.0052179974 0.039446764 0.25100002 -1.7063161e+38
0.005646789 0.039603919 0.252 -1.7063161e+38
0.0064627957 0.039603919 0.252 -1.7329003e+38
0.0068707988 0.039603919 0.252 -1.7195559e+38
0.0073365704 0.039918236 0.25400001 -1.7594329e+38
0.0083196647 0.040704031 0.259 -1.7725171e+38
0.0087727429 0.040861189 0.26000002 -1.7591727e+38
0.0096146548 0.040861189 0.26000002 -1.7589644e+38
0.010035611 0.040861189 0.26000002 -1.7721522e+38
0.010496784 0.041018344 0.26100001 -1.7588078e+38
0.010919359 0.041018344 0.26100001 -1.7720478e+38
0.011428845 0.041332662 0.26300001 -1.7587034e+38
0.011899733 0.041489821 0.264 -1.7719427e+38
0.012373858 0.04164698 0.26500002 -1.7585983e+38
0.012851222 0.041804135 0.266 -1.8380911e+38
0.013331824 0.041961297 0.26700002 -1.8380911e+38
-0.020539444 0.042711139 0.26900002 -2.5318426e+38
-0.020103917 0.042711139 0.26900002 -2.0537392e+38
-0.019668389 0.042711139 0.26900002 -2.0270504e+38
-0.018797334 0.042711139 0.26900002 -1.9339529e+38
-0.018361807 0.042711139 0.26900002 -1.9339533e+38
-0.017425731 0.042552363 0.26800001 -1.8806797e+38
-0.016991822 0.042552363 0.26800001 -1.8539909e+38
-0.016003679 0.042234808 0.266 -1.8141139e+38
-0.014435133 0.041440919 0.26100001 -1.7874255e+38
-0.013537914 0.041282143 0.26000002 -1.7608928e+38
-0.013116959 0.041282143 0.26000002 -1.7475484e+38
-0.012744834 0.041440919 0.26100001 -1.7209637e+38
-0.012322259 0.041440919 0.26100001 -1.7075671e+38
-0.011389161 0.041123364 0.259 -1.7075671e+38
-0.010969825 0.041123364 0.259 -1.7074635e+38
-0.0081926826 0.039853148 0.25100002 -1.7076203e+38
-0.0073505128 0.039694369 0.25 -1.7076722e+38
-0.0069179642 0.039535593 0.24900001 -1.7076722e+38
-0.0052201529 0.03890048 0.245 -1.7076207e+38
-0.0048037954 0.038741704 0.24400002 -1.7076207e+38
-0.0040136934 0.038741704 0.24400002 -1.7076207e+38
-0.0036186427 0.038741704 0.24400002 -1.7076207e+38
-0.0032235919 0.038741704 0.24400002 -1.7075164e+38
-0.0024334905 0.038741704 0.24400002 -1.7073603e+38
-0.0020384395 0.038741704 0.24400002 -1.7073603e+38
-0.0016433888 0.038741704 0.24400002 -1.707256e+38
-0.00084979011 0.038582928 0.24300002 -1.7069952e+38
-0.00045635828 0.038582928 0.24300002 -1.7069952e+38
-6.2926512e-05 0.038582928 0.24300002 -1.7067345e+38
0.000723937 0.038582928 0.24300002 -1.7066816e+38
0.001121967 0.038741704 0.24400002 -1.7066816e+38
0.0015232351 0.03890048 0.245 -1.7066293e+38
0.0019277412 0.039059259 0.24600001 -1.7065772e+38
0.0023354855 0.039218035 0.24700001 -1.7198692e+38
0.0027464682 0.039376814 0.24800001 -1.7065248e+38
0.0031479953 0.039376814 0.24800001 -1.7330571e+38
0.0035638351 0.039535593 0.24900001 -1.7330571e+38
0.0039829127 0.039694369 0.25 -1.7463493e+38
0.0043876781 0.039694369 0.25 -1.7463493e+38
0.0048116129 0.039853148 0.25100002 -1.7063161e+38
0.0052179974 0.039853148 0.25100002 -1.7063161e+38
0.005646789 0.04001192 0.252 -1.7196605e+38
0.0064627957 0.04001192 0.252 -1.7462447e+38
0.0068707988 0.04001192 0.252 -1.7329003e+38
0.0073076868 0.040170699 0.25300002 -1.7594329e+38
0.0083196647 0.041123364 0.259 -1.7725171e+38
0.0087727429 0.041282143 0.26000002 -1.7725171e+38
0.0096146548 0.041282143 0.26000002 -1.7591202e+38
0.010074208 0.041440919 0.26100001 -1.7854962e+38
0.010496784 0.041440919 0.26100001 -1.7588074e+38
0.010961195 0.041599698 0.26200002 -1.7720993e+38
0.011428845 0.041758474 0.26300001 -1.7587549e+38
0.011899733 0.041917253 0.264 -1.7719427e+38
0.012373858 0.042076033 0.26500002 -1.7585983e+38
0.012851222 0.042234808 0.266 -1.8779157e+38
0.013331824 0.042393584 0.26700002 -1.8779157e+38
