# .PCD v0.7 - Point Cloud Data file format
VERSION 0.7
FIELDS x y z rgb
SIZE 4 4 4 4
TYPE F F F F
COUNT 1 1 1 1
WIDTH 946
HEIGHT 1
VIEWPOINT 0 0 0 1 0 0 0
POINTS 946
DATA ascii
0.0065206974 0.0070990762 0.29100001 -1.7051201e+38
0.0069918437 0.0070990762 0.29100001 -1.7051722e+38
0.00746299 0.0070990762 0.29100001 -1.7051201e+38
0.0079341372 0.0070990762 0.29100001 -1.7050679e+38
0.0088459272 0.0070746802 0.29000002 -1.7051722e+38
0.0093154553 0.0070746802 0.29000002 -1.7052241e+38
0.010254511 0.0070746802 0.29000002 -1.705172e+38
0.010724038 0.0070746802 0.29000002 -1.7052241e+38
0.011154966 0.0070502851 0.289 -1.7052241e+38
0.012090784 0.0070502851 0.289 -1.705172e+38
0.012558692 0.0070502851 0.289 -1.7052241e+38
0.013026601 0.0070502851 0.289 -1.7052241e+38
0.013494509 0.0070502851 0.289 -1.7052241e+38
0.014380394 0.0070258896 0.28800002 -1.7052241e+38
0.014846684 0.0070258896 0.28800002 -1.7052241e+38
0.015312973 0.0070258896 0.28800002 -1.7052762e+38
0.016189145 0.0070014936 0.287 -1.7052762e+38
0.016653815 0.0070014936 0.287 -1.7052237e+38
0.017521892 0.0069770985 0.28600001 -1.7052758e+38
0.017984943 0.0069770985 0.28600001 -1.7052237e+38
0.019964663 0.0067087486 0.27500001 -1.7053278e+38
0.020409904 0.0067087486 0.27500001 -1.7053282e+38
0.021222932 0.0066843531 0.27400002 -1.7054324e+38
0.021666555 0.0066843531 0.27400002 -1.7053282e+38
0.022190873 0.0067087486 0.27500001 -1.7053282e+38
0.022636114 0.0067087486 0.27500001 -1.7054324e+38
0.023165287 0.0067331437 0.27600002 -1.7055365e+38
0.024146181 0.0067575397 0.27700001 -1.7064214e+38
0.024683449 0.0067819348 0.27800003 -1.7599554e+38
0.025223956 0.0068063303 0.27900001 -1.7068901e+38
0.025859728 0.0068551213 0.28100002 -1.706838e+38
-0.014110672 0.0070499317 0.27100003 -1.7068891e+38
-0.013671908 0.0070499317 0.27100003 -1.7066806e+38
-0.013233141 0.0070499317 0.27100003 -1.705848e+38
-0.012841588 0.0070759468 0.27200001 -1.7049097e+38
-0.012446796 0.0071019614 0.273 -1.7045461e+38
-0.011562789 0.0071019614 0.273 -1.7045465e+38
-0.01116152 0.0071279756 0.27400002 -1.7045465e+38
-0.010757014 0.0071539907 0.27500001 -1.7047022e+38
-0.01034927 0.0071800044 0.27600002 -1.7046501e+38
-0.0089651011 0.0075181937 0.289 -1.7048063e+38
-0.0085265944 0.0075442079 0.29000002 -1.7048063e+38
-0.0080570672 0.0075442079 0.29000002 -1.7048063e+38
-0.0075875395 0.0075442079 0.29000002 -1.7049106e+38
-0.0066484842 0.0075442079 0.29000002 -1.704911e+38
-0.0062002633 0.0075702225 0.29100001 -1.7049631e+38
-0.0057291165 0.0075702225 0.29100001 -1.704911e+38
-0.0052579697 0.0075702225 0.29100001 -1.7049631e+38
-0.0048032724 0.0075962367 0.29200003 -1.705015e+38
-0.0038577411 0.0075962367 0.29200003 -1.7050671e+38
-0.0033849755 0.0075962367 0.29200003 -1.705015e+38
-0.0029122098 0.0075962367 0.29200003 -1.705015e+38
-0.0019666783 0.0075962367 0.29200003 -1.7050671e+38
-0.0014939127 0.0075962367 0.29200003 -1.705015e+38
-0.0010211469 0.0075962367 0.29200003 -1.705015e+38
-0.00054838113 0.0075962367 0.29200003 -1.705015e+38
0.00039715035 0.0075962367 0.29200003 -1.705015e+38
0.00086991611 0.0075962367 0.29200003 -1.7050156e+38
0.0013426818 0.0075962367 0.29200003 -1.7050156e+38
0.0018154476 0.0075962367 0.29200003 -1.7050156e+38
0.0027609791 0.0075962367 0.29200003 -1.7051197e+38
0.0032226702 0.0075702225 0.29100001 -1.7051197e+38
0.004164964 0.0075702225 0.29100001 -1.7051197e+38
0.0046361103 0.0075702225 0.29100001 -1.7050675e+38
0.005107257 0.0075702225 0.29100001 -1.7050675e+38
0.0055784038 0.0075702225 0.29100001 -1.7051201e+38
0.0065206974 0.0075702225 0.29100001 -1.7051201e+38
0.0069918437 0.0075702225 0.29100001 -1.7051722e+38
0.00746299 0.0075702225 0.29100001 -1.7051201e+38
0.0079341372 0.0075702225 0.29100001 -1.7050679e+38
0.0088764299 0.0075702225 0.29100001 -1.7051722e+38
0.0093475766 0.0075702225 0.29100001 -1.705172e+38
0.0098187234 0.0075702225 0.29100001 -1.7052241e+38
0.010724038 0.0075442079 0.29000002 -1.7052241e+38
0.011193565 0.0075442079 0.29000002 -1.7052241e+38
0.011663093 0.0075442079 0.29000002 -1.705172e+38
0.012602149 0.0075442079 0.29000002 -1.7052241e+38
0.013026601 0.0075181937 0.289 -1.7052241e+38
0.013494509 0.0075181937 0.289 -1.7052241e+38
0.014430326 0.0075181937 0.289 -1.7052241e+38
0.014846684 0.0074921791 0.28800002 -1.7052241e+38
0.015312973 0.0074921791 0.28800002 -1.7052762e+38
0.016189145 0.007466164 0.287 -1.7052241e+38
0.016653815 0.007466164 0.287 -1.7052237e+38
0.017521892 0.0074401498 0.28600001 -1.7052758e+38
0.019448442 0.0071279756 0.27400002 -1.7053278e+38
0.019819466 0.0071019614 0.273 -1.7053278e+38
0.020703474 0.0071019614 0.273 -1.7053282e+38
0.021222932 0.0071279756 0.27400002 -1.7053282e+38
0.02174563 0.0071539907 0.27500001 -1.7053282e+38
0.022110179 0.0071279756 0.27400002 -1.7053801e+38
0.022636114 0.0071539907 0.27500001 -1.7054843e+38
0.023165287 0.0071800044 0.27600002 -1.7056928e+38
0.024146181 0.0072060195 0.27700001 -1.7068901e+38
0.024683449 0.0072320336 0.27800003 -1.7068901e+38
0.025223956 0.0072580483 0.27900001 -1.7067855e+38
0.025859728 0.0073100771 0.28100002 -1.7066812e+38
-0.014058603 0.007461064 0.27000001 -1.7068891e+38
-0.013671908 0.0074886973 0.27100003 -1.7067848e+38
-0.013233141 0.0074886973 0.27100003 -1.7062129e+38
-0.01235561 0.0074886973 0.27100003 -1.7044418e+38
-0.011960818 0.007516331 0.27200001 -1.7045461e+38
-0.011520434 0.007516331 0.27200001 -1.7044939e+38
-0.011120785 0.0075439652 0.273 -1.7045461e+38
-0.010717898 0.007571598 0.27400002 -1.7045982e+38
-0.010311773 0.0075992323 0.27500001 -1.7045982e+38
0.016595788 0.0079032015 0.28600001 -1.7052241e+38
0.018935459 0.0075439652 0.273 -1.7053282e+38
0.019306483 0.007516331 0.27200001 -1.7053282e+38
0.020187253 0.007516331 0.27200001 -1.7053282e+38
0.020703474 0.0075439652 0.273 -1.7053282e+38
0.021145478 0.0075439652 0.273 -1.7053282e+38
0.021666555 0.007571598 0.27400002 -1.7054324e+38
0.022190873 0.0075992323 0.27500001 -1.7054843e+38
0.022636114 0.0075992323 0.27500001 -1.7055365e+38
0.023165287 0.0076268651 0.27600002 -1.7063699e+38
0.024146181 0.0076544993 0.27700001 -1.7068901e+38
0.024683449 0.0076821321 0.27800003 -1.7067859e+38
0.025223956 0.0077097663 0.27900001 -1.7067327e+38
0.025767701 0.0077374 0.28 -1.7066806e+38
-0.0089340797 0.008424758 0.28800002 -1.7047022e+38
-0.0084971925 0.0084540108 0.289 -1.7047542e+38
-0.0080570672 0.0084832627 0.29000002 -1.7048063e+38
-0.0075875395 0.0084832627 0.29000002 -1.7048063e+38
-0.0066484842 0.0084832627 0.29000002 -1.7049106e+38
-0.0062002633 0.0085125156 0.29100001 -1.7049106e+38
-0.0057291165 0.0085125156 0.29100001 -1.704911e+38
-0.0052579697 0.0085125156 0.29100001 -1.704911e+38
-0.0048032724 0.0085417684 0.29200003 -1.7049631e+38
-0.0038577411 0.0085417684 0.29200003 -1.705015e+38
-0.0033849755 0.0085417684 0.29200003 -1.705015e+38
-0.0029122098 0.0085417684 0.29200003 -1.705015e+38
-0.0019666783 0.0085417684 0.29200003 -1.705015e+38
-0.0014939127 0.0085417684 0.29200003 -1.705015e+38
-0.0010211469 0.0085417684 0.29200003 -1.705015e+38
-0.00055025914 0.0085710213 0.29300001 -1.705015e+38
-7.5874348e-05 0.0085710213 0.29300001 -1.7050671e+38
0.0008728953 0.0085710213 0.29300001 -1.7050156e+38
0.0013472801 0.0085710213 0.29300001 -1.7050156e+38
0.0018154476 0.0085417684 0.29200003 -1.7050681e+38
0.0027609791 0.0085417684 0.29200003 -1.7051201e+38
0.0032337448 0.0085417684 0.29200003 -1.7051201e+38
0.0037065106 0.0085417684 0.29200003 -1.7051201e+38
0.0046520424 0.0085417684 0.29200003 -1.7050679e+38
0.0051248078 0.0085417684 0.29200003 -1.7050679e+38
0.0055975737 0.0085417684 0.29200003 -1.7051201e+38
0.0060703396 0.0085417684 0.29200003 -1.7051201e+38
0.0070158709 0.0085417684 0.29200003 -1.7051722e+38
0.0074886368 0.0085417684 0.29200003 -1.7051722e+38
0.0079614026 0.0085417684 0.29200003 -1.7051201e+38
0.0088764299 0.0085125156 0.29100001 -1.7051722e+38
0.0093475766 0.0085125156 0.29100001 -1.7051722e+38
0.0098187234 0.0085125156 0.29100001 -1.7051722e+38
0.010761017 0.0085125156 0.29100001 -1.7051722e+38
0.011232164 0.0085125156 0.29100001 -1.7052241e+38
0.011663093 0.0084832627 0.29000002 -1.7052241e+38
0.012602149 0.0084832627 0.29000002 -1.7052241e+38
0.013071676 0.0084832627 0.29000002 -1.7052241e+38
0.013494509 0.0084540108 0.289 -1.7052241e+38
0.014430326 0.0084540108 0.289 -1.7052241e+38
0.014898235 0.0084540108 0.289 -1.7052241e+38
0.015312973 0.008424758 0.28800002 -1.7052241e+38
0.016245553 0.008424758 0.28800002 -1.7052241e+38
-0.013621457 0.0083353566 0.27000001 -1.7068891e+38
-0.013233141 0.0083662281 0.27100003 -1.7067855e+38
-0.01235561 0.0083662281 0.27100003 -1.7056924e+38
-0.011916844 0.0083662281 0.27100003 -1.7048063e+38
-0.011478079 0.0083662281 0.27100003 -1.7044937e+38
-0.011039314 0.0083662281 0.27100003 -1.7044937e+38
-0.010678781 0.008427972 0.273 -1.7044939e+38
-0.010274275 0.0084588435 0.27400002 -1.7045461e+38
-0.0092045292 0.0087058172 0.28200001 -1.7047022e+38
-0.0087789744 0.0087366886 0.28300002 -1.7047022e+38
-0.0080015007 0.008891047 0.28800002 -1.7047542e+38
-0.0075875395 0.0089527909 0.29000002 -1.7048063e+38
-0.0066484842 0.0089527909 0.29000002 -1.704911e+38
-0.0062002633 0.0089836624 0.29100001 -1.704911e+38
-0.0057291165 0.0089836624 0.29100001 -1.704911e+38
-0.0052760383 0.0090145338 0.29200003 -1.704911e+38
-0.0048032724 0.0090145338 0.29200003 -1.704911e+38
-0.0038577411 0.0090145338 0.29200003 -1.7049631e+38
-0.0033849755 0.0090145338 0.29200003 -1.7049631e+38
-0.0029122098 0.0090145338 0.29200003 -1.705015e+38
-0.0019666783 0.0090145338 0.29200003 -1.705015e+38
-0.0014939127 0.0090145338 0.29200003 -1.705015e+38
-0.0010246439 0.0090454053 0.29300001 -1.705015e+38
-0.00055025914 0.0090454053 0.29300001 -1.705015e+38
-7.5874348e-05 0.0090454053 0.29300001 -1.7050671e+38
0.0008728953 0.0090454053 0.29300001 -1.7050677e+38
0.0013472801 0.0090454053 0.29300001 -1.7050156e+38
0.0018216649 0.0090454053 0.29300001 -1.7050681e+38
0.0027704346 0.0090454053 0.29300001 -1.7051201e+38
0.0032337448 0.0090145338 0.29200003 -1.7051201e+38
0.0037065106 0.0090145338 0.29200003 -1.7051201e+38
0.0046520424 0.0090145338 0.29200003 -1.7050679e+38
0.0051248078 0.0090145338 0.29200003 -1.7050679e+38
0.0055975737 0.0090145338 0.29200003 -1.7051201e+38
0.0060703396 0.0090145338 0.29200003 -1.7051201e+38
0.0070158709 0.0090145338 0.29200003 -1.7051722e+38
0.0074886368 0.0090145338 0.29200003 -1.7051722e+38
0.0079614026 0.0090145338 0.29200003 -1.7051201e+38
0.0089069335 0.0090145338 0.29200003 -1.7051722e+38
0.0093796998 0.0090145338 0.29200003 -1.7052241e+38
0.0098187234 0.0089836624 0.29100001 -1.7052241e+38
0.010761017 0.0089836624 0.29100001 -1.7052241e+38
0.011232164 0.0089836624 0.29100001 -1.7052241e+38
0.011703311 0.0089836624 0.29100001 -1.7052241e+38
0.012602149 0.0089527909 0.29000002 -1.7052762e+38
0.013071676 0.0089527909 0.29000002 -1.7052762e+38
0.013541203 0.0089527909 0.29000002 -1.7052241e+38
0.014430326 0.0089219194 0.289 -1.7052241e+38
0.014898235 0.0089219194 0.289 -1.7052241e+38
0.015312973 0.008891047 0.28800002 -1.7052762e+38
0.016189145 0.0088601755 0.287 -1.7052762e+38
0.018425714 0.0083971005 0.27200001 -1.7052762e+38
0.018866099 0.0083971005 0.27200001 -1.7052762e+38
0.019674268 0.0083662281 0.27100003 -1.7053282e+38
0.020187253 0.0083971005 0.27200001 -1.7053282e+38
0.020703474 0.008427972 0.273 -1.7053282e+38
0.021145478 0.008427972 0.273 -1.7054843e+38
0.021666555 0.0084588435 0.27400002 -1.7054843e+38
0.022190873 0.0084897159 0.27500001 -1.7064737e+38
0.022718426 0.0085205864 0.27600002 -1.7198181e+38
0.02324922 0.0085514588 0.27700001 -1.7067339e+38
0.024146181 0.0085514588 0.27700001 -1.7066293e+38
0.024683449 0.0085823303 0.27800003 -1.7065772e+38
0.025223956 0.0086132018 0.27900001 -1.7064721e+38
0.025767701 0.0086440742 0.28 -1.7064721e+38
-0.013671908 0.0088049937 0.27100003 -1.7069412e+38
-0.012747164 0.0087725036 0.27000001 -1.7067333e+38
-0.01235561 0.0088049937 0.27100003 -1.7328492e+38
-0.011872872 0.0087725036 0.27000001 -1.7053263e+38
-0.011435725 0.0087725036 0.27000001 -1.7043895e+38
-0.010561432 0.0087725036 0.27000001 -1.7044939e+38
-0.010161783 0.0088049937 0.27100003 -1.7045461e+38
-0.0092045292 0.0091623925 0.28200001 -1.7047022e+38
-0.0087479539 0.0091623925 0.28200001 -1.7047022e+38
-0.0083207805 0.0091948826 0.28300002 -1.7047022e+38
-0.0078625856 0.0091948826 0.28300002 -1.7047022e+38
-0.0070934673 0.009389828 0.289 -1.7048063e+38
-0.0066484842 0.0094223181 0.29000002 -1.7048067e+38
-0.0062002633 0.0094548091 0.29100001 -1.704911e+38
-0.0057291165 0.0094548091 0.29100001 -1.704911e+38
-0.0052760383 0.0094872992 0.29200003 -1.704911e+38
-0.0048032724 0.0094872992 0.29200003 -1.704911e+38
-0.0038577411 0.0094872992 0.29200003 -1.7049631e+38
-0.0033849755 0.0094872992 0.29200003 -1.7049631e+38
-0.0029122098 0.0094872992 0.29200003 -1.705015e+38
-0.0019666783 0.0094872992 0.29200003 -1.7050671e+38
-0.0014990288 0.0095197903 0.29300001 -1.7050671e+38
-0.0010246439 0.0095197903 0.29300001 -1.7050671e+38
-0.00055025914 0.0095197903 0.29300001 -1.7050671e+38
-7.5874348e-05 0.0095197903 0.29300001 -1.7050156e+38
0.0008728953 0.0095197903 0.29300001 -1.7050677e+38
0.0013472801 0.0095197903 0.29300001 -1.7050677e+38
0.0018216649 0.0095197903 0.29300001 -1.7051201e+38
0.0027704346 0.0095197903 0.29300001 -1.7051201e+38
0.0032448194 0.0095197903 0.29300001 -1.7051201e+38
0.0037192039 0.0095197903 0.29300001 -1.7051201e+38
0.0041935886 0.0095197903 0.29300001 -1.7051201e+38
0.0051423581 0.0095197903 0.29300001 -1.7051201e+38
0.0056167431 0.0095197903 0.29300001 -1.7051722e+38
0.0060703396 0.0094872992 0.29200003 -1.7051722e+38
0.0070158709 0.0094872992 0.29200003 -1.7052243e+38
0.0074886368 0.0094872992 0.29200003 -1.7051722e+38
0.0079614026 0.0094872992 0.29200003 -1.7051722e+38
0.0089069335 0.0094872992 0.29200003 -1.7052762e+38
0.0093796998 0.0094872992 0.29200003 -1.7052241e+38
0.0098524652 0.0094872992 0.29200003 -1.7052762e+38
0.010761017 0.0094548091 0.29100001 -1.7052245e+38
0.011232164 0.0094548091 0.29100001 -1.7052245e+38
0.011703311 0.0094548091 0.29100001 -1.7052245e+38
0.012174457 0.0094548091 0.29100001 -1.7052241e+38
0.013071676 0.0094223181 0.29000002 -1.7052762e+38
0.013541203 0.0094223181 0.29000002 -1.7052241e+38
0.01401073 0.0094223181 0.29000002 -1.7052762e+38
0.014898235 0.009389828 0.289 -1.7052241e+38
0.015312973 0.0093573369 0.28800002 -1.7052762e+38
0.017919207 0.0088049937 0.27100003 -1.7052762e+38
0.018357972 0.0088049937 0.27100003 -1.7052762e+38
0.018796736 0.0088049937 0.27100003 -1.7052762e+38
0.019674268 0.0088049937 0.27100003 -1.7053282e+38
0.020187253 0.0088374848 0.27200001 -1.7054324e+38
0.020703474 0.0088699758 0.273 -1.7054324e+38
0.021222932 0.0089024659 0.27400002 -1.7054839e+38
0.02174563 0.008934957 0.27500001 -1.8260527e+38
0.022271566 0.0089674471 0.27600002 -1.7067339e+38
0.022800742 0.0089999381 0.27700001 -1.7066818e+38
0.02324922 0.0089999381 0.27700001 -1.7066818e+38
0.024146181 0.0089999381 0.27700001 -1.7065244e+38
0.024683449 0.0090324292 0.27800003 -1.7064723e+38
0.025223956 0.0090649202 0.27900001 -1.7063676e+38
0.025767701 0.0090974113 0.28 -1.7064198e+38
0.026314685 0.0091299014 0.28100002 -1.9189918e+38
-0.013671908 0.0092437593 0.27100003 -1.7600065e+38
-0.012747164 0.0092096496 0.27000001 -1.7067855e+38
-0.012310018 0.0092096496 0.27000001 -1.7063684e+38
-0.011872872 0.0092096496 0.27000001 -1.7060557e+38
-0.010957843 0.009175539 0.26900002 -1.7044412e+38
-0.010522315 0.009175539 0.26900002 -1.7043899e+38
-0.010124286 0.0092096496 0.27000001 -1.704442e+38
-0.009723017 0.0092437593 0.27100003 -1.7045461e+38
-0.0087479539 0.0096189678 0.28200001 -1.7047022e+38
-0.0082913786 0.0096189678 0.28200001 -1.7047022e+38
-0.0078625856 0.0096530765 0.28300002 -1.7047022e+38
-0.0074305562 0.0096871872 0.28400001 -1.7048063e+38
-0.0066255582 0.0098577365 0.289 -1.7048063e+38
-0.0061789565 0.0098918453 0.29000002 -1.7049106e+38
-0.0057291165 0.0099259559 0.29100001 -1.7049106e+38
-0.0052760383 0.0099600647 0.29200003 -1.7049106e+38
-0.0048032724 0.0099600647 0.29200003 -1.7049106e+38
-0.0038577411 0.0099600647 0.29200003 -1.7049631e+38
-0.0033849755 0.0099600647 0.29200003 -1.7049631e+38
-0.0029122098 0.0099600647 0.29200003 -1.7049631e+38
-0.0024477984 0.0099941753 0.29300001 -1.7050152e+38
-0.0014990288 0.0099941753 0.29300001 -1.7050671e+38
-0.0010246439 0.0099941753 0.29300001 -1.7050671e+38
-0.00055025914 0.0099941753 0.29300001 -1.7050671e+38
-7.5874348e-05 0.0099941753 0.29300001 -1.7050156e+38
0.0008728953 0.0099941753 0.29300001 -1.7051197e+38
0.0013472801 0.0099941753 0.29300001 -1.7051197e+38
0.0018216649 0.0099941753 0.29300001 -1.7051201e+38
0.0027704346 0.0099941753 0.29300001 -1.7051201e+38
0.0032448194 0.0099941753 0.29300001 -1.7051201e+38
0.0037192039 0.0099941753 0.29300001 -1.7051201e+38
0.0041935886 0.0099941753 0.29300001 -1.7051201e+38
0.0051423581 0.0099941753 0.29300001 -1.7051201e+38
0.0056167431 0.0099941753 0.29300001 -1.7051722e+38
0.0060911281 0.0099941753 0.29300001 -1.7051722e+38
0.0070158709 0.0099600647 0.29200003 -1.7052762e+38
0.0074886368 0.0099600647 0.29200003 -1.7052241e+38
0.0079614026 0.0099600647 0.29200003 -1.7052241e+38
0.0089069335 0.0099600647 0.29200003 -1.7052762e+38
0.0093796998 0.0099600647 0.29200003 -1.7052241e+38
0.0098524652 0.0099600647 0.29200003 -1.7052762e+38
0.010325231 0.0099600647 0.29200003 -1.7052766e+38
0.011232164 0.0099259559 0.29100001 -1.7052245e+38
0.011703311 0.0099259559 0.29100001 -1.7052766e+38
0.012174457 0.0099259559 0.29100001 -1.7052245e+38
0.01311675 0.0099259559 0.29100001 -1.7052766e+38
0.013541203 0.0098918453 0.29000002 -1.7052766e+38
0.01401073 0.0098918453 0.29000002 -1.7052766e+38
0.014846684 0.0098236259 0.28800002 -1.7052766e+38
0.017041676 0.0092437593 0.27100003 -1.7052762e+38
0.017919207 0.0092437593 0.27100003 -1.7186728e+38
0.018357972 0.0092437593 0.27100003 -1.7052762e+38
0.018796736 0.0092437593 0.27100003 -1.7052762e+38
0.019674268 0.0092437593 0.27100003 -1.7053282e+38
0.020187253 0.009277869 0.27200001 -1.7055365e+38
0.020703474 0.0093119796 0.273 -1.7056407e+38
0.021222932 0.0093460884 0.27400002 -1.7199222e+38
0.021824704 0.0094143078 0.27600002 -1.746611e+38
0.022271566 0.0094143078 0.27600002 -1.706838e+38
0.022800742 0.0094484184 0.27700001 -1.7067337e+38
0.02324922 0.0094484184 0.27700001 -1.7065776e+38
0.023783252 0.0094825272 0.27800003 -1.7064733e+38
0.02432052 0.0095166378 0.27900001 -1.7063163e+38
0.025314365 0.0095507475 0.28 -1.7594325e+38
0.025859728 0.0095848572 0.28100002 -1.7994657e+38
0.026314685 0.0095848572 0.28100002 -1.9721088e+38
-0.012264425 0.0096110664 0.26900002 -1.7067327e+38
-0.011828898 0.0096110664 0.26900002 -1.7065242e+38
-0.010917108 0.0095753381 0.26800001 -1.7046491e+38
-0.010444082 0.0095396088 0.26700002 -1.7044933e+38
-0.010086788 0.0096110664 0.26900002 -1.7044933e+38
0.017351435 0.0096110664 0.26900002 -1.7054328e+38
-0.013621457 0.010083942 0.27000001 -1.8795326e+38
-0.012747164 0.010083942 0.27000001 -1.7069412e+38
-0.0096871397 0.010083942 0.27000001 -1.7044939e+38
-0.0082913786 0.010532117 0.28200001 -1.7046501e+38
-0.0078348033 0.010532117 0.28200001 -1.7047022e+38
-0.0074043917 0.010569465 0.28300002 -1.7047022e+38
-0.0061789565 0.010830901 0.29000002 -1.7048063e+38
-0.0057291165 0.010868249 0.29100001 -1.7048063e+38
-0.0052760383 0.010905596 0.29200003 -1.7049106e+38
-0.0048032724 0.010905596 0.29200003 -1.7049627e+38
-0.0038577411 0.010905596 0.29200003 -1.7049631e+38
-0.0033849755 0.010905596 0.29200003 -1.7049631e+38
-0.0029122098 0.010905596 0.29200003 -1.7049631e+38
-0.0024477984 0.010942944 0.29300001 -1.7050152e+38
-0.0014990288 0.010942944 0.29300001 -1.7050671e+38
-0.0010246439 0.010942944 0.29300001 -1.7050156e+38
-0.00055025914 0.010942944 0.29300001 -1.7050156e+38
-7.5874348e-05 0.010942944 0.29300001 -1.7050677e+38
0.0008728953 0.010942944 0.29300001 -1.7051197e+38
0.0013472801 0.010942944 0.29300001 -1.7051197e+38
0.0018216649 0.010942944 0.29300001 -1.7051201e+38
0.0027704346 0.010942944 0.29300001 -1.7051722e+38
0.0032448194 0.010942944 0.29300001 -1.7051722e+38
0.0037192039 0.010942944 0.29300001 -1.7051722e+38
0.0041935886 0.010942944 0.29300001 -1.7051722e+38
0.0051423581 0.010942944 0.29300001 -1.7051201e+38
0.0056167431 0.010942944 0.29300001 -1.7051722e+38
0.0060911281 0.010942944 0.29300001 -1.7051722e+38
0.0070398976 0.010942944 0.29300001 -1.7052762e+38
0.0074886368 0.010905596 0.29200003 -1.7052762e+38
0.0079614026 0.010905596 0.29200003 -1.7052241e+38
0.0089069335 0.010905596 0.29200003 -1.7052762e+38
0.0093796998 0.010905596 0.29200003 -1.7052241e+38
0.0098524652 0.010905596 0.29200003 -1.7052762e+38
0.010325231 0.010905596 0.29200003 -1.7052762e+38
0.011270762 0.010905596 0.29200003 -1.7052762e+38
0.011703311 0.010868249 0.29100001 -1.7186728e+38
0.012174457 0.010868249 0.29100001 -1.7052766e+38
0.01311675 0.010868249 0.29100001 -1.7052766e+38
0.013587898 0.010868249 0.29100001 -1.7052766e+38
0.014430326 0.010793553 0.289 -1.7052766e+38
0.016602909 0.01012129 0.27100003 -1.7186728e+38
0.017853085 0.010083942 0.27000001 -1.7054328e+38
0.018290231 0.010083942 0.27000001 -1.7054328e+38
0.018796736 0.01012129 0.27100003 -1.7054328e+38
0.019674268 0.01012129 0.27100003 -1.7056407e+38
0.020187253 0.010158638 0.27200001 -1.7331621e+38
0.020703474 0.010195986 0.273 -1.7465065e+38
0.021222932 0.010233333 0.27400002 -1.7067855e+38
0.021824704 0.010308029 0.27600002 -1.7067333e+38
0.022352261 0.010345378 0.27700001 -1.7065772e+38
0.022800742 0.010345378 0.27700001 -1.7064208e+38
0.02324922 0.010345378 0.27700001 -1.7062119e+38
0.023783252 0.010382725 0.27800003 -1.7062119e+38
0.02432052 0.010420074 0.27900001 -1.7062115e+38
0.025314365 0.010457422 0.28 -1.8655626e+38
0.025859728 0.01049477 0.28100002 -1.9055959e+38
0.026314685 0.01049477 0.28100002 -2.0119333e+38
-0.012699952 0.010482121 0.26900002 -1.7069408e+38
-0.012264425 0.010482121 0.26900002 -1.706837e+38
-0.011351016 0.010443155 0.26800001 -1.706265e+38
-0.010876372 0.010404187 0.26700002 -1.7057959e+38
-0.010444082 0.010404187 0.26700002 -1.7044414e+38
-0.0095795039 0.010404187 0.26700002 -1.7044418e+38
-0.0069216532 0.010988693 0.28200001 -1.7047022e+38
-0.0064880033 0.011027659 0.28300002 -1.7048063e+38
-0.0057291165 0.011339395 0.29100001 -1.7048063e+38
-0.0052579697 0.011339395 0.29100001 -1.7049106e+38
-0.0048032724 0.011378362 0.29200003 -1.7049106e+38
-0.0038577411 0.011378362 0.29200003 -1.704911e+38
-0.0033849755 0.011378362 0.29200003 -1.7049631e+38
-0.0029122098 0.011378362 0.29200003 -1.7049631e+38
-0.0024477984 0.011417329 0.29300001 -1.7050152e+38
-0.0014990288 0.011417329 0.29300001 -1.7050156e+38
-0.0010246439 0.011417329 0.29300001 -1.7050156e+38
-0.00055025914 0.011417329 0.29300001 -1.7050156e+38
-7.5874348e-05 0.011417329 0.29300001 -1.7050681e+38
0.0008728953 0.011417329 0.29300001 -1.7051722e+38
0.0013472801 0.011417329 0.29300001 -1.7051201e+38
0.0018216649 0.011417329 0.29300001 -1.7051722e+38
0.0027704346 0.011417329 0.29300001 -1.7051722e+38
0.0032448194 0.011417329 0.29300001 -1.7051722e+38
0.0037192039 0.011417329 0.29300001 -1.7051722e+38
0.0041935886 0.011417329 0.29300001 -1.7052243e+38
0.0051423581 0.011417329 0.29300001 -1.7051201e+38
0.0056167431 0.011417329 0.29300001 -1.7052241e+38
0.0060911281 0.011417329 0.29300001 -1.7052241e+38
0.0070158709 0.011378362 0.29200003 -1.7052762e+38
0.0074886368 0.011378362 0.29200003 -1.7052762e+38
0.0079614026 0.011378362 0.29200003 -1.7052762e+38
0.0089069335 0.011378362 0.29200003 -1.7052762e+38
0.0093796998 0.011378362 0.29200003 -1.7052762e+38
0.0098524652 0.011378362 0.29200003 -1.7052762e+38
0.010325231 0.011378362 0.29200003 -1.7052762e+38
0.011270762 0.011378362 0.29200003 -1.7052766e+38
0.011703311 0.011339395 0.29100001 -1.7186732e+38
0.012174457 0.011339395 0.29100001 -1.7052766e+38
0.01311675 0.011339395 0.29100001 -1.7052766e+38
0.013494509 0.011261461 0.289 -1.7052766e+38
0.016915908 0.010482121 0.26900002 -1.7054324e+38
0.017351435 0.010482121 0.26900002 -1.7054849e+38
0.017853085 0.010521089 0.27000001 -1.7054328e+38
0.018290231 0.010521089 0.27000001 -1.7054328e+38
0.019164523 0.010521089 0.27000001 -1.7059003e+38
0.019674268 0.010560055 0.27100003 -1.7728309e+38
0.020187253 0.010599023 0.27200001 -1.7066814e+38
0.020703474 0.01063799 0.273 -1.7067335e+38
0.021222932 0.010676957 0.27400002 -1.7066293e+38
0.02174563 0.010715923 0.27500001 -1.7065772e+38
0.022271566 0.01075489 0.27600002 -1.7064204e+38
0.022800742 0.010793857 0.27700001 -1.7063161e+38
0.02324922 0.010793857 0.27700001 -1.7062113e+38
0.023783252 0.010832824 0.27800003 -1.7062634e+38
0.02432052 0.010871791 0.27900001 -1.7459841e+38
0.025314365 0.010910759 0.28 -1.8921474e+38
0.025859728 0.010949725 0.28100002 -1.9188362e+38
0.026314685 0.010949725 0.28100002 -2.0119333e+38
-0.012699952 0.010917649 0.26900002 -1.7600061e+38
-0.012218833 0.010877063 0.26800001 -1.7068891e+38
-0.011308661 0.010836476 0.26700002 -1.7065252e+38
-0.010835636 0.010795891 0.266 -1.7062646e+38
-0.0099742962 0.010795891 0.266 -1.7045453e+38
-0.0095436266 0.010795891 0.266 -1.7044418e+38
-0.0091472147 0.010836476 0.26700002 -1.7044418e+38
-0.0057291165 0.011810542 0.29100001 -1.7048063e+38
-0.0052579697 0.011810542 0.29100001 -1.7049106e+38
-0.0048032724 0.011851128 0.29200003 -1.7049106e+38
-0.0038577411 0.011851128 0.29200003 -1.704911e+38
-0.0033849755 0.011851128 0.29200003 -1.7049631e+38
-0.0029122098 0.011851128 0.29200003 -1.7050671e+38
-0.0019666783 0.011851128 0.29200003 -1.7050156e+38
-0.0014990288 0.011891714 0.29300001 -1.7050156e+38
-0.0010246439 0.011891714 0.29300001 -1.7050677e+38
-0.00055025914 0.011891714 0.29300001 -1.7050677e+38
-7.5874348e-05 0.011891714 0.29300001 -1.7051201e+38
0.0008728953 0.011891714 0.29300001 -1.7051722e+38
0.0013472801 0.011891714 0.29300001 -1.7051722e+38
0.0018216649 0.011891714 0.29300001 -1.7051722e+38
0.0027704346 0.011891714 0.29300001 -1.7052241e+38
0.0032448194 0.011891714 0.29300001 -1.7052241e+38
0.0037192039 0.011891714 0.29300001 -1.7052762e+38
0.0041935886 0.011891714 0.29300001 -1.7052762e+38
0.0051423581 0.011891714 0.29300001 -1.7052241e+38
0.0056167431 0.011891714 0.29300001 -1.7052241e+38
0.0060703396 0.011851128 0.29200003 -1.7052241e+38
0.0070158709 0.011851128 0.29200003 -1.7052762e+38
0.0074886368 0.011851128 0.29200003 -1.7052762e+38
0.0079614026 0.011851128 0.29200003 -1.7052762e+38
0.0089069335 0.011851128 0.29200003 -1.7052762e+38
0.0093796998 0.011851128 0.29200003 -1.7052762e+38
0.0098524652 0.011851128 0.29200003 -1.7052762e+38
0.010325231 0.011851128 0.29200003 -1.7052766e+38
0.011270762 0.011851128 0.29200003 -1.7052766e+38
0.011743529 0.011851128 0.29200003 -1.7052766e+38
0.012174457 0.011810542 0.29100001 -1.7052766e+38
0.013071676 0.011769956 0.29000002 -1.7052766e+38
0.015667353 0.010958235 0.27000001 -1.7054328e+38
0.016419115 0.010877063 0.26800001 -1.7054328e+38
0.016915908 0.010917649 0.26900002 -1.7054328e+38
0.017351435 0.010917649 0.26900002 -1.7054849e+38
0.017786961 0.010917649 0.26900002 -1.7054849e+38
0.018290231 0.010958235 0.27000001 -1.7054847e+38
0.019164523 0.010958235 0.27000001 -1.7198177e+38
0.019674268 0.010998821 0.27100003 -1.7331621e+38
0.020187253 0.011039407 0.27200001 -1.7066814e+38
0.020703474 0.011079993 0.273 -1.7066814e+38
0.021222932 0.011120579 0.27400002 -1.7064729e+38
0.02174563 0.011161165 0.27500001 -1.7064729e+38
0.022352261 0.011242338 0.27700001 -1.7062642e+38
0.022800742 0.011242338 0.27700001 -1.7062121e+38
0.023333153 0.011282923 0.27800003 -1.7061593e+38
0.023868803 0.01132351 0.27900001 -1.7062115e+38
0.02440769 0.011364096 0.28 -1.7991534e+38
0.024949817 0.011404681 0.28100002 -1.7991534e+38
0.025859728 0.011404681 0.28100002 -1.9188877e+38
0.026314685 0.011404681 0.28100002 -2.0119333e+38
-0.012699952 0.011353176 0.26900002 -1.7998306e+38
-0.012218833 0.011310971 0.26800001 -1.7068891e+38
-0.011308661 0.011268766 0.26700002 -1.7066814e+38
-0.010835636 0.011226561 0.266 -1.7063687e+38
-0.0099742962 0.011226561 0.266 -1.7048578e+38
-0.0095436266 0.011226561 0.266 -1.7044937e+38
-0.009112956 0.011226561 0.266 -1.7043895e+38
-0.0087149255 0.011268766 0.26700002 -1.7044939e+38
-0.0057094288 0.012239483 0.29000002 -1.7048063e+38
-0.0052579697 0.012281689 0.29100001 -1.7049106e+38
0.011703311 0.012281689 0.29100001 -1.7054328e+38
0.015173797 0.011353176 0.26900002 -1.7054328e+38
0.015551298 0.011310971 0.26800001 -1.7054328e+38
0.016419115 0.011310971 0.26800001 -1.7054328e+38
0.016853023 0.011310971 0.26800001 -1.7054328e+38
0.017351435 0.011353176 0.26900002 -1.7054849e+38
0.017786961 0.011353176 0.26900002 -1.7188294e+38
0.018290231 0.011395381 0.27000001 -1.706005e+38
0.019164523 0.011395381 0.27000001 -1.7066289e+38
0.019674268 0.011437586 0.27100003 -1.7199733e+38
0.020187253 0.011479791 0.27200001 -1.7066808e+38
0.020703474 0.011521997 0.273 -1.7065244e+38
0.021222932 0.011564202 0.27400002 -1.7063167e+38
0.02174563 0.011606407 0.27500001 -1.7062646e+38
0.022352261 0.011690817 0.27700001 -1.7061597e+38
0.022883054 0.011733022 0.27800003 -1.7061076e+38
0.023417084 0.011775227 0.27900001 -1.7326396e+38
0.023954352 0.011817433 0.28 -1.7459841e+38
0.02449486 0.011859638 0.28100002 -1.8388738e+38
0.024949817 0.011859638 0.28100002 -1.8522182e+38
0.025859728 0.011859638 0.28100002 -1.9188873e+38
0.026314685 0.011859638 0.28100002 -2.0251215e+38
-0.0048032724 0.012796659 0.29200003 -1.7049627e+38
-0.0038577411 0.012796659 0.29200003 -1.7049631e+38
-0.0033849755 0.012796659 0.29200003 -1.7049631e+38
-0.0029122098 0.012796659 0.29200003 -1.705015e+38
-0.0019666783 0.012796659 0.29200003 -1.7050156e+38
-0.0014939127 0.012796659 0.29200003 -1.7050156e+38
-0.0010211469 0.012796659 0.29200003 -1.7050156e+38
-0.00054838113 0.012796659 0.29200003 -1.7050677e+38
0.00039715035 0.012796659 0.29200003 -1.7051718e+38
0.00086991611 0.012796659 0.29200003 -1.7051722e+38
0.0013472801 0.012840483 0.29300001 -1.7051722e+38
0.0018216649 0.012840483 0.29300001 -1.7052241e+38
0.0027704346 0.012840483 0.29300001 -1.7052762e+38
0.0032448194 0.012840483 0.29300001 -1.7052762e+38
0.0037192039 0.012840483 0.29300001 -1.7052762e+38
0.0046520424 0.012796659 0.29200003 -1.7052241e+38
0.0051248078 0.012796659 0.29200003 -1.7052241e+38
0.0055975737 0.012796659 0.29200003 -1.7052241e+38
0.0060703396 0.012796659 0.29200003 -1.7052241e+38
0.0070158709 0.012796659 0.29200003 -1.7186728e+38
0.0074886368 0.012796659 0.29200003 -1.7054328e+38
0.0079614026 0.012796659 0.29200003 -1.7054328e+38
0.0089069335 0.012796659 0.29200003 -1.7054328e+38
0.0093796998 0.012796659 0.29200003 -1.7054328e+38
0.0098524652 0.012796659 0.29200003 -1.7053286e+38
0.010325231 0.012796659 0.29200003 -1.7053286e+38
0.011270762 0.012796659 0.29200003 -1.7054328e+38
-0.012747164 0.012269674 0.27000001 -1.9594945e+38
-0.012264425 0.01222423 0.26900002 -1.733525e+38
-0.011351016 0.012178788 0.26800001 -1.7068376e+38
-0.010835636 0.012087901 0.266 -1.7066812e+38
-0.0099742962 0.012087901 0.266 -1.7061599e+38
-0.0095436266 0.012087901 0.266 -1.7050144e+38
-0.009112956 0.012087901 0.266 -1.7045453e+38
-0.0086822864 0.012087901 0.266 -1.7044418e+38
-0.0082826363 0.012133344 0.26700002 -1.7045461e+38
-0.0074180579 0.012133344 0.26700002 -1.7045982e+38
-0.0069857687 0.012133344 0.26700002 -1.7047022e+38
-0.0057094288 0.013178539 0.29000002 -1.7048067e+38
-0.0052579697 0.013223982 0.29100001 -1.704911e+38
-0.0048032724 0.013269424 0.29200003 -1.7049631e+38
-0.0038577411 0.013269424 0.29200003 -1.7049631e+38
-0.0033849755 0.013269424 0.29200003 -1.7049631e+38
-0.0029122098 0.013269424 0.29200003 -1.705015e+38
-0.0019666783 0.013269424 0.29200003 -1.7050156e+38
-0.0014939127 0.013269424 0.29200003 -1.7050156e+38
-0.0010211469 0.013269424 0.29200003 -1.7050677e+38
-0.00054838113 0.013269424 0.29200003 -1.7050677e+38
0.00039715035 0.013269424 0.29200003 -1.7051718e+38
0.00086991611 0.013269424 0.29200003 -1.7051722e+38
0.0013426818 0.013269424 0.29200003 -1.7051722e+38
0.0018154476 0.013269424 0.29200003 -1.7052241e+38
0.0027609791 0.013269424 0.29200003 -1.7052766e+38
0.0032337448 0.013269424 0.29200003 -1.7052766e+38
0.0037065106 0.013269424 0.29200003 -1.7052766e+38
0.0046520424 0.013269424 0.29200003 -1.7052245e+38
0.0051248078 0.013269424 0.29200003 -1.7052766e+38
0.0055975737 0.013269424 0.29200003 -1.7052766e+38
0.0060703396 0.013269424 0.29200003 -1.7052766e+38
0.0070158709 0.013269424 0.29200003 -1.7186732e+38
0.0074886368 0.013269424 0.29200003 -1.7054328e+38
0.0079614026 0.013269424 0.29200003 -1.7054328e+38
0.0089069335 0.013269424 0.29200003 -1.7054849e+38
0.0093796998 0.013269424 0.29200003 -1.7054849e+38
0.0098524652 0.013269424 0.29200003 -1.7054328e+38
0.010325231 0.013269424 0.29200003 -1.7053813e+38
0.011270762 0.013269424 0.29200003 -1.7053813e+38
0.011703311 0.013223982 0.29100001 -1.7053813e+38
0.014683481 0.012178788 0.26800001 -1.7055369e+38
0.01511739 0.012178788 0.26800001 -1.705589e+38
0.015551298 0.012178788 0.26800001 -1.705589e+38
0.016419115 0.012178788 0.26800001 -1.7055369e+38
0.016853023 0.012178788 0.26800001 -1.705589e+38
0.017351435 0.01222423 0.26900002 -1.7061092e+38
0.017786961 0.01222423 0.26900002 -1.7728313e+38
0.018290231 0.012269674 0.27000001 -1.7065763e+38
0.019164523 0.012269674 0.27000001 -1.7065763e+38
0.019674268 0.012315117 0.27100003 -1.70642e+38
0.020187253 0.012360561 0.27200001 -1.7063159e+38
0.020703474 0.012406004 0.273 -1.7062638e+38
0.021300389 0.012496891 0.27500001 -1.7061076e+38
0.021824704 0.012542333 0.27600002 -1.7061076e+38
0.022352261 0.012587776 0.27700001 -1.7060549e+38
0.022965366 0.012678663 0.27900001 -1.7060549e+38
0.023501016 0.012724106 0.28 -1.8255294e+38
0.023954352 0.012724106 0.28 -1.8388738e+38
0.02449486 0.012769549 0.28100002 -1.8786983e+38
0.024949817 0.012769549 0.28100002 -1.8920428e+38
0.025859728 0.012769549 0.28100002 -1.9586603e+38
0.026408331 0.012814993 0.28200001 -2.0782389e+38
-0.012310018 0.01270682 0.27000001 -1.8665522e+38
-0.011828898 0.012659757 0.26900002 -1.7864858e+38
-0.010876372 0.012565633 0.26700002 -1.706837e+38
-0.0099742962 0.012518572 0.266 -1.7065242e+38
-0.0095436266 0.012518572 0.266 -1.7056914e+38
-0.009112956 0.012518572 0.266 -1.7049095e+38
-0.0086822864 0.012518572 0.266 -1.7044937e+38
-0.0077915434 0.012471508 0.26500002 -1.7045461e+38
-0.0073624924 0.012471508 0.26500002 -1.7045982e+38
-0.0069596055 0.012518572 0.266 -1.7047022e+38
-0.0057291165 0.013695128 0.29100001 -1.704911e+38
-0.0052579697 0.013695128 0.29100001 -1.704911e+38
-0.0048032724 0.013742191 0.29200003 -1.7049116e+38
-0.0038577411 0.013742191 0.29200003 -1.7049116e+38
-0.0033849755 0.013742191 0.29200003 -1.7049116e+38
-0.0029122098 0.013742191 0.29200003 -1.7050156e+38
-0.0019666783 0.013742191 0.29200003 -1.7050156e+38
-0.0014939127 0.013742191 0.29200003 -1.7050156e+38
-0.0010211469 0.013742191 0.29200003 -1.7051197e+38
-0.00054838113 0.013742191 0.29200003 -1.7051197e+38
0.00039715035 0.013742191 0.29200003 -1.7051722e+38
0.00086991611 0.013742191 0.29200003 -1.7051722e+38
0.0013426818 0.013742191 0.29200003 -1.7051722e+38
0.0018154476 0.013742191 0.29200003 -1.7052762e+38
0.0027609791 0.013742191 0.29200003 -1.7052766e+38
0.0032337448 0.013742191 0.29200003 -1.7052766e+38
0.0037065106 0.013742191 0.29200003 -1.7186732e+38
0.0046520424 0.013742191 0.29200003 -1.7052766e+38
0.0051248078 0.013742191 0.29200003 -1.7052766e+38
0.0055975737 0.013742191 0.29200003 -1.7052766e+38
0.0060703396 0.013742191 0.29200003 -1.7052766e+38
0.0070158709 0.013742191 0.29200003 -1.7054849e+38
0.0074886368 0.013742191 0.29200003 -1.7054849e+38
0.0079614026 0.013742191 0.29200003 -1.7054849e+38
0.0089069335 0.013742191 0.29200003 -1.7054849e+38
0.0093796998 0.013742191 0.29200003 -1.7054849e+38
0.0098524652 0.013742191 0.29200003 -1.7054328e+38
0.010761017 0.013695128 0.29100001 -1.7054334e+38
0.014196402 0.012565633 0.26700002 -1.7055369e+38
0.014628692 0.012565633 0.26700002 -1.705589e+38
0.015060981 0.012565633 0.26700002 -1.705589e+38
0.015925558 0.012565633 0.26700002 -1.7056411e+38
0.016419115 0.012612696 0.26800001 -1.705745e+38
0.016853023 0.012612696 0.26800001 -1.7192979e+38
0.017351435 0.012659757 0.26900002 -1.746611e+38
0.017786961 0.012659757 0.26900002 -1.7065778e+38
0.018290231 0.01270682 0.27000001 -1.7066283e+38
0.018796736 0.012753882 0.27100003 -1.706524e+38
0.019306483 0.012800945 0.27200001 -1.7063159e+38
0.019819466 0.012848007 0.273 -1.7062638e+38
0.02077931 0.012895069 0.27400002 -1.7061597e+38
0.021824704 0.012989194 0.27600002 -1.7061072e+38
0.022432955 0.013083318 0.27800003 -1.7458279e+38
0.022965366 0.013130381 0.27900001 -1.7458279e+38
0.023501016 0.013177443 0.28 -1.8255809e+38
0.023954352 0.013177443 0.28 -1.8389254e+38
0.02449486 0.013224506 0.28100002 -1.8786979e+38
0.024949817 0.013224506 0.28100002 -1.8920423e+38
0.025495183 0.013271567 0.28200001 -1.9319711e+38
0.026408331 0.013271567 0.28200001 -2.0914793e+38
-0.011828898 0.013095285 0.26900002 -1.8396547e+38
-0.010876372 0.012997922 0.26700002 -1.7068376e+38
-0.0099742962 0.012949241 0.266 -1.7066291e+38
-0.0095436266 0.012949241 0.266 -1.7328488e+38
-0.009112956 0.012949241 0.266 -1.7055344e+38
-0.0082205944 0.012900559 0.26500002 -1.7046497e+38
-0.0077621411 0.012851878 0.264 -1.7046499e+38
-0.0073347087 0.012851878 0.264 -1.704702e+38
-0.0064798454 0.012851878 0.264 -1.7047542e+38
-0.006052413 0.012851878 0.264 -1.7048063e+38
-0.0062002633 0.014166275 0.29100001 -1.7048063e+38
-0.0057291165 0.014166275 0.29100001 -1.7048594e+38
-0.0052579697 0.014166275 0.29100001 -1.7048594e+38
-0.0048032724 0.014214956 0.29200003 -1.7049116e+38
-0.0038577411 0.014214956 0.29200003 -1.7049635e+38
-0.0033849755 0.014214956 0.29200003 -1.7050156e+38
-0.0029122098 0.014214956 0.29200003 -1.7050156e+38
-0.0019599432 0.014166275 0.29100001 -1.7050156e+38
-0.0014887966 0.014166275 0.29100001 -1.7050156e+38
-0.0010176499 0.014166275 0.29100001 -1.7051201e+38
-0.00054838113 0.014214956 0.29200003 -1.7051201e+38
0.00039715035 0.014214956 0.29200003 -1.7051722e+38
0.00086991611 0.014214956 0.29200003 -1.7051722e+38
0.0013380835 0.014166275 0.29100001 -1.7051201e+38
0.0022803769 0.014166275 0.29100001 -1.7052762e+38
0.0027515236 0.014166275 0.29100001 -1.7052766e+38
0.0032226702 0.014166275 0.29100001 -1.7052766e+38
0.004164964 0.014166275 0.29100001 -1.7186732e+38
0.0046361103 0.014166275 0.29100001 -1.7052766e+38
0.005107257 0.014166275 0.29100001 -1.7052766e+38
0.0055784038 0.014166275 0.29100001 -1.7053286e+38
0.0065206974 0.014166275 0.29100001 -1.7054328e+38
0.0070158709 0.014214956 0.29200003 -1.7054849e+38
0.0074886368 0.014214956 0.29200003 -1.7054849e+38
0.0079614026 0.014214956 0.29200003 -1.7054849e+38
0.0089069335 0.014214956 0.29200003 -1.7054854e+38
0.0093796998 0.014214956 0.29200003 -1.7054854e+38
0.0098187234 0.014166275 0.29100001 -1.7054854e+38
0.013331824 0.012997922 0.26700002 -1.7055375e+38
0.014143232 0.012949241 0.266 -1.7055375e+38
0.014628692 0.012997922 0.26700002 -1.7055375e+38
0.015060981 0.012997922 0.26700002 -1.7055896e+38
0.015925558 0.012997922 0.26700002 -1.7056937e+38
0.016419115 0.013046604 0.26800001 -1.7062658e+38
0.016853023 0.013046604 0.26800001 -1.7596956e+38
0.017351435 0.013095285 0.26900002 -1.7067339e+38
0.017853085 0.013143967 0.27000001 -1.7066297e+38
0.018357972 0.013192647 0.27100003 -1.7065244e+38
0.018866099 0.013241329 0.27200001 -1.7064723e+38
0.019377463 0.013290011 0.273 -1.7061597e+38
0.019892065 0.013338692 0.27400002 -1.7061597e+38
0.02077931 0.013338692 0.27400002 -1.7061076e+38
0.021455301 0.013484736 0.27700001 -1.7060553e+38
0.022432955 0.013533417 0.27800003 -1.7856524e+38
0.022965366 0.013582098 0.27900001 -1.7856524e+38
0.023501016 0.01363078 0.28 -1.8388213e+38
0.024039904 0.013679462 0.28100002 -1.8521657e+38
0.02449486 0.013679462 0.28100002 -1.8919383e+38
0.025038607 0.013728143 0.28200001 -1.9186271e+38
0.025495183 0.013728143 0.28200001 -1.9585557e+38
0.026408331 0.013728143 0.28200001 -2.0914793e+38
-0.011828898 0.013530813 0.26900002 -1.9194609e+38
-0.010917108 0.013480511 0.26800001 -1.7069412e+38
-0.0099742962 0.013379912 0.266 -1.7067333e+38
-0.0095436266 0.013379912 0.266 -1.7064725e+38
-0.0090786964 0.013329611 0.26500002 -1.7063682e+38
-0.0082205944 0.013329611 0.26500002 -1.7052217e+38
-0.0077621411 0.013279309 0.264 -1.70517e+38
-0.0068811132 0.01322901 0.26300001 -1.7051702e+38
-0.0064553004 0.01322901 0.26300001 -1.7051702e+38
-0.0060065617 0.013178709 0.26200002 -1.7051186e+38
0.012851222 0.013379912 0.266 -1.7055375e+38
0.013661012 0.013329611 0.26500002 -1.7055375e+38
0.014090063 0.013329611 0.26500002 -1.7055375e+38
0.014573903 0.013379912 0.266 -1.7055896e+38
0.015060981 0.013430212 0.26700002 -1.7055896e+38
0.015925558 0.013430212 0.26700002 -1.7459867e+38
0.016419115 0.013480511 0.26800001 -1.7066818e+38
0.016915908 0.013530813 0.26900002 -1.7066818e+38
0.017415937 0.013581113 0.27000001 -1.7066814e+38
0.017919207 0.013631413 0.27100003 -1.7065772e+38
0.018425714 0.013681713 0.27200001 -1.7064725e+38
0.018866099 0.013681713 0.27200001 -1.7063682e+38
0.019377463 0.013732014 0.273 -1.7061076e+38
0.019892065 0.013782314 0.27400002 -1.7061076e+38
-0.0071425568 0.015108569 0.29100001 -1.7056904e+38
-0.0062002633 0.015108569 0.29100001 -1.7190873e+38
-0.0057488042 0.015160487 0.29200003 -1.705744e+38
-0.0052760383 0.015160487 0.29200003 -1.705744e+38
-0.0048032724 0.015160487 0.29200003 -1.7459333e+38
-0.0038577411 0.015160487 0.29200003 -1.7193486e+38
-0.0033733831 0.015108569 0.29100001 -1.732693e+38
-0.0029022365 0.015108569 0.29100001 -1.7195048e+38
-0.0019599432 0.015108569 0.29100001 -1.706265e+38
-0.0014887966 0.015108569 0.29100001 -1.7462982e+38
-0.0010176499 0.015108569 0.29100001 -1.7062133e+38
-7.5356438e-05 0.015108569 0.29100001 -1.7062133e+38
0.00039579024 0.015108569 0.29100001 -1.7062133e+38
0.00086693687 0.015108569 0.29100001 -1.7061616e+38
0.0013380835 0.015108569 0.29100001 -1.7061616e+38
0.0022803769 0.015108569 0.29100001 -1.7059531e+38
0.0027515236 0.015108569 0.29100001 -1.7059007e+38
0.0032226702 0.015108569 0.29100001 -1.7059007e+38
0.004164964 0.015108569 0.29100001 -1.7057965e+38
0.0046361103 0.015108569 0.29100001 -1.7057969e+38
0.005107257 0.015108569 0.29100001 -1.7056926e+38
0.0055784038 0.015108569 0.29100001 -1.7056417e+38
0.0065206974 0.015108569 0.29100001 -1.7055377e+38
0.0069918437 0.015108569 0.29100001 -1.7055377e+38
0.00746299 0.015108569 0.29100001 -1.7055377e+38
0.0079341372 0.015108569 0.29100001 -1.7055377e+38
0.0088764299 0.015108569 0.29100001 -1.7055898e+38
0.020409904 0.014277856 0.27500001 -1.7059506e+38
0.020930983 0.014329776 0.27600002 -1.7060549e+38
0.021455301 0.014381696 0.27700001 -1.7591719e+38
0.022432955 0.014433615 0.27800003 -1.8122361e+38
0.022965366 0.014485533 0.27900001 -1.8122361e+38
0.023501016 0.014537455 0.28 -1.8388209e+38
0.024039904 0.014589373 0.28100002 -1.8521653e+38
0.024582032 0.014641292 0.28200001 -1.9052827e+38
0.025038607 0.014641292 0.28200001 -1.9186271e+38
0.025495183 0.014641292 0.28200001 -1.9585557e+38
0.026408331 0.014641292 0.28200001 -2.1314082e+38
-0.010917108 0.014348328 0.26800001 -1.7998306e+38
-0.010444082 0.01429479 0.26700002 -1.7068901e+38
-0.0095436266 0.014241252 0.266 -1.7067859e+38
-0.0090786964 0.014187713 0.26500002 -1.7066816e+38
-0.008189573 0.014134174 0.264 -1.7060547e+38
-0.0072791432 0.014027097 0.26200002 -1.7057427e+38
-0.0068549491 0.014027097 0.26200002 -1.7056908e+38
-0.0064307554 0.014027097 0.26200002 -1.7056908e+38
-0.0060065617 0.014027097 0.26200002 -1.7056914e+38
-0.0062215696 0.015633253 0.29200003 -1.7057435e+38
-0.0057488042 0.015633253 0.29200003 -1.7057959e+38
-0.0052579697 0.015579715 0.29100001 -1.705848e+38
-0.0048032724 0.015633253 0.29200003 -1.7061604e+38
-0.0038445296 0.015579715 0.29100001 -1.7061604e+38
-0.0033733831 0.015579715 0.29100001 -1.7061604e+38
-0.0029022365 0.015579715 0.29100001 -1.7062129e+38
-0.0019599432 0.015579715 0.29100001 -1.7062654e+38
-0.0014887966 0.015579715 0.29100001 -1.7062654e+38
-0.0010141528 0.015526177 0.29000002 -1.7062654e+38
-7.509748e-05 0.015526177 0.29000002 -1.7062658e+38
0.00039443013 0.015526177 0.29000002 -1.7062658e+38
0.00086395774 0.015526177 0.29000002 -1.7063184e+38
0.0018030131 0.015526177 0.29000002 -1.7198185e+38
0.0022725407 0.015526177 0.29000002 -1.7198185e+38
0.0027420684 0.015526177 0.29000002 -1.7064741e+38
0.003211596 0.015526177 0.29000002 -1.7198185e+38
0.004164964 0.015579715 0.29100001 -1.7198185e+38
0.0046361103 0.015579715 0.29100001 -1.7332155e+38
0.005107257 0.015579715 0.29100001 -1.7332155e+38
0.0055784038 0.015579715 0.29100001 -1.7198715e+38
0.0065206974 0.015579715 0.29100001 -1.7198715e+38
0.0069918437 0.015579715 0.29100001 -1.7063707e+38
0.00746299 0.015579715 0.29100001 -1.7063186e+38
0.0079341372 0.015579715 0.29100001 -1.7063186e+38
0.012706283 0.014080636 0.26300001 -1.7055894e+38
0.013182029 0.014134174 0.264 -1.7056415e+38
0.013609461 0.014134174 0.264 -1.7056415e+38
0.014036893 0.014134174 0.264 -1.7056937e+38
0.014519114 0.014187713 0.26500002 -1.7060573e+38
0.015060981 0.01429479 0.26700002 -1.746299e+38
0.015925558 0.01429479 0.26700002 -1.7067339e+38
0.016419115 0.014348328 0.26800001 -1.7066293e+38
0.016915908 0.014401867 0.26900002 -1.7064729e+38
0.017415937 0.014455406 0.27000001 -1.7064725e+38
0.017919207 0.014508944 0.27100003 -1.7063682e+38
0.018425714 0.014562482 0.27200001 -1.7061076e+38
0.018935459 0.014616022 0.273 -1.7061076e+38
0.019377463 0.014616022 0.273 -1.7061072e+38
0.019892065 0.01466956 0.27400002 -1.706003e+38
0.020409904 0.014723098 0.27500001 -1.7058983e+38
0.020930983 0.014776638 0.27600002 -1.7192948e+38
0.021455301 0.014830176 0.27700001 -1.7591713e+38
0.022061931 0.014937252 0.27900001 -1.7591713e+38
0.022594342 0.014990792 0.28 -1.8122361e+38
0.023129992 0.01504433 0.28100002 -1.8122361e+38
0.024125457 0.015097868 0.28200001 -1.8786979e+38
0.024582032 0.015097868 0.28200001 -1.9052827e+38
0.025127396 0.015151408 0.28300002 -1.9186271e+38
0.02558559 0.015151408 0.28300002 -1.9319711e+38
0.026043784 0.015151408 0.28300002 -1.9720043e+38
-0.0104832 0.014782236 0.26800001 -1.7069412e+38
-0.0095795039 0.014727079 0.26700002 -1.706838e+38
-0.0090786964 0.014616764 0.26500002 -1.7067859e+38
-0.008189573 0.014561606 0.264 -1.7063676e+38
-0.0072791432 0.014451291 0.26200002 -1.7057951e+38
-0.0068549491 0.014451291 0.26200002 -1.7056912e+38
-0.0064062108 0.014396133 0.26100001 -1.7056912e+38
-0.0060065617 0.014451291 0.26200002 -1.7057438e+38
-0.0062215696 0.016106019 0.29200003 -1.7057959e+38
-0.0057488042 0.016106019 0.29200003 -1.7058484e+38
-0.0052760383 0.016106019 0.29200003 -1.7059527e+38
-0.0048032724 0.016106019 0.29200003 -1.7061088e+38
-0.0038445296 0.016050862 0.29100001 -1.7060567e+38
-0.0033733831 0.016050862 0.29100001 -1.7061088e+38
-0.0024227356 0.015995704 0.29000002 -1.7062129e+38
-0.0019532079 0.015995704 0.29000002 -1.7062133e+38
-0.0014836803 0.015995704 0.29000002 -1.7062654e+38
-0.0010141528 0.015995704 0.29000002 -1.7062658e+38
-7.509748e-05 0.015995704 0.29000002 -1.7062658e+38
0.00039443013 0.015995704 0.29000002 -1.7062658e+38
0.00086395774 0.015995704 0.29000002 -1.7063184e+38
0.0018030131 0.015995704 0.29000002 -1.7065267e+38
0.0022725407 0.015995704 0.29000002 -1.7065267e+38
0.0027420684 0.015995704 0.29000002 -1.7065267e+38
0.003211596 0.015995704 0.29000002 -1.7065267e+38
0.0041506514 0.015995704 0.29000002 -1.7065267e+38
0.0046201786 0.015995704 0.29000002 -1.7066311e+38
0.005107257 0.016050862 0.29100001 -1.7066832e+38
0.0055784038 0.016050862 0.29100001 -1.7066317e+38
0.0065206974 0.016050862 0.29100001 -1.7067873e+38
0.0069918437 0.016050862 0.29100001 -1.7067873e+38
0.0074373446 0.015995704 0.29000002 -1.7067348e+38
0.012233777 0.014451291 0.26200002 -1.7058492e+38
0.012657971 0.014451291 0.26200002 -1.7058494e+38
0.013132096 0.014506449 0.26300001 -1.7058494e+38
0.013609461 0.014561606 0.264 -1.7058494e+38
0.014036893 0.014561606 0.264 -1.7060058e+38
0.014891757 0.014561606 0.264 -1.7465073e+38
0.015925558 0.014727079 0.26700002 -1.7066818e+38
