# .PCD v0.7 - Point Cloud Data file format
VERSION 0.7
FIELDS x y z rgb
SIZE 4 4 4 4
TYPE F F F F
COUNT 1 1 1 1
WIDTH 950
HEIGHT 1
VIEWPOINT 0 0 0 1 0 0 0
POINTS 950
DATA ascii
-0.014327755 0.0014105494 0.28400001 -1.7055357e+38
-0.013916773 0.001415516 0.28500003 -1.7056397e+38
-0.013455341 0.001415516 0.28500003 -1.7056918e+38
-0.0130395 0.0014204828 0.28600001 -1.7055882e+38
-0.012113398 0.0014204828 0.28600001 -1.7055882e+38
-0.011691081 0.0014254496 0.287 -1.7055882e+38
-0.011226411 0.0014254496 0.287 -1.7055882e+38
-0.010799238 0.0014304162 0.28800002 -1.7055361e+38
-0.010332949 0.0014304162 0.28800002 -1.7056403e+38
-0.0094003696 0.0014304162 0.28800002 -1.7056401e+38
-0.0089340797 0.0014304162 0.28800002 -1.7056401e+38
-0.0084677907 0.0014304162 0.28800002 -1.7056405e+38
-0.0080015007 0.0014304162 0.28800002 -1.7056405e+38
-0.0070689218 0.0014304162 0.28800002 -1.705693e+38
-0.0066026323 0.0014304162 0.28800002 -1.7056926e+38
-0.0061363429 0.0014304162 0.28800002 -1.7056926e+38
-0.005203764 0.0014304162 0.28800002 -1.7058488e+38
-0.0047374745 0.0014304162 0.28800002 -1.7058488e+38
-0.004271185 0.0014304162 0.28800002 -1.7058488e+38
-0.0038048956 0.0014304162 0.28800002 -1.7058488e+38
-0.0028723166 0.0014304162 0.28800002 -1.7059531e+38
-0.0024060272 0.0014304162 0.28800002 -1.7059531e+38
-0.0019397376 0.0014304162 0.28800002 -1.706005e+38
-0.0010071585 0.0014304162 0.28800002 -1.7059007e+38
-0.00054086908 0.0014304162 0.28800002 -1.7060571e+38
-7.457957e-05 0.0014304162 0.28800002 -1.7061612e+38
0.00039170994 0.0014304162 0.28800002 -1.7062654e+38
0.0013242889 0.0014304162 0.28800002 -1.7063175e+38
0.0017843611 0.0014254496 0.287 -1.7062654e+38
0.0022490316 0.0014254496 0.287 -1.7063175e+38
0.0031783723 0.0014254496 0.287 -1.7198181e+38
0.0036430429 0.0014254496 0.287 -1.7063695e+38
0.0041077132 0.0014254496 0.287 -1.7064737e+38
0.005037054 0.0014254496 0.287 -1.7198185e+38
0.0055017248 0.0014254496 0.287 -1.7465073e+38
0.0059663951 0.0014254496 0.287 -1.7465073e+38
0.0064310655 0.0014254496 0.287 -1.746611e+38
0.0073604067 0.0014254496 0.287 -1.746611e+38
0.0077978116 0.0014204828 0.28600001 -1.7732998e+38
0.0082608629 0.0014204828 0.28600001 -1.7732998e+38
0.0091869654 0.0014204828 0.28600001 -1.7999886e+38
0.0096500171 0.0014204828 0.28600001 -1.7599554e+38
0.010113069 0.0014204828 0.28600001 -1.813229e+38
0.011039171 0.0014204828 0.28600001 -1.8664504e+38
0.011462006 0.001415516 0.28500003 -1.8797948e+38
0.011923438 0.001415516 0.28500003 -1.8797423e+38
0.012846302 0.001415516 0.28500003 -1.9728923e+38
0.013307733 0.001415516 0.28500003 -2.0129255e+38
0.013769167 0.001415516 0.28500003 -2.0792301e+38
0.01464048 0.0014105494 0.28400001 -2.1723803e+38
0.015100294 0.0014105494 0.28400001 -2.1456915e+38
0.015560106 0.0014105494 0.28400001 -2.2655821e+38
0.01601992 0.0014105494 0.28400001 -2.2655821e+38
0.016939547 0.0014105494 0.28400001 -2.4784139e+38
-0.013819111 0.0023219709 0.28300002 -1.7050667e+38
-0.013455341 0.0023383806 0.28500003 -1.7051189e+38
-0.012532475 0.0023383806 0.28500003 -1.7051712e+38
-0.012113398 0.0023465855 0.28600001 -1.7051712e+38
-0.011691081 0.0023547902 0.287 -1.7052233e+38
-0.011265527 0.0023629952 0.28800002 -1.7051712e+38
-0.010799238 0.0023629952 0.28800002 -1.7051712e+38
-0.010332949 0.0023629952 0.28800002 -1.7051712e+38
-0.0094003696 0.0023629952 0.28800002 -1.7052752e+38
-0.0089340797 0.0023629952 0.28800002 -1.7052752e+38
-0.0084677907 0.0023629952 0.28800002 -1.705172e+38
-0.0080015007 0.0023629952 0.28800002 -1.705172e+38
-0.0070689218 0.0023629952 0.28800002 -1.7052245e+38
-0.0066255582 0.0023711999 0.289 -1.705172e+38
-0.0061576497 0.0023711999 0.289 -1.7052241e+38
-0.0056897411 0.0023711999 0.289 -1.7052237e+38
-0.004753924 0.0023711999 0.289 -1.7052237e+38
-0.0042860154 0.0023711999 0.289 -1.7051716e+38
-0.0038181068 0.0023711999 0.289 -1.7052758e+38
-0.0028822899 0.0023711999 0.289 -1.7052758e+38
-0.0024143814 0.0023711999 0.289 -1.7052758e+38
-0.0019464727 0.0023711999 0.289 -1.7052758e+38
-0.0010071585 0.0023629952 0.28800002 -1.7053282e+38
-0.00054086908 0.0023629952 0.28800002 -1.7054324e+38
-7.457957e-05 0.0023629952 0.28800002 -1.7054324e+38
0.00039170994 0.0023629952 0.28800002 -1.7054845e+38
0.0013242889 0.0023629952 0.28800002 -1.7055365e+38
0.0017905785 0.0023629952 0.28800002 -1.7055365e+38
0.0022568679 0.0023629952 0.28800002 -1.7055886e+38
0.0031894469 0.0023629952 0.28800002 -1.7055886e+38
0.0036557363 0.0023629952 0.28800002 -1.7056407e+38
0.0041077132 0.0023547902 0.287 -1.7055886e+38
0.005037054 0.0023547902 0.287 -1.7057448e+38
0.0055017248 0.0023547902 0.287 -1.7056926e+38
0.0059663951 0.0023547902 0.287 -1.7057969e+38
0.0064310655 0.0023547902 0.287 -1.7057448e+38
0.0073604067 0.0023547902 0.287 -1.7058488e+38
0.0078250775 0.0023547902 0.287 -1.7058488e+38
0.0082897479 0.0023547902 0.287 -1.706005e+38
0.0092190886 0.0023547902 0.287 -1.706005e+38
0.0096500171 0.0023465855 0.28600001 -1.7060571e+38
0.010113069 0.0023465855 0.28600001 -1.7061616e+38
0.011039171 0.0023465855 0.28600001 -1.7061616e+38
0.011502223 0.0023465855 0.28600001 -1.7061616e+38
0.011965274 0.0023465855 0.28600001 -1.7062137e+38
0.012846302 0.0023383806 0.28500003 -1.7062143e+38
0.013307733 0.0023383806 0.28500003 -1.7062143e+38
0.013769167 0.0023383806 0.28500003 -1.7329552e+38
0.014230599 0.0023383806 0.28500003 -1.7596441e+38
0.015153463 0.0023383806 0.28500003 -1.7465073e+38
0.015560106 0.0023301758 0.28400001 -1.7199226e+38
0.01601992 0.0023301758 0.28400001 -1.733267e+38
0.016939547 0.0023301758 0.28400001 -1.746611e+38
0.017399359 0.0023301758 0.28400001 -1.7731953e+38
0.017859172 0.0023301758 0.28400001 -1.7865397e+38
0.018712677 0.0023219709 0.28300002 -1.8531056e+38
0.019170871 0.0023219709 0.28300002 -1.8665015e+38
0.019629065 0.0023219709 0.28300002 -1.8931903e+38
0.020545455 0.0023219709 0.28300002 -1.9463597e+38
0.021003649 0.0023219709 0.28300002 -1.9861326e+38
0.021461843 0.0023219709 0.28300002 -2.0128215e+38
0.022299156 0.0023137659 0.28200001 -2.1857243e+38
0.022755731 0.0023137659 0.28200001 -2.2788222e+38
0.023212306 0.0023137659 0.28200001 -2.2521334e+38
0.024125457 0.0023137659 0.28200001 -2.3184386e+38
0.024582032 0.0023137659 0.28200001 -2.5445112e+38
-0.015430659 0.0027408695 0.27900001 -1.705014e+38
-0.014978942 0.0027408695 0.27900001 -1.7049619e+38
-0.014075506 0.0027408695 0.27900001 -1.7049106e+38
-0.013623787 0.0027408695 0.27900001 -1.7049106e+38
-0.012532475 0.0027998127 0.28500003 -1.7050667e+38
-0.012113398 0.0028096368 0.28600001 -1.7050667e+38
-0.011691081 0.0028194606 0.287 -1.7050667e+38
-0.011265527 0.0028292846 0.28800002 -1.7050671e+38
-0.010799238 0.0028292846 0.28800002 -1.7050671e+38
-0.010332949 0.0028292846 0.28800002 -1.7051191e+38
-0.0099009182 0.0028391085 0.289 -1.7051712e+38
-0.0089651011 0.0028391085 0.289 -1.7051712e+38
-0.0084971925 0.0028391085 0.289 -1.7051197e+38
-0.008029284 0.0028391085 0.289 -1.7050675e+38
-0.0070934673 0.0028391085 0.289 -1.7051201e+38
-0.0066255582 0.0028391085 0.289 -1.7050679e+38
-0.0061576497 0.0028391085 0.289 -1.7050679e+38
-0.0056897411 0.0028391085 0.289 -1.7051201e+38
-0.004753924 0.0028391085 0.289 -1.7050675e+38
-0.0042860154 0.0028391085 0.289 -1.7050675e+38
-0.0038181068 0.0028391085 0.289 -1.7051718e+38
-0.0028822899 0.0028391085 0.289 -1.7051712e+38
-0.0024143814 0.0028391085 0.289 -1.7052233e+38
-0.0019464727 0.0028391085 0.289 -1.7051712e+38
-0.0014785641 0.0028391085 0.289 -1.7051712e+38
-0.00054274709 0.0028391085 0.289 -1.7052237e+38
-7.4838521e-05 0.0028391085 0.289 -1.7052237e+38
0.00039307005 0.0028391085 0.289 -1.7052758e+38
0.0013288872 0.0028391085 0.289 -1.7052758e+38
0.0017967958 0.0028391085 0.289 -1.7052756e+38
0.0022647043 0.0028391085 0.289 -1.705432e+38
0.0031894469 0.0028292846 0.28800002 -1.7054841e+38
0.0036557363 0.0028292846 0.28800002 -1.7055361e+38
0.0041220258 0.0028292846 0.28800002 -1.7054839e+38
0.0045883153 0.0028292846 0.28800002 -1.7054843e+38
0.0055017248 0.0028194606 0.287 -1.7055365e+38
0.0059663951 0.0028194606 0.287 -1.7055365e+38
0.0064310655 0.0028194606 0.287 -1.7055365e+38
0.0073604067 0.0028194606 0.287 -1.7055886e+38
0.0078250775 0.0028194606 0.287 -1.7055886e+38
0.0082897479 0.0028194606 0.287 -1.7056407e+38
0.0092190886 0.0028194606 0.287 -1.7056407e+38
0.009683759 0.0028194606 0.287 -1.7056407e+38
0.010148429 0.0028194606 0.287 -1.7056926e+38
0.011039171 0.0028096368 0.28600001 -1.7057969e+38
0.011502223 0.0028096368 0.28600001 -1.7057969e+38
0.011965274 0.0028096368 0.28600001 -1.7058492e+38
0.012428326 0.0028096368 0.28600001 -1.7057971e+38
0.013354429 0.0028096368 0.28600001 -1.7059535e+38
0.013769167 0.0027998127 0.28500003 -1.7059539e+38
0.014230599 0.0027998127 0.28500003 -1.706006e+38
0.015153463 0.0027998127 0.28500003 -1.7194541e+38
0.015614895 0.0027998127 0.28500003 -1.7061616e+38
0.016076328 0.0027998127 0.28500003 -1.7061616e+38
0.016939547 0.0027899889 0.28400001 -1.7062658e+38
0.017399359 0.0027899889 0.28400001 -1.7062658e+38
0.017859172 0.0027899889 0.28400001 -1.7330068e+38
0.018778799 0.0027899889 0.28400001 -1.7198185e+38
0.019238614 0.0027899889 0.28400001 -1.7198181e+38
0.019629065 0.0027801651 0.28300002 -1.7465069e+38
0.020545455 0.0027801651 0.28300002 -1.7465069e+38
0.021003649 0.0027801651 0.28300002 -1.7865406e+38
0.021461843 0.0027801651 0.28300002 -1.7865406e+38
0.022299156 0.002770341 0.28200001 -1.8399178e+38
0.022755731 0.002770341 0.28200001 -1.8797944e+38
0.023212306 0.002770341 0.28200001 -1.86645e+38
0.024125457 0.002770341 0.28200001 -1.919827e+38
0.02449486 0.0027605172 0.28100002 -2.0527496e+38
0.024949817 0.0027605172 0.28100002 -2.0794384e+38
0.025859728 0.0027605172 0.28100002 -2.2521861e+38
0.026314685 0.0027605172 0.28100002 -2.4514653e+38
0.026769642 0.0027605172 0.28100002 -2.4648097e+38
-0.015375352 0.0031811444 0.27800003 -1.7053787e+38
-0.014475154 0.0031811444 0.27800003 -1.704702e+38
-0.014025055 0.0031811444 0.27800003 -1.7047542e+38
-0.013623787 0.0031925873 0.27900001 -1.7048063e+38
-0.01317207 0.0031925873 0.27900001 -1.7049106e+38
-0.012532475 0.0032612451 0.28500003 -1.7050146e+38
-0.011691081 0.0032841312 0.287 -1.7050146e+38
-0.011265527 0.0032955739 0.28800002 -1.7050671e+38
-0.010799238 0.0032955739 0.28800002 -1.705015e+38
-0.010368827 0.0033070168 0.289 -1.7050671e+38
-0.0099009182 0.0033070168 0.289 -1.7050671e+38
-0.0089651011 0.0033070168 0.289 -1.7051191e+38
-0.0084971925 0.0033070168 0.289 -1.7050675e+38
-0.008029284 0.0033070168 0.289 -1.7050675e+38
-0.0070934673 0.0033070168 0.289 -1.7050679e+38
-0.0066255582 0.0033070168 0.289 -1.7050679e+38
-0.0061576497 0.0033070168 0.289 -1.7050158e+38
-0.0056897411 0.0033070168 0.289 -1.7050675e+38
-0.004753924 0.0033070168 0.289 -1.7050675e+38
-0.0042860154 0.0033070168 0.289 -1.7050154e+38
-0.0038181068 0.0033070168 0.289 -1.7051197e+38
-0.0028822899 0.0033070168 0.289 -1.7051712e+38
-0.0024143814 0.0033070168 0.289 -1.7051712e+38
-0.0019464727 0.0033070168 0.289 -1.7051712e+38
-0.0014785641 0.0033070168 0.289 -1.7051712e+38
-0.00054274709 0.0033070168 0.289 -1.7052233e+38
-7.4838521e-05 0.0033070168 0.289 -1.7052752e+38
0.00039307005 0.0033070168 0.289 -1.7052752e+38
0.00086395774 0.0033184597 0.29000002 -1.7052752e+38
0.0017967958 0.0033070168 0.289 -1.7051716e+38
0.0022647043 0.0033070168 0.289 -1.7052758e+38
0.0027326129 0.0033070168 0.289 -1.7053278e+38
0.0036557363 0.0032955739 0.28800002 -1.7053278e+38
0.0041220258 0.0032955739 0.28800002 -1.7053278e+38
0.0045883153 0.0032955739 0.28800002 -1.7052756e+38
0.0055208942 0.0032955739 0.28800002 -1.7054324e+38
0.0059871841 0.0032955739 0.28800002 -1.7053282e+38
0.0064534736 0.0032955739 0.28800002 -1.7053282e+38
0.0073604067 0.0032841312 0.287 -1.7054324e+38
0.0078250775 0.0032841312 0.287 -1.7054324e+38
0.0082897479 0.0032841312 0.287 -1.7054324e+38
0.0092190886 0.0032841312 0.287 -1.7055365e+38
0.009683759 0.0032841312 0.287 -1.7055365e+38
0.010148429 0.0032841312 0.287 -1.7055365e+38
0.0106131 0.0032841312 0.287 -1.7055886e+38
0.01154244 0.0032841312 0.287 -1.7055886e+38
0.011965274 0.0032726882 0.28600001 -1.7055369e+38
0.012428326 0.0032726882 0.28600001 -1.705589e+38
0.013354429 0.0032726882 0.28600001 -1.7056411e+38
0.013817481 0.0032726882 0.28600001 -1.705693e+38
0.014280532 0.0032726882 0.28600001 -1.705693e+38
0.015153463 0.0032612451 0.28500003 -1.7057452e+38
0.015614895 0.0032612451 0.28500003 -1.7058492e+38
0.016076328 0.0032612451 0.28500003 -1.7058492e+38
0.016999193 0.0032612451 0.28500003 -1.7059531e+38
0.017460626 0.0032612451 0.28500003 -1.706005e+38
0.017859172 0.0032498022 0.28400001 -1.7060571e+38
0.018778799 0.0032498022 0.28400001 -1.7061616e+38
0.019238614 0.0032498022 0.28400001 -1.7061094e+38
0.019698426 0.0032498022 0.28400001 -1.7061616e+38
0.020545455 0.0032383592 0.28300002 -1.7062137e+38
0.021003649 0.0032383592 0.28300002 -1.7062668e+38
0.021461843 0.0032383592 0.28300002 -1.7062668e+38
0.022299156 0.0032269161 0.28200001 -1.719767e+38
0.022755731 0.0032269161 0.28200001 -1.7199226e+38
0.023129992 0.0032154731 0.28100002 -1.7199226e+38
0.024039904 0.0032154731 0.28100002 -1.7599558e+38
0.02449486 0.0032154731 0.28100002 -1.7466114e+38
0.024949817 0.0032154731 0.28100002 -1.8133334e+38
0.025859728 0.0032154731 0.28100002 -1.8797948e+38
0.026314685 0.0032154731 0.28100002 -2.0129255e+38
-0.015375352 0.0036312432 0.27800003 -1.7057433e+38
-0.014475154 0.0036312432 0.27800003 -1.7046499e+38
-0.014025055 0.0036312432 0.27800003 -1.704702e+38
-0.013574956 0.0036312432 0.27800003 -1.7047542e+38
-0.013124857 0.0036312432 0.27800003 -1.7048063e+38
0.022675036 0.0036704291 0.28100002 -1.7062137e+38
0.023501016 0.0036573673 0.28 -1.7062658e+38
0.023954352 0.0036573673 0.28 -1.7330068e+38
0.02440769 0.0036573673 0.28 -1.7063699e+38
0.024949817 0.0036704291 0.28100002 -1.7064741e+38
0.025767701 0.0036573673 0.28 -1.7465073e+38
0.026314685 0.0036704291 0.28100002 -1.7466114e+38
-0.012532475 0.0041841096 0.28500003 -1.7049106e+38
-0.012113398 0.004198791 0.28600001 -1.7049106e+38
-0.011691081 0.0042134719 0.287 -1.7049106e+38
-0.011265527 0.0042281528 0.28800002 -1.7049631e+38
-0.010836735 0.0042428337 0.289 -1.7049631e+38
-0.010368827 0.0042428337 0.289 -1.705015e+38
-0.0099009182 0.0042428337 0.289 -1.7049629e+38
-0.0089651011 0.0042428337 0.289 -1.7050156e+38
-0.0084971925 0.0042428337 0.289 -1.7050156e+38
-0.008029284 0.0042428337 0.289 -1.7049635e+38
-0.0070934673 0.0042428337 0.289 -1.7049635e+38
-0.0066255582 0.0042428337 0.289 -1.7049635e+38
-0.0061789565 0.0042575151 0.29000002 -1.7049635e+38
-0.0057094288 0.0042575151 0.29000002 -1.7049635e+38
-0.0052399011 0.0042575151 0.29000002 -1.7050156e+38
-0.0043008458 0.0042575151 0.29000002 -1.7049635e+38
-0.0038313183 0.0042575151 0.29000002 -1.7050156e+38
-0.0033617907 0.0042575151 0.29000002 -1.7050156e+38
-0.0024227356 0.0042575151 0.29000002 -1.7050156e+38
-0.0019464727 0.0042428337 0.289 -1.7050675e+38
-0.0014785641 0.0042428337 0.289 -1.7050675e+38
-0.00054274709 0.0042428337 0.289 -1.7051712e+38
-7.509748e-05 0.0042575151 0.29000002 -1.7051712e+38
0.00039443013 0.0042575151 0.29000002 -1.7051712e+38
0.00086395774 0.0042575151 0.29000002 -1.7051712e+38
0.0018030131 0.0042575151 0.29000002 -1.7051712e+38
0.0022647043 0.0042428337 0.289 -1.7051712e+38
0.0027326129 0.0042428337 0.289 -1.7051712e+38
0.00366843 0.0042428337 0.289 -1.7052752e+38
0.0041363384 0.0042428337 0.289 -1.7052752e+38
0.0045883153 0.0042281528 0.28800002 -1.7051716e+38
0.0055208942 0.0042281528 0.28800002 -1.7052237e+38
0.0059871841 0.0042281528 0.28800002 -1.7052237e+38
0.0064534736 0.0042281528 0.28800002 -1.7052237e+38
0.0073860525 0.0042281528 0.28800002 -1.7052237e+38
0.007852342 0.0042281528 0.28800002 -1.7052237e+38
0.008318631 0.0042281528 0.28800002 -1.7052237e+38
0.0087849209 0.0042281528 0.28800002 -1.7052237e+38
0.009683759 0.0042134719 0.287 -1.7052237e+38
0.010148429 0.0042134719 0.287 -1.7053278e+38
0.0106131 0.0042134719 0.287 -1.7053278e+38
0.01154244 0.0042134719 0.287 -1.7053282e+38
0.012007111 0.0042134719 0.287 -1.7052764e+38
0.012471781 0.0042134719 0.287 -1.7053286e+38
0.013354429 0.004198791 0.28600001 -1.7054328e+38
0.013817481 0.004198791 0.28600001 -1.7053286e+38
0.014280532 0.004198791 0.28600001 -1.7053286e+38
0.015206634 0.004198791 0.28600001 -1.7055365e+38
0.015669687 0.004198791 0.28600001 -1.7055365e+38
0.016076328 0.0041841096 0.28500003 -1.7055365e+38
0.016999193 0.0041841096 0.28500003 -1.7055365e+38
0.017460626 0.0041841096 0.28500003 -1.7054843e+38
0.017922057 0.0041841096 0.28500003 -1.7054843e+38
0.01838349 0.0041841096 0.28500003 -1.7055369e+38
0.019238614 0.0041694287 0.28400001 -1.7055369e+38
0.019698426 0.0041694287 0.28400001 -1.705589e+38
0.020158239 0.0041694287 0.28400001 -1.7056932e+38
0.021003649 0.0041547474 0.28300002 -1.7056411e+38
0.021461843 0.0041547474 0.28300002 -1.7056932e+38
0.022299156 0.0041400664 0.28200001 -1.7057973e+38
-0.015375352 0.0045314408 0.27800003 -1.7065244e+38
-0.014423085 0.0045151408 0.27700001 -1.7048053e+38
-0.013974605 0.0045151408 0.27700001 -1.7047532e+38
-0.013526125 0.0045151408 0.27700001 -1.704598e+38
-0.013124857 0.0045314408 0.27800003 -1.7046501e+38
-0.011691081 0.0046781423 0.287 -1.7048063e+38
-0.011265527 0.0046944423 0.28800002 -1.7049106e+38
-0.010836735 0.0047107423 0.289 -1.7049106e+38
-0.010368827 0.0047107423 0.289 -1.7049631e+38
-0.0099009182 0.0047107423 0.289 -1.704911e+38
-0.0089651011 0.0047107423 0.289 -1.705015e+38
-0.0084971925 0.0047107423 0.289 -1.705015e+38
-0.0080570672 0.0047270423 0.29000002 -1.705015e+38
-0.0075875395 0.0047270423 0.29000002 -1.705015e+38
-0.0066484842 0.0047270423 0.29000002 -1.7049635e+38
-0.0061789565 0.0047270423 0.29000002 -1.7049635e+38
-0.0057094288 0.0047270423 0.29000002 -1.7049635e+38
-0.0052399011 0.0047270423 0.29000002 -1.7050156e+38
-0.0043008458 0.0047270423 0.29000002 -1.7049635e+38
-0.0038313183 0.0047270423 0.29000002 -1.7050156e+38
-0.0033617907 0.0047270423 0.29000002 -1.7049635e+38
-0.0024227356 0.0047270423 0.29000002 -1.7049635e+38
-0.0019532079 0.0047270423 0.29000002 -1.7050156e+38
-0.0014836803 0.0047270423 0.29000002 -1.7050156e+38
-0.0010141528 0.0047270423 0.29000002 -1.7051191e+38
-7.509748e-05 0.0047270423 0.29000002 -1.7051191e+38
0.00039443013 0.0047270423 0.29000002 -1.7051712e+38
0.00086395774 0.0047270423 0.29000002 -1.7051191e+38
0.0018030131 0.0047270423 0.29000002 -1.7051712e+38
0.0022725407 0.0047270423 0.29000002 -1.7051712e+38
0.0027326129 0.0047107423 0.289 -1.7051191e+38
0.00366843 0.0047107423 0.289 -1.7052752e+38
0.0041363384 0.0047107423 0.289 -1.7052752e+38
0.0046042469 0.0047107423 0.289 -1.7051716e+38
0.0050721555 0.0047107423 0.289 -1.7052237e+38
0.0059871841 0.0046944423 0.28800002 -1.7051716e+38
0.0064534736 0.0046944423 0.28800002 -1.7051716e+38
0.0073860525 0.0046944423 0.28800002 -1.7051716e+38
0.007852342 0.0046944423 0.28800002 -1.7051716e+38
0.008318631 0.0046944423 0.28800002 -1.7052237e+38
0.0087849209 0.0046944423 0.28800002 -1.7052237e+38
0.0097174998 0.0046944423 0.28800002 -1.7052237e+38
0.01018379 0.0046944423 0.28800002 -1.7052237e+38
0.010650079 0.0046944423 0.28800002 -1.7052758e+38
0.011116369 0.0046944423 0.28800002 -1.7054324e+38
0.012048948 0.0046944423 0.28800002 -1.705276e+38
0.012471781 0.0046781423 0.287 -1.7053282e+38
0.013401123 0.0046781423 0.287 -1.7052764e+38
0.013865793 0.0046781423 0.287 -1.7052764e+38
0.014330463 0.0046781423 0.287 -1.7052764e+38
0.015206634 0.0046618422 0.28600001 -1.7053282e+38
0.015669687 0.0046618422 0.28600001 -1.7054324e+38
0.016132737 0.0046618422 0.28600001 -1.7054324e+38
0.016595788 0.0046618422 0.28600001 -1.7054843e+38
0.017521892 0.0046618422 0.28600001 -1.705328e+38
0.017984943 0.0046618422 0.28600001 -1.7053801e+38
0.01838349 0.0046455418 0.28500003 -1.7053801e+38
0.019306354 0.0046455418 0.28500003 -1.7054843e+38
0.019698426 0.0046292418 0.28400001 -1.7054843e+38
0.020158239 0.0046292418 0.28400001 -1.7055886e+38
0.021077866 0.0046292418 0.28400001 -1.7055886e+38
0.021461843 0.0046129413 0.28300002 -1.7055886e+38
0.022220081 0.0045803413 0.28100002 -1.7055886e+38
0.022594342 0.0045640413 0.28 -1.7055886e+38
0.023333153 0.0045314408 0.27800003 -1.7057448e+38
0.023783252 0.0045314408 0.27800003 -1.7057969e+38
0.02440769 0.0045640413 0.28 -1.7057967e+38
0.025314365 0.0045640413 0.28 -1.7060054e+38
0.025767701 0.0045640413 0.28 -1.7061096e+38
0.026221039 0.0045640413 0.28 -1.7063699e+38
-0.015320045 0.0049636206 0.27700001 -1.7066808e+38
-0.014371017 0.004945701 0.27600002 -1.7051704e+38
-0.013030434 0.004945701 0.27600002 -1.704702e+38
-0.012583573 0.004945701 0.27600002 -1.7048063e+38
-0.012224659 0.0049815397 0.27800003 -1.7048063e+38
-0.011265527 0.0051607317 0.28800002 -1.7049106e+38
-0.010836735 0.0051786508 0.289 -1.7049106e+38
-0.010368827 0.0051786508 0.289 -1.7049106e+38
-0.0099351769 0.00519657 0.29000002 -1.7049106e+38
-0.0089961225 0.00519657 0.29000002 -1.705015e+38
-0.0085265944 0.00519657 0.29000002 -1.705015e+38
-0.0080570672 0.00519657 0.29000002 -1.705015e+38
-0.0075875395 0.00519657 0.29000002 -1.705015e+38
-0.0066484842 0.00519657 0.29000002 -1.7049629e+38
-0.0061789565 0.00519657 0.29000002 -1.7049629e+38
-0.0057094288 0.00519657 0.29000002 -1.705015e+38
-0.0052399011 0.00519657 0.29000002 -1.705015e+38
-0.0043008458 0.00519657 0.29000002 -1.705015e+38
-0.0038445296 0.0052144891 0.29100001 -1.705015e+38
-0.0033733831 0.0052144891 0.29100001 -1.705015e+38
-0.0029022365 0.0052144891 0.29100001 -1.705015e+38
-0.0019599432 0.0052144891 0.29100001 -1.705015e+38
-0.0014887966 0.0052144891 0.29100001 -1.705015e+38
-0.0010141528 0.00519657 0.29000002 -1.7050671e+38
-7.509748e-05 0.00519657 0.29000002 -1.7051191e+38
0.00039443013 0.00519657 0.29000002 -1.7051191e+38
0.00086395774 0.00519657 0.29000002 -1.7051191e+38
0.0018030131 0.00519657 0.29000002 -1.7051191e+38
0.0022725407 0.00519657 0.29000002 -1.7051712e+38
0.0027420684 0.00519657 0.29000002 -1.7051191e+38
0.00366843 0.0051786508 0.289 -1.7052233e+38
0.0041363384 0.0051786508 0.289 -1.7051712e+38
0.0046042469 0.0051786508 0.289 -1.7051197e+38
0.0050721555 0.0051786508 0.289 -1.7051197e+38
0.0060079726 0.0051786508 0.289 -1.7051197e+38
0.0064758812 0.0051786508 0.289 -1.7051197e+38
0.0069437893 0.0051786508 0.289 -1.7051197e+38
0.0078796064 0.0051786508 0.289 -1.7051716e+38
0.008347515 0.0051786508 0.289 -1.7051716e+38
0.0087849209 0.0051607317 0.28800002 -1.7052237e+38
0.0097174998 0.0051607317 0.28800002 -1.7052237e+38
0.01018379 0.0051607317 0.28800002 -1.7052237e+38
0.010650079 0.0051607317 0.28800002 -1.7052758e+38
0.011116369 0.0051607317 0.28800002 -1.7052758e+38
0.012048948 0.0051607317 0.28800002 -1.705276e+38
0.012515237 0.0051607317 0.28800002 -1.705276e+38
0.012981527 0.0051607317 0.28800002 -1.7052764e+38
0.013865793 0.0051428126 0.287 -1.7052764e+38
0.014330463 0.0051428126 0.287 -1.7052764e+38
0.014795134 0.0051428126 0.287 -1.7054324e+38
0.015724475 0.0051428126 0.287 -1.7053282e+38
0.016132737 0.0051248935 0.28600001 -1.7053282e+38
0.016595788 0.0051248935 0.28600001 -1.7054324e+38
0.017521892 0.0051248935 0.28600001 -1.705276e+38
0.017984943 0.0051248935 0.28600001 -1.7053282e+38
0.018447993 0.0051248935 0.28600001 -1.7053282e+38
0.019306354 0.0051069744 0.28500003 -1.7053282e+38
0.019767785 0.0051069744 0.28500003 -1.7053282e+38
0.020158239 0.0050890553 0.28400001 -1.7055365e+38
0.021003649 0.0050711357 0.28300002 -1.7055365e+38
0.021765124 0.005035297 0.28100002 -1.7055365e+38
0.022061931 0.0049994588 0.27900001 -1.7055365e+38
0.022883054 0.0049815397 0.27800003 -1.7055886e+38
0.023333153 0.0049815397 0.27800003 -1.7056407e+38
0.023783252 0.0049815397 0.27800003 -1.7056928e+38
0.02432052 0.0049994588 0.27900001 -1.7056926e+38
0.025314365 0.0050173779 0.28 -1.7059011e+38
0.025767701 0.0050173779 0.28 -1.7060054e+38
-0.013772806 0.005333947 0.273 -1.705014e+38
-0.013330802 0.005333947 0.273 -1.7045457e+38
-0.012888799 0.005333947 0.273 -1.7046499e+38
-0.012492388 0.0053534852 0.27400002 -1.7047022e+38
-0.010836735 0.0056465594 0.289 -1.7049106e+38
-0.010368827 0.0056465594 0.289 -1.7049106e+38
-0.0099351769 0.0056660976 0.29000002 -1.7049106e+38
-0.0089961225 0.0056660976 0.29000002 -1.7049106e+38
-0.0085265944 0.0056660976 0.29000002 -1.7049106e+38
-0.0080570672 0.0056660976 0.29000002 -1.7049106e+38
-0.0075875395 0.0056660976 0.29000002 -1.7049106e+38
-0.0066484842 0.0056660976 0.29000002 -1.704911e+38
-0.0061789565 0.0056660976 0.29000002 -1.704911e+38
-0.0057094288 0.0056660976 0.29000002 -1.705015e+38
-0.0052579697 0.0056856358 0.29100001 -1.705015e+38
-0.0043156766 0.0056856358 0.29100001 -1.705015e+38
-0.0038445296 0.0056856358 0.29100001 -1.705015e+38
-0.0033733831 0.0056856358 0.29100001 -1.705015e+38
-0.0029022365 0.0056856358 0.29100001 -1.705015e+38
-0.0019599432 0.0056856358 0.29100001 -1.705015e+38
-0.0014887966 0.0056856358 0.29100001 -1.705015e+38
-0.0010176499 0.0056856358 0.29100001 -1.705015e+38
-7.5356438e-05 0.0056856358 0.29100001 -1.7051191e+38
0.00039579024 0.0056856358 0.29100001 -1.7051191e+38
0.00086693687 0.0056856358 0.29100001 -1.7051191e+38
0.0013380835 0.0056856358 0.29100001 -1.7051191e+38
0.0022725407 0.0056660976 0.29000002 -1.7051712e+38
0.0027420684 0.0056660976 0.29000002 -1.7051191e+38
0.003211596 0.0056660976 0.29000002 -1.7051712e+38
0.0041506514 0.0056660976 0.29000002 -1.7051712e+38
0.0046042469 0.0056465594 0.289 -1.7051197e+38
0.0050721555 0.0056465594 0.289 -1.7051197e+38
0.0060079726 0.0056465594 0.289 -1.7051197e+38
0.0064758812 0.0056465594 0.289 -1.7051197e+38
0.0069437893 0.0056465594 0.289 -1.7051197e+38
0.0078796064 0.0056465594 0.289 -1.7051197e+38
0.008347515 0.0056465594 0.289 -1.7051716e+38
0.0088154236 0.0056465594 0.289 -1.7052237e+38
0.0092833322 0.0056465594 0.289 -1.7052237e+38
0.010219149 0.0056465594 0.289 -1.7052237e+38
0.010687058 0.0056465594 0.289 -1.7052237e+38
0.011154966 0.0056465594 0.289 -1.7052758e+38
0.012090784 0.0056465594 0.289 -1.7052241e+38
0.012558692 0.0056465594 0.289 -1.7052241e+38
0.012981527 0.0056270212 0.28800002 -1.7052764e+38
0.013914105 0.0056270212 0.28800002 -1.7052764e+38
0.014380394 0.0056270212 0.28800002 -1.7052243e+38
0.014795134 0.005607483 0.287 -1.7053282e+38
0.015724475 0.005607483 0.287 -1.7053282e+38
0.016189145 0.005607483 0.287 -1.705276e+38
0.016653815 0.005607483 0.287 -1.7053282e+38
0.017118486 0.005607483 0.287 -1.7053282e+38
0.017984943 0.0055879448 0.28600001 -1.7053282e+38
0.018447993 0.0055879448 0.28600001 -1.7053282e+38
0.019306354 0.0055684065 0.28500003 -1.7053282e+38
0.019698426 0.0055488683 0.28400001 -1.7053282e+38
0.020545455 0.0055293296 0.28300002 -1.7054324e+38
0.022271566 0.0053925617 0.27600002 -1.7054843e+38
0.022718426 0.0053925617 0.27600002 -1.7055365e+38
0.02324922 0.0054121003 0.27700001 -1.7055886e+38
0.023783252 0.0054316386 0.27800003 -1.7056407e+38
0.02432052 0.0054511768 0.27900001 -1.7055886e+38
0.025314365 0.005470715 0.28 -1.7059531e+38
0.025767701 0.005470715 0.28 -1.7596434e+38
-0.014162741 0.0061951778 0.27200001 -1.7066289e+38
-0.013722355 0.0061951778 0.27200001 -1.7063161e+38
-0.013281971 0.0061951778 0.27200001 -1.704858e+38
-0.012888799 0.0062179542 0.273 -1.7046495e+38
-0.011960818 0.0061951778 0.27200001 -1.704598e+38
-0.011562789 0.0062179542 0.273 -1.7047022e+38
-0.011120785 0.0062179542 0.273 -1.7047022e+38
-0.010717898 0.0062407306 0.27400002 -1.7047542e+38
-0.010368827 0.0065823765 0.289 -1.7048063e+38
-0.0099009182 0.0065823765 0.289 -1.7048063e+38
-0.0089961225 0.0066051525 0.29000002 -1.7049106e+38
-0.0085265944 0.0066051525 0.29000002 -1.7048063e+38
-0.0080570672 0.0066051525 0.29000002 -1.7049106e+38
-0.0075875395 0.0066051525 0.29000002 -1.7049106e+38
-0.0066484842 0.0066051525 0.29000002 -1.704911e+38
-0.0061789565 0.0066051525 0.29000002 -1.704911e+38
-0.0057291165 0.0066279289 0.29100001 -1.7049631e+38
-0.0052579697 0.0066279289 0.29100001 -1.7049631e+38
-0.0043156766 0.0066279289 0.29100001 -1.7050671e+38
-0.0038445296 0.0066279289 0.29100001 -1.705015e+38
-0.0033733831 0.0066279289 0.29100001 -1.7049629e+38
-0.0029122098 0.0066507054 0.29200003 -1.705015e+38
-0.0019666783 0.0066507054 0.29200003 -1.7050671e+38
-0.0014939127 0.0066507054 0.29200003 -1.705015e+38
-0.0010211469 0.0066507054 0.29200003 -1.7050671e+38
-0.00054838113 0.0066507054 0.29200003 -1.7050671e+38
0.00039715035 0.0066507054 0.29200003 -1.7050671e+38
0.00086693687 0.0066279289 0.29100001 -1.7050671e+38
0.0013380835 0.0066279289 0.29100001 -1.7050671e+38
0.0022803769 0.0066279289 0.29100001 -1.7051712e+38
0.0027515236 0.0066279289 0.29100001 -1.7051191e+38
0.003211596 0.0066051525 0.29000002 -1.7051191e+38
0.0041506514 0.0066051525 0.29000002 -1.7051712e+38
0.0046201786 0.0066051525 0.29000002 -1.7051197e+38
0.0050897063 0.0066051525 0.29000002 -1.7051197e+38
0.0060287616 0.0066051525 0.29000002 -1.7051197e+38
0.0064982893 0.0066051525 0.29000002 -1.7051718e+38
0.006967817 0.0066051525 0.29000002 -1.7051197e+38
0.0074373446 0.0066051525 0.29000002 -1.7051197e+38
0.008347515 0.0065823765 0.289 -1.7051716e+38
0.0088154236 0.0065823765 0.289 -1.7052237e+38
0.0092833322 0.0065823765 0.289 -1.7052237e+38
0.010219149 0.0065823765 0.289 -1.7051716e+38
0.010687058 0.0065823765 0.289 -1.7052758e+38
0.011154966 0.0065823765 0.289 -1.7052758e+38
0.012090784 0.0065823765 0.289 -1.7052237e+38
0.012558692 0.0065823765 0.289 -1.7052237e+38
0.013026601 0.0065823765 0.289 -1.7052241e+38
0.013914105 0.0065596001 0.28800002 -1.7052245e+38
0.014380394 0.0065596001 0.28800002 -1.7051724e+38
0.014846684 0.0065596001 0.28800002 -1.7052762e+38
0.015724475 0.0065368237 0.287 -1.7052241e+38
0.016189145 0.0065368237 0.287 -1.7052241e+38
0.016653815 0.0065368237 0.287 -1.7052762e+38
0.017118486 0.0065368237 0.287 -1.7052762e+38
0.017984943 0.0065140473 0.28600001 -1.7052762e+38
0.018447993 0.0065140473 0.28600001 -1.7053282e+38
0.019306354 0.0064912708 0.28500003 -1.705276e+38
0.021666555 0.0062407306 0.27400002 -1.7054324e+38
0.022110179 0.0062407306 0.27400002 -1.7054843e+38
0.022718426 0.006286283 0.27600002 -1.7055365e+38
0.02324922 0.0063090599 0.27700001 -1.7055365e+38
0.023783252 0.0063318363 0.27800003 -1.7055886e+38
0.02432052 0.0063546128 0.27900001 -1.7058486e+38
0.025314365 0.0063773887 0.28 -1.7068901e+38
0.025767701 0.0063773887 0.28 -1.706838e+38
0.026221039 0.0063773887 0.28 -1.706838e+38
-0.014058603 0.0065867715 0.27000001 -1.7067329e+38
-0.013621457 0.0065867715 0.27000001 -1.7064202e+38
-0.013281971 0.0066355621 0.27200001 -1.705535e+38
-0.012841588 0.0066355621 0.27200001 -1.704701e+38
-0.011960818 0.0066355621 0.27200001 -1.7045459e+38
-0.011520434 0.0066355621 0.27200001 -1.7045982e+38
-0.011080049 0.0066355621 0.27200001 -1.7045982e+38
-0.010678781 0.006659958 0.273 -1.7046501e+38
-0.0089651011 0.0070502851 0.289 -1.7049106e+38
-0.0085265944 0.0070746802 0.29000002 -1.7048063e+38
-0.0080570672 0.0070746802 0.29000002 -1.7049106e+38
-0.0075875395 0.0070746802 0.29000002 -1.7049106e+38
-0.0066484842 0.0070746802 0.29000002 -1.704911e+38
-0.0062002633 0.0070990762 0.29100001 -1.704911e+38
-0.0057291165 0.0070990762 0.29100001 -1.7049631e+38
-0.0052579697 0.0070990762 0.29100001 -1.7049631e+38
-0.0043156766 0.0070990762 0.29100001 -1.7050152e+38
-0.0038577411 0.0071234712 0.29200003 -1.705015e+38
-0.0033849755 0.0071234712 0.29200003 -1.705015e+38
-0.0029122098 0.0071234712 0.29200003 -1.7049635e+38
-0.0019666783 0.0071234712 0.29200003 -1.7050156e+38
-0.0014939127 0.0071234712 0.29200003 -1.7049635e+38
-0.0010211469 0.0071234712 0.29200003 -1.7050156e+38
-0.00054838113 0.0071234712 0.29200003 -1.7050156e+38
0.00039715035 0.0071234712 0.29200003 -1.7050156e+38
0.00086991611 0.0071234712 0.29200003 -1.7050156e+38
0.0013426818 0.0071234712 0.29200003 -1.7050156e+38
0.0018154476 0.0071234712 0.29200003 -1.7050156e+38
0.0027515236 0.0070990762 0.29100001 -1.7050675e+38
0.0032226702 0.0070990762 0.29100001 -1.7050675e+38
0.004164964 0.0070990762 0.29100001 -1.7051197e+38
0.0046361103 0.0070990762 0.29100001 -1.7051197e+38
0.0050897063 0.0070746802 0.29000002 -1.7051197e+38
0.0060287616 0.0070746802 0.29000002 -1.7051197e+38
0.0064982893 0.0070746802 0.29000002 -1.7051718e+38
0.006967817 0.0070746802 0.29000002 -1.7051197e+38
0.0074373446 0.0070746802 0.29000002 -1.7051722e+38
0.0083764 0.0070746802 0.29000002 -1.7051197e+38
0.0088459272 0.0070746802 0.29000002 -1.7051718e+38
0.0093154553 0.0070746802 0.29000002 -1.7052237e+38
0.010219149 0.0070502851 0.289 -1.7051716e+38
0.010687058 0.0070502851 0.289 -1.7052237e+38
0.011154966 0.0070502851 0.289 -1.7052237e+38
0.012090784 0.0070502851 0.289 -1.7052237e+38
0.012558692 0.0070502851 0.289 -1.7052237e+38
0.013026601 0.0070502851 0.289 -1.7052241e+38
0.013494509 0.0070502851 0.289 -1.7052241e+38
0.014380394 0.0070258896 0.28800002 -1.7052245e+38
0.014846684 0.0070258896 0.28800002 -1.7052762e+38
0.015312973 0.0070258896 0.28800002 -1.7052241e+38
0.016189145 0.0070014936 0.287 -1.7052241e+38
0.016653815 0.0070014936 0.287 -1.7052762e+38
0.017118486 0.0070014936 0.287 -1.7052762e+38
0.017984943 0.0069770985 0.28600001 -1.7052241e+38
0.01838349 0.006952703 0.28500003 -1.7052762e+38
0.020409904 0.0067087486 0.27500001 -1.7054324e+38
0.021145478 0.006659958 0.273 -1.7053282e+38
0.021587482 0.006659958 0.273 -1.7054324e+38
0.022110179 0.0066843531 0.27400002 -1.7054843e+38
0.022997424 0.0066843531 0.27400002 -1.7055365e+38
0.023783252 0.0067819348 0.27800003 -1.7056407e+38
0.02432052 0.0068063303 0.27900001 -1.7064737e+38
0.025223956 0.0068063303 0.27900001 -1.7068901e+38
0.025767701 0.0068307263 0.28 -1.7067859e+38
0.026221039 0.0068307263 0.28 -1.7067337e+38
-0.014006534 0.0069979029 0.26900002 -1.706837e+38
-0.013621457 0.007023918 0.27000001 -1.7066806e+38
-0.012747164 0.007023918 0.27000001 -1.7052744e+38
-0.01235561 0.0070499317 0.27100003 -1.7045457e+38
-0.011960818 0.0070759468 0.27200001 -1.7045457e+38
-0.011478079 0.0070499317 0.27100003 -1.7045461e+38
-0.011080049 0.0070759468 0.27200001 -1.7045982e+38
-0.01019928 0.0070759468 0.27200001 -1.7046501e+38
-0.0097947745 0.0071019614 0.273 -1.7047542e+38
-0.0084971925 0.0075181937 0.289 -1.7048063e+38
-0.0080570672 0.0075442079 0.29000002 -1.7048063e+38
-0.0075875395 0.0075442079 0.29000002 -1.7049106e+38
-0.0071425568 0.0075702225 0.29100001 -1.7048063e+38
-0.0062002633 0.0075702225 0.29100001 -1.704911e+38
-0.0057291165 0.0075702225 0.29100001 -1.704911e+38
-0.0052579697 0.0075702225 0.29100001 -1.7049631e+38
-0.0048032724 0.0075962367 0.29200003 -1.7049631e+38
-0.0038577411 0.0075962367 0.29200003 -1.705015e+38
-0.0033849755 0.0075962367 0.29200003 -1.705015e+38
-0.0029122098 0.0075962367 0.29200003 -1.7049635e+38
-0.0019666783 0.0075962367 0.29200003 -1.7050156e+38
-0.0014939127 0.0075962367 0.29200003 -1.7049635e+38
-0.0010211469 0.0075962367 0.29200003 -1.7050156e+38
-0.00054838113 0.0075962367 0.29200003 -1.7050156e+38
0.00039715035 0.0075962367 0.29200003 -1.7050156e+38
0.00086991611 0.0075962367 0.29200003 -1.7050156e+38
0.0013426818 0.0075962367 0.29200003 -1.7050156e+38
0.0018154476 0.0075962367 0.29200003 -1.7050156e+38
0.0027609791 0.0075962367 0.29200003 -1.7050675e+38
0.0032337448 0.0075962367 0.29200003 -1.7051197e+38
0.004164964 0.0075702225 0.29100001 -1.7051197e+38
0.0046361103 0.0075702225 0.29100001 -1.7051197e+38
0.005107257 0.0075702225 0.29100001 -1.7051197e+38
0.0055784038 0.0075702225 0.29100001 -1.7051197e+38
0.0065206974 0.0075702225 0.29100001 -1.7051718e+38
0.0069918437 0.0075702225 0.29100001 -1.7051718e+38
0.00746299 0.0075702225 0.29100001 -1.7051722e+38
0.0083764 0.0075442079 0.29000002 -1.7051201e+38
0.0088459272 0.0075442079 0.29000002 -1.7051201e+38
0.0093154553 0.0075442079 0.29000002 -1.7052237e+38
0.010254511 0.0075442079 0.29000002 -1.7051716e+38
0.010724038 0.0075442079 0.29000002 -1.7052237e+38
0.011193565 0.0075442079 0.29000002 -1.7052237e+38
0.011663093 0.0075442079 0.29000002 -1.7052237e+38
0.012558692 0.0075181937 0.289 -1.7052237e+38
0.013026601 0.0075181937 0.289 -1.7052241e+38
0.013494509 0.0075181937 0.289 -1.7052241e+38
0.014380394 0.0074921791 0.28800002 -1.7052241e+38
0.014846684 0.0074921791 0.28800002 -1.7052762e+38
0.015312973 0.0074921791 0.28800002 -1.7052241e+38
0.016189145 0.007466164 0.287 -1.7052241e+38
0.016653815 0.007466164 0.287 -1.7052762e+38
0.017521892 0.0074401498 0.28600001 -1.7052241e+38
0.019448442 0.0071279756 0.27400002 -1.7053282e+38
0.019819466 0.0071019614 0.273 -1.7053282e+38
0.020703474 0.0071019614 0.273 -1.7054324e+38
0.021068022 0.0070759468 0.27200001 -1.7054324e+38
0.021587482 0.0071019614 0.273 -1.7054324e+38
0.022471488 0.0071019614 0.273 -1.7054843e+38
0.022997424 0.0071279756 0.27400002 -1.7056924e+38
0.023783252 0.0072320336 0.27800003 -1.7459863e+38
0.02432052 0.0072580483 0.27900001 -1.7068901e+38
0.025223956 0.0072580483 0.27900001 -1.7067859e+38
0.025767701 0.0072840634 0.28 -1.7067337e+38
-0.01313548 0.0074334303 0.26900002 -1.7063691e+38
-0.012747164 0.007461064 0.27000001 -1.7058478e+38
-0.012310018 0.007461064 0.27000001 -1.7044933e+38
-0.011916844 0.0074886973 0.27100003 -1.7044933e+38
-0.011478079 0.0074886973 0.27100003 -1.7045455e+38
-0.011039314 0.0074886973 0.27100003 -1.7045976e+38
-0.010161783 0.0074886973 0.27100003 -1.7046497e+38
-0.0097588962 0.007516331 0.27200001 -1.7047538e+38
-0.0087789744 0.0078203008 0.28300002 -1.7048063e+38
-0.0083207805 0.0078203008 0.28300002 -1.7048063e+38
0.016595788 0.0079032015 0.28600001 -1.7052762e+38
0.018866099 0.007516331 0.27200001 -1.7052241e+38
0.019306483 0.007516331 0.27200001 -1.7052762e+38
0.020113034 0.0074886973 0.27100003 -1.7054324e+38
0.020703474 0.0075439652 0.273 -1.7054324e+38
0.021145478 0.0075439652 0.273 -1.7054324e+38
0.021587482 0.0075439652 0.273 -1.7054324e+38
0.022110179 0.007571598 0.27400002 -1.7054843e+38
0.022997424 0.007571598 0.27400002 -1.7063175e+38
0.024146181 0.0076544993 0.27700001 -1.706838e+38
0.024683449 0.0076821321 0.27800003 -1.7067859e+38
0.025223956 0.0077097663 0.27900001 -1.7066816e+38
0.025767701 0.0077374 0.28 -1.7066295e+38
-0.008029284 0.0084540108 0.289 -1.7048063e+38
-0.0075875395 0.0084832627 0.29000002 -1.7048063e+38
-0.0071425568 0.0085125156 0.29100001 -1.7049106e+38
-0.0062002633 0.0085125156 0.29100001 -1.704911e+38
-0.0057291165 0.0085125156 0.29100001 -1.704911e+38
-0.0052760383 0.0085417684 0.29200003 -1.7049631e+38
-0.0048032724 0.0085417684 0.29200003 -1.7049631e+38
-0.0038577411 0.0085417684 0.29200003 -1.7049631e+38
-0.0033849755 0.0085417684 0.29200003 -1.7049631e+38
-0.0029122098 0.0085417684 0.29200003 -1.7049635e+38
-0.0019666783 0.0085417684 0.29200003 -1.7050156e+38
-0.0014939127 0.0085417684 0.29200003 -1.7050156e+38
-0.0010211469 0.0085417684 0.29200003 -1.7050156e+38
-0.00055025914 0.0085710213 0.29300001 -1.7050156e+38
-7.5874348e-05 0.0085710213 0.29300001 -1.7050156e+38
0.0008728953 0.0085710213 0.29300001 -1.7050677e+38
0.0013472801 0.0085710213 0.29300001 -1.7050156e+38
0.0018154476 0.0085417684 0.29200003 -1.7050677e+38
0.0027609791 0.0085417684 0.29200003 -1.7050156e+38
0.0032337448 0.0085417684 0.29200003 -1.7050677e+38
0.0037065106 0.0085417684 0.29200003 -1.7051197e+38
0.0046520424 0.0085417684 0.29200003 -1.7051197e+38
0.005107257 0.0085125156 0.29100001 -1.7051197e+38
0.0055784038 0.0085125156 0.29100001 -1.7051197e+38
0.0065206974 0.0085125156 0.29100001 -1.7051722e+38
0.0069918437 0.0085125156 0.29100001 -1.7051722e+38
0.00746299 0.0085125156 0.29100001 -1.7051722e+38
0.0079341372 0.0085125156 0.29100001 -1.7051722e+38
0.0088764299 0.0085125156 0.29100001 -1.7051722e+38
0.0093154553 0.0084832627 0.29000002 -1.7051722e+38
0.010254511 0.0084832627 0.29000002 -1.7051722e+38
0.010724038 0.0084832627 0.29000002 -1.7051722e+38
0.011193565 0.0084832627 0.29000002 -1.7052241e+38
0.011663093 0.0084832627 0.29000002 -1.7052241e+38
0.012602149 0.0084832627 0.29000002 -1.7052241e+38
0.013026601 0.0084540108 0.289 -1.7052241e+38
0.013494509 0.0084540108 0.289 -1.7052241e+38
0.014430326 0.0084540108 0.289 -1.7052241e+38
0.014846684 0.008424758 0.28800002 -1.7052762e+38
0.015312973 0.008424758 0.28800002 -1.7052241e+38
0.016189145 0.0083955051 0.287 -1.7052762e+38
-0.01313548 0.0083044851 0.26900002 -1.7068897e+38
-0.012747164 0.0083353566 0.27000001 -1.7065248e+38
-0.01235561 0.0083662281 0.27100003 -1.7457768e+38
-0.011872872 0.0083353566 0.27000001 -1.7048053e+38
-0.011435725 0.0083353566 0.27000001 -1.7045449e+38
-0.011039314 0.0083662281 0.27100003 -1.704597e+38
-0.010161783 0.0083662281 0.27100003 -1.7045972e+38
-0.0097588962 0.0083971005 0.27200001 -1.7047012e+38
-0.0092045292 0.0087058172 0.28200001 -1.7047538e+38
-0.0087789744 0.0087366886 0.28300002 -1.7047538e+38
-0.0083207805 0.0087366886 0.28300002 -1.7048578e+38
-0.0078903688 0.0087675611 0.28400001 -1.7048057e+38
-0.0070934673 0.0089219194 0.289 -1.7049106e+38
-0.0062002633 0.0089836624 0.29100001 -1.704911e+38
-0.0057291165 0.0089836624 0.29100001 -1.704911e+38
-0.0052760383 0.0090145338 0.29200003 -1.7049631e+38
-0.0048032724 0.0090145338 0.29200003 -1.7049631e+38
-0.0038577411 0.0090145338 0.29200003 -1.7049631e+38
-0.0033849755 0.0090145338 0.29200003 -1.7049631e+38
-0.0029122098 0.0090145338 0.29200003 -1.7049116e+38
-0.0024477984 0.0090454053 0.29300001 -1.7049116e+38
-0.0014990288 0.0090454053 0.29300001 -1.7050156e+38
-0.0010246439 0.0090454053 0.29300001 -1.7050156e+38
-0.00055025914 0.0090454053 0.29300001 -1.7050156e+38
-7.5874348e-05 0.0090454053 0.29300001 -1.7050156e+38
0.0008728953 0.0090454053 0.29300001 -1.7050677e+38
0.0013472801 0.0090454053 0.29300001 -1.7050677e+38
0.0018216649 0.0090454053 0.29300001 -1.7051197e+38
0.0027704346 0.0090454053 0.29300001 -1.7050675e+38
0.0032337448 0.0090145338 0.29200003 -1.7051197e+38
0.0037065106 0.0090145338 0.29200003 -1.7051197e+38
0.0046520424 0.0090145338 0.29200003 -1.7051197e+38
0.0051248078 0.0090145338 0.29200003 -1.7051197e+38
0.0055975737 0.0090145338 0.29200003 -1.7051197e+38
0.0060703396 0.0090145338 0.29200003 -1.7051718e+38
0.0070158709 0.0090145338 0.29200003 -1.7051722e+38
0.0074886368 0.0090145338 0.29200003 -1.7051722e+38
0.0079341372 0.0089836624 0.29100001 -1.7051722e+38
0.0088764299 0.0089836624 0.29100001 -1.7051722e+38
0.0093475766 0.0089836624 0.29100001 -1.7051722e+38
0.0098187234 0.0089836624 0.29100001 -1.7051722e+38
0.010761017 0.0089836624 0.29100001 -1.7051722e+38
0.011193565 0.0089527909 0.29000002 -1.7052241e+38
0.011663093 0.0089527909 0.29000002 -1.7052241e+38
0.012602149 0.0089527909 0.29000002 -1.7052241e+38
0.013071676 0.0089527909 0.29000002 -1.7052762e+38
0.013494509 0.0089219194 0.289 -1.7052241e+38
0.014430326 0.0089219194 0.289 -1.7052762e+38
0.014898235 0.0089219194 0.289 -1.7052762e+38
0.015312973 0.008891047 0.28800002 -1.7052762e+38
0.018357972 0.0083662281 0.27100003 -1.7052762e+38
0.018796736 0.0083662281 0.27100003 -1.7052762e+38
0.019674268 0.0083662281 0.27100003 -1.7052762e+38
0.020113034 0.0083662281 0.27100003 -1.7054324e+38
0.020627636 0.0083971005 0.27200001 -1.7054324e+38
0.021145478 0.008427972 0.273 -1.7054843e+38
0.021587482 0.008427972 0.273 -1.7055365e+38
0.022110179 0.0084588435 0.27400002 -1.7463512e+38
0.022636114 0.0084897159 0.27500001 -1.7596956e+38
0.023165287 0.0085205864 0.27600002 -1.7067339e+38
0.024146181 0.0085514588 0.27700001 -1.7066297e+38
0.024683449 0.0085823303 0.27800003 -1.7064733e+38
0.025223956 0.0086132018 0.27900001 -1.7063684e+38
0.025767701 0.0086440742 0.28 -1.7063684e+38
-0.01313548 0.0087400116 0.26900002 -1.7068376e+38
-0.012747164 0.0087725036 0.27000001 -1.7066812e+38
-0.012310018 0.0087725036 0.27000001 -1.7061604e+38
-0.011872872 0.0087725036 0.27000001 -1.7055348e+38
-0.011435725 0.0087725036 0.27000001 -1.7044929e+38
-0.010561432 0.0087725036 0.27000001 -1.7045451e+38
-0.010124286 0.0087725036 0.27000001 -1.7045972e+38
-0.009723017 0.0088049937 0.27100003 -1.7046493e+38
-0.0096953623 0.0091948826 0.28300002 -1.7046493e+38
-0.0087789744 0.0091948826 0.28300002 -1.7047538e+38
-0.0083501823 0.0092273736 0.28400001 -1.7048578e+38
-0.0078625856 0.0091948826 0.28300002 -1.7048057e+38
-0.0074305562 0.0092273736 0.28400001 -1.7048063e+38
-0.0062002633 0.0094548091 0.29100001 -1.704911e+38
-0.0057488042 0.0094872992 0.29200003 -1.704911e+38
-0.0052760383 0.0094872992 0.29200003 -1.7049631e+38
-0.0048032724 0.0094872992 0.29200003 -1.7049631e+38
-0.0038577411 0.0094872992 0.29200003 -1.7049631e+38
-0.0033849755 0.0094872992 0.29200003 -1.7049631e+38
-0.0029221831 0.0095197903 0.29300001 -1.7049116e+38
-0.0024477984 0.0095197903 0.29300001 -1.7049116e+38
-0.0014990288 0.0095197903 0.29300001 -1.7050156e+38
-0.0010246439 0.0095197903 0.29300001 -1.7050156e+38
-0.00055025914 0.0095197903 0.29300001 -1.7050156e+38
-7.5874348e-05 0.0095197903 0.29300001 -1.7050156e+38
0.0008728953 0.0095197903 0.29300001 -1.7051197e+38
0.0013472801 0.0095197903 0.29300001 -1.7051197e+38
0.0018216649 0.0095197903 0.29300001 -1.7051197e+38
0.0027704346 0.0095197903 0.29300001 -1.7051197e+38
0.0032448194 0.0095197903 0.29300001 -1.7051197e+38
0.0037065106 0.0094872992 0.29200003 -1.7051197e+38
0.0046520424 0.0094872992 0.29200003 -1.7051197e+38
0.0051248078 0.0094872992 0.29200003 -1.7051718e+38
0.0055975737 0.0094872992 0.29200003 -1.7051197e+38
0.0060703396 0.0094872992 0.29200003 -1.7051718e+38
0.0070158709 0.0094872992 0.29200003 -1.7051201e+38
0.0074886368 0.0094872992 0.29200003 -1.7051722e+38
0.0079614026 0.0094872992 0.29200003 -1.7051722e+38
0.0089069335 0.0094872992 0.29200003 -1.7051722e+38
0.0093475766 0.0094548091 0.29100001 -1.7051722e+38
0.0098187234 0.0094548091 0.29100001 -1.7052243e+38
0.010761017 0.0094548091 0.29100001 -1.7051722e+38
0.011232164 0.0094548091 0.29100001 -1.7052241e+38
0.011703311 0.0094548091 0.29100001 -1.7052241e+38
0.012602149 0.0094223181 0.29000002 -1.7052241e+38
0.013071676 0.0094223181 0.29000002 -1.7052762e+38
0.013541203 0.0094223181 0.29000002 -1.7052241e+38
0.014430326 0.009389828 0.289 -1.7052762e+38
0.014846684 0.0093573369 0.28800002 -1.7052762e+38
0.015312973 0.0093573369 0.28800002 -1.7052762e+38
0.017919207 0.0088049937 0.27100003 -1.7052762e+38
0.018290231 0.0087725036 0.27000001 -1.7052762e+38
0.018796736 0.0088049937 0.27100003 -1.7052762e+38
0.019674268 0.0088049937 0.27100003 -1.7186728e+38
0.020113034 0.0088049937 0.27100003 -1.7054324e+38
0.020627636 0.0088374848 0.27200001 -1.7054324e+38
0.021145478 0.0088699758 0.273 -1.7055882e+38
0.021666555 0.0089024659 0.27400002 -1.7993639e+38
0.022110179 0.0089024659 0.27400002 -1.7200783e+38
0.022636114 0.008934957 0.27500001 -1.7067339e+38
0.023165287 0.0089674471 0.27600002 -1.7066818e+38
0.023783252 0.0090324292 0.27800003 -1.7066297e+38
0.024683449 0.0090324292 0.27800003 -1.7063687e+38
0.025223956 0.0090649202 0.27900001 -1.706264e+38
0.025767701 0.0090974113 0.28 -1.7063682e+38
-0.013233141 0.0092437593 0.27100003 -1.7068376e+38
-0.01235561 0.0092437593 0.27100003 -1.706421e+38
-0.011872872 0.0092096496 0.27000001 -1.7062125e+38
-0.011435725 0.0092096496 0.27000001 -1.7048059e+38
-0.010561432 0.0092096496 0.27000001 -1.7044939e+38
-0.010124286 0.0092096496 0.27000001 -1.7044939e+38
-0.0096871397 0.0092096496 0.27000001 -1.7046497e+38
-0.0097296219 0.0096871872 0.28400001 -1.7046497e+38
-0.0092698094 0.0096871872 0.28400001 -1.7047016e+38
-0.0083207805 0.0096530765 0.28300002 -1.7047538e+38
-0.0078625856 0.0096530765 0.28300002 -1.7047538e+38
-0.0074043917 0.0096530765 0.28300002 -1.7048578e+38
-0.0065109297 0.0096871872 0.28400001 -1.7048063e+38
-0.0057291165 0.0099259559 0.29100001 -1.704911e+38
-0.0052760383 0.0099600647 0.29200003 -1.704911e+38
-0.0048032724 0.0099600647 0.29200003 -1.7049631e+38
-0.0038577411 0.0099600647 0.29200003 -1.7049631e+38
-0.0033965681 0.0099941753 0.29300001 -1.7049631e+38
-0.0029221831 0.0099941753 0.29300001 -1.7049116e+38
-0.0024477984 0.0099941753 0.29300001 -1.7049116e+38
-0.0014990288 0.0099941753 0.29300001 -1.7050156e+38
-0.0010246439 0.0099941753 0.29300001 -1.7050156e+38
-0.00055025914 0.0099941753 0.29300001 -1.7050156e+38
-7.5874348e-05 0.0099941753 0.29300001 -1.7050156e+38
