# .PCD v0.7 - Point Cloud Data file format
VERSION 0.7
FIELDS x y z rgb
SIZE 4 4 4 4
TYPE F F F F
COUNT 1 1 1 1
WIDTH 968
HEIGHT 1
VIEWPOINT 0 0 0 1 0 0 0
POINTS 968
DATA ascii
0.010697871 0.025869343 0.266 -1.7321701e+38
0.011128541 0.025869343 0.266 -1.7321701e+38
0.012034957 0.025966598 0.26700002 -1.7455145e+38
0.012513939 0.02606385 0.26800001 -1.7455145e+38
0.012996161 0.026161104 0.26900002 -1.745463e+38
0.013431689 0.026161104 0.26900002 -1.745463e+38
0.013918767 0.026258357 0.27000001 -1.745463e+38
0.014355913 0.026258357 0.27000001 -1.745463e+38
0.014847848 0.026355609 0.27100003 -1.7455145e+38
0.01572538 0.026355609 0.27100003 -1.7587549e+38
0.016223792 0.026452862 0.27200001 -1.7720993e+38
0.016725441 0.026550116 0.273 -1.7986319e+38
0.01723033 0.02664737 0.27400002 -1.8119763e+38
0.017738454 0.026744623 0.27500001 -1.7986319e+38
0.018249819 0.026841877 0.27600002 -1.7986319e+38
0.019698426 0.027619902 0.28400001 -1.8520091e+38
0.020158239 0.027619902 0.28400001 -1.8919383e+38
0.021077866 0.027619902 0.28400001 -1.8919383e+38
0.021537678 0.027619902 0.28400001 -1.8919383e+38
0.021997493 0.027619902 0.28400001 -1.8785939e+38
0.02253638 0.027717156 0.28500003 -1.8785939e+38
0.023078509 0.027814407 0.28600001 -1.9185225e+38
0.023953125 0.028300673 0.29100001 -1.9185225e+38
0.024508202 0.028397927 0.29200003 -1.9450026e+38
0.025066519 0.028495181 0.29300001 -1.958347e+38
0.025715247 0.028689686 0.29500002 -1.9848796e+38
0.026281659 0.028786941 0.296 -2.0115684e+38
0.026941719 0.028981445 0.29800001 -2.0914261e+38
-0.011446669 0.027783098 0.28100002 -2.0925737e+38
-0.010991712 0.027783098 0.28100002 -2.0525405e+38
-0.010499259 0.027684225 0.28 -2.0258517e+38
-0.0065534795 0.026398886 0.26700002 -1.9195658e+38
-0.0056675947 0.026300015 0.266 -1.866449e+38
-0.0047701169 0.026102269 0.264 -1.866449e+38
-0.004309786 0.025904525 0.26200002 -1.8531567e+38
-0.0034481867 0.025805652 0.26100001 -1.7865913e+38
-0.0017242111 0.025311291 0.25600001 -1.7069422e+38
-0.0013046155 0.02521242 0.25500003 -1.7069422e+38
-0.00047701647 0.025113547 0.25400001 -1.7069942e+38
-6.5775035e-05 0.025113547 0.25400001 -1.706942e+38
0.0003454664 0.025113547 0.25400001 -1.7069942e+38
0.0007567078 0.025113547 0.25400001 -1.7068899e+38
0.0015791907 0.025113547 0.25400001 -1.7066816e+38
0.0019904319 0.025113547 0.25400001 -1.7066295e+38
0.0024016735 0.025113547 0.25400001 -1.7063167e+38
0.0028239894 0.02521242 0.25500003 -1.7062125e+38
0.0036497104 0.02521242 0.25500003 -1.7060038e+38
0.0040625711 0.02521242 0.25500003 -1.7058993e+38
0.0044929823 0.025311291 0.25600001 -1.7058472e+38
0.0049074618 0.025311291 0.25600001 -1.7058468e+38
0.0053427303 0.025410164 0.257 -1.7057947e+38
0.0057812366 0.025509037 0.25800002 -1.7056908e+38
0.006616672 0.025509037 0.25800002 -1.7056904e+38
0.0070616542 0.025607908 0.259 -1.7056904e+38
0.0075098756 0.025706781 0.26000002 -1.7056383e+38
0.0079613347 0.025805652 0.26100001 -1.7056383e+38
0.0083839092 0.025805652 0.26100001 -1.7056379e+38
0.0088402256 0.025904525 0.26200002 -1.7056379e+38
0.0092997802 0.026003398 0.26300001 -1.7189819e+38
0.0097625731 0.026102269 0.264 -1.7189819e+38
0.010228603 0.026201142 0.26500002 -1.7455145e+38
0.010697871 0.026300015 0.266 -1.7321701e+38
0.011170379 0.026398886 0.26700002 -1.7321701e+38
0.011646123 0.026497759 0.26800001 -1.7455145e+38
0.012513939 0.026497759 0.26800001 -1.7455145e+38
0.012996161 0.02659663 0.26900002 -1.7455145e+38
0.013431689 0.02659663 0.26900002 -1.7455145e+38
0.013918767 0.026695503 0.27000001 -1.745463e+38
0.014355913 0.026695503 0.27000001 -1.745463e+38
0.014847848 0.026794376 0.27100003 -1.7455145e+38
0.01572538 0.026794376 0.27100003 -1.7587549e+38
0.016223792 0.026893247 0.27200001 -1.7720993e+38
0.016786706 0.027090993 0.27400002 -1.7986319e+38
0.017293213 0.027189864 0.27500001 -1.8119763e+38
0.017802957 0.027288737 0.27600002 -1.8119763e+38
0.018315943 0.027387608 0.27700001 -1.8119763e+38
0.019698426 0.028079715 0.28400001 -1.8520091e+38
0.020158239 0.028079715 0.28400001 -1.8919383e+38
0.021077866 0.028079715 0.28400001 -1.9185229e+38
0.021537678 0.028079715 0.28400001 -1.9185229e+38
0.021997493 0.028079715 0.28400001 -1.9051785e+38
0.02253638 0.028178588 0.28500003 -1.9051785e+38
0.024592135 0.028969565 0.29300001 -1.9317622e+38
0.02515207 0.029068436 0.294 -1.9451066e+38
0.025802417 0.029266182 0.296 -1.9716914e+38
0.026459236 0.029463926 0.29800001 -1.9850358e+38
0.027032126 0.029562799 0.29900002 -2.1179588e+38
-0.010991712 0.028238054 0.28100002 -2.0525405e+38
-0.010536756 0.028238054 0.28100002 -2.0391961e+38
-0.0095925853 0.028137561 0.28 -2.0391961e+38
-0.0060982648 0.026730683 0.266 -1.8665005e+38
-0.0056462879 0.026630193 0.26500002 -1.8665005e+38
-0.0047701169 0.026529701 0.264 -1.866449e+38
-0.0043262355 0.02642921 0.26300001 -1.8531567e+38
-0.0034481867 0.026228227 0.26100001 -1.7865913e+38
-0.0025731169 0.025926754 0.25800002 -1.7334223e+38
-0.0017242111 0.025725771 0.25600001 -1.7068376e+38
-0.0013046155 0.025625281 0.25500003 -1.7068376e+38
-0.00089175504 0.025625281 0.25500003 -1.7068376e+38
-6.5775035e-05 0.025524788 0.25400001 -1.7068376e+38
0.0003454664 0.025524788 0.25400001 -1.7067855e+38
0.0007567078 0.025524788 0.25400001 -1.7067859e+38
0.0015791907 0.025524788 0.25400001 -1.7064208e+38
0.0019904319 0.025524788 0.25400001 -1.7063687e+38
0.002411129 0.025625281 0.25500003 -1.7061595e+38
0.0028239894 0.025625281 0.25500003 -1.7060553e+38
0.0036497104 0.025625281 0.25500003 -1.7059512e+38
0.0040625711 0.025625281 0.25500003 -1.7058468e+38
0.0044929823 0.025725771 0.25600001 -1.7058468e+38
0.0049074618 0.025725771 0.25600001 -1.7056904e+38
0.0053427303 0.025826262 0.257 -1.7056904e+38
0.0057812366 0.025926754 0.25800002 -1.7056904e+38
0.0062229815 0.026027245 0.259 -1.7056383e+38
0.0066679642 0.026127737 0.26000002 -1.7189308e+38
0.0071161846 0.026228227 0.26100001 -1.7055864e+38
0.0079613347 0.026228227 0.26100001 -1.7055864e+38
0.0084160324 0.02632872 0.26200002 -1.7055858e+38
0.0088739665 0.02642921 0.26300001 -1.7056379e+38
0.0093351407 0.026529701 0.264 -1.7189819e+38
0.0097995522 0.026630193 0.26500002 -1.7189819e+38
0.010267201 0.026730683 0.266 -1.7455145e+38
0.010697871 0.026730683 0.266 -1.7321701e+38
0.011170379 0.026831176 0.26700002 -1.7455145e+38
0.011646123 0.026931668 0.26800001 -1.7455145e+38
0.012125107 0.027032157 0.26900002 -1.7455145e+38
0.012996161 0.027032157 0.26900002 -1.7455145e+38
0.01348162 0.027132649 0.27000001 -1.7455145e+38
0.013918767 0.027132649 0.27000001 -1.7321701e+38
0.014409083 0.027233142 0.27100003 -1.7455145e+38
0.014902638 0.027333632 0.27200001 -1.7588589e+38
0.015343023 0.027333632 0.27200001 -1.7455145e+38
0.015841434 0.027434124 0.273 -1.7587545e+38
0.016402731 0.027635105 0.27500001 -1.7720989e+38
0.016909236 0.027735598 0.27600002 -1.7986315e+38
0.017418982 0.027836086 0.27700001 -1.8119759e+38
0.01910313 0.028338546 0.28200001 -1.8652499e+38
0.019698426 0.028539527 0.28400001 -1.8785943e+38
0.020158239 0.028539527 0.28400001 -1.9185229e+38
0.021077866 0.028539527 0.28400001 -1.9051785e+38
0.021537678 0.028539527 0.28400001 -1.9051785e+38
0.021997493 0.028539527 0.28400001 -1.9051785e+38
0.02253638 0.028640021 0.28500003 -1.9051785e+38
0.024843933 0.029745424 0.296 -1.9450026e+38
0.025889587 0.029845914 0.29700002 -1.998224e+38
0.026459236 0.029946405 0.29800001 -2.0249128e+38
0.027032126 0.030046899 0.29900002 -2.1179588e+38
0.027516225 0.030046899 0.29900002 -2.1713364e+38
-0.0065534795 0.027263464 0.26700002 -1.8930331e+38
-0.0056462879 0.027059244 0.26500002 -1.8665005e+38
-0.0047701169 0.026957134 0.264 -1.866449e+38
-0.0043262355 0.026855022 0.26300001 -1.866449e+38
-0.0034481867 0.026650801 0.26100001 -1.8131239e+38
-0.002147045 0.02624236 0.257 -1.7334223e+38
-0.0013097316 0.02614025 0.25600001 -1.7067855e+38
-0.00089175504 0.02603814 0.25500003 -1.7067855e+38
-6.6033994e-05 0.02603814 0.25500003 -1.7066812e+38
0.00034682651 0.02603814 0.25500003 -1.7066812e+38
0.0007567078 0.02593603 0.25400001 -1.7066814e+38
0.0015791907 0.02593603 0.25400001 -1.7062642e+38
0.0019982685 0.02603814 0.25500003 -1.7062642e+38
0.002411129 0.02603814 0.25500003 -1.7060549e+38
0.0028239894 0.02603814 0.25500003 -1.7060028e+38
0.0036497104 0.02603814 0.25500003 -1.7058987e+38
0.0040785028 0.02614025 0.25600001 -1.7057427e+38
0.0044929823 0.02614025 0.25600001 -1.7057949e+38
0.0049266317 0.02624236 0.257 -1.7056904e+38
0.0053635188 0.026344473 0.25800002 -1.7056904e+38
0.0058036447 0.026446583 0.259 -1.7056904e+38
0.0062470082 0.026548693 0.26000002 -1.7056904e+38
0.00669361 0.026650801 0.26100001 -1.7189308e+38
0.0071161846 0.026650801 0.26100001 -1.7055864e+38
0.0075676441 0.026752913 0.26200002 -1.7055864e+38
0.0084160324 0.026752913 0.26200002 -1.7055338e+38
0.0088739665 0.026855022 0.26300001 -1.705586e+38
0.0093351407 0.026957134 0.264 -1.7056375e+38
0.0097995522 0.027059244 0.26500002 -1.7189819e+38
0.010267201 0.027161352 0.266 -1.7455145e+38
0.010738089 0.027263464 0.26700002 -1.7455145e+38
0.011212215 0.027365576 0.26800001 -1.7455145e+38
0.011646123 0.027365576 0.26800001 -1.7455145e+38
0.012125107 0.027467685 0.26900002 -1.7455145e+38
0.012607328 0.027569795 0.27000001 -1.7455145e+38
0.01348162 0.027569795 0.27000001 -1.7455145e+38
0.013970317 0.027671907 0.27100003 -1.7321701e+38
0.014462254 0.027774015 0.27200001 -1.7455145e+38
0.014902638 0.027774015 0.27200001 -1.7455145e+38
0.015399431 0.027876128 0.273 -1.7455145e+38
-0.0165368 0.031015096 0.29900002 -2.3720765e+38
-0.015999014 0.030911366 0.29800001 -2.3320433e+38
-0.015034053 0.030911366 0.29800001 -2.2255488e+38
-0.01103083 0.029251697 0.28200001 -2.0260079e+38
-0.010536756 0.029147966 0.28100002 -2.0260079e+38
-0.010081801 0.029147966 0.28100002 -2.0126635e+38
0.015899461 0.028421862 0.27400002 -1.7587545e+38
0.016402731 0.028525589 0.27500001 -1.7720989e+38
0.016909236 0.02862932 0.27600002 -1.8119759e+38
0.017418982 0.028733047 0.27700001 -1.8253203e+38
0.01799647 0.028940508 0.27900001 -1.8253203e+38
0.018580431 0.029147966 0.28100002 -1.8253203e+38
0.01910313 0.029251697 0.28200001 -1.8652495e+38
0.019767785 0.029562885 0.28500003 -1.8785939e+38
0.020229219 0.029562885 0.28500003 -1.9185225e+38
0.021152083 0.029562885 0.28500003 -1.905178e+38
0.021613516 0.029562885 0.28500003 -1.905178e+38
0.022074947 0.029562885 0.28500003 -1.905178e+38
0.02253638 0.029562885 0.28500003 -1.8918336e+38
0.024282377 0.030600177 0.29500002 -1.9317107e+38
0.024843933 0.030703908 0.296 -1.9450026e+38
0.025889587 0.030807635 0.29700002 -1.9982236e+38
0.026459236 0.030911366 0.29800001 -2.0249124e+38
0.026941719 0.030911366 0.29800001 -2.1313547e+38
0.027516225 0.031015096 0.29900002 -2.1713879e+38
-0.016481493 0.031393845 0.29800001 -2.3722327e+38
-0.015999014 0.031393845 0.29800001 -2.318855e+38
-0.015034053 0.031393845 0.29800001 -2.2255488e+38
-0.011069945 0.029813617 0.28300002 -2.0260079e+38
-0.010574254 0.029708272 0.28200001 -2.0260079e+38
-0.010081801 0.029602922 0.28100002 -1.9993712e+38
-0.0091392482 0.029497571 0.28 -2.0126635e+38
-0.0056462879 0.027917346 0.26500002 -1.8930331e+38
-0.0047701169 0.027811997 0.264 -1.866449e+38
-0.0043262355 0.027706647 0.26300001 -1.8665011e+38
-0.0034613982 0.027601302 0.26200002 -1.8398123e+38
-0.0030140195 0.027390605 0.26000002 -1.8131235e+38
-0.002147045 0.027074559 0.257 -1.7466106e+38
-0.0013097316 0.026969209 0.25600001 -1.7067333e+38
-0.00089525204 0.026969209 0.25600001 -1.7067333e+38
-6.6033994e-05 0.02686386 0.25500003 -1.7064729e+38
0.00034682651 0.02686386 0.25500003 -1.7064208e+38
0.00075968698 0.02686386 0.25500003 -1.7064204e+38
0.0015854079 0.02686386 0.25500003 -1.7061076e+38
0.0019982685 0.02686386 0.25500003 -1.7058991e+38
0.002411129 0.02686386 0.25500003 -1.7059508e+38
0.0028239894 0.02686386 0.25500003 -1.7058466e+38
0.0032495435 0.026969209 0.25600001 -1.7057427e+38
0.0040785028 0.026969209 0.25600001 -1.7056383e+38
0.0045105331 0.027074559 0.257 -1.7056904e+38
0.0049458011 0.027179906 0.25800002 -1.7056379e+38
0.0053843078 0.027285255 0.259 -1.70569e+38
0.0058260527 0.027390605 0.26000002 -1.7189304e+38
0.0062710349 0.027495952 0.26100001 -1.7189304e+38
0.00669361 0.027495952 0.26100001 -1.7321186e+38
0.0071161846 0.027495952 0.26100001 -1.7321186e+38
0.0075676441 0.027601302 0.26200002 -1.745463e+38
0.0084160324 0.027601302 0.26200002 -1.7055338e+38
0.0088739665 0.027706647 0.26300001 -1.705586e+38
0.0093351407 0.027811997 0.264 -1.7189304e+38
0.0097995522 0.027917346 0.26500002 -1.7189304e+38
0.010267201 0.028022693 0.266 -1.745463e+38
0.010738089 0.028128043 0.26700002 -1.745463e+38
0.011212215 0.028233392 0.26800001 -1.745463e+38
0.011689579 0.02833874 0.26900002 -1.745463e+38
0.012170181 0.028444089 0.27000001 -1.745463e+38
0.012607328 0.028444089 0.27000001 -1.745463e+38
0.013531552 0.028549438 0.27100003 -1.745463e+38
0.01402187 0.028654784 0.27200001 -1.7321186e+38
0.014515423 0.028760133 0.273 -1.7321186e+38
0.014957427 0.028760133 0.273 -1.7455145e+38
0.015455838 0.028865485 0.27400002 -1.7455145e+38
0.015899461 0.028865485 0.27400002 -1.7720989e+38
0.016402731 0.02897083 0.27500001 -1.7854433e+38
0.016909236 0.029076179 0.27600002 -1.7854433e+38
0.017481867 0.029286876 0.27800003 -1.7987877e+38
0.018060973 0.029497571 0.28 -1.7987877e+38
0.018580431 0.029602922 0.28100002 -1.7987877e+38
0.01910313 0.029708272 0.28200001 -1.8652495e+38
0.019767785 0.030024316 0.28500003 -1.8785939e+38
0.020229219 0.030024316 0.28500003 -1.9317107e+38
0.021613516 0.030024316 0.28500003 -1.8918336e+38
0.022152405 0.030129664 0.28600001 -1.8918336e+38
0.022615457 0.030129664 0.28600001 -1.8918336e+38
0.024282377 0.0310778 0.29500002 -1.9317107e+38
0.024843933 0.03118315 0.296 -1.9450026e+38
0.025889587 0.031288497 0.29700002 -2.011568e+38
0.026459236 0.031393845 0.29800001 -2.0249124e+38
0.026941719 0.031393845 0.29800001 -2.1445947e+38
0.027516225 0.031499196 0.29900002 -2.1979723e+38
-0.016481493 0.031876326 0.29800001 -2.3722322e+38
-0.015999014 0.031876326 0.29800001 -2.332199e+38
-0.015034053 0.031876326 0.29800001 -2.2522373e+38
-0.010611751 0.030271811 0.28300002 -2.012716e+38
-0.0091718882 0.030057877 0.28100002 -2.0126635e+38
-0.0047701169 0.028239429 0.264 -1.866449e+38
-0.0043262355 0.028132461 0.26300001 -1.8665011e+38
-0.0034613982 0.028025495 0.26200002 -1.8398123e+38
-0.0030140195 0.027811561 0.26000002 -1.8131235e+38
-0.0021553992 0.027597623 0.25800002 -1.7466106e+38
-0.0013148477 0.027490659 0.257 -1.7067333e+38
-0.00089525204 0.027383689 0.25600001 -1.7066812e+38
-0.00048077249 0.027383689 0.25600001 -1.7066291e+38
0.00034818662 0.027383689 0.25600001 -1.7063687e+38
0.00075968698 0.027276721 0.25500003 -1.7063163e+38
0.0015854079 0.027276721 0.25500003 -1.7060034e+38
0.0019982685 0.027276721 0.25500003 -1.7058991e+38
0.002411129 0.027276721 0.25500003 -1.7058468e+38
0.0028239894 0.027276721 0.25500003 -1.7057947e+38
0.0032495435 0.027383689 0.25600001 -1.7056906e+38
0.0040785028 0.027383689 0.25600001 -1.7056379e+38
0.0045105331 0.027490659 0.257 -1.70569e+38
0.0054050968 0.027811561 0.26000002 -1.705586e+38
0.0058260527 0.027811561 0.26000002 -1.7189304e+38
0.0062710349 0.027918527 0.26100001 -1.7189304e+38
0.00669361 0.027918527 0.26100001 -1.7321186e+38
0.0071434504 0.028025495 0.26200002 -1.7321186e+38
0.0075676441 0.028025495 0.26200002 -1.745463e+38
0.0084481537 0.028132461 0.26300001 -1.705586e+38
0.0089077083 0.028239429 0.264 -1.705586e+38
0.0093351407 0.028239429 0.264 -1.7189304e+38
0.0098365312 0.028453363 0.266 -1.7189304e+38
0.0103058 0.028560333 0.26700002 -1.7189304e+38
0.010778306 0.028667301 0.26800001 -1.7189304e+38
0.011212215 0.028667301 0.26800001 -1.7189304e+38
0.011689579 0.028774267 0.26900002 -1.7189304e+38
0.012170181 0.028881235 0.27000001 -1.745463e+38
0.012654021 0.028988203 0.27100003 -1.745463e+38
0.013141099 0.029095169 0.27200001 -1.745463e+38
0.01402187 0.029095169 0.27200001 -1.7321186e+38
0.014515423 0.029202137 0.273 -1.7321186e+38
0.015012216 0.029309107 0.27400002 -1.7588589e+38
0.015455838 0.029309107 0.27400002 -1.7455145e+38
0.015957488 0.029416071 0.27500001 -1.7720989e+38
0.016402731 0.029416071 0.27500001 -1.7854433e+38
0.016909236 0.029523041 0.27600002 -1.7987877e+38
0.017481867 0.029736975 0.27800003 -1.7987877e+38
0.018060973 0.029950909 0.28 -1.7987877e+38
0.018580431 0.030057877 0.28100002 -1.7987877e+38
0.01910313 0.030164847 0.28200001 -1.8652495e+38
0.019767785 0.030485749 0.28500003 -1.8785939e+38
0.024282377 0.031555422 0.29500002 -1.9183663e+38
0.024843933 0.031662393 0.296 -1.958347e+38
0.025889587 0.031769358 0.29700002 -2.011568e+38
0.026370447 0.031769358 0.29700002 -2.0249124e+38
0.026941719 0.031876326 0.29800001 -2.1844717e+38
0.027424198 0.031876326 0.29800001 -2.2245049e+38
-0.010189435 0.030838594 0.28400001 -1.972839e+38
-0.0091718882 0.030512834 0.28100002 -1.9993712e+38
-0.0047701169 0.028666861 0.264 -1.8531571e+38
-0.0043262355 0.028558273 0.26300001 -1.8665015e+38
-0.0034613982 0.028449688 0.26200002 -1.8398123e+38
-0.0030140195 0.028232517 0.26000002 -1.8131235e+38
-0.0021553992 0.028015342 0.25800002 -1.7466621e+38
-0.0013148477 0.027906757 0.257 -1.7067333e+38
-0.0008987491 0.027906757 0.257 -1.7066812e+38
-0.00048077249 0.027798168 0.25600001 -1.7066291e+38
0.00034818662 0.027798168 0.25600001 -1.7064208e+38
0.00076266617 0.027798168 0.25600001 -1.7063163e+38
0.0011771458 0.027798168 0.25600001 -1.7062121e+38
0.0020061049 0.027798168 0.25600001 -1.7058991e+38
0.0024205844 0.027798168 0.25600001 -1.7058468e+38
0.002835064 0.027798168 0.25600001 -1.7057947e+38
0.0032495435 0.027798168 0.25600001 -1.7056902e+38
0.0036783356 0.027906757 0.257 -1.7056902e+38
0.0041103661 0.028015342 0.25800002 -1.7056379e+38
0.0045456346 0.028123928 0.259 -1.70569e+38
0.0054050968 0.028232517 0.26000002 -1.7056375e+38
0.0058260527 0.028232517 0.26000002 -1.7056375e+38
0.0062710349 0.028341101 0.26100001 -1.7056375e+38
0.00669361 0.028341101 0.26100001 -1.705586e+38
0.0071434504 0.028449688 0.26200002 -1.705586e+38
0.0075676441 0.028449688 0.26200002 -1.7189304e+38
0.0084481537 0.028558273 0.26300001 -1.705586e+38
0.0089077083 0.028666861 0.264 -1.705586e+38
0.0093705002 0.028775448 0.26500002 -1.7189304e+38
0.0098365312 0.028884033 0.266 -1.705586e+38
0.0103058 0.028992621 0.26700002 -1.7189304e+38
0.010778306 0.02910121 0.26800001 -1.705586e+38
0.011254052 0.029209793 0.26900002 -1.7189304e+38
0.011689579 0.029209793 0.26900002 -1.7189304e+38
0.012170181 0.029318381 0.27000001 -1.745463e+38
0.012654021 0.02942697 0.27100003 -1.745463e+38
0.013141099 0.029535554 0.27200001 -1.7321186e+38
0.013631416 0.029644141 0.273 -1.7321186e+38
0.014515423 0.029644141 0.273 -1.7321186e+38
0.015012216 0.029752729 0.27400002 -1.7588074e+38
0.015455838 0.029752729 0.27400002 -1.745463e+38
0.015957488 0.029861314 0.27500001 -1.7722033e+38
0.016462376 0.029969901 0.27600002 -1.7722033e+38
0.016970502 0.030078486 0.27700001 -1.7987877e+38
0.017544752 0.030295661 0.27900001 -1.7987877e+38
0.018125474 0.030512834 0.28100002 -1.8253203e+38
0.018580431 0.030512834 0.28100002 -1.8253203e+38
0.01910313 0.030621421 0.28200001 -1.8651452e+38
0.019767785 0.030947182 0.28500003 -1.891834e+38
-0.016481493 0.032841288 0.29800001 -2.4121608e+38
-0.015999014 0.032841288 0.29800001 -2.3721276e+38
-0.015034053 0.032841288 0.29800001 -2.2389969e+38
-0.01445391 0.032620877 0.296 -2.1857759e+38
-0.0030256116 0.028763676 0.26100001 -1.8131239e+38
-0.0021637536 0.028543266 0.259 -1.7599025e+38
-0.0013148477 0.028322855 0.257 -1.7066814e+38
-0.0008987491 0.028322855 0.257 -1.7066812e+38
-0.00048265053 0.028322855 0.257 -1.7066291e+38
0.00034818662 0.028212648 0.25600001 -1.7063687e+38
0.00076266617 0.028212648 0.25600001 -1.7062648e+38
0.0011771458 0.028212648 0.25600001 -1.7061606e+38
0.0020061049 0.028212648 0.25600001 -1.7058991e+38
0.0024205844 0.028212648 0.25600001 -1.7058468e+38
0.002835064 0.028212648 0.25600001 -1.7057947e+38
0.0032622369 0.028322855 0.257 -1.7056902e+38
0.0036926484 0.028433058 0.25800002 -1.7056902e+38
0.0041262978 0.028543266 0.259 -1.7056379e+38
0.0045631854 0.028653473 0.26000002 -1.70569e+38
0.0054050968 0.028653473 0.26000002 -1.7056375e+38
0.0058484599 0.028763676 0.26100001 -1.7056375e+38
0.0062710349 0.028763676 0.26100001 -1.7056375e+38
0.021198843 0.032180052 0.29200003 -1.9183667e+38
0.022144375 0.032180052 0.29200003 -1.9183667e+38
0.022617141 0.032180052 0.29200003 -1.9183667e+38
0.023168981 0.032290258 0.29300001 -1.8916779e+38
0.023724059 0.032400463 0.294 -1.9316582e+38
0.024282377 0.032510668 0.29500002 -1.9450026e+38
0.024843933 0.032620877 0.296 -1.958347e+38
0.025802417 0.032620877 0.296 -2.0249124e+38
0.026370447 0.032731079 0.29700002 -2.0249124e+38
0.026851308 0.032731079 0.29700002 -2.1844717e+38
0.027424198 0.032841288 0.29800001 -2.2111605e+38
-0.016426185 0.033211939 0.29700002 -2.3718674e+38
-0.015464463 0.033211939 0.29700002 -2.2790305e+38
-0.014933152 0.033100117 0.296 -2.2389973e+38
-0.01445391 0.033100117 0.296 -2.1723799e+38
-0.010649249 0.031758219 0.28400001 -2.0260083e+38
-0.010153557 0.031646393 0.28300002 -1.972839e+38
-0.0091718882 0.031422745 0.28100002 -1.972839e+38
-0.0047701169 0.029521724 0.264 -1.8531571e+38
-0.0043262355 0.029409898 0.26300001 -1.8665015e+38
-0.0034613982 0.029298076 0.26200002 -1.8531571e+38
0.0067192563 0.029298076 0.26200002 -1.7055338e+38
0.0071434504 0.029298076 0.26200002 -1.705586e+38
0.0075965277 0.029409898 0.26300001 -1.7189304e+38
0.0084481537 0.029409898 0.26300001 -1.7189304e+38
0.0089077083 0.029521724 0.264 -1.705586e+38
0.0098365312 0.029745374 0.266 -1.705586e+38
0.0103058 0.0298572 0.26700002 -1.705586e+38
0.010778306 0.029969025 0.26800001 -1.705586e+38
0.011254052 0.030080847 0.26900002 -1.705586e+38
0.011733035 0.030192673 0.27000001 -1.7189304e+38
0.012215256 0.030304499 0.27100003 -1.705586e+38
0.012654021 0.030304499 0.27100003 -1.705586e+38
0.013141099 0.030416323 0.27200001 -1.7321186e+38
0.013631416 0.030528149 0.273 -1.7321186e+38
0.014124971 0.030639974 0.27400002 -1.745463e+38
0.015012216 0.030639974 0.27400002 -1.7588074e+38
0.015512247 0.030751796 0.27500001 -1.7588074e+38
0.015957488 0.030751796 0.27500001 -1.7855477e+38
0.016522024 0.030975446 0.27700001 -1.7722033e+38
0.017093033 0.031199098 0.27900001 -1.7987881e+38
0.017607635 0.03131092 0.28 -1.7987881e+38
0.018125474 0.031422745 0.28100002 -1.8119763e+38
0.018646555 0.031534571 0.28200001 -1.8253207e+38
0.01910313 0.031534571 0.28200001 -1.8651452e+38
0.020726077 0.032652818 0.29200003 -1.931607e+38
0.021271441 0.032764643 0.29300001 -1.931607e+38
0.022220211 0.032764643 0.29300001 -1.931607e+38
0.022694595 0.032764643 0.29300001 -1.931607e+38
0.023248056 0.032876465 0.294 -1.9049182e+38
0.023724059 0.032876465 0.294 -1.9316582e+38
0.024282377 0.032988291 0.29500002 -1.958347e+38
0.025237624 0.032988291 0.29500002 -1.9983802e+38
0.025802417 0.033100117 0.296 -2.0115684e+38
0.026281659 0.033100117 0.296 -2.0249128e+38
0.026851308 0.033211939 0.29700002 -2.1844717e+38
0.027332168 0.033211939 0.29700002 -2.1711273e+38
-0.016426185 0.0336928 0.29700002 -2.4649648e+38
-0.015464463 0.0336928 0.29700002 -2.2656861e+38
-0.014933152 0.033579361 0.296 -2.2523417e+38
-0.01445391 0.033579361 0.296 -2.1591396e+38
-0.010649249 0.032218032 0.28400001 -2.0126635e+38
-0.010117679 0.031991147 0.28200001 -1.9993716e+38
-0.0091718882 0.0318777 0.28100002 -1.972839e+38
-0.0047701169 0.029949157 0.264 -1.8531571e+38
-0.0043262355 0.029835712 0.26300001 -1.8531571e+38
-0.0034613982 0.02972227 0.26200002 -1.8531571e+38
-0.0030372043 0.02972227 0.26200002 -1.8398127e+38
-0.0021721078 0.029495385 0.26000002 -1.7599025e+38
-0.0017376815 0.029268494 0.25800002 -1.7067335e+38
-0.0008987491 0.029155051 0.257 -1.7066812e+38
-0.00048265053 0.029155051 0.257 -1.7066291e+38
-6.6551904e-05 0.029155051 0.257 -1.7064729e+38
0.00076564529 0.029155051 0.257 -1.7062642e+38
0.0011771458 0.029041607 0.25600001 -1.7061599e+38
0.0020061049 0.029041607 0.25600001 -1.7058991e+38
0.0024205844 0.029041607 0.25600001 -1.7057953e+38
0.0028461386 0.029155051 0.257 -1.7057431e+38
0.0032749306 0.029268494 0.25800002 -1.7056906e+38
0.0037069609 0.029381938 0.259 -1.7056906e+38
0.0041422294 0.029495385 0.26000002 -1.7056379e+38
0.0045631854 0.029495385 0.26000002 -1.7056379e+38
0.0050033103 0.029608825 0.26100001 -1.7189819e+38
0.0058484599 0.029608825 0.26100001 -1.7056375e+38
0.0062950621 0.02972227 0.26200002 -1.7056375e+38
0.0067192563 0.02972227 0.26200002 -1.7055338e+38
0.0071707149 0.029835712 0.26300001 -1.705586e+38
0.0075965277 0.029835712 0.26300001 -1.7189304e+38
0.0080528446 0.029949157 0.264 -1.7189304e+38
0.0085123982 0.030062603 0.26500002 -1.7189304e+38
0.0089751901 0.030176044 0.266 -1.705586e+38
0.0094412211 0.030289488 0.26700002 -1.705586e+38
0.0103058 0.030289488 0.26700002 -1.705586e+38
0.010778306 0.030402934 0.26800001 -1.705586e+38
0.011254052 0.030516375 0.26900002 -1.705586e+38
0.011733035 0.030629821 0.27000001 -1.705586e+38
0.012215256 0.030743266 0.27100003 -1.705586e+38
0.012700715 0.030856706 0.27200001 -1.705586e+38
0.013141099 0.030856706 0.27200001 -1.7189304e+38
0.013631416 0.030970152 0.273 -1.7189304e+38
0.014124971 0.031083597 0.27400002 -1.7588589e+38
0.015012216 0.031083597 0.27400002 -1.7722033e+38
0.015512247 0.031197039 0.27500001 -1.7588589e+38
0.016015515 0.031310484 0.27600002 -1.7722033e+38
0.016522024 0.031423926 0.27700001 -1.7722033e+38
0.017093033 0.031650815 0.27900001 -1.7987881e+38
0.01767052 0.0318777 0.28100002 -1.7987881e+38
0.01818998 0.031991147 0.28200001 -1.8119763e+38
0.018646555 0.031991147 0.28200001 -1.8119763e+38
0.01910313 0.031991147 0.28200001 -1.8518008e+38
0.019629065 0.032104589 0.28300002 -1.8651452e+38
0.020726077 0.033125583 0.29200003 -1.931607e+38
0.021198843 0.033125583 0.29200003 -1.931607e+38
0.022220211 0.033239029 0.29300001 -1.931607e+38
0.022694595 0.033239029 0.29300001 -1.931607e+38
0.023248056 0.033352468 0.294 -1.9049182e+38
0.023724059 0.033352468 0.294 -1.9316582e+38
0.024282377 0.033465914 0.29500002 -1.958347e+38
0.025237624 0.033465914 0.29500002 -1.9983802e+38
0.025715247 0.033465914 0.29500002 -2.0115684e+38
0.026281659 0.033579361 0.296 -2.0249128e+38
0.026760899 0.033579361 0.296 -2.1844721e+38
-0.015891636 0.034058601 0.296 -2.5179782e+38
-0.015412394 0.034058601 0.296 -2.2790305e+38
-0.014882702 0.033943538 0.29500002 -2.2656861e+38
-0.013927456 0.033943538 0.29500002 -2.1192625e+38
-0.010611751 0.032562781 0.28300002 -1.9993191e+38
-0.010117679 0.032447722 0.28200001 -1.9993716e+38
-0.0092045292 0.032447722 0.28200001 -1.972839e+38
-0.0087169325 0.032332659 0.28100002 -1.972839e+38
-0.0043262355 0.030261526 0.26300001 -1.8665015e+38
-0.0039004225 0.030261526 0.26300001 -1.8665015e+38
-0.0030372043 0.030146465 0.26200002 -1.8398127e+38
-0.0026030368 0.0300314 0.26100001 -1.7865913e+38
-0.0017444168 0.029801276 0.259 -1.7067335e+38
-0.00090224622 0.029686211 0.25800002 -1.7066293e+38
-0.00048265053 0.029571151 0.257 -1.7065772e+38
-6.6551904e-05 0.029571151 0.257 -1.7063693e+38
0.00076564529 0.029571151 0.257 -1.7062127e+38
0.001181744 0.029571151 0.257 -1.7061084e+38
0.0015978426 0.029571151 0.257 -1.7059516e+38
0.0024300399 0.029571151 0.257 -1.7057953e+38
0.0028572129 0.029686211 0.25800002 -1.7057431e+38
0.0032876241 0.029801276 0.259 -1.7056906e+38
0.0037212735 0.029916339 0.26000002 -1.7056906e+38
0.0041422294 0.029916339 0.26000002 -1.7056383e+38
0.0045807357 0.0300314 0.26100001 -1.7056383e+38
0.0050033103 0.0300314 0.26100001 -1.7189819e+38
0.0058484599 0.0300314 0.26100001 -1.7056375e+38
0.0062950621 0.030146465 0.26200002 -1.7056375e+38
0.0067192563 0.030146465 0.26200002 -1.705586e+38
0.0071707149 0.030261526 0.26300001 -1.705586e+38
0.0075965277 0.030261526 0.26300001 -1.7189304e+38
0.0080528446 0.030376589 0.264 -1.705586e+38
0.0085123982 0.030491654 0.26500002 -1.7189304e+38
0.0089751901 0.030606713 0.266 -1.705586e+38
0.0094412211 0.030721778 0.26700002 -1.705586e+38
0.0099104894 0.030836841 0.26800001 -1.705586e+38
0.010778306 0.030836841 0.26800001 -1.705586e+38
0.011254052 0.030951902 0.26900002 -1.705586e+38
0.011733035 0.031066967 0.27000001 -1.705586e+38
0.012215256 0.03118203 0.27100003 -1.705586e+38
0.012700715 0.031297091 0.27200001 -1.705586e+38
0.013189412 0.031412154 0.273 -1.7455145e+38
0.013631416 0.031412154 0.273 -1.7588589e+38
0.014124971 0.031527221 0.27400002 -1.7854437e+38
0.015012216 0.031527221 0.27400002 -1.7854437e+38
0.015512247 0.031642281 0.27500001 -1.7720993e+38
0.016015515 0.031757344 0.27600002 -1.7854437e+38
0.016522024 0.031872407 0.27700001 -1.7854437e+38
0.017093033 0.032102533 0.27900001 -1.8253207e+38
0.01767052 0.032332659 0.28100002 -1.8119763e+38
0.01818998 0.032447722 0.28200001 -1.8252167e+38
0.018646555 0.032447722 0.28200001 -1.8252167e+38
0.019170871 0.032562781 0.28300002 -1.8518012e+38
0.019629065 0.032562781 0.28300002 -1.8651456e+38
0.020655097 0.033483285 0.29100001 -1.931607e+38
0.021198843 0.033598348 0.29200003 -1.931607e+38
0.022220211 0.033713412 0.29300001 -1.931607e+38
0.022694595 0.033713412 0.29300001 -1.9316066e+38
0.023248056 0.033828475 0.294 -1.9316066e+38
0.023724059 0.033828475 0.294 -1.944951e+38
0.024676068 0.033828475 0.294 -1.998224e+38
0.025237624 0.033943538 0.29500002 -2.0249128e+38
0.025715247 0.033943538 0.29500002 -2.0381532e+38
0.02619287 0.033943538 0.29500002 -2.0381532e+38
0.026760899 0.034058601 0.296 -2.1843676e+38
-0.004342685 0.030804021 0.264 -1.8531571e+38
-0.0039004225 0.030687338 0.26300001 -1.8531571e+38
-0.0030372043 0.030570658 0.26200002 -1.8398127e+38
-0.0026030368 0.030453974 0.26100001 -1.7865913e+38
-0.001751152 0.030337295 0.26000002 -1.7067335e+38
-0.00090224622 0.030103929 0.25800002 -1.7066293e+38
-0.00048452854 0.030103929 0.25800002 -1.7065772e+38
-6.6810862e-05 0.030103929 0.25800002 -1.7064214e+38
0.00076862448 0.030103929 0.25800002 -1.7062127e+38
0.001181744 0.02998725 0.257 -1.7061084e+38
0.0016040598 0.030103929 0.25800002 -1.7059516e+38
0.0020217777 0.030103929 0.25800002 -1.7059516e+38
0.0024489504 0.030220613 0.259 -1.7057953e+38
0.0028793619 0.030337295 0.26000002 -1.7057431e+38
0.0037212735 0.030337295 0.26000002 -1.7056906e+38
0.0041581606 0.030453974 0.26100001 -1.7056383e+38
0.0045807357 0.030453974 0.26100001 -1.7056383e+38
0.0050033103 0.030453974 0.26100001 -1.705586e+38
0.0054466743 0.030570658 0.26200002 -1.705586e+38
0.0062950621 0.030570658 0.26200002 -1.7056375e+38
0.0067449021 0.030687338 0.26300001 -1.705586e+38
0.0071707149 0.030687338 0.26300001 -1.705586e+38
0.0076254127 0.030804021 0.264 -1.705586e+38
0.0080528446 0.030804021 0.264 -1.705586e+38
0.0085123982 0.030920705 0.26500002 -1.7189304e+38
0.0089751901 0.031037385 0.266 -1.705586e+38
0.0094412211 0.031154066 0.26700002 -1.7055338e+38
0.0099104894 0.03127075 0.26800001 -1.705586e+38
0.010778306 0.03127075 0.26800001 -1.7189304e+38
0.011295888 0.031504113 0.27000001 -1.705586e+38
0.01177649 0.031620797 0.27100003 -1.705586e+38
0.012260331 0.031737477 0.27200001 -1.705586e+38
0.012747409 0.03185416 0.273 -1.705586e+38
0.013189412 0.03185416 0.273 -1.7588589e+38
0.013681348 0.031970844 0.27400002 -1.7722033e+38
0.014124971 0.031970844 0.27400002 -1.7854433e+38
0.015012216 0.031970844 0.27400002 -1.7854433e+38
0.015512247 0.032087523 0.27500001 -1.7720989e+38
0.016015515 0.032204203 0.27600002 -1.7854433e+38
0.016522024 0.032320883 0.27700001 -1.7854433e+38
-0.015360325 0.034898784 0.29500002 -2.3321994e+38
-0.014882702 0.034898784 0.29500002 -2.318855e+38
-0.013927456 0.034898784 0.29500002 -2.1326069e+38
-0.013313056 0.034543879 0.29200003 -2.1326069e+38
-0.010611751 0.033479169 0.28300002 -1.9993191e+38
-0.010153557 0.033479169 0.28300002 -1.9860272e+38
-0.0096953623 0.033479169 0.28300002 -1.9993716e+38
-0.0087479539 0.033360872 0.28200001 -1.972839e+38
0.017093033 0.033005968 0.27900001 -1.7986315e+38
0.01767052 0.033242568 0.28100002 -1.8119759e+38
0.01818998 0.033360872 0.28200001 -1.8119759e+38
0.018646555 0.033360872 0.28200001 -1.8119759e+38
0.019170871 0.033479169 0.28300002 -1.8518008e+38
0.019629065 0.033479169 0.28300002 -1.8651452e+38
0.020655097 0.034425579 0.29100001 -1.8916779e+38
0.021198843 0.034543879 0.29200003 -1.9183667e+38
0.022220211 0.034662183 0.29300001 -1.9316066e+38
0.022694595 0.034662183 0.29300001 -1.9316066e+38
0.023248056 0.03478048 0.294 -1.9316066e+38
0.023724059 0.03478048 0.294 -1.944951e+38
0.024676068 0.03478048 0.294 -1.9848796e+38
0.02515207 0.03478048 0.294 -1.998224e+38
0.025715247 0.034898784 0.29500002 -2.0248084e+38
0.02619287 0.034898784 0.29500002 -2.0248084e+38
-0.015308257 0.035256486 0.294 -2.3584714e+38
-0.01435625 0.035256486 0.294 -2.1860361e+38
-0.013833034 0.035136566 0.29300001 -2.1726917e+38
-0.012796317 0.034896724 0.29100001 -2.1192625e+38
-0.011731817 0.034536965 0.28800002 -2.0792293e+38
-0.011226411 0.034417048 0.287 -2.0260079e+38
-0.0096953623 0.033937365 0.28300002 -1.9860272e+38
-0.0039004225 0.031538963 0.26300001 -1.8531571e+38
-0.0030487964 0.031538963 0.26300001 -1.8398127e+38
-0.0026030368 0.031299125 0.26100001 -1.7732994e+38
-0.001751152 0.031179206 0.26000002 -1.7067339e+38
-0.0013250801 0.031059286 0.259 -1.7066818e+38
-0.00048640656 0.031059286 0.259 -1.7065776e+38
-6.6810862e-05 0.030939365 0.25800002 -1.7064733e+38
0.00076862448 0.030939365 0.25800002 -1.7062127e+38
0.0011863422 0.030939365 0.25800002 -1.7061084e+38
0.0016102771 0.031059286 0.259 -1.7059512e+38
0.0020296138 0.031059286 0.259 -1.7058991e+38
0.0024584059 0.031179206 0.26000002 -1.7057953e+38
0.0028793619 0.031179206 0.26000002 -1.7057431e+38
0.0037212735 0.031179206 0.26000002 -1.705587e+38
0.0041581606 0.031299125 0.26100001 -1.7056387e+38
0.0045807357 0.031299125 0.26100001 -1.7056387e+38
0.0050224802 0.031419046 0.26200002 -1.7055864e+38
0.0054466743 0.031419046 0.26200002 -1.7055864e+38
0.0058932761 0.031538963 0.26300001 -1.7189304e+38
0.0067449021 0.031538963 0.26300001 -1.7189304e+38
0.0071979803 0.031658884 0.264 -1.705586e+38
0.0076254127 0.031658884 0.264 -1.7055864e+38
0.0080833472 0.031778805 0.26500002 -1.7055864e+38
0.0085123982 0.031778805 0.26500002 -1.705586e+38
0.0089751901 0.031898726 0.266 -1.705586e+38
0.0094412211 0.032018647 0.26700002 -1.705586e+38
0.0099104894 0.032138567 0.26800001 -1.705586e+38
0.010818524 0.032258485 0.26900002 -1.705586e+38
0.011295888 0.032378405 0.27000001 -1.705586e+38
0.01177649 0.032498326 0.27100003 -1.7189304e+38
0.012260331 0.032618243 0.27200001 -1.7189304e+38
0.012747409 0.032738168 0.273 -1.7189304e+38
0.013237725 0.032858089 0.27400002 -1.7588589e+38
0.013681348 0.032858089 0.27400002 -1.7722033e+38
0.014124971 0.032858089 0.27400002 -1.7854433e+38
0.015012216 0.032858089 0.27400002 -1.7720989e+38
0.015512247 0.032978006 0.27500001 -1.7720989e+38
0.016015515 0.033097927 0.27600002 -1.7854433e+38
0.016522024 0.033217844 0.27700001 -1.7854433e+38
0.017031768 0.033337764 0.27800003 -1.7986315e+38
0.017607635 0.033577606 0.28 -1.7986315e+38
0.01818998 0.033817448 0.28200001 -1.7986315e+38
0.018712677 0.033937365 0.28300002 -1.7986315e+38
0.019170871 0.033937365 0.28300002 -1.8518008e+38
0.019698426 0.034057286 0.28400001 -1.8518008e+38
0.020655097 0.034896724 0.29100001 -1.8916779e+38
0.021198843 0.035016645 0.29200003 -1.9183667e+38
0.022144375 0.035016645 0.29200003 -1.9183663e+38
0.022694595 0.035136566 0.29300001 -1.9183663e+38
0.023168981 0.035136566 0.29300001 -1.9317107e+38
0.023724059 0.035256486 0.294 -1.9317107e+38
0.024676068 0.035256486 0.294 -1.9582954e+38
0.02515207 0.035256486 0.294 -1.9716399e+38
0.025628075 0.035256486 0.294 -2.0779256e+38
0.026104078 0.035256486 0.294 -2.0512368e+38
-0.015256188 0.035610951 0.29300001 -2.5449798e+38
-0.014307419 0.035610951 0.29300001 -2.2259127e+38
-0.013833034 0.035610951 0.29300001 -2.2259127e+38
-0.012796317 0.035367873 0.29100001 -2.1192625e+38
-0.012240461 0.035124794 0.289 -2.1059181e+38
-0.011265527 0.035003252 0.28800002 -2.0925737e+38
-0.0057315151 0.032694012 0.26900002 -1.866449e+38
-0.0039152531 0.032086316 0.264 -1.8531571e+38
-0.0030487964 0.031964775 0.26300001 -1.8398127e+38
-0.0026030368 0.0317217 0.26100001 -1.7732994e+38
-0.001751152 0.031600162 0.26000002 -1.7067859e+38
-0.0013301962 0.031600162 0.26000002 -1.7067337e+38
-0.00048640656 0.031478621 0.259 -1.7066295e+38
-6.7069821e-05 0.031478621 0.259 -1.7064733e+38
0.00035226691 0.031478621 0.259 -1.7063691e+38
0.0011909404 0.031478621 0.259 -1.7061606e+38
0.0016102771 0.031478621 0.259 -1.7059512e+38
0.0020374502 0.031600162 0.26000002 -1.7058991e+38
0.0024584059 0.031600162 0.26000002 -1.7057953e+38
0.0028793619 0.031600162 0.26000002 -1.7057431e+38
0.0033130113 0.0317217 0.26100001 -1.705587e+38
0.0041581606 0.0317217 0.26100001 -1.7055866e+38
0.0045807357 0.0317217 0.26100001 -1.7056387e+38
0.0050224802 0.031843241 0.26200002 -1.7055864e+38
0.0054466743 0.031843241 0.26200002 -1.7189308e+38
0.0058932761 0.031964775 0.26300001 -1.7189308e+38
0.0067449021 0.031964775 0.26300001 -1.7189308e+38
0.0071979803 0.032086316 0.264 -1.7055864e+38
0.0076254127 0.032086316 0.264 -1.7055864e+38
0.0080833472 0.032207858 0.26500002 -1.7055864e+38
0.0085445205 0.032329395 0.266 -1.7055864e+38
0.0090089319 0.032450933 0.26700002 -1.7055864e+38
0.0094765816 0.032572474 0.26800001 -1.705586e+38
0.0099474695 0.032694012 0.26900002 -1.705586e+38
0.010421596 0.032815553 0.27000001 -1.705586e+38
0.01089896 0.032937091 0.27100003 -1.705586e+38
0.011379561 0.033058628 0.27200001 -1.705586e+38
0.012305405 0.03318017 0.273 -1.7189304e+38
0.012747409 0.03318017 0.273 -1.7189304e+38
0.013237725 0.033301711 0.27400002 -1.7588589e+38
0.013681348 0.033301711 0.27400002 -1.7722033e+38
0.014124971 0.033301711 0.27400002 -1.7854433e+38
0.015012216 0.033301711 0.27400002 -1.7720989e+38
0.015512247 0.033423245 0.27500001 -1.7720989e+38
0.015957488 0.033423245 0.27500001 -1.7720989e+38
0.016522024 0.033666324 0.27700001 -1.7720989e+38
0.017093033 0.033909403 0.27900001 -1.7986315e+38
0.017607635 0.03403094 0.28 -1.7986315e+38
0.01818998 0.034274023 0.28200001 -1.8118719e+38
0.018712677 0.034395561 0.28300002 -1.8118719e+38
0.019238614 0.034517098 0.28400001 -1.8518008e+38
0.020655097 0.035367873 0.29100001 -1.8916775e+38
0.021597391 0.035367873 0.29100001 -1.9183663e+38
0.022144375 0.03548941 0.29200003 -1.9183663e+38
0.022694595 0.035610951 0.29300001 -1.9183663e+38
0.023168981 0.035610951 0.29300001 -1.9317107e+38
0.023643365 0.035610951 0.29300001 -1.9183663e+38
0.024592135 0.035610951 0.29300001 -1.958347e+38
0.02515207 0.035732489 0.294 -1.9716914e+38
0.025628075 0.035732489 0.294 -2.1307296e+38
-0.014731353 0.035962176 0.29200003 -2.4911843e+38
-0.014258588 0.035962176 0.29200003 -2.2524975e+38
-0.013785821 0.035962176 0.29200003 -2.2391531e+38
-0.013313056 0.035962176 0.29200003 -2.1725355e+38
-0.01232517 0.035839017 0.29100001 -2.1059696e+38
-0.011304644 0.035592701 0.289 -2.1059181e+38
-0.010799238 0.035469543 0.28800002 -2.0391961e+38
-0.010332949 0.035469543 0.28800002 -1.9860276e+38
-0.0048604603 0.033129539 0.26900002 -1.866449e+38
-0.003487821 0.032513749 0.264 -1.8132797e+38
-0.0026130104 0.032267433 0.26200002 -1.7733509e+38
-0.0017578871 0.032144275 0.26100001 -1.7067859e+38
-0.0013301962 0.032021116 0.26000002 -1.7067337e+38
-0.00090924039 0.032021116 0.26000002 -1.7066816e+38
-6.7328772e-05 0.032021116 0.26000002 -1.7064733e+38
0.00035362702 0.032021116 0.26000002 -1.7064212e+38
0.00077458279 0.032021116 0.26000002 -1.7062127e+38
0.0016164944 0.032021116 0.26000002 -1.7060038e+38
0.0020374502 0.032021116 0.26000002 -1.7059516e+38
0.0024584059 0.032021116 0.26000002 -1.7057953e+38
0.0028904362 0.032144275 0.26100001 -1.705691e+38
0.0033130113 0.032144275 0.26100001 -1.705587e+38
0.0041581606 0.032144275 0.26100001 -1.7055866e+38
0.0045982865 0.032267433 0.26200002 -1.7056387e+38
0.0050224802 0.032267433 0.26200002 -1.7055864e+38
0.0054674628 0.032390591 0.26300001 -1.7189308e+38
0.0058932761 0.032390591 0.26300001 -1.7189308e+38
0.0063431161 0.032513749 0.264 -1.7189308e+38
0.0071979803 0.032513749 0.264 -1.7055864e+38
0.0076542962 0.032636907 0.26500002 -1.7055864e+38
0.0081138499 0.032760065 0.266 -1.7055864e+38
0.0085766427 0.032883223 0.26700002 -1.7055864e+38
0.0090426737 0.033006381 0.26800001 -1.7055864e+38
0.0094765816 0.033006381 0.26800001 -1.705586e+38
0.0099474695 0.033129539 0.26900002 -1.705586e+38
0.010460194 0.033375859 0.27100003 -1.7321186e+38
0.010939177 0.033499014 0.27200001 -1.745463e+38
0.011421397 0.033622172 0.273 -1.745463e+38
0.012305405 0.033622172 0.273 -1.745463e+38
0.012794103 0.033745334 0.27400002 -1.745463e+38
0.013189412 0.033622172 0.273 -1.7588589e+38
0.013681348 0.033745334 0.27400002 -1.7588589e+38
0.014515423 0.033622172 0.273 -1.7720993e+38
0.014902638 0.033499014 0.27200001 -1.7720989e+38
0.015399431 0.033622172 0.273 -1.7720989e+38
0.015957488 0.033868488 0.27500001 -1.7852871e+38
0.016522024 0.034114804 0.27700001 -1.7852871e+38
0.017093033 0.034361124 0.27900001 -1.7985275e+38
0.01767052 0.034607437 0.28100002 -1.7985275e+38
0.018254483 0.034853753 0.28300002 -1.8118719e+38
0.020114589 0.035715863 0.29000002 -1.8518004e+38
0.020655097 0.035839017 0.29100001 -1.9183663e+38
0.021597391 0.035839017 0.29100001 -1.9183663e+38
0.022144375 0.035962176 0.29200003 -1.9183663e+38
0.022617141 0.035962176 0.29200003 -1.9183663e+38
0.023168981 0.036085337 0.29300001 -1.9317107e+38
0.023643365 0.036085337 0.29300001 -1.9316066e+38
0.024592135 0.036085337 0.29300001 -1.9715352e+38
0.025066519 0.036085337 0.29300001 -1.9048132e+38
-0.0026229837 0.032816403 0.26300001 -1.7733509e+38
-0.0021888164 0.032691628 0.26200002 -1.7466621e+38
-0.0013353123 0.032566849 0.26100001 -1.7066814e+38
-0.00091273739 0.032566849 0.26100001 -1.7067337e+38
-6.7328772e-05 0.032442074 0.26000002 -1.7064733e+38
0.00035362702 0.032442074 0.26000002 -1.7064212e+38
0.00077458279 0.032442074 0.26000002 -1.7062646e+38
0.0016164944 0.032442074 0.26000002 -1.7060038e+38
0.0020374502 0.032442074 0.26000002 -1.7058995e+38
0.0024584059 0.032442074 0.26000002 -1.7057431e+38
0.0028904362 0.032566849 0.26100001 -1.705691e+38
0.0033130113 0.032566849 0.26100001 -1.705587e+38
0.0041740923 0.032691628 0.26200002 -1.7055866e+38
0.0045982865 0.032691628 0.26200002 -1.7056387e+38
0.0050224802 0.032691628 0.26200002 -1.7055868e+38
0.0054674628 0.032816403 0.26300001 -1.7055868e+38
0.0058932761 0.032816403 0.26300001 -1.7189308e+38
0.0063431161 0.032941181 0.264 -1.7189308e+38
0.0071979803 0.032941181 0.264 -1.7055864e+38
0.0076542962 0.03306596 0.26500002 -1.7055864e+38
-0.014258588 0.03690771 0.29200003 -2.3851603e+38
-0.013785821 0.03690771 0.29200003 -2.3985047e+38
-0.012796317 0.036781311 0.29100001 -2.1591911e+38
-0.01232517 0.036781311 0.29100001 -2.0793855e+38
-0.011813288 0.036654916 0.29000002 -2.0660411e+38
-0.010836735 0.03652852 0.289 -2.0260079e+38
-0.010332949 0.036402121 0.28800002 -1.9993716e+38
-0.0057528219 0.03412699 0.27000001 -1.8929816e+38
-0.0048604603 0.034000594 0.26900002 -1.866449e+38
-0.0044249329 0.034000594 0.26900002 -1.8531567e+38
0.0081138499 0.033621404 0.266 -1.7055864e+38
0.0085766427 0.033747803 0.26700002 -1.7055864e+38
0.0090426737 0.033874199 0.26800001 -1.7055864e+38
0.009511942 0.034000594 0.26900002 -1.732119e+38
0.0099844486 0.03412699 0.27000001 -1.7454634e+38
0.010460194 0.034253389 0.27100003 -1.745463e+38
0.010979394 0.034506179 0.273 -1.7588074e+38
0.011421397 0.034506179 0.273 -1.745463e+38
0.011906858 0.034632578 0.27400002 -1.745463e+38
0.012794103 0.034632578 0.27400002 -1.745463e+38
0.013237725 0.034632578 0.27400002 -1.7588589e+38
0.013631416 0.034506179 0.273 -1.7588589e+38
0.014515423 0.034506179 0.273 -1.7587549e+38
0.014957427 0.034506179 0.273 -1.7986315e+38
0.015399431 0.034506179 0.273 -1.7852871e+38
0.015957488 0.03475897 0.27500001 -1.7985275e+38
0.016522024 0.035011765 0.27700001 -1.7985275e+38
0.017093033 0.035264559 0.27900001 -1.825112e+38
0.018447993 0.03614933 0.28600001 -1.838456e+38
0.019043289 0.036402121 0.28800002 -1.838456e+38
0.019577321 0.03652852 0.289 -1.8783331e+38
0.020114589 0.036654916 0.29000002 -1.8783331e+38
0.021053644 0.036654916 0.29000002 -1.8916775e+38
0.021597391 0.036781311 0.29100001 -1.9183663e+38
0.022068538 0.036781311 0.29100001 -1.9183663e+38
0.022617141 0.03690771 0.29200003 -1.9183663e+38
0.023089906 0.03690771 0.29200003 -1.9183663e+38
0.024035437 0.03690771 0.29200003 -1.9581908e+38
0.024508202 0.03690771 0.29200003 -2.2904978e+38
-0.014209757 0.037252456 0.29100001 -2.5049465e+38
-0.01373861 0.037252456 0.29100001 -2.4782577e+38
-0.012796317 0.037252456 0.29100001 -2.1725355e+38
-0.012282816 0.037124444 0.29000002 -2.0793855e+38
-0.011813288 0.037124444 0.29000002 -2.0660411e+38
-0.010836735 0.036996428 0.289 -2.0526967e+38
-0.010332949 0.036868412 0.28800002 -2.012716e+38
-0.0057528219 0.034564137 0.27000001 -1.8929816e+38
-0.0048604603 0.034436122 0.26900002 -1.866449e+38
-0.0044249329 0.034436122 0.26900002 -1.8531567e+38
-0.003527455 0.03418009 0.26700002 -1.8266241e+38
-0.002632957 0.033796046 0.264 -1.7733505e+38
-0.0021971706 0.03366803 0.26300001 -1.7600061e+38
-0.0013404285 0.033540014 0.26200002 -1.7066814e+38
-0.00091273739 0.033411998 0.26100001 -1.7066818e+38
-6.7587731e-05 0.033411998 0.26100001 -1.7064733e+38
0.00035498713 0.033411998 0.26100001 -1.7064212e+38
0.00077458279 0.033283986 0.26000002 -1.7062648e+38
0.0016164944 0.033283986 0.26000002 -1.7059516e+38
0.0020374502 0.033283986 0.26000002 -1.7058995e+38
0.0024678614 0.033411998 0.26100001 -1.7057431e+38
0.0028904362 0.033411998 0.26100001 -1.7057431e+38
0.0033257045 0.033540014 0.26200002 -1.7056906e+38
0.0041740923 0.033540014 0.26200002 -1.7056908e+38
0.0045982865 0.033540014 0.26200002 -1.7056387e+38
0.0050224802 0.033540014 0.26200002 -1.7055868e+38
0.0054674628 0.03366803 0.26300001 -1.7055868e+38
0.0058932761 0.03366803 0.26300001 -1.7055864e+38
0.0063431161 0.033796046 0.264 -1.7055864e+38
0.0067961942 0.033924062 0.26500002 -1.7055864e+38
0.0072797756 0.03418009 0.26700002 -1.7055342e+38
0.0081443535 0.03418009 0.26700002 -1.7055864e+38
0.008608765 0.034308109 0.26800001 -1.7055864e+38
0.0090426737 0.034308109 0.26800001 -1.7055864e+38
0.009511942 0.034436122 0.26900002 -1.732119e+38
0.0099844486 0.034564137 0.27000001 -1.7454634e+38
0.010498792 0.034820165 0.27200001 -1.745463e+38
0.010979394 0.034948185 0.273 -1.7588074e+38
0.011463235 0.035076201 0.27400002 -1.7455145e+38
0.011950313 0.035204213 0.27500001 -1.7455145e+38
0.012395554 0.035204213 0.27500001 -1.7321701e+38
0.013286038 0.035204213 0.27500001 -1.7588589e+38
0.013731279 0.035204213 0.27500001 -1.7455145e+38
0.014515423 0.034948185 0.273 -1.7587549e+38
0.014957427 0.034948185 0.273 -1.7986315e+38
0.015512247 0.035204213 0.27500001 -1.7852871e+38
0.015957488 0.035204213 0.27500001 -1.7985275e+38
0.016522024 0.035460245 0.27700001 -1.7985275e+38
0.017093033 0.035716277 0.27900001 -1.825112e+38
0.017984943 0.03661238 0.28600001 -1.825112e+38
0.018512497 0.0367404 0.287 -1.8251116e+38
0.019043289 0.036868412 0.28800002 -1.838456e+38
0.01950958 0.036868412 0.28800002 -1.8783331e+38
0.020114589 0.037124444 0.29000002 -1.8916775e+38
0.021053644 0.037124444 0.29000002 -1.8916775e+38
0.021523172 0.037124444 0.29000002 -1.9183663e+38
0.022068538 0.037252456 0.29100001 -1.9183663e+38
0.022539685 0.037252456 0.29100001 -1.9316066e+38
0.023089906 0.037380476 0.29200003 -1.9316066e+38
0.024035437 0.037380476 0.29200003 -2.0778219e+38
-0.01373861 0.037723605 0.29100001 -2.4911843e+38
-0.012752343 0.037593972 0.29000002 -2.1725355e+38
-0.012282816 0.037593972 0.29000002 -2.0927299e+38
-0.011813288 0.037593972 0.29000002 -2.0793855e+38
-0.010836735 0.037464336 0.289 -2.0660415e+38
-0.010404705 0.037593972 0.29000002 -2.0394048e+38
-0.0057528219 0.035001285 0.27000001 -1.866449e+38
-0.0048604603 0.034871649 0.26900002 -1.8797934e+38
-0.0044249329 0.034871649 0.26900002 -1.8531567e+38
-0.003527455 0.03461238 0.26700002 -1.8266241e+38
-0.0030835737 0.034482744 0.266 -1.8132797e+38
-0.0022055248 0.034223478 0.264 -1.7600065e+38
