# .PCD v0.7 - Point Cloud Data file format
VERSION 0.7
FIELDS x y z rgb
SIZE 4 4 4 4
TYPE F F F F
COUNT 1 1 1 1
WIDTH 975
HEIGHT 1
VIEWPOINT 0 0 0 1 0 0 0
POINTS 975
DATA ascii
0.088617437 0.0078303674 0.30100003 -1.7055872e+38
0.089592114 0.0078303674 0.30100003 -1.7055872e+38
0.090079449 0.0078303674 0.30100003 -1.7055872e+38
0.091168568 0.0078823958 0.303 -1.705535e+38
0.091961645 0.0079084113 0.30400002 -1.7055872e+38
0.092757963 0.007934426 0.30500001 -1.7055866e+38
0.093557522 0.0079604397 0.30600002 -1.7055866e+38
0.094360314 0.0079864552 0.30700001 -1.7055866e+38
0.095166348 0.0080124689 0.30800003 -1.7055866e+38
0.09616369 0.0080124689 0.30800003 -1.7054823e+38
0.096976198 0.0080384836 0.30900002 -1.7055862e+38
0.09747649 0.0080384836 0.30900002 -1.7056383e+38
0.098293856 0.0080644982 0.31 -1.7056383e+38
0.099114463 0.0080905128 0.31100002 -1.7056383e+38
0.10012151 0.0080905128 0.31100002 -1.7056383e+38
0.10094859 0.0081165275 0.31200001 -1.7056383e+38
0.10145374 0.0081165275 0.31200001 -1.7056383e+38
0.10195889 0.0081165275 0.31200001 -1.7189304e+38
0.10296918 0.0081165275 0.31200001 -1.7056379e+38
0.10347433 0.0081165275 0.31200001 -1.7056379e+38
0.10397948 0.0081165275 0.31200001 -1.70569e+38
0.10465327 0.0080905128 0.31100002 -1.7322748e+38
0.10549492 0.0081165275 0.31200001 -1.7189304e+38
0.10600007 0.0081165275 0.31200001 -1.7322748e+38
0.10684658 0.0081425412 0.31300002 -1.7189304e+38
0.11906122 0.008584789 0.33000001 -1.8388213e+38
0.12049384 0.0086108027 0.33100003 -2.1316681e+38
0.072017796 0.0089220526 0.30500001 -2.0389874e+38
0.071812361 0.0087172845 0.29800001 -2.0125588e+38
0.072533108 0.0086880317 0.29700002 -1.9593374e+38
0.073013969 0.0086880317 0.29700002 -1.8528433e+38
0.07397569 0.0086880317 0.29700002 -1.7198692e+38
0.07445655 0.0086880317 0.29700002 -1.7198692e+38
0.074937411 0.0086880317 0.29700002 -1.7065774e+38
0.075672202 0.0087172845 0.29800001 -1.7065252e+38
0.076154687 0.0087172845 0.29800001 -1.706421e+38
0.077119648 0.0087172845 0.29800001 -1.7062648e+38
0.077602126 0.0087172845 0.29800001 -1.7061606e+38
0.078084603 0.0087172845 0.29800001 -1.7060565e+38
0.079049565 0.0087172845 0.29800001 -1.7058997e+38
0.079798929 0.0087465364 0.29900002 -1.7057955e+38
0.080283031 0.0087465364 0.29900002 -1.7057435e+38
0.080767132 0.0087465364 0.29900002 -1.7057435e+38
0.081522971 0.0087757893 0.30000001 -1.7056391e+38
0.082494408 0.0087757893 0.30000001 -1.7055872e+38
0.082980126 0.0087757893 0.30000001 -1.7055872e+38
0.083465844 0.0087757893 0.30000001 -1.7055872e+38
0.084437281 0.0087757893 0.30000001 -1.7055872e+38
0.085206077 0.0088050421 0.30100003 -1.705535e+38
0.085693412 0.0088050421 0.30100003 -1.7056387e+38
0.086180754 0.0088050421 0.30100003 -1.7056387e+38
0.086668089 0.0088050421 0.30100003 -1.7056387e+38
0.087642759 0.0088050421 0.30100003 -1.7056387e+38
0.088130102 0.0088050421 0.30100003 -1.7055866e+38
0.088617437 0.0088050421 0.30100003 -1.7055872e+38
0.089592114 0.0088050421 0.30100003 -1.7055872e+38
0.090079449 0.0088050421 0.30100003 -1.7055872e+38
0.091168568 0.0088635469 0.303 -1.7055866e+38
0.092264153 0.0089220526 0.30500001 -1.7056387e+38
0.093062088 0.0089513054 0.30600002 -1.7055866e+38
0.093863264 0.0089805583 0.30700001 -1.7054823e+38
0.094667681 0.0090098102 0.30800003 -1.7055866e+38
0.095475331 0.009039063 0.30900002 -1.7055866e+38
0.096475907 0.009039063 0.30900002 -1.7055866e+38
0.096976198 0.009039063 0.30900002 -1.7055866e+38
0.097791947 0.0090683149 0.31 -1.7056387e+38
0.09861093 0.0090975687 0.31100002 -1.7055862e+38
0.099114463 0.0090975687 0.31100002 -1.7056383e+38
0.099938303 0.0091268215 0.31200001 -1.7056383e+38
0.10127215 0.0091560734 0.31300002 -1.7056383e+38
0.10177892 0.0091560734 0.31300002 -1.7056904e+38
0.10228568 0.0091560734 0.31300002 -1.7189304e+38
0.10296918 0.0091268215 0.31200001 -1.705586e+38
0.10347433 0.0091268215 0.31200001 -1.7189304e+38
0.10397948 0.0091268215 0.31200001 -1.7189304e+38
0.10448463 0.0091268215 0.31200001 -1.7322748e+38
0.10549492 0.0091268215 0.31200001 -1.7189304e+38
0.10600007 0.0091268215 0.31200001 -1.7322748e+38
0.10718794 0.0091853263 0.31400001 -1.7189304e+38
0.11113663 0.0093900952 0.32100001 -1.7322748e+38
0.11235203 0.0094486 0.32300001 -1.7322748e+38
0.11322445 0.0094778519 0.324 -1.7322748e+38
0.11410009 0.0095071057 0.32500002 -1.7456192e+38
0.11497899 0.0095363576 0.32600001 -1.7721518e+38
0.11586111 0.0095656104 0.32700002 -1.7854962e+38
0.11674649 0.0095948623 0.32800001 -1.8254254e+38
0.11780859 0.0095948623 0.32800001 -1.8653539e+38
0.072017796 0.0094158659 0.30500001 -2.0523318e+38
0.071812361 0.0091997646 0.29800001 -2.0125588e+38
0.072777323 0.0091997646 0.29800001 -1.9592858e+38
0.073259808 0.0091997646 0.29800001 -1.8396551e+38
0.073742285 0.0091997646 0.29800001 -1.7862775e+38
0.074707247 0.0091997646 0.29800001 -1.7066289e+38
0.075189725 0.0091997646 0.29800001 -1.7065774e+38
0.075672202 0.0091997646 0.29800001 -1.7065252e+38
0.076154687 0.0091997646 0.29800001 -1.706421e+38
0.077119648 0.0091997646 0.29800001 -1.7062648e+38
0.077602126 0.0091997646 0.29800001 -1.7061606e+38
0.078084603 0.0091997646 0.29800001 -1.7059523e+38
0.078830734 0.0092306361 0.29900002 -1.7059001e+38
0.079798929 0.0092306361 0.29900002 -1.7057955e+38
0.080283031 0.0092306361 0.29900002 -1.7056916e+38
0.081037253 0.0092615075 0.30000001 -1.7056916e+38
0.081522971 0.0092615075 0.30000001 -1.7056391e+38
0.082494408 0.0092615075 0.30000001 -1.7055872e+38
0.083256729 0.009292379 0.30100003 -1.7055872e+38
0.083744064 0.009292379 0.30100003 -1.7055872e+38
0.084231399 0.009292379 0.30100003 -1.7055872e+38
0.085206077 0.009292379 0.30100003 -1.705535e+38
0.085693412 0.009292379 0.30100003 -1.7056387e+38
0.086180754 0.009292379 0.30100003 -1.7056387e+38
0.086668089 0.009292379 0.30100003 -1.7056387e+38
0.087642759 0.009292379 0.30100003 -1.7056387e+38
0.088130102 0.009292379 0.30100003 -1.7055866e+38
0.088617437 0.009292379 0.30100003 -1.7055872e+38
0.089400813 0.0093232505 0.30200002 -1.7056393e+38
0.090378724 0.0093232505 0.30200002 -1.705535e+38
0.091469452 0.0093849944 0.30400002 -1.705535e+38
0.092566654 0.0094467374 0.30600002 -1.7055872e+38
0.093366213 0.0094776098 0.30700001 -1.7055866e+38
0.094169006 0.0095084812 0.30800003 -1.7055866e+38
0.094975039 0.0095393527 0.30900002 -1.7055866e+38
0.095475331 0.0095393527 0.30900002 -1.7055866e+38
0.096286222 0.0095702242 0.31 -1.7054823e+38
0.097290039 0.0095702242 0.31 -1.7055866e+38
0.097791947 0.0095702242 0.31 -1.7056387e+38
0.09861093 0.0096010957 0.31100002 -1.7055862e+38
0.099433154 0.0096319681 0.31200001 -1.7056383e+38
0.10025862 0.0096628396 0.31300002 -1.7056383e+38
0.10108732 0.0096937111 0.31400001 -1.7056383e+38
0.10210409 0.0096937111 0.31400001 -1.7056904e+38
0.10261247 0.0096937111 0.31400001 -1.7189308e+38
0.10279245 0.0096628396 0.31300002 -1.7055864e+38
0.10380598 0.0096628396 0.31300002 -1.7189308e+38
0.10431275 0.0096628396 0.31300002 -1.7189308e+38
0.10481951 0.0096628396 0.31300002 -1.7189308e+38
0.10549492 0.0096319681 0.31200001 -1.7189304e+38
0.10633981 0.0096628396 0.31300002 -1.7322748e+38
0.10718794 0.0096937111 0.31400001 -1.7189304e+38
0.11113663 0.0099098133 0.32100001 -1.7322748e+38
0.11235203 0.0099715563 0.32300001 -1.7322748e+38
0.11322445 0.010002428 0.324 -1.7588074e+38
0.11410009 0.0100333 0.32500002 -1.7721518e+38
0.11497899 0.010064171 0.32600001 -1.7854962e+38
0.11550681 0.010064171 0.32600001 -1.812185e+38
0.11691998 0.010095043 0.32700002 -1.8254254e+38
0.11744941 0.010095043 0.32700002 -1.8785939e+38
0.11797884 0.010095043 0.32700002 -1.9052827e+38
0.071263053 0.0099421702 0.30600002 -2.1454289e+38
0.072017796 0.0099096801 0.30500001 -2.0389874e+38
0.072053343 0.0097147347 0.29900002 -1.9992144e+38
0.072777323 0.0096822446 0.29800001 -1.9592858e+38
0.073259808 0.0096822446 0.29800001 -1.8396555e+38
0.073742285 0.0096822446 0.29800001 -1.7862779e+38
0.074707247 0.0096822446 0.29800001 -1.7065774e+38
0.075189725 0.0096822446 0.29800001 -1.7065252e+38
0.075672202 0.0096822446 0.29800001 -1.7065252e+38
0.076154687 0.0096822446 0.29800001 -1.706421e+38
0.077119648 0.0096822446 0.29800001 -1.7062127e+38
0.077602126 0.0096822446 0.29800001 -1.7061084e+38
0.078346632 0.0097147347 0.29900002 -1.7059523e+38
0.078830734 0.0097147347 0.29900002 -1.7059001e+38
0.079798929 0.0097147347 0.29900002 -1.7057433e+38
0.080551535 0.0097472258 0.30000001 -1.7056916e+38
0.081037253 0.0097472258 0.30000001 -1.7056916e+38
0.081794716 0.0097797159 0.30100003 -1.7056391e+38
0.082282051 0.0097797159 0.30100003 -1.7056912e+38
0.083256729 0.0097797159 0.30100003 -1.7055872e+38
0.083744064 0.0097797159 0.30100003 -1.7055872e+38
0.084231399 0.0097797159 0.30100003 -1.7055872e+38
0.085206077 0.0097797159 0.30100003 -1.705535e+38
0.085693412 0.0097797159 0.30100003 -1.7056387e+38
0.086180754 0.0097797159 0.30100003 -1.7056387e+38
0.086668089 0.0097797159 0.30100003 -1.7056387e+38
0.087642759 0.0097797159 0.30100003 -1.7056387e+38
0.088422894 0.009812207 0.30200002 -1.7056387e+38
0.088911854 0.009812207 0.30200002 -1.7055872e+38
0.089992866 0.0098771891 0.30400002 -1.7055872e+38
0.090485059 0.0098771891 0.30400002 -1.7055872e+38
0.091575786 0.0099421702 0.30600002 -1.705535e+38
0.092372112 0.0099746613 0.30700001 -1.705535e+38
0.093670338 0.010007151 0.30800003 -1.7055866e+38
0.094474748 0.010039642 0.30900002 -1.7055866e+38
0.094975039 0.010039642 0.30900002 -1.7055866e+38
0.095784314 0.010072133 0.31 -1.7055866e+38
0.096286222 0.010072133 0.31 -1.7054823e+38
0.097290039 0.010072133 0.31 -1.7055866e+38
0.098107405 0.010104624 0.31100002 -1.7056387e+38
0.09861093 0.010104624 0.31100002 -1.7056383e+38
0.099433154 0.010137115 0.31200001 -1.7056383e+38
0.10057893 0.010202097 0.31400001 -1.7056904e+38
0.10108732 0.010202097 0.31400001 -1.7056383e+38
0.10242926 0.010234587 0.31500003 -1.7056904e+38
0.10261247 0.010202097 0.31400001 -1.7056904e+38
0.10312086 0.010202097 0.31400001 -1.7056383e+38
0.10413763 0.010202097 0.31400001 -1.7056904e+38
0.10464601 0.010202097 0.31400001 -1.7189308e+38
0.10481951 0.010169606 0.31300002 -1.7189308e+38
0.10566279 0.010202097 0.31400001 -1.7189304e+38
0.10667956 0.010202097 0.31400001 -1.7189304e+38
0.1075293 0.010234587 0.31500003 -1.7189304e+38
0.11027232 0.01039704 0.32000002 -1.7189304e+38
0.11113663 0.010429531 0.32100001 -1.7322748e+38
0.11235203 0.010494513 0.32300001 -1.7456192e+38
0.11322445 0.010527004 0.324 -1.7721518e+38
0.11410009 0.010559495 0.32500002 -1.7854962e+38
0.11462629 0.010559495 0.32500002 -1.7854962e+38
0.11550681 0.010591985 0.32600001 -1.812185e+38
0.11656243 0.010591985 0.32600001 -1.8254769e+38
0.11709025 0.010591985 0.32600001 -1.8785939e+38
0.11761806 0.010591985 0.32600001 -1.9586603e+38
0.071263053 0.010437602 0.30600002 -2.1187928e+38
0.072017796 0.010403493 0.30500001 -2.025747e+38
0.072053343 0.010198833 0.29900002 -1.9991629e+38
0.072777323 0.010164725 0.29800001 -1.9592862e+38
0.073259808 0.010164725 0.29800001 -1.839604e+38
0.073742285 0.010164725 0.29800001 -1.7862264e+38
0.074707247 0.010164725 0.29800001 -1.7065774e+38
0.075189725 0.010164725 0.29800001 -1.7065252e+38
0.075672202 0.010164725 0.29800001 -1.7065252e+38
0.076154687 0.010164725 0.29800001 -1.706421e+38
0.077119648 0.010164725 0.29800001 -1.7062127e+38
0.077862538 0.010198833 0.29900002 -1.7061084e+38
0.078346632 0.010198833 0.29900002 -1.7059523e+38
0.078830734 0.010198833 0.29900002 -1.7059001e+38
0.080065817 0.010232944 0.30000001 -1.7057433e+38
0.080551535 0.010232944 0.30000001 -1.7056916e+38
0.081307381 0.010267054 0.30100003 -1.7056395e+38
0.081794716 0.010267054 0.30100003 -1.7056391e+38
0.082282051 0.010267054 0.30100003 -1.7056912e+38
0.083256729 0.010267054 0.30100003 -1.7055872e+38
0.083744064 0.010267054 0.30100003 -1.7055872e+38
0.084231399 0.010267054 0.30100003 -1.7055872e+38
0.085206077 0.010267054 0.30100003 -1.7055872e+38
0.085693412 0.010267054 0.30100003 -1.7056387e+38
0.086180754 0.010267054 0.30100003 -1.7056387e+38
0.086956032 0.010301163 0.30200002 -1.7056387e+38
0.087933943 0.010301163 0.30200002 -1.7056387e+38
0.088422894 0.010301163 0.30200002 -1.7056908e+38
0.089500673 0.010369383 0.30400002 -1.7055872e+38
0.0902889 0.010403493 0.30500001 -1.7055872e+38
0.09108036 0.010437602 0.30600002 -1.7055872e+38
0.091875054 0.010471713 0.30700001 -1.7055872e+38
0.092672996 0.010505822 0.30800003 -1.705535e+38
0.093474172 0.010539932 0.30900002 -1.7055872e+38
0.094474748 0.010539932 0.30900002 -1.7055872e+38
0.095282406 0.010574042 0.31 -1.7055866e+38
0.095784314 0.010574042 0.31 -1.7055866e+38
0.096286222 0.010574042 0.31 -1.7055866e+38
0.097100347 0.010608152 0.31100002 -1.7055866e+38
0.098107405 0.010608152 0.31100002 -1.7055866e+38
0.098928012 0.010642262 0.31200001 -1.7056383e+38
0.099751852 0.011183137 0.31300002 -1.7056387e+38
0.10057893 0.011218866 0.31400001 -1.7056387e+38
0.10140925 0.011254595 0.31500003 -1.7056387e+38
0.10242926 0.011254595 0.31500003 -1.7056387e+38
0.10293926 0.011254595 0.31500003 -1.7056908e+38
0.10344927 0.011254595 0.31500003 -1.7055866e+38
0.10395927 0.011254595 0.31500003 -1.7056908e+38
0.10497928 0.011254595 0.31500003 -1.7056908e+38
0.1051544 0.011218866 0.31400001 -1.7056908e+38
0.10566279 0.011218866 0.31400001 -1.7056904e+38
0.1070193 0.011254595 0.31500003 -1.7056904e+38
0.1075293 0.011254595 0.31500003 -1.7057425e+38
0.11027232 0.011433239 0.32000002 -1.7322752e+38
0.11148286 0.011504697 0.32200003 -1.7588074e+38
0.11235203 0.011540426 0.32300001 -1.7721518e+38
0.11322445 0.011576154 0.324 -1.7854962e+38
0.11410009 0.011611884 0.32500002 -1.7854962e+38
0.11462629 0.011611884 0.32500002 -1.7987366e+38
0.11567868 0.011611884 0.32500002 -1.8653539e+38
0.11656243 0.011647613 0.32600001 -1.8786983e+38
0.11709025 0.011647613 0.32600001 -1.9717439e+38
0.11761806 0.011647613 0.32600001 -2.0384659e+38
0.071263053 0.011428468 0.30600002 -2.1321376e+38
0.072017796 0.01139112 0.30500001 -2.0390914e+38
0.072036125 0.011316423 0.303 -2.025747e+38
0.072294325 0.011204381 0.30000001 -1.9991629e+38
0.073021546 0.011167032 0.29900002 -1.9193052e+38
0.073259808 0.011129685 0.29800001 -1.786383e+38
0.073742285 0.011129685 0.29800001 -1.7596941e+38
0.074707247 0.011129685 0.29800001 -1.7065778e+38
0.075189725 0.011129685 0.29800001 -1.7065256e+38
0.075672202 0.011129685 0.29800001 -1.7064214e+38
0.076154687 0.011129685 0.29800001 -1.7064214e+38
0.077378437 0.011167032 0.29900002 -1.7061086e+38
0.077862538 0.011167032 0.29900002 -1.7060565e+38
0.078346632 0.011167032 0.29900002 -1.7059516e+38
0.07909438 0.011204381 0.30000001 -1.7059516e+38
0.080065817 0.011204381 0.30000001 -1.7057435e+38
0.080820039 0.011241728 0.30100003 -1.7056916e+38
0.081307381 0.011241728 0.30100003 -1.7056916e+38
0.081794716 0.011241728 0.30100003 -1.7056916e+38
0.082555421 0.011279076 0.30200002 -1.7056916e+38
0.083533332 0.011279076 0.30200002 -1.7056395e+38
0.084022291 0.011279076 0.30200002 -1.7056391e+38
0.084511243 0.011279076 0.30200002 -1.7056391e+38
0.085000202 0.011279076 0.30200002 -1.7056391e+38
0.085978113 0.011279076 0.30200002 -1.7055872e+38
0.086467072 0.011279076 0.30200002 -1.7055872e+38
0.086956032 0.011279076 0.30200002 -1.7056387e+38
0.087734535 0.011316423 0.303 -1.7056387e+38
0.08900848 0.011353772 0.30400002 -1.7056387e+38
0.089795083 0.01139112 0.30500001 -1.7055872e+38
0.090584926 0.011428468 0.30600002 -1.7055872e+38
0.091378003 0.011465816 0.30700001 -1.7055866e+38
0.092174321 0.011503164 0.30800003 -1.7056387e+38
0.092672996 0.011503164 0.30800003 -1.7055866e+38
0.093474172 0.011540512 0.30900002 -1.7056387e+38
0.094474748 0.011540512 0.30900002 -1.7056387e+38
0.095282406 0.01157786 0.31 -1.7055866e+38
0.095784314 0.01157786 0.31 -1.7056387e+38
0.096596822 0.011615207 0.31100002 -1.7055866e+38
0.097100347 0.011615207 0.31100002 -1.7055866e+38
0.098422863 0.011652555 0.31200001 -1.7056387e+38
0.099245086 0.011689903 0.31300002 -1.7056387e+38
0.099751852 0.011689903 0.31300002 -1.7055866e+38
0.10057893 0.011727251 0.31400001 -1.7055866e+38
0.10140925 0.011764599 0.31500003 -1.7056387e+38
0.10242926 0.011764599 0.31500003 -1.7056387e+38
0.10293926 0.011764599 0.31500003 -1.7056387e+38
0.10344927 0.011764599 0.31500003 -1.7055866e+38
0.10395927 0.011764599 0.31500003 -1.7056908e+38
0.10497928 0.011764599 0.31500003 -1.7056908e+38
0.10548928 0.011764599 0.31500003 -1.7056908e+38
0.1063358 0.011801947 0.31600001 -1.7056904e+38
0.10684742 0.011801947 0.31600001 -1.7057425e+38
0.10803853 0.011876643 0.31800002 -1.7322752e+38
0.10941123 0.011913991 0.31900001 -1.7454634e+38
0.11148286 0.012026034 0.32200003 -1.7721518e+38
0.11235203 0.012063383 0.32300001 -1.7721518e+38
0.11322445 0.01210073 0.324 -1.812185e+38
0.11374902 0.01210073 0.324 -1.812185e+38
0.11462629 0.012138079 0.32500002 -1.812185e+38
0.11567868 0.012138079 0.32500002 -1.8388213e+38
0.11620487 0.012138079 0.32500002 -1.8521657e+38
0.11673107 0.012138079 0.32500002 -2.0249128e+38
0.11725726 0.012138079 0.32500002 -2.1049793e+38
0.072017796 0.011884933 0.30500001 -2.0523318e+38
0.072273865 0.011845966 0.30400002 -2.0389874e+38
0.072535306 0.011729065 0.30100003 -1.98587e+38
0.072780043 0.011690099 0.30000001 -1.9459936e+38
0.07350564 0.011651131 0.29900002 -1.7863826e+38
0.073989742 0.011651131 0.29900002 -1.7596937e+38
0.074473843 0.011651131 0.29900002 -1.7065778e+38
0.075442038 0.011651131 0.29900002 -1.7065256e+38
0.07592614 0.011651131 0.29900002 -1.7065256e+38
0.076410241 0.011651131 0.29900002 -1.7064214e+38
0.077378437 0.011651131 0.29900002 -1.7061606e+38
0.078122944 0.011690099 0.30000001 -1.7061084e+38
0.078608662 0.011690099 0.30000001 -1.7060038e+38
0.07909438 0.011690099 0.30000001 -1.7059516e+38
0.079845369 0.011729065 0.30100003 -1.7057957e+38
0.080820039 0.011729065 0.30100003 -1.7056916e+38
0.081307381 0.011729065 0.30100003 -1.7057438e+38
0.082066461 0.011768033 0.30200002 -1.7056916e+38
0.082555421 0.011768033 0.30200002 -1.7056916e+38
0.083533332 0.011768033 0.30200002 -1.7056395e+38
0.084022291 0.011768033 0.30200002 -1.7056912e+38
0.084511243 0.011768033 0.30200002 -1.7056391e+38
0.085000202 0.011768033 0.30200002 -1.7056391e+38
0.085978113 0.011768033 0.30200002 -1.7056391e+38
0.086467072 0.011768033 0.30200002 -1.7056391e+38
0.087243959 0.011806999 0.303 -1.7056908e+38
0.088024087 0.011845966 0.30400002 -1.7056387e+38
0.088807456 0.011884933 0.30500001 -1.7056387e+38
0.089594059 0.0119239 0.30600002 -1.7056387e+38
0.090584926 0.0119239 0.30600002 -1.7055872e+38
0.091675654 0.012001834 0.30800003 -1.7056387e+38
0.092174321 0.012001834 0.30800003 -1.7056387e+38
0.09297388 0.012040801 0.30900002 -1.7056387e+38
0.093474172 0.012040801 0.30900002 -1.7055866e+38
0.09478049 0.012079768 0.31 -1.7056387e+38
0.095282406 0.012079768 0.31 -1.7056387e+38
0.09609329 0.012118735 0.31100002 -1.7056387e+38
0.096596822 0.012118735 0.31100002 -1.7055866e+38
0.097412564 0.012157703 0.31200001 -1.7055866e+38
0.098422863 0.012157703 0.31200001 -1.7056387e+38
0.099245086 0.012196669 0.31300002 -1.7056387e+38
0.10007054 0.012235637 0.31400001 -1.7055866e+38
0.10089925 0.012274603 0.31500003 -1.7055866e+38
0.10173118 0.01231357 0.31600001 -1.7056387e+38
0.10224281 0.01231357 0.31600001 -1.7055866e+38
0.10326605 0.01231357 0.31600001 -1.7056387e+38
0.10377768 0.01231357 0.31600001 -1.7055866e+38
0.10461933 0.012352537 0.317 -1.7189312e+38
0.10513257 0.012352537 0.317 -1.7055868e+38
0.10615905 0.012352537 0.317 -1.7189312e+38
0.1066723 0.012352537 0.317 -1.7322752e+38
0.10752367 0.012391504 0.31800002 -1.7322752e+38
0.10837827 0.01243047 0.31900001 -1.7322752e+38
0.10923612 0.012469438 0.32000002 -1.7322752e+38
0.11009719 0.012508405 0.32100001 -1.7720482e+38
0.11148286 0.012547372 0.32200003 -1.7720478e+38
0.11235203 0.012586339 0.32300001 -1.7853922e+38
0.11322445 0.012625306 0.324 -1.812185e+38
0.11374902 0.012625306 0.324 -1.7854962e+38
0.11462629 0.012664273 0.32500002 -1.7854962e+38
0.11567868 0.012664273 0.32500002 -1.8521657e+38
0.11620487 0.012664273 0.32500002 -1.8521657e+38
0.11673107 0.012664273 0.32500002 -2.0914261e+38
0.11725726 0.012664273 0.32500002 -2.2115258e+38
0.072273865 0.012338161 0.30400002 -2.0389874e+38
0.072776295 0.012256988 0.30200002 -2.0124026e+38
0.072780043 0.012175817 0.30000001 -1.8927721e+38
0.073751479 0.012175817 0.30000001 -1.7864341e+38
0.074237198 0.012175817 0.30000001 -1.7597453e+38
0.074473843 0.01213523 0.29900002 -1.7065778e+38
0.075442038 0.01213523 0.29900002 -1.7065256e+38
0.076180071 0.012175817 0.30000001 -1.7065256e+38
0.076665789 0.012175817 0.30000001 -1.7063693e+38
0.077151507 0.012175817 0.30000001 -1.7063171e+38
0.078122944 0.012175817 0.30000001 -1.7061084e+38
0.078870691 0.012216402 0.30100003 -1.7060038e+38
0.079358026 0.012216402 0.30100003 -1.7059516e+38
0.079845369 0.012216402 0.30100003 -1.7057957e+38
0.080820039 0.012216402 0.30100003 -1.7056916e+38
0.08157751 0.012256988 0.30200002 -1.7056916e+38
0.082066461 0.012256988 0.30200002 -1.7056916e+38
0.082555421 0.012256988 0.30200002 -1.7056916e+38
0.083533332 0.012256988 0.30200002 -1.7056395e+38
0.084022291 0.012256988 0.30200002 -1.7056916e+38
0.084511243 0.012256988 0.30200002 -1.7056916e+38
0.085000202 0.012256988 0.30200002 -1.7056391e+38
0.086262807 0.012297574 0.303 -1.7056391e+38
0.086753383 0.012297574 0.303 -1.7056391e+38
0.087531894 0.012338161 0.30400002 -1.7056387e+38
0.088313639 0.012378747 0.30500001 -1.7056387e+38
0.089098625 0.012419333 0.30600002 -1.7056387e+38
0.089594059 0.012419333 0.30600002 -1.7056387e+38
0.090584926 0.012419333 0.30600002 -1.7056387e+38
0.091675654 0.012500505 0.30800003 -1.7056387e+38
0.092473589 0.012541091 0.30900002 -1.7056387e+38
0.09297388 0.012541091 0.30900002 -1.7056387e+38
0.093776673 0.012581676 0.31 -1.7055866e+38
0.094582707 0.012622263 0.31100002 -1.7056387e+38
0.095589764 0.012622263 0.31100002 -1.7055866e+38
0.096402273 0.012662849 0.31200001 -1.7055866e+38
0.096907422 0.012662849 0.31200001 -1.7055866e+38
0.097412564 0.012662849 0.31200001 -1.7055866e+38
0.098231554 0.012703435 0.31300002 -1.7056387e+38
0.099562161 0.012744022 0.31400001 -1.7055346e+38
0.10038924 0.012784607 0.31500003 -1.7055346e+38
0.10121956 0.012825194 0.31600001 -1.7055866e+38
0.10205312 0.012865779 0.317 -1.7056387e+38
0.10256636 0.012865779 0.317 -1.7055866e+38
0.10340478 0.012906365 0.31800002 -1.7056387e+38
0.1044345 0.012906365 0.31800002 -1.7055866e+38
0.10494936 0.012906365 0.31800002 -1.7189312e+38
0.10546422 0.012906365 0.31800002 -1.7055868e+38
0.10631235 0.012946951 0.31900001 -1.7189312e+38
0.10734531 0.012946951 0.31900001 -1.7322752e+38
0.10786179 0.012946951 0.31900001 -1.7322752e+38
0.10871802 0.012987537 0.32000002 -1.7322752e+38
0.10923612 0.012987537 0.32000002 -1.7456196e+38
0.11009719 0.013028124 0.32100001 -1.7853926e+38
0.11148286 0.01306871 0.32200003 -1.7720478e+38
0.11235203 0.013109296 0.32300001 -1.7853922e+38
0.11287498 0.013109296 0.32300001 -1.7854962e+38
0.11374902 0.013149882 0.324 -1.812185e+38
0.1142736 0.013149882 0.324 -1.812185e+38
0.11532275 0.013149882 0.324 -1.8521657e+38
0.11584733 0.013149882 0.324 -1.8655101e+38
0.1163719 0.013149882 0.324 -2.1045103e+38
0.11725726 0.013190468 0.32500002 -2.4514649e+38
0.072036125 0.013278725 0.303 -2.038987e+38
0.072776295 0.013234901 0.30200002 -1.9591812e+38
0.073022641 0.013191077 0.30100003 -1.8794277e+38
0.073997319 0.013191077 0.30100003 -1.7597974e+38
0.074484654 0.013191077 0.30100003 -1.746453e+38
0.074722916 0.013147253 0.30000001 -1.7065778e+38
0.075694352 0.013147253 0.30000001 -1.706526e+38
0.076180071 0.013147253 0.30000001 -1.7064218e+38
0.076921344 0.013191077 0.30100003 -1.7063693e+38
0.077408679 0.013191077 0.30100003 -1.706265e+38
0.078383356 0.013191077 0.30100003 -1.7059523e+38
0.078870691 0.013191077 0.30100003 -1.7059516e+38
0.079358026 0.013191077 0.30100003 -1.7058995e+38
0.079845369 0.013191077 0.30100003 -1.7057435e+38
0.080599599 0.013234901 0.30200002 -1.7057435e+38
0.08157751 0.013234901 0.30200002 -1.7056916e+38
0.082066461 0.013234901 0.30200002 -1.7056395e+38
0.082555421 0.013234901 0.30200002 -1.7056395e+38
0.083319359 0.013278725 0.303 -1.7056395e+38
0.084300511 0.013278725 0.303 -1.7056916e+38
0.084791087 0.013278725 0.303 -1.7056395e+38
0.085563116 0.01332255 0.30400002 -1.7056391e+38
0.086055309 0.01332255 0.30400002 -1.7056391e+38
0.087326013 0.013366374 0.30500001 -1.7056387e+38
0.08781983 0.013366374 0.30500001 -1.7056387e+38
0.088603191 0.013410198 0.30600002 -1.7056387e+38
0.089098625 0.013410198 0.30600002 -1.7056387e+38
0.089594059 0.013410198 0.30600002 -1.7056387e+38
0.090678312 0.013497847 0.30800003 -1.7056387e+38
0.091973305 0.013541671 0.30900002 -1.7056387e+38
0.093072124 0.013629318 0.31100002 -1.7056387e+38
0.093575656 0.013629318 0.31100002 -1.7056387e+38
0.094381683 0.013673143 0.31200001 -1.7055866e+38
0.094886832 0.013673143 0.31200001 -1.7056387e+38
0.095391981 0.013673143 0.31200001 -1.7056387e+38
0.096402273 0.013673143 0.31200001 -1.7055866e+38
0.096907422 0.013673143 0.31200001 -1.7055866e+38
0.097724788 0.013716967 0.31300002 -1.7055866e+38
0.098545395 0.01376079 0.31400001 -1.7055862e+38
0.099369235 0.013804616 0.31500003 -1.7055862e+38
0.10070794 0.01384844 0.31600001 -1.7055338e+38
0.10153987 0.013892263 0.317 -1.705586e+38
0.10205312 0.013892263 0.317 -1.705586e+38
0.10288991 0.013936087 0.31800002 -1.7055862e+38
0.10340478 0.013936087 0.31800002 -1.7055862e+38
0.1044345 0.013936087 0.31800002 -1.7055862e+38
0.10527939 0.013979913 0.31900001 -1.7056383e+38
0.10579587 0.013979913 0.31900001 -1.7056904e+38
0.10631235 0.013979913 0.31900001 -1.7189308e+38
0.10734531 0.013979913 0.31900001 -1.7057425e+38
0.10819992 0.014023736 0.32000002 -1.7057425e+38
0.10871802 0.014023736 0.32000002 -1.7057425e+38
0.10957748 0.01406756 0.32100001 -1.7190869e+38
0.11009719 0.01406756 0.32100001 -1.7721518e+38
0.11148286 0.014111386 0.32200003 -1.7721518e+38
0.11200419 0.014111386 0.32200003 -1.7721518e+38
0.11287498 0.014155209 0.32300001 -1.812185e+38
0.11339794 0.014155209 0.32300001 -1.812185e+38
0.1142736 0.014199032 0.324 -1.8255294e+38
0.11532275 0.014199032 0.324 -1.9053872e+38
0.11584733 0.014199032 0.324 -1.9187316e+38
0.1163719 0.014199032 0.324 -2.2639134e+38
0.072036125 0.013769301 0.303 -2.038987e+38
0.072776295 0.013723858 0.30200002 -1.9591812e+38
0.073022641 0.013678415 0.30100003 -1.8661873e+38
0.073997319 0.013678415 0.30100003 -1.7332132e+38
0.074484654 0.013678415 0.30100003 -1.7198688e+38
0.074971996 0.013678415 0.30100003 -1.7065778e+38
0.075459331 0.013678415 0.30100003 -1.7065778e+38
0.076434009 0.013678415 0.30100003 -1.7063697e+38
0.076921344 0.013678415 0.30100003 -1.7063173e+38
0.077408679 0.013678415 0.30100003 -1.7062131e+38
0.078383356 0.013678415 0.30100003 -1.7059523e+38
0.078870691 0.013678415 0.30100003 -1.7058476e+38
0.079358026 0.013678415 0.30100003 -1.7058476e+38
0.080110639 0.013723858 0.30200002 -1.7057435e+38
0.080599599 0.013723858 0.30200002 -1.7057435e+38
0.08157751 0.013723858 0.30200002 -1.7056395e+38
0.082338206 0.013769301 0.303 -1.7056395e+38
0.082828782 0.013769301 0.303 -1.7056395e+38
0.083319359 0.013769301 0.303 -1.7056395e+38
0.08457873 0.013814745 0.30400002 -1.7056391e+38
0.085070923 0.013814745 0.30400002 -1.7056391e+38
0.085844576 0.013860187 0.30500001 -1.7055866e+38
0.086621463 0.01390563 0.30600002 -1.7056387e+38
0.087116897 0.01390563 0.30600002 -1.7056387e+38
0.087898642 0.013951073 0.30700001 -1.7056387e+38
0.08889275 0.013951073 0.30700001 -1.7056387e+38
0.089389801 0.013951073 0.30700001 -1.7056387e+38
0.089886852 0.013951073 0.30700001 -1.7056387e+38
0.090972722 0.01404196 0.30900002 -1.7056387e+38
0.09176904 0.014087403 0.31 -1.7056387e+38
0.093163893 0.014223733 0.31300002 -1.7056387e+38
0.093670659 0.014223733 0.31300002 -1.7056387e+38
0.094684191 0.014223733 0.31300002 -1.7055866e+38
0.095190957 0.014223733 0.31300002 -1.7056387e+38
0.095391981 0.01417829 0.31200001 -1.7055866e+38
0.096711256 0.014223733 0.31300002 -1.7055866e+38
0.097218022 0.014223733 0.31300002 -1.7055866e+38
0.097724788 0.014223733 0.31300002 -1.7055866e+38
0.098545395 0.014269176 0.31400001 -1.7055862e+38
0.099369235 0.01431462 0.31500003 -1.7055862e+38
0.10070794 0.014360063 0.31600001 -1.7055338e+38
0.10153987 0.014405506 0.317 -1.7055338e+38
0.10237505 0.014450949 0.31800002 -1.705586e+38
0.10288991 0.014450949 0.31800002 -1.7055342e+38
0.10340478 0.014450949 0.31800002 -1.7055342e+38
0.1044345 0.014450949 0.31800002 -1.7055862e+38
0.10527939 0.014496393 0.31900001 -1.7056383e+38
0.10579587 0.014496393 0.31900001 -1.7056904e+38
0.10631235 0.014496393 0.31900001 -1.7056904e+38
0.10734531 0.014496393 0.31900001 -1.7057425e+38
0.10819992 0.014541836 0.32000002 -1.7057425e+38
0.10871802 0.014541836 0.32000002 -1.7057425e+38
0.10957748 0.014587278 0.32100001 -1.7057425e+38
0.11009719 0.014587278 0.32100001 -1.7721518e+38
0.11148286 0.014632722 0.32200003 -1.7721518e+38
0.11200419 0.014632722 0.32200003 -1.7721518e+38
0.11287498 0.014678165 0.32300001 -1.812185e+38
0.11339794 0.014678165 0.32300001 -1.8255294e+38
0.1142736 0.014723608 0.324 -1.8255294e+38
0.11532275 0.014723608 0.324 -1.9186275e+38
0.11584733 0.014723608 0.324 -1.9720051e+38
0.072036125 0.014259876 0.303 -2.038987e+38
0.072776295 0.014212814 0.30200002 -1.9458368e+38
0.073022641 0.014165752 0.30100003 -1.8528433e+38
0.073997319 0.014165752 0.30100003 -1.7332132e+38
0.074484654 0.014165752 0.30100003 -1.7198688e+38
0.074971996 0.014165752 0.30100003 -1.7065778e+38
0.075459331 0.014165752 0.30100003 -1.7065778e+38
0.076434009 0.014165752 0.30100003 -1.7063697e+38
0.076921344 0.014165752 0.30100003 -1.7062652e+38
0.077408679 0.014165752 0.30100003 -1.706161e+38
0.078154817 0.014212814 0.30200002 -1.7060565e+38
0.079132728 0.014212814 0.30200002 -1.7058476e+38
0.07962168 0.014212814 0.30200002 -1.7058476e+38
0.080110639 0.014212814 0.30200002 -1.7057435e+38
0.080599599 0.014212814 0.30200002 -1.7057435e+38
0.08184763 0.014259876 0.303 -1.7056395e+38
0.082338206 0.014259876 0.303 -1.7056395e+38
0.083102144 0.014306939 0.30400002 -1.7056916e+38
0.083594337 0.014306939 0.30400002 -1.7056916e+38
0.084363133 0.014354001 0.30500001 -1.7056916e+38
0.085630596 0.014401062 0.30600002 -1.7056912e+38
0.08640749 0.014448125 0.30700001 -1.7056387e+38
0.086904541 0.014448125 0.30700001 -1.7056387e+38
0.087686285 0.014495188 0.30800003 -1.7056387e+38
0.08818496 0.014495188 0.30800003 -1.7056387e+38
0.089182302 0.014495188 0.30800003 -1.7055866e+38
0.08968097 0.014495188 0.30800003 -1.7056387e+38
0.090179645 0.014495188 0.30800003 -1.7056387e+38
0.091267131 0.014589312 0.31 -1.7056387e+38
0.092657126 0.014730499 0.31300002 -1.7056387e+38
0.093163893 0.014730499 0.31300002 -1.7056387e+38
0.093969926 0.014777561 0.31400001 -1.7055866e+38
0.094684191 0.014730499 0.31300002 -1.7055866e+38
0.095190957 0.014730499 0.31300002 -1.7056387e+38
0.095697723 0.014730499 0.31300002 -1.7055866e+38
0.096711256 0.014730499 0.31300002 -1.7055866e+38
0.097218022 0.014730499 0.31300002 -1.7055866e+38
0.098037004 0.014777561 0.31400001 -1.7055866e+38
0.098859228 0.014824624 0.31500003 -1.7054819e+38
0.099684693 0.014871686 0.31600001 -1.7055862e+38
0.10051339 0.014918748 0.317 -1.7055338e+38
0.10153987 0.014918748 0.317 -1.7055338e+38
0.10237505 0.01496581 0.31800002 -1.7055338e+38
0.10288991 0.01496581 0.31800002 -1.7055342e+38
0.10340478 0.01496581 0.31800002 -1.70543e+38
0.1044345 0.01496581 0.31800002 -1.7055342e+38
0.10527939 0.015012873 0.31900001 -1.7055864e+38
0.10579587 0.015012873 0.31900001 -1.7189308e+38
0.10631235 0.015012873 0.31900001 -1.7322752e+38
0.10734531 0.015012873 0.31900001 -1.7057425e+38
0.10819992 0.015059935 0.32000002 -1.7057425e+38
0.10871802 0.015059935 0.32000002 -1.7057425e+38
0.10923612 0.015059935 0.32000002 -1.7057425e+38
0.11009719 0.015106997 0.32100001 -1.7854962e+38
0.11113663 0.015106997 0.32100001 -1.7721518e+38
0.11200419 0.01515406 0.32200003 -1.7721518e+38
0.11287498 0.015201123 0.32300001 -1.812185e+38
0.11339794 0.015201123 0.32300001 -1.8255294e+38
0.11444385 0.015201123 0.32300001 -1.8521142e+38
0.11496681 0.015201123 0.32300001 -1.9186275e+38
0.11548977 0.015201123 0.32300001 -1.9586607e+38
0.072036125 0.014750451 0.303 -2.0655196e+38
0.072776295 0.01470177 0.30200002 -1.9457853e+38
0.073265247 0.01470177 0.30200002 -1.8528433e+38
0.073754206 0.01470177 0.30200002 -1.8394989e+38
0.074484654 0.014653089 0.30100003 -1.7066285e+38
0.074971996 0.014653089 0.30100003 -1.7199222e+38
0.075459331 0.014653089 0.30100003 -1.7065256e+38
0.076434009 0.014653089 0.30100003 -1.7063693e+38
0.077176899 0.01470177 0.30200002 -1.7062652e+38
0.077665858 0.01470177 0.30200002 -1.706161e+38
0.078154817 0.01470177 0.30200002 -1.7060565e+38
0.079132728 0.01470177 0.30200002 -1.7058476e+38
0.079885334 0.014750451 0.303 -1.7057955e+38
0.081400253 0.014847814 0.30500001 -1.7057435e+38
0.081625558 0.014799134 0.30400002 -1.7056395e+38
0.082609951 0.014799134 0.30400002 -1.7056395e+38
0.083102144 0.014799134 0.30400002 -1.7056916e+38
0.083869323 0.014847814 0.30500001 -1.7056391e+38
0.084639736 0.014896495 0.30600002 -1.7056912e+38
0.085413389 0.014945176 0.30700001 -1.7056391e+38
0.086190276 0.014993859 0.30800003 -1.7056912e+38
0.087470695 0.01504254 0.30900002 -1.7056387e+38
0.08797098 0.01504254 0.30900002 -1.7056387e+38
0.088471271 0.01504254 0.30900002 -1.7056387e+38
0.088971563 0.01504254 0.30900002 -1.7055866e+38
0.08968097 0.014993859 0.30800003 -1.7055866e+38
0.090179645 0.014993859 0.30800003 -1.7056387e+38
0.091561541 0.015139901 0.31100002 -1.7056387e+38
0.092657126 0.015237264 0.31300002 -1.7056387e+38
0.093461543 0.015285945 0.31400001 -1.7056387e+38
0.093670659 0.015237264 0.31300002 -1.7055866e+38
0.0949867 0.015285945 0.31400001 -1.7055866e+38
0.095190957 0.015237264 0.31300002 -1.7056387e+38
0.095697723 0.015237264 0.31300002 -1.7055866e+38
0.096511848 0.015285945 0.31400001 -1.7055866e+38
0.097528622 0.015285945 0.31400001 -1.7055862e+38
0.098349229 0.015334629 0.31500003 -1.7055862e+38
0.098859228 0.015334629 0.31500003 -1.7055862e+38
0.099684693 0.015383309 0.31600001 -1.7055862e+38
0.10051339 0.015945232 0.317 -1.705586e+38
0.10186019 0.015995532 0.31800002 -1.7055338e+38
0.10237505 0.015995532 0.31800002 -1.7055338e+38
0.10288991 0.015995532 0.31800002 -1.7055342e+38
0.10340478 0.015995532 0.31800002 -1.7055864e+38
0.1047629 0.016045833 0.31900001 -1.7189308e+38
0.10527939 0.016045833 0.31900001 -1.7322752e+38
0.10579587 0.016045833 0.31900001 -1.7322752e+38
0.10631235 0.016045833 0.31900001 -1.7322752e+38
0.10734531 0.016045833 0.31900001 -1.7190869e+38
0.10819992 0.016096134 0.32000002 -1.7057425e+38
0.10871802 0.016096134 0.32000002 -1.7057425e+38
0.10923612 0.016096134 0.32000002 -1.7057425e+38
0.11009719 0.016146434 0.32100001 -1.7589636e+38
0.11113663 0.016146434 0.32100001 -1.7589636e+38
0.11200419 0.016196735 0.32200003 -1.7589636e+38
0.11252553 0.016196735 0.32200003 -1.7856524e+38
0.11304687 0.016196735 0.32200003 -1.7989968e+38
0.11444385 0.016247036 0.32300001 -1.8388738e+38
0.11461088 0.016196735 0.32200003 -2.0248613e+38
0.11513222 0.016196735 0.32200003 -1.9981725e+38
0.072036125 0.015731601 0.303 -2.0655196e+38
0.073017277 0.015731601 0.303 -1.9458368e+38
0.073265247 0.015679682 0.30200002 -1.8528433e+38
0.073754206 0.015679682 0.30200002 -1.8261545e+38
0.074732117 0.015679682 0.30200002 -1.7199729e+38
0.075221077 0.015679682 0.30200002 -1.7065778e+38
0.075710028 0.015679682 0.30200002 -1.7065256e+38
0.076687947 0.015679682 0.30200002 -1.7063693e+38
0.077176899 0.015679682 0.30200002 -1.7062131e+38
0.077665858 0.015679682 0.30200002 -1.7061088e+38
0.078154817 0.015679682 0.30200002 -1.7060038e+38
0.078904182 0.015731601 0.303 -1.7059516e+38
0.081203565 0.0159912 0.30800003 -1.7057955e+38
0.081967503 0.016043119 0.30900002 -1.7057435e+38
0.082431078 0.015939279 0.30700001 -1.7056912e+38
0.082881697 0.015835442 0.30500001 -1.7056912e+38
0.083375506 0.015835442 0.30500001 -1.7056912e+38
0.084144302 0.015887361 0.30600002 -1.7056391e+38
0.084916331 0.015939279 0.30700001 -1.7056912e+38
0.085691608 0.0159912 0.30800003 -1.7056391e+38
0.086470112 0.016043119 0.30900002 -1.7056912e+38
0.087470695 0.016043119 0.30900002 -1.7056387e+38
0.088255681 0.016095039 0.31 -1.7056387e+38
0.088757589 0.016095039 0.31 -1.7056387e+38
0.088971563 0.016043119 0.30900002 -1.7055866e+38
0.089972138 0.016043119 0.30900002 -1.7055866e+38
0.090765223 0.016095039 0.31 -1.7056387e+38
0.091561541 0.016146958 0.31100002 -1.7056387e+38
0.092657126 0.016250797 0.31300002 -1.7055866e+38
0.093461543 0.016302716 0.31400001 -1.7054823e+38
0.093969926 0.016302716 0.31400001 -1.7054823e+38
0.0949867 0.016302716 0.31400001 -1.7054823e+38
0.095495082 0.016302716 0.31400001 -1.7056387e+38
0.096003465 0.016302716 0.31400001 -1.7055866e+38
0.096511848 0.016302716 0.31400001 -1.7055862e+38
0.097528622 0.016302716 0.31400001 -1.7055858e+38
0.098349229 0.016354637 0.31500003 -1.7055858e+38
0.099173069 0.016406555 0.31600001 -1.7055858e+38
0.10000015 0.016458474 0.317 -1.7055858e+38
0.10051339 0.016458474 0.317 -1.705586e+38
0.10186019 0.016510393 0.31800002 -1.7055338e+38
0.10237505 0.016510393 0.31800002 -1.705586e+38
0.10288991 0.016510393 0.31800002 -1.7055864e+38
0.10340478 0.016510393 0.31800002 -1.7189308e+38
0.1047629 0.016562315 0.31900001 -1.7322752e+38
0.10527939 0.016562315 0.31900001 -1.7322752e+38
0.10579587 0.016562315 0.31900001 -1.7322752e+38
0.10631235 0.016562315 0.31900001 -1.7322752e+38
0.10734531 0.016562315 0.31900001 -1.7322752e+38
0.10819992 0.016614232 0.32000002 -1.7322752e+38
0.10871802 0.016614232 0.32000002 -1.7322752e+38
0.10923612 0.016614232 0.32000002 -1.7456196e+38
0.11009719 0.016666152 0.32100001 -1.7589636e+38
0.11113663 0.016666152 0.32100001 -1.7589636e+38
0.11165635 0.016666152 0.32100001 -1.7589636e+38
0.11252553 0.016718073 0.32200003 -1.7856524e+38
0.11304687 0.016718073 0.32200003 -1.8123412e+38
0.11408954 0.016718073 0.32200003 -1.8655101e+38
0.11425494 0.016666152 0.32100001 -2.1045103e+38
0.11477466 0.016666152 0.32100001 -2.1979212e+38
0.072036125 0.016222177 0.303 -2.0655196e+38
0.073017277 0.016222177 0.303 -1.9591812e+38
0.073507853 0.016222177 0.303 -1.8528433e+38
0.073998429 0.016222177 0.303 -1.8261545e+38
0.074732117 0.016168639 0.30200002 -1.7199733e+38
0.075221077 0.016168639 0.30200002 -1.7066297e+38
0.075710028 0.016168639 0.30200002 -1.7065776e+38
0.076687947 0.016168639 0.30200002 -1.7063693e+38
0.077176899 0.016168639 0.30200002 -1.7062131e+38
0.077665858 0.016168639 0.30200002 -1.7061088e+38
0.078154817 0.016168639 0.30200002 -1.7059523e+38
0.078904182 0.016222177 0.303 -1.7059001e+38
0.081203565 0.016489871 0.30800003 -1.7057955e+38
0.081967503 0.016543409 0.30900002 -1.7056916e+38
0.082968086 0.016543409 0.30900002 -1.7056912e+38
0.082928129 0.016436331 0.30700001 -1.7056912e+38
0.083425179 0.016436331 0.30700001 -1.7056912e+38
0.08441928 0.016436331 0.30700001 -1.7056391e+38
0.085192934 0.016489871 0.30800003 -1.7056912e+38
0.085691608 0.016489871 0.30800003 -1.7056906e+38
0.086470112 0.016543409 0.30900002 -1.7057427e+38
0.087251864 0.016596947 0.31 -1.7056387e+38
0.088255681 0.016596947 0.31 -1.7056387e+38
0.088757589 0.016596947 0.31 -1.7056908e+38
0.089259498 0.016596947 0.31 -1.7056387e+38
0.090263315 0.016596947 0.31 -1.7055866e+38
0.091350801 0.016704025 0.31200001 -1.7056387e+38
0.09215036 0.016757563 0.31300002 -1.7056387e+38
0.092657126 0.016757563 0.31300002 -1.7055866e+38
0.093461543 0.016811101 0.31400001 -1.7055866e+38
0.093969926 0.016811101 0.31400001 -1.7054823e+38
0.0949867 0.016811101 0.31400001 -1.7054823e+38
0.095495082 0.016811101 0.31400001 -1.7056387e+38
0.096003465 0.016811101 0.31400001 -1.7055866e+38
0.096819215 0.016864641 0.31500003 -1.7054819e+38
0.097839221 0.016864641 0.31500003 -1.7055862e+38
0.098349229 0.016864641 0.31500003 -1.7055862e+38
0.099173069 0.016918179 0.31600001 -1.7055858e+38
0.10000015 0.016971717 0.317 -1.7056379e+38
0.10051339 0.016971717 0.317 -1.70569e+38
0.10186019 0.017025255 0.31800002 -1.705586e+38
0.10237505 0.017025255 0.31800002 -1.7189304e+38
0.10288991 0.017025255 0.31800002 -1.7189304e+38
0.10340478 0.017025255 0.31800002 -1.7322748e+38
0.1044345 0.017025255 0.31800002 -1.7322748e+38
0.10527939 0.017078795 0.31900001 -1.7322748e+38
0.10579587 0.017078795 0.31900001 -1.7322748e+38
0.10631235 0.017078795 0.31900001 -1.7456192e+38
0.10734531 0.017078795 0.31900001 -1.7322748e+38
0.10786179 0.017078795 0.31900001 -1.7322748e+38
0.10871802 0.017132333 0.32000002 -1.7322748e+38
0.10923612 0.017132333 0.32000002 -1.7589636e+38
0.11027232 0.017132333 0.32000002 -1.7854962e+38
0.11079042 0.017132333 0.32000002 -1.7854962e+38
0.11165635 0.017185871 0.32100001 -1.812185e+38
0.11217607 0.017185871 0.32100001 -1.8255294e+38
0.11321551 0.017185871 0.32100001 -1.9318673e+38
0.11373522 0.017185871 0.32100001 -1.9185229e+38
0.072273865 0.016767912 0.30400002 -2.0523314e+38
0.072766058 0.016767912 0.30400002 -1.9593374e+38
0.073750451 0.016767912 0.30400002 -1.8528433e+38
0.073998429 0.016712753 0.303 -1.8261545e+38
0.074488997 0.016712753 0.303 -1.7199733e+38
0.075221077 0.016657595 0.30200002 -1.7066297e+38
0.075710028 0.016657595 0.30200002 -1.7065776e+38
0.076687947 0.016657595 0.30200002 -1.7063693e+38
0.077176899 0.016657595 0.30200002 -1.706161e+38
0.077665858 0.016657595 0.30200002 -1.7061088e+38
0.078154817 0.016657595 0.30200002 -1.7059523e+38
0.078904182 0.016712753 0.303 -1.7059001e+38
0.080180839 0.016878225 0.30600002 -1.7057957e+38
0.081203565 0.016988542 0.30800003 -1.7057435e+38
0.08170224 0.016988542 0.30800003 -1.7056916e+38
0.082968086 0.017043699 0.30900002 -1.7056912e+38
0.082928129 0.016933382 0.30700001 -1.7056912e+38
0.083425179 0.016933382 0.30700001 -1.7056912e+38
0.084694266 0.016988542 0.30800003 -1.7056391e+38
0.085192934 0.016988542 0.30800003 -1.7056912e+38
0.085969821 0.017043699 0.30900002 -1.7056906e+38
0.086749949 0.017098855 0.31 -1.7057427e+38
0.087251864 0.017098855 0.31 -1.7056906e+38
0.088255681 0.017098855 0.31 -1.7056387e+38
0.0890439 0.017154012 0.31100002 -1.7056387e+38
0.089547433 0.017154012 0.31100002 -1.7056387e+38
0.090050958 0.017154012 0.31100002 -1.7056387e+38
0.091136828 0.017264329 0.31300002 -1.7056387e+38
0.09215036 0.017264329 0.31300002 -1.7056387e+38
0.092657126 0.017264329 0.31300002 -1.7055866e+38
0.093461543 0.017319486 0.31400001 -1.7055862e+38
0.093969926 0.017319486 0.31400001 -1.7054819e+38
0.0949867 0.017319486 0.31400001 -1.7054819e+38
0.095495082 0.017319486 0.31400001 -1.7056387e+38
0.096003465 0.017319486 0.31400001 -1.7055866e+38
0.096819215 0.017374644 0.31500003 -1.7055866e+38
0.097839221 0.017374644 0.31500003 -1.7055862e+38
0.098661445 0.017429801 0.31600001 -1.7055862e+38
0.099173069 0.017429801 0.31600001 -1.7056383e+38
0.10000015 0.017484959 0.317 -1.7056383e+38
0.10051339 0.017484959 0.317 -1.70569e+38
0.10186019 0.017540116 0.31800002 -1.705586e+38
0.10237505 0.017540116 0.31800002 -1.7189304e+38
0.10288991 0.017540116 0.31800002 -1.7189304e+38
0.10340478 0.017540116 0.31800002 -1.7322748e+38
0.1044345 0.017540116 0.31800002 -1.7322748e+38
0.10527939 0.017595274 0.31900001 -1.7322748e+38
0.10579587 0.017595274 0.31900001 -1.7322748e+38
0.10631235 0.017595274 0.31900001 -1.7456192e+38
0.10734531 0.017595274 0.31900001 -1.7322748e+38
0.10786179 0.017595274 0.31900001 -1.7322748e+38
0.10837827 0.017595274 0.31900001 -1.7322748e+38
0.10923612 0.017650431 0.32000002 -1.7589636e+38
0.11027232 0.017650431 0.32000002 -1.812185e+38
0.11079042 0.017650431 0.32000002 -1.812185e+38
0.11130852 0.017650431 0.32000002 -1.8255294e+38
0.11182661 0.017650431 0.32000002 -1.8919387e+38
0.11286282 0.017650431 0.32000002 -2.144074e+38
0.072749354 0.017869091 0.30600002 -2.0257466e+38
0.073005423 0.017810695 0.30500001 -1.9194609e+38
0.07399305 0.017810695 0.30500001 -1.8129152e+38
0.074242644 0.017752299 0.30400002 -1.7862264e+38
0.074488997 0.017693903 0.303 -1.7199218e+38
0.07547015 0.017693903 0.303 -1.7066297e+38
0.075960726 0.017693903 0.303 -1.7065776e+38
0.076687947 0.017635508 0.30200002 -1.7063171e+38
0.077176899 0.017635508 0.30200002 -1.706161e+38
0.077665858 0.017635508 0.30200002 -1.7061088e+38
0.078413606 0.017693903 0.303 -1.7059005e+38
0.078904182 0.017693903 0.303 -1.7058484e+38
0.080180839 0.017869091 0.30600002 -1.7057442e+38
0.081203565 0.017985882 0.30800003 -1.705692e+38
0.08170224 0.017985882 0.30800003 -1.7056916e+38
0.082968086 0.018044278 0.30900002 -1.7056912e+38
0.083198249 0.017985882 0.30800003 -1.7056912e+38
0.083696924 0.017985882 0.30800003 -1.7057427e+38
0.084694266 0.017985882 0.30800003 -1.7056906e+38
0.085469536 0.018044278 0.30900002 -1.7056906e+38
0.085969821 0.018044278 0.30900002 -1.7057427e+38
0.086749949 0.018102674 0.31 -1.7057427e+38
0.087533318 0.018161068 0.31100002 -1.7056387e+38
0.088540375 0.018161068 0.31100002 -1.7056387e+38
0.0890439 0.018161068 0.31100002 -1.7056387e+38
0.089835361 0.018219465 0.31200001 -1.7056387e+38
0.09034051 0.018219465 0.31200001 -1.7056387e+38
0.091136828 0.018277861 0.31300002 -1.7056387e+38
0.09215036 0.018277861 0.31300002 -1.7056387e+38
0.092953153 0.018336255 0.31400001 -1.7056387e+38
0.093461543 0.018336255 0.31400001 -1.7055862e+38
0.093969926 0.018336255 0.31400001 -1.7054819e+38
0.0949867 0.018336255 0.31400001 -1.7055862e+38
0.095495082 0.018336255 0.31400001 -1.7056908e+38
0.096309207 0.018394653 0.31500003 -1.7056387e+38
0.096819215 0.018394653 0.31500003 -1.7056387e+38
0.097839221 0.018394653 0.31500003 -1.7056387e+38
0.098661445 0.018453049 0.31600001 -1.7056387e+38
0.099173069 0.018453049 0.31600001 -1.7056908e+38
0.10000015 0.018511442 0.317 -1.7056908e+38
0.10051339 0.018511442 0.317 -1.7057421e+38
0.10153987 0.018511442 0.317 -1.70569e+38
0.10237505 0.018569838 0.31800002 -1.7057421e+38
0.10288991 0.018569838 0.31800002 -1.7190869e+38
0.10340478 0.018569838 0.31800002 -1.7057425e+38
0.1044345 0.018569838 0.31800002 -1.7322752e+38
0.10494936 0.018569838 0.31800002 -1.7456196e+38
0.10579587 0.018628236 0.31900001 -1.7456196e+38
0.10631235 0.018628236 0.31900001 -1.7456196e+38
0.10734531 0.018628236 0.31900001 -1.758964e+38
0.10786179 0.018628236 0.31900001 -1.758964e+38
0.10837827 0.018628236 0.31900001 -1.7854962e+38
0.10941123 0.018628236 0.31900001 -1.9318677e+38
0.10992771 0.018628236 0.31900001 -1.9051789e+38
0.11044419 0.018628236 0.31900001 -2.290758e+38
0.072987095 0.018424537 0.30700001 -2.0390914e+38
0.073244788 0.018364523 0.30600002 -1.8927721e+38
0.073740214 0.018364523 0.30600002 -1.8794277e+38
0.074486867 0.018304508 0.30500001 -1.7597453e+38
0.074734837 0.018244494 0.30400002 -1.7199218e+38
0.07571923 0.018244494 0.30400002 -1.7065776e+38
0.076211423 0.018244494 0.30400002 -1.7065776e+38
0.076451302 0.018184477 0.303 -1.7063693e+38
0.077432454 0.018184477 0.303 -1.706161e+38
0.07792303 0.018184477 0.303 -1.7061088e+38
0.078413606 0.018184477 0.303 -1.7059001e+38
0.079164587 0.018244494 0.30400002 -1.705848e+38
0.080180839 0.018364523 0.30600002 -1.7057442e+38
0.081203565 0.018484553 0.30800003 -1.705692e+38
0.08170224 0.018484553 0.30800003 -1.7056916e+38
0.082968086 0.018544568 0.30900002 -1.7056912e+38
0.083468378 0.018544568 0.30900002 -1.7056912e+38
0.083968662 0.018544568 0.30900002 -1.7057427e+38
0.084468953 0.018544568 0.30900002 -1.7057427e+38
0.085469536 0.018544568 0.30900002 -1.7057427e+38
0.08624804 0.018604582 0.31 -1.7057427e+38
0.086749949 0.018604582 0.31 -1.7057427e+38
0.087533318 0.018664597 0.31100002 -1.7056387e+38
0.088540375 0.018664597 0.31100002 -1.7056387e+38
0.089330219 0.018724613 0.31200001 -1.7056387e+38
0.089835361 0.018724613 0.31200001 -1.7056387e+38
0.09034051 0.018724613 0.31200001 -1.7056387e+38
0.091136828 0.018784627 0.31300002 -1.7056387e+38
0.09215036 0.018784627 0.31300002 -1.7056387e+38
0.092657126 0.018784627 0.31300002 -1.7056387e+38
0.093461543 0.01884464 0.31400001 -1.7055862e+38
0.093969926 0.01884464 0.31400001 -1.7055862e+38
0.0949867 0.01884464 0.31400001 -1.7055862e+38
0.095495082 0.01884464 0.31400001 -1.7056908e+38
0.096309207 0.018904656 0.31500003 -1.7056387e+38
