# .PCD v0.7 - Point Cloud Data file format
VERSION 0.7
FIELDS x y z rgb
SIZE 4 4 4 4
TYPE F F F F
COUNT 1 1 1 1
WIDTH 982
HEIGHT 1
VIEWPOINT 0 0 0 1 0 0 0
POINTS 982
DATA ascii
0.088807456 0.01139112 0.30500001 -1.7056387e+38
0.089594059 0.011428468 0.30600002 -1.7055866e+38
0.090584926 0.011428468 0.30600002 -1.7056387e+38
0.091675654 0.011503164 0.30800003 -1.7056387e+38
0.092174321 0.011503164 0.30800003 -1.7056387e+38
0.09297388 0.011540512 0.30900002 -1.7056387e+38
0.093474172 0.011540512 0.30900002 -1.7056387e+38
0.094474748 0.011540512 0.30900002 -1.7055866e+38
0.094975039 0.011540512 0.30900002 -1.7056908e+38
0.095784314 0.01157786 0.31 -1.7056387e+38
0.096286222 0.01157786 0.31 -1.7056387e+38
0.097290039 0.01157786 0.31 -1.7056383e+38
0.098107405 0.011615207 0.31100002 -1.7055862e+38
0.098928012 0.011652555 0.31200001 -1.7056383e+38
0.10007054 0.011727251 0.31400001 -1.7056904e+38
0.10153987 0.011839295 0.317 -1.7056383e+38
0.10205312 0.011839295 0.317 -1.7056383e+38
0.10224281 0.011801947 0.31600001 -1.7056383e+38
0.10293926 0.011764599 0.31500003 -1.7055862e+38
0.10312086 0.011727251 0.31400001 -1.7056383e+38
0.10413763 0.011727251 0.31400001 -1.7056904e+38
0.10497928 0.011764599 0.31500003 -1.7189304e+38
0.10582417 0.011801947 0.31600001 -1.7189304e+38
0.1063358 0.011801947 0.31600001 -1.7189304e+38
0.10718554 0.011839295 0.317 -1.7189304e+38
0.10803853 0.011876643 0.31800002 -1.7189304e+38
0.10941123 0.011913991 0.31900001 -1.7189304e+38
0.11027232 0.011951338 0.32000002 -1.7189304e+38
0.11113663 0.011988687 0.32100001 -1.7588589e+38
0.11235203 0.012063383 0.32300001 -1.7588589e+38
0.11322445 0.01210073 0.324 -1.7987881e+38
0.11374902 0.01210073 0.324 -1.7987881e+38
0.11462629 0.012138079 0.32500002 -1.8253207e+38
0.11567868 0.012138079 0.32500002 -1.8653539e+38
0.11620487 0.012138079 0.32500002 -1.8920428e+38
0.11709025 0.012175426 0.32600001 -2.0516016e+38
0.11761806 0.012175426 0.32600001 -2.064946e+38
0.071322888 0.011690099 0.30000001 -1.9858696e+38
0.071569249 0.011651131 0.29900002 -1.9593374e+38
0.072053343 0.011651131 0.29900002 -1.9326485e+38
0.072777323 0.011612165 0.29800001 -1.8794281e+38
0.07350564 0.011651131 0.29900002 -1.7730903e+38
0.073989742 0.011651131 0.29900002 -1.7597459e+38
0.074473843 0.011651131 0.29900002 -1.7066818e+38
0.075442038 0.011651131 0.29900002 -1.706578e+38
0.076180071 0.011690099 0.30000001 -1.706578e+38
0.076665789 0.011690099 0.30000001 -1.7064218e+38
0.077408679 0.011729065 0.30100003 -1.7063697e+38
0.078154817 0.011768033 0.30200002 -1.7062127e+38
0.079132728 0.011768033 0.30200002 -1.7058995e+38
0.079885334 0.011806999 0.303 -1.7058995e+38
0.080375902 0.011806999 0.303 -1.7057431e+38
0.080866478 0.011806999 0.303 -1.7057431e+38
0.08184763 0.011806999 0.303 -1.7057427e+38
0.082609951 0.011845966 0.30400002 -1.7056906e+38
0.082828782 0.011806999 0.303 -1.7057427e+38
0.083319359 0.011806999 0.303 -1.7056387e+38
0.084300511 0.011806999 0.303 -1.7055866e+38
0.084791087 0.011806999 0.303 -1.7056908e+38
0.085563116 0.011845966 0.30400002 -1.7056387e+38
0.086055309 0.011845966 0.30400002 -1.7056387e+38
0.087039702 0.011845966 0.30400002 -1.7055866e+38
0.087531894 0.011845966 0.30400002 -1.7055866e+38
0.088313639 0.011884933 0.30500001 -1.7055866e+38
0.089098625 0.0119239 0.30600002 -1.7056387e+38
0.089594059 0.0119239 0.30600002 -1.7055866e+38
0.090880953 0.011962867 0.30700001 -1.7056387e+38
0.091675654 0.012001834 0.30800003 -1.7056908e+38
0.092473589 0.012040801 0.30900002 -1.7056387e+38
0.09297388 0.012040801 0.30900002 -1.7056387e+38
0.093474172 0.012040801 0.30900002 -1.7056387e+38
0.09478049 0.012079768 0.31 -1.7056387e+38
0.095282406 0.012079768 0.31 -1.7056387e+38
0.095784314 0.012079768 0.31 -1.7056387e+38
0.096286222 0.012079768 0.31 -1.7055866e+38
0.097100347 0.012118735 0.31100002 -1.7056387e+38
0.098107405 0.012118735 0.31100002 -1.7056383e+38
0.098928012 0.012157703 0.31200001 -1.7056383e+38
0.10007054 0.012235637 0.31400001 -1.7056383e+38
0.10121956 0.01231357 0.31600001 -1.7056383e+38
0.10237505 0.012391504 0.31800002 -1.7056383e+38
0.10288991 0.012391504 0.31800002 -1.7056383e+38
0.10326605 0.01231357 0.31600001 -1.7055862e+38
0.10377768 0.01231357 0.31600001 -1.7056383e+38
0.10395927 0.012274603 0.31500003 -1.7056904e+38
0.10531255 0.01231357 0.31600001 -1.7189304e+38
0.10582417 0.01231357 0.31600001 -1.7189304e+38
0.1066723 0.012352537 0.317 -1.7322748e+38
0.10752367 0.012391504 0.31800002 -1.7189304e+38
0.10837827 0.01243047 0.31900001 -1.7322748e+38
0.10941123 0.01243047 0.31900001 -1.7189304e+38
0.11027232 0.012469438 0.32000002 -1.7189304e+38
0.11148286 0.012547372 0.32200003 -1.7588589e+38
0.11235203 0.012586339 0.32300001 -1.7588589e+38
0.11287498 0.012586339 0.32300001 -1.7987881e+38
0.11374902 0.012625306 0.324 -1.8254769e+38
0.1142736 0.012625306 0.324 -1.8253207e+38
0.11567868 0.012664273 0.32500002 -1.8786983e+38
0.11620487 0.012664273 0.32500002 -1.8920428e+38
0.11673107 0.012664273 0.32500002 -2.1047705e+38
0.11725726 0.012664273 0.32500002 -2.1981814e+38
0.071073294 0.012216402 0.30100003 -2.0125584e+38
0.071808606 0.012175817 0.30000001 -1.9593374e+38
0.072053343 0.01213523 0.29900002 -1.9326485e+38
0.073021546 0.01213523 0.29900002 -1.8794281e+38
0.07350564 0.01213523 0.29900002 -1.7597459e+38
0.073989742 0.01213523 0.29900002 -1.7597459e+38
0.074473843 0.01213523 0.29900002 -1.7066818e+38
0.075442038 0.01213523 0.29900002 -1.706578e+38
0.076180071 0.012175817 0.30000001 -1.7064737e+38
0.076921344 0.012216402 0.30100003 -1.7064218e+38
0.077665858 0.012256988 0.30200002 -1.7063697e+38
0.078154817 0.012256988 0.30200002 -1.7062131e+38
0.079132728 0.012256988 0.30200002 -1.7058997e+38
0.079885334 0.012297574 0.303 -1.7058476e+38
0.080375902 0.012297574 0.303 -1.7057431e+38
0.080866478 0.012297574 0.303 -1.7057431e+38
0.08184763 0.012297574 0.303 -1.7057427e+38
0.082338206 0.012297574 0.303 -1.7057427e+38
0.083102144 0.012338161 0.30400002 -1.7057427e+38
0.083594337 0.012338161 0.30400002 -1.7056387e+38
0.08457873 0.012338161 0.30400002 -1.7055866e+38
0.085350759 0.012378747 0.30500001 -1.7056908e+38
0.085844576 0.012378747 0.30500001 -1.7056387e+38
0.086338386 0.012378747 0.30500001 -1.7056387e+38
0.087326013 0.012378747 0.30500001 -1.7055866e+38
0.08781983 0.012378747 0.30500001 -1.7055866e+38
0.088603191 0.012419333 0.30600002 -1.7055866e+38
0.089098625 0.012419333 0.30600002 -1.7056387e+38
0.089886852 0.012459919 0.30700001 -1.7055866e+38
0.090880953 0.012459919 0.30700001 -1.7056387e+38
0.091973305 0.012541091 0.30900002 -1.7056908e+38
0.092473589 0.012541091 0.30900002 -1.7056387e+38
0.09297388 0.012541091 0.30900002 -1.7056387e+38
0.093776673 0.012581676 0.31 -1.7056387e+38
0.09478049 0.012581676 0.31 -1.7056387e+38
0.095282406 0.012581676 0.31 -1.7056387e+38
0.095784314 0.012581676 0.31 -1.7056387e+38
0.096596822 0.012622263 0.31100002 -1.7055866e+38
0.097100347 0.012622263 0.31100002 -1.7056387e+38
0.098422863 0.012662849 0.31200001 -1.7056383e+38
0.098928012 0.012662849 0.31200001 -1.7056383e+38
0.10007054 0.012744022 0.31400001 -1.7056383e+38
0.10121956 0.012825194 0.31600001 -1.7056383e+38
0.10205312 0.012865779 0.317 -1.7055862e+38
0.10288991 0.012906365 0.31800002 -1.7056383e+38
0.10359284 0.012865779 0.317 -1.7055862e+38
0.10410608 0.012865779 0.317 -1.7056383e+38
0.1042893 0.012825194 0.31600001 -1.7056904e+38
0.10531255 0.012825194 0.31600001 -1.7189304e+38
0.10615905 0.012865779 0.317 -1.7189304e+38
0.10700881 0.012906365 0.31800002 -1.7322748e+38
0.10786179 0.012946951 0.31900001 -1.7322748e+38
0.10837827 0.012946951 0.31900001 -1.7189304e+38
0.10923612 0.012987537 0.32000002 -1.7189304e+38
0.11009719 0.013028124 0.32100001 -1.7189304e+38
0.11148286 0.01306871 0.32200003 -1.7722033e+38
0.11200419 0.01306871 0.32200003 -1.7722033e+38
0.11287498 0.013109296 0.32300001 -1.7987877e+38
0.11374902 0.013149882 0.324 -1.8254765e+38
0.1142736 0.013149882 0.324 -1.8520091e+38
0.11567868 0.013190468 0.32500002 -1.8920423e+38
0.11620487 0.013190468 0.32500002 -1.9053868e+38
0.11673107 0.013190468 0.32500002 -2.1313032e+38
0.11725726 0.013190468 0.32500002 -2.3848469e+38
0.072047971 0.013191077 0.30100003 -1.932597e+38
0.072294325 0.013147253 0.30000001 -1.932597e+38
0.073021546 0.013103428 0.29900002 -1.8660837e+38
0.07350564 0.013103428 0.29900002 -1.7332132e+38
0.073989742 0.013103428 0.29900002 -1.7332132e+38
0.074473843 0.013103428 0.29900002 -1.7066818e+38
0.075694352 0.013147253 0.30000001 -1.706578e+38
0.076434009 0.013191077 0.30100003 -1.7064737e+38
0.077176899 0.013234901 0.30200002 -1.7063697e+38
0.077665858 0.013234901 0.30200002 -1.7063175e+38
0.078154817 0.013234901 0.30200002 -1.7061606e+38
0.078904182 0.013278725 0.303 -1.7060042e+38
0.079885334 0.013278725 0.303 -1.7058476e+38
0.080375902 0.013278725 0.303 -1.7057431e+38
0.080866478 0.013278725 0.303 -1.7057431e+38
0.081625558 0.01332255 0.30400002 -1.7057433e+38
0.082609951 0.01332255 0.30400002 -1.7056906e+38
0.083102144 0.01332255 0.30400002 -1.7056906e+38
0.083869323 0.013366374 0.30500001 -1.7056387e+38
0.084363133 0.013366374 0.30500001 -1.7055866e+38
0.085350759 0.013366374 0.30500001 -1.7056387e+38
0.085844576 0.013366374 0.30500001 -1.7056387e+38
0.086338386 0.013366374 0.30500001 -1.7056908e+38
0.087116897 0.013410198 0.30600002 -1.7055866e+38
0.088107765 0.013410198 0.30600002 -1.7056387e+38
0.088603191 0.013410198 0.30600002 -1.7055866e+38
0.089389801 0.013454021 0.30700001 -1.7056387e+38
0.089886852 0.013454021 0.30700001 -1.7056387e+38
0.090972722 0.013541671 0.30900002 -1.7055866e+38
0.091973305 0.013541671 0.30900002 -1.7056387e+38
0.092772856 0.013585494 0.31 -1.7056387e+38
0.093274765 0.013585494 0.31 -1.7056387e+38
0.093776673 0.013585494 0.31 -1.7056387e+38
0.094582707 0.013629318 0.31100002 -1.7056387e+38
0.095589764 0.013629318 0.31100002 -1.7055866e+38
0.09609329 0.013629318 0.31100002 -1.7056387e+38
0.096596822 0.013629318 0.31100002 -1.7056387e+38
0.097412564 0.013673143 0.31200001 -1.7056387e+38
0.098422863 0.013673143 0.31200001 -1.7055862e+38
0.099245086 0.013716967 0.31300002 -1.7054819e+38
0.10007054 0.01376079 0.31400001 -1.7055862e+38
0.10121956 0.01384844 0.31600001 -1.7055862e+38
0.10205312 0.013892263 0.317 -1.7055862e+38
0.10288991 0.013936087 0.31800002 -1.7055862e+38
0.10340478 0.013936087 0.31800002 -1.7054819e+38
0.1044345 0.013936087 0.31800002 -1.7055862e+38
0.10461933 0.013892263 0.317 -1.7056379e+38
0.10546422 0.013936087 0.31800002 -1.70569e+38
0.10649395 0.013936087 0.31800002 -1.70569e+38
0.10734531 0.013979913 0.31900001 -1.7057421e+38
0.10786179 0.013979913 0.31900001 -1.7057421e+38
0.10871802 0.014023736 0.32000002 -1.7322748e+38
0.10923612 0.014023736 0.32000002 -1.7322748e+38
0.11009719 0.01406756 0.32100001 -1.7588589e+38
0.11148286 0.014111386 0.32200003 -1.7987881e+38
0.11200419 0.014111386 0.32200003 -1.7987881e+38
0.11287498 0.014155209 0.32300001 -1.8254769e+38
0.11339794 0.014155209 0.32300001 -1.8388213e+38
0.1142736 0.014199032 0.324 -1.8786979e+38
0.11567868 0.014242857 0.32500002 -1.8920423e+38
0.11620487 0.014242857 0.32500002 -1.9187312e+38
0.11673107 0.014242857 0.32500002 -2.1575746e+38
0.072287336 0.013723858 0.30200002 -1.9326485e+38
0.072535306 0.013678415 0.30100003 -1.9326485e+38
0.072780043 0.01363297 0.30000001 -1.8794281e+38
0.073751479 0.01363297 0.30000001 -1.7597459e+38
0.074237198 0.01363297 0.30000001 -1.7597459e+38
0.074722916 0.01363297 0.30000001 -1.7066818e+38
0.075459331 0.013678415 0.30100003 -1.7066297e+38
0.076687947 0.013723858 0.30200002 -1.7064737e+38
0.077176899 0.013723858 0.30200002 -1.7063693e+38
0.077665858 0.013723858 0.30200002 -1.7063171e+38
0.078413606 0.013769301 0.303 -1.7060565e+38
0.078904182 0.013769301 0.303 -1.7059523e+38
0.079885334 0.013769301 0.303 -1.7058476e+38
0.080641173 0.013814745 0.30400002 -1.7057431e+38
0.081133366 0.013814745 0.30400002 -1.7057431e+38
0.081625558 0.013814745 0.30400002 -1.7057433e+38
0.082881697 0.013860187 0.30500001 -1.7056906e+38
0.083375506 0.013860187 0.30500001 -1.7056906e+38
0.083869323 0.013860187 0.30500001 -1.7056387e+38
0.084363133 0.013860187 0.30500001 -1.7055866e+38
0.085350759 0.013860187 0.30500001 -1.7056387e+38
0.086126029 0.01390563 0.30600002 -1.7056387e+38
0.086621463 0.01390563 0.30600002 -1.7056387e+38
0.087116897 0.01390563 0.30600002 -1.7055866e+38
0.088107765 0.01390563 0.30600002 -1.7056387e+38
0.08889275 0.013951073 0.30700001 -1.7055866e+38
0.089389801 0.013951073 0.30700001 -1.7056387e+38
0.090179645 0.013996517 0.30800003 -1.7056387e+38
0.090972722 0.01404196 0.30900002 -1.7056387e+38
0.09176904 0.014087403 0.31 -1.7056387e+38
0.092772856 0.014087403 0.31 -1.7055866e+38
0.093274765 0.014087403 0.31 -1.7056387e+38
0.094079182 0.014132846 0.31100002 -1.7055866e+38
0.094582707 0.014132846 0.31100002 -1.7055866e+38
0.095589764 0.014132846 0.31100002 -1.7055866e+38
0.09609329 0.014132846 0.31100002 -1.7056387e+38
0.096907422 0.01417829 0.31200001 -1.7056387e+38
0.097412564 0.01417829 0.31200001 -1.7056387e+38
0.098231554 0.014223733 0.31300002 -1.7055862e+38
0.099562161 0.014269176 0.31400001 -1.7054298e+38
0.10007054 0.014269176 0.31400001 -1.7054819e+38
0.10121956 0.014360063 0.31600001 -1.7055862e+38
0.10205312 0.014405506 0.317 -1.7055862e+38
0.10256636 0.014405506 0.317 -1.7055862e+38
0.10359284 0.014405506 0.317 -1.7055342e+38
0.10410608 0.014405506 0.317 -1.7055342e+38
0.10494936 0.014450949 0.31800002 -1.705586e+38
0.10546422 0.014450949 0.31800002 -1.7189304e+38
0.10631235 0.014496393 0.31900001 -1.7189304e+38
0.10734531 0.014496393 0.31900001 -1.7322748e+38
0.10819992 0.014541836 0.32000002 -1.7322748e+38
0.10871802 0.014541836 0.32000002 -1.7722033e+38
0.10923612 0.014541836 0.32000002 -1.7722033e+38
0.11009719 0.014587278 0.32100001 -1.7588589e+38
0.11113663 0.014587278 0.32100001 -1.7987881e+38
0.11200419 0.014632722 0.32200003 -1.7987881e+38
0.11252553 0.014632722 0.32200003 -1.8388213e+38
0.11339794 0.014678165 0.32300001 -1.8388213e+38
0.1142736 0.014723608 0.324 -1.8653539e+38
0.11532275 0.014723608 0.324 -1.8920423e+38
0.11584733 0.014723608 0.324 -1.9187312e+38
0.072036125 0.014259876 0.303 -1.9726814e+38
0.072776295 0.014212814 0.30200002 -1.9193563e+38
0.073022641 0.014165752 0.30100003 -1.8661878e+38
0.073997319 0.014165752 0.30100003 -1.7464015e+38
0.074484654 0.014165752 0.30100003 -1.7597459e+38
0.074971996 0.014165752 0.30100003 -1.7065774e+38
0.075710028 0.014212814 0.30200002 -1.7065774e+38
0.076687947 0.014212814 0.30200002 -1.7064214e+38
0.077432454 0.014259876 0.303 -1.7062652e+38
0.07792303 0.014259876 0.303 -1.7062131e+38
0.078413606 0.014259876 0.303 -1.7060569e+38
0.078904182 0.014259876 0.303 -1.7059005e+38
0.08014898 0.014306939 0.30400002 -1.7058476e+38
0.080641173 0.014306939 0.30400002 -1.7057431e+38
0.081133366 0.014306939 0.30400002 -1.7057431e+38
0.081894062 0.014354001 0.30500001 -1.7057433e+38
0.082881697 0.014354001 0.30500001 -1.7056391e+38
0.083375506 0.014354001 0.30500001 -1.7056391e+38
0.083869323 0.014354001 0.30500001 -1.7055866e+38
0.084639736 0.014401062 0.30600002 -1.7056387e+38
0.085630596 0.014401062 0.30600002 -1.7056387e+38
0.086126029 0.014401062 0.30600002 -1.7056387e+38
0.086621463 0.014401062 0.30600002 -1.7056387e+38
0.087401591 0.014448125 0.30700001 -1.7056387e+38
0.087898642 0.014448125 0.30700001 -1.7055866e+38
0.08889275 0.014448125 0.30700001 -1.7056387e+38
0.08968097 0.014495188 0.30800003 -1.7056387e+38
0.090179645 0.014495188 0.30800003 -1.7056387e+38
0.090972722 0.01454225 0.30900002 -1.7056387e+38
0.09176904 0.014589312 0.31 -1.7056908e+38
0.092772856 0.014589312 0.31 -1.7055866e+38
0.093575656 0.014636373 0.31100002 -1.7055862e+38
0.094079182 0.014636373 0.31100002 -1.7055862e+38
0.094582707 0.014636373 0.31100002 -1.7055866e+38
0.095391981 0.014683437 0.31200001 -1.7055866e+38
0.096402273 0.014683437 0.31200001 -1.7055866e+38
0.096907422 0.014683437 0.31200001 -1.7055866e+38
0.097724788 0.014730499 0.31300002 -1.7055866e+38
0.098545395 0.014777561 0.31400001 -1.7055862e+38
0.099369235 0.014824624 0.31500003 -1.7054819e+38
0.10038924 0.014824624 0.31500003 -1.7054819e+38
0.10121956 0.014871686 0.31600001 -1.7055342e+38
0.10205312 0.014918748 0.317 -1.7055342e+38
0.10256636 0.014918748 0.317 -1.7055342e+38
0.10340478 0.01496581 0.31800002 -1.7055342e+38
0.1044345 0.01496581 0.31800002 -1.7055864e+38
0.10494936 0.01496581 0.31800002 -1.7055864e+38
0.10579587 0.015012873 0.31900001 -1.7189308e+38
0.10631235 0.015012873 0.31900001 -1.7189304e+38
0.10734531 0.015012873 0.31900001 -1.7322748e+38
0.10819992 0.015059935 0.32000002 -1.7322748e+38
0.10871802 0.015059935 0.32000002 -1.7456192e+38
0.10923612 0.015059935 0.32000002 -1.7456192e+38
0.11009719 0.015106997 0.32100001 -1.7456192e+38
0.11113663 0.015106997 0.32100001 -1.7854962e+38
0.11200419 0.01515406 0.32200003 -1.7854962e+38
0.11252553 0.01515406 0.32200003 -1.8255294e+38
0.11339794 0.015201123 0.32300001 -1.8255294e+38
0.11444385 0.015201123 0.32300001 -1.8920428e+38
0.11496681 0.015201123 0.32300001 -1.9052831e+38
0.11548977 0.015201123 0.32300001 -1.9586607e+38
0.072273865 0.014799134 0.30400002 -1.9860258e+38
0.073017277 0.014750451 0.303 -1.8794792e+38
0.073265247 0.01470177 0.30200002 -1.8661878e+38
0.073754206 0.01470177 0.30200002 -1.8261545e+38
0.074732117 0.01470177 0.30200002 -1.7332136e+38
0.075221077 0.01470177 0.30200002 -1.7065774e+38
0.075960726 0.014750451 0.303 -1.7065774e+38
0.076451302 0.014750451 0.303 -1.7064214e+38
0.077432454 0.014750451 0.303 -1.7062652e+38
0.07792303 0.014750451 0.303 -1.706161e+38
0.078672394 0.014799134 0.30400002 -1.7059523e+38
0.079164587 0.014799134 0.30400002 -1.7059001e+38
0.08014898 0.014799134 0.30400002 -1.7057961e+38
0.080641173 0.014799134 0.30400002 -1.7056916e+38
0.081400253 0.014847814 0.30500001 -1.7056916e+38
0.081894062 0.014847814 0.30500001 -1.7056912e+38
0.082881697 0.014847814 0.30500001 -1.7056391e+38
0.083375506 0.014847814 0.30500001 -1.7056391e+38
0.084144302 0.014896495 0.30600002 -1.7055866e+38
0.084639736 0.014896495 0.30600002 -1.7056387e+38
0.085413389 0.014945176 0.30700001 -1.7056387e+38
0.08640749 0.014945176 0.30700001 -1.7056387e+38
0.086904541 0.014945176 0.30700001 -1.7056387e+38
0.087686285 0.014993859 0.30800003 -1.7055866e+38
0.08818496 0.014993859 0.30800003 -1.7056387e+38
0.089182302 0.014993859 0.30800003 -1.7056387e+38
0.08968097 0.014993859 0.30800003 -1.7056387e+38
0.09047243 0.01504254 0.30900002 -1.7056387e+38
0.091267131 0.015091221 0.31 -1.7056387e+38
0.09176904 0.015091221 0.31 -1.7056387e+38
0.093072124 0.015139901 0.31100002 -1.7054823e+38
0.093876541 0.015188584 0.31200001 -1.7054819e+38
0.094381683 0.015188584 0.31200001 -1.7055862e+38
0.094886832 0.015188584 0.31200001 -1.7054819e+38
0.095697723 0.015237264 0.31300002 -1.7054819e+38
0.096711256 0.015237264 0.31300002 -1.7055866e+38
0.097218022 0.015237264 0.31300002 -1.7055866e+38
0.098037004 0.015285945 0.31400001 -1.7055866e+38
0.098859228 0.015334629 0.31500003 -1.7055866e+38
0.099369235 0.015334629 0.31500003 -1.7054823e+38
0.10070794 0.015383309 0.31600001 -1.7054304e+38
0.10153987 0.015945232 0.317 -1.7055342e+38
0.10205312 0.015945232 0.317 -1.7055342e+38
0.10288991 0.015995532 0.31800002 -1.7055338e+38
0.10340478 0.015995532 0.31800002 -1.7055338e+38
0.1044345 0.015995532 0.31800002 -1.7189304e+38
0.10494936 0.015995532 0.31800002 -1.7322748e+38
0.10579587 0.016045833 0.31900001 -1.7322748e+38
0.10631235 0.016045833 0.31900001 -1.7322748e+38
0.10734531 0.016045833 0.31900001 -1.7322752e+38
0.10819992 0.016096134 0.32000002 -1.7456196e+38
0.10871802 0.016096134 0.32000002 -1.758964e+38
0.10923612 0.016096134 0.32000002 -1.7456196e+38
0.11009719 0.016146434 0.32100001 -1.7456196e+38
0.11113663 0.016146434 0.32100001 -1.8121854e+38
0.11200419 0.016196735 0.32200003 -1.8121854e+38
0.11252553 0.016196735 0.32200003 -1.8255298e+38
0.11304687 0.016196735 0.32200003 -1.8255298e+38
0.11408954 0.016196735 0.32200003 -1.8654586e+38
0.11461088 0.016196735 0.32200003 -1.9983287e+38
0.11513222 0.016196735 0.32200003 -1.9716399e+38
0.072273865 0.015783522 0.30400002 -2.0125584e+38
0.072766058 0.015783522 0.30400002 -1.8927721e+38
0.073507853 0.015731601 0.303 -1.7997785e+38
0.073998429 0.015731601 0.303 -1.7730897e+38
0.074488997 0.015731601 0.303 -1.7199733e+38
0.07547015 0.015731601 0.303 -1.7065774e+38
0.075960726 0.015731601 0.303 -1.7065774e+38
0.076451302 0.015731601 0.303 -1.7064214e+38
0.077432454 0.015731601 0.303 -1.7062127e+38
0.078180201 0.015783522 0.30400002 -1.7061606e+38
0.078672394 0.015783522 0.30400002 -1.7059523e+38
0.079164587 0.015783522 0.30400002 -1.7059001e+38
0.08014898 0.015783522 0.30400002 -1.7057435e+38
0.080906436 0.015835442 0.30500001 -1.7056916e+38
0.081400253 0.015835442 0.30500001 -1.7056916e+38
0.081894062 0.015835442 0.30500001 -1.7056912e+38
0.082658 0.015887361 0.30600002 -1.7056912e+38
0.083648868 0.015887361 0.30600002 -1.7056391e+38
0.084144302 0.015887361 0.30600002 -1.7057427e+38
0.084916331 0.015939279 0.30700001 -1.7056906e+38
0.085413389 0.015939279 0.30700001 -1.7056387e+38
0.086190276 0.0159912 0.30800003 -1.7056387e+38
0.087187618 0.0159912 0.30800003 -1.7056387e+38
0.087686285 0.0159912 0.30800003 -1.7056387e+38
0.088471271 0.016043119 0.30900002 -1.7056387e+38
0.088971563 0.016043119 0.30900002 -1.7056387e+38
0.089972138 0.016043119 0.30900002 -1.7056387e+38
0.090765223 0.016095039 0.31 -1.7056387e+38
0.091561541 0.016146958 0.31100002 -1.7055866e+38
0.092065066 0.016146958 0.31100002 -1.7056387e+38
0.092866242 0.016198877 0.31200001 -1.7055862e+38
0.093876541 0.016198877 0.31200001 -1.7054815e+38
0.094684191 0.016250797 0.31300002 -1.7055858e+38
0.095190957 0.016250797 0.31300002 -1.7055858e+38
0.095697723 0.016250797 0.31300002 -1.7055858e+38
0.096511848 0.016302716 0.31400001 -1.7054819e+38
0.097528622 0.016302716 0.31400001 -1.7056387e+38
0.098349229 0.016354637 0.31500003 -1.7055866e+38
0.098859228 0.016354637 0.31500003 -1.7056387e+38
0.099684693 0.016406555 0.31600001 -1.7055866e+38
0.10070794 0.016406555 0.31600001 -1.7055346e+38
0.10153987 0.016458474 0.317 -1.7055342e+38
0.10205312 0.016458474 0.317 -1.7055342e+38
0.10288991 0.016510393 0.31800002 -1.7055338e+38
0.10340478 0.016510393 0.31800002 -1.705586e+38
0.1044345 0.016510393 0.31800002 -1.7189304e+38
0.10494936 0.016510393 0.31800002 -1.7456192e+38
0.10579587 0.016562315 0.31900001 -1.7322748e+38
0.10631235 0.016562315 0.31900001 -1.7456192e+38
0.10734531 0.016562315 0.31900001 -1.7322752e+38
0.10819992 0.016614232 0.32000002 -1.7456196e+38
0.10871802 0.016614232 0.32000002 -1.7456196e+38
0.10923612 0.016614232 0.32000002 -1.7456196e+38
0.11027232 0.016614232 0.32000002 -1.758964e+38
0.11113663 0.016666152 0.32100001 -1.7856528e+38
0.11165635 0.016666152 0.32100001 -1.7856528e+38
0.11217607 0.016666152 0.32100001 -1.7989972e+38
0.11304687 0.016718073 0.32200003 -1.7989972e+38
0.11373522 0.016666152 0.32100001 -1.8654586e+38
0.11425494 0.016666152 0.32100001 -2.0912704e+38
0.11477466 0.016666152 0.32100001 -2.144648e+38
0.072511606 0.016329255 0.30500001 -2.0125584e+38
0.072766058 0.016275717 0.30400002 -1.8927721e+38
0.073750451 0.016275717 0.30400002 -1.7864341e+38
0.074242644 0.016275717 0.30400002 -1.7864341e+38
0.074734837 0.016275717 0.30400002 -1.7199733e+38
0.07571923 0.016275717 0.30400002 -1.7065774e+38
0.076211423 0.016275717 0.30400002 -1.7065252e+38
0.076703615 0.016275717 0.30400002 -1.7064214e+38
0.077195808 0.016275717 0.30400002 -1.7063693e+38
0.078180201 0.016275717 0.30400002 -1.7061606e+38
0.078672394 0.016275717 0.30400002 -1.7059523e+38
0.079164587 0.016275717 0.30400002 -1.7059001e+38
0.08014898 0.016275717 0.30400002 -1.7057435e+38
0.080906436 0.016329255 0.30500001 -1.7056912e+38
0.08166714 0.016382793 0.30600002 -1.7056912e+38
0.082162574 0.016382793 0.30600002 -1.7056912e+38
0.082658 0.016382793 0.30600002 -1.7056391e+38
0.083648868 0.016382793 0.30600002 -1.7056391e+38
0.08441928 0.016436331 0.30700001 -1.7057427e+38
0.084916331 0.016436331 0.30700001 -1.7057427e+38
0.085691608 0.016489871 0.30800003 -1.7056387e+38
0.086190276 0.016489871 0.30800003 -1.7056387e+38
0.087187618 0.016489871 0.30800003 -1.7056387e+38
0.08797098 0.016543409 0.30900002 -1.7056387e+38
0.088471271 0.016543409 0.30900002 -1.7056387e+38
0.089259498 0.016596947 0.31 -1.7056387e+38
0.090263315 0.016596947 0.31 -1.7056387e+38
0.091058016 0.016650485 0.31100002 -1.7056387e+38
0.091561541 0.016650485 0.31100002 -1.7056387e+38
0.0923611 0.016704025 0.31200001 -1.7055866e+38
0.092866242 0.016704025 0.31200001 -1.7054819e+38
0.093670659 0.016757563 0.31300002 -1.7054819e+38
0.094684191 0.016757563 0.31300002 -1.7055858e+38
0.095190957 0.016757563 0.31300002 -1.7055858e+38
0.096003465 0.016811101 0.31400001 -1.7055858e+38
0.096511848 0.016811101 0.31400001 -1.7055862e+38
0.097839221 0.016864641 0.31500003 -1.7056383e+38
0.098349229 0.016864641 0.31500003 -1.7055862e+38
0.098859228 0.016864641 0.31500003 -1.7056383e+38
0.099684693 0.016918179 0.31600001 -1.7055862e+38
0.10070794 0.016918179 0.31600001 -1.7055868e+38
0.10153987 0.016971717 0.317 -1.7055864e+38
0.10205312 0.016971717 0.317 -1.7055864e+38
0.10288991 0.017025255 0.31800002 -1.7055864e+38
0.10340478 0.017025255 0.31800002 -1.7189308e+38
0.1044345 0.017025255 0.31800002 -1.7189304e+38
0.10494936 0.017025255 0.31800002 -1.7456192e+38
0.10579587 0.017078795 0.31900001 -1.7322748e+38
0.10631235 0.017078795 0.31900001 -1.7456192e+38
0.10734531 0.017078795 0.31900001 -1.7456196e+38
0.10786179 0.017078795 0.31900001 -1.7456196e+38
0.10871802 0.017132333 0.32000002 -1.7456196e+38
0.10923612 0.017132333 0.32000002 -1.7456196e+38
0.11027232 0.017132333 0.32000002 -1.7856528e+38
0.11079042 0.017132333 0.32000002 -1.758964e+38
0.11165635 0.017185871 0.32100001 -1.7856528e+38
0.11217607 0.017185871 0.32100001 -1.7989972e+38
0.11321551 0.017185871 0.32100001 -1.8919387e+38
0.11373522 0.017185871 0.32100001 -1.8652499e+38
0.11389901 0.017132333 0.32000002 -2.3037371e+38
0.072511606 0.016823068 0.30500001 -2.0125584e+38
0.073005423 0.016823068 0.30500001 -1.8927721e+38
0.07399305 0.016823068 0.30500001 -1.7864341e+38
0.074486867 0.016823068 0.30500001 -1.7864341e+38
0.074734837 0.016767912 0.30400002 -1.7199733e+38
0.07571923 0.016767912 0.30400002 -1.7065252e+38
0.076211423 0.016767912 0.30400002 -1.706421e+38
0.076703615 0.016767912 0.30400002 -1.7063693e+38
0.077195808 0.016767912 0.30400002 -1.7063693e+38
0.078180201 0.016767912 0.30400002 -1.7061084e+38
0.078672394 0.016767912 0.30400002 -1.7059516e+38
0.079164587 0.016767912 0.30400002 -1.7059516e+38
0.079918809 0.016823068 0.30500001 -1.7057435e+38
0.081171706 0.016878225 0.30600002 -1.7056912e+38
0.081934027 0.016933382 0.30700001 -1.7056912e+38
0.082431078 0.016933382 0.30700001 -1.7056391e+38
0.082928129 0.016933382 0.30700001 -1.7056391e+38
0.083425179 0.016933382 0.30700001 -1.7056391e+38
0.08441928 0.016933382 0.30700001 -1.7057427e+38
0.085192934 0.016988542 0.30800003 -1.7057427e+38
0.085691608 0.016988542 0.30800003 -1.7056387e+38
0.086190276 0.016988542 0.30800003 -1.7056387e+38
0.087470695 0.017043699 0.30900002 -1.7056387e+38
0.08797098 0.017043699 0.30900002 -1.7056387e+38
0.088757589 0.017098855 0.31 -1.7056387e+38
0.089259498 0.017098855 0.31 -1.7056387e+38
0.090050958 0.017154012 0.31100002 -1.7056387e+38
0.091058016 0.017154012 0.31100002 -1.7056387e+38
0.091855951 0.017209172 0.31200001 -1.7056387e+38
0.0923611 0.017209172 0.31200001 -1.7056387e+38
0.093163893 0.017264329 0.31300002 -1.7054819e+38
0.093670659 0.017264329 0.31300002 -1.7054819e+38
0.094684191 0.017264329 0.31300002 -1.7055858e+38
0.095495082 0.017319486 0.31400001 -1.7056379e+38
0.096003465 0.017319486 0.31400001 -1.7055858e+38
0.096511848 0.017319486 0.31400001 -1.7055862e+38
0.097839221 0.017374644 0.31500003 -1.7056383e+38
0.098349229 0.017374644 0.31500003 -1.7056383e+38
0.099173069 0.017429801 0.31600001 -1.7056383e+38
0.099684693 0.017429801 0.31600001 -1.7055862e+38
0.10051339 0.017484959 0.317 -1.7056383e+38
0.10153987 0.017484959 0.317 -1.7056383e+38
0.10205312 0.017484959 0.317 -1.7056383e+38
0.10288991 0.017540116 0.31800002 -1.7056383e+38
0.10340478 0.017540116 0.31800002 -1.7056904e+38
0.1044345 0.017540116 0.31800002 -1.7056904e+38
0.10494936 0.017540116 0.31800002 -1.7190869e+38
0.10579587 0.017595274 0.31900001 -1.7190869e+38
0.10631235 0.017595274 0.31900001 -1.7190869e+38
0.10734531 0.017595274 0.31900001 -1.7456196e+38
0.10786179 0.017595274 0.31900001 -1.7456196e+38
0.10837827 0.017595274 0.31900001 -1.7456196e+38
0.10941123 0.017595274 0.31900001 -1.7456196e+38
0.11027232 0.017650431 0.32000002 -1.7856528e+38
0.11079042 0.017650431 0.32000002 -1.758964e+38
0.11130852 0.017650431 0.32000002 -1.7856528e+38
0.11182661 0.017650431 0.32000002 -1.8521142e+38
0.11286282 0.017650431 0.32000002 -2.1308862e+38
0.11338092 0.017650431 0.32000002 -2.5312184e+38
0.072749354 0.017869091 0.30600002 -1.999214e+38
0.073244788 0.017869091 0.30600002 -1.8927721e+38
0.073740214 0.017869091 0.30600002 -1.8794277e+38
0.074486867 0.017810695 0.30500001 -1.7730897e+38
0.074980676 0.017810695 0.30500001 -1.7066289e+38
0.075474493 0.017810695 0.30500001 -1.7066289e+38
0.07646212 0.017810695 0.30500001 -1.7064214e+38
0.076955929 0.017810695 0.30500001 -1.7063693e+38
0.077195808 0.017752299 0.30400002 -1.7063171e+38
0.078180201 0.017752299 0.30400002 -1.7061084e+38
0.078672394 0.017752299 0.30400002 -1.7059516e+38
0.079425 0.017810695 0.30500001 -1.7058995e+38
0.080180839 0.017869091 0.30600002 -1.7056912e+38
0.080939919 0.017927486 0.30700001 -1.7056912e+38
0.08170224 0.017985882 0.30800003 -1.7056912e+38
0.082699582 0.017985882 0.30800003 -1.7056912e+38
0.083198249 0.017985882 0.30800003 -1.7056912e+38
0.083425179 0.017927486 0.30700001 -1.7056391e+38
0.08441928 0.017927486 0.30700001 -1.7056912e+38
0.085192934 0.017985882 0.30800003 -1.7056391e+38
0.085691608 0.017985882 0.30800003 -1.7056387e+38
0.086470112 0.018044278 0.30900002 -1.7056387e+38
0.087470695 0.018044278 0.30900002 -1.7056387e+38
0.088255681 0.018102674 0.31 -1.7056387e+38
0.088757589 0.018102674 0.31 -1.7056387e+38
0.089547433 0.018161068 0.31100002 -1.7056387e+38
0.090050958 0.018161068 0.31100002 -1.7056387e+38
0.091350801 0.018219465 0.31200001 -1.7056387e+38
0.091855951 0.018219465 0.31200001 -1.7056387e+38
0.092657126 0.018277861 0.31300002 -1.7056387e+38
0.093163893 0.018277861 0.31300002 -1.7056387e+38
0.093670659 0.018277861 0.31300002 -1.7056387e+38
0.0949867 0.018336255 0.31400001 -1.7056383e+38
0.095495082 0.018336255 0.31400001 -1.7056383e+38
0.096003465 0.018336255 0.31400001 -1.7056383e+38
0.096511848 0.018336255 0.31400001 -1.7055862e+38
0.097839221 0.018394653 0.31500003 -1.7056387e+38
0.098349229 0.018394653 0.31500003 -1.7056908e+38
0.099173069 0.018453049 0.31600001 -1.7056908e+38
0.099684693 0.018453049 0.31600001 -1.7056387e+38
0.10070794 0.018453049 0.31600001 -1.7056908e+38
0.10153987 0.018511442 0.317 -1.7056908e+38
0.10205312 0.018511442 0.317 -1.7057429e+38
0.10256636 0.018511442 0.317 -1.7056908e+38
0.10340478 0.018569838 0.31800002 -1.7057429e+38
0.1044345 0.018569838 0.31800002 -1.7057425e+38
0.10494936 0.018569838 0.31800002 -1.7324313e+38
0.10546422 0.018569838 0.31800002 -1.7324313e+38
0.10631235 0.018628236 0.31900001 -1.7190869e+38
0.10734531 0.018628236 0.31900001 -1.7324313e+38
0.10786179 0.018628236 0.31900001 -1.7324313e+38
0.10837827 0.018628236 0.31900001 -1.758964e+38
0.10941123 0.018628236 0.31900001 -1.7987366e+38
0.10992771 0.018628236 0.31900001 -1.7587034e+38
0.11044419 0.018628236 0.31900001 -2.1710232e+38
0.072987095 0.018424537 0.30700001 -1.9992144e+38
0.073244788 0.018364523 0.30600002 -1.8927725e+38
0.073740214 0.018364523 0.30600002 -1.8794281e+38
0.074731082 0.018364523 0.30600002 -1.7730897e+38
0.075226516 0.018364523 0.30600002 -1.7066289e+38
0.075721949 0.018364523 0.30600002 -1.7066289e+38
0.07646212 0.018304508 0.30500001 -1.7064214e+38
0.076955929 0.018304508 0.30500001 -1.7063693e+38
0.077449746 0.018304508 0.30500001 -1.706265e+38
0.078437373 0.018304508 0.30500001 -1.7061084e+38
0.078931183 0.018304508 0.30500001 -1.7059516e+38
0.079425 0.018304508 0.30500001 -1.7058995e+38
0.080180839 0.018364523 0.30600002 -1.7056912e+38
0.080939919 0.018424537 0.30700001 -1.7056912e+38
0.08170224 0.018484553 0.30800003 -1.7056912e+38
0.082699582 0.018484553 0.30800003 -1.7056912e+38
0.083198249 0.018484553 0.30800003 -1.7056912e+38
0.083696924 0.018484553 0.30800003 -1.7056912e+38
0.084694266 0.018484553 0.30800003 -1.7056393e+38
0.085192934 0.018484553 0.30800003 -1.7055872e+38
0.085969821 0.018544568 0.30900002 -1.7056387e+38
0.086470112 0.018544568 0.30900002 -1.7056908e+38
0.087251864 0.018604582 0.31 -1.7056387e+38
0.088540375 0.018664597 0.31100002 -1.7056387e+38
0.0890439 0.018664597 0.31100002 -1.7056387e+38
0.089547433 0.018664597 0.31100002 -1.7056908e+38
0.090050958 0.018664597 0.31100002 -1.7056387e+38
0.091350801 0.018724613 0.31200001 -1.7056387e+38
0.09215036 0.018784627 0.31300002 -1.7056908e+38
0.092657126 0.018784627 0.31300002 -1.7056387e+38
0.093163893 0.018784627 0.31300002 -1.7056387e+38
0.093670659 0.018784627 0.31300002 -1.7056908e+38
0.0949867 0.01884464 0.31400001 -1.7056387e+38
0.095495082 0.01884464 0.31400001 -1.7056387e+38
0.096003465 0.01884464 0.31400001 -1.7056387e+38
0.096511848 0.01884464 0.31400001 -1.7055866e+38
0.097839221 0.018904656 0.31500003 -1.7056908e+38
0.098349229 0.018904656 0.31500003 -1.7057429e+38
0.099173069 0.018964671 0.31600001 -1.7056908e+38
0.099684693 0.018964671 0.31600001 -1.7056908e+38
0.10070794 0.018964671 0.31600001 -1.7056908e+38
0.10121956 0.018964671 0.31600001 -1.7057429e+38
0.10205312 0.019024685 0.317 -1.7057429e+38
0.10256636 0.019024685 0.317 -1.7056908e+38
0.10359284 0.019024685 0.317 -1.7190869e+38
0.10410608 0.019024685 0.317 -1.7190869e+38
0.10494936 0.019084699 0.31800002 -1.7324313e+38
0.10546422 0.019084699 0.31800002 -1.7324313e+38
0.10649395 0.019084699 0.31800002 -1.7324313e+38
0.10700881 0.019084699 0.31800002 -1.7591202e+38
0.10752367 0.019084699 0.31800002 -1.7591202e+38
0.10803853 0.019084699 0.31800002 -1.8918345e+38
0.10941123 0.019144716 0.31900001 -2.3575841e+38
0.072696507 0.019106491 0.31 -2.158826e+38
0.073224835 0.018983224 0.30800003 -1.9992144e+38
0.073484145 0.018921589 0.30700001 -1.8795326e+38
0.073981196 0.018921589 0.30700001 -1.8661882e+38
0.074731082 0.018859955 0.30600002 -1.7730381e+38
0.075226516 0.018859955 0.30600002 -1.7066289e+38
0.075721949 0.018859955 0.30600002 -1.7066289e+38
0.07671281 0.018859955 0.30600002 -1.706421e+38
0.076955929 0.018798321 0.30500001 -1.7062648e+38
0.077449746 0.018798321 0.30500001 -1.7062127e+38
0.078437373 0.018798321 0.30500001 -1.7060565e+38
0.078931183 0.018798321 0.30500001 -1.7059516e+38
0.079685405 0.018859955 0.30600002 -1.7058995e+38
0.080180839 0.018859955 0.30600002 -1.7056912e+38
0.080939919 0.018921589 0.30700001 -1.7056912e+38
0.08170224 0.018983224 0.30800003 -1.7056912e+38
0.082699582 0.018983224 0.30800003 -1.7056912e+38
0.083198249 0.018983224 0.30800003 -1.7056912e+38
0.083968662 0.019044857 0.30900002 -1.7056912e+38
0.084468953 0.019044857 0.30900002 -1.7056912e+38
0.085469536 0.019044857 0.30900002 -1.7056391e+38
0.085969821 0.019044857 0.30900002 -1.7056912e+38
0.086749949 0.019106491 0.31 -1.7056912e+38
0.087251864 0.019106491 0.31 -1.7057427e+38
0.088540375 0.019168124 0.31100002 -1.7056387e+38
0.0890439 0.019168124 0.31100002 -1.7056387e+38
0.089547433 0.019168124 0.31100002 -1.7056908e+38
0.09034051 0.019229759 0.31200001 -1.7056387e+38
0.091350801 0.019229759 0.31200001 -1.7056387e+38
0.09215036 0.019291392 0.31300002 -1.7056908e+38
0.092657126 0.019291392 0.31300002 -1.7056387e+38
0.093163893 0.019291392 0.31300002 -1.7056908e+38
0.093670659 0.019291392 0.31300002 -1.7056908e+38
0.0949867 0.019353027 0.31400001 -1.7056387e+38
0.095495082 0.019353027 0.31400001 -1.7056908e+38
0.096003465 0.019353027 0.31400001 -1.7056908e+38
0.096511848 0.019353027 0.31400001 -1.7056908e+38
0.097839221 0.019414661 0.31500003 -1.7057429e+38
0.098349229 0.019414661 0.31500003 -1.7057429e+38
0.098859228 0.019414661 0.31500003 -1.7057429e+38
0.099684693 0.019476295 0.31600001 -1.7056908e+38
0.10070794 0.019476295 0.31600001 -1.7057429e+38
0.10121956 0.019476295 0.31600001 -1.7057429e+38
0.10205312 0.019537928 0.317 -1.7057429e+38
0.10256636 0.019537928 0.317 -1.7057429e+38
0.10359284 0.019537928 0.317 -1.7190873e+38
0.10410608 0.019537928 0.317 -1.7190873e+38
0.10461933 0.019537928 0.317 -1.7324313e+38
0.10513257 0.019537928 0.317 -1.7591202e+38
0.10649395 0.019599561 0.31800002 -1.758964e+38
0.10700881 0.019599561 0.31800002 -1.8916783e+38
0.10752367 0.019599561 0.31800002 -1.9183671e+38
0.072696507 0.019608399 0.31 -2.1721708e+38
0.073224835 0.019481894 0.30800003 -1.9992144e+38
0.07372351 0.019481894 0.30800003 -1.8795326e+38
0.073981196 0.01941864 0.30700001 -1.8528438e+38
0.074975304 0.01941864 0.30700001 -1.7597463e+38
0.075226516 0.019355388 0.30600002 -1.7065774e+38
0.075721949 0.019355388 0.30600002 -1.7065774e+38
0.07671281 0.019355388 0.30600002 -1.706421e+38
0.076955929 0.019292135 0.30500001 -1.7062648e+38
0.077449746 0.019292135 0.30500001 -1.7062127e+38
0.078437373 0.019292135 0.30500001 -1.7060038e+38
0.079189979 0.019355388 0.30600002 -1.7058995e+38
0.079685405 0.019355388 0.30600002 -1.7058995e+38
0.080442868 0.01941864 0.30700001 -1.7056912e+38
0.081203565 0.019481894 0.30800003 -1.7056912e+38
0.08170224 0.019481894 0.30800003 -1.7056912e+38
0.082699582 0.019481894 0.30800003 -1.7056912e+38
0.083468378 0.019545147 0.30900002 -1.7056912e+38
0.083968662 0.019545147 0.30900002 -1.7056912e+38
0.084468953 0.019545147 0.30900002 -1.7056912e+38
0.085469536 0.019545147 0.30900002 -1.7056912e+38
0.08624804 0.019608399 0.31 -1.7056912e+38
0.086749949 0.019608399 0.31 -1.7056912e+38
0.087533318 0.019671652 0.31100002 -1.7056912e+38
0.088540375 0.019671652 0.31100002 -1.7056906e+38
0.0890439 0.019671652 0.31100002 -1.7057427e+38
0.089547433 0.019671652 0.31100002 -1.7056912e+38
0.09034051 0.019734906 0.31200001 -1.7056912e+38
0.091350801 0.019734906 0.31200001 -1.7056391e+38
0.09215036 0.019798158 0.31300002 -1.7056393e+38
0.092657126 0.019798158 0.31300002 -1.7056393e+38
0.093163893 0.019798158 0.31300002 -1.7056908e+38
0.093670659 0.019798158 0.31300002 -1.7056908e+38
0.0949867 0.019861411 0.31400001 -1.7056908e+38
0.095495082 0.019861411 0.31400001 -1.7057429e+38
0.096003465 0.019861411 0.31400001 -1.7057429e+38
0.096511848 0.019861411 0.31400001 -1.7056908e+38
0.097528622 0.019861411 0.31400001 -1.7057429e+38
0.098349229 0.019924665 0.31500003 -1.7057429e+38
0.098859228 0.019924665 0.31500003 -1.7057429e+38
0.099684693 0.019987917 0.31600001 -1.7057429e+38
0.10070794 0.019987917 0.31600001 -1.7057429e+38
0.10121956 0.019987917 0.31600001 -1.7057429e+38
0.10173118 0.019987917 0.31600001 -1.7057951e+38
0.10224281 0.019987917 0.31600001 -1.7057429e+38
0.10359284 0.02005117 0.317 -1.7324313e+38
0.10410608 0.02005117 0.317 -1.7324313e+38
0.10461933 0.02005117 0.317 -1.8255298e+38
0.10513257 0.02005117 0.317 -1.8255298e+38
0.10615905 0.02005117 0.317 -1.9449519e+38
0.072696507 0.020612217 0.31 -2.198755e+38
0.073224835 0.020479236 0.30800003 -1.9991629e+38
0.07372351 0.020479236 0.30800003 -1.8529999e+38
0.073981196 0.020412743 0.30700001 -1.8263111e+38
0.074975304 0.020412743 0.30700001 -1.7332136e+38
0.075472355 0.020412743 0.30700001 -1.7065774e+38
0.075721949 0.020346252 0.30600002 -1.7065774e+38
0.07671281 0.020346252 0.30600002 -1.7064214e+38
0.076955929 0.020279763 0.30500001 -1.7063167e+38
0.077449746 0.020279763 0.30500001 -1.7062646e+38
0.078199111 0.020346252 0.30600002 -1.706108e+38
0.079448767 0.020412743 0.30700001 -1.7058997e+38
0.079945818 0.020412743 0.30700001 -1.7058476e+38
0.080704898 0.020479236 0.30800003 -1.7056912e+38
0.081203565 0.020479236 0.30800003 -1.7056912e+38
0.08170224 0.020479236 0.30800003 -1.7056912e+38
0.082968086 0.020545727 0.30900002 -1.7057427e+38
0.083468378 0.020545727 0.30900002 -1.7057427e+38
0.083968662 0.020545727 0.30900002 -1.7057427e+38
0.084742315 0.020612217 0.31 -1.7057427e+38
0.085746132 0.020612217 0.31 -1.7057427e+38
0.08624804 0.020612217 0.31 -1.7057427e+38
0.086749949 0.020612217 0.31 -1.7057427e+38
0.087533318 0.020678708 0.31100002 -1.7057427e+38
0.088540375 0.020678708 0.31100002 -1.7057427e+38
0.0890439 0.020678708 0.31100002 -1.7057427e+38
0.089547433 0.020678708 0.31100002 -1.7056912e+38
0.09034051 0.020745199 0.31200001 -1.7056912e+38
0.091350801 0.020745199 0.31200001 -1.7056391e+38
0.09215036 0.02081169 0.31300002 -1.7057433e+38
0.092657126 0.02081169 0.31300002 -1.7056912e+38
0.093163893 0.02081169 0.31300002 -1.7057433e+38
0.093670659 0.02081169 0.31300002 -1.7056912e+38
0.094684191 0.02081169 0.31300002 -1.7056912e+38
0.095495082 0.020878181 0.31400001 -1.7057955e+38
0.096003465 0.020878181 0.31400001 -1.7057433e+38
0.096511848 0.020878181 0.31400001 -1.7057427e+38
0.097528622 0.020878181 0.31400001 -1.7057949e+38
0.098349229 0.020944674 0.31500003 -1.705847e+38
0.098859228 0.020944674 0.31500003 -1.7057951e+38
0.099369235 0.020944674 0.31500003 -1.7057951e+38
0.10038924 0.020944674 0.31500003 -1.7057951e+38
0.10121956 0.021011164 0.31600001 -1.7324318e+38
0.10173118 0.021011164 0.31600001 -1.7324318e+38
0.10224281 0.021011164 0.31600001 -1.8918872e+38
0.10326605 0.021011164 0.31600001 -2.1042501e+38
0.10377768 0.021011164 0.31600001 -2.4912379e+38
0.072696507 0.021114126 0.31 -2.238528e+38
0.072962292 0.021046016 0.30900002 -2.0525405e+38
0.073962867 0.021046016 0.30900002 -1.8529999e+38
0.074222177 0.020977907 0.30800003 -1.8129667e+38
0.074975304 0.020909796 0.30700001 -1.7332136e+38
0.075472355 0.020909796 0.30700001 -1.7066293e+38
0.075969405 0.020909796 0.30700001 -1.7066293e+38
0.076466456 0.020909796 0.30700001 -1.7065776e+38
0.077460557 0.020909796 0.30700001 -1.7063167e+38
0.077957608 0.020909796 0.30700001 -1.7062646e+38
0.078454666 0.020909796 0.30700001 -1.7060565e+38
0.079448767 0.020909796 0.30700001 -1.7058997e+38
0.08020623 0.020977907 0.30800003 -1.7058476e+38
0.080704898 0.020977907 0.30800003 -1.7056912e+38
0.081203565 0.020977907 0.30800003 -1.7056912e+38
0.081967503 0.021046016 0.30900002 -1.7056912e+38
0.082968086 0.021046016 0.30900002 -1.7056912e+38
0.083468378 0.021046016 0.30900002 -1.7056912e+38
0.083968662 0.021046016 0.30900002 -1.7057427e+38
0.084742315 0.021114126 0.31 -1.7057427e+38
0.085746132 0.021114126 0.31 -1.7057427e+38
0.08624804 0.021114126 0.31 -1.7057427e+38
0.086749949 0.021114126 0.31 -1.7057427e+38
0.087533318 0.021182235 0.31100002 -1.7057427e+38
0.088540375 0.021182235 0.31100002 -1.7057427e+38
0.0890439 0.021182235 0.31100002 -1.7057949e+38
0.089835361 0.021250347 0.31200001 -1.7056912e+38
0.09034051 0.021250347 0.31200001 -1.7056912e+38
0.091350801 0.021250347 0.31200001 -1.7056912e+38
0.091855951 0.021250347 0.31200001 -1.7057433e+38
0.092657126 0.021318456 0.31300002 -1.7057433e+38
0.093163893 0.021318456 0.31300002 -1.7057433e+38
0.093670659 0.021318456 0.31300002 -1.7057433e+38
0.094684191 0.021318456 0.31300002 -1.7056912e+38
0.095190957 0.021318456 0.31300002 -1.7057955e+38
0.095697723 0.021318456 0.31300002 -1.7057433e+38
0.096511848 0.021386566 0.31400001 -1.7057433e+38
0.097528622 0.021386566 0.31400001 -1.705847e+38
0.098037004 0.021386566 0.31400001 -1.705847e+38
0.098545395 0.021386566 0.31400001 -1.7191395e+38
0.099369235 0.021454677 0.31500003 -1.7191395e+38
0.10038924 0.021454677 0.31500003 -1.7591202e+38
0.10089925 0.021454677 0.31500003 -1.9185229e+38
0.10140925 0.021454677 0.31500003 -1.8651452e+38
0.072696507 0.021616034 0.31 -2.3049366e+38
0.073198415 0.021616034 0.31 -2.0260083e+38
0.073962867 0.021546306 0.30900002 -1.8529999e+38
0.074463159 0.021546306 0.30900002 -1.8129667e+38
0.074720852 0.021476576 0.30800003 -1.7199733e+38
0.075718194 0.021476576 0.30800003 -1.7066297e+38
0.076216862 0.021476576 0.30800003 -1.7066297e+38
0.076715529 0.021476576 0.30800003 -1.7065776e+38
0.077712871 0.021476576 0.30800003 -1.7063167e+38
0.078211546 0.021476576 0.30800003 -1.7062646e+38
0.078710213 0.021476576 0.30800003 -1.7060565e+38
0.079208888 0.021476576 0.30800003 -1.7059523e+38
0.08020623 0.021476576 0.30800003 -1.7058476e+38
0.080704898 0.021476576 0.30800003 -1.7056916e+38
0.081467219 0.021546306 0.30900002 -1.7056916e+38
0.081967503 0.021546306 0.30900002 -1.7056912e+38
0.082968086 0.021546306 0.30900002 -1.7056912e+38
0.083468378 0.021546306 0.30900002 -1.7057433e+38
0.083968662 0.021546306 0.30900002 -1.7057949e+38
0.084742315 0.021616034 0.31 -1.7057427e+38
0.085746132 0.021616034 0.31 -1.7057427e+38
0.08624804 0.021616034 0.31 -1.7057427e+38
0.086749949 0.021616034 0.31 -1.7057427e+38
0.087533318 0.021685762 0.31100002 -1.7057427e+38
0.088540375 0.021685762 0.31100002 -1.7057949e+38
0.0890439 0.021685762 0.31100002 -1.7057949e+38
0.089835361 0.021755494 0.31200001 -1.7057433e+38
0.09034051 0.021755494 0.31200001 -1.7057433e+38
0.091350801 0.021755494 0.31200001 -1.7057433e+38
0.091855951 0.021755494 0.31200001 -1.7057433e+38
0.0923611 0.021755494 0.31200001 -1.7057433e+38
0.093163893 0.021825222 0.31300002 -1.7057955e+38
0.093670659 0.021825222 0.31300002 -1.7057955e+38
0.094684191 0.021825222 0.31300002 -1.7057433e+38
0.095190957 0.021825222 0.31300002 -1.7057955e+38
0.095697723 0.021825222 0.31300002 -1.7057955e+38
0.096711256 0.021825222 0.31300002 -1.7058476e+38
0.097218022 0.021825222 0.31300002 -1.7057951e+38
0.098037004 0.02189495 0.31400001 -1.7191395e+38
0.098545395 0.02189495 0.31400001 -1.7856528e+38
0.099562161 0.02189495 0.31400001 -1.9314509e+38
0.10007054 0.02189495 0.31400001 -1.9848285e+38
0.072696507 0.022619853 0.31 -2.3842729e+38
0.073198415 0.022619853 0.31 -2.0126639e+38
0.073962867 0.022546886 0.30900002 -1.7732465e+38
0.074463159 0.022546886 0.30900002 -1.7332132e+38
0.074720852 0.022473918 0.30800003 -1.7066818e+38
0.075718194 0.022473918 0.30800003 -1.7066297e+38
0.076216862 0.022473918 0.30800003 -1.7064733e+38
0.076715529 0.022473918 0.30800003 -1.7065776e+38
0.077712871 0.022473918 0.30800003 -1.7062127e+38
0.078211546 0.022473918 0.30800003 -1.7061606e+38
0.078710213 0.022473918 0.30800003 -1.7060565e+38
0.079208888 0.022473918 0.30800003 -1.7059001e+38
0.08020623 0.022473918 0.30800003 -1.7058476e+38
0.080966927 0.022546886 0.30900002 -1.7057957e+38
0.081467219 0.022546886 0.30900002 -1.7057435e+38
0.081967503 0.022546886 0.30900002 -1.7056916e+38
0.082968086 0.022546886 0.30900002 -1.7056912e+38
0.083468378 0.022546886 0.30900002 -1.7056912e+38
0.083968662 0.022546886 0.30900002 -1.7057433e+38
0.084742315 0.022619853 0.31 -1.7056912e+38
0.085746132 0.022619853 0.31 -1.7057427e+38
0.08624804 0.022619853 0.31 -1.7057427e+38
0.086749949 0.022619853 0.31 -1.7057427e+38
0.087533318 0.022692818 0.31100002 -1.7057433e+38
0.088540375 0.022692818 0.31100002 -1.7057433e+38
0.0890439 0.022692818 0.31100002 -1.7057433e+38
0.089835361 0.022765787 0.31200001 -1.7057438e+38
0.09034051 0.022765787 0.31200001 -1.7056916e+38
0.091350801 0.022765787 0.31200001 -1.7057433e+38
0.091855951 0.022765787 0.31200001 -1.7057955e+38
0.0923611 0.022765787 0.31200001 -1.7057955e+38
0.092866242 0.022765787 0.31200001 -1.7057955e+38
0.093670659 0.022838755 0.31300002 -1.7057955e+38
0.094684191 0.022838755 0.31300002 -1.7057955e+38
0.095190957 0.022838755 0.31300002 -1.719088e+38
0.095697723 0.022838755 0.31300002 -1.7724656e+38
0.096711256 0.022838755 0.31300002 -1.8785432e+38
0.097218022 0.022838755 0.31300002 -2.3443967e+38
0.072962292 0.023047175 0.30900002 -2.0126635e+38
0.073962867 0.023047175 0.30900002 -1.7732465e+38
0.074463159 0.023047175 0.30900002 -1.7332132e+38
0.074720852 0.022972589 0.30800003 -1.7066818e+38
0.075718194 0.022972589 0.30800003 -1.7066297e+38
0.076216862 0.022972589 0.30800003 -1.7064733e+38
0.076715529 0.022972589 0.30800003 -1.7064733e+38
0.077712871 0.022972589 0.30800003 -1.7062127e+38
0.078211546 0.022972589 0.30800003 -1.7061606e+38
0.078710213 0.022972589 0.30800003 -1.7060038e+38
0.079208888 0.022972589 0.30800003 -1.7059516e+38
