# .PCD v0.7 - Point Cloud Data file format
VERSION 0.7
FIELDS x y z rgb
SIZE 4 4 4 4
TYPE F F F F
COUNT 1 1 1 1
WIDTH 976
HEIGHT 1
VIEWPOINT 0 0 0 1 0 0 0
POINTS 976
DATA ascii
0.092757963 0.0069467989 0.30500001 -1.7055866e+38
0.09325178 0.0069467989 0.30500001 -1.7056387e+38
0.094052956 0.0069695748 0.30600002 -1.7056387e+38
0.095043816 0.0069695748 0.30600002 -1.7055866e+38
0.095851474 0.0069923517 0.30700001 -1.7055866e+38
0.096348524 0.0069923517 0.30700001 -1.7055866e+38
0.097161032 0.0070151277 0.30800003 -1.7054823e+38
0.098158374 0.0070151277 0.30800003 -1.7054823e+38
0.098977357 0.0070379041 0.30900002 -1.7054823e+38
0.099799581 0.0070606801 0.31 -1.7055866e+38
0.10062505 0.007083457 0.31100002 -1.7055866e+38
0.10145374 0.0071062339 0.31200001 -1.7056387e+38
0.10195889 0.0071062339 0.31200001 -1.7055858e+38
0.10296918 0.0071062339 0.31200001 -1.7056379e+38
0.10347433 0.0071062339 0.31200001 -1.7055858e+38
0.10397948 0.0071062339 0.31200001 -1.7056379e+38
0.10448463 0.0071062339 0.31200001 -1.70569e+38
0.10549492 0.0071062339 0.31200001 -1.7057421e+38
0.10633981 0.0071290098 0.31300002 -1.7189304e+38
0.10684658 0.0071290098 0.31300002 -1.7189304e+38
0.10769633 0.0071517862 0.31400001 -1.7588074e+38
0.10889392 0.0071973391 0.31600001 -1.7588074e+38
0.11906531 0.0075845374 0.333 -1.7854433e+38
0.11960446 0.0075845374 0.333 -1.8253203e+38
0.12032034 0.0075617614 0.33200002 -1.9450551e+38
0.12085786 0.0075617614 0.33200002 -1.9583995e+38
0.070609659 0.0072454484 0.29700002 -2.025747e+38
0.071330406 0.0072210524 0.296 -1.9991629e+38
0.071567044 0.0071966578 0.29500002 -1.9726302e+38
0.071800448 0.0071722618 0.294 -1.932597e+38
0.072752453 0.0071722618 0.294 -1.8527397e+38
0.073477536 0.0071966578 0.29500002 -1.7332136e+38
0.073955163 0.0071966578 0.29500002 -1.7198692e+38
0.074432783 0.0071966578 0.29500002 -1.7065252e+38
0.075643584 0.0072210524 0.296 -1.7065252e+38
0.07612282 0.0072210524 0.296 -1.706421e+38
0.076602064 0.0072210524 0.296 -1.7063689e+38
0.077081308 0.0072210524 0.296 -1.7062646e+38
0.078039788 0.0072210524 0.296 -1.7059005e+38
0.078519031 0.0072210524 0.296 -1.7058476e+38
0.079265162 0.0072454484 0.29700002 -1.7057955e+38
0.079746023 0.0072454484 0.29700002 -1.7056391e+38
0.080497004 0.0072698444 0.29800001 -1.7056912e+38
0.081735328 0.007294239 0.29900002 -1.705535e+38
0.082219429 0.007294239 0.29900002 -1.7055872e+38
0.082980126 0.007318635 0.30000001 -1.7055872e+38
0.083465844 0.007318635 0.30000001 -1.7055872e+38
0.084437281 0.007318635 0.30000001 -1.7056393e+38
0.084922999 0.007318635 0.30000001 -1.7055872e+38
0.085693412 0.0073430301 0.30100003 -1.7056387e+38
0.086180754 0.0073430301 0.30100003 -1.7056387e+38
0.086668089 0.0073430301 0.30100003 -1.7056387e+38
0.087642759 0.0073430301 0.30100003 -1.7056387e+38
0.088422894 0.0073674256 0.30200002 -1.7056387e+38
0.088911854 0.0073674256 0.30200002 -1.7056387e+38
0.089696839 0.0073918207 0.303 -1.7056387e+38
0.090677992 0.0073918207 0.303 -1.7056908e+38
0.091469452 0.0074162167 0.30400002 -1.7056387e+38
0.092264153 0.0074406127 0.30500001 -1.7056387e+38
0.092757963 0.0074406127 0.30500001 -1.7055866e+38
0.093557522 0.0074650072 0.30600002 -1.7056387e+38
0.094360314 0.0074894032 0.30700001 -1.7056387e+38
0.095354415 0.0074894032 0.30700001 -1.7055866e+38
0.095851474 0.0074894032 0.30700001 -1.7055866e+38
0.096662357 0.0075137983 0.30800003 -1.7055866e+38
0.097161032 0.0075137983 0.30800003 -1.7054823e+38
0.097976781 0.0075381938 0.30900002 -1.7055866e+38
0.099297673 0.0075625889 0.31 -1.7055866e+38
0.10012151 0.0075869849 0.31100002 -1.7056387e+38
0.10062505 0.0075869849 0.31100002 -1.7055866e+38
0.10145374 0.0076113804 0.31200001 -1.7056387e+38
0.10195889 0.0076113804 0.31200001 -1.7055858e+38
0.10296918 0.0076113804 0.31200001 -1.7056379e+38
0.10347433 0.0076113804 0.31200001 -1.7056379e+38
0.10397948 0.0076113804 0.31200001 -1.70569e+38
0.10448463 0.0076113804 0.31200001 -1.70569e+38
0.10549492 0.0076113804 0.31200001 -1.7057421e+38
0.10600007 0.0076113804 0.31200001 -1.7189304e+38
0.10684658 0.0076357755 0.31300002 -1.7322748e+38
0.10769633 0.0076601715 0.31400001 -1.745463e+38
0.10889392 0.0077089621 0.31600001 -1.7588074e+38
0.11835021 0.0080748936 0.33100003 -1.7854437e+38
0.11942203 0.0080748936 0.33100003 -1.8254769e+38
0.11995793 0.0080748936 0.33100003 -1.9716399e+38
0.12049384 0.0080748936 0.33100003 -1.9849843e+38
0.070847407 0.0077523245 0.29800001 -2.025747e+38
0.071090519 0.0077263094 0.29700002 -1.9859746e+38
0.071809642 0.0077002947 0.296 -1.9726302e+38
0.072044671 0.0076742806 0.29500002 -1.932597e+38
0.072999917 0.0076742806 0.29500002 -1.8394993e+38
0.073477536 0.0076742806 0.29500002 -1.7332136e+38
0.074205853 0.0077002947 0.296 -1.7198692e+38
0.074685097 0.0077002947 0.296 -1.7065252e+38
0.075643584 0.0077002947 0.296 -1.7065252e+38
0.07612282 0.0077002947 0.296 -1.7063689e+38
0.076602064 0.0077002947 0.296 -1.7063167e+38
0.077081308 0.0077002947 0.296 -1.7062646e+38
0.078039788 0.0077002947 0.296 -1.7059001e+38
0.078784302 0.0077263094 0.29700002 -1.7058476e+38
0.079265162 0.0077263094 0.29700002 -1.7057955e+38
0.080014527 0.0077523245 0.29800001 -1.7056391e+38
0.080497004 0.0077523245 0.29800001 -1.7056391e+38
0.081735328 0.0077783382 0.29900002 -1.7055872e+38
0.082494408 0.0078043533 0.30000001 -1.7055872e+38
0.082980126 0.0078043533 0.30000001 -1.7055872e+38
0.083465844 0.0078043533 0.30000001 -1.7055872e+38
0.084437281 0.0078043533 0.30000001 -1.7056393e+38
0.085206077 0.0078303674 0.30100003 -1.7055872e+38
0.085693412 0.0078303674 0.30100003 -1.7056393e+38
0.086180754 0.0078303674 0.30100003 -1.7056393e+38
0.086956032 0.0078563821 0.30200002 -1.7056387e+38
0.087933943 0.0078563821 0.30200002 -1.7056387e+38
0.088422894 0.0078563821 0.30200002 -1.7056387e+38
0.089206263 0.0078823958 0.303 -1.7056387e+38
0.089696839 0.0078823958 0.303 -1.7056387e+38
0.090485059 0.0079084113 0.30400002 -1.7056387e+38
0.091276526 0.007934426 0.30500001 -1.7056908e+38
0.092566654 0.0079604397 0.30600002 -1.7055866e+38
0.093062088 0.0079604397 0.30600002 -1.7055866e+38
0.093863264 0.0079864552 0.30700001 -1.7056387e+38
0.094360314 0.0079864552 0.30700001 -1.7055866e+38
0.095354415 0.0079864552 0.30700001 -1.7055866e+38
0.09616369 0.0080124689 0.30800003 -1.7055866e+38
0.096662357 0.0080124689 0.30800003 -1.7055866e+38
0.09747649 0.0080384836 0.30900002 -1.7055866e+38
0.098293856 0.0080644982 0.31 -1.7055866e+38
0.099297673 0.0080644982 0.31 -1.7055866e+38
0.10012151 0.0080905128 0.31100002 -1.7056387e+38
0.10094859 0.0081165275 0.31200001 -1.7056387e+38
0.10145374 0.0081165275 0.31200001 -1.7056908e+38
0.10195889 0.0081165275 0.31200001 -1.7056379e+38
0.10296918 0.0081165275 0.31200001 -1.7056379e+38
0.10347433 0.0081165275 0.31200001 -1.7056379e+38
0.10397948 0.0081165275 0.31200001 -1.70569e+38
0.10448463 0.0081165275 0.31200001 -1.70569e+38
0.10549492 0.0081165275 0.31200001 -1.7322748e+38
0.10633981 0.0081425412 0.31300002 -1.745463e+38
0.10684658 0.0081425412 0.31300002 -1.7588074e+38
0.10769633 0.0081685567 0.31400001 -1.745463e+38
0.11710241 0.0085587734 0.32900003 -1.7853922e+38
0.11799265 0.008584789 0.33000001 -1.7853922e+38
0.11906122 0.008584789 0.33000001 -1.8388213e+38
0.11959551 0.008584789 0.33000001 -2.0247573e+38
0.1201298 0.008584789 0.33000001 -2.1181681e+38
0.071085148 0.0087465364 0.29900002 -2.025747e+38
0.071329884 0.0087172845 0.29800001 -1.9726302e+38
0.072052248 0.0086880317 0.29700002 -1.9593384e+38
0.072288886 0.0086587779 0.296 -1.9193052e+38
0.072768129 0.0086587779 0.296 -1.8263111e+38
0.073726609 0.0086587779 0.296 -1.7198692e+38
0.074205853 0.0086587779 0.296 -1.7332136e+38
0.074685097 0.0086587779 0.296 -1.7065774e+38
0.075418271 0.0086880317 0.29700002 -1.7065252e+38
0.076379992 0.0086880317 0.29700002 -1.7063689e+38
0.076860853 0.0086880317 0.29700002 -1.7062652e+38
0.077341713 0.0086880317 0.29700002 -1.706161e+38
0.077822581 0.0086880317 0.29700002 -1.7059523e+38
0.078784302 0.0086880317 0.29700002 -1.7057957e+38
0.079265162 0.0086880317 0.29700002 -1.7057435e+38
0.080014527 0.0087172845 0.29800001 -1.7056916e+38
0.080767132 0.0087465364 0.29900002 -1.7056916e+38
0.081735328 0.0087465364 0.29900002 -1.7056395e+38
0.082494408 0.0087757893 0.30000001 -1.7055872e+38
0.082980126 0.0087757893 0.30000001 -1.7055872e+38
0.083465844 0.0087757893 0.30000001 -1.705535e+38
0.084231399 0.0088050421 0.30100003 -1.7055872e+38
0.085206077 0.0088050421 0.30100003 -1.7055872e+38
0.085693412 0.0088050421 0.30100003 -1.7055872e+38
0.086180754 0.0088050421 0.30100003 -1.7056393e+38
0.086956032 0.008834295 0.30200002 -1.7056393e+38
0.087933943 0.008834295 0.30200002 -1.7055872e+38
0.088715687 0.0088635469 0.303 -1.7055872e+38
0.089500673 0.0088927997 0.30400002 -1.7055872e+38
0.089992866 0.0088927997 0.30400002 -1.7055872e+38
0.090782709 0.0089220526 0.30500001 -1.7056908e+38
0.091575786 0.0089513054 0.30600002 -1.7056908e+38
0.092566654 0.0089513054 0.30600002 -1.7055866e+38
0.093366213 0.0089805583 0.30700001 -1.7055866e+38
0.093863264 0.0089805583 0.30700001 -1.7056387e+38
0.094667681 0.0090098102 0.30800003 -1.7055866e+38
0.095166348 0.0090098102 0.30800003 -1.7055866e+38
0.09616369 0.0090098102 0.30800003 -1.7055866e+38
0.096976198 0.009039063 0.30900002 -1.7055866e+38
0.09747649 0.009039063 0.30900002 -1.7056387e+38
0.098293856 0.0090683149 0.31 -1.7055866e+38
0.099114463 0.0090975687 0.31100002 -1.7055866e+38
0.099938303 0.0091268215 0.31200001 -1.7055866e+38
0.10094859 0.0091268215 0.31200001 -1.7055866e+38
0.10177892 0.0091560734 0.31300002 -1.7056387e+38
0.10228568 0.0091560734 0.31300002 -1.7056383e+38
0.10279245 0.0091560734 0.31300002 -1.7056383e+38
0.10380598 0.0091560734 0.31300002 -1.7056383e+38
0.10431275 0.0091560734 0.31300002 -1.7056383e+38
0.10481951 0.0091560734 0.31300002 -1.7056904e+38
0.10583305 0.0091560734 0.31300002 -1.70569e+38
0.10633981 0.0091560734 0.31300002 -1.7189304e+38
0.10718794 0.0091853263 0.31400001 -1.7189304e+38
0.1080393 0.0092145782 0.31500003 -1.7189304e+38
0.11200419 0.0094193472 0.32200003 -1.7322748e+38
0.11322445 0.0094778519 0.324 -1.7456192e+38
0.11410009 0.0095071057 0.32500002 -1.7322748e+38
0.11497899 0.0095363576 0.32600001 -1.7721518e+38
0.11621544 0.0095948623 0.32800001 -1.7721518e+38
0.11674649 0.0095948623 0.32800001 -1.7854962e+38
0.11780859 0.0095948623 0.32800001 -1.8122365e+38
0.11870043 0.0096241152 0.32900003 -1.8389254e+38
0.1192331 0.0096241152 0.32900003 -2.1310945e+38
0.11976577 0.0096241152 0.32900003 -2.5581155e+38
0.071085148 0.0092306361 0.29900002 -2.025747e+38
0.071329884 0.0091997646 0.29800001 -1.9592858e+38
0.072052248 0.0091688922 0.29700002 -1.9593384e+38
0.072288886 0.0091380207 0.296 -1.9193052e+38
0.072768129 0.0091380207 0.296 -1.8129152e+38
0.073726609 0.0091380207 0.296 -1.7066289e+38
0.07445655 0.0091688922 0.29700002 -1.7066289e+38
0.074937411 0.0091688922 0.29700002 -1.7065774e+38
0.075418271 0.0091688922 0.29700002 -1.7065252e+38
0.076379992 0.0091688922 0.29700002 -1.7063689e+38
0.076860853 0.0091688922 0.29700002 -1.7062131e+38
0.077341713 0.0091688922 0.29700002 -1.706161e+38
0.077822581 0.0091688922 0.29700002 -1.7059523e+38
0.078784302 0.0091688922 0.29700002 -1.7057957e+38
0.07953205 0.0091997646 0.29800001 -1.7057435e+38
0.080283031 0.0092306361 0.29900002 -1.7056916e+38
0.080767132 0.0092306361 0.29900002 -1.7056916e+38
0.081522971 0.0092615075 0.30000001 -1.7055876e+38
0.082494408 0.0092615075 0.30000001 -1.7056393e+38
0.082980126 0.0092615075 0.30000001 -1.7055872e+38
0.083465844 0.0092615075 0.30000001 -1.7055872e+38
0.084231399 0.009292379 0.30100003 -1.7055872e+38
0.085206077 0.009292379 0.30100003 -1.7055872e+38
0.085693412 0.009292379 0.30100003 -1.7055872e+38
0.086467072 0.0093232505 0.30200002 -1.7056393e+38
0.086956032 0.0093232505 0.30200002 -1.7056393e+38
0.087734535 0.009354122 0.303 -1.7055872e+38
0.08900848 0.0093849944 0.30400002 -1.7055872e+38
0.089500673 0.0093849944 0.30400002 -1.7055872e+38
0.0902889 0.0094158659 0.30500001 -1.7055872e+38
0.09108036 0.0094467374 0.30600002 -1.7056387e+38
0.091575786 0.0094467374 0.30600002 -1.7056387e+38
0.092372112 0.0094776098 0.30700001 -1.7056387e+38
0.093366213 0.0094776098 0.30700001 -1.7055866e+38
0.094169006 0.0095084812 0.30800003 -1.7056387e+38
0.094667681 0.0095084812 0.30800003 -1.7056387e+38
0.095166348 0.0095084812 0.30800003 -1.7055866e+38
0.096475907 0.0095393527 0.30900002 -1.7056387e+38
0.096976198 0.0095393527 0.30900002 -1.7055866e+38
0.097791947 0.0095702242 0.31 -1.7056387e+38
0.098293856 0.0095702242 0.31 -1.7055866e+38
0.099114463 0.0096010957 0.31100002 -1.7055866e+38
0.099938303 0.0096319681 0.31200001 -1.7055866e+38
0.10127215 0.0096628396 0.31300002 -1.7055866e+38
0.10177892 0.0096628396 0.31300002 -1.7056387e+38
0.10228568 0.0096628396 0.31300002 -1.7056383e+38
0.10279245 0.0096628396 0.31300002 -1.7056383e+38
0.10380598 0.0096628396 0.31300002 -1.7056383e+38
0.10431275 0.0096628396 0.31300002 -1.7056383e+38
0.10481951 0.0096628396 0.31300002 -1.7056383e+38
0.10566279 0.0096937111 0.31400001 -1.70569e+38
0.10667956 0.0096937111 0.31400001 -1.7189304e+38
0.1075293 0.0097245825 0.31500003 -1.7189304e+38
0.11113663 0.0099098133 0.32100001 -1.7322748e+38
0.11200419 0.0099406848 0.32200003 -1.7322748e+38
0.11322445 0.010002428 0.324 -1.7456192e+38
0.11410009 0.0100333 0.32500002 -1.7322748e+38
0.11497899 0.010064171 0.32600001 -1.7721518e+38
0.11586111 0.010095043 0.32700002 -1.7721518e+38
0.11691998 0.010095043 0.32700002 -1.8122365e+38
0.11780859 0.010125915 0.32800001 -1.8388213e+38
0.11833964 0.010125915 0.32800001 -1.8655101e+38
0.1188707 0.010125915 0.32800001 -2.1575746e+38
0.070351452 0.0097472258 0.30000001 -2.092104e+38
0.071085148 0.0097147347 0.29900002 -2.025747e+38
0.071569249 0.0097147347 0.29900002 -1.9592858e+38
0.072052248 0.0096497536 0.29700002 -1.9593384e+38
0.072533108 0.0096497536 0.29700002 -1.9193052e+38
0.073013969 0.0096497536 0.29700002 -1.8129152e+38
0.07397569 0.0096497536 0.29700002 -1.7066289e+38
0.07445655 0.0096497536 0.29700002 -1.7066289e+38
0.074937411 0.0096497536 0.29700002 -1.7065774e+38
0.075672202 0.0096822446 0.29800001 -1.7065252e+38
0.076154687 0.0096822446 0.29800001 -1.706421e+38
0.077119648 0.0096822446 0.29800001 -1.7062127e+38
0.077602126 0.0096822446 0.29800001 -1.7061084e+38
0.078084603 0.0096822446 0.29800001 -1.7059523e+38
0.078830734 0.0097147347 0.29900002 -1.705848e+38
0.079798929 0.0097147347 0.29900002 -1.7057435e+38
0.080283031 0.0097147347 0.29900002 -1.7056916e+38
0.081037253 0.0097472258 0.30000001 -1.7056916e+38
0.081522971 0.0097472258 0.30000001 -1.7056395e+38
0.082494408 0.0097472258 0.30000001 -1.7056916e+38
0.083256729 0.0097797159 0.30100003 -1.7056395e+38
0.083744064 0.0097797159 0.30100003 -1.7055872e+38
0.084231399 0.0097797159 0.30100003 -1.7056393e+38
0.085206077 0.0097797159 0.30100003 -1.7055872e+38
0.085978113 0.009812207 0.30200002 -1.7056393e+38
0.086753383 0.0098446971 0.303 -1.7056393e+38
0.087243959 0.0098446971 0.303 -1.7056393e+38
0.088024087 0.0098771891 0.30400002 -1.7055872e+38
0.08900848 0.0098771891 0.30400002 -1.7055872e+38
0.089795083 0.0099096801 0.30500001 -1.7055872e+38
0.0902889 0.0099096801 0.30500001 -1.7055872e+38
0.091378003 0.0099746613 0.30700001 -1.7056387e+38
0.091875054 0.0099746613 0.30700001 -1.7056387e+38
0.092672996 0.010007151 0.30800003 -1.7056387e+38
0.093670338 0.010007151 0.30800003 -1.7056387e+38
0.094169006 0.010007151 0.30800003 -1.7056387e+38
0.094667681 0.010007151 0.30800003 -1.7056387e+38
0.095475331 0.010039642 0.30900002 -1.7056387e+38
0.096475907 0.010039642 0.30900002 -1.7056387e+38
0.096976198 0.010039642 0.30900002 -1.7055866e+38
0.097791947 0.010072133 0.31 -1.7055866e+38
0.09861093 0.010104624 0.31100002 -1.7055866e+38
0.099433154 0.010137115 0.31200001 -1.7054823e+38
0.10025862 0.010169606 0.31300002 -1.7055866e+38
0.10127215 0.010169606 0.31300002 -1.7055866e+38
0.10177892 0.010169606 0.31300002 -1.7056387e+38
0.10228568 0.010169606 0.31300002 -1.7056383e+38
0.10279245 0.010169606 0.31300002 -1.7055862e+38
0.10380598 0.010169606 0.31300002 -1.7056383e+38
0.10431275 0.010169606 0.31300002 -1.7056383e+38
0.1051544 0.010202097 0.31400001 -1.7056383e+38
0.10566279 0.010202097 0.31400001 -1.7056904e+38
0.10684742 0.010267078 0.31600001 -1.7056904e+38
0.10941123 0.010364549 0.31900001 -1.7189304e+38
0.11027232 0.01039704 0.32000002 -1.7189304e+38
0.11148286 0.010462022 0.32200003 -1.7322748e+38
0.11235203 0.010494513 0.32300001 -1.7322748e+38
0.11322445 0.010527004 0.324 -1.7456192e+38
0.11410009 0.010559495 0.32500002 -1.7322748e+38
0.11462629 0.010559495 0.32500002 -1.7855477e+38
0.11550681 0.010591985 0.32600001 -1.7855477e+38
0.11656243 0.010591985 0.32600001 -1.8254769e+38
0.11744941 0.010624476 0.32700002 -1.8653539e+38
0.11797884 0.010624476 0.32700002 -1.9187316e+38
0.11850828 0.010624476 0.32700002 -2.3173422e+38
0.070351452 0.010232944 0.30000001 -2.092104e+38
0.071322888 0.010232944 0.30000001 -2.0257466e+38
0.071569249 0.010198833 0.29900002 -1.9858185e+38
0.071812361 0.010164725 0.29800001 -1.9991629e+38
0.072533108 0.010130614 0.29700002 -1.9193052e+38
0.073013969 0.010130614 0.29700002 -1.8129667e+38
0.07397569 0.010130614 0.29700002 -1.7066289e+38
0.07445655 0.010130614 0.29700002 -1.7066289e+38
0.075189725 0.010164725 0.29800001 -1.7066289e+38
0.075672202 0.010164725 0.29800001 -1.7065768e+38
0.076410241 0.010198833 0.29900002 -1.7064725e+38
0.077378437 0.010198833 0.29900002 -1.7062127e+38
0.077862538 0.010198833 0.29900002 -1.7061084e+38
0.078608662 0.010232944 0.30000001 -1.7059001e+38
0.07909438 0.010232944 0.30000001 -1.705848e+38
0.080065817 0.010232944 0.30000001 -1.7057435e+38
0.080551535 0.010232944 0.30000001 -1.7056916e+38
0.081037253 0.010232944 0.30000001 -1.7056916e+38
0.081794716 0.010267054 0.30100003 -1.7056395e+38
0.082282051 0.010267054 0.30100003 -1.7056395e+38
0.083256729 0.010267054 0.30100003 -1.7056916e+38
0.084022291 0.010301163 0.30200002 -1.7055872e+38
0.084511243 0.010301163 0.30200002 -1.7055872e+38
0.085281663 0.010335273 0.303 -1.7056908e+38
0.086262807 0.010335273 0.303 -1.7056908e+38
0.086753383 0.010335273 0.303 -1.7056908e+38
0.087531894 0.010369383 0.30400002 -1.7056387e+38
0.088024087 0.010369383 0.30400002 -1.7056387e+38
0.088807456 0.010403493 0.30500001 -1.7056387e+38
0.089795083 0.010403493 0.30500001 -1.7056387e+38
0.090584926 0.010437602 0.30600002 -1.7056387e+38
0.091378003 0.010471713 0.30700001 -1.7056387e+38
0.092174321 0.010505822 0.30800003 -1.7056387e+38
0.092672996 0.010505822 0.30800003 -1.7056908e+38
0.093670338 0.010505822 0.30800003 -1.7056387e+38
0.094474748 0.010539932 0.30900002 -1.7056387e+38
0.094975039 0.010539932 0.30900002 -1.7056387e+38
0.095475331 0.010539932 0.30900002 -1.7056387e+38
0.096475907 0.010539932 0.30900002 -1.7056387e+38
0.097290039 0.010574042 0.31 -1.7055866e+38
0.097791947 0.010574042 0.31 -1.7055866e+38
0.09861093 0.010608152 0.31100002 -1.7056387e+38
0.099751852 0.011183137 0.31300002 -1.7055866e+38
0.10057893 0.011218866 0.31400001 -1.7055866e+38
0.10261247 0.011218866 0.31400001 -1.7056387e+38
0.10312086 0.011218866 0.31400001 -1.7056387e+38
0.10413763 0.011218866 0.31400001 -1.7056387e+38
0.10464601 0.011218866 0.31400001 -1.7056383e+38
0.10548928 0.011254595 0.31500003 -1.7056904e+38
0.1063358 0.011290324 0.31600001 -1.70569e+38
0.10718554 0.011326052 0.317 -1.7057421e+38
0.10803853 0.011361782 0.31800002 -1.7322748e+38
0.10923612 0.011433239 0.32000002 -1.7322748e+38
0.11009719 0.011468968 0.32100001 -1.7189304e+38
0.11148286 0.011504697 0.32200003 -1.7322748e+38
0.11235203 0.011540426 0.32300001 -1.7322748e+38
0.11322445 0.011576154 0.324 -1.7456192e+38
0.11374902 0.011576154 0.324 -1.7456192e+38
0.11462629 0.011611884 0.32500002 -1.8254769e+38
0.11550681 0.011647613 0.32600001 -1.8388213e+38
0.11656243 0.011647613 0.32600001 -1.8653539e+38
0.11709025 0.011647613 0.32600001 -1.9318673e+38
0.11761806 0.011647613 0.32600001 -1.9585561e+38
0.070351452 0.011204381 0.30000001 -2.0922084e+38
0.071322888 0.011204381 0.30000001 -2.0124026e+38
0.071569249 0.011167032 0.29900002 -1.9858185e+38
0.072053343 0.011167032 0.29900002 -1.9858185e+38
0.072777323 0.011129685 0.29800001 -1.9193052e+38
0.073259808 0.011129685 0.29800001 -1.7864341e+38
0.073742285 0.011129685 0.29800001 -1.7597453e+38
0.074707247 0.011129685 0.29800001 -1.7066289e+38
0.075442038 0.011167032 0.29900002 -1.7065768e+38
0.076180071 0.011204381 0.30000001 -1.7064725e+38
0.076665789 0.011204381 0.30000001 -1.7064725e+38
0.077151507 0.011204381 0.30000001 -1.7064204e+38
0.078383356 0.011241728 0.30100003 -1.7061084e+38
0.078870691 0.011241728 0.30100003 -1.7059001e+38
0.079358026 0.011241728 0.30100003 -1.705848e+38
0.079845369 0.011241728 0.30100003 -1.7057442e+38
0.080820039 0.011241728 0.30100003 -1.7056916e+38
0.081307381 0.011241728 0.30100003 -1.7056395e+38
0.082066461 0.011279076 0.30200002 -1.7056395e+38
0.082555421 0.011279076 0.30200002 -1.7056916e+38
0.083533332 0.011279076 0.30200002 -1.7056395e+38
0.084300511 0.011316423 0.303 -1.7056391e+38
0.085070923 0.011353772 0.30400002 -1.7056391e+38
0.085563116 0.011353772 0.30400002 -1.7057427e+38
0.086055309 0.011353772 0.30400002 -1.7057427e+38
0.087039702 0.011353772 0.30400002 -1.7056387e+38
0.08781983 0.01139112 0.30500001 -1.7056387e+38
0.088313639 0.01139112 0.30500001 -1.7056387e+38
0.088807456 0.01139112 0.30500001 -1.7056387e+38
0.089594059 0.011428468 0.30600002 -1.7056387e+38
0.090584926 0.011428468 0.30600002 -1.7056387e+38
0.091675654 0.011503164 0.30800003 -1.7055866e+38
0.092174321 0.011503164 0.30800003 -1.7056387e+38
0.09297388 0.011540512 0.30900002 -1.7056387e+38
0.093474172 0.011540512 0.30900002 -1.7056387e+38
0.094474748 0.011540512 0.30900002 -1.7056387e+38
0.094975039 0.011540512 0.30900002 -1.7056387e+38
0.095475331 0.011540512 0.30900002 -1.7056387e+38
0.096286222 0.01157786 0.31 -1.7056387e+38
0.097290039 0.01157786 0.31 -1.7055866e+38
0.097791947 0.01157786 0.31 -1.7055866e+38
0.098928012 0.011652555 0.31200001 -1.7055866e+38
0.10007054 0.011727251 0.31400001 -1.7055866e+38
0.10186019 0.011876643 0.31800002 -1.7055866e+38
0.10301892 0.011951338 0.32000002 -1.7055866e+38
0.10288991 0.011876643 0.31800002 -1.7055866e+38
0.10293926 0.011764599 0.31500003 -1.7055866e+38
0.10312086 0.011727251 0.31400001 -1.7055866e+38
0.10413763 0.011727251 0.31400001 -1.7056387e+38
0.10497928 0.011764599 0.31500003 -1.7056383e+38
0.10582417 0.011801947 0.31600001 -1.7056904e+38
0.1066723 0.011839295 0.317 -1.70569e+38
0.10752367 0.011876643 0.31800002 -1.7057421e+38
0.10837827 0.011913991 0.31900001 -1.7189304e+38
0.10923612 0.011951338 0.32000002 -1.7322748e+38
0.11009719 0.011988687 0.32100001 -1.7322748e+38
0.11148286 0.012026034 0.32200003 -1.7322748e+38
0.11235203 0.012063383 0.32300001 -1.7322748e+38
0.11322445 0.01210073 0.324 -1.7456192e+38
0.11374902 0.01210073 0.324 -1.7456192e+38
0.1142736 0.01210073 0.324 -1.8254769e+38
0.11567868 0.012138079 0.32500002 -1.8653539e+38
0.11620487 0.012138079 0.32500002 -1.8786983e+38
0.11673107 0.012138079 0.32500002 -1.9583999e+38
0.11725726 0.012138079 0.32500002 -1.9717443e+38
0.070585959 0.011729065 0.30100003 -2.1055528e+38
0.071073294 0.011729065 0.30100003 -2.0390914e+38
0.072047971 0.011729065 0.30100003 -1.9591297e+38
0.072535306 0.011729065 0.30100003 -1.9858185e+38
0.073021546 0.011651131 0.29900002 -1.8794281e+38
0.07350564 0.011651131 0.29900002 -1.7597459e+38
0.073989742 0.011651131 0.29900002 -1.7464015e+38
0.074473843 0.011651131 0.29900002 -1.7065774e+38
0.075694352 0.011690099 0.30000001 -1.7065252e+38
0.076434009 0.011729065 0.30100003 -1.706421e+38
0.076921344 0.011729065 0.30100003 -1.706421e+38
0.077408679 0.011729065 0.30100003 -1.7063689e+38
0.078383356 0.011729065 0.30100003 -1.7061084e+38
0.079132728 0.011768033 0.30200002 -1.7059516e+38
0.07962168 0.011768033 0.30200002 -1.7058995e+38
0.080110639 0.011768033 0.30200002 -1.7057957e+38
0.080599599 0.011768033 0.30200002 -1.7057435e+38
0.08157751 0.011768033 0.30200002 -1.7056395e+38
0.082066461 0.011768033 0.30200002 -1.7055872e+38
0.082828782 0.011806999 0.303 -1.7056393e+38
0.083319359 0.011806999 0.303 -1.7056393e+38
0.08457873 0.011845966 0.30400002 -1.7055872e+38
0.085350759 0.011884933 0.30500001 -1.7056393e+38
0.085844576 0.011884933 0.30500001 -1.7056387e+38
0.086338386 0.011884933 0.30500001 -1.7056908e+38
0.087326013 0.011884933 0.30500001 -1.7056387e+38
0.08781983 0.011884933 0.30500001 -1.7056387e+38
0.088603191 0.0119239 0.30600002 -1.7056387e+38
0.089098625 0.0119239 0.30600002 -1.7056387e+38
0.089594059 0.0119239 0.30600002 -1.7056387e+38
0.090880953 0.011962867 0.30700001 -1.7055866e+38
0.091675654 0.012001834 0.30800003 -1.7055866e+38
0.092473589 0.012040801 0.30900002 -1.7056387e+38
0.09297388 0.012040801 0.30900002 -1.7056387e+38
0.093474172 0.012040801 0.30900002 -1.7056387e+38
0.094474748 0.012040801 0.30900002 -1.7056387e+38
0.094975039 0.012040801 0.30900002 -1.7056387e+38
0.095784314 0.012079768 0.31 -1.7056387e+38
0.096286222 0.012079768 0.31 -1.7056387e+38
0.097100347 0.012118735 0.31100002 -1.7055866e+38
0.098107405 0.012118735 0.31100002 -1.7056387e+38
0.098928012 0.012157703 0.31200001 -1.7055866e+38
0.10186019 0.012391504 0.31800002 -1.7055866e+38
0.10301892 0.012469438 0.32000002 -1.7055866e+38
0.10321347 0.01243047 0.31900001 -1.7056387e+38
0.10340478 0.012391504 0.31800002 -1.7055866e+38
0.1044345 0.012391504 0.31800002 -1.7055346e+38
0.10395927 0.012274603 0.31500003 -1.7189312e+38
0.10513257 0.012352537 0.317 -1.7189312e+38
0.10631235 0.01243047 0.31900001 -1.7189308e+38
0.10734531 0.01243047 0.31900001 -1.7189308e+38
0.10786179 0.01243047 0.31900001 -1.7322752e+38
0.10837827 0.01243047 0.31900001 -1.7322748e+38
0.10923612 0.012469438 0.32000002 -1.7456192e+38
0.11009719 0.012508405 0.32100001 -1.7322748e+38
0.11148286 0.012547372 0.32200003 -1.7322748e+38
0.11235203 0.012586339 0.32300001 -1.7322748e+38
0.11287498 0.012586339 0.32300001 -1.7456192e+38
0.11374902 0.012625306 0.324 -1.7589636e+38
0.1142736 0.012625306 0.324 -1.8254769e+38
0.11567868 0.012664273 0.32500002 -1.8786983e+38
0.11620487 0.012664273 0.32500002 -1.8920428e+38
0.11673107 0.012664273 0.32500002 -1.9981725e+38
0.11725726 0.012664273 0.32500002 -2.1849942e+38
0.072036125 0.012297574 0.303 -1.9858696e+38
0.072776295 0.012256988 0.30200002 -1.932597e+38
0.073022641 0.012216402 0.30100003 -1.8927725e+38
0.073751479 0.012175817 0.30000001 -1.7464015e+38
0.074237198 0.012175817 0.30000001 -1.7464015e+38
0.074971996 0.012216402 0.30100003 -1.7065774e+38
0.075459331 0.012216402 0.30100003 -1.7065774e+38
0.076434009 0.012216402 0.30100003 -1.706421e+38
0.077176899 0.012256988 0.30200002 -1.706421e+38
0.077665858 0.012256988 0.30200002 -1.7063167e+38
0.078154817 0.012256988 0.30200002 -1.7061606e+38
0.079132728 0.012256988 0.30200002 -1.7059512e+38
0.07962168 0.012256988 0.30200002 -1.7058991e+38
0.080375902 0.012297574 0.303 -1.7057953e+38
0.080866478 0.012297574 0.303 -1.7057431e+38
0.08184763 0.012297574 0.303 -1.7056391e+38
0.082338206 0.012297574 0.303 -1.7055872e+38
0.083102144 0.012338161 0.30400002 -1.7056393e+38
0.083594337 0.012338161 0.30400002 -1.7056393e+38
0.084363133 0.012378747 0.30500001 -1.7056393e+38
0.085350759 0.012378747 0.30500001 -1.7056393e+38
0.085844576 0.012378747 0.30500001 -1.7056387e+38
0.086338386 0.012378747 0.30500001 -1.7056387e+38
0.087116897 0.012419333 0.30600002 -1.7056387e+38
0.088107765 0.012419333 0.30600002 -1.7055866e+38
0.088603191 0.012419333 0.30600002 -1.7055866e+38
0.089389801 0.012459919 0.30700001 -1.7055866e+38
0.089886852 0.012459919 0.30700001 -1.7055866e+38
0.090880953 0.012459919 0.30700001 -1.7055866e+38
0.091973305 0.012541091 0.30900002 -1.7055866e+38
0.092473589 0.012541091 0.30900002 -1.7056387e+38
0.09297388 0.012541091 0.30900002 -1.7056387e+38
0.093776673 0.012581676 0.31 -1.7056387e+38
0.09478049 0.012581676 0.31 -1.7056387e+38
0.095282406 0.012581676 0.31 -1.7056387e+38
0.09609329 0.012622263 0.31100002 -1.7056387e+38
0.096596822 0.012622263 0.31100002 -1.7056387e+38
0.097100347 0.012622263 0.31100002 -1.7055866e+38
0.098422863 0.012662849 0.31200001 -1.7056383e+38
0.099245086 0.012703435 0.31300002 -1.7055862e+38
0.10038924 0.012784607 0.31500003 -1.7055862e+38
0.10186019 0.012906365 0.31800002 -1.7055862e+38
0.10269699 0.012946951 0.31900001 -1.7055862e+38
0.10321347 0.012946951 0.31900001 -1.7056383e+38
0.10340478 0.012906365 0.31800002 -1.7056383e+38
0.1044345 0.012906365 0.31800002 -1.7055342e+38
0.10494936 0.012906365 0.31800002 -1.7189308e+38
0.10579587 0.012946951 0.31900001 -1.7189308e+38
0.10664562 0.012987537 0.32000002 -1.7189308e+38
0.10768182 0.012987537 0.32000002 -1.7189308e+38
0.10819992 0.012987537 0.32000002 -1.7322752e+38
0.10871802 0.012987537 0.32000002 -1.7322748e+38
0.10957748 0.013028124 0.32100001 -1.7456192e+38
0.11009719 0.013028124 0.32100001 -1.7322748e+38
0.11148286 0.01306871 0.32200003 -1.7721518e+38
0.11235203 0.013109296 0.32300001 -1.7721518e+38
0.11287498 0.013109296 0.32300001 -1.7854962e+38
0.11339794 0.013109296 0.32300001 -1.7854962e+38
0.1142736 0.013149882 0.324 -1.8388213e+38
0.11532275 0.013149882 0.324 -1.9052831e+38
0.11584733 0.013149882 0.324 -1.9186275e+38
0.1163719 0.013149882 0.324 -2.09127e+38
0.11725726 0.013190468 0.32500002 -2.4248801e+38
0.072036125 0.013278725 0.303 -2.0257466e+38
0.072776295 0.013234901 0.30200002 -1.932597e+38
0.073265247 0.013234901 0.30200002 -1.8794281e+38
0.073997319 0.013191077 0.30100003 -1.7597459e+38
0.074484654 0.013191077 0.30100003 -1.7464015e+38
0.074971996 0.013191077 0.30100003 -1.7065774e+38
0.075710028 0.013234901 0.30200002 -1.7065774e+38
0.076687947 0.013234901 0.30200002 -1.706421e+38
0.077176899 0.013234901 0.30200002 -1.7062648e+38
0.077665858 0.013234901 0.30200002 -1.7062648e+38
0.078154817 0.013234901 0.30200002 -1.7061086e+38
0.079132728 0.013234901 0.30200002 -1.7059516e+38
0.079885334 0.013278725 0.303 -1.7058995e+38
0.080375902 0.013278725 0.303 -1.7057953e+38
0.080866478 0.013278725 0.303 -1.7057431e+38
0.08184763 0.013278725 0.303 -1.7056391e+38
0.082609951 0.01332255 0.30400002 -1.7056906e+38
0.083102144 0.01332255 0.30400002 -1.7057427e+38
0.083869323 0.013366374 0.30500001 -1.7057427e+38
0.084363133 0.013366374 0.30500001 -1.7056906e+38
0.085350759 0.013366374 0.30500001 -1.7056387e+38
0.086126029 0.013410198 0.30600002 -1.7056387e+38
0.086621463 0.013410198 0.30600002 -1.7056387e+38
0.087116897 0.013410198 0.30600002 -1.7055866e+38
0.088107765 0.013410198 0.30600002 -1.7055866e+38
0.08889275 0.013454021 0.30700001 -1.7055866e+38
0.089389801 0.013454021 0.30700001 -1.7055866e+38
0.089886852 0.013454021 0.30700001 -1.7055866e+38
0.090678312 0.013497847 0.30800003 -1.7055866e+38
0.091973305 0.013541671 0.30900002 -1.7055866e+38
0.092473589 0.013541671 0.30900002 -1.7056387e+38
0.09297388 0.013541671 0.30900002 -1.7056387e+38
0.093776673 0.013585494 0.31 -1.7055866e+38
0.09478049 0.013585494 0.31 -1.7055866e+38
0.095589764 0.013629318 0.31100002 -1.7056387e+38
0.096402273 0.013673143 0.31200001 -1.7055866e+38
0.097218022 0.013716967 0.31300002 -1.7055866e+38
0.097724788 0.013716967 0.31300002 -1.7056387e+38
0.098545395 0.01376079 0.31400001 -1.7054819e+38
0.099369235 0.013804616 0.31500003 -1.7055862e+38
0.10070794 0.01384844 0.31600001 -1.7056383e+38
0.10186019 0.013936087 0.31800002 -1.7055862e+38
0.10269699 0.013979913 0.31900001 -1.7055862e+38
0.10321347 0.013979913 0.31900001 -1.705586e+38
0.10372995 0.013979913 0.31900001 -1.705586e+38
0.1047629 0.013979913 0.31900001 -1.7321701e+38
0.10527939 0.013979913 0.31900001 -1.745463e+38
0.10612752 0.014023736 0.32000002 -1.745463e+38
0.10664562 0.014023736 0.32000002 -1.7189308e+38
0.10768182 0.014023736 0.32000002 -1.7189304e+38
0.10853804 0.01406756 0.32100001 -1.7322748e+38
0.10905775 0.01406756 0.32100001 -1.7322748e+38
0.10957748 0.01406756 0.32100001 -1.7322748e+38
0.11009719 0.01406756 0.32100001 -1.7322748e+38
0.11148286 0.014111386 0.32200003 -1.7721518e+38
0.11200419 0.014111386 0.32200003 -1.7721518e+38
0.11287498 0.014155209 0.32300001 -1.7854962e+38
0.11339794 0.014155209 0.32300001 -1.812185e+38
0.11444385 0.014155209 0.32300001 -1.8521142e+38
0.11532275 0.014199032 0.324 -1.9053872e+38
0.11584733 0.014199032 0.324 -1.9187316e+38
0.1163719 0.014199032 0.324 -2.1177501e+38
0.072511606 0.013860187 0.30500001 -1.999214e+38
0.073017277 0.013769301 0.303 -1.932597e+38
0.073265247 0.013723858 0.30200002 -1.8794281e+38
0.073754206 0.013723858 0.30200002 -1.8660837e+38
0.074732117 0.013723858 0.30200002 -1.7330575e+38
0.075221077 0.013723858 0.30200002 -1.7065774e+38
0.075710028 0.013723858 0.30200002 -1.7065774e+38
0.076687947 0.013723858 0.30200002 -1.706421e+38
0.077176899 0.013723858 0.30200002 -1.7062648e+38
0.077665858 0.013723858 0.30200002 -1.7062127e+38
0.078413606 0.013769301 0.303 -1.7060565e+38
0.078904182 0.013769301 0.303 -1.7059523e+38
0.079885334 0.013769301 0.303 -1.7057955e+38
0.080375902 0.013769301 0.303 -1.7057433e+38
0.080866478 0.013769301 0.303 -1.7056912e+38
0.08184763 0.013769301 0.303 -1.7056391e+38
0.082609951 0.013814745 0.30400002 -1.7056387e+38
0.083102144 0.013814745 0.30400002 -1.7056908e+38
0.083869323 0.013860187 0.30500001 -1.7056387e+38
0.084363133 0.013860187 0.30500001 -1.7056387e+38
0.085630596 0.01390563 0.30600002 -1.7056387e+38
0.086126029 0.01390563 0.30600002 -1.7056387e+38
0.086621463 0.01390563 0.30600002 -1.7056387e+38
0.087116897 0.01390563 0.30600002 -1.7056387e+38
0.087898642 0.013951073 0.30700001 -1.7056387e+38
0.08889275 0.013951073 0.30700001 -1.7056387e+38
0.089389801 0.013951073 0.30700001 -1.7055866e+38
0.090179645 0.013996517 0.30800003 -1.7055866e+38
0.090972722 0.01404196 0.30900002 -1.7055866e+38
0.091973305 0.01404196 0.30900002 -1.7055866e+38
0.092772856 0.014087403 0.31 -1.7055866e+38
0.093274765 0.014087403 0.31 -1.705535e+38
0.093776673 0.014087403 0.31 -1.705535e+38
0.094582707 0.014132846 0.31100002 -1.7055872e+38
0.095391981 0.01417829 0.31200001 -1.705535e+38
0.096511848 0.014269176 0.31400001 -1.7055872e+38
0.097218022 0.014223733 0.31300002 -1.7055866e+38
0.098037004 0.014269176 0.31400001 -1.7055866e+38
0.098545395 0.014269176 0.31400001 -1.7055862e+38
0.099684693 0.014360063 0.31600001 -1.7055862e+38
0.10051339 0.014405506 0.317 -1.7055862e+38
0.10186019 0.014450949 0.31800002 -1.7055862e+38
0.10269699 0.014496393 0.31900001 -1.7055862e+38
0.10321347 0.014496393 0.31900001 -1.705586e+38
0.10372995 0.014496393 0.31900001 -1.705586e+38
0.1047629 0.014496393 0.31900001 -1.7056375e+38
0.10560942 0.014541836 0.32000002 -1.7189304e+38
0.10612752 0.014541836 0.32000002 -1.7189304e+38
0.10664562 0.014541836 0.32000002 -1.7189304e+38
0.1074986 0.014587278 0.32100001 -1.7189304e+38
0.10853804 0.014587278 0.32100001 -1.7322748e+38
0.10905775 0.014587278 0.32100001 -1.7322748e+38
0.10957748 0.014587278 0.32100001 -1.7456192e+38
0.11009719 0.014587278 0.32100001 -1.7456192e+38
0.11148286 0.014632722 0.32200003 -1.7854962e+38
0.11200419 0.014632722 0.32200003 -1.7721518e+38
0.11252553 0.014632722 0.32200003 -1.812185e+38
0.11339794 0.014678165 0.32300001 -1.812185e+38
0.11444385 0.014678165 0.32300001 -1.8255294e+38
0.11496681 0.014678165 0.32300001 -1.9053872e+38
0.11548977 0.014678165 0.32300001 -1.9454204e+38
0.11601272 0.014678165 0.32300001 -2.2641733e+38
0.072749354 0.014401062 0.30600002 -1.999214e+38
0.072766058 0.014306939 0.30400002 -1.932597e+38
0.073507853 0.014259876 0.303 -1.8661878e+38
0.073754206 0.014212814 0.30200002 -1.8394989e+38
0.074732117 0.014212814 0.30200002 -1.7198692e+38
0.075221077 0.014212814 0.30200002 -1.7065774e+38
0.075710028 0.014212814 0.30200002 -1.7065774e+38
0.076687947 0.014212814 0.30200002 -1.7063689e+38
0.077432454 0.014259876 0.303 -1.7062648e+38
0.07792303 0.014259876 0.303 -1.7061606e+38
0.078413606 0.014259876 0.303 -1.7060565e+38
0.078904182 0.014259876 0.303 -1.7059523e+38
0.079885334 0.014259876 0.303 -1.7057955e+38
0.080375902 0.014259876 0.303 -1.7056916e+38
0.081133366 0.014306939 0.30400002 -1.7056916e+38
0.081625558 0.014306939 0.30400002 -1.7055872e+38
0.082609951 0.014306939 0.30400002 -1.7056387e+38
0.083375506 0.014354001 0.30500001 -1.7056908e+38
0.083869323 0.014354001 0.30500001 -1.7056908e+38
0.084639736 0.014401062 0.30600002 -1.7056387e+38
0.085630596 0.014401062 0.30600002 -1.7056387e+38
0.086126029 0.014401062 0.30600002 -1.7056387e+38
0.086904541 0.014448125 0.30700001 -1.7055866e+38
0.087401591 0.014448125 0.30700001 -1.7056387e+38
0.087898642 0.014448125 0.30700001 -1.7056387e+38
0.08889275 0.014448125 0.30700001 -1.7055866e+38
0.08968097 0.014495188 0.30800003 -1.7055866e+38
0.090179645 0.014495188 0.30800003 -1.7055866e+38
0.090972722 0.01454225 0.30900002 -1.7055866e+38
0.091973305 0.01454225 0.30900002 -1.7055866e+38
0.092772856 0.014589312 0.31 -1.7055866e+38
0.093274765 0.014589312 0.31 -1.7055866e+38
0.093776673 0.014589312 0.31 -1.7055866e+38
0.094582707 0.014636373 0.31100002 -1.7055866e+38
0.095391981 0.014683437 0.31200001 -1.7055866e+38
0.096711256 0.014730499 0.31300002 -1.7054823e+38
0.097528622 0.014777561 0.31400001 -1.7055866e+38
0.098349229 0.014824624 0.31500003 -1.7055866e+38
0.098859228 0.014824624 0.31500003 -1.7055862e+38
0.099684693 0.014871686 0.31600001 -1.7055862e+38
0.10051339 0.014918748 0.317 -1.7055862e+38
0.10186019 0.01496581 0.31800002 -1.7055862e+38
0.10269699 0.015012873 0.31900001 -1.7055862e+38
0.10321347 0.015012873 0.31900001 -1.7056379e+38
0.10372995 0.015012873 0.31900001 -1.7056379e+38
0.1047629 0.015012873 0.31900001 -1.7056375e+38
0.10527939 0.015012873 0.31900001 -1.7189304e+38
0.10612752 0.015059935 0.32000002 -1.7189304e+38
0.10664562 0.015059935 0.32000002 -1.7189304e+38
0.10768182 0.015059935 0.32000002 -1.7322748e+38
0.10853804 0.015106997 0.32100001 -1.7456192e+38
0.10905775 0.015106997 0.32100001 -1.7322748e+38
0.10957748 0.015106997 0.32100001 -1.7456192e+38
0.11009719 0.015106997 0.32100001 -1.7456192e+38
0.11113663 0.015106997 0.32100001 -1.7854962e+38
0.11200419 0.01515406 0.32200003 -1.7854962e+38
0.11252553 0.01515406 0.32200003 -1.812185e+38
0.11339794 0.015201123 0.32300001 -1.812185e+38
0.11444385 0.015201123 0.32300001 -1.8387698e+38
0.11496681 0.015201123 0.32300001 -1.9186275e+38
0.11548977 0.015201123 0.32300001 -1.9586607e+38
0.072749354 0.014896495 0.30600002 -1.9992144e+38
0.073005423 0.014847814 0.30500001 -1.9193047e+38
0.073507853 0.014750451 0.303 -1.8528433e+38
0.073998429 0.014750451 0.303 -1.8261545e+38
0.074488997 0.014750451 0.303 -1.7332136e+38
0.07547015 0.014750451 0.303 -1.7065774e+38
0.075960726 0.014750451 0.303 -1.7065774e+38
0.076451302 0.014750451 0.303 -1.706421e+38
0.077432454 0.014750451 0.303 -1.7062648e+38
0.07792303 0.014750451 0.303 -1.7061606e+38
0.078413606 0.014750451 0.303 -1.7060565e+38
0.078904182 0.014750451 0.303 -1.7059523e+38
0.079885334 0.014750451 0.303 -1.7057955e+38
0.080641173 0.014799134 0.30400002 -1.7057435e+38
0.081133366 0.014799134 0.30400002 -1.7056914e+38
0.081625558 0.014799134 0.30400002 -1.7056391e+38
0.082881697 0.014847814 0.30500001 -1.7056387e+38
0.083375506 0.014847814 0.30500001 -1.7056908e+38
0.084144302 0.014896495 0.30600002 -1.7056908e+38
0.084639736 0.014896495 0.30600002 -1.7056387e+38
0.085630596 0.014896495 0.30600002 -1.7056387e+38
0.08640749 0.014945176 0.30700001 -1.7056387e+38
0.086904541 0.014945176 0.30700001 -1.7055866e+38
0.087401591 0.014945176 0.30700001 -1.7056387e+38
0.08818496 0.014993859 0.30800003 -1.7056387e+38
0.089182302 0.014993859 0.30800003 -1.7055866e+38
0.08968097 0.014993859 0.30800003 -1.7055866e+38
0.090179645 0.014993859 0.30800003 -1.7055866e+38
0.091267131 0.015091221 0.31 -1.7055866e+38
0.09176904 0.015091221 0.31 -1.7055866e+38
0.092772856 0.015091221 0.31 -1.7055866e+38
0.093575656 0.015139901 0.31100002 -1.7055866e+38
0.094079182 0.015139901 0.31100002 -1.7055866e+38
0.094582707 0.015139901 0.31100002 -1.7055866e+38
0.095391981 0.015188584 0.31200001 -1.7054823e+38
0.096711256 0.015237264 0.31300002 -1.7054823e+38
0.097528622 0.015285945 0.31400001 -1.7055866e+38
0.098349229 0.015334629 0.31500003 -1.7055866e+38
0.099173069 0.015383309 0.31600001 -1.7055862e+38
0.099684693 0.015383309 0.31600001 -1.7055862e+38
0.10051339 0.015945232 0.317 -1.7056383e+38
0.10186019 0.015995532 0.31800002 -1.7056379e+38
0.10237505 0.015995532 0.31800002 -1.7055858e+38
0.10321347 0.016045833 0.31900001 -1.7056375e+38
0.10372995 0.016045833 0.31900001 -1.7056375e+38
0.1047629 0.016045833 0.31900001 -1.7056375e+38
0.10560942 0.016096134 0.32000002 -1.7322748e+38
0.10612752 0.016096134 0.32000002 -1.7189304e+38
0.10664562 0.016096134 0.32000002 -1.7322748e+38
0.10768182 0.016096134 0.32000002 -1.7721518e+38
0.10819992 0.016096134 0.32000002 -1.7721518e+38
0.10905775 0.016146434 0.32100001 -1.7456192e+38
0.10957748 0.016146434 0.32100001 -1.7456192e+38
0.11009719 0.016146434 0.32100001 -1.7456192e+38
0.11113663 0.016146434 0.32100001 -1.812185e+38
0.11200419 0.016196735 0.32200003 -1.812185e+38
0.11252553 0.016196735 0.32200003 -1.812185e+38
0.11304687 0.016196735 0.32200003 -1.8255294e+38
0.11408954 0.016196735 0.32200003 -1.8654586e+38
0.11461088 0.016196735 0.32200003 -1.9983291e+38
0.11513222 0.016196735 0.32200003 -1.9983291e+38
0.072987095 0.015939279 0.30700001 -1.9726818e+38
0.073005423 0.015835442 0.30500001 -1.8927725e+38
0.073750451 0.015783522 0.30400002 -1.8263111e+38
0.074242644 0.015783522 0.30400002 -1.7996223e+38
0.074488997 0.015731601 0.303 -1.7332136e+38
0.07547015 0.015731601 0.303 -1.7065778e+38
0.075960726 0.015731601 0.303 -1.7065778e+38
0.076451302 0.015731601 0.303 -1.7064214e+38
0.077195808 0.015783522 0.30400002 -1.7063171e+38
0.078180201 0.015783522 0.30400002 -1.706161e+38
0.078672394 0.015783522 0.30400002 -1.7059523e+38
0.079164587 0.015783522 0.30400002 -1.7059001e+38
0.08014898 0.015783522 0.30400002 -1.7058476e+38
0.080641173 0.015783522 0.30400002 -1.7057435e+38
0.081133366 0.015783522 0.30400002 -1.7056914e+38
0.081894062 0.015835442 0.30500001 -1.7056391e+38
0.082881697 0.015835442 0.30500001 -1.7055872e+38
0.083648868 0.015887361 0.30600002 -1.7056393e+38
0.084144302 0.015887361 0.30600002 -1.7056387e+38
0.084639736 0.015887361 0.30600002 -1.7056387e+38
0.085413389 0.015939279 0.30700001 -1.7056387e+38
0.08640749 0.015939279 0.30700001 -1.7056387e+38
0.086904541 0.015939279 0.30700001 -1.7055866e+38
0.087686285 0.0159912 0.30800003 -1.7056387e+38
0.08818496 0.0159912 0.30800003 -1.7056387e+38
0.088971563 0.016043119 0.30900002 -1.7056387e+38
0.089972138 0.016043119 0.30900002 -1.7055866e+38
0.090765223 0.016095039 0.31 -1.7055866e+38
0.091267131 0.016095039 0.31 -1.7055866e+38
0.09176904 0.016095039 0.31 -1.7054823e+38
0.093072124 0.016146958 0.31100002 -1.7054823e+38
0.093575656 0.016146958 0.31100002 -1.7055866e+38
0.094079182 0.016146958 0.31100002 -1.7054823e+38
0.094886832 0.016198877 0.31200001 -1.7055866e+38
0.095391981 0.016198877 0.31200001 -1.7055866e+38
0.096711256 0.016250797 0.31300002 -1.7054823e+38
0.097528622 0.016302716 0.31400001 -1.7055342e+38
0.098349229 0.016354637 0.31500003 -1.7055864e+38
0.099173069 0.016406555 0.31600001 -1.7055342e+38
0.10000015 0.016458474 0.317 -1.7055342e+38
0.10051339 0.016458474 0.317 -1.7055864e+38
0.10186019 0.016510393 0.31800002 -1.705586e+38
0.10237505 0.016510393 0.31800002 -1.705586e+38
0.10321347 0.016562315 0.31900001 -1.7056375e+38
0.10372995 0.016562315 0.31900001 -1.7189819e+38
0.1047629 0.016562315 0.31900001 -1.7189819e+38
0.10527939 0.016562315 0.31900001 -1.7322748e+38
0.10579587 0.016562315 0.31900001 -1.7189304e+38
0.10664562 0.016614232 0.32000002 -1.7322748e+38
0.10768182 0.016614232 0.32000002 -1.7854962e+38
0.10819992 0.016614232 0.32000002 -1.7721518e+38
0.10905775 0.016666152 0.32100001 -1.7456192e+38
0.10957748 0.016666152 0.32100001 -1.7456192e+38
0.11009719 0.016666152 0.32100001 -1.7456192e+38
0.11113663 0.016666152 0.32100001 -1.812185e+38
0.11165635 0.016666152 0.32100001 -1.812185e+38
0.11217607 0.016666152 0.32100001 -1.8254254e+38
0.11304687 0.016718073 0.32200003 -1.8387698e+38
0.11408954 0.016718073 0.32200003 -1.8919912e+38
0.11425494 0.016666152 0.32100001 -2.0513418e+38
0.11477466 0.016666152 0.32100001 -2.1314082e+38
0.072987095 0.016436331 0.30700001 -1.9726818e+38
0.073244788 0.016382793 0.30600002 -1.8927721e+38
0.07399305 0.016329255 0.30500001 -1.8263107e+38
0.074486867 0.016329255 0.30500001 -1.7996219e+38
0.074734837 0.016275717 0.30400002 -1.7199733e+38
0.07571923 0.016275717 0.30400002 -1.7065778e+38
0.076211423 0.016275717 0.30400002 -1.7065778e+38
0.076703615 0.016275717 0.30400002 -1.7063693e+38
0.077195808 0.016275717 0.30400002 -1.7063171e+38
0.078180201 0.016275717 0.30400002 -1.706161e+38
0.078672394 0.016275717 0.30400002 -1.7059523e+38
0.079425 0.016329255 0.30500001 -1.7059001e+38
0.079918809 0.016329255 0.30500001 -1.7058476e+38
0.080906436 0.016329255 0.30500001 -1.7057435e+38
0.081400253 0.016329255 0.30500001 -1.7057435e+38
0.081894062 0.016329255 0.30500001 -1.7056391e+38
0.082658 0.016382793 0.30600002 -1.7056912e+38
0.083648868 0.016382793 0.30600002 -1.7056912e+38
0.084144302 0.016382793 0.30600002 -1.7056387e+38
0.084916331 0.016436331 0.30700001 -1.7056387e+38
0.085413389 0.016436331 0.30700001 -1.7056387e+38
0.086190276 0.016489871 0.30800003 -1.7056387e+38
0.087470695 0.016543409 0.30900002 -1.7056387e+38
0.08797098 0.016543409 0.30900002 -1.7056387e+38
0.088757589 0.016596947 0.31 -1.7056387e+38
0.089259498 0.016596947 0.31 -1.7055866e+38
0.090050958 0.016650485 0.31100002 -1.7055866e+38
0.091058016 0.016650485 0.31100002 -1.7055866e+38
0.091855951 0.016704025 0.31200001 -1.7055866e+38
0.0923611 0.016704025 0.31200001 -1.7055866e+38
0.092866242 0.016704025 0.31200001 -1.7055866e+38
0.093876541 0.016704025 0.31200001 -1.7055866e+38
0.094381683 0.016704025 0.31200001 -1.7054823e+38
0.094886832 0.016704025 0.31200001 -1.7055866e+38
0.095697723 0.016757563 0.31300002 -1.7055866e+38
0.096511848 0.016811101 0.31400001 -1.7055866e+38
0.097839221 0.016864641 0.31500003 -1.7055342e+38
0.098661445 0.016918179 0.31600001 -1.7055864e+38
0.099173069 0.016918179 0.31600001 -1.7055864e+38
0.10000015 0.016971717 0.317 -1.7055864e+38
0.10051339 0.016971717 0.317 -1.7055864e+38
0.10153987 0.016971717 0.317 -1.7189304e+38
0.10237505 0.017025255 0.31800002 -1.705586e+38
0.10288991 0.017025255 0.31800002 -1.7189819e+38
0.10340478 0.017025255 0.31800002 -1.7323263e+38
0.1047629 0.017078795 0.31900001 -1.7189819e+38
0.10527939 0.017078795 0.31900001 -1.7322748e+38
0.10579587 0.017078795 0.31900001 -1.7189304e+38
0.10664562 0.017132333 0.32000002 -1.7322748e+38
0.10768182 0.017132333 0.32000002 -1.7854962e+38
0.10819992 0.017132333 0.32000002 -1.7721518e+38
0.10871802 0.017132333 0.32000002 -1.7721518e+38
0.10923612 0.017132333 0.32000002 -1.7721518e+38
0.11009719 0.017185871 0.32100001 -1.7456192e+38
0.11113663 0.017185871 0.32100001 -1.812185e+38
0.11165635 0.017185871 0.32100001 -1.812185e+38
0.11217607 0.017185871 0.32100001 -1.8387698e+38
0.11321551 0.017185871 0.32100001 -1.9052316e+38
0.11373522 0.017185871 0.32100001 -1.8785428e+38
0.11425494 0.017185871 0.32100001 -2.2237758e+38
0.072987095 0.016933382 0.30700001 -1.9726818e+38
0.073244788 0.016878225 0.30600002 -1.8927725e+38
0.073740214 0.016878225 0.30600002 -1.8794281e+38
0.074486867 0.016823068 0.30500001 -1.7730897e+38
0.074980676 0.016823068 0.30500001 -1.7067329e+38
0.07571923 0.016767912 0.30400002 -1.7066297e+38
0.076211423 0.016767912 0.30400002 -1.7065776e+38
0.076703615 0.016767912 0.30400002 -1.7063693e+38
0.077449746 0.016823068 0.30500001 -1.7063171e+38
0.078437373 0.016823068 0.30500001 -1.7061088e+38
0.078931183 0.016823068 0.30500001 -1.7059523e+38
0.079425 0.016823068 0.30500001 -1.705848e+38
0.079918809 0.016823068 0.30500001 -1.7057957e+38
0.080906436 0.016823068 0.30500001 -1.7056912e+38
0.08166714 0.016878225 0.30600002 -1.7056912e+38
0.082162574 0.016878225 0.30600002 -1.7056912e+38
0.082658 0.016878225 0.30600002 -1.7056391e+38
0.083648868 0.016878225 0.30600002 -1.7056912e+38
