# .PCD v0.7 - Point Cloud Data file format
VERSION 0.7
FIELDS x y z rgb
SIZE 4 4 4 4
TYPE F F F F
COUNT 1 1 1 1
WIDTH 976
HEIGHT 1
VIEWPOINT 0 0 0 1 0 0 0
POINTS 976
DATA ascii
-0.073956922 0.017224243 0.287 -1.7052239e+38
-0.073282026 0.017284257 0.28800002 -1.7457265e+38
-0.072815739 0.017284257 0.28800002 -1.7060581e+38
-0.072600663 0.017344272 0.289 -1.7327469e+38
-0.072132759 0.017344272 0.289 -1.7329556e+38
-0.071664847 0.017344272 0.289 -1.7463001e+38
-0.070484295 0.017284257 0.28800002 -1.7066317e+38
-0.070018001 0.017284257 0.28800002 -1.7067358e+38
-0.069793209 0.017344272 0.289 -1.7067358e+38
-0.094361432 0.016024798 0.26000002 -1.7043372e+38
-0.093940474 0.016024798 0.26000002 -1.704285e+38
-0.092740491 0.015963165 0.259 -1.704181e+38
-0.092677608 0.016024798 0.26000002 -1.7042331e+38
-0.09225665 0.016024798 0.26000002 -1.7042331e+38
-0.091063142 0.015963165 0.259 -1.704181e+38
-0.090993784 0.016024798 0.26000002 -1.7042327e+38
-0.090572827 0.016024798 0.26000002 -1.7041806e+38
-0.090498611 0.016086431 0.26100001 -1.7041802e+38
-0.090076037 0.016086431 0.26100001 -1.7041802e+38
-0.089996956 0.016148066 0.26200002 -1.7041281e+38
-0.089572765 0.016148066 0.26200002 -1.7041802e+38
-0.089488834 0.016209701 0.26300001 -1.7041281e+38
-0.08897423 0.016271334 0.264 -1.7041802e+38
-0.088546798 0.016271334 0.264 -1.7041802e+38
-0.088453151 0.016332969 0.26500002 -1.7041802e+38
-0.088688426 0.016456235 0.26700002 -1.7042323e+38
-0.088586688 0.016517868 0.26800001 -1.7042323e+38
-0.088152781 0.016517868 0.26800001 -1.7042323e+38
-0.088046178 0.016579503 0.26900002 -1.7042323e+38
-0.087610655 0.016579503 0.26900002 -1.7042323e+38
-0.087499201 0.016641138 0.27000001 -1.7042327e+38
-0.086624905 0.016641138 0.27000001 -1.7042327e+38
-0.08650697 0.016702771 0.27100003 -1.7042848e+38
-0.086385801 0.016764404 0.27200001 -1.7042327e+38
-0.086261392 0.016826039 0.273 -1.7042327e+38
-0.085819393 0.016826039 0.273 -1.7042327e+38
-0.085690126 0.016887672 0.27400002 -1.7042848e+38
-0.085557625 0.016949305 0.27500001 -1.7042848e+38
-0.085421883 0.01701094 0.27600002 -1.7042848e+38
-0.085282899 0.017072575 0.27700001 -1.7042852e+38
-0.084385939 0.017072575 0.27700001 -1.7043895e+38
-0.084240481 0.017134208 0.27800003 -1.7043895e+38
-0.083790384 0.017134208 0.27800003 -1.704338e+38
-0.083640069 0.017195841 0.27900001 -1.7043901e+38
-0.083188355 0.017195841 0.27900001 -1.704338e+38
-0.08228492 0.017195841 0.27900001 -1.704338e+38
-0.081833199 0.017195841 0.27900001 -1.704338e+38
-0.081381485 0.017195841 0.27900001 -1.7043901e+38
-0.081219837 0.017257476 0.28 -1.7043901e+38
-0.080766499 0.017257476 0.28 -1.704442e+38
-0.079859823 0.017257476 0.28 -1.704442e+38
-0.079973675 0.017380742 0.28200001 -1.704442e+38
-0.079517104 0.017380742 0.28200001 -1.704442e+38
-0.079340883 0.017442377 0.28300002 -1.7044942e+38
-0.07916142 0.01750401 0.28400001 -1.7045982e+38
-0.078701608 0.01750401 0.28400001 -1.7045982e+38
-0.078517295 0.017565645 0.28500003 -1.7045986e+38
-0.077594429 0.017565645 0.28500003 -1.7046511e+38
-0.077133 0.017565645 0.28500003 -1.7046511e+38
-0.076671563 0.017565645 0.28500003 -1.7046515e+38
-0.076477535 0.017627278 0.28600001 -1.7046515e+38
-0.075551435 0.017627278 0.28600001 -1.704912e+38
-0.075088382 0.017627278 0.28600001 -1.7051201e+38
-0.074625328 0.017627278 0.28600001 -1.7452575e+38
-0.074421592 0.017688913 0.287 -1.7056928e+38
-0.073956922 0.017688913 0.287 -1.7457261e+38
-0.073027574 0.017688913 0.287 -1.7062147e+38
-0.072815739 0.017750546 0.28800002 -1.7062672e+38
-0.072349451 0.017750546 0.28800002 -1.7063715e+38
-0.071883157 0.017750546 0.28800002 -1.7198199e+38
-0.070950583 0.017750546 0.28800002 -1.7066836e+38
-0.070484295 0.017750546 0.28800002 -1.7067358e+38
-0.070018001 0.017750546 0.28800002 -1.7067362e+38
-0.069085427 0.017750546 0.28800002 -1.7066836e+38
-0.092740491 0.016382502 0.259 -1.7041806e+38
-0.09232115 0.016382502 0.259 -1.7041806e+38
-0.091901816 0.016382502 0.259 -1.7042327e+38
-0.091063142 0.016382502 0.259 -1.7041806e+38
-0.090993784 0.016445754 0.26000002 -1.7041806e+38
-0.090572827 0.016445754 0.26000002 -1.7041806e+38
-0.090151869 0.016445754 0.26000002 -1.7041802e+38
-0.089730918 0.016445754 0.26000002 -1.7041802e+38
-0.088889003 0.016445754 0.26000002 -1.7041281e+38
-0.088119365 0.016698766 0.264 -1.7041802e+38
-0.088024102 0.01676202 0.26500002 -1.7042323e+38
-0.087718874 0.016951777 0.26800001 -1.7042327e+38
-0.087610655 0.017015031 0.26900002 -1.7042327e+38
-0.087499201 0.017078284 0.27000001 -1.7042327e+38
-0.086624905 0.017078284 0.27000001 -1.7042327e+38
-0.08650697 0.017141536 0.27100003 -1.7042848e+38
-0.086385801 0.017204789 0.27200001 -1.7042327e+38
-0.086261392 0.017268043 0.273 -1.7042327e+38
-0.085819393 0.017268043 0.273 -1.7042327e+38
-0.085690126 0.017331295 0.27400002 -1.7042848e+38
-0.085868739 0.017457802 0.27600002 -1.7042852e+38
-0.085421883 0.017457802 0.27600002 -1.7042852e+38
-0.085282899 0.017521054 0.27700001 -1.7042852e+38
-0.085140683 0.017584307 0.27800003 -1.7043895e+38
-0.084240481 0.017584307 0.27800003 -1.7043895e+38
-0.083790384 0.017584307 0.27800003 -1.7043895e+38
-0.083640069 0.017647559 0.27900001 -1.7043895e+38
-0.083188355 0.017647559 0.27900001 -1.7043901e+38
-0.08228492 0.017647559 0.27900001 -1.704442e+38
-0.081833199 0.017647559 0.27900001 -1.704442e+38
-0.081673175 0.017710812 0.28 -1.704442e+38
-0.081219837 0.017710812 0.28 -1.7043899e+38
-0.080766499 0.017710812 0.28 -1.704442e+38
-0.080145039 0.017774066 0.28100002 -1.704442e+38
-0.079973675 0.017837318 0.28200001 -1.704442e+38
-0.079517104 0.017837318 0.28200001 -1.704442e+38
-0.079340883 0.017900571 0.28300002 -1.7044942e+38
-0.078882687 0.017900571 0.28300002 -1.7045986e+38
-0.078701608 0.017963825 0.28400001 -1.7045986e+38
-0.078517295 0.018027076 0.28500003 -1.7046511e+38
-0.077594429 0.018027076 0.28500003 -1.7046515e+38
-0.077133 0.018027076 0.28500003 -1.7047037e+38
-0.076671563 0.018027076 0.28500003 -1.7048602e+38
-0.076477535 0.01809033 0.28600001 -1.7182047e+38
-0.075551435 0.01809033 0.28600001 -1.7452579e+38
-0.075088382 0.01809033 0.28600001 -1.7057973e+38
-0.074625328 0.01809033 0.28600001 -1.7325382e+38
-0.074421592 0.018153584 0.287 -1.7062143e+38
-0.073956922 0.018153584 0.287 -1.7195587e+38
-0.073027574 0.018153584 0.287 -1.7197159e+38
-0.072562903 0.018153584 0.287 -1.7064238e+38
-0.072098233 0.018153584 0.287 -1.7064759e+38
-0.071168892 0.018153584 0.287 -1.7199765e+38
-0.070704222 0.018153584 0.287 -1.706684e+38
-0.070239551 0.018153584 0.287 -1.7067362e+38
-0.069774881 0.018153584 0.287 -1.7067362e+38
-0.092800133 0.016736967 0.25800002 -1.7041285e+38
-0.092382416 0.016736967 0.25800002 -1.7041285e+38
-0.091964699 0.016736967 0.25800002 -1.7041806e+38
-0.091129266 0.016736967 0.25800002 -1.7041806e+38
-0.090711549 0.016736967 0.25800002 -1.7041806e+38
-0.090643808 0.016801838 0.259 -1.7041806e+38
-0.090224467 0.016801838 0.259 -1.7041285e+38
-0.090151869 0.01686671 0.26000002 -1.7041281e+38
-0.089730918 0.01686671 0.26000002 -1.7041802e+38
-0.088205241 0.016736967 0.25800002 -1.7041281e+38
-0.087787524 0.016736967 0.25800002 -1.7041281e+38
-0.086187758 0.01751543 0.27000001 -1.7042848e+38
-0.086068206 0.017580302 0.27100003 -1.7042327e+38
-0.08594542 0.017645173 0.27200001 -1.7042327e+38
-0.085819393 0.017710047 0.273 -1.7042327e+38
-0.085377388 0.017710047 0.273 -1.7042327e+38
-0.085557625 0.017839789 0.27500001 -1.7042852e+38
-0.085421883 0.017904662 0.27600002 -1.7042852e+38
-0.085282899 0.017969534 0.27700001 -1.7043895e+38
-0.085140683 0.018034406 0.27800003 -1.7043895e+38
-0.084240481 0.018034406 0.27800003 -1.7043895e+38
-0.08409179 0.018099276 0.27900001 -1.7043895e+38
-0.083640069 0.018099276 0.27900001 -1.7044416e+38
-0.083188355 0.018099276 0.27900001 -1.7044935e+38
-0.08228492 0.018099276 0.27900001 -1.7044935e+38
-0.081833199 0.018099276 0.27900001 -1.7044935e+38
-0.12125675 0.020479236 0.30800003 -2.0255915e+38
-0.12075808 0.020479236 0.30800003 -1.7863826e+38
-0.1202594 0.020479236 0.30800003 -1.7463493e+38
-0.12014956 0.020545727 0.30900002 -1.7062129e+38
-0.081673175 0.018617487 0.28 -1.704442e+38
-0.081219837 0.018617487 0.28 -1.704442e+38
-0.080766499 0.018617487 0.28 -1.704442e+38
-0.080145039 0.018683977 0.28100002 -1.7044942e+38
-0.079973675 0.018750468 0.28200001 -1.704442e+38
-0.079517104 0.018750468 0.28200001 -1.7044944e+38
-0.079340883 0.018816961 0.28300002 -1.7045465e+38
-0.078882687 0.018816961 0.28300002 -1.704599e+38
-0.078424498 0.018816961 0.28300002 -1.7046511e+38
-0.077781983 0.01888345 0.28400001 -1.7049641e+38
-0.07732217 0.01888345 0.28400001 -1.7051211e+38
-0.077133 0.018949941 0.28500003 -1.7452064e+38
-0.076671563 0.018949941 0.28500003 -1.7189865e+38
-0.076210134 0.018949941 0.28500003 -1.7590198e+38
-0.075551435 0.019016432 0.28600001 -1.7327473e+38
-0.075088382 0.019016432 0.28600001 -1.7062147e+38
-0.074625328 0.019016432 0.28600001 -1.7062668e+38
-0.074421592 0.019082924 0.287 -1.706423e+38
-0.073956922 0.019082924 0.287 -1.7197674e+38
-0.073027574 0.019082924 0.287 -1.7198199e+38
-0.072562903 0.019082924 0.287 -1.7065279e+38
-0.072098233 0.019082924 0.287 -1.70658e+38
-0.071168892 0.019082924 0.287 -1.7067362e+38
-0.070704222 0.019082924 0.287 -1.7067362e+38
-0.070239551 0.019082924 0.287 -1.7067362e+38
-0.069774881 0.019082924 0.287 -1.7067362e+38
-0.1223542 0.020909796 0.30700001 -2.238632e+38
-0.1213601 0.020909796 0.30700001 -1.8529484e+38
-0.12086305 0.020909796 0.30700001 -1.7862264e+38
-0.12075808 0.020977907 0.30800003 -1.7063165e+38
-0.1202594 0.020977907 0.30800003 -1.706108e+38
-0.11926206 0.020977907 0.30800003 -1.7053797e+38
-0.091964699 0.017572403 0.25800002 -1.7041281e+38
-0.091129266 0.017572403 0.25800002 -1.7041281e+38
-0.090711549 0.017572403 0.25800002 -1.7041281e+38
-0.090293832 0.017572403 0.25800002 -1.7041281e+38
-0.089876108 0.017572403 0.25800002 -1.7041281e+38
-0.089040674 0.017572403 0.25800002 -1.7041802e+38
-0.088622957 0.017572403 0.25800002 -1.7041281e+38
-0.088205241 0.017572403 0.25800002 -1.7041281e+38
-0.087787524 0.017572403 0.25800002 -1.7041281e+38
-0.08695209 0.017572403 0.25800002 -1.7041802e+38
-0.085449077 0.017436182 0.25600001 -1.7041806e+38
-0.085366771 0.017504292 0.257 -1.7042327e+38
-0.084950671 0.017504292 0.257 -1.7042327e+38
-0.084534571 0.017504292 0.257 -1.7042327e+38
-0.084118471 0.017504292 0.257 -1.7042327e+38
-0.083286278 0.017504292 0.257 -1.7042327e+38
-0.08594542 0.018525941 0.27200001 -1.7042327e+38
-0.085819393 0.018594053 0.273 -1.7042327e+38
-0.085377388 0.018594053 0.273 -1.7042327e+38
-0.085246503 0.018662162 0.27400002 -1.7042852e+38
-0.085421883 0.018798383 0.27600002 -1.7042852e+38
-0.085282899 0.018866492 0.27700001 -1.7043895e+38
-0.085140683 0.018934604 0.27800003 -1.7043895e+38
-0.084240481 0.018934604 0.27800003 -1.7043895e+38
-0.08409179 0.019002713 0.27900001 -1.7043895e+38
-0.083640069 0.019002713 0.27900001 -1.7044416e+38
-0.083188355 0.019002713 0.27900001 -1.7044414e+38
-0.08228492 0.019002713 0.27900001 -1.7044935e+38
-0.082126506 0.019070825 0.28 -1.7044935e+38
-0.081673175 0.019070825 0.28 -1.704442e+38
-0.081219837 0.019070825 0.28 -1.704442e+38
-0.081054948 0.019138934 0.28100002 -1.704442e+38
-0.080145039 0.019138934 0.28100002 -1.7045461e+38
-0.079973675 0.019207044 0.28200001 -1.7045461e+38
-0.079517104 0.019207044 0.28200001 -1.7045986e+38
-0.079060525 0.019207044 0.28200001 -1.7046507e+38
-0.078882687 0.019275155 0.28300002 -1.7047552e+38
-0.078424498 0.019275155 0.28300002 -1.7315483e+38
-0.077508107 0.019275155 0.28300002 -1.7453616e+38
-0.07732217 0.019343264 0.28400001 -1.7189861e+38
-0.076862358 0.019343264 0.28400001 -1.7456749e+38
-0.076402538 0.019343264 0.28400001 -1.7060585e+38
-0.076210134 0.019411374 0.28500003 -1.7327473e+38
-0.075551435 0.019479483 0.28600001 -1.7062668e+38
-0.075088382 0.019479483 0.28600001 -1.7063188e+38
-0.074625328 0.019479483 0.28600001 -1.7063188e+38
-0.074162282 0.019479483 0.28600001 -1.7064749e+38
-0.073956922 0.019547595 0.287 -1.7065271e+38
-0.072773129 0.019479483 0.28600001 -1.7065796e+38
-0.072562903 0.019547595 0.287 -1.70658e+38
-0.072098233 0.019547595 0.287 -1.7066321e+38
-0.071168892 0.019547595 0.287 -1.7067362e+38
-0.070704222 0.019547595 0.287 -1.7067362e+38
-0.070239551 0.019547595 0.287 -1.7067362e+38
-0.069774881 0.019547595 0.287 -1.7067362e+38
-0.1224511 0.021337118 0.30600002 -2.5311668e+38
-0.1223542 0.021406846 0.30700001 -2.0258517e+38
-0.1213601 0.021406846 0.30700001 -1.772882e+38
-0.12086305 0.021406846 0.30700001 -1.7060557e+38
-0.120366 0.021406846 0.30700001 -1.7057438e+38
-0.11986895 0.021406846 0.30700001 -1.7053789e+38
-0.11926206 0.021476576 0.30800003 -1.7048065e+38
-0.091964699 0.01799012 0.25800002 -1.7040761e+38
-0.091129266 0.01799012 0.25800002 -1.7040761e+38
-0.090711549 0.01799012 0.25800002 -1.7040761e+38
-0.090293832 0.01799012 0.25800002 -1.7040761e+38
-0.090224467 0.018059848 0.259 -1.7040761e+38
-0.089040674 0.01799012 0.25800002 -1.7040761e+38
-0.088622957 0.01799012 0.25800002 -1.7040761e+38
-0.087107003 0.017850662 0.25600001 -1.7040761e+38
-0.086692519 0.017850662 0.25600001 -1.7041283e+38
-0.086278044 0.017850662 0.25600001 -1.7041283e+38
-0.085449077 0.017850662 0.25600001 -1.7041806e+38
-0.085366771 0.01792039 0.257 -1.7041806e+38
-0.084620118 0.017850662 0.25600001 -1.7042327e+38
-0.084205642 0.017850662 0.25600001 -1.7042327e+38
-0.083376683 0.017850662 0.25600001 -1.7042327e+38
-0.0829622 0.017850662 0.25600001 -1.7042327e+38
-0.082547724 0.017850662 0.25600001 -1.7042327e+38
-0.082454078 0.01792039 0.257 -1.7042327e+38
-0.085282899 0.019314973 0.27700001 -1.7043895e+38
-0.085140683 0.019384703 0.27800003 -1.7043895e+38
-0.084240481 0.019384703 0.27800003 -1.7043895e+38
-0.08409179 0.019454431 0.27900001 -1.7043895e+38
-0.083640069 0.019454431 0.27900001 -1.7043895e+38
-0.083188355 0.019454431 0.27900001 -1.7043901e+38
-0.083033182 0.019524161 0.28 -1.7043901e+38
-0.082126506 0.019524161 0.28 -1.704442e+38
-0.081673175 0.019524161 0.28 -1.704442e+38
-0.081509903 0.019593889 0.28100002 -1.704442e+38
-0.081054948 0.019593889 0.28100002 -1.704442e+38
-0.080145039 0.019593889 0.28100002 -1.7045986e+38
-0.079973675 0.019663619 0.28200001 -1.7046507e+38
-0.079517104 0.019663619 0.28200001 -1.7049635e+38
-0.079060525 0.019663619 0.28200001 -1.7050677e+38
-0.078603953 0.019663619 0.28200001 -1.7054845e+38
-0.077690803 0.019663619 0.28200001 -1.7058492e+38
-0.077508107 0.019733349 0.28300002 -1.7192979e+38
-0.077049911 0.019733349 0.28300002 -1.7060585e+38
-0.076591715 0.019733349 0.28300002 -1.7060585e+38
-0.075675331 0.019733349 0.28300002 -1.7062153e+38
-0.075217135 0.019733349 0.28300002 -1.7062672e+38
-0.0750231 0.019803077 0.28400001 -1.7062672e+38
-0.074625328 0.019942535 0.28600001 -1.7062672e+38
-0.074162282 0.019942535 0.28600001 -1.7064234e+38
-0.073236175 0.019942535 0.28600001 -1.70658e+38
-0.072773129 0.019942535 0.28600001 -1.70658e+38
-0.072310075 0.019942535 0.28600001 -1.7066319e+38
-0.072098233 0.020012265 0.287 -1.706684e+38
-0.071168892 0.020012265 0.287 -1.706684e+38
-0.070704222 0.020012265 0.287 -1.7067362e+38
-0.070239551 0.020012265 0.287 -1.7067362e+38
-0.091129266 0.018407838 0.25800002 -1.7040761e+38
-0.090711549 0.018407838 0.25800002 -1.7040761e+38
-0.090293832 0.018407838 0.25800002 -1.7041283e+38
-0.089876108 0.018407838 0.25800002 -1.7040761e+38
-0.089040674 0.018407838 0.25800002 -1.7041283e+38
-0.088279456 0.018336488 0.257 -1.7040761e+38
-0.087107003 0.018265141 0.25600001 -1.7040761e+38
-0.086692519 0.018265141 0.25600001 -1.7041283e+38
-0.086278044 0.018265141 0.25600001 -1.7040761e+38
-0.085449077 0.018265141 0.25600001 -1.7041802e+38
-0.085034601 0.018265141 0.25600001 -1.7041802e+38
-0.084620118 0.018265141 0.25600001 -1.7041806e+38
-0.084205642 0.018265141 0.25600001 -1.7041806e+38
-0.083376683 0.018265141 0.25600001 -1.7042327e+38
-0.0829622 0.018265141 0.25600001 -1.7042327e+38
-0.082547724 0.018265141 0.25600001 -1.7042327e+38
-0.082133241 0.018265141 0.25600001 -1.7042327e+38
-0.081304282 0.018265141 0.25600001 -1.7042848e+38
-0.080889806 0.018265141 0.25600001 -1.7042327e+38
-0.080475323 0.018265141 0.25600001 -1.7042331e+38
-0.084385939 0.019763453 0.27700001 -1.7043895e+38
-0.084240481 0.0198348 0.27800003 -1.7043895e+38
-0.08409179 0.019906148 0.27900001 -1.704338e+38
-0.083640069 0.019906148 0.27900001 -1.704338e+38
-0.083188355 0.019906148 0.27900001 -1.7043899e+38
-0.083033182 0.019977497 0.28 -1.704442e+38
-0.082126506 0.019977497 0.28 -1.704442e+38
-0.081964865 0.020048846 0.28100002 -1.7044424e+38
-0.081219837 0.019977497 0.28 -1.7044946e+38
-0.081054948 0.020048846 0.28100002 -1.7045986e+38
-0.080145039 0.020048846 0.28100002 -1.704911e+38
-0.079690084 0.020048846 0.28100002 -1.731704e+38
-0.079517104 0.020120192 0.28200001 -1.7055882e+38
-0.079060525 0.020120192 0.28200001 -1.7323291e+38
-0.078603953 0.020120192 0.28200001 -1.7059535e+38
-0.077690803 0.020120192 0.28200001 -1.7061101e+38
-0.077234223 0.020120192 0.28200001 -1.7061622e+38
-0.076777652 0.020120192 0.28200001 -1.7061111e+38
-0.075864501 0.020120192 0.28200001 -1.7062672e+38
-0.075407922 0.020120192 0.28200001 -1.7062672e+38
-0.074951351 0.020120192 0.28200001 -1.7062672e+38
-0.074494772 0.020120192 0.28200001 -1.7063715e+38
-0.073236175 0.020405585 0.28600001 -1.70658e+38
-0.072773129 0.020405585 0.28600001 -1.70658e+38
-0.072310075 0.020405585 0.28600001 -1.7066319e+38
-0.072098233 0.020476935 0.287 -1.706684e+38
-0.071168892 0.020476935 0.287 -1.7066319e+38
-0.070457868 0.020405585 0.28600001 -1.7067362e+38
-0.069994815 0.020405585 0.28600001 -1.7067362e+38
-0.1224511 0.022327984 0.30600002 -2.0923135e+38
-0.12146023 0.022327984 0.30600002 -1.7193482e+38
-0.1209648 0.022327984 0.30600002 -1.7056391e+38
-0.12046936 0.022327984 0.30600002 -1.7053263e+38
-0.11997394 0.022327984 0.30600002 -1.704858e+38
-0.11986895 0.022400949 0.30700001 -1.7048059e+38
-0.11887484 0.022400949 0.30700001 -1.704441e+38
-0.11837779 0.022400949 0.30700001 -1.704285e+38
-0.091901816 0.018898522 0.259 -1.704024e+38
-0.091063142 0.018898522 0.259 -1.7040761e+38
-0.090643808 0.018898522 0.259 -1.7041283e+38
-0.089876108 0.018825555 0.25800002 -1.7041283e+38
-0.089040674 0.018825555 0.25800002 -1.7041283e+38
-0.088279456 0.018752586 0.257 -1.7040761e+38
-0.087107003 0.018679621 0.25600001 -1.7041283e+38
-0.086692519 0.018679621 0.25600001 -1.7041283e+38
-0.086278044 0.018679621 0.25600001 -1.7040761e+38
-0.085449077 0.018679621 0.25600001 -1.7041283e+38
-0.085034601 0.018679621 0.25600001 -1.7041283e+38
-0.084620118 0.018679621 0.25600001 -1.7041802e+38
-0.084205642 0.018679621 0.25600001 -1.7041802e+38
-0.083376683 0.018679621 0.25600001 -1.7042327e+38
-0.0829622 0.018679621 0.25600001 -1.7042327e+38
-0.082547724 0.018679621 0.25600001 -1.7042327e+38
-0.081399553 0.018606653 0.25500003 -1.7042327e+38
-0.080986694 0.018606653 0.25500003 -1.7042852e+38
-0.080573827 0.018606653 0.25500003 -1.7042852e+38
-0.079748109 0.018606653 0.25500003 -1.7042852e+38
-0.07933525 0.018606653 0.25500003 -1.7043895e+38
-0.078922391 0.018606653 0.25500003 -1.7043895e+38
-0.12205092 0.02274883 0.30500001 -1.9860272e+38
-0.12106329 0.02274883 0.30500001 -1.7330575e+38
-0.12056948 0.02274883 0.30500001 -1.7062123e+38
-0.12007567 0.02274883 0.30500001 -1.7057953e+38
-0.11997394 0.022823416 0.30600002 -1.7049617e+38
-0.11898307 0.022823416 0.30600002 -1.7045972e+38
-0.11848763 0.022823416 0.30600002 -1.7044408e+38
-0.1179922 0.022823416 0.30600002 -1.7042325e+38
-0.08409179 0.020809583 0.27900001 -1.704338e+38
-0.083939858 0.020884171 0.28 -1.7043901e+38
-0.08348652 0.020884171 0.28 -1.7044424e+38
-0.083033182 0.020884171 0.28 -1.7044424e+38
-0.082126506 0.020884171 0.28 -1.7046507e+38
-0.081964865 0.020958757 0.28100002 -1.704912e+38
-0.081219837 0.020884171 0.28 -1.7316529e+38
-0.080766499 0.020884171 0.28 -1.7056411e+38
-0.079859823 0.020884171 0.28 -1.7325908e+38
-0.079406485 0.020884171 0.28 -1.7325908e+38
-0.079235129 0.020958757 0.28100002 -1.7061101e+38
-0.078780167 0.020958757 0.28100002 -1.7061622e+38
-0.077870257 0.020958757 0.28100002 -1.7062143e+38
-0.077415302 0.020958757 0.28100002 -1.7061632e+38
-0.076960348 0.020958757 0.28100002 -1.7062153e+38
-0.075779788 0.020884171 0.28 -1.7063719e+38
-0.07532645 0.020884171 0.28 -1.7062676e+38
-0.07487312 0.020884171 0.28 -1.7062676e+38
-0.073966444 0.020884171 0.28 -1.7063719e+38
-0.073513106 0.020884171 0.28 -1.7064238e+38
-0.073320694 0.020958757 0.28100002 -1.7064759e+38
-0.072865739 0.020958757 0.28100002 -1.7064238e+38
-0.072410785 0.020958757 0.28100002 -1.7064759e+38
-0.071500875 0.020958757 0.28100002 -1.7065279e+38
-0.071045913 0.020958757 0.28100002 -1.70658e+38
-0.072098233 0.021406276 0.287 -1.7066321e+38
-0.070920922 0.021331688 0.28600001 -1.706684e+38
-0.070457868 0.021331688 0.28600001 -1.706684e+38
-0.12115856 0.023166439 0.30400002 -1.7069422e+38
-0.12106329 0.023242643 0.30500001 -1.706838e+38
-0.12056948 0.023242643 0.30500001 -1.7067859e+38
-0.12007567 0.023242643 0.30500001 -1.7066816e+38
-0.11908804 0.023242643 0.30500001 -1.7060036e+38
-0.11859423 0.023242643 0.30500001 -1.7054302e+38
-0.11810041 0.023242643 0.30500001 -1.7049611e+38
-0.1179922 0.023318848 0.30600002 -1.7043883e+38
-0.11788074 0.023395052 0.30700001 -1.7043883e+38
-0.091063142 0.019737195 0.259 -1.7040761e+38
-0.090643808 0.019737195 0.259 -1.7040761e+38
-0.089876108 0.019660991 0.25800002 -1.7041283e+38
-0.089040674 0.019660991 0.25800002 -1.7040761e+38
-0.088279456 0.019584784 0.257 -1.7041283e+38
-0.087107003 0.01950858 0.25600001 -1.7041283e+38
-0.086692519 0.01950858 0.25600001 -1.7041804e+38
-0.086278044 0.01950858 0.25600001 -1.7041283e+38
-0.085449077 0.01950858 0.25600001 -1.7041283e+38
-0.085034601 0.01950858 0.25600001 -1.7041283e+38
-0.084620118 0.01950858 0.25600001 -1.7041287e+38
-0.084205642 0.01950858 0.25600001 -1.7041287e+38
-0.083376683 0.01950858 0.25600001 -1.7042852e+38
-0.0829622 0.01950858 0.25600001 -1.7042331e+38
-0.082547724 0.01950858 0.25600001 -1.7042331e+38
-0.081399553 0.019432373 0.25500003 -1.7042852e+38
-0.080986694 0.019432373 0.25500003 -1.7042852e+38
-0.079846613 0.019356167 0.25400001 -1.7042852e+38
-0.079435371 0.019356167 0.25400001 -1.7042852e+38
-0.079024129 0.019356167 0.25400001 -1.7043895e+38
-0.078612886 0.019356167 0.25400001 -1.7043895e+38
-0.077484146 0.019279962 0.25300002 -1.704338e+38
-0.07707452 0.019279962 0.25300002 -1.7043901e+38
-0.076664895 0.019279962 0.25300002 -1.7043901e+38
-0.07759314 0.021337509 0.28 -1.7062143e+38
-0.077139802 0.021337509 0.28 -1.7062672e+38
-0.076686464 0.021337509 0.28 -1.7063715e+38
-0.075779788 0.021337509 0.28 -1.7063719e+38
-0.07532645 0.021337509 0.28 -1.7062676e+38
-0.07487312 0.021337509 0.28 -1.7063719e+38
-0.073966444 0.021337509 0.28 -1.7063719e+38
-0.073513106 0.021337509 0.28 -1.7064238e+38
-0.073059767 0.021337509 0.28 -1.7064759e+38
-0.072606429 0.021337509 0.28 -1.7064238e+38
-0.071699761 0.021337509 0.28 -1.70658e+38
-0.071246423 0.021337509 0.28 -1.7065279e+38
-0.070793085 0.021337509 0.28 -1.7065279e+38
-0.070590958 0.021413714 0.28100002 -1.7066321e+38
-0.12125058 0.023580806 0.303 -1.8797934e+38
-0.12076001 0.023580806 0.303 -1.7072029e+38
-0.12026943 0.023580806 0.303 -1.7071507e+38
-0.11977886 0.023580806 0.303 -1.7071507e+38
-0.11879771 0.023580806 0.303 -1.706942e+38
-0.11869759 0.023658633 0.30400002 -1.7067857e+38
-0.11859423 0.023736456 0.30500001 -1.7067329e+38
-0.11810041 0.023736456 0.30500001 -1.7066287e+38
-0.1176066 0.023736456 0.30500001 -1.7327441e+38
-0.11749677 0.023814281 0.30600002 -1.7057425e+38
-0.091063142 0.020156533 0.259 -1.7040761e+38
-0.090643808 0.020156533 0.259 -1.7040761e+38
-0.089876108 0.020078707 0.25800002 -1.7040761e+38
-0.089040674 0.020078707 0.25800002 -1.7041283e+38
-0.088622957 0.020078707 0.25800002 -1.7041283e+38
-0.087863363 0.020000882 0.257 -1.7041283e+38
-0.086692519 0.019923059 0.25600001 -1.7041283e+38
-0.086278044 0.019923059 0.25600001 -1.7041283e+38
-0.085449077 0.019923059 0.25600001 -1.7041283e+38
-0.085034601 0.019923059 0.25600001 -1.7041283e+38
-0.084620118 0.019923059 0.25600001 -1.7041808e+38
-0.084205642 0.019923059 0.25600001 -1.7041287e+38
-0.083376683 0.019923059 0.25600001 -1.7042331e+38
-0.0829622 0.019923059 0.25600001 -1.7042331e+38
-0.082225271 0.019845234 0.25500003 -1.7042331e+38
-0.081399553 0.019845234 0.25500003 -1.7042852e+38
-0.080986694 0.019845234 0.25500003 -1.7042852e+38
-0.079846613 0.019767409 0.25400001 -1.7042852e+38
-0.079435371 0.019767409 0.25400001 -1.7043895e+38
-0.079024129 0.019767409 0.25400001 -1.704338e+38
-0.078612886 0.019767409 0.25400001 -1.7043901e+38
-0.077484146 0.019689584 0.25300002 -1.704442e+38
-0.07707452 0.019689584 0.25300002 -1.704442e+38
-0.076664895 0.019689584 0.25300002 -1.7044942e+38
-0.07554587 0.019611761 0.252 -1.7179951e+38
-0.075436033 0.019689584 0.25300002 -1.7049635e+38
-0.075960867 0.02171302 0.27900001 -1.7062676e+38
-0.075509146 0.02171302 0.27900001 -1.7062676e+38
-0.075057432 0.02171302 0.27900001 -1.7062676e+38
-0.074605711 0.02171302 0.27900001 -1.7063719e+38
-0.073702276 0.02171302 0.27900001 -1.7063719e+38
-0.073250562 0.02171302 0.27900001 -1.7064238e+38
-0.072798841 0.02171302 0.27900001 -1.7064759e+38
-0.071895406 0.02171302 0.27900001 -1.7064759e+38
-0.071443684 0.02171302 0.27900001 -1.70658e+38
-0.071246423 0.021790845 0.28 -1.7065279e+38
-0.070793085 0.021790845 0.28 -1.7065279e+38
-0.070339747 0.021790845 0.28 -1.7066321e+38
-0.069681048 0.02186867 0.28100002 -1.706684e+38
-0.069226094 0.02186867 0.28100002 -1.7067362e+38
-0.090711549 0.020496426 0.25800002 -1.7040761e+38
-0.090643808 0.020575868 0.259 -1.7040761e+38
-0.090224467 0.020575868 0.259 -1.7040761e+38
-0.089040674 0.020496426 0.25800002 -1.7041283e+38
-0.088622957 0.020496426 0.25800002 -1.7041283e+38
-0.088205241 0.020496426 0.25800002 -1.7041283e+38
-0.087031163 0.020416981 0.257 -1.7041283e+38
-0.086615063 0.020416981 0.257 -1.7041283e+38
-0.086198963 0.020416981 0.257 -1.7041283e+38
-0.085034601 0.020337539 0.25600001 -1.7041283e+38
-0.084620118 0.020337539 0.25600001 -1.7041808e+38
-0.084205642 0.020337539 0.25600001 -1.7041287e+38
-0.083376683 0.020337539 0.25600001 -1.7042331e+38
-0.08263813 0.020258095 0.25500003 -1.7042337e+38
-0.082225271 0.020258095 0.25500003 -1.7041816e+38
-0.081399553 0.020258095 0.25500003 -1.7042337e+38
-0.080986694 0.020258095 0.25500003 -1.7042337e+38
-0.079846613 0.02017865 0.25400001 -1.704338e+38
-0.079435371 0.02017865 0.25400001 -1.7043901e+38
-0.079024129 0.02017865 0.25400001 -1.704442e+38
-0.078612886 0.02017865 0.25400001 -1.704442e+38
-0.077484146 0.020099208 0.25300002 -1.7044424e+38
-0.07707452 0.020099208 0.25300002 -1.7046505e+38
-0.076664895 0.020099208 0.25300002 -1.7047548e+38
-0.07554587 0.020019764 0.252 -1.7584454e+38
-0.075137861 0.020019764 0.252 -1.7056411e+38
-0.074321859 0.020019764 0.252 -1.7191938e+38
-0.073913857 0.020019764 0.252 -1.7325382e+38
-0.073214158 0.01994032 0.25100002 -1.7060581e+38
-0.072401389 0.01994032 0.25100002 -1.7061626e+38
-0.071995005 0.01994032 0.25100002 -1.7062147e+38
-0.071588628 0.01994032 0.25100002 -1.7062147e+38
-0.070775859 0.01994032 0.25100002 -1.7062147e+38
-0.070369475 0.01994032 0.25100002 -1.7062668e+38
-0.070241824 0.020019764 0.252 -1.7062668e+38
-0.069833823 0.020019764 0.252 -1.7062147e+38
-0.074605711 0.022164738 0.27900001 -1.7063719e+38
-0.073702276 0.022164738 0.27900001 -1.7063719e+38
-0.073250562 0.022164738 0.27900001 -1.7064238e+38
-0.072798841 0.022164738 0.27900001 -1.7064238e+38
-0.071895406 0.022164738 0.27900001 -1.7064759e+38
-0.071443684 0.022164738 0.27900001 -1.70658e+38
-0.070991971 0.022164738 0.27900001 -1.7065279e+38
-0.070540249 0.022164738 0.27900001 -1.7065279e+38
-0.069636814 0.022164738 0.27900001 -1.706684e+38
-0.069433071 0.022244183 0.28 -1.706684e+38
-0.068979733 0.022244183 0.28 -1.7067362e+38
-0.12085043 0.024480896 0.30200002 -2.065416e+38
-0.12076001 0.024561958 0.303 -1.7203917e+38
-0.12026943 0.024561958 0.303 -1.7070473e+38
-0.11977886 0.024561958 0.303 -1.7071514e+38
-0.11879771 0.024561958 0.303 -1.7071514e+38
-0.11830714 0.024561958 0.303 -1.7071514e+38
-0.11781656 0.024561958 0.303 -1.7070992e+38
-0.11771321 0.024643021 0.30400002 -1.706995e+38
-0.11672881 0.024643021 0.30400002 -1.706995e+38
-0.07554587 0.020427767 0.252 -1.7323295e+38
-0.075137861 0.020427767 0.252 -1.7324867e+38
-0.074321859 0.020427767 0.252 -1.7060581e+38
-0.073913857 0.020427767 0.252 -1.7060581e+38
-0.073505849 0.020427767 0.252 -1.7062143e+38
-0.073097847 0.020427767 0.252 -1.7061622e+38
-0.071995005 0.020346705 0.25100002 -1.7062147e+38
-0.071588628 0.020346705 0.25100002 -1.7062147e+38
-0.070775859 0.020346705 0.25100002 -1.7062147e+38
-0.070369475 0.020346705 0.25100002 -1.7062668e+38
-0.06996309 0.020346705 0.25100002 -1.7062668e+38
-0.069556706 0.020346705 0.25100002 -1.7062147e+38
-0.069425821 0.020427767 0.252 -1.7062672e+38
-0.068609811 0.020427767 0.252 -1.7062672e+38
-0.12045025 0.024887171 0.30100003 -2.1979727e+38
-0.12036147 0.024969852 0.30200002 -1.7469233e+38
-0.11987251 0.024969852 0.30200002 -1.7202345e+38
-0.1188946 0.024969852 0.30200002 -1.7071514e+38
-0.11840565 0.024969852 0.30200002 -1.7071514e+38
-0.11791669 0.024969852 0.30200002 -1.7070992e+38
-0.11742773 0.024969852 0.30200002 -1.7070992e+38
-0.11644982 0.024969852 0.30200002 -1.7070992e+38
-0.11596087 0.024969852 0.30200002 -1.7070992e+38
-0.090711549 0.021331862 0.25800002 -1.7041285e+38
-0.090293832 0.021331862 0.25800002 -1.7041285e+38
-0.090224467 0.021414543 0.259 -1.7041285e+38
-0.089805134 0.021414543 0.259 -1.7041806e+38
-0.088622957 0.021331862 0.25800002 -1.7041806e+38
-0.088205241 0.021331862 0.25800002 -1.7041806e+38
-0.087787524 0.021331862 0.25800002 -1.7041806e+38
-0.086615063 0.021249179 0.257 -1.7041806e+38
-0.086198963 0.021249179 0.257 -1.7042327e+38
-0.085366771 0.021249179 0.257 -1.7042327e+38
-0.084620118 0.021166496 0.25600001 -1.7042327e+38
-0.084205642 0.021166496 0.25600001 -1.7042327e+38
-0.083376683 0.021166496 0.25600001 -1.7042852e+38
-0.08263813 0.021083815 0.25500003 -1.7042337e+38
-0.082225271 0.021083815 0.25500003 -1.7041816e+38
-0.081399553 0.021083815 0.25500003 -1.704338e+38
-0.080669098 0.021001132 0.25400001 -1.7043899e+38
-0.079846613 0.021001132 0.25400001 -1.7044942e+38
-0.079435371 0.021001132 0.25400001 -1.7044942e+38
-0.079024129 0.021001132 0.25400001 -1.7047027e+38
-0.078612886 0.021001132 0.25400001 -1.744788e+38
-0.077484146 0.020918451 0.25300002 -1.7584454e+38
-0.07707452 0.020918451 0.25300002 -1.7056928e+38
-0.076664895 0.020918451 0.25300002 -1.7190372e+38
-0.071637712 0.022985492 0.27800003 -1.7064755e+38
-0.071443684 0.023068173 0.27900001 -1.7065796e+38
-0.070991971 0.023068173 0.27900001 -1.7065275e+38
-0.070540249 0.023068173 0.27900001 -1.7065796e+38
-0.069636814 0.023068173 0.27900001 -1.7066317e+38
-0.11996292 0.025374508 0.30100003 -1.8531056e+38
-0.11947558 0.025374508 0.30100003 -1.799728e+38
-0.1185009 0.025374508 0.30100003 -1.7070988e+38
-0.11801357 0.025374508 0.30100003 -1.7071507e+38
-0.11752623 0.025374508 0.30100003 -1.7070465e+38
-0.11655156 0.025374508 0.30100003 -1.7069428e+38
-0.11606421 0.025374508 0.30100003 -1.706995e+38
-0.11557688 0.025374508 0.30100003 -1.7070992e+38
-0.11508954 0.025374508 0.30100003 -1.7070992e+38
-0.11411487 0.025374508 0.30100003 -1.706995e+38
-0.11362753 0.025374508 0.30100003 -1.706995e+38
-0.090293832 0.021749578 0.25800002 -1.7041806e+38
-0.090224467 0.021833878 0.259 -1.7041806e+38
-0.089805134 0.021833878 0.259 -1.7041806e+38
-0.088966459 0.021833878 0.259 -1.704181e+38
-0.088205241 0.021749578 0.25800002 -1.704181e+38
-0.087787524 0.021749578 0.25800002 -1.7042331e+38
-0.08695209 0.021749578 0.25800002 -1.704181e+38
-0.086534373 0.021749578 0.25800002 -1.7042331e+38
-0.085366771 0.021665277 0.257 -1.7042331e+38
-0.084950671 0.021665277 0.257 -1.7042331e+38
-0.084534571 0.021665277 0.257 -1.7042331e+38
-0.083376683 0.021580976 0.25600001 -1.7042852e+38
-0.08263813 0.021496676 0.25500003 -1.7042337e+38
-0.082225271 0.021496676 0.25500003 -1.7042337e+38
-0.081399553 0.021496676 0.25500003 -1.7043901e+38
-0.080986694 0.021496676 0.25500003 -1.704442e+38
-0.080573827 0.021496676 0.25500003 -1.7044942e+38
-0.079435371 0.021412374 0.25400001 -1.744788e+38
-0.079024129 0.021412374 0.25400001 -1.7184126e+38
-0.078612886 0.021412374 0.25400001 -1.7851346e+38
-0.077790402 0.021412374 0.25400001 -1.7590705e+38
-0.07707452 0.021328075 0.25300002 -1.7061096e+38
-0.076664895 0.021328075 0.25300002 -1.7060575e+38
-0.07554587 0.021243773 0.252 -1.7060581e+38
-0.075137861 0.021243773 0.252 -1.7061101e+38
-0.074321859 0.021243773 0.252 -1.7062143e+38
-0.073913857 0.021243773 0.252 -1.7062143e+38
-0.073505849 0.021243773 0.252 -1.7062147e+38
-0.073097847 0.021243773 0.252 -1.7062147e+38
-0.072281845 0.021243773 0.252 -1.7062147e+38
-0.071873836 0.021243773 0.252 -1.7062147e+38
-0.070775859 0.021159474 0.25100002 -1.7062147e+38
-0.070369475 0.021159474 0.25100002 -1.7062668e+38
-0.06996309 0.021159474 0.25100002 -1.7062147e+38
-0.069556706 0.021159474 0.25100002 -1.7062668e+38
-0.068743937 0.021159474 0.25100002 -1.7063188e+38
-0.068337552 0.021159474 0.25100002 -1.7062672e+38
-0.06820181 0.021243773 0.252 -1.7062672e+38
-0.067793809 0.021243773 0.252 -1.7062672e+38
-0.0673858 0.021243773 0.252 -1.7062672e+38
-0.066569798 0.021243773 0.252 -1.7062672e+38
-0.11956438 0.025775924 0.30000001 -1.9592873e+38
-0.11859294 0.025775924 0.30000001 -1.7068901e+38
-0.11810722 0.025775924 0.30000001 -1.7069422e+38
-0.1176215 0.025775924 0.30000001 -1.7069424e+38
-0.11713579 0.025775924 0.30000001 -1.7068903e+38
-0.11616435 0.025775924 0.30000001 -1.7068903e+38
-0.11567863 0.025775924 0.30000001 -1.7068909e+38
-0.11557688 0.025861844 0.30100003 -1.7069431e+38
-0.11508954 0.025861844 0.30100003 -1.7068909e+38
-0.11411487 0.025861844 0.30100003 -1.706995e+38
-0.11325004 0.025775924 0.30000001 -1.706995e+38
-0.11276432 0.025775924 0.30000001 -1.706995e+38
-0.090643808 0.022253215 0.259 -1.7047536e+38
-0.090224467 0.022253215 0.259 -1.7048578e+38
-0.089805134 0.022253215 0.259 -1.7045457e+38
-0.088966459 0.022253215 0.259 -1.7043376e+38
-0.088547125 0.022253215 0.259 -1.7043376e+38
-0.088127784 0.022253215 0.259 -1.7042335e+38
-0.08695209 0.022167295 0.25800002 -1.7041816e+38
-0.086534373 0.022167295 0.25800002 -1.7041816e+38
-0.086116649 0.022167295 0.25800002 -1.7042337e+38
-0.084950671 0.022081375 0.257 -1.7042337e+38
-0.084534571 0.022081375 0.257 -1.7042337e+38
-0.083376683 0.021995455 0.25600001 -1.7042337e+38
-0.0829622 0.021995455 0.25600001 -1.704338e+38
-0.082225271 0.021909537 0.25500003 -1.704338e+38
-0.081399553 0.021909537 0.25500003 -1.7044942e+38
-0.080986694 0.021909537 0.25500003 -1.7046505e+38
-0.080573827 0.021909537 0.25500003 -1.7047548e+38
-0.079748109 0.021909537 0.25500003 -1.7586019e+38
-0.07933525 0.021909537 0.25500003 -1.7056411e+38
-0.078612886 0.021823615 0.25400001 -1.7457265e+38
-0.077790402 0.021823615 0.25400001 -1.7060581e+38
-0.077379167 0.021823615 0.25400001 -1.7062143e+38
-0.076664895 0.021737697 0.25300002 -1.7061101e+38
-0.075845651 0.021737697 0.25300002 -1.7061622e+38
-0.075137861 0.021651777 0.252 -1.7061622e+38
-0.074321859 0.021651777 0.252 -1.7062147e+38
-0.073913857 0.021651777 0.252 -1.7062147e+38
-0.073505849 0.021651777 0.252 -1.7062147e+38
-0.073097847 0.021651777 0.252 -1.7062147e+38
-0.072281845 0.021651777 0.252 -1.7062147e+38
-0.071873836 0.021651777 0.252 -1.7062147e+38
-0.071465835 0.021651777 0.252 -1.7062668e+38
-0.070649825 0.021651777 0.252 -1.7062668e+38
-0.06996309 0.021565858 0.25100002 -1.7062147e+38
-0.069556706 0.021565858 0.25100002 -1.7062147e+38
-0.068743937 0.021565858 0.25100002 -1.7063188e+38
-0.068609811 0.021651777 0.252 -1.7062151e+38
-0.067931168 0.021565858 0.25100002 -1.7062672e+38
-0.067524783 0.021565858 0.25100002 -1.7062672e+38
-0.066712014 0.021565858 0.25100002 -1.7062672e+38
-0.06630563 0.021565858 0.25100002 -1.7063715e+38
-0.065899245 0.021565858 0.25100002 -1.7064755e+38
-0.065753788 0.021651777 0.252 -1.7064234e+38
-0.058177944 0.021565858 0.25100002 -1.7597459e+38
-0.057136629 0.021479936 0.25 -2.4648604e+38
-0.090224467 0.022672553 0.259 -1.7064206e+38
-0.090151869 0.022760089 0.26000002 -1.7060042e+38
-0.089730918 0.022760089 0.26000002 -1.705535e+38
-0.088547125 0.022672553 0.259 -1.7048065e+38
-0.088127784 0.022672553 0.259 -1.7045461e+38
-0.087708451 0.022672553 0.259 -1.7045461e+38
-0.086869776 0.022672553 0.259 -1.7043376e+38
-0.086116649 0.022585014 0.25800002 -1.7043376e+38
-0.085281216 0.022585014 0.25800002 -1.7042856e+38
-0.084863499 0.022585014 0.25800002 -1.7043899e+38
-0.084118471 0.022497473 0.257 -1.7043899e+38
-0.0829622 0.022409935 0.25600001 -1.7043899e+38
-0.082547724 0.022409935 0.25600001 -1.704442e+38
-0.081399553 0.022322398 0.25500003 -1.7314436e+38
-0.080986694 0.022322398 0.25500003 -1.7051718e+38
-0.080573827 0.022322398 0.25500003 -1.7319127e+38
-0.079748109 0.022322398 0.25500003 -1.7190377e+38
-0.07933525 0.022322398 0.25500003 -1.705902e+38
-0.078922391 0.022322398 0.25500003 -1.7325908e+38
-0.078509524 0.022322398 0.25500003 -1.7061101e+38
-0.077379167 0.022234857 0.25400001 -1.7062147e+38
-0.076967925 0.022234857 0.25400001 -1.7061626e+38
-0.075845651 0.022147318 0.25300002 -1.7062147e+38
-0.075137861 0.02205978 0.252 -1.7061626e+38
-0.074321859 0.02205978 0.252 -1.7062147e+38
-0.073913857 0.02205978 0.252 -1.7062147e+38
-0.073505849 0.02205978 0.252 -1.7062147e+38
-0.073097847 0.02205978 0.252 -1.7062147e+38
-0.072281845 0.02205978 0.252 -1.7062147e+38
-0.071873836 0.02205978 0.252 -1.7062147e+38
-0.071465835 0.02205978 0.252 -1.7062668e+38
-0.070649825 0.02205978 0.252 -1.7062668e+38
-0.070241824 0.02205978 0.252 -1.7062147e+38
-0.069833823 0.02205978 0.252 -1.7062147e+38
-0.068743937 0.021972243 0.25100002 -1.7062147e+38
-0.068337552 0.021972243 0.25100002 -1.7062672e+38
-0.067931168 0.021972243 0.25100002 -1.7062672e+38
-0.067524783 0.021972243 0.25100002 -1.7062672e+38
-0.066712014 0.021972243 0.25100002 -1.7062672e+38
-0.06630563 0.021972243 0.25100002 -1.7063715e+38
-0.065899245 0.021972243 0.25100002 -1.7064755e+38
-0.065086477 0.021972243 0.25100002 -1.7064755e+38
-0.064680092 0.021972243 0.25100002 -1.7064755e+38
-0.064529777 0.02205978 0.252 -1.7065275e+38
-0.06264817 0.021972243 0.25100002 -1.7065796e+38
-0.062241785 0.021972243 0.25100002 -1.7066317e+38
-0.06118428 0.021884702 0.25 -1.7066317e+38
-0.061022636 0.021972243 0.25100002 -1.7067362e+38
-0.060616251 0.021972243 0.25100002 -1.7067362e+38
-0.060209867 0.021972243 0.25100002 -1.7067358e+38
-0.058755688 0.021884702 0.25 -1.7067867e+38
-0.058350924 0.021884702 0.25 -1.7063682e+38
-0.057541393 0.021884702 0.25 -2.3314163e+38
-0.057136629 0.021884702 0.25 -2.451516e+38
-0.11819762 0.026658205 0.29900002 -1.7201295e+38
-0.11771352 0.026658205 0.29900002 -1.7201295e+38
-0.11722942 0.026658205 0.29900002 -1.7067855e+38
-0.11626122 0.026658205 0.29900002 -1.7067859e+38
-0.11577713 0.026658205 0.29900002 -1.7067859e+38
-0.11567863 0.026747361 0.30000001 -1.7067859e+38
-0.11519291 0.026747361 0.30000001 -1.7067859e+38
-0.11422148 0.026747361 0.30000001 -1.706838e+38
-0.11373576 0.026747361 0.30000001 -1.706838e+38
-0.11325004 0.026747361 0.30000001 -1.7068901e+38
-0.11276432 0.026747361 0.30000001 -1.7068905e+38
-0.11179288 0.026747361 0.30000001 -1.7069431e+38
-0.11130717 0.026747361 0.30000001 -1.7068909e+38
-0.11819762 0.027142303 0.29900002 -1.7599025e+38
-0.11771352 0.027142303 0.29900002 -1.7599025e+38
-0.11722942 0.027142303 0.29900002 -1.7067855e+38
-0.11626122 0.027142303 0.29900002 -1.7067337e+38
-0.11577713 0.027142303 0.29900002 -1.7067337e+38
-0.11529303 0.027142303 0.29900002 -1.7067859e+38
-0.11432483 0.027142303 0.29900002 -1.7067337e+38
-0.11384073 0.027142303 0.29900002 -1.7067859e+38
-0.11335663 0.027142303 0.29900002 -1.7067859e+38
-0.11287253 0.027142303 0.29900002 -1.706838e+38
-0.11190433 0.027142303 0.29900002 -1.706838e+38
-0.11142023 0.027142303 0.29900002 -1.7068905e+38
-0.11093614 0.027142303 0.29900002 -1.7068905e+38
-0.11045203 0.027142303 0.29900002 -1.7068909e+38
-0.090572827 0.023602001 0.26000002 -1.7070465e+38
-0.089730918 0.023602001 0.26000002 -1.7069944e+38
-0.088889003 0.023602001 0.26000002 -1.7068899e+38
-0.088468045 0.023602001 0.26000002 -1.706838e+38
-0.088047095 0.023602001 0.26000002 -1.7067859e+38
-0.087205179 0.023602001 0.26000002 -1.7065256e+38
-0.086450435 0.023511225 0.259 -1.7063171e+38
-0.086031102 0.023511225 0.259 -1.7061608e+38
-0.085192427 0.023511225 0.259 -1.7053267e+38
-0.084445782 0.023420449 0.25800002 -1.7051186e+38
-0.084028065 0.023420449 0.25800002 -1.7052229e+38
-0.082547724 0.023238894 0.25600001 -1.7054841e+38
-0.082133241 0.023238894 0.25600001 -1.7057965e+38
-0.080986694 0.023148118 0.25500003 -1.7192975e+38
-0.080573827 0.023148118 0.25500003 -1.7192975e+38
-0.079748109 0.023148118 0.25500003 -1.7194541e+38
-0.07933525 0.023148118 0.25500003 -1.7061622e+38
-0.078922391 0.023148118 0.25500003 -1.7061622e+38
-0.078509524 0.023148118 0.25500003 -1.7061626e+38
-0.077683806 0.023148118 0.25500003 -1.7062147e+38
-0.077270947 0.023148118 0.25500003 -1.7061626e+38
-0.07614544 0.02305734 0.25400001 -1.7062147e+38
-0.075734198 0.02305734 0.25400001 -1.7062668e+38
-0.074321859 0.022875788 0.252 -1.7062668e+38
-0.073913857 0.022875788 0.252 -1.7062147e+38
-0.073505849 0.022875788 0.252 -1.7062668e+38
-0.073097847 0.022875788 0.252 -1.7062147e+38
-0.072281845 0.022875788 0.252 -1.7062147e+38
-0.071873836 0.022875788 0.252 -1.7062147e+38
-0.071465835 0.022875788 0.252 -1.7062147e+38
-0.070649825 0.022875788 0.252 -1.7062668e+38
-0.070241824 0.022875788 0.252 -1.7062668e+38
-0.069833823 0.022875788 0.252 -1.7062147e+38
-0.069425821 0.022875788 0.252 -1.7062147e+38
-0.068337552 0.02278501 0.25100002 -1.7063188e+38
-0.067931168 0.02278501 0.25100002 -1.7063188e+38
-0.067524783 0.02278501 0.25100002 -1.706423e+38
-0.066712014 0.02278501 0.25100002 -1.7063188e+38
-0.06630563 0.02278501 0.25100002 -1.706423e+38
-0.065899245 0.02278501 0.25100002 -1.7064234e+38
-0.065086477 0.02278501 0.25100002 -1.7064755e+38
-0.064680092 0.02278501 0.25100002 -1.7064755e+38
-0.064273708 0.02278501 0.25100002 -1.7064755e+38
-0.063867323 0.02278501 0.25100002 -1.7064755e+38
-0.063054554 0.02278501 0.25100002 -1.7065796e+38
-0.06264817 0.02278501 0.25100002 -1.7065796e+38
-0.061589047 0.022694232 0.25 -1.7066836e+38
-0.06118428 0.022694232 0.25 -1.7066836e+38
-0.060779516 0.022694232 0.25 -1.706684e+38
-0.060374752 0.022694232 0.25 -1.7067362e+38
-0.05956522 0.022694232 0.25 -1.7067879e+38
-0.059160456 0.022694232 0.25 -1.7068911e+38
-0.058755688 0.022694232 0.25 -1.7066826e+38
-0.058350924 0.022694232 0.25 -1.7063687e+38
-0.057541393 0.022694232 0.25 -2.3047279e+38
-0.057136629 0.022694232 0.25 -2.3847944e+38
-0.11780231 0.027534006 0.29800001 -1.8130714e+38
-0.11731984 0.027534006 0.29800001 -1.799727e+38
-0.11635488 0.027534006 0.29800001 -1.706837e+38
-0.1158724 0.027534006 0.29800001 -1.7067337e+38
-0.11538991 0.027534006 0.29800001 -1.7067337e+38
-0.11490744 0.027534006 0.29800001 -1.7067337e+38
-0.11432483 0.027626403 0.29900002 -1.7067337e+38
-0.11384073 0.027626403 0.29900002 -1.7067337e+38
-0.11335663 0.027626403 0.29900002 -1.7067337e+38
-0.11287253 0.027626403 0.29900002 -1.7067859e+38
-0.11190433 0.027626403 0.29900002 -1.7067859e+38
-0.11142023 0.027626403 0.29900002 -1.7067863e+38
-0.11093614 0.027626403 0.29900002 -1.7068384e+38
-0.11045203 0.027626403 0.29900002 -1.7068384e+38
-0.090076037 0.024115354 0.26100001 -1.706995e+38
-0.089653462 0.024115354 0.26100001 -1.7071507e+38
-0.088808313 0.024115354 0.26100001 -1.7070461e+38
-0.088385731 0.024115354 0.26100001 -1.7070461e+38
-0.087205179 0.024022957 0.26000002 -1.7069424e+38
-0.086784221 0.024022957 0.26000002 -1.706838e+38
-0.086363271 0.024022957 0.26000002 -1.7067859e+38
-0.085942313 0.024022957 0.26000002 -1.7066814e+38
-0.084773093 0.023930563 0.259 -1.7063169e+38
-0.084353752 0.023930563 0.259 -1.7062127e+38
-0.082870178 0.02374577 0.257 -1.7062644e+38
-0.082454078 0.02374577 0.257 -1.7062644e+38
-0.081304282 0.023653373 0.25600001 -1.7061608e+38
-0.080889806 0.023653373 0.25600001 -1.7061608e+38
-0.079748109 0.023560978 0.25500003 -1.7062133e+38
-0.07933525 0.023560978 0.25500003 -1.7062658e+38
-0.078922391 0.023560978 0.25500003 -1.7062137e+38
-0.078509524 0.023560978 0.25500003 -1.7061622e+38
-0.077683806 0.023560978 0.25500003 -1.7062143e+38
-0.077270947 0.023560978 0.25500003 -1.7061622e+38
-0.076858088 0.023560978 0.25500003 -1.7062143e+38
-0.075734198 0.023468582 0.25400001 -1.7062668e+38
-0.075026408 0.023376185 0.25300002 -1.7062668e+38
-0.073913857 0.023283791 0.252 -1.7062147e+38
-0.073505849 0.023283791 0.252 -1.7062668e+38
-0.073097847 0.023283791 0.252 -1.7062147e+38
-0.072281845 0.023283791 0.252 -1.7062147e+38
-0.071873836 0.023283791 0.252 -1.7062147e+38
-0.071465835 0.023283791 0.252 -1.7062147e+38
-0.070649825 0.023283791 0.252 -1.7062668e+38
-0.070241824 0.023283791 0.252 -1.7062668e+38
-0.069833823 0.023283791 0.252 -1.7062668e+38
-0.069425821 0.023283791 0.252 -1.7063188e+38
-0.068609811 0.023283791 0.252 -1.706423e+38
-0.067931168 0.023191394 0.25100002 -1.7063188e+38
-0.067524783 0.023191394 0.25100002 -1.706423e+38
-0.066712014 0.023191394 0.25100002 -1.7063707e+38
-0.06630563 0.023191394 0.25100002 -1.7064749e+38
-0.065899245 0.023191394 0.25100002 -1.7064755e+38
-0.065086477 0.023191394 0.25100002 -1.7064755e+38
-0.064680092 0.023191394 0.25100002 -1.7064755e+38
-0.064273708 0.023191394 0.25100002 -1.7065275e+38
-0.063867323 0.023191394 0.25100002 -1.7065275e+38
-0.063054554 0.023191394 0.25100002 -1.7065796e+38
-0.06264817 0.023191394 0.25100002 -1.7065796e+38
-0.061589047 0.023098998 0.25 -1.7066836e+38
-0.06118428 0.023098998 0.25 -1.7067358e+38
-0.060779516 0.023098998 0.25 -1.706684e+38
-0.060374752 0.023098998 0.25 -1.7067362e+38
-0.05956522 0.023098998 0.25 -1.7067879e+38
-0.059160456 0.023098998 0.25 -1.7068911e+38
-0.058755688 0.023098998 0.25 -1.7066826e+38
-0.058350924 0.023098998 0.25 -1.7063687e+38
-0.057541393 0.023098998 0.25 -2.2913835e+38
-0.057136629 0.023098998 0.25 -2.37145e+38
-0.088808313 0.024537928 0.26100001 -1.7071503e+38
-0.088385731 0.024537928 0.26100001 -1.7070461e+38
-0.087963156 0.024537928 0.26100001 -1.7071507e+38
-0.087118007 0.024537928 0.26100001 -1.7071507e+38
-0.086363271 0.024443913 0.26000002 -1.7070465e+38
-0.085942313 0.024443913 0.26000002 -1.7069424e+38
-0.085100397 0.024443913 0.26000002 -1.7068382e+38
-0.084679447 0.024443913 0.26000002 -1.7068382e+38
-0.083192632 0.024255885 0.25800002 -1.7067855e+38
-0.082454078 0.024161868 0.257 -1.7067848e+38
-0.081621878 0.024161868 0.257 -1.7065244e+38
-0.080889806 0.024067853 0.25600001 -1.7065244e+38
-0.080475323 0.024067853 0.25600001 -1.7063167e+38
-0.07933525 0.023973839 0.25500003 -1.7063695e+38
-0.078922391 0.023973839 0.25500003 -1.7063695e+38
-0.078509524 0.023973839 0.25500003 -1.7063177e+38
-0.077683806 0.023973839 0.25500003 -1.7062141e+38
-0.077270947 0.023973839 0.25500003 -1.7062141e+38
-0.076858088 0.023973839 0.25500003 -1.7062662e+38
-0.076032363 0.023973839 0.25500003 -1.7062666e+38
-0.075026408 0.023785807 0.25300002 -1.7062666e+38
-0.073913857 0.023691794 0.252 -1.7062666e+38
-0.073505849 0.023691794 0.252 -1.7062666e+38
-0.073097847 0.023691794 0.252 -1.7062666e+38
-0.072281845 0.023691794 0.252 -1.7062666e+38
-0.071873836 0.023691794 0.252 -1.7062666e+38
-0.071465835 0.023691794 0.252 -1.7063188e+38
-0.070649825 0.023691794 0.252 -1.7063188e+38
-0.070241824 0.023691794 0.252 -1.7063188e+38
-0.069833823 0.023691794 0.252 -1.7063188e+38
-0.069425821 0.023691794 0.252 -1.7062672e+38
-0.068609811 0.023691794 0.252 -1.706423e+38
-0.06820181 0.023691794 0.252 -1.706423e+38
-0.067793809 0.023691794 0.252 -1.7064749e+38
-0.0673858 0.023691794 0.252 -1.7065271e+38
-0.06630563 0.023597779 0.25100002 -1.7065271e+38
-0.065899245 0.023597779 0.25100002 -1.7064755e+38
