# .PCD v0.7 - Point Cloud Data file format
VERSION 0.7
FIELDS x y z rgb
SIZE 4 4 4 4
TYPE F F F F
COUNT 1 1 1 1
WIDTH 959
HEIGHT 1
VIEWPOINT 0 0 0 1 0 0 0
POINTS 959
DATA ascii
-0.080067709 0.040684186 0.27000001 -1.7065772e+38
-0.079630561 0.040684186 0.27000001 -1.7065772e+38
-0.078464583 0.040533502 0.26900002 -1.7065772e+38
-0.078029051 0.040533502 0.26900002 -1.7065772e+38
-0.076584332 0.040232141 0.26700002 -1.7065772e+38
-0.076152042 0.040232141 0.26700002 -1.7065772e+38
-0.075719751 0.040232141 0.26700002 -1.7065772e+38
-0.074574821 0.040081456 0.266 -1.7064729e+38
-0.074144147 0.040081456 0.266 -1.7064729e+38
-0.073713474 0.040081456 0.266 -1.7065772e+38
-0.072852135 0.040081456 0.266 -1.7065776e+38
-0.072421469 0.040081456 0.266 -1.7066297e+38
-0.071990795 0.040081456 0.266 -1.7065776e+38
-0.070862055 0.039930776 0.26500002 -1.7065776e+38
-0.070433006 0.039930776 0.26500002 -1.7065776e+38
-0.069312356 0.039780091 0.264 -1.706578e+38
-0.068623997 0.039629411 0.26300001 -1.706578e+38
-0.068198182 0.039629411 0.26300001 -1.706578e+38
-0.067346558 0.039629411 0.26300001 -1.7064737e+38
-0.066920742 0.039629411 0.26300001 -1.7064737e+38
-0.066494934 0.039629411 0.26300001 -1.7064733e+38
-0.065643303 0.039629411 0.26300001 -1.7064733e+38
-0.065217495 0.039629411 0.26300001 -1.7064733e+38
-0.064545326 0.03947873 0.26200002 -1.7064214e+38
-0.063696936 0.03947873 0.26200002 -1.7062648e+38
-0.063031241 0.039328046 0.26100001 -1.7062648e+38
-0.062608667 0.039328046 0.26100001 -1.7061608e+38
-0.061763518 0.039328046 0.26100001 -1.7060565e+38
-0.061340943 0.039328046 0.26100001 -1.7059523e+38
-0.060918368 0.039328046 0.26100001 -1.7058997e+38
-0.060073219 0.039328046 0.26100001 -1.7057949e+38
-0.059422098 0.039177366 0.26000002 -1.705847e+38
-0.05900114 0.039177366 0.26000002 -1.8786979e+38
-0.058159228 0.039177366 0.26000002 -2.1180099e+38
-0.057738274 0.039177366 0.26000002 -2.0779767e+38
-0.057537772 0.039328046 0.26100001 -2.1043008e+38
-0.057115193 0.039328046 0.26100001 -2.1043008e+38
-0.10577425 0.042492043 0.27900001 -2.5984089e+38
-0.10487082 0.042492043 0.27900001 -1.8399174e+38
-0.10479336 0.042644344 0.28 -1.826573e+38
-0.10434002 0.042644344 0.28 -1.7202349e+38
-0.10388669 0.042644344 0.28 -1.7202349e+38
-0.10261223 0.042492043 0.27900001 -1.7068905e+38
-0.10216051 0.042492043 0.27900001 -1.7068905e+38
-0.10170879 0.042492043 0.27900001 -1.7068384e+38
-0.10080536 0.042492043 0.27900001 -1.7068384e+38
-0.099993944 0.042339742 0.27800003 -1.7068384e+38
-0.099543847 0.042339742 0.27800003 -1.7068384e+38
-0.098643646 0.042339742 0.27800003 -1.7067863e+38
-0.098193549 0.042339742 0.27800003 -1.7067859e+38
-0.098095044 0.042492043 0.27900001 -1.7067859e+38
-0.097643331 0.042492043 0.27900001 -1.7067863e+38
-0.096739896 0.042492043 0.27900001 -1.7068384e+38
-0.096288174 0.042492043 0.27900001 -1.7068384e+38
-0.095836453 0.042492043 0.27900001 -1.7067341e+38
-0.095384739 0.042492043 0.27900001 -1.7067863e+38
-0.094481304 0.042492043 0.27900001 -1.7067863e+38
-0.094029583 0.042492043 0.27900001 -1.7067863e+38
-0.093577869 0.042492043 0.27900001 -1.7067863e+38
-0.093126148 0.042492043 0.27900001 -1.7067337e+38
-0.091892168 0.042339742 0.27800003 -1.7067337e+38
-0.091442063 0.042339742 0.27800003 -1.7067337e+38
-0.090216175 0.042187441 0.27700001 -1.7067859e+38
-0.089443624 0.04203514 0.27600002 -1.7067337e+38
-0.088549905 0.04203514 0.27600002 -1.7067337e+38
-0.088103041 0.04203514 0.27600002 -1.7067337e+38
-0.087656185 0.04203514 0.27600002 -1.7066816e+38
-0.085377388 0.041578237 0.273 -1.7066816e+38
-0.084493376 0.041578237 0.273 -1.7066816e+38
-0.084051378 0.041578237 0.273 -1.7066816e+38
-0.083609372 0.041578237 0.273 -1.7066816e+38
-0.082422338 0.041425932 0.27200001 -1.7066295e+38
-0.081981957 0.041425932 0.27200001 -1.7064733e+38
-0.081541575 0.041425932 0.27200001 -1.7064733e+38
-0.080364257 0.041273635 0.27100003 -1.7065772e+38
-0.079630561 0.041121334 0.27000001 -1.7065772e+38
-0.078464583 0.040969029 0.26900002 -1.7065772e+38
-0.078029051 0.040969029 0.26900002 -1.7065772e+38
-0.076871164 0.040816732 0.26800001 -1.7066293e+38
-0.076152042 0.040664427 0.26700002 -1.7065772e+38
-0.075719751 0.040664427 0.26700002 -1.7065772e+38
-0.074855171 0.040664427 0.26700002 -1.7065772e+38
-0.074144147 0.040512126 0.266 -1.7064733e+38
-0.073713474 0.040512126 0.266 -1.7064733e+38
-0.072852135 0.040512126 0.266 -1.7065776e+38
-0.072421469 0.040512126 0.266 -1.7066297e+38
-0.071990795 0.040512126 0.266 -1.7065776e+38
-0.071129456 0.040512126 0.266 -1.7065776e+38
-0.070433006 0.040359829 0.26500002 -1.7065776e+38
-0.069312356 0.040207524 0.264 -1.706578e+38
-0.068884924 0.040207524 0.264 -1.706578e+38
-0.068198182 0.040055223 0.26300001 -1.706578e+38
-0.067346558 0.040055223 0.26300001 -1.7064737e+38
-0.067175195 0.040207524 0.264 -1.706578e+38
-0.066747762 0.040207524 0.264 -1.7064733e+38
-0.065643303 0.040055223 0.26300001 -1.7064733e+38
-0.065217495 0.040055223 0.26300001 -1.7064733e+38
-0.064791679 0.040055223 0.26300001 -1.7064733e+38
-0.063696936 0.039902922 0.26200002 -1.7063689e+38
-0.063272744 0.039902922 0.26200002 -1.7063689e+38
-0.062608667 0.039750621 0.26100001 -1.7062127e+38
-0.061763518 0.039750621 0.26100001 -1.706108e+38
-0.061575968 0.039902922 0.26200002 -1.7060038e+38
-0.060918368 0.039750621 0.26100001 -1.7058993e+38
-0.060073219 0.039750621 0.26100001 -1.7057949e+38
-0.059650645 0.039750621 0.26100001 -1.7057949e+38
-0.05900114 0.03959832 0.26000002 -1.8388209e+38
-0.058159228 0.03959832 0.26000002 -2.0647884e+38
-0.057738274 0.03959832 0.26000002 -2.051444e+38
-0.057537772 0.039750621 0.26100001 -2.1043523e+38
-0.084051378 0.042020239 0.273 -1.7066816e+38
-0.083609372 0.042020239 0.273 -1.7066816e+38
-0.083167367 0.042020239 0.273 -1.7066816e+38
-0.082283363 0.042020239 0.273 -1.7064733e+38
-0.081541575 0.041866317 0.27200001 -1.7064733e+38
-0.080660805 0.041866317 0.27200001 -1.7065776e+38
-0.079925492 0.0417124 0.27100003 -1.7065776e+38
-0.078756273 0.041558478 0.27000001 -1.7065776e+38
-0.078029051 0.041404556 0.26900002 -1.7065776e+38
-0.077593528 0.041404556 0.26900002 -1.7066293e+38
-0.076152042 0.041096717 0.26700002 -1.7065772e+38
-0.075719751 0.041096717 0.26700002 -1.7065772e+38
-0.074855171 0.041096717 0.26700002 -1.7065772e+38
-0.074422888 0.041096717 0.26700002 -1.7065772e+38
-0.073990598 0.041096717 0.26700002 -1.7065772e+38
-0.073558308 0.041096717 0.26700002 -1.7065776e+38
-0.072693728 0.041096717 0.26700002 -1.7065776e+38
-0.071990795 0.040942796 0.266 -1.7065776e+38
-0.071129456 0.040942796 0.266 -1.7065776e+38
-0.070698783 0.040942796 0.266 -1.7065776e+38
-0.070003957 0.040788878 0.26500002 -1.7065776e+38
-0.068884924 0.040634956 0.264 -1.706578e+38
-0.068457492 0.040634956 0.264 -1.7064737e+38
-0.067346558 0.040481035 0.26300001 -1.706578e+38
-0.067175195 0.040634956 0.264 -1.7064737e+38
-0.066747762 0.040634956 0.264 -1.7064733e+38
-0.06632033 0.040634956 0.264 -1.7065776e+38
-0.065217495 0.040481035 0.26300001 -1.7064733e+38
-0.064791679 0.040481035 0.26300001 -1.7064733e+38
-0.063696936 0.040327117 0.26200002 -1.7063693e+38
-0.063272744 0.040327117 0.26200002 -1.7063693e+38
-0.062608667 0.040173195 0.26100001 -1.7062127e+38
-0.061763518 0.040173195 0.26100001 -1.706108e+38
-0.061340943 0.040173195 0.26100001 -1.7060038e+38
-0.060918368 0.040173195 0.26100001 -1.7059512e+38
-0.060073219 0.040173195 0.26100001 -1.7058468e+38
-0.059650645 0.040173195 0.26100001 -1.7058468e+38
-0.05900114 0.040019277 0.26000002 -1.8122361e+38
-0.058159228 0.040019277 0.26000002 -2.0382043e+38
-0.057960346 0.040173195 0.26100001 -2.0248599e+38
-0.057537772 0.040173195 0.26100001 -2.0910079e+38
-0.057552859 0.040481035 0.26300001 -2.1043523e+38
-0.10487082 0.043395478 0.27900001 -1.9330148e+38
-0.1044191 0.043395478 0.27900001 -1.906326e+38
-0.10396738 0.043395478 0.27900001 -1.7469233e+38
-0.10351566 0.043395478 0.27900001 -1.7202345e+38
-0.10261223 0.043395478 0.27900001 -1.7068905e+38
-0.10179434 0.04323994 0.27800003 -1.7068905e+38
-0.10134424 0.04323994 0.27800003 -1.7068384e+38
-0.10044404 0.04323994 0.27800003 -1.7068384e+38
-0.099993944 0.04323994 0.27800003 -1.7068905e+38
-0.099543847 0.04323994 0.27800003 -1.7068384e+38
-0.098643646 0.04323994 0.27800003 -1.7068384e+38
-0.098193549 0.04323994 0.27800003 -1.7068384e+38
-0.097743452 0.04323994 0.27800003 -1.7067863e+38
-0.097293355 0.04323994 0.27800003 -1.7067863e+38
-0.096393153 0.04323994 0.27800003 -1.7067863e+38
-0.095943056 0.04323994 0.27800003 -1.7068384e+38
-0.095492959 0.04323994 0.27800003 -1.7067863e+38
-0.094592758 0.04323994 0.27800003 -1.7067863e+38
-0.09414266 0.04323994 0.27800003 -1.7067863e+38
-0.093692563 0.04323994 0.27800003 -1.7067863e+38
-0.093242459 0.04323994 0.27800003 -1.7067863e+38
-0.092342265 0.04323994 0.27800003 -1.7067859e+38
-0.091892168 0.04323994 0.27800003 -1.7067859e+38
-0.091442063 0.04323994 0.27800003 -1.7067859e+38
-0.090541869 0.04323994 0.27800003 -1.7067859e+38
-0.089767694 0.043084398 0.27700001 -1.7067859e+38
-0.088549905 0.042928863 0.27600002 -1.7067337e+38
-0.088103041 0.042928863 0.27600002 -1.7067337e+38
-0.087656185 0.042928863 0.27600002 -1.7067337e+38
-0.086448103 0.042773321 0.27500001 -1.7067337e+38
-0.086002864 0.042773321 0.27500001 -1.7067337e+38
-0.085246503 0.042617783 0.27400002 -1.7066816e+38
-0.10449494 0.043690037 0.27800003 -1.999372e+38
-0.10404483 0.043690037 0.27800003 -1.9726832e+38
-0.10359474 0.043690037 0.27800003 -1.7602677e+38
-0.10269454 0.043690037 0.27800003 -1.7069426e+38
-0.10224444 0.043690037 0.27800003 -1.7068905e+38
-0.10179434 0.043690037 0.27800003 -1.7068905e+38
-0.10134424 0.043690037 0.27800003 -1.7068384e+38
-0.10008273 0.043532878 0.27700001 -1.7068384e+38
-0.099634252 0.043532878 0.27700001 -1.7068384e+38
-0.098737292 0.043532878 0.27700001 -1.7067863e+38
-0.098288812 0.043532878 0.27700001 -1.7068384e+38
-0.097840331 0.043532878 0.27700001 -1.7068384e+38
-0.097391851 0.043532878 0.27700001 -1.7067863e+38
-0.097293355 0.043690037 0.27800003 -1.7067863e+38
-0.096393153 0.043690037 0.27800003 -1.7067863e+38
-0.095943056 0.043690037 0.27800003 -1.7067863e+38
-0.095492959 0.043690037 0.27800003 -1.7067863e+38
-0.094592758 0.043690037 0.27800003 -1.7067341e+38
-0.09414266 0.043690037 0.27800003 -1.7068384e+38
-0.093692563 0.043690037 0.27800003 -1.7067863e+38
-0.093242459 0.043690037 0.27800003 -1.7067863e+38
-0.092010096 0.043532878 0.27700001 -1.7067859e+38
-0.091561615 0.043532878 0.27700001 -1.7067859e+38
-0.091113135 0.043532878 0.27700001 -1.7067859e+38
-0.090541869 0.043690037 0.27800003 -1.7067859e+38
-0.089767694 0.043532878 0.27700001 -1.7067859e+38
-0.088549905 0.043375723 0.27600002 -1.7067337e+38
-0.088103041 0.043375723 0.27600002 -1.7067337e+38
-0.087656185 0.043375723 0.27600002 -1.7067859e+38
-0.087209322 0.043375723 0.27600002 -1.7067337e+38
-0.086002864 0.043218564 0.27500001 -1.7066816e+38
-0.085557625 0.043218564 0.27500001 -1.7066816e+38
-0.084359258 0.043061405 0.27400002 -1.7067337e+38
-0.083609372 0.042904247 0.273 -1.7067337e+38
-0.083167367 0.042904247 0.273 -1.7066816e+38
-0.082283363 0.042904247 0.273 -1.7065776e+38
-0.081841357 0.042904247 0.273 -1.7065776e+38
-0.080660805 0.042747088 0.27200001 -1.7066297e+38
-0.080220416 0.042747088 0.27200001 -1.7065776e+38
-0.079486728 0.042589933 0.27100003 -1.7066297e+38
-0.078319125 0.04243277 0.27000001 -1.7065776e+38
-0.077593528 0.042275611 0.26900002 -1.7066297e+38
-0.076437257 0.042118456 0.26800001 -1.7065776e+38
-0.075719751 0.041961297 0.26700002 -1.7065776e+38
-0.075569436 0.042118456 0.26800001 -1.7066297e+38
-0.074422888 0.041961297 0.26700002 -1.7065776e+38
-0.073990598 0.041961297 0.26700002 -1.7065776e+38
-0.073558308 0.041961297 0.26700002 -1.7065772e+38
-0.072693728 0.041961297 0.26700002 -1.7065772e+38
-0.072261438 0.041961297 0.26700002 -1.7065772e+38
-0.071829148 0.041961297 0.26700002 -1.7066293e+38
-0.070698783 0.041804135 0.266 -1.7065772e+38
-0.070268117 0.041804135 0.266 -1.7065772e+38
-0.069145851 0.04164698 0.26500002 -1.7066297e+38
-0.068457492 0.041489821 0.264 -1.7064737e+38
-0.068030059 0.041489821 0.264 -1.7064737e+38
-0.067858703 0.04164698 0.26500002 -1.706578e+38
-0.066747762 0.041489821 0.264 -1.7064737e+38
-0.066571549 0.04164698 0.26500002 -1.706578e+38
-0.065465473 0.041489821 0.264 -1.7064737e+38
-0.064791679 0.041332662 0.26300001 -1.7064737e+38
-0.064365871 0.041332662 0.26300001 -1.7064737e+38
-0.063272744 0.041175503 0.26200002 -1.7064214e+38
-0.062848546 0.041175503 0.26200002 -1.7062648e+38
-0.062424354 0.041175503 0.26200002 -1.7062127e+38
-0.061340943 0.041018344 0.26100001 -1.706108e+38
-0.060918368 0.041018344 0.26100001 -1.7060034e+38
-0.060073219 0.041018344 0.26100001 -1.7058464e+38
-0.059650645 0.041018344 0.26100001 -1.7058464e+38
-0.05922807 0.041018344 0.26100001 -1.7324825e+38
-0.058805496 0.041018344 0.26100001 -1.7858601e+38
-0.057960346 0.041018344 0.26100001 -1.971691e+38
-0.057537772 0.041018344 0.26100001 -2.077716e+38
-0.057115193 0.041018344 0.26100001 -2.077716e+38
-0.057127047 0.041332662 0.26300001 -2.1972403e+38
-0.056701235 0.041332662 0.26300001 -2.2506179e+38
-0.10411905 0.043981358 0.27700001 -2.0657287e+38
-0.10367057 0.043981358 0.27700001 -2.0523843e+38
-0.10277361 0.043981358 0.27700001 -1.7469233e+38
-0.10232513 0.043981358 0.27700001 -1.7069426e+38
-0.10187665 0.043981358 0.27700001 -1.7068905e+38
-0.10142817 0.043981358 0.27700001 -1.7068905e+38
-0.10053121 0.043981358 0.27700001 -1.7068905e+38
-0.10008273 0.043981358 0.27700001 -1.7068905e+38
-0.099634252 0.043981358 0.27700001 -1.7068384e+38
-0.098737292 0.043981358 0.27700001 -1.7067863e+38
-0.098288812 0.043981358 0.27700001 -1.7068384e+38
-0.097840331 0.043981358 0.27700001 -1.7068384e+38
-0.097391851 0.043981358 0.27700001 -1.7067863e+38
-0.096494898 0.043981358 0.27700001 -1.7068384e+38
-0.096046418 0.043981358 0.27700001 -1.7067863e+38
-0.095597938 0.043981358 0.27700001 -1.7067863e+38
-0.094700977 0.043981358 0.27700001 -1.7067863e+38
-0.094252497 0.043981358 0.27700001 -1.7067341e+38
-0.093804017 0.043981358 0.27700001 -1.7067863e+38
-0.093355536 0.043981358 0.27700001 -1.7067341e+38
-0.092458576 0.043981358 0.27700001 -1.7067337e+38
-0.092010096 0.043981358 0.27700001 -1.7067859e+38
-0.091561615 0.043981358 0.27700001 -1.7067337e+38
-0.091113135 0.043981358 0.27700001 -1.7067859e+38
-0.090216175 0.043981358 0.27700001 -1.706838e+38
-0.089443624 0.043822583 0.27600002 -1.7067859e+38
-0.088549905 0.043822583 0.27600002 -1.7067337e+38
-0.088103041 0.043822583 0.27600002 -1.7067859e+38
-0.087656185 0.043822583 0.27600002 -1.7067859e+38
-0.087209322 0.043822583 0.27600002 -1.7067337e+38
-0.086002864 0.043663803 0.27500001 -1.7066816e+38
-0.085557625 0.043663803 0.27500001 -1.7066816e+38
-0.084359258 0.043505028 0.27400002 -1.7067337e+38
-0.083915636 0.043505028 0.27400002 -1.7067337e+38
-0.083167367 0.043346252 0.273 -1.7066816e+38
-0.082283363 0.043346252 0.273 -1.7065776e+38
-0.081841357 0.043346252 0.273 -1.7065776e+38
-0.081399351 0.043346252 0.273 -1.7066297e+38
-0.080515347 0.043346252 0.273 -1.7066297e+38
-0.079780035 0.043187473 0.27200001 -1.7066297e+38
-0.076437257 0.042552363 0.26800001 -1.7065776e+38
-0.07600335 0.042552363 0.26800001 -1.7065776e+38
-0.075569436 0.042552363 0.26800001 -1.7066297e+38
-0.074422888 0.042393584 0.26700002 -1.7065776e+38
-0.074267715 0.042552363 0.26800001 -1.7065776e+38
-0.073558308 0.042393584 0.26700002 -1.7065776e+38
-0.072693728 0.042393584 0.26700002 -1.7065776e+38
-0.072261438 0.042393584 0.26700002 -1.7065776e+38
-0.071829148 0.042393584 0.26700002 -1.7066293e+38
-0.070964575 0.042393584 0.26700002 -1.7065772e+38
-0.070532285 0.042393584 0.26700002 -1.7065772e+38
-0.069837444 0.042234808 0.266 -1.7065776e+38
-0.068976104 0.042234808 0.266 -1.7064737e+38
-0.068545438 0.042234808 0.266 -1.7064737e+38
-0.068114765 0.042234808 0.266 -1.706578e+38
-0.067253426 0.042234808 0.266 -1.7064737e+38
-0.066142499 0.042076033 0.26500002 -1.7064733e+38
-0.06503804 0.041917253 0.264 -1.7064733e+38
-0.064365871 0.041758474 0.26300001 -1.7064733e+38
-0.063272744 0.041599698 0.26200002 -1.7064214e+38
-0.062848546 0.041599698 0.26200002 -1.7063167e+38
-0.062424354 0.041599698 0.26200002 -1.7062646e+38
-0.061575968 0.041599698 0.26200002 -1.7062121e+38
-0.061151773 0.041599698 0.26200002 -1.7060034e+38
-0.060727578 0.041599698 0.26200002 -1.7059512e+38
-0.059879191 0.041599698 0.26200002 -1.7058468e+38
-0.05922807 0.041440919 0.26100001 -1.7324309e+38
-0.058805496 0.041440919 0.26100001 -1.7858086e+38
-0.057960346 0.041440919 0.26100001 -1.958451e+38
-0.057537772 0.041440919 0.26100001 -2.0511838e+38
-0.057115193 0.041440919 0.26100001 -2.0511838e+38
-0.057127047 0.041758474 0.26300001 -2.1971888e+38
-0.056701235 0.041758474 0.26300001 -2.2505664e+38
-0.10284945 0.044269443 0.27600002 -1.8001448e+38
-0.10277361 0.044429839 0.27700001 -1.7868004e+38
-0.10232513 0.044429839 0.27700001 -1.7069426e+38
-0.10187665 0.044429839 0.27700001 -1.7069426e+38
-0.10142817 0.044429839 0.27700001 -1.706839e+38
-0.10053121 0.044429839 0.27700001 -1.7068911e+38
-0.10008273 0.044429839 0.27700001 -1.706839e+38
-0.099634252 0.044429839 0.27700001 -1.7068905e+38
-0.098737292 0.044429839 0.27700001 -1.7068384e+38
-0.097933978 0.044269443 0.27600002 -1.7068905e+38
-0.097487122 0.044269443 0.27600002 -1.7068384e+38
-0.096593395 0.044269443 0.27600002 -1.7067863e+38
-0.096494898 0.044429839 0.27700001 -1.7068384e+38
-0.096046418 0.044429839 0.27700001 -1.7068384e+38
-0.095597938 0.044429839 0.27700001 -1.7067863e+38
-0.094700977 0.044429839 0.27700001 -1.7067863e+38
-0.094252497 0.044429839 0.27700001 -1.7067341e+38
-0.093804017 0.044429839 0.27700001 -1.7067863e+38
-0.092571653 0.044269443 0.27600002 -1.7067859e+38
-0.09212479 0.044269443 0.27600002 -1.7067337e+38
-0.091677926 0.044269443 0.27600002 -1.7067337e+38
-0.09123107 0.044269443 0.27600002 -1.7067333e+38
-0.090337351 0.044269443 0.27600002 -1.7067333e+38
-0.089890487 0.044269443 0.27600002 -1.7067855e+38
-0.089443624 0.044269443 0.27600002 -1.7067337e+38
-0.088549905 0.044269443 0.27600002 -1.7067337e+38
-0.088103041 0.044269443 0.27600002 -1.7067859e+38
-0.087656185 0.044269443 0.27600002 -1.7067859e+38
-0.087209322 0.044269443 0.27600002 -1.7067337e+38
-0.086315602 0.044269443 0.27600002 -1.7067337e+38
-0.085557625 0.044109046 0.27500001 -1.7067337e+38
-0.084359258 0.04394865 0.27400002 -1.7067337e+38
-0.083915636 0.04394865 0.27400002 -1.7067337e+38
-0.083472013 0.04394865 0.27400002 -1.7066816e+38
-0.082283363 0.043788254 0.273 -1.7066295e+38
-0.081841357 0.043788254 0.273 -1.7066295e+38
-0.081399351 0.043788254 0.273 -1.7066816e+38
-0.080515347 0.043788254 0.273 -1.7066816e+38
-0.080073342 0.043788254 0.273 -1.7066295e+38
-0.079339653 0.043627858 0.27200001 -1.7065776e+38
-0.076722473 0.043146666 0.26900002 -1.7065776e+38
-0.07600335 0.042986274 0.26800001 -1.7065776e+38
-0.075569436 0.042986274 0.26800001 -1.7066297e+38
-0.074701622 0.042986274 0.26800001 -1.7065776e+38
-0.074267715 0.042986274 0.26800001 -1.7065776e+38
-0.073558308 0.042825874 0.26700002 -1.7065776e+38
-0.072965987 0.042986274 0.26800001 -1.7065776e+38
-0.07253208 0.042986274 0.26800001 -1.7065776e+38
-0.072098173 0.042986274 0.26800001 -1.7066297e+38
-0.071664266 0.042986274 0.26800001 -1.7066297e+38
-0.070796445 0.042986274 0.26800001 -1.7065776e+38
-0.070362538 0.042986274 0.26800001 -1.7065776e+38
-0.069928631 0.042986274 0.26800001 -1.7065776e+38
-0.068803124 0.042825874 0.26700002 -1.7064733e+38
-0.068370834 0.042825874 0.26700002 -1.7065776e+38
-0.068192996 0.042986274 0.26800001 -1.7065776e+38
-0.067759089 0.042986274 0.26800001 -1.7064733e+38
-0.065284394 0.042505082 0.26500002 -1.7064733e+38
-0.064610608 0.042344686 0.264 -1.7064733e+38
-0.06351424 0.042184286 0.26300001 -1.7064733e+38
-0.062848546 0.042023893 0.26200002 -1.7063689e+38
-0.062424354 0.042023893 0.26200002 -1.7063167e+38
-0.061575968 0.042023893 0.26200002 -1.7062121e+38
-0.061151773 0.042023893 0.26200002 -1.7060034e+38
-0.060727578 0.042023893 0.26200002 -1.7059512e+38
-0.059879191 0.042023893 0.26200002 -1.7058468e+38
-0.059454996 0.042023893 0.26200002 -1.7324309e+38
-0.059030805 0.042023893 0.26200002 -1.7724642e+38
-0.057960346 0.041863494 0.26100001 -1.9319184e+38
-0.057537772 0.041863494 0.26100001 -2.0379435e+38
-0.057334028 0.042023893 0.26200002 -2.0245991e+38
-0.057127047 0.042184286 0.26300001 -2.1838448e+38
-0.056701235 0.042184286 0.26300001 -2.2505668e+38
-0.063088432 0.042610101 0.26300001 -1.7064214e+38
-0.062424354 0.042448085 0.26200002 -1.7063171e+38
-0.061575968 0.042448085 0.26200002 -1.7061606e+38
-0.061151773 0.042448085 0.26200002 -1.7060038e+38
-0.060959365 0.042610101 0.26300001 -1.7059516e+38
-0.06053355 0.042610101 0.26300001 -1.7058468e+38
-0.059681926 0.042610101 0.26300001 -1.7057947e+38
-0.05925611 0.042610101 0.26300001 -1.7591723e+38
-0.058830298 0.042610101 0.26300001 -1.9185225e+38
-0.057758223 0.042448085 0.26200002 -2.0114108e+38
-0.057334028 0.042448085 0.26200002 -1.9980664e+38
-0.056909833 0.042448085 0.26200002 -2.1838448e+38
-0.056701235 0.042610101 0.26300001 -2.2372224e+38
-0.10247681 0.044999529 0.27500001 -1.8400214e+38
-0.10240259 0.045163166 0.27600002 -1.8133326e+38
-0.10195573 0.045163166 0.27600002 -1.7068911e+38
-0.10150887 0.045163166 0.27600002 -1.7068911e+38
-0.10061514 0.045163166 0.27600002 -1.7068911e+38
-0.10016829 0.045163166 0.27600002 -1.7069426e+38
-0.099721424 0.045163166 0.27600002 -1.7068905e+38
-0.099274561 0.045163166 0.27600002 -1.7068905e+38
-0.098380841 0.045163166 0.27600002 -1.7068905e+38
-0.097933978 0.045163166 0.27600002 -1.7068905e+38
-0.097487122 0.045163166 0.27600002 -1.7068905e+38
-0.096593395 0.045163166 0.27600002 -1.7068384e+38
-0.096146539 0.045163166 0.27600002 -1.7068905e+38
-0.095699675 0.045163166 0.27600002 -1.7068384e+38
-0.095252819 0.045163166 0.27600002 -1.7068384e+38
-0.094359092 0.045163166 0.27600002 -1.7068384e+38
-0.093912236 0.045163166 0.27600002 -1.7067337e+38
-0.093465373 0.045163166 0.27600002 -1.7067337e+38
-0.092571653 0.045163166 0.27600002 -1.7067337e+38
-0.09212479 0.045163166 0.27600002 -1.7067337e+38
-0.091677926 0.045163166 0.27600002 -1.7066816e+38
-0.09123107 0.045163166 0.27600002 -1.7066816e+38
-0.090337351 0.045163166 0.27600002 -1.7067337e+38
-0.089890487 0.045163166 0.27600002 -1.7067337e+38
-0.089443624 0.045163166 0.27600002 -1.7066816e+38
-0.088549905 0.045163166 0.27600002 -1.7067337e+38
-0.088103041 0.045163166 0.27600002 -1.7067859e+38
-0.087338589 0.044999529 0.27500001 -1.7067337e+38
-0.086448103 0.044999529 0.27500001 -1.7067337e+38
-0.086002864 0.044999529 0.27500001 -1.7066816e+38
-0.085557625 0.044999529 0.27500001 -1.7067337e+38
-0.084359258 0.044835895 0.27400002 -1.7067341e+38
-0.083915636 0.044835895 0.27400002 -1.7067341e+38
-0.083472013 0.044835895 0.27400002 -1.706682e+38
-0.082584769 0.044835895 0.27400002 -1.706682e+38
-0.082141146 0.044835895 0.27400002 -1.706682e+38
-0.081399351 0.044672262 0.273 -1.7066816e+38
-0.080515347 0.044672262 0.273 -1.7066816e+38
-0.080073342 0.044672262 0.273 -1.7066295e+38
-0.079631343 0.044672262 0.273 -1.7066816e+38
-0.079189338 0.044672262 0.273 -1.7066816e+38
-0.078018494 0.044508625 0.27200001 -1.7066816e+38
-0.076286942 0.044017721 0.26900002 -1.7066295e+38
-0.075569436 0.043854088 0.26800001 -1.7066816e+38
-0.074701622 0.043854088 0.26800001 -1.7066295e+38
-0.074267715 0.043854088 0.26800001 -1.7066295e+38
-0.073833808 0.043854088 0.26800001 -1.7065776e+38
-0.072965987 0.043854088 0.26800001 -1.7065776e+38
-0.07253208 0.043854088 0.26800001 -1.7065776e+38
-0.072098173 0.043854088 0.26800001 -1.7065776e+38
-0.071664266 0.043854088 0.26800001 -1.7065776e+38
-0.070796445 0.043854088 0.26800001 -1.7065776e+38
-0.070625089 0.044017721 0.26900002 -1.7065776e+38
-0.070189558 0.044017721 0.26900002 -1.7065776e+38
-0.069754034 0.044017721 0.26900002 -1.7064733e+38
-0.068882979 0.044017721 0.26900002 -1.7065776e+38
-0.068447448 0.044017721 0.26900002 -1.7064733e+38
-0.067759089 0.043854088 0.26800001 -1.7064733e+38
-0.066891275 0.043854088 0.26800001 -1.7065776e+38
-0.066209391 0.043690454 0.26700002 -1.7065776e+38
-0.064855345 0.043363184 0.26500002 -1.7064733e+38
-0.064183176 0.043199547 0.264 -1.7064733e+38
-0.10210416 0.045279518 0.27400002 -1.8931388e+38
-0.10203157 0.045444772 0.27500001 -1.8531056e+38
-0.10158632 0.045444772 0.27500001 -1.7336315e+38
-0.10150887 0.045610026 0.27600002 -1.7069426e+38
-0.10061514 0.045610026 0.27600002 -1.7069426e+38
-0.10016829 0.045610026 0.27600002 -1.7336315e+38
-0.099721424 0.045610026 0.27600002 -1.7069426e+38
-0.099274561 0.045610026 0.27600002 -1.7069426e+38
-0.098380841 0.045610026 0.27600002 -1.7068905e+38
-0.097933978 0.045610026 0.27600002 -1.7068905e+38
-0.097487122 0.045610026 0.27600002 -1.7068905e+38
-0.096593395 0.045610026 0.27600002 -1.7068384e+38
-0.096146539 0.045610026 0.27600002 -1.7068905e+38
-0.095699675 0.045610026 0.27600002 -1.7068905e+38
-0.095252819 0.045610026 0.27600002 -1.7068384e+38
-0.094359092 0.045610026 0.27600002 -1.7068384e+38
-0.093571968 0.045444772 0.27500001 -1.7067859e+38
-0.09268149 0.045444772 0.27500001 -1.7067337e+38
-0.092236243 0.045444772 0.27500001 -1.7067337e+38
-0.091791004 0.045444772 0.27500001 -1.7067337e+38
-0.091677926 0.045610026 0.27600002 -1.7067337e+38
-0.09123107 0.045610026 0.27600002 -1.7066816e+38
-0.090337351 0.045610026 0.27600002 -1.7067333e+38
-0.089890487 0.045610026 0.27600002 -1.7067333e+38
-0.089443624 0.045610026 0.27600002 -1.7066812e+38
-0.088229075 0.045444772 0.27500001 -1.7066812e+38
-0.087783828 0.045444772 0.27500001 -1.7067333e+38
-0.087338589 0.045444772 0.27500001 -1.7067337e+38
-0.086448103 0.045444772 0.27500001 -1.7067337e+38
-0.086002864 0.045444772 0.27500001 -1.7067337e+38
-0.085557625 0.045444772 0.27500001 -1.7067337e+38
-0.085112378 0.045444772 0.27500001 -1.7067337e+38
-0.083915636 0.045279518 0.27400002 -1.7067337e+38
-0.083472013 0.045279518 0.27400002 -1.706682e+38
-0.082584769 0.045279518 0.27400002 -1.706682e+38
-0.082141146 0.045279518 0.27400002 -1.7067341e+38
-0.081697524 0.045279518 0.27400002 -1.7066295e+38
-0.080515347 0.045114264 0.273 -1.7066816e+38
-0.080073342 0.045114264 0.273 -1.7066816e+38
-0.079631343 0.045114264 0.273 -1.7066816e+38
-0.079189338 0.045114264 0.273 -1.7066816e+38
-0.078305326 0.045114264 0.273 -1.7066816e+38
-0.075851418 0.044453248 0.26900002 -1.7066816e+38
-0.075415887 0.044453248 0.26900002 -1.7066816e+38
-0.074544832 0.044453248 0.26900002 -1.7066816e+38
-0.074109308 0.044453248 0.26900002 -1.7066295e+38
-0.072965987 0.044287998 0.26800001 -1.7065776e+38
-0.07253208 0.044287998 0.26800001 -1.7065776e+38
-0.072098173 0.044287998 0.26800001 -1.7065776e+38
-0.071931668 0.044453248 0.26900002 -1.7065776e+38
-0.071761928 0.044618502 0.27000001 -1.7066297e+38
-0.071588948 0.04478376 0.27100003 -1.7066297e+38
-0.070711419 0.04478376 0.27100003 -1.7065776e+38
-0.070013344 0.044618502 0.27000001 -1.7064733e+38
-0.068882979 0.044453248 0.26900002 -1.7065776e+38
-0.068447448 0.044453248 0.26900002 -1.7064733e+38
-0.068011925 0.044453248 0.26900002 -1.7064733e+38
-0.066891275 0.044287998 0.26800001 -1.7064733e+38
-0.066209391 0.044122741 0.26700002 -1.7065776e+38
-0.065100074 0.043957487 0.266 -1.7065776e+38
-0.064426288 0.043792237 0.26500002 -1.7065776e+38
-0.063328311 0.043626979 0.264 -1.7063693e+38
-0.062662616 0.043461725 0.26300001 -1.7063171e+38
-0.062236805 0.043461725 0.26300001 -1.7062127e+38
-0.061385177 0.043461725 0.26300001 -1.706108e+38
-0.060959365 0.043461725 0.26300001 -1.7060038e+38
-0.060763717 0.043626979 0.264 -1.7058987e+38
-0.060336284 0.043626979 0.264 -1.7058987e+38
-0.05925611 0.043461725 0.26300001 -1.7192952e+38
-0.058830298 0.043461725 0.26300001 -1.9051785e+38
-0.058404487 0.043461725 0.26300001 -1.9185229e+38
-0.057552859 0.043461725 0.26300001 -2.0245991e+38
-0.056909833 0.043296475 0.26200002 -2.1706048e+38
-0.056701235 0.043461725 0.26300001 -2.2239824e+38
-0.10210416 0.04572314 0.27400002 -1.919827e+38
-0.10203157 0.045890015 0.27500001 -1.8797938e+38
-0.10158632 0.045890015 0.27500001 -1.7469755e+38
-0.10069584 0.045890015 0.27500001 -1.7069426e+38
-0.10025059 0.045890015 0.27500001 -1.7069426e+38
-0.099805355 0.045890015 0.27500001 -1.7336315e+38
-0.099360116 0.045890015 0.27500001 -1.7069426e+38
-0.09846963 0.045890015 0.27500001 -1.7069426e+38
-0.098024391 0.045890015 0.27500001 -1.7068905e+38
-0.097579144 0.045890015 0.27500001 -1.7068905e+38
-0.096688665 0.045890015 0.27500001 -1.7068905e+38
-0.096243419 0.045890015 0.27500001 -1.7068384e+38
-0.09579818 0.045890015 0.27500001 -1.7068905e+38
-0.095699675 0.046056885 0.27600002 -1.7068905e+38
-0.094462454 0.045890015 0.27500001 -1.7068384e+38
-0.094017215 0.045890015 0.27500001 -1.7068384e+38
-0.093571968 0.045890015 0.27500001 -1.7067859e+38
-0.09268149 0.045890015 0.27500001 -1.7067859e+38
-0.09190084 0.04572314 0.27400002 -1.7067337e+38
-0.091791004 0.045890015 0.27500001 -1.7067337e+38
-0.091345765 0.045890015 0.27500001 -1.7067337e+38
-0.090455279 0.045890015 0.27500001 -1.7067337e+38
-0.09001004 0.045890015 0.27500001 -1.7067333e+38
-0.0895648 0.045890015 0.27500001 -1.7066812e+38
-0.089119554 0.045890015 0.27500001 -1.7067327e+38
-0.088229075 0.045890015 0.27500001 -1.7066812e+38
-0.087783828 0.045890015 0.27500001 -1.7067333e+38
-0.087338589 0.045890015 0.27500001 -1.7067337e+38
-0.086133748 0.04572314 0.27400002 -1.7067337e+38
-0.085690126 0.04572314 0.27400002 -1.7067337e+38
-0.085246503 0.04572314 0.27400002 -1.7067337e+38
-0.084359258 0.04572314 0.27400002 -1.7067337e+38
-0.0842219 0.045890015 0.27500001 -1.7067337e+38
-0.083472013 0.04572314 0.27400002 -1.7066816e+38
-0.082584769 0.04572314 0.27400002 -1.706682e+38
-0.082141146 0.04572314 0.27400002 -1.706682e+38
-0.081697524 0.04572314 0.27400002 -1.7066816e+38
-0.081253901 0.04572314 0.27400002 -1.7066816e+38
-0.080073342 0.04555627 0.273 -1.7066816e+38
-0.079631343 0.04555627 0.273 -1.7066816e+38
-0.079189338 0.04555627 0.273 -1.7066816e+38
-0.078305326 0.04555627 0.273 -1.7066816e+38
-0.077578112 0.045389395 0.27200001 -1.7066816e+38
-0.076415367 0.045222525 0.27100003 -1.7066816e+38
-0.075696245 0.04505565 0.27000001 -1.7066816e+38
-0.075259097 0.04505565 0.27000001 -1.7066816e+38
-0.074109308 0.044888776 0.26900002 -1.7066295e+38
-0.073673777 0.044888776 0.26900002 -1.7066816e+38
-0.072802722 0.044888776 0.26900002 -1.7066295e+38
-0.072367199 0.044888776 0.26900002 -1.7066295e+38
-0.071931668 0.044888776 0.26900002 -1.7066295e+38
-0.071761928 0.04505565 0.27000001 -1.7066816e+38
-0.071853116 0.045389395 0.27200001 -1.7066816e+38
-0.070711419 0.045222525 0.27100003 -1.7066295e+38
-0.070272647 0.045222525 0.27100003 -1.7064733e+38
-0.069576196 0.04505565 0.27000001 -1.7064733e+38
-0.068701901 0.04505565 0.27000001 -1.7064733e+38
-0.068011925 0.044888776 0.26900002 -1.7064733e+38
-0.067576393 0.044888776 0.26900002 -1.7065776e+38
-0.066457368 0.044721905 0.26800001 -1.7065776e+38
-0.065777101 0.044555031 0.26700002 -1.7064733e+38
-0.0646694 0.044388156 0.266 -1.7065776e+38
-0.063997239 0.044221286 0.26500002 -1.7065776e+38
-0.062900878 0.044054411 0.264 -1.7064212e+38
-0.062473446 0.044054411 0.264 -1.7063167e+38
-0.061618581 0.044054411 0.264 -1.706108e+38
-0.061191149 0.044054411 0.264 -1.7060038e+38
-0.060993884 0.044221286 0.26500002 -1.7058993e+38
-0.060564831 0.044221286 0.26500002 -1.7058472e+38
-0.060135782 0.044221286 0.26500002 -1.705847e+38
-0.05927768 0.044221286 0.26500002 -1.8785939e+38
-0.058626555 0.044054411 0.264 -1.8919383e+38
-0.058199126 0.044054411 0.264 -2.0114108e+38
-0.10166054 0.046166766 0.27400002 -1.9196704e+38
-0.1007733 0.046166766 0.27400002 -1.7469755e+38
-0.10032967 0.046166766 0.27400002 -1.7069426e+38
-0.099886052 0.046166766 0.27400002 -1.7336315e+38
-0.09944243 0.046166766 0.27400002 -1.7336315e+38
-0.098555185 0.046166766 0.27400002 -1.7069426e+38
-0.098111562 0.046166766 0.27400002 -1.7069426e+38
-0.09766794 0.046166766 0.27400002 -1.7069946e+38
-0.096780688 0.046166766 0.27400002 -1.7069424e+38
-0.096337065 0.046166766 0.27400002 -1.7069424e+38
-0.096243419 0.046335254 0.27500001 -1.7069424e+38
-0.09579818 0.046335254 0.27500001 -1.7069946e+38
-0.09535294 0.046335254 0.27500001 -1.7069424e+38
-0.094462454 0.046335254 0.27500001 -1.706942e+38
-0.094017215 0.046335254 0.27500001 -1.7068899e+38
-0.093231708 0.046166766 0.27400002 -1.7068378e+38
-0.092344463 0.046166766 0.27400002 -1.7068378e+38
-0.091565438 0.045998272 0.273 -1.7068378e+38
-0.090681426 0.045998272 0.273 -1.7067337e+38
-0.090569973 0.046166766 0.27400002 -1.7067337e+38
-0.090126351 0.046166766 0.27400002 -1.7067337e+38
-0.089682728 0.046166766 0.27400002 -1.7067333e+38
-0.089239106 0.046166766 0.27400002 -1.7066812e+38
-0.088351861 0.046166766 0.27400002 -1.7067327e+38
-0.087908238 0.046166766 0.27400002 -1.7066812e+38
-0.087464616 0.046166766 0.27400002 -1.7066812e+38
-0.086577371 0.046166766 0.27400002 -1.7067337e+38
-0.086133748 0.046166766 0.27400002 -1.7067337e+38
-0.085690126 0.046166766 0.27400002 -1.7067337e+38
-0.085246503 0.046166766 0.27400002 -1.7066816e+38
-0.084359258 0.046166766 0.27400002 -1.7067337e+38
-0.083915636 0.046166766 0.27400002 -1.7066816e+38
-0.083472013 0.046166766 0.27400002 -1.7066816e+38
-0.082584769 0.046166766 0.27400002 -1.706682e+38
-0.082141146 0.046166766 0.27400002 -1.706682e+38
-0.081697524 0.046166766 0.27400002 -1.7066295e+38
-0.081253901 0.046166766 0.27400002 -1.7066295e+38
-0.080073342 0.045998272 0.273 -1.7066816e+38
-0.079631343 0.045998272 0.273 -1.7066816e+38
-0.079189338 0.045998272 0.273 -1.7066816e+38
-0.078305326 0.045998272 0.273 -1.7067337e+38
-0.077863328 0.045998272 0.273 -1.7066295e+38
-0.077137731 0.04582978 0.27200001 -1.7066295e+38
-0.075976603 0.045661289 0.27100003 -1.7066816e+38
-0.075537838 0.045661289 0.27100003 -1.7066816e+38
-0.074384809 0.045492794 0.27000001 -1.7066816e+38
-0.073947661 0.045492794 0.27000001 -1.7067337e+38
-0.073510513 0.045492794 0.27000001 -1.7066295e+38
-0.073344007 0.045661289 0.27100003 -1.7066816e+38
-0.072466478 0.045661289 0.27100003 -1.7066816e+38
-0.072027713 0.045661289 0.27100003 -1.7066816e+38
-0.071853116 0.04582978 0.27200001 -1.7066816e+38
-0.071412727 0.04582978 0.27200001 -1.7066295e+38
-0.070272647 0.045661289 0.27100003 -1.7065776e+38
-0.069833882 0.045661289 0.27100003 -1.7064733e+38
-0.068701901 0.045492794 0.27000001 -1.7064733e+38
-0.068011925 0.045324303 0.26900002 -1.7065776e+38
-0.067576393 0.045324303 0.26900002 -1.7065776e+38
-0.066457368 0.045155812 0.26800001 -1.7064733e+38
-0.066023454 0.045155812 0.26800001 -1.7064733e+38
-0.06491252 0.044987321 0.26700002 -1.7065776e+38
-0.064238735 0.044818826 0.266 -1.7065776e+38
-0.063808061 0.044818826 0.266 -1.7064733e+38
-0.062946722 0.044818826 0.266 -1.7063167e+38
-0.062516056 0.044818826 0.266 -1.7062646e+38
-0.062085383 0.044818826 0.266 -1.706108e+38
-0.061224043 0.044818826 0.266 -1.7060034e+38
-0.060793374 0.044818826 0.266 -1.7059512e+38
-0.0603627 0.044818826 0.266 -1.7058468e+38
-0.059932031 0.044818826 0.266 -1.7058989e+38
-0.058848627 0.044650339 0.26500002 -1.8785939e+38
-0.058640022 0.044818826 0.266 -2.0114108e+38
-0.058209352 0.044818826 0.266 -1.9980664e+38
-0.10047811 0.046710547 0.27200001 -1.7603203e+38
-0.1007733 0.047054011 0.27400002 -1.7469759e+38
-0.10032967 0.047054011 0.27400002 -1.7070473e+38
-0.099886052 0.047054011 0.27400002 -1.7203917e+38
-0.09944243 0.047054011 0.27400002 -1.7071514e+38
-0.098555185 0.047054011 0.27400002 -1.706995e+38
-0.098111562 0.047054011 0.27400002 -1.706995e+38
-0.09766794 0.047054011 0.27400002 -1.706995e+38
-0.096427478 0.046882279 0.273 -1.706995e+38
-0.096337065 0.047054011 0.27400002 -1.706995e+38
-0.095893443 0.047054011 0.27400002 -1.7069428e+38
-0.09544982 0.047054011 0.27400002 -1.706995e+38
-0.094562575 0.047054011 0.27400002 -1.7069428e+38
-0.094118953 0.047054011 0.27400002 -1.7069944e+38
-0.09367533 0.047054011 0.27400002 -1.7069422e+38
-0.093231708 0.047054011 0.27400002 -1.7069422e+38
-0.092344463 0.047054011 0.27400002 -1.7068903e+38
-0.091230035 0.046710547 0.27200001 -1.7068382e+38
-0.090349264 0.046710547 0.27200001 -1.7067863e+38
-0.090239428 0.046882279 0.273 -1.7067341e+38
-0.090126351 0.047054011 0.27400002 -1.7067863e+38
-0.089682728 0.047054011 0.27400002 -1.7067337e+38
-0.089239106 0.047054011 0.27400002 -1.7067337e+38
-0.088351861 0.047054011 0.27400002 -1.7067855e+38
-0.087908238 0.047054011 0.27400002 -1.7067337e+38
-0.087145403 0.046882279 0.273 -1.7067337e+38
-0.086261392 0.046882279 0.273 -1.7067337e+38
-0.085819393 0.046882279 0.273 -1.7067337e+38
-0.085377388 0.046882279 0.273 -1.7066816e+38
-0.084493376 0.046882279 0.273 -1.7066295e+38
-0.084051378 0.046882279 0.273 -1.7066291e+38
-0.083609372 0.046882279 0.273 -1.7066812e+38
-0.083167367 0.046882279 0.273 -1.7066812e+38
-0.082283363 0.046882279 0.273 -1.7066812e+38
-0.082141146 0.047054011 0.27400002 -1.7066812e+38
-0.081697524 0.047054011 0.27400002 -1.7065772e+38
-0.081253901 0.047054011 0.27400002 -1.7065772e+38
-0.080073342 0.046882279 0.273 -1.7065772e+38
-0.079631343 0.046882279 0.273 -1.7066293e+38
-0.079189338 0.046882279 0.273 -1.7066293e+38
-0.078305326 0.046882279 0.273 -1.7066297e+38
-0.077863328 0.046882279 0.273 -1.7066297e+38
-0.077137731 0.046710547 0.27200001 -1.7066297e+38
-0.076256961 0.046710547 0.27200001 -1.7066818e+38
-0.075537838 0.046538819 0.27100003 -1.7066297e+38
-0.074660309 0.046538819 0.27100003 -1.7066297e+38
-0.074221537 0.046538819 0.27100003 -1.7066818e+38
-0.073782772 0.046538819 0.27100003 -1.7066297e+38
-0.073614649 0.046710547 0.27200001 -1.7066297e+38
-0.073174268 0.046710547 0.27200001 -1.7066297e+38
-0.072293498 0.046710547 0.27200001 -1.7066297e+38
-0.071853116 0.046710547 0.27200001 -1.7066297e+38
-0.071412727 0.046710547 0.27200001 -1.7066297e+38
-0.070272647 0.046538819 0.27100003 -1.7066297e+38
-0.069833882 0.046538819 0.27100003 -1.7065776e+38
-0.069395117 0.046538819 0.27100003 -1.7065776e+38
-0.068264753 0.04636709 0.27000001 -1.7065776e+38
-0.067576393 0.046195358 0.26900002 -1.7065776e+38
-0.066705339 0.046195358 0.26900002 -1.7065776e+38
-0.066269815 0.046195358 0.26900002 -1.7064733e+38
-0.065589547 0.04602363 0.26800001 -1.7064733e+38
-0.06448023 0.045851897 0.26700002 -1.7065776e+38
-0.06404794 0.045851897 0.26700002 -1.7065776e+38
-0.063183367 0.045851897 0.26700002 -1.7063693e+38
-0.062751077 0.045851897 0.26700002 -1.706265e+38
-0.062318787 0.045851897 0.26700002 -1.7061606e+38
-0.061224043 0.045680169 0.266 -1.7060038e+38
-0.060793374 0.045680169 0.266 -1.7058995e+38
-0.0603627 0.045680169 0.266 -1.7057953e+38
-0.059932031 0.045680169 0.266 -1.7058474e+38
-0.059070691 0.045680169 0.266 -1.8388213e+38
-0.058640022 0.045680169 0.266 -2.0114112e+38
-0.058209352 0.045680169 0.266 -1.9980668e+38
-0.057995893 0.045851897 0.26700002 -2.1571564e+38
-0.0577792 0.04602363 0.26800001 -2.2238784e+38
-0.10047811 0.047150932 0.27200001 -1.7736647e+38
-0.10003772 0.047150932 0.27200001 -1.7603203e+38
-0.099597335 0.047150932 0.27200001 -1.7070988e+38
-0.099521503 0.047324281 0.273 -1.7204432e+38
-0.098637491 0.047324281 0.273 -1.7070992e+38
-0.098195493 0.047324281 0.273 -1.706995e+38
-0.097753488 0.047324281 0.273 -1.706995e+38
-0.097311482 0.047324281 0.273 -1.706995e+38
-0.096427478 0.047324281 0.273 -1.706995e+38
-0.095985472 0.047324281 0.273 -1.706995e+38
-0.095543467 0.047324281 0.273 -1.706995e+38
-0.094659463 0.047324281 0.273 -1.706995e+38
-0.094217457 0.047324281 0.273 -1.7069428e+38
-0.093775459 0.047324281 0.273 -1.7069944e+38
-0.093333453 0.047324281 0.273 -1.7069944e+38
-0.092449442 0.047324281 0.273 -1.7069944e+38
-0.092007443 0.047324281 0.273 -1.7069944e+38
-0.091230035 0.047150932 0.27200001 -1.7069422e+38
-0.090349264 0.047150932 0.27200001 -1.7068382e+38
-0.089908876 0.047150932 0.27200001 -1.7067863e+38
-0.089797422 0.047324281 0.273 -1.7067863e+38
-0.089355417 0.047324281 0.273 -1.7067337e+38
-0.088471413 0.047324281 0.273 -1.7067337e+38
-0.088029407 0.047324281 0.273 -1.7067859e+38
-0.087587401 0.047324281 0.273 -1.7067337e+38
-0.087145403 0.047324281 0.273 -1.7067337e+38
-0.086261392 0.047324281 0.273 -1.7067337e+38
-0.085819393 0.047324281 0.273 -1.7067337e+38
-0.085377388 0.047324281 0.273 -1.7066816e+38
-0.084493376 0.047324281 0.273 -1.7066295e+38
-0.084051378 0.047324281 0.273 -1.7066291e+38
-0.083609372 0.047324281 0.273 -1.7066812e+38
-0.083167367 0.047324281 0.273 -1.7066812e+38
-0.082283363 0.047324281 0.273 -1.7066812e+38
-0.081841357 0.047324281 0.273 -1.7066812e+38
-0.080660805 0.047150932 0.27200001 -1.7065772e+38
-0.080515347 0.047324281 0.273 -1.7065772e+38
-0.080073342 0.047324281 0.273 -1.7065772e+38
-0.079631343 0.047324281 0.273 -1.7066293e+38
-0.079189338 0.047324281 0.273 -1.7066293e+38
-0.078305326 0.047324281 0.273 -1.7066818e+38
-0.077863328 0.047324281 0.273 -1.7066297e+38
-0.077137731 0.047150932 0.27200001 -1.7066297e+38
-0.076256961 0.047150932 0.27200001 -1.7066818e+38
-0.075816572 0.047150932 0.27200001 -1.7066297e+38
-0.07537619 0.047150932 0.27200001 -1.7066297e+38
-0.07449542 0.047150932 0.27200001 -1.7066297e+38
-0.074055038 0.047150932 0.27200001 -1.7066297e+38
-0.073614649 0.047150932 0.27200001 -1.7066297e+38
-0.073174268 0.047150932 0.27200001 -1.7066297e+38
-0.072293498 0.047150932 0.27200001 -1.7066297e+38
-0.071853116 0.047150932 0.27200001 -1.7066297e+38
-0.071412727 0.047150932 0.27200001 -1.7066297e+38
-0.070531957 0.047150932 0.27200001 -1.7066297e+38
-0.069833882 0.046977583 0.27100003 -1.7065776e+38
-0.069395117 0.046977583 0.27100003 -1.7065776e+38
-0.068517588 0.046977583 0.27100003 -1.7065776e+38
-0.067827612 0.046804234 0.27000001 -1.7065776e+38
-0.067390464 0.046804234 0.27000001 -1.7065776e+38
-0.066269815 0.046630885 0.26900002 -1.7064733e+38
-0.065834284 0.046630885 0.26900002 -1.7064733e+38
-0.06539876 0.046630885 0.26900002 -1.7065776e+38
-0.064287826 0.046457537 0.26800001 -1.7065776e+38
-0.063853912 0.046457537 0.26800001 -1.7064733e+38
-0.062986098 0.046457537 0.26800001 -1.7063171e+38
-0.062552191 0.046457537 0.26800001 -1.7062127e+38
-0.061886497 0.046284188 0.26700002 -1.7061084e+38
-0.06102192 0.046284188 0.26700002 -1.7059516e+38
-0.06058963 0.046284188 0.26700002 -1.7057953e+38
-0.06015734 0.046284188 0.26700002 -1.7058474e+38
-0.05972505 0.046284188 0.26700002 -1.8254769e+38
-0.058860473 0.046284188 0.26700002 -1.9848267e+38
-0.058428183 0.046284188 0.26700002 -1.9714823e+38
-0.057995893 0.046284188 0.26700002 -2.1571564e+38
-0.0577792 0.046457537 0.26800001 -2.2238784e+38
-0.10054747 0.047416352 0.27100003 -2.3181249e+38
-0.10010871 0.047416352 0.27100003 -1.7869565e+38
-0.099669933 0.047416352 0.27100003 -1.7736121e+38
-0.098792404 0.047416352 0.27100003 -1.7204432e+38
-0.098353639 0.047416352 0.27100003 -1.7071514e+38
-0.098276183 0.047591317 0.27200001 -1.7070992e+38
-0.097835802 0.047591317 0.27200001 -1.706995e+38
-0.097395413 0.047591317 0.27200001 -1.706995e+38
-0.09651465 0.047591317 0.27200001 -1.706995e+38
-0.096074261 0.047591317 0.27200001 -1.706995e+38
-0.095633879 0.047591317 0.27200001 -1.7070992e+38
-0.094753109 0.047591317 0.27200001 -1.706995e+38
-0.094312727 0.047591317 0.27200001 -1.706995e+38
-0.093872339 0.047591317 0.27200001 -1.7069428e+38
-0.093431957 0.047591317 0.27200001 -1.7069428e+38
-0.092551187 0.047591317 0.27200001 -1.7069428e+38
-0.092110798 0.047591317 0.27200001 -1.7069428e+38
-0.091670416 0.047591317 0.27200001 -1.7069428e+38
-0.091230035 0.047591317 0.27200001 -1.7068907e+38
-0.090349264 0.047591317 0.27200001 -1.7068909e+38
-0.089908876 0.047591317 0.27200001 -1.7068384e+38
-0.089468494 0.047591317 0.27200001 -1.7067863e+38
-0.088587724 0.047591317 0.27200001 -1.7067341e+38
-0.088147342 0.047591317 0.27200001 -1.7067337e+38
-0.087706953 0.047591317 0.27200001 -1.7067859e+38
-0.087266572 0.047591317 0.27200001 -1.7067859e+38
-0.086385801 0.047591317 0.27200001 -1.7066816e+38
-0.08594542 0.047591317 0.27200001 -1.7067337e+38
-0.085505031 0.047591317 0.27200001 -1.7067337e+38
-0.084624261 0.047591317 0.27200001 -1.7066816e+38
-0.084183879 0.047591317 0.27200001 -1.7066816e+38
-0.083743498 0.047591317 0.27200001 -1.7066812e+38
-0.083303109 0.047591317 0.27200001 -1.7066812e+38
-0.082422338 0.047591317 0.27200001 -1.7066812e+38
-0.081981957 0.047591317 0.27200001 -1.7066812e+38
-0.081541575 0.047591317 0.27200001 -1.7066812e+38
-0.080660805 0.047591317 0.27200001 -1.7066291e+38
-0.080220416 0.047591317 0.27200001 -1.7065772e+38
-0.080073342 0.047766287 0.273 -1.7066293e+38
-0.079631343 0.047766287 0.273 -1.7066293e+38
-0.079189338 0.047766287 0.273 -1.7066293e+38
-0.078305326 0.047766287 0.273 -1.7066818e+38
-0.077863328 0.047766287 0.273 -1.7066297e+38
-0.077421322 0.047766287 0.273 -1.7066818e+38
-0.076256961 0.047591317 0.27200001 -1.7066818e+38
-0.075816572 0.047591317 0.27200001 -1.7066818e+38
-0.07537619 0.047591317 0.27200001 -1.7066297e+38
-0.07449542 0.047591317 0.27200001 -1.7066297e+38
-0.074055038 0.047591317 0.27200001 -1.7066297e+38
-0.073614649 0.047591317 0.27200001 -1.7066818e+38
-0.073174268 0.047591317 0.27200001 -1.7066297e+38
-0.072293498 0.047591317 0.27200001 -1.7066297e+38
-0.071853116 0.047591317 0.27200001 -1.7066818e+38
-0.071412727 0.047591317 0.27200001 -1.7066297e+38
-0.070272647 0.047416352 0.27100003 -1.7066297e+38
-0.069833882 0.047416352 0.27100003 -1.7065776e+38
-0.069395117 0.047416352 0.27100003 -1.7065776e+38
-0.068517588 0.047416352 0.27100003 -1.7065776e+38
-0.067827612 0.047241382 0.27000001 -1.7065776e+38
-0.067390464 0.047241382 0.27000001 -1.7065776e+38
-0.066516168 0.047241382 0.27000001 -1.7065776e+38
-0.066079021 0.047241382 0.27000001 -1.7064733e+38
-0.06539876 0.047066413 0.26900002 -1.7065776e+38
-0.064527705 0.047066413 0.26900002 -1.7065776e+38
-0.064092174 0.047066413 0.26900002 -1.7064733e+38
-0.06365665 0.047066413 0.26900002 -1.7063693e+38
-0.062552191 0.046891447 0.26800001 -1.7062131e+38
-0.062118284 0.046891447 0.26800001 -1.706161e+38
-0.061684374 0.046891447 0.26800001 -1.7060038e+38
-0.060816556 0.046891447 0.26800001 -1.7058993e+38
-0.060382649 0.046891447 0.26800001 -1.7058472e+38
-0.059948742 0.046891447 0.26800001 -1.812185e+38
-0.058860473 0.046716478 0.26700002 -1.9847751e+38
-0.058428183 0.046716478 0.26700002 -1.9847751e+38
-0.058213107 0.046891447 0.26800001 -2.1837937e+38
-0.0577792 0.046891447 0.26800001 -2.2238269e+38
-0.10010871 0.048293881 0.27100003 -2.2386328e+38
-0.099669933 0.048293881 0.27100003 -2.1719108e+38
-0.098792404 0.048293881 0.27100003 -1.8001444e+38
-0.098353639 0.048293881 0.27100003 -1.7204432e+38
-0.097914875 0.048293881 0.27100003 -1.7070988e+38
-0.09747611 0.048293881 0.27100003 -1.7070473e+38
-0.097395413 0.048472084 0.27200001 -1.7070473e+38
-0.09651465 0.048472084 0.27200001 -1.706995e+38
-0.096074261 0.048472084 0.27200001 -1.7070992e+38
-0.095633879 0.048472084 0.27200001 -1.7070992e+38
-0.094753109 0.048472084 0.27200001 -1.706995e+38
-0.094312727 0.048472084 0.27200001 -1.706995e+38
-0.093872339 0.048472084 0.27200001 -1.7069428e+38
-0.093431957 0.048472084 0.27200001 -1.7069428e+38
-0.092210926 0.048293881 0.27100003 -1.7069428e+38
-0.091772161 0.048293881 0.27100003 -1.7069428e+38
-0.091333389 0.048293881 0.27100003 -1.7069428e+38
-0.09045586 0.048293881 0.27100003 -1.7068909e+38
-0.090017095 0.048293881 0.27100003 -1.7068909e+38
-0.089578331 0.048293881 0.27100003 -1.7068388e+38
-0.089468494 0.048472084 0.27200001 -1.7068388e+38
-0.088587724 0.048472084 0.27200001 -1.7068903e+38
-0.087823272 0.048293881 0.27100003 -1.7068378e+38
-0.087384507 0.048293881 0.27100003 -1.7068378e+38
-0.08650697 0.048293881 0.27100003 -1.7067859e+38
-0.086068206 0.048293881 0.27100003 -1.7067859e+38
-0.085629441 0.048293881 0.27100003 -1.7067337e+38
-0.084751911 0.048293881 0.27100003 -1.7067337e+38
-0.084313147 0.048293881 0.27100003 -1.7067337e+38
-0.083874382 0.048293881 0.27100003 -1.7067337e+38
-0.083435617 0.048293881 0.27100003 -1.7067337e+38
-0.082558081 0.048293881 0.27100003 -1.7067333e+38
