# .PCD v0.7 - Point Cloud Data file format
VERSION 0.7
FIELDS x y z rgb
SIZE 4 4 4 4
TYPE F F F F
COUNT 1 1 1 1
WIDTH 969
HEIGHT 1
VIEWPOINT 0 0 0 1 0 0 0
POINTS 969
DATA ascii
-0.10872003 0.036402121 0.28800002 -1.7067869e+38
-0.10825374 0.036402121 0.28800002 -1.7066826e+38
-0.10816172 0.03652852 0.289 -1.7067348e+38
-0.1072259 0.03652852 0.289 -1.7067341e+38
-0.106758 0.03652852 0.289 -1.7067341e+38
-0.10629009 0.03652852 0.289 -1.7067341e+38
-0.10582217 0.03652852 0.289 -1.7067341e+38
-0.10488635 0.03652852 0.289 -1.7067341e+38
-0.10441845 0.03652852 0.289 -1.706682e+38
-0.10395054 0.03652852 0.289 -1.7067337e+38
-0.10301472 0.03652852 0.289 -1.7067337e+38
-0.10254681 0.03652852 0.289 -1.7067337e+38
-0.10172569 0.036402121 0.28800002 -1.7067337e+38
-0.091624044 0.033874199 0.26800001 -1.7066816e+38
-0.09075623 0.033874199 0.26800001 -1.7067341e+38
-0.090322323 0.033874199 0.26800001 -1.706682e+38
-0.089888416 0.033874199 0.26800001 -1.706682e+38
-0.089788288 0.034000594 0.26900002 -1.706682e+38
-0.089352764 0.034000594 0.26900002 -1.7067341e+38
-0.088481709 0.034000594 0.26900002 -1.706682e+38
-0.088046178 0.034000594 0.26900002 -1.706682e+38
-0.087610655 0.034000594 0.26900002 -1.706682e+38
-0.0867396 0.034000594 0.26900002 -1.706682e+38
-0.085662402 0.033747803 0.26700002 -1.706682e+38
-0.084797829 0.033747803 0.26700002 -1.7066816e+38
-0.08404956 0.033621404 0.266 -1.7066816e+38
-0.083618894 0.033621404 0.266 -1.7066816e+38
-0.10935418 0.03661238 0.28600001 -1.7732998e+38
-0.10927188 0.0367404 0.287 -1.7599554e+38
-0.10918632 0.036868412 0.28800002 -1.7067869e+38
-0.10872003 0.036868412 0.28800002 -1.7067869e+38
-0.10825374 0.036868412 0.28800002 -1.7067348e+38
-0.10732117 0.036868412 0.28800002 -1.7067863e+38
-0.10685487 0.036868412 0.28800002 -1.7067341e+38
-0.10638858 0.036868412 0.28800002 -1.7067341e+38
-0.1059223 0.036868412 0.28800002 -1.7067863e+38
-0.10498971 0.036868412 0.28800002 -1.7067341e+38
-0.10452343 0.036868412 0.28800002 -1.7067341e+38
-0.10405713 0.036868412 0.28800002 -1.706682e+38
-0.10359085 0.036868412 0.28800002 -1.7067337e+38
-0.10265826 0.036868412 0.28800002 -1.7067337e+38
-0.10219198 0.036868412 0.28800002 -1.7067337e+38
-0.10172569 0.036868412 0.28800002 -1.7067337e+38
-0.09075623 0.034308109 0.26800001 -1.7066816e+38
-0.090322323 0.034308109 0.26800001 -1.7066816e+38
-0.089888416 0.034308109 0.26800001 -1.7066816e+38
-0.089788288 0.034436122 0.26900002 -1.7066816e+38
-0.089352764 0.034436122 0.26900002 -1.7067337e+38
-0.088481709 0.034436122 0.26900002 -1.7066816e+38
-0.088046178 0.034436122 0.26900002 -1.7066816e+38
-0.087610655 0.034436122 0.26900002 -1.7067337e+38
-0.0867396 0.034436122 0.26900002 -1.7066816e+38
-0.086304069 0.034436122 0.26900002 -1.7066816e+38
-0.084797829 0.03418009 0.26700002 -1.7066816e+38
-0.084365539 0.03418009 0.26700002 -1.7066816e+38
-0.083618894 0.034052074 0.266 -1.7066816e+38
-0.082446441 0.033924062 0.26500002 -1.706578e+38
-0.082017384 0.033924062 0.26500002 -1.706578e+38
-0.080546759 0.03366803 0.26300001 -1.706578e+38
-0.080120951 0.03366803 0.26300001 -1.706578e+38
-0.078967914 0.033540014 0.26200002 -1.7065776e+38
-0.078543723 0.033540014 0.26200002 -1.7065776e+38
-0.078119531 0.033540014 0.26200002 -1.7065776e+38
-0.07697621 0.033411998 0.26100001 -1.7065776e+38
-0.076553635 0.033411998 0.26100001 -1.7065776e+38
-0.07541842 0.033283986 0.26000002 -1.7065776e+38
-0.075285912 0.033411998 0.26100001 -1.7065776e+38
-0.074576505 0.033283986 0.26000002 -1.7065776e+38
-0.074155547 0.033283986 0.26000002 -1.7065776e+38
-0.073031664 0.03315597 0.259 -1.7065776e+38
-0.072612323 0.03315597 0.259 -1.7065776e+38
-0.071496531 0.033027951 0.25800002 -1.7065776e+38
-0.071078815 0.033027951 0.25800002 -1.7065776e+38
-0.070661098 0.033027951 0.25800002 -1.7065776e+38
-0.069825664 0.033027951 0.25800002 -1.7064733e+38
-0.069407947 0.033027951 0.25800002 -1.7065776e+38
-0.068990231 0.033027951 0.25800002 -1.7065776e+38
-0.06815479 0.033027951 0.25800002 -1.7065776e+38
-0.067737073 0.033027951 0.25800002 -1.7065776e+38
-0.067319356 0.033027951 0.25800002 -1.7064733e+38
-0.066901639 0.033027951 0.25800002 -1.7064733e+38
-0.066066206 0.033027951 0.25800002 -1.7064733e+38
-0.065648489 0.033027951 0.25800002 -1.7064733e+38
-0.064977936 0.032899939 0.257 -1.7064733e+38
-0.063896142 0.032771923 0.25600001 -1.7063693e+38
-0.063233688 0.032643907 0.25500003 -1.7063171e+38
-0.06216323 0.032515895 0.25400001 -1.7062127e+38
-0.061751988 0.032515895 0.25400001 -1.7061601e+38
-0.060929507 0.032515895 0.25400001 -1.7058997e+38
-0.060518265 0.032515895 0.25400001 -1.7058476e+38
-0.060107023 0.032515895 0.25400001 -1.7057953e+38
-0.05969578 0.032515895 0.25400001 -1.705691e+38
-0.0588733 0.032515895 0.25400001 -1.7191391e+38
-0.058462057 0.032515895 0.25400001 -1.9717954e+38
-0.058050815 0.032515895 0.25400001 -2.0385174e+38
-0.057228334 0.032515895 0.25400001 -2.1978672e+38
-0.057488162 0.032899939 0.257 -2.1977628e+38
-0.056655962 0.032899939 0.257 -2.2640153e+38
-0.056239866 0.032899939 0.257 -2.2907041e+38
-0.10935418 0.037075434 0.28600001 -1.813229e+38
-0.10889113 0.037075434 0.28600001 -1.7731957e+38
-0.10842808 0.037075434 0.28600001 -1.7068905e+38
-0.10796503 0.037075434 0.28600001 -1.7068905e+38
-0.10787787 0.03720507 0.287 -1.7067348e+38
-0.10694852 0.03720507 0.287 -1.7067863e+38
-0.10648385 0.03720507 0.287 -1.7067341e+38
-0.10601918 0.03720507 0.287 -1.7067863e+38
-0.10508984 0.03720507 0.287 -1.7067341e+38
-0.10462517 0.03720507 0.287 -1.7067341e+38
-0.1041605 0.03720507 0.287 -1.7067341e+38
-0.10369582 0.03720507 0.287 -1.706682e+38
-0.10276648 0.03720507 0.287 -1.7067859e+38
-0.10230181 0.03720507 0.287 -1.7067337e+38
-0.10219198 0.037334699 0.28800002 -1.7067337e+38
-0.10172569 0.037334699 0.28800002 -1.7067337e+38
-0.10079311 0.037334699 0.28800002 -1.7066816e+38
-0.091530398 0.034871649 0.26900002 -1.7067337e+38
-0.090659343 0.034871649 0.26900002 -1.7066816e+38
-0.090223819 0.034871649 0.26900002 -1.7067337e+38
-0.089788288 0.034871649 0.26900002 -1.7067337e+38
-0.089352764 0.034871649 0.26900002 -1.7067337e+38
-0.088481709 0.034871649 0.26900002 -1.7066816e+38
-0.088046178 0.034871649 0.26900002 -1.7066816e+38
-0.087610655 0.034871649 0.26900002 -1.7067337e+38
-0.087499201 0.035001285 0.27000001 -1.7066816e+38
-0.086304069 0.034871649 0.26900002 -1.7066816e+38
-0.085549332 0.034742016 0.26800001 -1.7066816e+38
-0.084365539 0.03461238 0.26700002 -1.7066816e+38
-0.083933249 0.03461238 0.26700002 -1.706682e+38
-0.082757547 0.034482744 0.266 -1.7066299e+38
-0.082017384 0.034353111 0.26500002 -1.706682e+38
-0.080853023 0.034223478 0.264 -1.706578e+38
-0.08042559 0.034223478 0.264 -1.706578e+38
-0.07926932 0.034093842 0.26300001 -1.7065776e+38
-0.078843512 0.034093842 0.26300001 -1.7065776e+38
-0.078119531 0.033964209 0.26200002 -1.7065776e+38
-0.077271141 0.033964209 0.26200002 -1.7065776e+38
-0.07684695 0.033964209 0.26200002 -1.7065776e+38
-0.076422751 0.033964209 0.26200002 -1.7065776e+38
-0.07599856 0.033964209 0.26200002 -1.7065776e+38
-0.074863337 0.033834573 0.26100001 -1.7065776e+38
-0.074440762 0.033834573 0.26100001 -1.7065776e+38
-0.073313639 0.03370494 0.26000002 -1.7065776e+38
-0.072612323 0.033575304 0.259 -1.7064733e+38
-0.071773656 0.033575304 0.259 -1.7064733e+38
-0.071078815 0.033445671 0.25800002 -1.7065776e+38
-0.070661098 0.033445671 0.25800002 -1.7065776e+38
-0.069825664 0.033445671 0.25800002 -1.7064733e+38
-0.069407947 0.033445671 0.25800002 -1.7064733e+38
-0.068990231 0.033445671 0.25800002 -1.7064733e+38
-0.06815479 0.033445671 0.25800002 -1.7065776e+38
-0.067737073 0.033445671 0.25800002 -1.7064733e+38
-0.067319356 0.033445671 0.25800002 -1.7064733e+38
-0.066901639 0.033445671 0.25800002 -1.7064733e+38
-0.066066206 0.033445671 0.25800002 -1.7064733e+38
-0.065648489 0.033445671 0.25800002 -1.7064733e+38
-0.065230772 0.033445671 0.25800002 -1.7064733e+38
-0.064145736 0.033316039 0.257 -1.7063693e+38
-0.063481666 0.033186402 0.25600001 -1.7063171e+38
-0.062652707 0.033186402 0.25600001 -1.7062127e+38
-0.062238228 0.033186402 0.25600001 -1.7061601e+38
-0.061582249 0.033056766 0.25500003 -1.706108e+38
-0.060756527 0.033056766 0.25500003 -1.7059516e+38
-0.060343664 0.033056766 0.25500003 -1.7057953e+38
-0.059930805 0.033056766 0.25500003 -1.7057431e+38
-0.059517946 0.033056766 0.25500003 -1.7056908e+38
-0.058462057 0.032927133 0.25400001 -1.958451e+38
-0.058279362 0.033056766 0.25500003 -2.025173e+38
-0.057866503 0.033056766 0.25500003 -2.1978157e+38
-0.057904258 0.033316039 0.257 -2.1844713e+38
-0.057488162 0.033316039 0.257 -2.1844188e+38
-0.056655962 0.033316039 0.257 -2.2640157e+38
-0.056239866 0.033316039 0.257 -2.2773601e+38
-0.091433518 0.03543843 0.27000001 -1.7067341e+38
-0.090559222 0.03543843 0.27000001 -1.7067337e+38
-0.090122074 0.03543843 0.27000001 -1.7067337e+38
-0.089352764 0.035307176 0.26900002 -1.7067337e+38
-0.088481709 0.035307176 0.26900002 -1.7066816e+38
-0.088046178 0.035307176 0.26900002 -1.7066816e+38
-0.087610655 0.035307176 0.26900002 -1.7067337e+38
-0.087499201 0.03543843 0.27000001 -1.7066816e+38
-0.086304069 0.035307176 0.26900002 -1.7066816e+38
-0.085549332 0.035175923 0.26800001 -1.7067337e+38
-0.084681511 0.035175923 0.26800001 -1.7066816e+38
-0.084247604 0.035175923 0.26800001 -1.7066816e+38
-0.083500959 0.03504467 0.26700002 -1.7066816e+38
-0.082326882 0.034913413 0.266 -1.706682e+38
-0.081588335 0.034782164 0.26500002 -1.706578e+38
-0.080730237 0.034782164 0.26500002 -1.706578e+38
-0.079998158 0.034650911 0.264 -1.7064737e+38
-0.078843512 0.034519654 0.26300001 -1.7065776e+38
-0.078417696 0.034519654 0.26300001 -1.7065776e+38
-0.07799188 0.034519654 0.26300001 -1.7065776e+38
-0.07684695 0.034388404 0.26200002 -1.7065776e+38
-0.077006131 0.034650911 0.264 -1.7066297e+38
-0.076578699 0.034650911 0.264 -1.7065776e+38
-0.073173039 0.034257147 0.26100001 -1.7064733e+38
-0.07247173 0.034125898 0.26000002 -1.7065776e+38
-0.069825664 0.033863388 0.25800002 -1.7064733e+38
-0.069407947 0.033863388 0.25800002 -1.7064214e+38
-0.068990231 0.033863388 0.25800002 -1.7064214e+38
-0.06815479 0.033863388 0.25800002 -1.7065256e+38
-0.067737073 0.033863388 0.25800002 -1.7064214e+38
-0.067319356 0.033863388 0.25800002 -1.7064214e+38
-0.067160949 0.033994641 0.259 -1.7065256e+38
-0.066741608 0.033994641 0.259 -1.7064214e+38
-0.065902941 0.033994641 0.259 -1.7064214e+38
-0.0654836 0.033994641 0.259 -1.7064214e+38
-0.064813048 0.033863388 0.25800002 -1.7064214e+38
-0.063729644 0.033732135 0.257 -1.7063171e+38
-0.062652707 0.033600882 0.25600001 -1.7062648e+38
-0.062238228 0.033600882 0.25600001 -1.7061601e+38
-0.061823748 0.033600882 0.25600001 -1.706108e+38
-0.061409269 0.033600882 0.25600001 -1.7060038e+38
-0.060580309 0.033600882 0.25600001 -1.7057953e+38
-0.06016583 0.033600882 0.25600001 -1.7057431e+38
-0.059517946 0.033469629 0.25500003 -1.7057427e+38
-0.058692224 0.033469629 0.25500003 -1.8919379e+38
-0.058050815 0.033338375 0.25400001 -1.9720043e+38
-0.057228334 0.033338375 0.25400001 -2.1844713e+38
-0.057488162 0.033732135 0.257 -2.1710744e+38
-0.057294134 0.033863388 0.25800002 -2.1710744e+38
-0.056458697 0.033863388 0.25800002 -2.2374315e+38
-0.10904928 0.03773579 0.28400001 -2.35748e+38
-0.10897183 0.037868664 0.28500003 -1.86645e+38
-0.1085104 0.037868664 0.28500003 -1.8130724e+38
-0.10804897 0.037868664 0.28500003 -1.7068901e+38
-0.10796503 0.038001537 0.28600001 -1.7068901e+38
-0.10703893 0.038001537 0.28600001 -1.7067863e+38
-0.10657588 0.038001537 0.28600001 -1.7067863e+38
-0.10648385 0.038134411 0.287 -1.7067863e+38
-0.10601918 0.038134411 0.287 -1.7067863e+38
-0.10508984 0.038134411 0.287 -1.7067863e+38
-0.10462517 0.038134411 0.287 -1.7067863e+38
-0.1041605 0.038134411 0.287 -1.7067863e+38
-0.10369582 0.038134411 0.287 -1.7067341e+38
-0.10276648 0.038134411 0.287 -1.7067341e+38
-0.10230181 0.038134411 0.287 -1.7067341e+38
-0.10183714 0.038134411 0.287 -1.7067341e+38
-0.1009078 0.038134411 0.287 -1.7067341e+38
-0.10044313 0.038134411 0.287 -1.706682e+38
-0.058692224 0.033882488 0.25500003 -1.9185225e+38
-0.058050815 0.033749618 0.25400001 -1.9852445e+38
-0.057866503 0.033882488 0.25500003 -2.1579391e+38
-0.057040781 0.033882488 0.25500003 -2.1577825e+38
-0.10858947 0.038195606 0.28400001 -1.9196704e+38
-0.1085104 0.038330097 0.28500003 -1.8529484e+38
-0.10804897 0.038330097 0.28500003 -1.7068901e+38
-0.1071261 0.038330097 0.28500003 -1.7068384e+38
-0.10666467 0.038330097 0.28500003 -1.7067863e+38
-0.10620324 0.038330097 0.28500003 -1.7067863e+38
-0.1057418 0.038330097 0.28500003 -1.7067863e+38
-0.10481893 0.038330097 0.28500003 -1.7067863e+38
-0.10472367 0.038464587 0.28600001 -1.7068384e+38
-0.10426062 0.038464587 0.28600001 -1.7067863e+38
-0.10379757 0.038464587 0.28600001 -1.7068384e+38
-0.10287146 0.038464587 0.28600001 -1.7067341e+38
-0.10240842 0.038464587 0.28600001 -1.7067341e+38
-0.10194536 0.038464587 0.28600001 -1.7067341e+38
-0.10148231 0.038464587 0.28600001 -1.7067341e+38
-0.10055621 0.038464587 0.28600001 -1.7067341e+38
-0.09974318 0.038330097 0.28500003 -1.7067341e+38
-0.098820314 0.038330097 0.28500003 -1.706682e+38
-0.091333389 0.036447216 0.27100003 -1.7067337e+38
-0.090122074 0.036312722 0.27000001 -1.7067337e+38
-0.089684926 0.036312722 0.27000001 -1.7067337e+38
-0.088810638 0.036312722 0.27000001 -1.7066816e+38
-0.08837349 0.036312722 0.27000001 -1.7066816e+38
-0.087936342 0.036312722 0.27000001 -1.7067337e+38
-0.087499201 0.036312722 0.27000001 -1.7066816e+38
-0.086304069 0.036178231 0.26900002 -1.7067337e+38
-0.085549332 0.036043741 0.26800001 -1.7066816e+38
-0.084681511 0.036043741 0.26800001 -1.7066295e+38
-0.084247604 0.036043741 0.26800001 -1.7066816e+38
-0.083813697 0.036043741 0.26800001 -1.7066816e+38
-0.082636379 0.035909247 0.26700002 -1.7066816e+38
-0.081896208 0.035774756 0.266 -1.7065776e+38
-0.081034869 0.035774756 0.266 -1.7065776e+38
-0.08030118 0.035640266 0.26500002 -1.7065776e+38
-0.079143293 0.035505772 0.264 -1.7065776e+38
-0.078715861 0.035505772 0.264 -1.7065776e+38
-0.078288428 0.035505772 0.264 -1.7065776e+38
-0.077860996 0.035505772 0.264 -1.7065776e+38
-0.077006131 0.035505772 0.264 -1.7066297e+38
-0.076868773 0.035640266 0.26500002 -1.7065776e+38
-0.076439723 0.035640266 0.26500002 -1.7066297e+38
-0.075296409 0.035505772 0.264 -1.7065776e+38
-0.073453397 0.035236791 0.26200002 -1.7064733e+38
-0.072750464 0.035102297 0.26100001 -1.7064733e+38
-0.07232789 0.035102297 0.26100001 -1.7064733e+38
-0.07148274 0.035102297 0.26100001 -1.7065776e+38
-0.071332425 0.035236791 0.26200002 -1.7064733e+38
-0.070908234 0.035236791 0.26200002 -1.7064733e+38
-0.069257632 0.034833316 0.259 -1.7064733e+38
-0.06815479 0.034698822 0.25800002 -1.7065776e+38
-0.067737073 0.034698822 0.25800002 -1.7064733e+38
-0.067319356 0.034698822 0.25800002 -1.7065776e+38
-0.067160949 0.034833316 0.259 -1.7065776e+38
-0.066741608 0.034833316 0.259 -1.7064733e+38
-0.066578344 0.03496781 0.26000002 -1.7064733e+38
-0.065736435 0.03496781 0.26000002 -1.7064214e+38
-0.065064266 0.034833316 0.259 -1.7064214e+38
-0.063977614 0.034698822 0.25800002 -1.7063689e+38
-0.063313544 0.034564335 0.257 -1.7063689e+38
-0.062481344 0.034564335 0.257 -1.7062642e+38
-0.062065247 0.034564335 0.257 -1.7062121e+38
-0.061649147 0.034564335 0.257 -1.7060034e+38
-0.060580309 0.034429841 0.25600001 -1.7058472e+38
-0.06016583 0.034429841 0.25600001 -1.7057951e+38
-0.05975135 0.034429841 0.25600001 -1.7057427e+38
-0.057711851 0.034698822 0.25800002 -2.1577825e+38
-0.057294134 0.034698822 0.25800002 -2.1577825e+38
-0.056458697 0.034698822 0.25800002 -2.2107427e+38
-0.10858947 0.038655419 0.28400001 -1.946099e+38
-0.10812966 0.038655419 0.28400001 -1.8927214e+38
-0.10721003 0.038655419 0.28400001 -1.7068901e+38
-0.10675021 0.038655419 0.28400001 -1.7068384e+38
-0.1062904 0.038655419 0.28400001 -1.7067863e+38
-0.10620324 0.03879153 0.28500003 -1.7067863e+38
-0.1057418 0.03879153 0.28500003 -1.7067863e+38
-0.10481893 0.03879153 0.28500003 -1.7067863e+38
-0.1043575 0.03879153 0.28500003 -1.7067863e+38
-0.10426062 0.038927637 0.28600001 -1.7067863e+38
-0.10297321 0.03879153 0.28500003 -1.7067863e+38
-0.10251177 0.03879153 0.28500003 -1.7067863e+38
-0.10205034 0.03879153 0.28500003 -1.7067341e+38
-0.10158891 0.03879153 0.28500003 -1.7067863e+38
-0.10066605 0.03879153 0.28500003 -1.7067341e+38
-0.10020461 0.03879153 0.28500003 -1.7067341e+38
-0.09974318 0.03879153 0.28500003 -1.7067341e+38
-0.098820314 0.03879153 0.28500003 -1.706682e+38
-0.091670416 0.037022088 0.27200001 -1.7066816e+38
-0.09045586 0.036885981 0.27100003 -1.7067337e+38
-0.090017095 0.036885981 0.27100003 -1.7067337e+38
-0.089578331 0.036885981 0.27100003 -1.7066816e+38
-0.088700801 0.036885981 0.27100003 -1.7066816e+38
-0.088262036 0.036885981 0.27100003 -1.7066816e+38
-0.087823272 0.036885981 0.27100003 -1.7066816e+38
-0.086624905 0.03674987 0.27000001 -1.7066816e+38
-0.085868545 0.036613759 0.26900002 -1.7066816e+38
-0.085433014 0.036613759 0.26900002 -1.7066812e+38
-0.084561959 0.036613759 0.26900002 -1.7066812e+38
-0.083813697 0.036477648 0.26800001 -1.7066812e+38
-0.08337979 0.036477648 0.26800001 -1.7066812e+38
-0.082204089 0.036341537 0.26700002 -1.7066816e+38
-0.080730237 0.036069315 0.26500002 -1.7065776e+38
-0.08030118 0.036069315 0.26500002 -1.7065776e+38
-0.08017353 0.036205426 0.266 -1.7065776e+38
-0.079742856 0.036205426 0.266 -1.7065776e+38
-0.078881517 0.036205426 0.266 -1.7065776e+38
-0.078450851 0.036205426 0.266 -1.7065776e+38
-0.078020178 0.036205426 0.266 -1.7065776e+38
-0.077589512 0.036205426 0.266 -1.7066297e+38
-0.076728165 0.036205426 0.266 -1.7065776e+38
-0.076010674 0.036069315 0.26500002 -1.7065776e+38
-0.074868977 0.035933204 0.264 -1.7064733e+38
-0.074159563 0.035797093 0.26300001 -1.7064733e+38
-0.073029205 0.035660986 0.26200002 -1.7064733e+38
-0.072605006 0.035660986 0.26200002 -1.7064733e+38
-0.072180815 0.035660986 0.26200002 -1.7065776e+38
-0.0720305 0.035797093 0.26300001 -1.7065776e+38
-0.071178876 0.035797093 0.26300001 -1.7064733e+38
-0.070484042 0.035660986 0.26200002 -1.7064733e+38
-0.068838298 0.035252653 0.259 -1.7065776e+38
-0.067999624 0.035252653 0.259 -1.7065776e+38
-0.067580283 0.035252653 0.259 -1.7065776e+38
-0.067420259 0.035388764 0.26000002 -1.7065776e+38
-0.066999301 0.035388764 0.26000002 -1.7064733e+38
-0.066578344 0.035388764 0.26000002 -1.7064733e+38
-0.065736435 0.035388764 0.26000002 -1.7064214e+38
-0.065315478 0.035388764 0.26000002 -1.7064214e+38
-0.064644925 0.035252653 0.259 -1.7063693e+38
-0.063559897 0.035116542 0.25800002 -1.7063689e+38
-0.06314218 0.035116542 0.25800002 -1.7063167e+38
-0.062306747 0.035116542 0.25800002 -1.7062121e+38
-0.061649147 0.034980431 0.257 -1.7061076e+38
-0.061233047 0.034980431 0.257 -1.7059512e+38
-0.060400851 0.034980431 0.257 -1.7057951e+38
-0.05975135 0.03484432 0.25600001 -1.7057427e+38
-0.059336867 0.03484432 0.25600001 -1.7057949e+38
-0.058507908 0.03484432 0.25600001 -1.8788541e+38
-0.057866503 0.034708209 0.25500003 -2.1048221e+38
-0.057678949 0.03484432 0.25600001 -2.1181665e+38
-0.057711851 0.035116542 0.25800002 -2.1577825e+38
-0.057294134 0.035116542 0.25800002 -2.1577825e+38
-0.057096865 0.035252653 0.259 -2.1841579e+38
-0.10820711 0.0389775 0.28300002 -1.9858189e+38
-0.10812966 0.039115231 0.28400001 -1.9858189e+38
-0.10721003 0.039115231 0.28400001 -1.7068901e+38
-0.10675021 0.039115231 0.28400001 -1.706838e+38
-0.1062904 0.039115231 0.28400001 -1.706838e+38
-0.10583059 0.039115231 0.28400001 -1.7067863e+38
-0.10491096 0.039115231 0.28400001 -1.7068384e+38
-0.10445115 0.039115231 0.28400001 -1.7067863e+38
-0.10399134 0.039115231 0.28400001 -1.7067863e+38
-0.10353152 0.039115231 0.28400001 -1.7067863e+38
-0.1026119 0.039115231 0.28400001 -1.7067863e+38
-0.10251177 0.039252963 0.28500003 -1.7067341e+38
-0.10205034 0.039252963 0.28500003 -1.7067863e+38
-0.10158891 0.039252963 0.28500003 -1.7067863e+38
-0.10066605 0.039252963 0.28500003 -1.7067341e+38
-0.10020461 0.039252963 0.28500003 -1.7067341e+38
-0.09974318 0.039252963 0.28500003 -1.7067341e+38
-0.098820314 0.039252963 0.28500003 -1.7067341e+38
-0.091230035 0.037462473 0.27200001 -1.7066816e+38
-0.090017095 0.037324745 0.27100003 -1.7066816e+38
-0.089908876 0.037462473 0.27200001 -1.7066816e+38
-0.089468494 0.037462473 0.27200001 -1.7066816e+38
-0.088587724 0.037462473 0.27200001 -1.7067337e+38
-0.087823272 0.037324745 0.27100003 -1.7066295e+38
-0.087384507 0.037324745 0.27100003 -1.7066816e+38
-0.086187758 0.037187014 0.27000001 -1.7066816e+38
-0.085433014 0.037049286 0.26900002 -1.7066812e+38
-0.084561959 0.037049286 0.26900002 -1.7067333e+38
-0.084126435 0.037049286 0.26900002 -1.7067333e+38
-0.083690904 0.037049286 0.26900002 -1.7066812e+38
-0.082511969 0.036911558 0.26800001 -1.7066297e+38
-0.081771798 0.036773827 0.26700002 -1.7065776e+38
-0.080907226 0.036773827 0.26700002 -1.7065776e+38
-0.080474935 0.036773827 0.26700002 -1.7065776e+38
-0.080042645 0.036773827 0.26700002 -1.7065776e+38
-0.079610355 0.036773827 0.26700002 -1.7065776e+38
-0.078745775 0.036773827 0.26700002 -1.7065776e+38
-0.078313485 0.036773827 0.26700002 -1.7065776e+38
-0.077589512 0.036636095 0.266 -1.7066297e+38
-0.076728165 0.036636095 0.266 -1.7065776e+38
-0.076297499 0.036636095 0.266 -1.7065776e+38
-0.075152569 0.036498368 0.26500002 -1.7064733e+38
-0.074723519 0.036498368 0.26500002 -1.7064733e+38
-0.073307939 0.036222905 0.26300001 -1.7064733e+38
-0.072882131 0.036222905 0.26300001 -1.7064733e+38
-0.072456315 0.036222905 0.26300001 -1.7065776e+38
-0.0720305 0.036222905 0.26300001 -1.7065776e+38
-0.071178876 0.036222905 0.26300001 -1.7065776e+38
-0.070484042 0.036085177 0.26200002 -1.7064733e+38
-0.069635652 0.036085177 0.26200002 -1.7065776e+38
-0.068947293 0.035947446 0.26100001 -1.7065776e+38
-0.067580283 0.03567199 0.259 -1.7065776e+38
-0.067420259 0.035809718 0.26000002 -1.7065776e+38
-0.066999301 0.035809718 0.26000002 -1.7064733e+38
-0.066578344 0.035809718 0.26000002 -1.7064733e+38
-0.065736435 0.035809718 0.26000002 -1.7064214e+38
-0.065315478 0.035809718 0.26000002 -1.7064214e+38
-0.06489452 0.035809718 0.26000002 -1.7063693e+38
-0.063806258 0.03567199 0.259 -1.7063689e+38
-0.063386917 0.03567199 0.259 -1.7063689e+38
-0.062967584 0.03567199 0.259 -1.7062642e+38
-0.061889026 0.035534259 0.25800002 -1.7061076e+38
-0.06147131 0.035534259 0.25800002 -1.7059512e+38
-0.060400851 0.035396531 0.257 -1.7058472e+38
-0.059984751 0.035396531 0.257 -1.7057947e+38
-0.059568655 0.035396531 0.257 -1.7058468e+38
-0.058507908 0.0352588 0.25600001 -1.8656142e+38
-0.058093429 0.0352588 0.25600001 -2.0649971e+38
-0.057904258 0.035396531 0.257 -2.0783416e+38
-0.057711851 0.035534259 0.25800002 -2.1577825e+38
-0.057516202 0.03567199 0.259 -2.1577825e+38
-0.085433014 0.037484813 0.26900002 -1.7066816e+38
-0.084561959 0.037484813 0.26900002 -1.7067333e+38
-0.084126435 0.037484813 0.26900002 -1.7066812e+38
-0.083690904 0.037484813 0.26900002 -1.7066812e+38
-0.082819849 0.037484813 0.26900002 -1.7066293e+38
-0.082384326 0.037484813 0.26900002 -1.7065772e+38
-0.081948794 0.037484813 0.26900002 -1.7065772e+38
-0.080776341 0.037345465 0.26800001 -1.7065772e+38
-0.080342427 0.037345465 0.26800001 -1.7065772e+38
-0.07990852 0.037345465 0.26800001 -1.7065772e+38
-0.079474613 0.037345465 0.26800001 -1.7065772e+38
-0.078313485 0.037206117 0.26700002 -1.7065772e+38
-0.077589512 0.037066765 0.266 -1.7066297e+38
-0.076728165 0.037066765 0.266 -1.7065776e+38
-0.076297499 0.037066765 0.266 -1.7065776e+38
-0.075866826 0.037066765 0.266 -1.7065776e+38
-0.074723519 0.036927417 0.26500002 -1.7064733e+38
-0.07429447 0.036927417 0.26500002 -1.7064733e+38
-0.073159248 0.036788069 0.264 -1.7064733e+38
-0.072731815 0.036788069 0.264 -1.7065776e+38
-0.072304383 0.036788069 0.264 -1.7065776e+38
-0.071876951 0.036788069 0.264 -1.7065776e+38
-0.07075306 0.036648721 0.26300001 -1.7064733e+38
-0.069635652 0.036509372 0.26200002 -1.7065776e+38
-0.068947293 0.036370024 0.26100001 -1.7065776e+38
-0.068524718 0.036370024 0.26100001 -1.7065776e+38
-0.067679569 0.036370024 0.26100001 -1.7064733e+38
-0.066999301 0.036230676 0.26000002 -1.7064733e+38
-0.066578344 0.036230676 0.26000002 -1.7064733e+38
-0.065736435 0.036230676 0.26000002 -1.7064733e+38
-0.065315478 0.036230676 0.26000002 -1.7064733e+38
-0.06489452 0.036230676 0.26000002 -1.7064214e+38
-0.064052612 0.036230676 0.26000002 -1.7063693e+38
-0.063386917 0.036091324 0.259 -1.7063693e+38
-0.062967584 0.036091324 0.259 -1.7062648e+38
-0.062128909 0.036091324 0.259 -1.706108e+38
-0.061709572 0.036091324 0.259 -1.7059516e+38
-0.061053593 0.035951976 0.25800002 -1.7058993e+38
-0.060218155 0.035951976 0.25800002 -1.7057947e+38
-0.059568655 0.035812628 0.257 -1.7058989e+38
-0.059152555 0.035812628 0.257 -1.7324309e+38
-0.058320358 0.035812628 0.257 -2.038413e+38
-0.058129568 0.035951976 0.25800002 -2.038413e+38
-0.057711851 0.035951976 0.25800002 -2.1310941e+38
-0.10774893 0.039893888 0.28300002 -2.1715457e+38
-0.10683253 0.039893888 0.28300002 -1.7334228e+38
-0.10637434 0.039893888 0.28300002 -1.7068905e+38
-0.10591615 0.039893888 0.28300002 -1.7068905e+38
-0.10499976 0.039893888 0.28300002 -1.7068905e+38
-0.10454156 0.039893888 0.28300002 -1.7068905e+38
-0.10408337 0.039893888 0.28300002 -1.7067863e+38
-0.10362518 0.039893888 0.28300002 -1.7068384e+38
-0.10270879 0.039893888 0.28300002 -1.7068384e+38
-0.10225059 0.039893888 0.28300002 -1.7068384e+38
-0.1017924 0.039893888 0.28300002 -1.7067863e+38
-0.10087601 0.039893888 0.28300002 -1.7068384e+38
-0.10077264 0.040034857 0.28400001 -1.7067863e+38
-0.10031283 0.040034857 0.28400001 -1.7067341e+38
-0.099853016 0.040034857 0.28400001 -1.7067863e+38
-0.09974318 0.040175825 0.28500003 -1.7067341e+38
-0.098473579 0.040034857 0.28400001 -1.7067863e+38
-0.098358884 0.040175825 0.28500003 -1.7067863e+38
-0.090349264 0.038343243 0.27200001 -1.7066816e+38
-0.089908876 0.038343243 0.27200001 -1.7066816e+38
-0.089468494 0.038343243 0.27200001 -1.7066816e+38
-0.088587724 0.038343243 0.27200001 -1.7066816e+38
-0.088147342 0.038343243 0.27200001 -1.7066295e+38
-0.087706953 0.038343243 0.27200001 -1.7066295e+38
-0.08650697 0.038202278 0.27100003 -1.7066297e+38
-0.1069116 0.040209498 0.28200001 -1.7999882e+38
-0.10645503 0.040209498 0.28200001 -1.7732994e+38
-0.10599846 0.040209498 0.28200001 -1.7068905e+38
-0.10508531 0.040209498 0.28200001 -1.7068384e+38
-0.10462873 0.040209498 0.28200001 -1.7068384e+38
-0.10417216 0.040209498 0.28200001 -1.7068905e+38
-0.10371558 0.040209498 0.28200001 -1.7067863e+38
-0.10362518 0.040352084 0.28300002 -1.7067863e+38
-0.10270879 0.040352084 0.28300002 -1.7068384e+38
-0.10225059 0.040352084 0.28300002 -1.7068384e+38
-0.1017924 0.040352084 0.28300002 -1.7068384e+38
-0.10087601 0.040352084 0.28300002 -1.7068384e+38
-0.10041782 0.040352084 0.28300002 -1.7067863e+38
-0.099959619 0.040352084 0.28300002 -1.7067341e+38
-0.099853016 0.040494669 0.28400001 -1.7067863e+38
-0.099393204 0.040494669 0.28400001 -1.7067348e+38
-0.098473579 0.040494669 0.28400001 -1.7067863e+38
-0.098358884 0.040637258 0.28500003 -1.7067863e+38
-0.090349264 0.038783628 0.27200001 -1.7066816e+38
-0.089578331 0.038641043 0.27100003 -1.7066816e+38
-0.088700801 0.038641043 0.27100003 -1.7066812e+38
-0.088587724 0.038783628 0.27200001 -1.7066812e+38
-0.088147342 0.038783628 0.27200001 -1.7066291e+38
-0.087706953 0.038783628 0.27200001 -1.7066291e+38
-0.087266572 0.038783628 0.27200001 -1.7065776e+38
-0.084561959 0.038355865 0.26900002 -1.7066293e+38
-0.084126435 0.038355865 0.26900002 -1.7066293e+38
-0.083690904 0.038355865 0.26900002 -1.7065772e+38
-0.082819849 0.038355865 0.26900002 -1.7065772e+38
-0.082690589 0.038498454 0.27000001 -1.7065772e+38
-0.082253441 0.038498454 0.27000001 -1.7064729e+38
-0.081816293 0.038498454 0.27000001 -1.7065772e+38
-0.080642216 0.038355865 0.26900002 -1.7065772e+38
-0.07990852 0.038213283 0.26800001 -1.7065772e+38
-0.079474613 0.038213283 0.26800001 -1.7065772e+38
-0.078606799 0.038213283 0.26800001 -1.7065772e+38
-0.077881202 0.038070694 0.26700002 -1.7065776e+38
-0.076728165 0.037928104 0.266 -1.7065776e+38
-0.076297499 0.037928104 0.266 -1.7065776e+38
-0.075866826 0.037928104 0.266 -1.7064733e+38
-0.075005487 0.037928104 0.266 -1.7064733e+38
-0.07429447 0.037785519 0.26500002 -1.7065776e+38
-0.073865414 0.037785519 0.26500002 -1.7064733e+38
-0.073007315 0.037785519 0.26500002 -1.7066297e+38
-0.072578259 0.037785519 0.26500002 -1.7065776e+38
-0.07214921 0.037785519 0.26500002 -1.7065776e+38
-0.071022086 0.037642933 0.264 -1.7065776e+38
-0.070594653 0.037642933 0.264 -1.7064733e+38
-0.069475621 0.037500344 0.26300001 -1.7065776e+38
-0.068787262 0.037357759 0.26200002 -1.7065776e+38
-0.067679569 0.037215173 0.26100001 -1.7064733e+38
-0.067256995 0.037215173 0.26100001 -1.7064733e+38
-0.066578344 0.037072588 0.26000002 -1.7064733e+38
-0.065736435 0.037072588 0.26000002 -1.7064733e+38
-0.065315478 0.037072588 0.26000002 -1.7064733e+38
-0.06489452 0.037072588 0.26000002 -1.7064733e+38
-0.064052612 0.037072588 0.26000002 -1.7063693e+38
-0.063631654 0.037072588 0.26000002 -1.7063171e+38
-0.062967584 0.036929999 0.259 -1.7062648e+38
-0.062128909 0.036929999 0.259 -1.706108e+38
-0.061709572 0.036929999 0.259 -1.7060038e+38
-0.061290234 0.036929999 0.259 -1.7060034e+38
-0.060218155 0.036787409 0.25800002 -1.7057431e+38
-0.059800439 0.036787409 0.25800002 -1.7057953e+38
-0.059382722 0.036787409 0.25800002 -1.7190869e+38
-0.058547284 0.036787409 0.25800002 -2.025069e+38
-0.058129568 0.036787409 0.25800002 -2.025069e+38
-0.057711851 0.036787409 0.25800002 -2.0913215e+38
-0.057758223 0.037357759 0.26200002 -2.1575742e+38
-0.057334028 0.037357759 0.26200002 -2.1442298e+38
-0.10653249 0.040521868 0.28100002 -1.8531571e+38
-0.10607754 0.040521868 0.28100002 -1.8131239e+38
-0.10562257 0.040521868 0.28100002 -1.7069426e+38
-0.10471267 0.040521868 0.28100002 -1.7068905e+38
-0.10425771 0.040521868 0.28100002 -1.7068384e+38
-0.10380276 0.040521868 0.28100002 -1.7068384e+38
-0.10371558 0.040666074 0.28200001 -1.7068384e+38
-0.10280243 0.040666074 0.28200001 -1.7067863e+38
-0.10234586 0.040666074 0.28200001 -1.7068384e+38
-0.10188928 0.040666074 0.28200001 -1.7067863e+38
-0.10143271 0.040666074 0.28200001 -1.7067863e+38
-0.10051956 0.040666074 0.28200001 -1.7068384e+38
-0.10006298 0.040666074 0.28200001 -1.7067863e+38
-0.09960641 0.040666074 0.28200001 -1.7067863e+38
-0.098693259 0.040666074 0.28200001 -1.7067348e+38
-0.098473579 0.040954486 0.28400001 -1.7067863e+38
-0.090681426 0.03936822 0.273 -1.7067337e+38
-0.089908876 0.03922401 0.27200001 -1.7067337e+38
-0.089468494 0.03922401 0.27200001 -1.7066295e+38
-0.088587724 0.03922401 0.27200001 -1.7066812e+38
-0.088147342 0.03922401 0.27200001 -1.7066812e+38
-0.087706953 0.03922401 0.27200001 -1.7066291e+38
-0.087266572 0.03922401 0.27200001 -1.7065776e+38
-0.084561959 0.038791392 0.26900002 -1.7066293e+38
-0.084126435 0.038791392 0.26900002 -1.7066293e+38
-0.083690904 0.038791392 0.26900002 -1.7065772e+38
-0.083564878 0.038935602 0.27000001 -1.7065772e+38
-0.082690589 0.038935602 0.27000001 -1.7065772e+38
-0.082253441 0.038935602 0.27000001 -1.7064729e+38
-0.082119316 0.039079808 0.27100003 -1.7064729e+38
-0.081379145 0.038935602 0.27000001 -1.7065772e+38
-0.080206692 0.038791392 0.26900002 -1.7065772e+38
-0.079771161 0.038791392 0.26900002 -1.7065772e+38
-0.078606799 0.03864719 0.26800001 -1.7064729e+38
-0.078172892 0.03864719 0.26800001 -1.7065776e+38
-0.076728165 0.038358774 0.266 -1.7065776e+38
-0.076297499 0.038358774 0.266 -1.7065776e+38
-0.075866826 0.038358774 0.266 -1.7064733e+38
-0.075005487 0.038358774 0.266 -1.7064733e+38
-0.074574821 0.038358774 0.266 -1.7065776e+38
-0.073865414 0.038214572 0.26500002 -1.7064733e+38
-0.073007315 0.038214572 0.26500002 -1.7066297e+38
-0.072578259 0.038214572 0.26500002 -1.7065776e+38
-0.07214921 0.038214572 0.26500002 -1.7065776e+38
-0.071291111 0.038214572 0.26500002 -1.7065776e+38
-0.070594653 0.038070366 0.264 -1.7064733e+38
-0.069475621 0.037926156 0.26300001 -1.7065776e+38
-0.069049813 0.037926156 0.26300001 -1.7065776e+38
-0.06836307 0.037781954 0.26200002 -1.7065776e+38
-0.067256995 0.037637748 0.26100001 -1.7064733e+38
-0.06683442 0.037637748 0.26100001 -1.7064733e+38
-0.066411845 0.037637748 0.26100001 -1.7065776e+38
-0.065315478 0.037493542 0.26000002 -1.7064733e+38
-0.06489452 0.037493542 0.26000002 -1.7064214e+38
-0.064052612 0.037493542 0.26000002 -1.7063693e+38
-0.063631654 0.037493542 0.26000002 -1.7063171e+38
-0.063210696 0.037493542 0.26000002 -1.7062648e+38
-0.062789746 0.037493542 0.26000002 -1.7062127e+38
-0.061709572 0.037349336 0.259 -1.7059523e+38
-0.061290234 0.037349336 0.259 -1.7060038e+38
-0.060870897 0.037349336 0.259 -1.7058995e+38
-0.060032222 0.037349336 0.259 -1.7057953e+38
-0.059612889 0.037349336 0.259 -1.7057947e+38
-0.058547284 0.03720513 0.25800002 -1.9851398e+38
-0.058129568 0.03720513 0.25800002 -2.0118286e+38
-0.057711851 0.03720513 0.25800002 -2.0647888e+38
-0.057758223 0.037781954 0.26200002 -2.1575742e+38
-0.057334028 0.037781954 0.26200002 -2.1442298e+38
-0.10615336 0.040830996 0.28 -1.9196704e+38
-0.10570003 0.040830996 0.28 -1.8529484e+38
-0.10479336 0.040830996 0.28 -1.7069422e+38
-0.10434002 0.040830996 0.28 -1.7068905e+38
-0.10388669 0.040830996 0.28 -1.7068905e+38
-0.10343335 0.040830996 0.28 -1.7068384e+38
-0.10289284 0.040976822 0.28100002 -1.7067863e+38
-0.10243788 0.040976822 0.28100002 -1.7067863e+38
-0.10198293 0.040976822 0.28100002 -1.7068384e+38
-0.10152797 0.040976822 0.28100002 -1.7067863e+38
-0.10061806 0.040976822 0.28100002 -1.7068384e+38
-0.1001631 0.040976822 0.28100002 -1.7068384e+38
-0.099708147 0.040976822 0.28100002 -1.7067863e+38
-0.098798238 0.040976822 0.28100002 -1.7067863e+38
-0.098343283 0.040976822 0.28100002 -1.7067341e+38
-0.097888328 0.040976822 0.28100002 -1.7067863e+38
-0.097433366 0.040976822 0.28100002 -1.7067863e+38
-0.090239428 0.039810222 0.273 -1.7067337e+38
-0.089797422 0.039810222 0.273 -1.7066816e+38
-0.089355417 0.039810222 0.273 -1.7066812e+38
-0.088471413 0.039810222 0.273 -1.7066812e+38
-0.088029407 0.039810222 0.273 -1.7066291e+38
-0.084561959 0.039226919 0.26900002 -1.7066297e+38
-0.084439173 0.039372746 0.27000001 -1.7066297e+38
-0.084002025 0.039372746 0.27000001 -1.7065772e+38
-0.083564878 0.039372746 0.27000001 -1.7065772e+38
-0.083435617 0.039518572 0.27100003 -1.7065772e+38
-0.082558081 0.039518572 0.27100003 -1.7064729e+38
-0.082119316 0.039518572 0.27100003 -1.7064729e+38
-0.081379145 0.039372746 0.27000001 -1.7065772e+38
-0.080504857 0.039372746 0.27000001 -1.7065772e+38
-0.080067709 0.039372746 0.27000001 -1.7065772e+38
-0.079335637 0.039226919 0.26900002 -1.7065772e+38
-0.078172892 0.039081097 0.26800001 -1.7065776e+38
-0.076728165 0.038789447 0.266 -1.7065776e+38
-0.076297499 0.038789447 0.266 -1.7065776e+38
-0.075866826 0.038789447 0.266 -1.7064733e+38
-0.075005487 0.038789447 0.266 -1.7065776e+38
-0.074574821 0.038789447 0.266 -1.7065776e+38
-0.074144147 0.038789447 0.266 -1.7064733e+38
-0.073713474 0.038789447 0.266 -1.7064733e+38
-0.072852135 0.038789447 0.266 -1.7065776e+38
-0.07214921 0.038643625 0.26500002 -1.7065776e+38
-0.071291111 0.038643625 0.26500002 -1.7065776e+38
-0.070862055 0.038643625 0.26500002 -1.7064733e+38
-0.070167221 0.038497798 0.264 -1.7065776e+38
-0.069049813 0.038351972 0.26300001 -1.7065776e+38
-0.06836307 0.038206149 0.26200002 -1.7065776e+38
-0.06751468 0.038206149 0.26200002 -1.7064733e+38
-0.06683442 0.038060322 0.26100001 -1.7065776e+38
-0.066411845 0.038060322 0.26100001 -1.7064733e+38
-0.065566689 0.038060322 0.26100001 -1.7064733e+38
-0.065144114 0.038060322 0.26100001 -1.7064733e+38
-0.064052612 0.0379145 0.26000002 -1.7063693e+38
-0.063631654 0.0379145 0.26000002 -1.7063693e+38
-0.063210696 0.0379145 0.26000002 -1.7062652e+38
-0.062789746 0.0379145 0.26000002 -1.7062131e+38
-0.061947834 0.0379145 0.26000002 -1.7060565e+38
-0.061526876 0.0379145 0.26000002 -1.7060038e+38
-0.061105922 0.0379145 0.26000002 -1.7059516e+38
-0.060684964 0.0379145 0.26000002 -1.7058472e+38
-0.059612889 0.037768673 0.259 -1.7057945e+38
-0.058547284 0.037622847 0.25800002 -1.9586072e+38
-0.058129568 0.037622847 0.25800002 -1.985296e+38
-0.057711851 0.037622847 0.25800002 -2.0514444e+38
-0.057294134 0.037622847 0.25800002 -2.0514444e+38
-0.057758223 0.038206149 0.26200002 -2.1442298e+38
-0.057334028 0.038206149 0.26200002 -2.1442298e+38
-0.059193552 0.03818801 0.259 -1.7192952e+38
-0.058129568 0.038040563 0.25800002 -1.9586599e+38
-0.057711851 0.038040563 0.25800002 -2.0514444e+38
-0.057294134 0.038040563 0.25800002 -2.0514444e+38
-0.10487082 0.041588608 0.27900001 -1.7336311e+38
-0.1044191 0.041588608 0.27900001 -1.7336311e+38
-0.10396738 0.041588608 0.27900001 -1.7069426e+38
-0.10351566 0.041588608 0.27900001 -1.7069426e+38
-0.10261223 0.041588608 0.27900001 -1.7068384e+38
-0.10252667 0.041737668 0.28 -1.7068384e+38
-0.10207333 0.041737668 0.28 -1.7068384e+38
-0.10162 0.041737668 0.28 -1.7068384e+38
-0.10071333 0.041737668 0.28 -1.7068384e+38
-0.10025999 0.041737668 0.28 -1.7067863e+38
-0.099806651 0.041737668 0.28 -1.7068384e+38
-0.099353313 0.041737668 0.28 -1.7067863e+38
-0.098446645 0.041737668 0.28 -1.7067863e+38
-0.097993307 0.041737668 0.28 -1.7067863e+38
-0.097539969 0.041737668 0.28 -1.7067863e+38
-0.096633293 0.041737668 0.28 -1.7067341e+38
-0.096179955 0.041737668 0.28 -1.7067863e+38
-0.095726617 0.041737668 0.28 -1.7067341e+38
-0.094481304 0.041588608 0.27900001 -1.7067863e+38
-0.093355536 0.041290481 0.27700001 -1.7067863e+38
-0.089682728 0.040843293 0.27400002 -1.706682e+38
-0.089239106 0.040843293 0.27400002 -1.7067341e+38
-0.089119554 0.040992353 0.27500001 -1.7067337e+38
-0.088229075 0.040992353 0.27500001 -1.7066816e+38
-0.088103041 0.041141421 0.27600002 -1.7067337e+38
-0.085313469 0.040247038 0.27000001 -1.7066299e+38
-0.084439173 0.040247038 0.27000001 -1.7066816e+38
-0.084002025 0.040247038 0.27000001 -1.7066812e+38
-0.083874382 0.040396105 0.27100003 -1.7066812e+38
-0.083435617 0.040396105 0.27100003 -1.7066291e+38
-0.083303109 0.040545166 0.27200001 -1.7066291e+38
-0.082422338 0.040545166 0.27200001 -1.7064729e+38
-0.081680551 0.040396105 0.27100003 -1.7065772e+38
-0.080504857 0.040247038 0.27000001 -1.7065772e+38
-0.080067709 0.040247038 0.27000001 -1.7065772e+38
-0.079630561 0.040247038 0.27000001 -1.7065772e+38
-0.078464583 0.040097974 0.26900002 -1.7065772e+38
-0.076297499 0.039650787 0.266 -1.7066293e+38
-0.075866826 0.039650787 0.266 -1.7065772e+38
-0.075005487 0.039650787 0.266 -1.7065772e+38
-0.074574821 0.039650787 0.266 -1.7065772e+38
-0.074144147 0.039650787 0.266 -1.7064729e+38
-0.073713474 0.039650787 0.266 -1.7065772e+38
-0.072852135 0.039650787 0.266 -1.7065776e+38
-0.072421469 0.039650787 0.266 -1.7065776e+38
-0.071990795 0.039650787 0.266 -1.7065776e+38
-0.071129456 0.039650787 0.266 -1.7065776e+38
-0.070433006 0.039501727 0.26500002 -1.7066297e+38
-0.069312356 0.039352659 0.264 -1.7065776e+38
-0.068623997 0.039203595 0.26300001 -1.7065776e+38
-0.06751468 0.039054535 0.26200002 -1.7065776e+38
-0.067090489 0.039054535 0.26200002 -1.7065776e+38
-0.066411845 0.038905472 0.26100001 -1.7064733e+38
-0.065566689 0.038905472 0.26100001 -1.7064733e+38
-0.065144114 0.038905472 0.26100001 -1.7064733e+38
-0.06472154 0.038905472 0.26100001 -1.7064733e+38
-0.063631654 0.038756412 0.26000002 -1.7064212e+38
-0.063210696 0.038756412 0.26000002 -1.7062652e+38
-0.062789746 0.038756412 0.26000002 -1.7062652e+38
-0.061947834 0.038756412 0.26000002 -1.7060565e+38
-0.061526876 0.038756412 0.26000002 -1.7060038e+38
-0.061105922 0.038756412 0.26000002 -1.706108e+38
-0.060684964 0.038756412 0.26000002 -1.7058993e+38
-0.059843052 0.038756412 0.26000002 -1.7057945e+38
-0.057537772 0.038905472 0.26100001 -2.1176456e+38
-0.057334028 0.039054535 0.26200002 -2.1043012e+38
-0.10577425 0.042040326 0.27900001 -2.2785612e+38
-0.10487082 0.042040326 0.27900001 -1.7602673e+38
-0.1044191 0.042040326 0.27900001 -1.7602673e+38
-0.10359474 0.041889641 0.27800003 -1.7336315e+38
-0.10351566 0.042040326 0.27900001 -1.7336315e+38
-0.10261223 0.042040326 0.27900001 -1.7068384e+38
-0.10216051 0.042040326 0.27900001 -1.7068384e+38
-0.10170879 0.042040326 0.27900001 -1.7068384e+38
-0.10080536 0.042040326 0.27900001 -1.7068384e+38
-0.10071333 0.042191006 0.28 -1.7068384e+38
-0.10025999 0.042191006 0.28 -1.7067863e+38
-0.099806651 0.042191006 0.28 -1.7068384e+38
-0.099353313 0.042191006 0.28 -1.7068384e+38
-0.098446645 0.042191006 0.28 -1.7067863e+38
-0.097993307 0.042191006 0.28 -1.7068384e+38
-0.097539969 0.042191006 0.28 -1.7067863e+38
-0.096633293 0.042191006 0.28 -1.7067863e+38
-0.095836453 0.042040326 0.27900001 -1.7067863e+38
-0.095384739 0.042040326 0.27900001 -1.7067341e+38
-0.09414266 0.041889641 0.27800003 -1.7067863e+38
-0.093692563 0.041889641 0.27800003 -1.7067863e+38
-0.092458576 0.041738961 0.27700001 -1.7067863e+38
-0.091677926 0.04158828 0.27600002 -1.7067863e+38
-0.09123107 0.04158828 0.27600002 -1.7067341e+38
-0.090337351 0.04158828 0.27600002 -1.7067341e+38
-0.089890487 0.04158828 0.27600002 -1.7067341e+38
-0.089443624 0.04158828 0.27600002 -1.7067863e+38
-0.088549905 0.04158828 0.27600002 -1.706682e+38
-0.088103041 0.04158828 0.27600002 -1.7067341e+38
-0.084439173 0.040684186 0.27000001 -1.7067341e+38
-0.084313147 0.04083487 0.27100003 -1.7066816e+38
-0.084183879 0.040985551 0.27200001 -1.7066816e+38
-0.083743498 0.040985551 0.27200001 -1.7065772e+38
-0.083303109 0.040985551 0.27200001 -1.7065772e+38
-0.082422338 0.040985551 0.27200001 -1.7064729e+38
-0.081981957 0.040985551 0.27200001 -1.7065772e+38
-0.081241786 0.04083487 0.27100003 -1.7065772e+38
-0.080067709 0.040684186 0.27000001 -1.7065772e+38
-0.079630561 0.040684186 0.27000001 -1.7065772e+38
-0.078756273 0.040684186 0.27000001 -1.7065772e+38
-0.078029051 0.040533502 0.26900002 -1.7065772e+38
-0.076584332 0.040232141 0.26700002 -1.7066293e+38
-0.075866826 0.040081456 0.266 -1.7066293e+38
-0.075005487 0.040081456 0.266 -1.7065772e+38
-0.074574821 0.040081456 0.266 -1.7065772e+38
-0.074144147 0.040081456 0.266 -1.7065772e+38
-0.073713474 0.040081456 0.266 -1.7065772e+38
-0.072852135 0.040081456 0.266 -1.7065776e+38
-0.072421469 0.040081456 0.266 -1.7065776e+38
-0.071990795 0.040081456 0.266 -1.7065776e+38
-0.071829148 0.040232141 0.26700002 -1.7065776e+38
-0.070698783 0.040081456 0.266 -1.7066297e+38
-0.070003957 0.039930776 0.26500002 -1.7065776e+38
-0.068884924 0.039780091 0.264 -1.7065776e+38
-0.068198182 0.039629411 0.26300001 -1.7065776e+38
-0.067090489 0.03947873 0.26200002 -1.7065776e+38
-0.06666629 0.03947873 0.26200002 -1.7064733e+38
-0.066242099 0.03947873 0.26200002 -1.7064733e+38
-0.065144114 0.039328046 0.26100001 -1.7064733e+38
-0.06472154 0.039328046 0.26100001 -1.7064733e+38
-0.06387639 0.039328046 0.26100001 -1.7064212e+38
-0.063453816 0.039328046 0.26100001 -1.7062652e+38
-0.062789746 0.039177366 0.26000002 -1.7062652e+38
-0.061947834 0.039177366 0.26000002 -1.7060565e+38
-0.061526876 0.039177366 0.26000002 -1.706108e+38
-0.061105922 0.039177366 0.26000002 -1.706108e+38
-0.060918368 0.039328046 0.26100001 -1.7059512e+38
-0.060073219 0.039328046 0.26100001 -1.7057945e+38
-0.059422098 0.039177366 0.26000002 -1.7058987e+38
-0.058129568 0.038876001 0.25800002 -1.9319715e+38
-0.057711851 0.038876001 0.25800002 -2.0647373e+38
-0.057516202 0.039026681 0.259 -2.0380485e+38
-0.057758223 0.03947873 0.26200002 -2.1176456e+38
-0.057334028 0.03947873 0.26200002 -2.0909568e+38
-0.10494503 0.042339742 0.27800003 -2.3314163e+38
-0.10449494 0.042339742 0.27800003 -1.826677e+38
-0.10404483 0.042339742 0.27800003 -1.8133326e+38
-0.10359474 0.042339742 0.27800003 -1.7336311e+38
-0.10351566 0.042492043 0.27900001 -1.7336311e+38
-0.10224444 0.042339742 0.27800003 -1.7068905e+38
-0.10179434 0.042339742 0.27800003 -1.7068384e+38
-0.10134424 0.042339742 0.27800003 -1.7068384e+38
-0.10080536 0.042492043 0.27900001 -1.7068384e+38
-0.10035364 0.042492043 0.27900001 -1.7068384e+38
-0.099901915 0.042492043 0.27900001 -1.7067863e+38
-0.099450201 0.042492043 0.27900001 -1.7068905e+38
-0.098546766 0.042492043 0.27900001 -1.7068384e+38
-0.098095044 0.042492043 0.27900001 -1.7067863e+38
-0.097643331 0.042492043 0.27900001 -1.7068384e+38
-0.096739896 0.042492043 0.27900001 -1.7068384e+38
-0.096288174 0.042492043 0.27900001 -1.7067863e+38
-0.095836453 0.042492043 0.27900001 -1.7067863e+38
-0.095384739 0.042492043 0.27900001 -1.7067341e+38
-0.09414266 0.042339742 0.27800003 -1.7067863e+38
-0.093692563 0.042339742 0.27800003 -1.7067863e+38
-0.093242459 0.042339742 0.27800003 -1.7067341e+38
-0.092010096 0.042187441 0.27700001 -1.7067863e+38
-0.091561615 0.042187441 0.27700001 -1.7067863e+38
-0.091113135 0.042187441 0.27700001 -1.7067341e+38
-0.090216175 0.042187441 0.27700001 -1.7067341e+38
-0.089443624 0.04203514 0.27600002 -1.7067863e+38
-0.088549905 0.04203514 0.27600002 -1.706682e+38
-0.088103041 0.04203514 0.27600002 -1.7067341e+38
-0.087656185 0.04203514 0.27600002 -1.7067341e+38
-0.084751911 0.041273635 0.27100003 -1.7067341e+38
-0.084313147 0.041273635 0.27100003 -1.7066816e+38
-0.084493376 0.041578237 0.273 -1.7066816e+38
-0.084051378 0.041578237 0.273 -1.7066291e+38
-0.083609372 0.041578237 0.273 -1.7066291e+38
-0.082422338 0.041425932 0.27200001 -1.7064729e+38
-0.081981957 0.041425932 0.27200001 -1.7064729e+38
-0.081541575 0.041425932 0.27200001 -1.7065772e+38
-0.080364257 0.041273635 0.27100003 -1.7065772e+38
-0.079925492 0.041273635 0.27100003 -1.7065772e+38
-0.078756273 0.041121334 0.27000001 -1.7065772e+38
-0.078029051 0.040969029 0.26900002 -1.7066293e+38
-0.076871164 0.040816732 0.26800001 -1.7066293e+38
-0.076152042 0.040664427 0.26700002 -1.7066293e+38
-0.075719751 0.040664427 0.26700002 -1.7065772e+38
-0.074574821 0.040512126 0.266 -1.7065772e+38
-0.074144147 0.040512126 0.266 -1.7065772e+38
-0.073713474 0.040512126 0.266 -1.7065772e+38
-0.072852135 0.040512126 0.266 -1.7065776e+38
-0.072421469 0.040512126 0.266 -1.7065776e+38
-0.072261438 0.040664427 0.26700002 -1.7065776e+38
-0.071829148 0.040664427 0.26700002 -1.7065776e+38
-0.070964575 0.040664427 0.26700002 -1.7066297e+38
-0.070532285 0.040664427 0.26700002 -1.7065776e+38
-0.069145851 0.040359829 0.26500002 -1.7065776e+38
-0.068457492 0.040207524 0.264 -1.7065776e+38
-0.067346558 0.040055223 0.26300001 -1.7065776e+38
-0.06666629 0.039902922 0.26200002 -1.7064733e+38
-0.066242099 0.039902922 0.26200002 -1.7064733e+38
-0.065393709 0.039902922 0.26200002 -1.7064733e+38
-0.06472154 0.039750621 0.26100001 -1.7064733e+38
-0.06387639 0.039750621 0.26100001 -1.7063693e+38
-0.063453816 0.039750621 0.26100001 -1.7062652e+38
-0.063031241 0.039750621 0.26100001 -1.7062652e+38
-0.062608667 0.039750621 0.26100001 -1.7062127e+38
-0.061763518 0.039750621 0.26100001 -1.706108e+38
-0.061340943 0.039750621 0.26100001 -1.706108e+38
-0.060918368 0.039750621 0.26100001 -1.7059512e+38
-0.060073219 0.039750621 0.26100001 -1.7057945e+38
-0.059422098 0.03959832 0.26000002 -1.7058987e+38
-0.05900114 0.03959832 0.26000002 -1.8388209e+38
-0.05793554 0.039446019 0.259 -2.0513933e+38
-0.057516202 0.039446019 0.259 -2.0380489e+38
-0.05731732 0.03959832 0.26000002 -2.0910609e+38
-0.057334028 0.039902922 0.26200002 -2.0777165e+38
-0.085377388 0.042020239 0.273 -1.7067341e+38
-0.084493376 0.042020239 0.273 -1.7066816e+38
-0.084051378 0.042020239 0.273 -1.7066291e+38
-0.083609372 0.042020239 0.273 -1.7066812e+38
-0.082422338 0.041866317 0.27200001 -1.7065248e+38
-0.081981957 0.041866317 0.27200001 -1.7064729e+38
-0.081541575 0.041866317 0.27200001 -1.7065772e+38
-0.080364257 0.0417124 0.27100003 -1.7065772e+38
-0.079925492 0.0417124 0.27100003 -1.7065772e+38
-0.079486728 0.0417124 0.27100003 -1.7065772e+38
-0.078319125 0.041558478 0.27000001 -1.7066293e+38
-0.076152042 0.041096717 0.26700002 -1.7065772e+38
-0.075719751 0.041096717 0.26700002 -1.7065772e+38
-0.074855171 0.041096717 0.26700002 -1.7065772e+38
-0.074144147 0.040942796 0.266 -1.7065772e+38
-0.073713474 0.040942796 0.266 -1.7065772e+38
-0.072852135 0.040942796 0.266 -1.7065776e+38
-0.072421469 0.040942796 0.266 -1.7065776e+38
