# .PCD v0.7 - Point Cloud Data file format
VERSION 0.7
FIELDS x y z rgb
SIZE 4 4 4 4
TYPE F F F F
COUNT 1 1 1 1
WIDTH 921
HEIGHT 1
VIEWPOINT 0 0 0 1 0 0 0
POINTS 921
DATA ascii
-0.026918855 -0.087092482 0.41400003 -1.7042323e+38
-0.026311966 -0.087302856 0.41500002 -1.7042323e+38
-0.025701838 -0.087513223 0.41600001 -1.7042323e+38
-0.02435478 -0.087513223 0.41600001 -1.7042323e+38
-0.023738177 -0.08772359 0.41700003 -1.7042323e+38
-0.023118336 -0.087933958 0.41800001 -1.7041802e+38
-0.022495255 -0.088144332 0.41900003 -1.7041802e+38
-0.021138482 -0.088144332 0.41900003 -1.7042323e+38
-0.020508926 -0.088354692 0.42000002 -1.7042323e+38
-0.019828921 -0.088354692 0.42000002 -1.7041802e+38
-0.01919451 -0.088565066 0.42100003 -1.7041802e+38
-0.01783126 -0.088565066 0.42100003 -1.7042327e+38
-0.017190371 -0.088775434 0.42200002 -1.7042327e+38
-0.016507128 -0.088775434 0.42200002 -1.7042327e+38
-0.015861381 -0.088985808 0.42300001 -1.7042848e+38
-0.015212396 -0.089196168 0.42400002 -1.7042848e+38
-0.013839432 -0.089196168 0.42400002 -1.7042327e+38
-0.01315295 -0.089196168 0.42400002 -1.7042327e+38
-0.012495872 -0.089406542 0.42500001 -1.7042327e+38
-0.01180777 -0.089406542 0.42500001 -1.7042327e+38
-0.010456114 -0.08961691 0.42600003 -1.7042848e+38
-0.0097663943 -0.08961691 0.42600003 -1.7043891e+38
-0.0090766745 -0.08961691 0.42600003 -1.7043891e+38
-0.0084066419 -0.089827277 0.42700002 -1.7043891e+38
-0.0070239636 -0.089827277 0.42700002 -1.7044931e+38
-0.0063326247 -0.089827277 0.42700002 -1.7045453e+38
-0.0056544975 -0.090037644 0.42800003 -1.7046497e+38
-0.0049615395 -0.090037644 0.42800003 -1.7180463e+38
-0.041006174 -0.083708458 0.40100002 -1.7856495e+38
-0.040457569 -0.083917201 0.40200001 -1.7057407e+38
-0.039707687 -0.083708458 0.40100002 -1.7054801e+38
-0.0384092 -0.083708458 0.40100002 -1.7049606e+38
-0.037665792 -0.083499707 0.40000001 -1.7047528e+38
-0.037018169 -0.083499707 0.40000001 -1.7047006e+38
-0.035722919 -0.083499707 0.40000001 -1.7045445e+38
-0.035075296 -0.083499707 0.40000001 -1.7043883e+38
-0.034427669 -0.083499707 0.40000001 -1.7043362e+38
-0.033132423 -0.083499707 0.40000001 -1.7042842e+38
-0.032403585 -0.083290957 0.39900002 -1.7042323e+38
-0.031757578 -0.083290957 0.39900002 -1.7042323e+38
-0.031111574 -0.083290957 0.39900002 -1.7041802e+38
-0.026853833 -0.086213447 0.41300002 -1.7041802e+38
-0.025640056 -0.086630948 0.41500002 -1.7041802e+38
-0.02435478 -0.086839698 0.41600001 -1.7041802e+38
-0.023738177 -0.087048441 0.41700003 -1.7041802e+38
-0.023118336 -0.087257192 0.41800001 -1.7041802e+38
-0.022495255 -0.087465942 0.41900003 -1.7041802e+38
-0.021138482 -0.087465942 0.41900003 -1.7042323e+38
-0.020460095 -0.087465942 0.41900003 -1.7042323e+38
-0.019828921 -0.087674692 0.42000002 -1.7041802e+38
-0.01919451 -0.087883443 0.42100003 -1.7042323e+38
-0.01783126 -0.087883443 0.42100003 -1.7041802e+38
-0.017190371 -0.088092193 0.42200002 -1.7042323e+38
-0.016507128 -0.088092193 0.42200002 -1.7042327e+38
-0.015861381 -0.088300943 0.42300001 -1.7042327e+38
-0.015212396 -0.088509686 0.42400002 -1.7042848e+38
-0.013839432 -0.088509686 0.42400002 -1.7042848e+38
-0.013183972 -0.088718437 0.42500001 -1.7042327e+38
-0.012495872 -0.088718437 0.42500001 -1.7042327e+38
-0.011835554 -0.088927187 0.42600003 -1.7042327e+38
-0.010456114 -0.088927187 0.42600003 -1.7042848e+38
-0.0097893197 -0.089135937 0.42700002 -1.7043891e+38
-0.0090979803 -0.089135937 0.42700002 -1.7042848e+38
-0.0084263301 -0.089344688 0.42800003 -1.7043895e+38
-0.0070404136 -0.089344688 0.42800003 -1.7044935e+38
-0.0063474555 -0.089344688 0.42800003 -1.7045457e+38
-0.0056544975 -0.089344688 0.42800003 -1.7047016e+38
-0.0049615395 -0.089344688 0.42800003 -1.7048059e+38
-0.041210692 -0.082820989 0.40300003 -1.746295e+38
-0.040457569 -0.08261548 0.40200001 -1.7065751e+38
-0.039806709 -0.08261548 0.40200001 -1.7065751e+38
-0.0384092 -0.08240997 0.40100002 -1.7065755e+38
-0.037759956 -0.08240997 0.40100002 -1.7597449e+38
-0.037110712 -0.08240997 0.40100002 -1.7059502e+38
-0.035722919 -0.082204461 0.40000001 -1.7044917e+38
-0.035075296 -0.082204461 0.40000001 -1.70418e+38
-0.034427669 -0.082204461 0.40000001 -1.7042842e+38
-0.033132423 -0.082204461 0.40000001 -1.7041285e+38
-0.032403585 -0.081998944 0.39900002 -1.7041281e+38
-0.031757578 -0.081998944 0.39900002 -1.7041281e+38
-0.030389214 -0.081793442 0.39800003 -1.7041281e+38
-0.029744828 -0.081793442 0.39800003 -1.7041281e+38
-0.029100442 -0.081793442 0.39800003 -1.7041281e+38
-0.028456055 -0.081793442 0.39800003 -1.7041281e+38
-0.027167283 -0.081793442 0.39800003 -1.7041281e+38
-0.019828921 -0.086314678 0.42000002 -1.7042323e+38
-0.01919451 -0.086520188 0.42100003 -1.7041802e+38
-0.01783126 -0.086520188 0.42100003 -1.7041802e+38
-0.017190371 -0.086725704 0.42200002 -1.7042323e+38
-0.016507128 -0.086725704 0.42200002 -1.7042327e+38
-0.015861381 -0.086931221 0.42300001 -1.7042327e+38
-0.015212396 -0.087136723 0.42400002 -1.7042848e+38
-0.013839432 -0.087136723 0.42400002 -1.7042327e+38
-0.013183972 -0.08734224 0.42500001 -1.7042848e+38
-0.012525273 -0.087547749 0.42600003 -1.7042327e+38
-0.011835554 -0.087547749 0.42600003 -1.7042327e+38
-0.010480658 -0.087753259 0.42700002 -1.7043895e+38
-0.0097893197 -0.087753259 0.42700002 -1.7043895e+38
-0.0091192881 -0.087958768 0.42800003 -1.7042852e+38
-0.0084263301 -0.087958768 0.42800003 -1.7044414e+38
-0.0070404136 -0.087958768 0.42800003 -1.7045461e+38
-0.0063622864 -0.088164285 0.42900002 -1.7045982e+38
-0.0056677093 -0.088164285 0.42900002 -1.7047538e+38
-0.0049731322 -0.088164285 0.42900002 -1.7314947e+38
-0.040658854 -0.082372405 0.40400001 -1.7065755e+38
-0.039905731 -0.082168512 0.40300003 -1.7065755e+38
-0.038504984 -0.081964619 0.40200001 -1.70668e+38
-0.03785412 -0.081964619 0.40200001 -1.70668e+38
-0.037110712 -0.081760727 0.40100002 -1.7066279e+38
-0.035812225 -0.081760727 0.40100002 -1.7063676e+38
-0.035162982 -0.081760727 0.40100002 -1.7593289e+38
-0.034427669 -0.081556834 0.40000001 -1.7055342e+38
-0.033132423 -0.081556834 0.40000001 -1.7043879e+38
-0.032403585 -0.081352942 0.39900002 -1.7041802e+38
-0.031757578 -0.081352942 0.39900002 -1.7041802e+38
-0.030389214 -0.081149049 0.39800003 -1.7041281e+38
-0.029744828 -0.081149049 0.39800003 -1.7041281e+38
-0.029027328 -0.080945157 0.39700001 -1.7040759e+38
-0.027741794 -0.080945157 0.39700001 -1.7041281e+38
-0.027099026 -0.080945157 0.39700001 -1.7041281e+38
-0.026456257 -0.080945157 0.39700001 -1.7041281e+38
-0.02581349 -0.080945157 0.39700001 -1.7041802e+38
-0.024527956 -0.080945157 0.39700001 -1.7041802e+38
-0.023885189 -0.080945157 0.39700001 -1.7041802e+38
-0.019148916 -0.085634671 0.42000002 -1.7042323e+38
-0.01783126 -0.085838564 0.42100003 -1.7041802e+38
-0.017190371 -0.086042464 0.42200002 -1.7042323e+38
-0.016507128 -0.086042464 0.42200002 -1.7042327e+38
-0.015861381 -0.086246356 0.42300001 -1.7042327e+38
-0.015212396 -0.086450242 0.42400002 -1.7042848e+38
-0.013839432 -0.086450242 0.42400002 -1.7042327e+38
-0.013183972 -0.086654134 0.42500001 -1.7042848e+38
-0.012525273 -0.086858034 0.42600003 -1.7042852e+38
-0.011863336 -0.087061919 0.42700002 -1.7042852e+38
-0.010480658 -0.087061919 0.42700002 -1.7043895e+38
-0.0098122461 -0.087265812 0.42800003 -1.7043895e+38
-0.0091192881 -0.087265812 0.42800003 -1.7042852e+38
-0.0084460173 -0.087469704 0.42900002 -1.704442e+38
-0.007056863 -0.087469704 0.42900002 -1.7045461e+38
-0.0063622864 -0.087469704 0.42900002 -1.7045982e+38
-0.0056809206 -0.087673597 0.43000001 -1.7047544e+38
-0.0049847243 -0.087673597 0.43000001 -1.7314432e+38
-0.040004753 -0.081718303 0.40400001 -1.7063676e+38
-0.03925325 -0.081516027 0.40300003 -1.7064202e+38
-0.03785412 -0.081313752 0.40200001 -1.7066285e+38
-0.03720326 -0.081313752 0.40200001 -1.7066285e+38
-0.036552396 -0.081313752 0.40200001 -1.7065763e+38
-0.035162982 -0.081111483 0.40100002 -1.7064202e+38
-0.034513738 -0.081111483 0.40100002 -1.7064202e+38
-0.033132423 -0.080909207 0.40000001 -1.7063676e+38
-0.032484796 -0.080909207 0.40000001 -1.7057429e+38
-0.031757578 -0.080706939 0.39900002 -1.7052217e+38
-0.030389214 -0.080504663 0.39800003 -1.7041276e+38
-0.029744828 -0.080504663 0.39800003 -1.7040761e+38
-0.029027328 -0.080302395 0.39700001 -1.7041283e+38
-0.027741794 -0.080302395 0.39700001 -1.7041281e+38
-0.027099026 -0.080302395 0.39700001 -1.7041281e+38
-0.026456257 -0.080302395 0.39700001 -1.7041281e+38
-0.02581349 -0.080302395 0.39700001 -1.7041281e+38
-0.024466172 -0.080100119 0.39600003 -1.7041802e+38
-0.023825025 -0.080100119 0.39600003 -1.7041802e+38
-0.023183877 -0.080100119 0.39600003 -1.7041802e+38
-0.02190158 -0.080100119 0.39600003 -1.7041802e+38
-0.016507128 -0.085359216 0.42200002 -1.7042327e+38
-0.015861381 -0.085561492 0.42300001 -1.7042327e+38
-0.015176517 -0.085561492 0.42300001 -1.7042852e+38
-0.013839432 -0.08576376 0.42400002 -1.7042852e+38
-0.013214993 -0.086168312 0.42600003 -1.7042852e+38
-0.012525273 -0.086168312 0.42600003 -1.7042852e+38
-0.011863336 -0.08637058 0.42700002 -1.7042852e+38
-0.011198162 -0.086572856 0.42800003 -1.7042852e+38
-0.0098122461 -0.086572856 0.42800003 -1.7043895e+38
-0.0091405939 -0.086775132 0.42900002 -1.7043895e+38
-0.0084460173 -0.086775132 0.42900002 -1.704442e+38
-0.007056863 -0.086775132 0.42900002 -1.7045461e+38
-0.0063771168 -0.0869774 0.43000001 -1.7045982e+38
-0.0056809206 -0.0869774 0.43000001 -1.7047544e+38
-0.0049847243 -0.0869774 0.43000001 -1.7314432e+38
-0.040103775 -0.080609135 0.40500003 -1.7062115e+38
-0.03925325 -0.080211066 0.40300003 -1.7062644e+38
-0.03785412 -0.080012031 0.40200001 -1.7063165e+38
-0.03720326 -0.080012031 0.40200001 -1.7063165e+38
-0.036552396 -0.080012031 0.40200001 -1.7063165e+38
-0.035162982 -0.079812996 0.40100002 -1.7064206e+38
-0.034513738 -0.079812996 0.40100002 -1.7065248e+38
-0.033132423 -0.079613961 0.40000001 -1.7064206e+38
-0.032484796 -0.079613961 0.40000001 -1.7064206e+38
-0.031757578 -0.079414926 0.39900002 -1.7065248e+38
-0.030389214 -0.079215892 0.39800003 -1.7064206e+38
-0.029744828 -0.079215892 0.39800003 -1.7064206e+38
-0.029027328 -0.079016857 0.39700001 -1.7064206e+38
-0.027741794 -0.079016857 0.39700001 -1.7062634e+38
-0.027099026 -0.079016857 0.39700001 -1.7057429e+38
-0.026456257 -0.079016857 0.39700001 -1.7053259e+38
-0.02581349 -0.079016857 0.39700001 -1.7047006e+38
-0.024466172 -0.078817822 0.39600003 -1.7042842e+38
-0.023825025 -0.078817822 0.39600003 -1.7043364e+38
-0.023183877 -0.078817822 0.39600003 -1.7042325e+38
-0.02190158 -0.078817822 0.39600003 -1.7041806e+38
-0.021260433 -0.078817822 0.39600003 -1.7042327e+38
-0.020619284 -0.078817822 0.39600003 -1.7041806e+38
-0.019978136 -0.078817822 0.39600003 -1.7042327e+38
-0.0063771168 -0.085585006 0.43000001 -1.7047027e+38
-0.0056809206 -0.085585006 0.43000001 -1.7048067e+38
-0.040103775 -0.079953417 0.40500003 -1.7061593e+38
-0.03925325 -0.079558589 0.40300003 -1.7062119e+38
-0.037948284 -0.079558589 0.40300003 -1.7062644e+38
-0.037295803 -0.079558589 0.40300003 -1.7062644e+38
-0.036552396 -0.079361171 0.40200001 -1.7062644e+38
-0.035250671 -0.079361171 0.40200001 -1.7063165e+38
-0.034513738 -0.079163752 0.40100002 -1.7063165e+38
-0.033864494 -0.079163752 0.40100002 -1.7063687e+38
-0.032484796 -0.078966334 0.40000001 -1.7064206e+38
-0.031757578 -0.078768916 0.39900002 -1.7065248e+38
-0.030389214 -0.078571506 0.39800003 -1.7063691e+38
-0.029744828 -0.078571506 0.39800003 -1.7064733e+38
-0.029027328 -0.078374088 0.39700001 -1.7064733e+38
-0.027741794 -0.078374088 0.39700001 -1.7064206e+38
-0.027099026 -0.078374088 0.39700001 -1.7064202e+38
-0.026456257 -0.078374088 0.39700001 -1.7064202e+38
-0.02581349 -0.078374088 0.39700001 -1.7063676e+38
-0.024466172 -0.07817667 0.39600003 -1.7193997e+38
-0.023825025 -0.07817667 0.39600003 -1.7057425e+38
-0.023183877 -0.07817667 0.39600003 -1.7048049e+38
-0.02190158 -0.07817667 0.39600003 -1.7043885e+38
-0.021206746 -0.077979252 0.39500001 -1.7043364e+38
-0.020567216 -0.077979252 0.39500001 -1.7042325e+38
-0.019288158 -0.077979252 0.39500001 -1.7042846e+38
-0.01864863 -0.077979252 0.39500001 -1.7042846e+38
-0.017963508 -0.077781841 0.39400002 -1.7042846e+38
-0.017369572 -0.077979252 0.39500001 -1.7042846e+38
-0.039350651 -0.079101905 0.40400001 -1.7061078e+38
-0.038042452 -0.079101905 0.40400001 -1.7062123e+38
-0.037295803 -0.078906104 0.40300003 -1.7062123e+38
-0.036643323 -0.078906104 0.40300003 -1.7062644e+38
-0.035250671 -0.078710303 0.40200001 -1.7062644e+38
-0.034599807 -0.078710303 0.40200001 -1.7062644e+38
-0.033864494 -0.078514509 0.40100002 -1.7062644e+38
-0.032566011 -0.078514509 0.40100002 -1.7063169e+38
-0.031837173 -0.078318715 0.40000001 -1.7063169e+38
-0.031111574 -0.078122914 0.39900002 -1.7063695e+38
-0.029744828 -0.07792712 0.39800003 -1.7064737e+38
-0.029100442 -0.07792712 0.39800003 -1.7063695e+38
-0.027741794 -0.077731326 0.39700001 -1.706421e+38
-0.027099026 -0.077731326 0.39700001 -1.7064725e+38
-0.026456257 -0.077731326 0.39700001 -1.7064725e+38
-0.025748469 -0.077535525 0.39600003 -1.7064721e+38
-0.024466172 -0.077535525 0.39600003 -1.7064202e+38
-0.023825025 -0.077535525 0.39600003 -1.706368e+38
-0.023183877 -0.077535525 0.39600003 -1.7063155e+38
-0.02190158 -0.077535525 0.39600003 -1.7192956e+38
-0.021206746 -0.077339724 0.39500001 -1.7057427e+38
-0.020567216 -0.077339724 0.39500001 -1.7049611e+38
-0.019239327 -0.07714393 0.39400002 -1.7045964e+38
-0.018601418 -0.07714393 0.39400002 -1.7044921e+38
-0.017917914 -0.076948136 0.39300001 -1.7044406e+38
-0.016645333 -0.076948136 0.39300001 -1.7043372e+38
-0.016009042 -0.076948136 0.39300001 -1.7043372e+38
-0.015372751 -0.076948136 0.39300001 -1.7043372e+38
-0.014100169 -0.076948136 0.39300001 -1.7044414e+38
-0.041824251 -0.079418689 0.40900001 -1.8386629e+38
-0.039448056 -0.078641973 0.40500003 -1.7061078e+38
-0.038136616 -0.078641973 0.40500003 -1.7062123e+38
-0.037388351 -0.078447804 0.40400001 -1.7062123e+38
-0.036643323 -0.078253619 0.40300003 -1.7062123e+38
-0.035338361 -0.078253619 0.40300003 -1.7062644e+38
-0.034599807 -0.078059442 0.40200001 -1.7062123e+38
-0.033948947 -0.078059442 0.40200001 -1.7062644e+38
-0.032566011 -0.077865273 0.40100002 -1.706265e+38
-0.031916767 -0.077865273 0.40100002 -1.706265e+38
-0.031111574 -0.077476911 0.39900002 -1.7063169e+38
-0.029744828 -0.077282734 0.39800003 -1.7063691e+38
-0.029100442 -0.077282734 0.39800003 -1.7063169e+38
-0.027741794 -0.077088557 0.39700001 -1.7063691e+38
-0.027099026 -0.077088557 0.39700001 -1.7063691e+38
-0.026456257 -0.077088557 0.39700001 -1.7063691e+38
-0.02581349 -0.077088557 0.39700001 -1.7064206e+38
-0.024466172 -0.07689438 0.39600003 -1.7064202e+38
-0.023825025 -0.07689438 0.39600003 -1.706368e+38
-0.023183877 -0.07689438 0.39600003 -1.706368e+38
-0.02190158 -0.07689438 0.39600003 -1.7063161e+38
-0.021206746 -0.076700196 0.39500001 -1.706264e+38
-0.020567216 -0.076700196 0.39500001 -1.7063155e+38
-0.019239327 -0.076506026 0.39400002 -1.7192952e+38
-0.018601418 -0.076506026 0.39400002 -1.7192952e+38
-0.017963508 -0.076506026 0.39400002 -1.7053781e+38
-0.016645333 -0.076311842 0.39300001 -1.7045449e+38
-0.016009042 -0.076311842 0.39300001 -1.7045449e+38
-0.015372751 -0.076311842 0.39300001 -1.7045972e+38
-0.014100169 -0.076311842 0.39300001 -1.7044418e+38
-0.013429618 -0.076117665 0.39200002 -1.7044939e+38
-0.012762307 -0.075923488 0.39100003 -1.7044944e+38
-0.011496202 -0.075923488 0.39100003 -1.7044944e+38
-0.010863149 -0.075923488 0.39100003 -1.7044944e+38
-0.010203932 -0.075729311 0.39000002 -1.7045465e+38
-0.0089410646 -0.075729311 0.39000002 -1.7045465e+38
-0.0083096307 -0.075729311 0.39000002 -1.7045986e+38
-0.0076781972 -0.075729311 0.39000002 -1.7047027e+38
-0.005152463 -0.075729311 0.39000002 -1.7048594e+38
-0.0045210291 -0.075729311 0.39000002 -1.7049116e+38
-0.041926511 -0.07828524 0.41000003 -1.9315523e+38
-0.040400837 -0.077903353 0.40800002 -1.7061593e+38
-0.039740261 -0.077903353 0.40800002 -1.7061078e+38
-0.038888119 -0.077521481 0.40600002 -1.7061078e+38
-0.037480894 -0.077330537 0.40500003 -1.7061604e+38
-0.036734249 -0.077139601 0.40400001 -1.7062123e+38
-0.035426047 -0.077139601 0.40400001 -1.7061601e+38
-0.03468588 -0.076948658 0.40300003 -1.7062123e+38
-0.034033395 -0.076948658 0.40300003 -1.7062644e+38
-0.032566011 -0.076566786 0.40100002 -1.7062129e+38
-0.031916767 -0.076566786 0.40100002 -1.7062129e+38
-0.031111574 -0.076184899 0.39900002 -1.7062129e+38
-0.029744828 -0.075993963 0.39800003 -1.7062129e+38
-0.029100442 -0.075993963 0.39800003 -1.7062129e+38
-0.027741794 -0.075803019 0.39700001 -1.7062129e+38
-0.027099026 -0.075803019 0.39700001 -1.706265e+38
-0.026456257 -0.075803019 0.39700001 -1.706265e+38
-0.02581349 -0.075803019 0.39700001 -1.7062129e+38
-0.024466172 -0.075612083 0.39600003 -1.7063165e+38
-0.023825025 -0.075612083 0.39600003 -1.7063165e+38
-0.023183877 -0.075612083 0.39600003 -1.7063684e+38
-0.02190158 -0.075612083 0.39600003 -1.7063684e+38
-0.021260433 -0.075612083 0.39600003 -1.7063684e+38
-0.020567216 -0.07542114 0.39500001 -1.7063684e+38
-0.019288158 -0.07542114 0.39500001 -1.7063163e+38
-0.018601418 -0.075230204 0.39400002 -1.7063684e+38
-0.017963508 -0.075230204 0.39400002 -1.7064206e+38
-0.016645333 -0.07503926 0.39300001 -1.7064202e+38
-0.016009042 -0.07503926 0.39300001 -1.7065244e+38
-0.015372751 -0.07503926 0.39300001 -1.706368e+38
-0.014064291 -0.074848324 0.39200002 -1.7063682e+38
-0.013429618 -0.074848324 0.39200002 -1.7062119e+38
-0.012762307 -0.074657388 0.39100003 -1.7193482e+38
-0.011496202 -0.074657388 0.39100003 -1.7050142e+38
-0.010863149 -0.074657388 0.39100003 -1.7049099e+38
-0.010230096 -0.074657388 0.39100003 -1.7048582e+38
-0.0089410646 -0.074466445 0.39000002 -1.7050148e+38
-0.0083096307 -0.074466445 0.39000002 -1.7050669e+38
-0.0076781972 -0.074466445 0.39000002 -1.7050675e+38
-0.0070467633 -0.074466445 0.39000002 -1.7051718e+38
-0.0057838964 -0.074466445 0.39000002 -1.7321734e+38
-0.005152463 -0.074466445 0.39000002 -1.7457261e+38
-0.0045210291 -0.074466445 0.39000002 -1.7457261e+38
-0.0038995687 -0.074657388 0.39100003 -1.7055365e+38
-0.041926511 -0.077621423 0.41000003 -1.9713772e+38
-0.040400837 -0.077242777 0.40800002 -1.7060553e+38
-0.039740261 -0.077242777 0.40800002 -1.7061078e+38
-0.038888119 -0.076864138 0.40600002 -1.7061078e+38
-0.037480894 -0.076674819 0.40500003 -1.7061604e+38
-0.036825176 -0.076674819 0.40500003 -1.7061604e+38
-0.035426047 -0.0764855 0.40400001 -1.7061601e+38
-0.03468588 -0.07629618 0.40300003 -1.7062123e+38
-0.034033395 -0.07629618 0.40300003 -1.7062644e+38
-0.032647222 -0.076106854 0.40200001 -1.7062129e+38
-0.031916767 -0.075917542 0.40100002 -1.7062129e+38
-0.031189548 -0.075728215 0.40000001 -1.7062129e+38
-0.029819563 -0.075538896 0.39900002 -1.7062129e+38
-0.029100442 -0.075349577 0.39800003 -1.7062129e+38
-0.028456055 -0.075349577 0.39800003 -1.7062129e+38
-0.027099026 -0.075160258 0.39700001 -1.7062129e+38
-0.026456257 -0.075160258 0.39700001 -1.7062129e+38
-0.02581349 -0.075160258 0.39700001 -1.7062129e+38
-0.024527956 -0.075160258 0.39700001 -1.7062129e+38
-0.023825025 -0.074970931 0.39600003 -1.7062129e+38
-0.023183877 -0.074970931 0.39600003 -1.7062644e+38
-0.02190158 -0.074970931 0.39600003 -1.7063165e+38
-0.021260433 -0.074970931 0.39600003 -1.7062644e+38
-0.020619284 -0.074970931 0.39600003 -1.7062644e+38
-0.019288158 -0.074781612 0.39500001 -1.7063165e+38
-0.01864863 -0.074781612 0.39500001 -1.7063165e+38
-0.017963508 -0.074592292 0.39400002 -1.7063684e+38
-0.016687687 -0.074592292 0.39400002 -1.7064206e+38
-0.016009042 -0.074402973 0.39300001 -1.7065248e+38
-0.015372751 -0.074402973 0.39300001 -1.7064206e+38
-0.014064291 -0.074213646 0.39200002 -1.7065768e+38
-0.013429618 -0.074213646 0.39200002 -1.7065768e+38
-0.012762307 -0.074024335 0.39100003 -1.7065768e+38
-0.011496202 -0.074024335 0.39100003 -1.7065248e+38
-0.010863149 -0.074024335 0.39100003 -1.7198692e+38
-0.010230096 -0.074024335 0.39100003 -1.7062644e+38
-0.0095970435 -0.074024335 0.39100003 -1.7061601e+38
-0.0083096307 -0.073835008 0.39000002 -1.7058997e+38
-0.0076781972 -0.073835008 0.39000002 -1.7057963e+38
-0.0070467633 -0.073835008 0.39000002 -1.7059527e+38
-0.0057838964 -0.073835008 0.39000002 -1.7059531e+38
-0.005152463 -0.073835008 0.39000002 -1.7061096e+38
-0.0045210291 -0.073835008 0.39000002 -1.7060575e+38
-0.0038995687 -0.074024335 0.39100003 -1.7057971e+38
-0.041824251 -0.076769903 0.40900001 -1.9978573e+38
-0.040499859 -0.076769903 0.40900001 -1.7060553e+38
-0.039642859 -0.076394506 0.40700001 -1.7061078e+38
-0.038888119 -0.076206803 0.40600002 -1.7061078e+38
-0.037480894 -0.076019101 0.40500003 -1.7061082e+38
-0.036825176 -0.076019101 0.40500003 -1.7061604e+38
-0.035426047 -0.075831398 0.40400001 -1.7061601e+38
-0.034771949 -0.075831398 0.40400001 -1.7062123e+38
-0.034033395 -0.075643696 0.40300003 -1.7062123e+38
-0.033380914 -0.075643696 0.40300003 -1.7062644e+38
-0.031996358 -0.075455993 0.40200001 -1.7062129e+38
-0.031267524 -0.075268298 0.40100002 -1.7062129e+38
-0.0298943 -0.075080596 0.40000001 -1.7062129e+38
-0.029100442 -0.074705191 0.39800003 -1.7062129e+38
-0.028456055 -0.074705191 0.39800003 -1.7062129e+38
-0.027167283 -0.074705191 0.39800003 -1.7061608e+38
-0.026456257 -0.074517488 0.39700001 -1.7062129e+38
-0.02581349 -0.074517488 0.39700001 -1.7062129e+38
-0.024527956 -0.074517488 0.39700001 -1.7062129e+38
-0.023885189 -0.074517488 0.39700001 -1.7061608e+38
-0.023242421 -0.074517488 0.39700001 -1.7062129e+38
-0.02190158 -0.074329786 0.39600003 -1.7062129e+38
-0.021260433 -0.074329786 0.39600003 -1.7062129e+38
-0.020619284 -0.074329786 0.39600003 -1.7061608e+38
-0.019288158 -0.074142084 0.39500001 -1.7062129e+38
-0.01864863 -0.074142084 0.39500001 -1.706265e+38
-0.017963508 -0.073954381 0.39400002 -1.7063169e+38
-0.016687687 -0.073954381 0.39400002 -1.7064206e+38
-0.016009042 -0.073766679 0.39300001 -1.7064206e+38
-0.015372751 -0.073766679 0.39300001 -1.7064206e+38
-0.014064291 -0.073578976 0.39200002 -1.7065768e+38
-0.013429618 -0.073578976 0.39200002 -1.7065768e+38
-0.012762307 -0.073391281 0.39100003 -1.7065768e+38
-0.011496202 -0.073391281 0.39100003 -1.7066289e+38
-0.010863149 -0.073391281 0.39100003 -1.7066289e+38
-0.010230096 -0.073391281 0.39100003 -1.7066289e+38
-0.0095970435 -0.073391281 0.39100003 -1.7066289e+38
-0.0083309384 -0.073391281 0.39100003 -1.7065774e+38
-0.0076781972 -0.073203579 0.39000002 -1.7199218e+38
-0.0070467633 -0.073203579 0.39000002 -1.7065774e+38
-0.0057838964 -0.073203579 0.39000002 -1.7063689e+38
-0.005152463 -0.073203579 0.39000002 -1.7063693e+38
-0.0045326212 -0.073391281 0.39100003 -1.706265e+38
-0.040400837 -0.075261049 0.40800002 -1.7060549e+38
-0.039642859 -0.075076587 0.40700001 -1.7061078e+38
-0.038888119 -0.074892126 0.40600002 -1.7061078e+38
-0.037480894 -0.074707657 0.40500003 -1.7061082e+38
-0.036825176 -0.074707657 0.40500003 -1.7061082e+38
-0.035426047 -0.074523203 0.40400001 -1.7061082e+38
-0.034771949 -0.074523203 0.40400001 -1.7061082e+38
-0.034117848 -0.074523203 0.40400001 -1.7062123e+38
-0.033380914 -0.074338734 0.40300003 -1.7062123e+38
-0.031996358 -0.074154265 0.40200001 -1.7062129e+38
-0.031267524 -0.073969811 0.40100002 -1.7062129e+38
-0.0298943 -0.073785342 0.40000001 -1.7062129e+38
-0.029173559 -0.073600881 0.39900002 -1.7062129e+38
-0.028456055 -0.073416419 0.39800003 -1.7062129e+38
-0.027167283 -0.073416419 0.39800003 -1.7061608e+38
-0.026522899 -0.073416419 0.39800003 -1.7061608e+38
-0.02581349 -0.073231958 0.39700001 -1.7062129e+38
-0.024527956 -0.073231958 0.39700001 -1.7062129e+38
-0.023885189 -0.073231958 0.39700001 -1.7061608e+38
-0.023242421 -0.073231958 0.39700001 -1.7062129e+38
-0.021956887 -0.073231958 0.39700001 -1.7062129e+38
-0.021260433 -0.073047489 0.39600003 -1.7062129e+38
-0.020619284 -0.073047489 0.39600003 -1.7061608e+38
-0.019978136 -0.073047489 0.39600003 -1.7061608e+38
-0.01864863 -0.07286302 0.39500001 -1.7062129e+38
-0.0180091 -0.07286302 0.39500001 -1.7062129e+38
-0.016687687 -0.072678566 0.39400002 -1.7063169e+38
-0.016049778 -0.072678566 0.39400002 -1.7063169e+38
-0.015372751 -0.072494097 0.39300001 -1.7063169e+38
-0.014100169 -0.072494097 0.39300001 -1.7063691e+38
-0.013429618 -0.072309636 0.39200002 -1.7063691e+38
-0.012794947 -0.072309636 0.39200002 -1.7063691e+38
-0.011496202 -0.072125174 0.39100003 -1.7065252e+38
-0.010863149 -0.072125174 0.39100003 -1.7065252e+38
-0.010230096 -0.072125174 0.39100003 -1.706421e+38
-0.0095970435 -0.072125174 0.39100003 -1.7065774e+38
-0.0083309384 -0.072125174 0.39100003 -1.7066818e+38
-0.0076978854 -0.072125174 0.39100003 -1.7067339e+38
-0.0070648324 -0.072125174 0.39100003 -1.7067339e+38
-0.0057838964 -0.071940713 0.39000002 -1.7067339e+38
-0.0051656743 -0.072125174 0.39100003 -1.7067859e+38
-0.0045326212 -0.072125174 0.39100003 -1.7067337e+38
-0.040400837 -0.074600473 0.40800002 -1.7192952e+38
-0.039642859 -0.074417628 0.40700001 -1.7060557e+38
-0.038888119 -0.074234784 0.40600002 -1.7061078e+38
-0.037480894 -0.074051939 0.40500003 -1.7061082e+38
-0.036825176 -0.074051939 0.40500003 -1.7061082e+38
-0.036169458 -0.074051939 0.40500003 -1.7061082e+38
-0.034771949 -0.073869102 0.40400001 -1.7061082e+38
-0.034117848 -0.073869102 0.40400001 -1.7062123e+38
-0.033463746 -0.073869102 0.40400001 -1.7062123e+38
-0.032075953 -0.07368625 0.40300003 -1.7062644e+38
-0.031345498 -0.073503405 0.40200001 -1.7062644e+38
-0.0298943 -0.073137723 0.40000001 -1.7062123e+38
-0.029173559 -0.072954871 0.39900002 -1.7062644e+38
-0.028456055 -0.072772034 0.39800003 -1.7062644e+38
-0.027167283 -0.072772034 0.39800003 -1.7062123e+38
-0.026522899 -0.072772034 0.39800003 -1.7062644e+38
-0.025878511 -0.072772034 0.39800003 -1.7062644e+38
-0.02458974 -0.072772034 0.39800003 -1.7062644e+38
-0.023885189 -0.072589189 0.39700001 -1.7062123e+38
-0.023242421 -0.072589189 0.39700001 -1.7062644e+38
-0.021956887 -0.072589189 0.39700001 -1.7062129e+38
-0.02131412 -0.072589189 0.39700001 -1.7062129e+38
-0.020619284 -0.072406344 0.39600003 -1.7061608e+38
-0.019978136 -0.072406344 0.39600003 -1.7061608e+38
-0.018695841 -0.072406344 0.39600003 -1.7062129e+38
-0.0180091 -0.072223492 0.39500001 -1.7062129e+38
-0.017369572 -0.072223492 0.39500001 -1.706265e+38
-0.016049778 -0.072040655 0.39400002 -1.706265e+38
-0.015372751 -0.07185781 0.39300001 -1.7063169e+38
-0.014100169 -0.07185781 0.39300001 -1.7063169e+38
-0.013429618 -0.071674965 0.39200002 -1.7063169e+38
-0.012794947 -0.071674965 0.39200002 -1.7063169e+38
-0.012160275 -0.071674965 0.39200002 -1.7063691e+38
-0.010863149 -0.071492121 0.39100003 -1.7063691e+38
-0.010230096 -0.071492121 0.39100003 -1.706421e+38
-0.0095970435 -0.071492121 0.39100003 -1.706421e+38
-0.0083309384 -0.071492121 0.39100003 -1.7065778e+38
-0.0076978854 -0.071492121 0.39100003 -1.7065778e+38
-0.0070648324 -0.071492121 0.39100003 -1.7065778e+38
-0.0057987268 -0.071492121 0.39100003 -1.7065778e+38
-0.0051656743 -0.071492121 0.39100003 -1.7066814e+38
-0.0045442139 -0.071674965 0.39200002 -1.7066293e+38
-0.040400837 -0.073939897 0.40800002 -1.7192956e+38
-0.039642859 -0.073758677 0.40700001 -1.7060038e+38
-0.038888119 -0.073577449 0.40600002 -1.7060038e+38
-0.037573442 -0.073577449 0.40600002 -1.7060561e+38
-0.036825176 -0.073396221 0.40500003 -1.7060561e+38
-0.036169458 -0.073396221 0.40500003 -1.7061082e+38
-0.034858018 -0.073396221 0.40500003 -1.7061082e+38
-0.034117848 -0.073215 0.40400001 -1.7062123e+38
-0.033463746 -0.073215 0.40400001 -1.7062123e+38
-0.032155547 -0.073215 0.40400001 -1.7062123e+38
-0.031423472 -0.073033772 0.40300003 -1.7062123e+38
-0.029969037 -0.072671324 0.40100002 -1.7062123e+38
-0.029173559 -0.072308868 0.39900002 -1.7062123e+38
-0.028456055 -0.072127648 0.39800003 -1.7062644e+38
-0.027167283 -0.072127648 0.39800003 -1.7062123e+38
-0.026522899 -0.072127648 0.39800003 -1.7062644e+38
-0.025878511 -0.072127648 0.39800003 -1.7062644e+38
-0.02458974 -0.072127648 0.39800003 -1.7062644e+38
-0.023945354 -0.072127648 0.39800003 -1.7062644e+38
-0.023300968 -0.072127648 0.39800003 -1.7062129e+38
-0.021956887 -0.07194642 0.39700001 -1.7062129e+38
-0.02131412 -0.07194642 0.39700001 -1.7062129e+38
-0.020671353 -0.07194642 0.39700001 -1.7061608e+38
-0.019978136 -0.071765192 0.39600003 -1.7061608e+38
-0.018695841 -0.071765192 0.39600003 -1.7062129e+38
-0.018054692 -0.071765192 0.39600003 -1.7062129e+38
-0.017369572 -0.071583964 0.39500001 -1.706265e+38
-0.016090514 -0.071583964 0.39500001 -1.7062129e+38
-0.015411868 -0.071402743 0.39400002 -1.706265e+38
-0.014773957 -0.071402743 0.39400002 -1.706265e+38
-0.013463878 -0.071221516 0.39300001 -1.7063169e+38
-0.012827587 -0.071221516 0.39300001 -1.7063169e+38
-0.012160275 -0.071040288 0.39200002 -1.7063691e+38
-0.010890932 -0.071040288 0.39200002 -1.7063691e+38
-0.01025626 -0.071040288 0.39200002 -1.7063173e+38
-0.0095970435 -0.070859067 0.39100003 -1.7063695e+38
-0.0083309384 -0.070859067 0.39100003 -1.7064737e+38
-0.0076978854 -0.070859067 0.39100003 -1.7065256e+38
-0.0070648324 -0.070859067 0.39100003 -1.7064214e+38
-0.0057987268 -0.070859067 0.39100003 -1.7064214e+38
-0.0051656743 -0.070859067 0.39100003 -1.7065256e+38
-0.0045442139 -0.071040288 0.39200002 -1.7064214e+38
-0.040301815 -0.073099717 0.40700001 -1.7058987e+38
-0.039545458 -0.072920106 0.40600002 -1.7060038e+38
-0.038888119 -0.072920106 0.40600002 -1.7060038e+38
-0.037573442 -0.072920106 0.40600002 -1.7060561e+38
-0.036916103 -0.072920106 0.40600002 -1.7060561e+38
-0.036169458 -0.072740503 0.40500003 -1.7060561e+38
-0.034858018 -0.072740503 0.40500003 -1.7061082e+38
-0.034202296 -0.072740503 0.40500003 -1.7061604e+38
-0.033546578 -0.072740503 0.40500003 -1.7061604e+38
-0.032155547 -0.072560899 0.40400001 -1.7062123e+38
-0.031501446 -0.072560899 0.40400001 -1.7062123e+38
-0.029969037 -0.07202208 0.40100002 -1.7062123e+38
-0.029173559 -0.071662866 0.39900002 -1.7062123e+38
-0.028456055 -0.071483262 0.39800003 -1.7062644e+38
-0.027167283 -0.071483262 0.39800003 -1.7062123e+38
-0.026522899 -0.071483262 0.39800003 -1.7062644e+38
-0.025943534 -0.071662866 0.39900002 -1.7062129e+38
-0.02458974 -0.071483262 0.39800003 -1.706265e+38
-0.023945354 -0.071483262 0.39800003 -1.7062129e+38
-0.023300968 -0.071483262 0.39800003 -1.7062129e+38
-0.02265658 -0.071483262 0.39800003 -1.7062129e+38
-0.02131412 -0.071303651 0.39700001 -1.7062129e+38
-0.020671353 -0.071303651 0.39700001 -1.7061608e+38
-0.020028586 -0.071303651 0.39700001 -1.7061608e+38
-0.018743051 -0.071303651 0.39700001 -1.7062133e+38
-0.018054692 -0.071124047 0.39600003 -1.7062133e+38
-0.017413544 -0.071124047 0.39600003 -1.7062654e+38
-0.016090514 -0.070944436 0.39500001 -1.7062129e+38
-0.015450984 -0.070944436 0.39500001 -1.7062129e+38
-0.014773957 -0.070764832 0.39400002 -1.706265e+38
-0.013498138 -0.070764832 0.39400002 -1.7063169e+38
-0.012827587 -0.070585229 0.39300001 -1.7063169e+38
-0.012191297 -0.070585229 0.39300001 -1.7063169e+38
-0.010890932 -0.070405617 0.39200002 -1.7063173e+38
-0.01025626 -0.070405617 0.39200002 -1.7063173e+38
-0.0096215876 -0.070405617 0.39200002 -1.7063173e+38
-0.0083522443 -0.070405617 0.39200002 -1.7063173e+38
-0.0076978854 -0.070226014 0.39100003 -1.7063695e+38
-0.0070648324 -0.070226014 0.39100003 -1.7063695e+38
-0.0057987268 -0.070226014 0.39100003 -1.7063695e+38
-0.0051656743 -0.070226014 0.39100003 -1.7063695e+38
-0.0045558061 -0.070585229 0.39300001 -1.7063173e+38
-0.040301815 -0.071781799 0.40700001 -1.7191387e+38
-0.039545458 -0.071605429 0.40600002 -1.7060038e+38
-0.038888119 -0.071605429 0.40600002 -1.7060038e+38
-0.037573442 -0.071605429 0.40600002 -1.7060038e+38
-0.036916103 -0.071605429 0.40600002 -1.7060561e+38
-0.036258765 -0.071605429 0.40600002 -1.7060561e+38
-0.034858018 -0.071429059 0.40500003 -1.7061604e+38
-0.034202296 -0.071429059 0.40500003 -1.7061082e+38
-0.033546578 -0.071429059 0.40500003 -1.7061082e+38
-0.032235138 -0.071429059 0.40500003 -1.7061082e+38
-0.031501446 -0.071252696 0.40400001 -1.7062123e+38
-0.030770989 -0.071076326 0.40300003 -1.7062123e+38
-0.029319793 -0.070723593 0.40100002 -1.7062644e+38
-0.028527554 -0.070370853 0.39900002 -1.7062644e+38
-0.027235543 -0.070370853 0.39900002 -1.7062123e+38
-0.026589537 -0.070370853 0.39900002 -1.7062644e+38
-0.025943534 -0.070370853 0.39900002 -1.7061608e+38
-0.025297528 -0.070370853 0.39900002 -1.7062129e+38
-0.024005517 -0.070370853 0.39900002 -1.7062129e+38
-0.023300968 -0.07019449 0.39800003 -1.7062129e+38
-0.02265658 -0.07019449 0.39800003 -1.7062129e+38
-0.021367809 -0.07019449 0.39800003 -1.7062129e+38
-0.020723423 -0.07019449 0.39800003 -1.7061608e+38
-0.020028586 -0.07001812 0.39700001 -1.7061608e+38
-0.018743051 -0.07001812 0.39700001 -1.7062133e+38
-0.018100284 -0.07001812 0.39700001 -1.7062133e+38
-0.017413544 -0.06984175 0.39600003 -1.7062654e+38
-0.016131248 -0.06984175 0.39600003 -1.7062133e+38
-0.015450984 -0.06966538 0.39500001 -1.7062654e+38
-0.014811455 -0.06966538 0.39500001 -1.7062133e+38
-0.013498138 -0.069489017 0.39400002 -1.7062133e+38
-0.012860228 -0.069489017 0.39400002 -1.7062133e+38
-0.012191297 -0.069312647 0.39300001 -1.7062133e+38
-0.010918715 -0.069312647 0.39300001 -1.7062133e+38
-0.010282424 -0.069312647 0.39300001 -1.7062133e+38
-0.0096215876 -0.069136277 0.39200002 -1.7062654e+38
-0.0083522443 -0.069136277 0.39200002 -1.7063173e+38
-0.0077175726 -0.069136277 0.39200002 -1.7063173e+38
-0.0070829005 -0.069136277 0.39200002 -1.7063173e+38
-0.0064482293 -0.069136277 0.39200002 -1.7062652e+38
-0.0051788855 -0.069136277 0.39200002 -1.7063173e+38
-0.0045558061 -0.069312647 0.39300001 -1.7062652e+38
-0.040202796 -0.070948094 0.40600002 -1.7324825e+38
-0.039545458 -0.070948094 0.40600002 -1.7060553e+38
-0.038888119 -0.070948094 0.40600002 -1.7060553e+38
-0.037573442 -0.070948094 0.40600002 -1.7060038e+38
-0.036916103 -0.070948094 0.40600002 -1.7060557e+38
-0.036258765 -0.070948094 0.40600002 -1.7060557e+38
-0.034944087 -0.070948094 0.40600002 -1.7061604e+38
-0.034286749 -0.070948094 0.40600002 -1.7061082e+38
-0.033546578 -0.070773341 0.40500003 -1.7061082e+38
-0.032235138 -0.070773341 0.40500003 -1.7061082e+38
-0.03157942 -0.070773341 0.40500003 -1.7061604e+38
-0.030847345 -0.070598595 0.40400001 -1.7061082e+38
-0.029392909 -0.070249096 0.40200001 -1.7062129e+38
-0.028670549 -0.07007435 0.40100002 -1.7061608e+38
-0.027303802 -0.069899596 0.40000001 -1.7062129e+38
-0.026656179 -0.069899596 0.40000001 -1.7062129e+38
-0.025943534 -0.06972485 0.39900002 -1.7061608e+38
-0.025297528 -0.06972485 0.39900002 -1.7062129e+38
-0.024005517 -0.06972485 0.39900002 -1.7062129e+38
-0.023359513 -0.06972485 0.39900002 -1.7062129e+38
-0.022713508 -0.06972485 0.39900002 -1.7062129e+38
-0.021367809 -0.069550104 0.39800003 -1.7062129e+38
-0.020723423 -0.069550104 0.39800003 -1.7061608e+38
-0.020079037 -0.069550104 0.39800003 -1.7061608e+38
-0.018743051 -0.069375351 0.39700001 -1.7062133e+38
-0.018100284 -0.069375351 0.39700001 -1.7062133e+38
-0.017457519 -0.069375351 0.39700001 -1.7062133e+38
-0.016131248 -0.069200598 0.39600003 -1.7062654e+38
-0.0154901 -0.069200598 0.39600003 -1.7062133e+38
-0.014848951 -0.069200598 0.39600003 -1.7062133e+38
-0.013532397 -0.069025852 0.39500001 -1.7062133e+38
-0.012892867 -0.069025852 0.39500001 -1.7062133e+38
-0.012222318 -0.068851106 0.39400002 -1.7062133e+38
-0.010946498 -0.068851106 0.39400002 -1.7062133e+38
-0.010282424 -0.068676353 0.39300001 -1.7062133e+38
-0.0096461335 -0.068676353 0.39300001 -1.7062654e+38
-0.0083735511 -0.068676353 0.39300001 -1.7062133e+38
-0.0077175726 -0.068501607 0.39200002 -1.7062654e+38
-0.0070829005 -0.068501607 0.39200002 -1.7062654e+38
-0.0064482293 -0.068501607 0.39200002 -1.7062133e+38
-0.0051920968 -0.068676353 0.39300001 -1.7062133e+38
-0.0045558061 -0.068676353 0.39300001 -1.7062133e+38
-0.039740261 -0.07063701 0.40800002 -1.705951e+38
-0.039079685 -0.07063701 0.40800002 -1.7060553e+38
-0.037758529 -0.07063701 0.40800002 -1.7060038e+38
-0.037007026 -0.070463888 0.40700001 -1.7060557e+38
-0.036348067 -0.070463888 0.40700001 -1.7061078e+38
-0.035030153 -0.070463888 0.40700001 -1.7061082e+38
-0.034286749 -0.070290752 0.40600002 -1.7061082e+38
-0.03362941 -0.070290752 0.40600002 -1.7061082e+38
-0.032972071 -0.070290752 0.40600002 -1.7061082e+38
-0.03157942 -0.070117623 0.40500003 -1.7061088e+38
-0.0309237 -0.070117623 0.40500003 -1.7060567e+38
-0.029539144 -0.069944493 0.40400001 -1.7062129e+38
-0.028742047 -0.069598235 0.40200001 -1.7061608e+38
-0.028021306 -0.069425106 0.40100002 -1.7061608e+38
-0.026656179 -0.069251977 0.40000001 -1.7062129e+38
-0.026008554 -0.069251977 0.40000001 -1.7061608e+38
-0.025360929 -0.069251977 0.40000001 -1.7062129e+38
-0.024005517 -0.06907884 0.39900002 -1.7062129e+38
-0.023359513 -0.06907884 0.39900002 -1.7062129e+38
-0.022713508 -0.06907884 0.39900002 -1.7062129e+38
-0.021421498 -0.06907884 0.39900002 -1.7062129e+38
-0.020723423 -0.068905719 0.39800003 -1.7061608e+38
-0.020079037 -0.068905719 0.39800003 -1.7061608e+38
-0.018790264 -0.068905719 0.39800003 -1.7062129e+38
-0.018100284 -0.068732582 0.39700001 -1.7062129e+38
-0.017457519 -0.068732582 0.39700001 -1.7062129e+38
-0.016171984 -0.068732582 0.39700001 -1.706265e+38
-0.0154901 -0.068559453 0.39600003 -1.7062129e+38
-0.014848951 -0.068559453 0.39600003 -1.7062129e+38
-0.013532397 -0.068386324 0.39500001 -1.7062129e+38
-0.012892867 -0.068386324 0.39500001 -1.7062129e+38
-0.012253338 -0.068386324 0.39500001 -1.7062129e+38
-0.010946498 -0.068213195 0.39400002 -1.7062133e+38
-0.010308588 -0.068213195 0.39400002 -1.7062133e+38
-0.0096461335 -0.068040065 0.39300001 -1.7062654e+38
-0.0083735511 -0.068040065 0.39300001 -1.7062133e+38
-0.0077372603 -0.068040065 0.39300001 -1.7062654e+38
-0.0071009696 -0.068040065 0.39300001 -1.7062133e+38
-0.0064646788 -0.068040065 0.39300001 -1.7062133e+38
-0.0051920968 -0.068040065 0.39300001 -1.7062133e+38
-0.0045673982 -0.068213195 0.39400002 -1.7062133e+38
-0.039935067 -0.069655649 0.41000003 -1.705951e+38
-0.039175466 -0.069485754 0.40900001 -1.7060553e+38
-0.038513273 -0.069485754 0.40900001 -1.7060038e+38
-0.03718888 -0.069485754 0.40900001 -1.7060038e+38
-0.036437377 -0.069315858 0.40800002 -1.7193482e+38
-0.035776801 -0.069315858 0.40800002 -1.7061082e+38
-0.034371197 -0.06914597 0.40700001 -1.7060561e+38
-0.033712238 -0.06914597 0.40700001 -1.7061082e+38
-0.032972071 -0.068976074 0.40600002 -1.7061082e+38
-0.031657394 -0.068976074 0.40600002 -1.7061082e+38
-0.0309237 -0.068806186 0.40500003 -1.7061082e+38
-0.029539144 -0.068636298 0.40400001 -1.7062129e+38
-0.028813545 -0.068466403 0.40300003 -1.7061608e+38
-0.028091185 -0.068296507 0.40200001 -1.7061608e+38
-0.026722819 -0.068126619 0.40100002 -1.7061608e+38
-0.026073575 -0.068126619 0.40100002 -1.7061608e+38
-0.025360929 -0.067956723 0.40000001 -1.7061608e+38
-0.024065681 -0.067956723 0.40000001 -1.7062129e+38
-0.023359513 -0.067786835 0.39900002 -1.7062129e+38
-0.022713508 -0.067786835 0.39900002 -1.7061608e+38
-0.021421498 -0.067786835 0.39900002 -1.7061608e+38
-0.020775491 -0.067786835 0.39900002 -1.7061608e+38
-0.020129487 -0.067786835 0.39900002 -1.7061608e+38
-0.018790264 -0.067616947 0.39800003 -1.7062129e+38
-0.018145878 -0.067616947 0.39800003 -1.7062129e+38
-0.017501492 -0.067616947 0.39800003 -1.7062129e+38
-0.016171984 -0.067447051 0.39700001 -1.706265e+38
-0.015529216 -0.067447051 0.39700001 -1.7062129e+38
-0.014848951 -0.067277156 0.39600003 -1.7062129e+38
-0.014207804 -0.067277156 0.39600003 -1.7062129e+38
-0.012892867 -0.06710726 0.39500001 -1.7062129e+38
-0.012253338 -0.06710726 0.39500001 -1.7062129e+38
-0.01161381 -0.06710726 0.39500001 -1.7062129e+38
-0.010308588 -0.06693738 0.39400002 -1.706265e+38
-0.0096706785 -0.06693738 0.39400002 -1.7062129e+38
-0.0090327682 -0.06693738 0.39400002 -1.7062129e+38
-0.0077569485 -0.06693738 0.39400002 -1.7062129e+38
-0.0071190386 -0.06693738 0.39400002 -1.7062129e+38
-0.0064811283 -0.06693738 0.39400002 -1.7062129e+38
-0.0052053086 -0.06693738 0.39400002 -1.7062129e+38
-0.0045673982 -0.06693738 0.39400002 -1.7061608e+38
-0.0039494354 -0.067277156 0.39600003 -1.7062123e+38
-0.0027210207 -0.068636298 0.40400001 -1.7055862e+38
-0.0020669203 -0.068636298 0.40400001 -1.7053777e+38
-0.039367035 -0.069160096 0.41100001 -1.7060553e+38
-0.038607437 -0.068991832 0.41000003 -1.7060038e+38
-0.03718888 -0.068823554 0.40900001 -1.7060038e+38
-0.036526684 -0.068823554 0.40900001 -1.7193482e+38
-0.035776801 -0.068655282 0.40800002 -1.7061078e+38
-0.034455646 -0.068655282 0.40800002 -1.7060557e+38
-0.033712238 -0.068487011 0.40700001 -1.7060557e+38
-0.033053279 -0.068487011 0.40700001 -1.7061078e+38
-0.031657394 -0.06831874 0.40600002 -1.7061082e+38
-0.031000055 -0.06831874 0.40600002 -1.7061082e+38
-0.03026798 -0.068150461 0.40500003 -1.7061086e+38
-0.028885042 -0.067982197 0.40400001 -1.7061608e+38
-0.028161064 -0.067813918 0.40300003 -1.7061608e+38
-0.02678946 -0.067645647 0.40200001 -1.7061608e+38
-0.026073575 -0.067477375 0.40100002 -1.7061608e+38
-0.025424333 -0.067477375 0.40100002 -1.7061608e+38
-0.024065681 -0.067309104 0.40000001 -1.7061608e+38
-0.023418058 -0.067309104 0.40000001 -1.7061608e+38
-0.022770433 -0.067309104 0.40000001 -1.7061608e+38
-0.021421498 -0.067140825 0.39900002 -1.7061608e+38
-0.020775491 -0.067140825 0.39900002 -1.7061608e+38
-0.020129487 -0.067140825 0.39900002 -1.7061608e+38
-0.019483481 -0.067140825 0.39900002 -1.7061608e+38
-0.018145878 -0.066972561 0.39800003 -1.7062129e+38
-0.017501492 -0.066972561 0.39800003 -1.7062129e+38
-0.016857106 -0.066972561 0.39800003 -1.7062129e+38
-0.015529216 -0.066804282 0.39700001 -1.7062129e+38
-0.014886449 -0.066804282 0.39700001 -1.7062129e+38
-0.014207804 -0.066636011 0.39600003 -1.7062129e+38
-0.012925508 -0.066636011 0.39600003 -1.7062129e+38
-0.012253338 -0.066467732 0.39500001 -1.7062129e+38
-0.01161381 -0.066467732 0.39500001 -1.7062129e+38
-0.010334752 -0.066467732 0.39500001 -1.7062129e+38
-0.0096952226 -0.066467732 0.39500001 -1.7062129e+38
-0.0090556936 -0.066467732 0.39500001 -1.7062129e+38
-0.0077569485 -0.066299468 0.39400002 -1.7062129e+38
-0.0071190386 -0.066299468 0.39400002 -1.7062129e+38
-0.0064811283 -0.066299468 0.39400002 -1.7062129e+38
-0.0052053086 -0.066299468 0.39400002 -1.7062129e+38
-0.0045789909 -0.066467732 0.39500001 -1.7061608e+38
-0.0027210207 -0.067982197 0.40400001 -1.7055862e+38
-0.0020669203 -0.067982197 0.40400001 -1.7053255e+38
-0.03946282 -0.068661325 0.41200003 -1.7058991e+38
-0.038701601 -0.068494663 0.41100001 -1.7060038e+38
-0.037279807 -0.068328016 0.41000003 -1.7060038e+38
-0.036526684 -0.068161361 0.40900001 -1.7060038e+38
-0.035864487 -0.068161361 0.40900001 -1.7060557e+38
-0.034455646 -0.067994706 0.40800002 -1.7060557e+38
-0.03379507 -0.067994706 0.40800002 -1.7060557e+38
-0.033053279 -0.067828052 0.40700001 -1.7060557e+38
-0.031735364 -0.067828052 0.40700001 -1.7061078e+38
-0.031000055 -0.067661397 0.40600002 -1.7061078e+38
-0.030342717 -0.067661397 0.40600002 -1.7061601e+38
-0.028956542 -0.067494743 0.40500003 -1.7061608e+38
-0.028300822 -0.067494743 0.40500003 -1.7061086e+38
-0.027508583 -0.067161441 0.40300003 -1.7061608e+38
-0.026138598 -0.066994786 0.40200001 -1.7061608e+38
-0.025487736 -0.066994786 0.40200001 -1.7061608e+38
-0.024125846 -0.066828132 0.40100002 -1.7061608e+38
-0.023476603 -0.066828132 0.40100002 -1.7061608e+38
-0.022827359 -0.066828132 0.40100002 -1.7061608e+38
-0.021475185 -0.066661477 0.40000001 -1.7061608e+38
-0.02082756 -0.066661477 0.40000001 -1.7061608e+38
-0.020129487 -0.066494823 0.39900002 -1.7061608e+38
-0.019483481 -0.066494823 0.39900002 -1.7061608e+38
-0.018191472 -0.066494823 0.39900002 -1.7062129e+38
-0.017501492 -0.066328175 0.39800003 -1.7062129e+38
-0.016857106 -0.066328175 0.39800003 -1.7062129e+38
-0.015529216 -0.066161513 0.39700001 -1.7062129e+38
-0.014886449 -0.066161513 0.39700001 -1.7062129e+38
-0.014243682 -0.066161513 0.39700001 -1.7062129e+38
-0.012925508 -0.065994859 0.39600003 -1.7061608e+38
-0.01228436 -0.065994859 0.39600003 -1.7062129e+38
-0.011643212 -0.065994859 0.39600003 -1.7062129e+38
-0.010334752 -0.065828204 0.39500001 -1.7062129e+38
-0.0096952226 -0.065828204 0.39500001 -1.7062129e+38
-0.0090556936 -0.065828204 0.39500001 -1.7062129e+38
-0.0077766357 -0.065828204 0.39500001 -1.7062129e+38
-0.0071371067 -0.065828204 0.39500001 -1.7062129e+38
-0.0064975778 -0.065828204 0.39500001 -1.7062129e+38
-0.0058580488 -0.065828204 0.39500001 -1.7062129e+38
-0.0045789909 -0.065828204 0.39500001 -1.7061608e+38
-0.0027210207 -0.067328095 0.40400001 -1.7055862e+38
-0.0020669203 -0.067328095 0.40400001 -1.7053255e+38
-0.038795765 -0.067994267 0.41200003 -1.7060038e+38
-0.037370734 -0.067829229 0.41100001 -1.7060038e+38
-0.03661599 -0.067664199 0.41000003 -1.7060038e+38
-0.035952177 -0.067664199 0.41000003 -1.7060557e+38
-0.034540098 -0.067499168 0.40900001 -1.7060557e+38
-0.033877902 -0.067499168 0.40900001 -1.7060557e+38
-0.033134494 -0.06733413 0.40800002 -1.7060557e+38
-0.031813338 -0.06733413 0.40800002 -1.7061078e+38
-0.031076407 -0.0671691 0.40700001 -1.7060557e+38
-0.03041745 -0.0671691 0.40700001 -1.7061082e+38
-0.029028039 -0.067004062 0.40600002 -1.7061601e+38
-0.028300822 -0.066839024 0.40500003 -1.7061601e+38
-0.027645102 -0.066839024 0.40500003 -1.7062123e+38
-0.026268641 -0.066673994 0.40400001 -1.7062123e+38
-0.025614541 -0.066673994 0.40400001 -1.7061601e+38
-0.022233423 -0.066343918 0.40200001 -1.7062644e+38
-0.020879628 -0.066178888 0.40100002 -1.7062123e+38
-0.020179935 -0.06601385 0.40000001 -1.7062123e+38
-0.019532312 -0.06601385 0.40000001 -1.7062123e+38
-0.018191472 -0.06584882 0.39900002 -1.7062129e+38
-0.017545465 -0.06584882 0.39900002 -1.7062129e+38
-0.016857106 -0.06568379 0.39800003 -1.7062129e+38
-0.015568334 -0.06568379 0.39800003 -1.7062129e+38
-0.014886449 -0.065518752 0.39700001 -1.7062129e+38
-0.014243682 -0.065518752 0.39700001 -1.7062129e+38
-0.012958148 -0.065518752 0.39700001 -1.7061612e+38
-0.01228436 -0.065353714 0.39600003 -1.7062133e+38
-0.011643212 -0.065353714 0.39600003 -1.7062129e+38
-0.010360916 -0.065353714 0.39600003 -1.7062129e+38
-0.0097197676 -0.065353714 0.39600003 -1.7062129e+38
-0.00907862 -0.065353714 0.39600003 -1.7062129e+38
-0.0077766357 -0.065188676 0.39500001 -1.7062129e+38
-0.0071371067 -0.065188676 0.39500001 -1.7062129e+38
-0.0064975778 -0.065188676 0.39500001 -1.7062129e+38
-0.0058580488 -0.065188676 0.39500001 -1.7062129e+38
-0.0045789909 -0.065188676 0.39500001 -1.7061608e+38
-0.0027210207 -0.066673994 0.40400001 -1.7055862e+38
-0.038128715 -0.066660166 0.41200003 -1.705951e+38
-0.0367053 -0.066498362 0.41100001 -1.705951e+38
-0.035952177 -0.066336572 0.41000003 -1.7060038e+38
-0.034624547 -0.066336572 0.41000003 -1.7060557e+38
-0.033877902 -0.066174775 0.40900001 -1.7060557e+38
-0.033215705 -0.066174775 0.40900001 -1.7060557e+38
-0.031813338 -0.066012971 0.40800002 -1.7061078e+38
-0.031152762 -0.066012971 0.40800002 -1.7061078e+38
-0.03041745 -0.065851182 0.40700001 -1.7060557e+38
-0.029099533 -0.065851182 0.40700001 -1.7061078e+38
-0.028370701 -0.065689385 0.40600002 -1.7061078e+38
-0.027713362 -0.065689385 0.40600002 -1.7061078e+38
-0.027056023 -0.065689385 0.40600002 -1.7060557e+38
-0.025741344 -0.065689385 0.40600002 -1.7061082e+38
-0.025084006 -0.065689385 0.40600002 -1.7061601e+38
-0.024426667 -0.065689385 0.40600002 -1.7062123e+38
-0.02311199 -0.065689385 0.40600002 -1.7061601e+38
-0.022399344 -0.065527588 0.40500003 -1.7062123e+38
-0.021636249 -0.065203995 0.40300003 -1.7062123e+38
-0.020280836 -0.065042198 0.40200001 -1.7061601e+38
-0.019581143 -0.064880401 0.40100002 -1.7062123e+38
-0.018237062 -0.064718604 0.40000001 -1.7062129e+38
-0.017589439 -0.064718604 0.40000001 -1.7062129e+38
-0.016899461 -0.064556807 0.39900002 -1.7062129e+38
-0.01560745 -0.064556807 0.39900002 -1.7062129e+38
-0.014923947 -0.064395018 0.39800003 -1.7062129e+38
-0.014243682 -0.064233214 0.39700001 -1.7062129e+38
-0.012958148 -0.064233214 0.39700001 -1.7061612e+38
-0.012315381 -0.064233214 0.39700001 -1.7062133e+38
-0.011643212 -0.064071417 0.39600003 -1.7062133e+38
-0.010360916 -0.064071417 0.39600003 -1.7062129e+38
-0.0097197676 -0.064071417 0.39600003 -1.7062129e+38
