# .PCD v0.7 - Point Cloud Data file format
VERSION 0.7
FIELDS x y z rgb
SIZE 4 4 4 4
TYPE F F F F
COUNT 1 1 1 1
WIDTH 920
HEIGHT 1
VIEWPOINT 0 0 0 1 0 0 0
POINTS 920
DATA ascii
-0.01025626 -0.072309636 0.39200002 -1.7064214e+38
-0.0096215876 -0.072309636 0.39200002 -1.7065778e+38
-0.0083522443 -0.072309636 0.39200002 -1.7065778e+38
-0.0077175726 -0.072309636 0.39200002 -1.7066822e+38
-0.0070829005 -0.072309636 0.39200002 -1.7067343e+38
-0.0064482293 -0.072309636 0.39200002 -1.7067343e+38
-0.0051788855 -0.072309636 0.39200002 -1.7066822e+38
-0.0045442139 -0.072309636 0.39200002 -1.7066822e+38
-0.0039195153 -0.072494097 0.39300001 -1.7066818e+38
-0.0026469335 -0.072494097 0.39300001 -1.7064725e+38
-0.042798083 -0.075331852 0.41200003 -2.0907986e+38
-0.042131033 -0.075331852 0.41200003 -2.0907986e+38
-0.041363336 -0.075149007 0.41100001 -1.7058983e+38
-0.039935067 -0.074966162 0.41000003 -1.7060557e+38
-0.039175466 -0.074783318 0.40900001 -1.7061078e+38
-0.037758529 -0.074600473 0.40800002 -1.7061078e+38
-0.037007026 -0.074417628 0.40700001 -1.7061604e+38
-0.036258765 -0.074234784 0.40600002 -1.7061604e+38
-0.034858018 -0.074051939 0.40500003 -1.7061082e+38
-0.034117848 -0.073869102 0.40400001 -1.7062123e+38
-0.033380914 -0.07368625 0.40300003 -1.7062123e+38
-0.032075953 -0.07368625 0.40300003 -1.7062644e+38
-0.031345498 -0.073503405 0.40200001 -1.7062123e+38
-0.029969037 -0.073320568 0.40100002 -1.7062123e+38
-0.029246675 -0.073137723 0.40000001 -1.7061601e+38
-0.028599052 -0.073137723 0.40000001 -1.7061608e+38
-0.027235543 -0.072954871 0.39900002 -1.7062129e+38
-0.026589537 -0.072954871 0.39900002 -1.7062129e+38
-0.025943534 -0.072954871 0.39900002 -1.7062129e+38
-0.025297528 -0.072954871 0.39900002 -1.7062129e+38
-0.023945354 -0.072772034 0.39800003 -1.7062129e+38
-0.023300968 -0.072772034 0.39800003 -1.7061608e+38
-0.02265658 -0.072772034 0.39800003 -1.7062129e+38
-0.02131412 -0.072589189 0.39700001 -1.7062129e+38
-0.020671353 -0.072589189 0.39700001 -1.7061608e+38
-0.019978136 -0.072406344 0.39600003 -1.7062129e+38
-0.018695841 -0.072406344 0.39600003 -1.7062129e+38
-0.0180091 -0.072223492 0.39500001 -1.706265e+38
-0.017369572 -0.072223492 0.39500001 -1.706265e+38
-0.016090514 -0.072223492 0.39500001 -1.7062648e+38
-0.015411868 -0.072040655 0.39400002 -1.7063169e+38
-0.014773957 -0.072040655 0.39400002 -1.7063169e+38
-0.013463878 -0.07185781 0.39300001 -1.7063173e+38
-0.012827587 -0.07185781 0.39300001 -1.7063173e+38
-0.012191297 -0.07185781 0.39300001 -1.7063695e+38
-0.010890932 -0.071674965 0.39200002 -1.7062652e+38
-0.01025626 -0.071674965 0.39200002 -1.7063173e+38
-0.0096215876 -0.071674965 0.39200002 -1.7064737e+38
-0.0083522443 -0.071674965 0.39200002 -1.7064737e+38
-0.0077175726 -0.071674965 0.39200002 -1.7065778e+38
-0.0070829005 -0.071674965 0.39200002 -1.7065778e+38
-0.0064482293 -0.071674965 0.39200002 -1.7065778e+38
-0.0051788855 -0.071674965 0.39200002 -1.7066818e+38
-0.0045442139 -0.071674965 0.39200002 -1.7066818e+38
-0.0039195153 -0.07185781 0.39300001 -1.7066297e+38
-0.0032915785 -0.072040655 0.39400002 -1.7064733e+38
-0.042798083 -0.074664794 0.41200003 -2.1439152e+38
-0.042131033 -0.074664794 0.41200003 -2.1172264e+38
-0.041363336 -0.074483573 0.41100001 -1.7191387e+38
-0.039935067 -0.074302353 0.41000003 -1.7060038e+38
-0.039175466 -0.074121125 0.40900001 -1.7193482e+38
-0.037758529 -0.073939897 0.40800002 -1.7061078e+38
-0.037007026 -0.073758677 0.40700001 -1.7061082e+38
-0.036348067 -0.073758677 0.40700001 -1.7061082e+38
-0.034944087 -0.073577449 0.40600002 -1.7061082e+38
-0.034202296 -0.073396221 0.40500003 -1.7062123e+38
-0.033463746 -0.073215 0.40400001 -1.7062123e+38
-0.032075953 -0.073033772 0.40300003 -1.7062123e+38
-0.031345498 -0.072852544 0.40200001 -1.7062123e+38
-0.030694634 -0.072852544 0.40200001 -1.7062123e+38
-0.029319793 -0.072671324 0.40100002 -1.7061601e+38
-0.028599052 -0.072490096 0.40000001 -1.7062129e+38
-0.027303802 -0.072490096 0.40000001 -1.7062129e+38
-0.026589537 -0.072308868 0.39900002 -1.7062129e+38
-0.025943534 -0.072308868 0.39900002 -1.7062129e+38
-0.025297528 -0.072308868 0.39900002 -1.7062129e+38
-0.024005517 -0.072308868 0.39900002 -1.7062129e+38
-0.023300968 -0.072127648 0.39800003 -1.7061608e+38
-0.02265658 -0.072127648 0.39800003 -1.7062129e+38
-0.02131412 -0.07194642 0.39700001 -1.7062129e+38
-0.020671353 -0.07194642 0.39700001 -1.7061612e+38
-0.019978136 -0.071765192 0.39600003 -1.7062133e+38
-0.018695841 -0.071765192 0.39600003 -1.7062133e+38
-0.018054692 -0.071765192 0.39600003 -1.706265e+38
-0.017369572 -0.071583964 0.39500001 -1.706265e+38
-0.016090514 -0.071583964 0.39500001 -1.7062129e+38
-0.015411868 -0.071402743 0.39400002 -1.7063169e+38
-0.014773957 -0.071402743 0.39400002 -1.7062648e+38
-0.013463878 -0.071221516 0.39300001 -1.7063173e+38
-0.012827587 -0.071221516 0.39300001 -1.7063173e+38
-0.012191297 -0.071221516 0.39300001 -1.7063173e+38
-0.010890932 -0.071040288 0.39200002 -1.7062652e+38
-0.01025626 -0.071040288 0.39200002 -1.7063173e+38
-0.0096215876 -0.071040288 0.39200002 -1.7063695e+38
-0.0083522443 -0.071040288 0.39200002 -1.7063695e+38
-0.0077175726 -0.071040288 0.39200002 -1.7063695e+38
-0.0070829005 -0.071040288 0.39200002 -1.7063695e+38
-0.0064482293 -0.071040288 0.39200002 -1.7065256e+38
-0.0051788855 -0.071040288 0.39200002 -1.7064214e+38
-0.0045442139 -0.071040288 0.39200002 -1.7064214e+38
-0.0039195153 -0.071221516 0.39300001 -1.7064214e+38
-0.0032915785 -0.071402743 0.39400002 -1.706265e+38
-0.042798083 -0.073997743 0.41200003 -2.2104285e+38
-0.042131033 -0.073997743 0.41200003 -2.1570509e+38
-0.041363336 -0.07381814 0.41100001 -1.7191387e+38
-0.039935067 -0.073638536 0.41000003 -1.7060038e+38
-0.039175466 -0.073458925 0.40900001 -1.7060038e+38
-0.037758529 -0.073279321 0.40800002 -1.7061082e+38
-0.037007026 -0.073099717 0.40700001 -1.7061082e+38
-0.036348067 -0.073099717 0.40700001 -1.7061082e+38
-0.034944087 -0.072920106 0.40600002 -1.7061082e+38
-0.034286749 -0.072920106 0.40600002 -1.7061604e+38
-0.033546578 -0.072740503 0.40500003 -1.7061604e+38
-0.032155547 -0.072560899 0.40400001 -1.7062123e+38
-0.031423472 -0.072381288 0.40300003 -1.7062123e+38
-0.030694634 -0.072201684 0.40200001 -1.7062644e+38
-0.029319793 -0.07202208 0.40100002 -1.7062123e+38
-0.028670549 -0.07202208 0.40100002 -1.7062129e+38
-0.027303802 -0.071842469 0.40000001 -1.7062129e+38
-0.026656179 -0.071842469 0.40000001 -1.7062129e+38
-0.025943534 -0.071662866 0.39900002 -1.7062129e+38
-0.025297528 -0.071662866 0.39900002 -1.7062129e+38
-0.024005517 -0.071662866 0.39900002 -1.7062129e+38
-0.023359513 -0.071662866 0.39900002 -1.7061608e+38
-0.02265658 -0.071483262 0.39800003 -1.7062129e+38
-0.021367809 -0.071483262 0.39800003 -1.7062129e+38
-0.020671353 -0.071303651 0.39700001 -1.7061612e+38
-0.020028586 -0.071303651 0.39700001 -1.7061612e+38
-0.018695841 -0.071124047 0.39600003 -1.7062133e+38
-0.018054692 -0.071124047 0.39600003 -1.7062129e+38
-0.017413544 -0.071124047 0.39600003 -1.7062129e+38
-0.016090514 -0.070944436 0.39500001 -1.7062129e+38
-0.015450984 -0.070944436 0.39500001 -1.706265e+38
-0.014773957 -0.070764832 0.39400002 -1.7062129e+38
-0.013498138 -0.070764832 0.39400002 -1.7062133e+38
-0.012827587 -0.070585229 0.39300001 -1.7062654e+38
-0.012191297 -0.070585229 0.39300001 -1.7062654e+38
-0.010918715 -0.070585229 0.39300001 -1.7062133e+38
-0.01025626 -0.070405617 0.39200002 -1.7063173e+38
-0.0096215876 -0.070405617 0.39200002 -1.7063173e+38
-0.0083522443 -0.070405617 0.39200002 -1.7063173e+38
-0.0077175726 -0.070405617 0.39200002 -1.7063173e+38
-0.0070829005 -0.070405617 0.39200002 -1.7063173e+38
-0.0064482293 -0.070405617 0.39200002 -1.7063695e+38
-0.0051788855 -0.070405617 0.39200002 -1.7063173e+38
-0.0045442139 -0.070405617 0.39200002 -1.7063173e+38
-0.0039195153 -0.070585229 0.39300001 -1.7062652e+38
-0.0032999329 -0.070944436 0.39500001 -1.7061088e+38
-0.041363336 -0.072487272 0.41100001 -1.7190865e+38
-0.039935067 -0.072310902 0.41000003 -1.7060038e+38
-0.039175466 -0.072134532 0.40900001 -1.7060038e+38
-0.037758529 -0.071958162 0.40800002 -1.7060042e+38
-0.037097953 -0.071958162 0.40800002 -1.7061082e+38
-0.036348067 -0.071781799 0.40700001 -1.7061082e+38
-0.035030153 -0.071781799 0.40700001 -1.7061082e+38
-0.034286749 -0.071605429 0.40600002 -1.7061082e+38
-0.03362941 -0.071605429 0.40600002 -1.7061082e+38
-0.032235138 -0.071429059 0.40500003 -1.7061604e+38
-0.031501446 -0.071252696 0.40400001 -1.7062123e+38
-0.030770989 -0.071076326 0.40300003 -1.7062123e+38
-0.029392909 -0.070899956 0.40200001 -1.7062123e+38
-0.028742047 -0.070899956 0.40200001 -1.7062644e+38
-0.028021306 -0.070723593 0.40100002 -1.7062644e+38
-0.026722819 -0.070723593 0.40100002 -1.7061608e+38
-0.026008554 -0.070547223 0.40000001 -1.7061608e+38
-0.025360929 -0.070547223 0.40000001 -1.7062129e+38
-0.024065681 -0.070547223 0.40000001 -1.7062129e+38
-0.023359513 -0.070370853 0.39900002 -1.7061608e+38
-0.022713508 -0.070370853 0.39900002 -1.7062129e+38
-0.021367809 -0.07019449 0.39800003 -1.7062129e+38
-0.020723423 -0.07019449 0.39800003 -1.7062133e+38
-0.020028586 -0.07001812 0.39700001 -1.7062133e+38
-0.018743051 -0.07001812 0.39700001 -1.7062133e+38
-0.018100284 -0.07001812 0.39700001 -1.7062133e+38
-0.017413544 -0.06984175 0.39600003 -1.7062133e+38
-0.016131248 -0.06984175 0.39600003 -1.7062133e+38
-0.015450984 -0.06966538 0.39500001 -1.7062133e+38
-0.014811455 -0.06966538 0.39500001 -1.7062133e+38
-0.013498138 -0.069489017 0.39400002 -1.7062133e+38
-0.012860228 -0.069489017 0.39400002 -1.7062133e+38
-0.012191297 -0.069312647 0.39300001 -1.7062133e+38
-0.010918715 -0.069312647 0.39300001 -1.7062133e+38
-0.010282424 -0.069312647 0.39300001 -1.7062133e+38
-0.0096461335 -0.069312647 0.39300001 -1.7062133e+38
-0.0083735511 -0.069312647 0.39300001 -1.7062133e+38
-0.0077175726 -0.069136277 0.39200002 -1.7062133e+38
-0.0070829005 -0.069136277 0.39200002 -1.7062133e+38
-0.0064482293 -0.069136277 0.39200002 -1.7062654e+38
-0.0051788855 -0.069136277 0.39200002 -1.7062133e+38
-0.0045558061 -0.069312647 0.39300001 -1.7061612e+38
-0.0039195153 -0.069312647 0.39300001 -1.7061608e+38
-0.0032999329 -0.06966538 0.39500001 -1.7059523e+38
-0.002020875 -0.06966538 0.39500001 -1.7053785e+38
-0.039935067 -0.071647093 0.41000003 -1.7058995e+38
-0.039175466 -0.071472339 0.40900001 -1.7060038e+38
-0.038513273 -0.071472339 0.40900001 -1.7060038e+38
-0.037097953 -0.071297586 0.40800002 -1.7061082e+38
-0.036437377 -0.071297586 0.40800002 -1.7061082e+38
-0.035030153 -0.07112284 0.40700001 -1.7061082e+38
-0.034371197 -0.07112284 0.40700001 -1.7061082e+38
-0.03362941 -0.070948094 0.40600002 -1.7061082e+38
-0.032235138 -0.070773341 0.40500003 -1.7061604e+38
-0.03157942 -0.070773341 0.40500003 -1.7062123e+38
-0.030847345 -0.070598595 0.40400001 -1.7062123e+38
-0.029466027 -0.070423849 0.40300003 -1.7062123e+38
-0.028742047 -0.070249096 0.40200001 -1.7062644e+38
-0.028091185 -0.070249096 0.40200001 -1.7062123e+38
-0.026722819 -0.07007435 0.40100002 -1.7061608e+38
-0.026073575 -0.07007435 0.40100002 -1.7061608e+38
-0.025424333 -0.07007435 0.40100002 -1.7062129e+38
-0.024065681 -0.069899596 0.40000001 -1.7062129e+38
-0.023418058 -0.069899596 0.40000001 -1.7061608e+38
-0.022713508 -0.06972485 0.39900002 -1.7062129e+38
-0.021421498 -0.06972485 0.39900002 -1.7062129e+38
-0.020723423 -0.069550104 0.39800003 -1.7062129e+38
-0.020079037 -0.069550104 0.39800003 -1.7062129e+38
-0.018743051 -0.069375351 0.39700001 -1.7062133e+38
-0.018100284 -0.069375351 0.39700001 -1.7062133e+38
-0.017457519 -0.069375351 0.39700001 -1.7062133e+38
-0.016131248 -0.069200598 0.39600003 -1.7062133e+38
-0.0154901 -0.069200598 0.39600003 -1.7062133e+38
-0.014811455 -0.069025852 0.39500001 -1.7062133e+38
-0.013532397 -0.069025852 0.39500001 -1.7062133e+38
-0.012860228 -0.068851106 0.39400002 -1.7062133e+38
-0.012222318 -0.068851106 0.39400002 -1.7062133e+38
-0.010918715 -0.068676353 0.39300001 -1.7062133e+38
-0.010282424 -0.068676353 0.39300001 -1.7062133e+38
-0.0096461335 -0.068676353 0.39300001 -1.7062133e+38
-0.0083735511 -0.068676353 0.39300001 -1.7062133e+38
-0.0077372603 -0.068676353 0.39300001 -1.7062133e+38
-0.0071009696 -0.068676353 0.39300001 -1.7062133e+38
-0.0064646788 -0.068676353 0.39300001 -1.7062654e+38
-0.0051920968 -0.068676353 0.39300001 -1.7062133e+38
-0.0045558061 -0.068676353 0.39300001 -1.7061612e+38
-0.0039294884 -0.068851106 0.39400002 -1.7061608e+38
-0.0032915785 -0.068851106 0.39400002 -1.7059523e+38
-0.04059888 -0.070983276 0.41000003 -1.7590151e+38
-0.039837662 -0.070810147 0.40900001 -1.7060553e+38
-0.039175466 -0.070810147 0.40900001 -1.7060553e+38
-0.038513273 -0.070810147 0.40900001 -1.7060038e+38
-0.037097953 -0.07063701 0.40800002 -1.7060038e+38
-0.036437377 -0.07063701 0.40800002 -1.7193482e+38
-0.035776801 -0.07063701 0.40800002 -1.7061082e+38
-0.034371197 -0.070463888 0.40700001 -1.7061082e+38
-0.033712238 -0.070463888 0.40700001 -1.7061082e+38
-0.032972071 -0.070290752 0.40600002 -1.7061082e+38
-0.031657394 -0.070290752 0.40600002 -1.7061604e+38
-0.0309237 -0.070117623 0.40500003 -1.7061604e+38
-0.029539144 -0.069944493 0.40400001 -1.7062123e+38
-0.028885042 -0.069944493 0.40400001 -1.7062123e+38
-0.028161064 -0.069771364 0.40300003 -1.7062123e+38
-0.02678946 -0.069598235 0.40200001 -1.7061608e+38
-0.026138598 -0.069598235 0.40200001 -1.7061608e+38
-0.025424333 -0.069425106 0.40100002 -1.7062129e+38
-0.024125846 -0.069425106 0.40100002 -1.7062129e+38
-0.023476603 -0.069425106 0.40100002 -1.7061608e+38
-0.022770433 -0.069251977 0.40000001 -1.7062129e+38
-0.021475185 -0.069251977 0.40000001 -1.7062129e+38
-0.020775491 -0.06907884 0.39900002 -1.7062129e+38
-0.020079037 -0.068905719 0.39800003 -1.7062129e+38
-0.018790264 -0.068905719 0.39800003 -1.7062133e+38
-0.018100284 -0.068732582 0.39700001 -1.7062133e+38
-0.017457519 -0.068732582 0.39700001 -1.7062133e+38
-0.016171984 -0.068732582 0.39700001 -1.7062133e+38
-0.0154901 -0.068559453 0.39600003 -1.7062133e+38
-0.014848951 -0.068559453 0.39600003 -1.7062133e+38
-0.013532397 -0.068386324 0.39500001 -1.7062133e+38
-0.012892867 -0.068386324 0.39500001 -1.7062654e+38
-0.012222318 -0.068213195 0.39400002 -1.7062133e+38
-0.010946498 -0.068213195 0.39400002 -1.7062133e+38
-0.010282424 -0.068040065 0.39300001 -1.7062133e+38
-0.0096461335 -0.068040065 0.39300001 -1.7061612e+38
-0.0083735511 -0.068040065 0.39300001 -1.7062133e+38
-0.0077372603 -0.068040065 0.39300001 -1.7062133e+38
-0.0071009696 -0.068040065 0.39300001 -1.7062133e+38
-0.0064646788 -0.068040065 0.39300001 -1.7062133e+38
-0.0051920968 -0.068040065 0.39300001 -1.7061612e+38
-0.0045558061 -0.068040065 0.39300001 -1.7061612e+38
-0.0039294884 -0.068213195 0.39400002 -1.7061086e+38
-0.0032915785 -0.068213195 0.39400002 -1.7059523e+38
-0.040499859 -0.069485754 0.40900001 -1.7855473e+38
-0.039837662 -0.069485754 0.40900001 -1.705951e+38
-0.039175466 -0.069485754 0.40900001 -1.705951e+38
-0.038513273 -0.069485754 0.40900001 -1.705951e+38
-0.03718888 -0.069485754 0.40900001 -1.7060553e+38
-0.036526684 -0.069485754 0.40900001 -1.7060553e+38
-0.035776801 -0.069315858 0.40800002 -1.7061072e+38
-0.034455646 -0.069315858 0.40800002 -1.7061593e+38
-0.033712238 -0.06914597 0.40700001 -1.7061593e+38
-0.033053279 -0.06914597 0.40700001 -1.7061078e+38
-0.031657394 -0.068976074 0.40600002 -1.7061599e+38
-0.031000055 -0.068976074 0.40600002 -1.7061599e+38
-0.030342717 -0.068976074 0.40600002 -1.7061599e+38
-0.028956542 -0.068806186 0.40500003 -1.7062123e+38
-0.028300822 -0.068806186 0.40500003 -1.7062123e+38
-0.027576841 -0.068636298 0.40400001 -1.7061608e+38
-0.026203619 -0.068466403 0.40300003 -1.7061608e+38
-0.025487736 -0.068296507 0.40200001 -1.7061608e+38
-0.024836872 -0.068296507 0.40200001 -1.7062129e+38
-0.023476603 -0.068126619 0.40100002 -1.7061608e+38
-0.022827359 -0.068126619 0.40100002 -1.7062129e+38
-0.021475185 -0.067956723 0.40000001 -1.7061608e+38
-0.02082756 -0.067956723 0.40000001 -1.7061608e+38
-0.020129487 -0.067786835 0.39900002 -1.7061608e+38
-0.019483481 -0.067786835 0.39900002 -1.7062129e+38
-0.018145878 -0.067616947 0.39800003 -1.7062129e+38
-0.017501492 -0.067616947 0.39800003 -1.7062129e+38
-0.016171984 -0.067447051 0.39700001 -1.7062133e+38
-0.015529216 -0.067447051 0.39700001 -1.7062133e+38
-0.014848951 -0.067277156 0.39600003 -1.7062133e+38
-0.014207804 -0.067277156 0.39600003 -1.7062133e+38
-0.012892867 -0.06710726 0.39500001 -1.7062133e+38
-0.012253338 -0.06710726 0.39500001 -1.7062133e+38
-0.010946498 -0.06693738 0.39400002 -1.7062133e+38
-0.010308588 -0.06693738 0.39400002 -1.7062133e+38
-0.0096706785 -0.06693738 0.39400002 -1.7062133e+38
-0.0083735511 -0.066767484 0.39300001 -1.7062133e+38
-0.0077372603 -0.066767484 0.39300001 -1.7062133e+38
-0.0071009696 -0.066767484 0.39300001 -1.7062133e+38
-0.0064646788 -0.066767484 0.39300001 -1.7062133e+38
-0.0051920968 -0.066767484 0.39300001 -1.7061612e+38
-0.0045673982 -0.06693738 0.39400002 -1.7061612e+38
-0.0039294884 -0.06693738 0.39400002 -1.7061086e+38
-0.0032915785 -0.06693738 0.39400002 -1.7059001e+38
-0.040400837 -0.068655282 0.40800002 -1.7987877e+38
-0.039837662 -0.068823554 0.40900001 -1.7059506e+38
-0.03927125 -0.068991832 0.41000003 -1.7059506e+38
-0.038607437 -0.068991832 0.41000003 -1.705951e+38
-0.037279807 -0.068991832 0.41000003 -1.7060553e+38
-0.036526684 -0.068823554 0.40900001 -1.7060553e+38
-0.035864487 -0.068823554 0.40900001 -1.7061072e+38
-0.034540098 -0.068823554 0.40900001 -1.7061593e+38
-0.03379507 -0.068655282 0.40800002 -1.7061593e+38
-0.033134494 -0.068655282 0.40800002 -1.7061593e+38
-0.031735364 -0.068487011 0.40700001 -1.7061593e+38
-0.031076407 -0.068487011 0.40700001 -1.7061593e+38
-0.030342717 -0.06831874 0.40600002 -1.7061078e+38
-0.029028039 -0.06831874 0.40600002 -1.7062123e+38
-0.028300822 -0.068150461 0.40500003 -1.7062123e+38
-0.027645102 -0.068150461 0.40500003 -1.7062123e+38
-0.026268641 -0.067982197 0.40400001 -1.7061608e+38
-0.025551138 -0.067813918 0.40300003 -1.7061608e+38
-0.024898656 -0.067813918 0.40300003 -1.7061608e+38
-0.023535147 -0.067645647 0.40200001 -1.7061608e+38
-0.022884285 -0.067645647 0.40200001 -1.7062129e+38
-0.022178115 -0.067477375 0.40100002 -1.7061608e+38
-0.02082756 -0.067309104 0.40000001 -1.7061608e+38
-0.020179935 -0.067309104 0.40000001 -1.7061086e+38
-0.019483481 -0.067140825 0.39900002 -1.7062129e+38
-0.018191472 -0.067140825 0.39900002 -1.7062129e+38
-0.017501492 -0.066972561 0.39800003 -1.7062129e+38
-0.016857106 -0.066972561 0.39800003 -1.7062129e+38
-0.015529216 -0.066804282 0.39700001 -1.7062129e+38
-0.014886449 -0.066804282 0.39700001 -1.7062129e+38
-0.014207804 -0.066636011 0.39600003 -1.7062129e+38
-0.012925508 -0.066636011 0.39600003 -1.7062129e+38
-0.012253338 -0.066467732 0.39500001 -1.7062129e+38
-0.010946498 -0.066299468 0.39400002 -1.7062133e+38
-0.010308588 -0.066299468 0.39400002 -1.7062133e+38
-0.0096706785 -0.066299468 0.39400002 -1.7062133e+38
-0.0090327682 -0.066299468 0.39400002 -1.7062133e+38
-0.0077569485 -0.066299468 0.39400002 -1.7062133e+38
-0.0071190386 -0.066299468 0.39400002 -1.7062133e+38
-0.0064811283 -0.066299468 0.39400002 -1.7062133e+38
-0.0052053086 -0.066299468 0.39400002 -1.7061612e+38
-0.0045673982 -0.066299468 0.39400002 -1.7061612e+38
-0.0039294884 -0.066299468 0.39400002 -1.7061086e+38
-0.0032915785 -0.066299468 0.39400002 -1.7059523e+38
-0.039935067 -0.068328016 0.41000003 -1.7058987e+38
-0.03927125 -0.068328016 0.41000003 -1.7058987e+38
-0.038607437 -0.068328016 0.41000003 -1.705951e+38
-0.037279807 -0.068328016 0.41000003 -1.7060553e+38
-0.03661599 -0.068328016 0.41000003 -1.7060553e+38
-0.035864487 -0.068161361 0.40900001 -1.7060553e+38
-0.034540098 -0.068161361 0.40900001 -1.7061078e+38
-0.033877902 -0.068161361 0.40900001 -1.7060557e+38
-0.033134494 -0.067994706 0.40800002 -1.7061078e+38
-0.031813338 -0.067994706 0.40800002 -1.7061078e+38
-0.031076407 -0.067828052 0.40700001 -1.7061078e+38
-0.03041745 -0.067828052 0.40700001 -1.7061078e+38
-0.029028039 -0.067661397 0.40600002 -1.7061604e+38
-0.028370701 -0.067661397 0.40600002 -1.7061082e+38
-0.027645102 -0.067494743 0.40500003 -1.7062123e+38
-0.026333662 -0.067494743 0.40500003 -1.7062123e+38
-0.025614541 -0.067328095 0.40400001 -1.7062123e+38
-0.024898656 -0.067161441 0.40300003 -1.7062123e+38
-0.023593694 -0.067161441 0.40300003 -1.7061608e+38
-0.022884285 -0.066994786 0.40200001 -1.7062129e+38
-0.022233423 -0.066994786 0.40200001 -1.7061608e+38
-0.020879628 -0.066828132 0.40100002 -1.7061608e+38
-0.020230386 -0.066828132 0.40100002 -1.7061086e+38
-0.019532312 -0.066661477 0.40000001 -1.7061608e+38
-0.018191472 -0.066494823 0.39900002 -1.7061608e+38
-0.017545465 -0.066494823 0.39900002 -1.7062129e+38
-0.016857106 -0.066328175 0.39800003 -1.7062129e+38
-0.015568334 -0.066328175 0.39800003 -1.7062129e+38
-0.014886449 -0.066161513 0.39700001 -1.7062129e+38
-0.014243682 -0.066161513 0.39700001 -1.7061608e+38
-0.012925508 -0.065994859 0.39600003 -1.7062129e+38
-0.01228436 -0.065994859 0.39600003 -1.7061608e+38
-0.01161381 -0.065828204 0.39500001 -1.7062129e+38
-0.010334752 -0.065828204 0.39500001 -1.7062133e+38
-0.0096706785 -0.065661557 0.39400002 -1.7062133e+38
-0.0090327682 -0.065661557 0.39400002 -1.7062133e+38
-0.0077569485 -0.065661557 0.39400002 -1.7062133e+38
-0.0071190386 -0.065661557 0.39400002 -1.7062133e+38
-0.0064811283 -0.065661557 0.39400002 -1.7062133e+38
-0.0052053086 -0.065661557 0.39400002 -1.7061612e+38
-0.0045673982 -0.065661557 0.39400002 -1.7061612e+38
-0.0039294884 -0.065661557 0.39400002 -1.7061086e+38
-0.0033082871 -0.065994859 0.39600003 -1.7059001e+38
-0.03946282 -0.067994267 0.41200003 -1.7058987e+38
-0.038701601 -0.067829229 0.41100001 -1.705951e+38
-0.037370734 -0.067829229 0.41100001 -1.705951e+38
-0.03661599 -0.067664199 0.41000003 -1.7060553e+38
-0.035952177 -0.067664199 0.41000003 -1.7060553e+38
-0.034624547 -0.067664199 0.41000003 -1.7060557e+38
-0.033877902 -0.067499168 0.40900001 -1.7060557e+38
-0.033215705 -0.067499168 0.40900001 -1.7060557e+38
-0.031813338 -0.06733413 0.40800002 -1.7060557e+38
-0.031152762 -0.06733413 0.40800002 -1.7060557e+38
-0.03041745 -0.0671691 0.40700001 -1.7060557e+38
-0.029099533 -0.0671691 0.40700001 -1.7061082e+38
-0.028370701 -0.067004062 0.40600002 -1.7061082e+38
-0.027713362 -0.067004062 0.40600002 -1.7061601e+38
-0.026333662 -0.066839024 0.40500003 -1.7062123e+38
-0.025677942 -0.066839024 0.40500003 -1.7062123e+38
-0.02496044 -0.066673994 0.40400001 -1.7062123e+38
-0.023593694 -0.066508956 0.40300003 -1.7062123e+38
-0.022941211 -0.066508956 0.40300003 -1.7062644e+38
-0.022233423 -0.066343918 0.40200001 -1.7062123e+38
-0.020931698 -0.066343918 0.40200001 -1.7062123e+38
-0.020230386 -0.066178888 0.40100002 -1.7061601e+38
-0.019581143 -0.066178888 0.40100002 -1.7062123e+38
-0.018237062 -0.06601385 0.40000001 -1.7062129e+38
-0.017589439 -0.06601385 0.40000001 -1.7062129e+38
-0.016899461 -0.06584882 0.39900002 -1.7062129e+38
-0.01560745 -0.06584882 0.39900002 -1.7062129e+38
-0.014923947 -0.06568379 0.39800003 -1.7062129e+38
-0.014279561 -0.06568379 0.39800003 -1.7062129e+38
-0.012958148 -0.065518752 0.39700001 -1.7062129e+38
-0.01228436 -0.065353714 0.39600003 -1.7062129e+38
-0.011643212 -0.065353714 0.39600003 -1.7062129e+38
-0.010334752 -0.065188676 0.39500001 -1.7062133e+38
-0.0096952226 -0.065188676 0.39500001 -1.7061612e+38
-0.0090556936 -0.065188676 0.39500001 -1.7062133e+38
-0.0077766357 -0.065188676 0.39500001 -1.7062133e+38
-0.0071190386 -0.065023646 0.39400002 -1.7062133e+38
-0.0064811283 -0.065023646 0.39400002 -1.7062133e+38
-0.0052053086 -0.065023646 0.39400002 -1.7061612e+38
-0.0045673982 -0.065023646 0.39400002 -1.7061612e+38
-0.0039294884 -0.065023646 0.39400002 -1.7061086e+38
-0.039558604 -0.066821963 0.41300002 -1.7058983e+38
-0.038795765 -0.066660166 0.41200003 -1.7058987e+38
-0.038128715 -0.066660166 0.41200003 -1.7058987e+38
-0.0367053 -0.066498362 0.41100001 -1.7060553e+38
-0.036039867 -0.066498362 0.41100001 -1.705951e+38
-0.034624547 -0.066336572 0.41000003 -1.705951e+38
-0.033960734 -0.066336572 0.41000003 -1.705951e+38
-0.033215705 -0.066174775 0.40900001 -1.7060557e+38
-0.032553509 -0.066174775 0.40900001 -1.7060557e+38
-0.031152762 -0.066012971 0.40800002 -1.7060557e+38
-0.03041745 -0.065851182 0.40700001 -1.7060557e+38
-0.029099533 -0.065851182 0.40700001 -1.7060557e+38
-0.028370701 -0.065689385 0.40600002 -1.7060557e+38
-0.027713362 -0.065689385 0.40600002 -1.7061078e+38
-0.026333662 -0.065527588 0.40500003 -1.7061597e+38
-0.025677942 -0.065527588 0.40500003 -1.7061597e+38
-0.02496044 -0.065365791 0.40400001 -1.7061597e+38
-0.023652239 -0.065365791 0.40400001 -1.7061597e+38
-0.022941211 -0.065203995 0.40300003 -1.7062119e+38
-0.02228873 -0.065203995 0.40300003 -1.7062119e+38
-0.020931698 -0.065042198 0.40200001 -1.7062123e+38
-0.020280836 -0.065042198 0.40200001 -1.7061601e+38
-0.019581143 -0.064880401 0.40100002 -1.7061601e+38
-0.018282656 -0.064880401 0.40100002 -1.7062123e+38
-0.017589439 -0.064718604 0.40000001 -1.7062644e+38
-0.016941814 -0.064718604 0.40000001 -1.7062129e+38
-0.01560745 -0.064556807 0.39900002 -1.7062129e+38
-0.014961445 -0.064556807 0.39900002 -1.7062129e+38
-0.014279561 -0.064395018 0.39800003 -1.7062129e+38
-0.012990789 -0.064395018 0.39800003 -1.7062129e+38
-0.012315381 -0.064233214 0.39700001 -1.7062129e+38
-0.011672614 -0.064233214 0.39700001 -1.7062129e+38
-0.010360916 -0.064071417 0.39600003 -1.7061612e+38
-0.0097197676 -0.064071417 0.39600003 -1.7062133e+38
-0.00907862 -0.064071417 0.39600003 -1.7062133e+38
-0.0077766357 -0.06390962 0.39500001 -1.7062133e+38
-0.0071371067 -0.06390962 0.39500001 -1.7062133e+38
-0.0064975778 -0.06390962 0.39500001 -1.7062133e+38
-0.0058580488 -0.06390962 0.39500001 -1.7062133e+38
-0.0045789909 -0.06390962 0.39500001 -1.7061612e+38
-0.0039394619 -0.06390962 0.39500001 -1.7061086e+38
-0.038984098 -0.06631346 0.41400003 -1.7058987e+38
-0.038221259 -0.066153288 0.41300002 -1.7058987e+38
-0.036794607 -0.065993108 0.41200003 -1.7060549e+38
-0.036127552 -0.065993108 0.41200003 -1.7059506e+38
-0.035374433 -0.065832928 0.41100001 -1.7059506e+38
-0.033960734 -0.065672755 0.41000003 -1.705951e+38
-0.033215705 -0.065512575 0.40900001 -1.7060553e+38
-0.032553509 -0.065512575 0.40900001 -1.7060553e+38
-0.031152762 -0.065352395 0.40800002 -1.7061072e+38
-0.030492185 -0.065352395 0.40800002 -1.7060557e+38
-0.029099533 -0.065192223 0.40700001 -1.7060557e+38
-0.028440576 -0.065192223 0.40700001 -1.7060557e+38
-0.027713362 -0.065032043 0.40600002 -1.7061078e+38
-0.027056023 -0.065032043 0.40600002 -1.7060557e+38
-0.025677942 -0.064871863 0.40500003 -1.7061078e+38
-0.02496044 -0.06471169 0.40400001 -1.7061078e+38
-0.023652239 -0.06471169 0.40400001 -1.7061078e+38
-0.022998137 -0.06471169 0.40400001 -1.7061078e+38
-0.02228873 -0.06455151 0.40300003 -1.7061597e+38
-0.021636249 -0.06455151 0.40300003 -1.7061597e+38
-0.020280836 -0.064391337 0.40200001 -1.7061597e+38
-0.019629974 -0.064391337 0.40200001 -1.7061601e+38
-0.018282656 -0.064231157 0.40100002 -1.7062123e+38
-0.017633412 -0.064231157 0.40100002 -1.7062644e+38
-0.016941814 -0.064070985 0.40000001 -1.7062644e+38
-0.015646566 -0.064070985 0.40000001 -1.7062644e+38
-0.014961445 -0.063910805 0.39900002 -1.7062644e+38
-0.014315439 -0.063910805 0.39900002 -1.7062129e+38
-0.012990789 -0.063750632 0.39800003 -1.7062129e+38
-0.012346403 -0.063750632 0.39800003 -1.7062129e+38
-0.011672614 -0.063590452 0.39700001 -1.7062129e+38
-0.01038708 -0.063590452 0.39700001 -1.7062129e+38
-0.0097443126 -0.063590452 0.39700001 -1.7062129e+38
-0.00907862 -0.063430272 0.39600003 -1.7062129e+38
-0.0084374715 -0.063430272 0.39600003 -1.7062129e+38
-0.0071551758 -0.063430272 0.39600003 -1.7062129e+38
-0.0064975778 -0.063270092 0.39500001 -1.7062129e+38
-0.0058580488 -0.063270092 0.39500001 -1.7062129e+38
-0.0045789909 -0.063270092 0.39500001 -1.7061608e+38
-0.0039494354 -0.063430272 0.39600003 -1.7061601e+38
-0.039078262 -0.065801732 0.41500002 -1.7058987e+38
-0.038221259 -0.065484621 0.41300002 -1.7058987e+38
-0.036883913 -0.065484621 0.41300002 -1.7058987e+38
-0.036127552 -0.065326057 0.41200003 -1.7059506e+38
-0.035460502 -0.065326057 0.41200003 -1.7059506e+38
-0.034043565 -0.065167494 0.41100001 -1.705951e+38
-0.033296917 -0.065008938 0.41000003 -1.7060553e+38
-0.032553509 -0.064850383 0.40900001 -1.7060553e+38
-0.031229118 -0.064850383 0.40900001 -1.7061072e+38
-0.030492185 -0.064691819 0.40800002 -1.7060557e+38
-0.029831609 -0.064691819 0.40800002 -1.7061078e+38
-0.028440576 -0.064533263 0.40700001 -1.7060557e+38
-0.027713362 -0.064374708 0.40600002 -1.7060557e+38
-0.027056023 -0.064374708 0.40600002 -1.7060557e+38
-0.025677942 -0.064216144 0.40500003 -1.7060557e+38
-0.025022222 -0.064216144 0.40500003 -1.7060557e+38
-0.023652239 -0.064057589 0.40400001 -1.7060557e+38
-0.022998137 -0.064057589 0.40400001 -1.7061078e+38
-0.02228873 -0.063899033 0.40300003 -1.7061078e+38
-0.021636249 -0.063899033 0.40300003 -1.7061078e+38
-0.020331286 -0.063899033 0.40300003 -1.7060557e+38
-0.019629974 -0.06374047 0.40200001 -1.7061597e+38
-0.018979112 -0.06374047 0.40200001 -1.7062119e+38
-0.017633412 -0.063581914 0.40100002 -1.7062123e+38
-0.016984168 -0.063581914 0.40100002 -1.7062644e+38
-0.015646566 -0.063423358 0.40000001 -1.7062123e+38
-0.014998941 -0.063423358 0.40000001 -1.7062123e+38
-0.014351317 -0.063423358 0.40000001 -1.7061608e+38
-0.013669434 -0.063264795 0.39900002 -1.7061608e+38
-0.012377423 -0.063264795 0.39900002 -1.7062129e+38
-0.011702016 -0.063106239 0.39800003 -1.7062129e+38
-0.01105763 -0.063106239 0.39800003 -1.7062129e+38
-0.0097443126 -0.062947683 0.39700001 -1.7062129e+38
-0.0091015454 -0.062947683 0.39700001 -1.7062129e+38
-0.0084587783 -0.062947683 0.39700001 -1.7062129e+38
-0.0071551758 -0.06278912 0.39600003 -1.7062129e+38
-0.0065140277 -0.06278912 0.39600003 -1.7062129e+38
-0.0058728796 -0.06278912 0.39600003 -1.7062129e+38
-0.0045905835 -0.06278912 0.39600003 -1.7061608e+38
-0.003969382 -0.063106239 0.39800003 -1.706108e+38
-0.039078262 -0.064457908 0.41500002 -1.7058987e+38
-0.038313806 -0.064302586 0.41400003 -1.7058987e+38
-0.036883913 -0.064147271 0.41300002 -1.7058987e+38
-0.036215242 -0.064147271 0.41300002 -1.7058987e+38
-0.035460502 -0.063991949 0.41200003 -1.7058987e+38
-0.034126393 -0.063991949 0.41200003 -1.705951e+38
-0.033378128 -0.063836627 0.41100001 -1.7060553e+38
-0.032633103 -0.063681312 0.41000003 -1.7060553e+38
-0.031229118 -0.06352599 0.40900001 -1.705951e+38
-0.030566921 -0.06352599 0.40900001 -1.7060557e+38
-0.029831609 -0.063370667 0.40800002 -1.7060557e+38
-0.028440576 -0.063215353 0.40700001 -1.7060557e+38
-0.027713362 -0.06306003 0.40600002 -1.7060557e+38
-0.027056023 -0.06306003 0.40600002 -1.7060557e+38
-0.025677942 -0.062904708 0.40500003 -1.7060557e+38
-0.025022222 -0.062904708 0.40500003 -1.7060557e+38
-0.023652239 -0.062749393 0.40400001 -1.7060557e+38
-0.022998137 -0.062749393 0.40400001 -1.7061078e+38
-0.022344038 -0.062749393 0.40400001 -1.7060557e+38
-0.021636249 -0.062594071 0.40300003 -1.7060557e+38
-0.020331286 -0.062594071 0.40300003 -1.7060557e+38
-0.019629974 -0.062438745 0.40200001 -1.7061078e+38
-0.018979112 -0.062438745 0.40200001 -1.7061078e+38
-0.017677385 -0.062438745 0.40200001 -1.7062119e+38
-0.016984168 -0.06228343 0.40100002 -1.7062123e+38
-0.016334925 -0.06228343 0.40100002 -1.7062123e+38
-0.014998941 -0.062128108 0.40000001 -1.7062123e+38
-0.014351317 -0.062128108 0.40000001 -1.7062123e+38
-0.013703693 -0.062128108 0.40000001 -1.7062123e+38
-0.012377423 -0.061972786 0.39900002 -1.7062644e+38
-0.011731418 -0.061972786 0.39900002 -1.7062644e+38
-0.01105763 -0.061817471 0.39800003 -1.7062644e+38
-0.0097688576 -0.061817471 0.39800003 -1.7062129e+38
-0.0091244718 -0.061817471 0.39800003 -1.7062129e+38
-0.0084587783 -0.061662149 0.39700001 -1.7062129e+38
-0.0071732439 -0.061662149 0.39700001 -1.7061608e+38
-0.0065304772 -0.061662149 0.39700001 -1.7061608e+38
-0.00588771 -0.061662149 0.39700001 -1.7062129e+38
-0.0052581546 -0.061817471 0.39800003 -1.7061608e+38
-0.0039793551 -0.061972786 0.39900002 -1.706108e+38
-0.003366767 -0.062594071 0.40300003 -1.7059516e+38
-0.039172422 -0.063939705 0.41600001 -1.7058987e+38
-0.038313806 -0.063632295 0.41400003 -1.7058987e+38
-0.036973223 -0.063632295 0.41400003 -1.7058987e+38
-0.036215242 -0.063478604 0.41300002 -1.705951e+38
-0.035546571 -0.063478604 0.41300002 -1.705951e+38
-0.034126393 -0.063324898 0.41200003 -1.705951e+38
-0.033459343 -0.063324898 0.41200003 -1.7060553e+38
-0.032712694 -0.063171193 0.41100001 -1.7060553e+38
-0.031305473 -0.063017495 0.41000003 -1.705951e+38
-0.030566921 -0.062863797 0.40900001 -1.7060038e+38
-0.029831609 -0.062710091 0.40800002 -1.7060038e+38
-0.028440576 -0.062556393 0.40700001 -1.7060557e+38
-0.027781619 -0.062556393 0.40700001 -1.7060557e+38
-0.027056023 -0.062402692 0.40600002 -1.7060557e+38
-0.025677942 -0.062248986 0.40500003 -1.7061078e+38
-0.025022222 -0.062248986 0.40500003 -1.7060557e+38
-0.024366502 -0.062248986 0.40500003 -1.7060557e+38
-0.022998137 -0.062095292 0.40400001 -1.7060557e+38
-0.022344038 -0.062095292 0.40400001 -1.7060557e+38
-0.021689937 -0.062095292 0.40400001 -1.7060557e+38
-0.020331286 -0.061941586 0.40300003 -1.7060557e+38
-0.019678805 -0.061941586 0.40300003 -1.7061078e+38
-0.018979112 -0.061787885 0.40200001 -1.7061078e+38
-0.017677385 -0.061787885 0.40200001 -1.7061078e+38
-0.017026523 -0.061787885 0.40200001 -1.7062119e+38
-0.016334925 -0.061634187 0.40100002 -1.7062119e+38
-0.015036439 -0.061634187 0.40100002 -1.7062123e+38
-0.014351317 -0.061480485 0.40000001 -1.7062123e+38
-0.013703693 -0.061480485 0.40000001 -1.7062123e+38
-0.012408445 -0.061480485 0.40000001 -1.7062123e+38
-0.011731418 -0.061326779 0.39900002 -1.7062123e+38
-0.011085412 -0.061326779 0.39900002 -1.7062644e+38
-0.0097934017 -0.061326779 0.39900002 -1.7062644e+38
-0.0091244718 -0.061173085 0.39800003 -1.7062129e+38
-0.0084800851 -0.061173085 0.39800003 -1.7062129e+38
-0.007191313 -0.061173085 0.39800003 -1.7061608e+38
-0.0065469267 -0.061173085 0.39800003 -1.7061608e+38
-0.0059025404 -0.061173085 0.39800003 -1.7062129e+38
-0.0052713659 -0.061326779 0.39900002 -1.7061608e+38
-0.0046485453 -0.061634187 0.40100002 -1.7061086e+38
-0.003366767 -0.061941586 0.40300003 -1.7059516e+38
-0.039172422 -0.063266173 0.41600001 -1.7058987e+38
-0.038313806 -0.062962011 0.41400003 -1.7058987e+38
-0.036973223 -0.062962011 0.41400003 -1.7058987e+38
-0.036215242 -0.062809929 0.41300002 -1.705951e+38
-0.035546571 -0.062809929 0.41300002 -1.7060553e+38
-0.034209225 -0.062809929 0.41300002 -1.705951e+38
-0.033459343 -0.062657848 0.41200003 -1.705951e+38
-0.032792289 -0.062657848 0.41200003 -1.7060553e+38
-0.031381827 -0.062505759 0.41100001 -1.705951e+38
-0.030641658 -0.062353682 0.41000003 -1.7060553e+38
-0.029904725 -0.062201597 0.40900001 -1.7060553e+38
-0.028510455 -0.062049516 0.40800002 -1.7061072e+38
-0.027781619 -0.061897438 0.40700001 -1.7061072e+38
-0.027122661 -0.061897438 0.40700001 -1.7061072e+38
-0.025741344 -0.061745353 0.40600002 -1.7061593e+38
-0.025022222 -0.061593268 0.40500003 -1.7061072e+38
-0.024366502 -0.061593268 0.40500003 -1.7061072e+38
-0.022998137 -0.061441191 0.40400001 -1.7061072e+38
-0.022344038 -0.061441191 0.40400001 -1.7060557e+38
-0.021689937 -0.061441191 0.40400001 -1.7060557e+38
-0.020331286 -0.061289106 0.40300003 -1.7060557e+38
-0.019678805 -0.061289106 0.40300003 -1.7060557e+38
-0.019026322 -0.061289106 0.40300003 -1.7061078e+38
-0.017677385 -0.061137021 0.40200001 -1.7061078e+38
-0.017026523 -0.061137021 0.40200001 -1.7061597e+38
-0.016375661 -0.061137021 0.40200001 -1.7062119e+38
-0.015036439 -0.060984943 0.40100002 -1.7062123e+38
-0.014387195 -0.060984943 0.40100002 -1.7062123e+38
-0.013703693 -0.060832862 0.40000001 -1.7062123e+38
-0.012408445 -0.060832862 0.40000001 -1.7062123e+38
-0.01176082 -0.060832862 0.40000001 -1.7062123e+38
-0.011085412 -0.060680777 0.39900002 -1.7062644e+38
-0.0097934017 -0.060680777 0.39900002 -1.7062123e+38
-0.0091473972 -0.060680777 0.39900002 -1.7061608e+38
-0.0085013919 -0.060680777 0.39900002 -1.7062129e+38
-0.0078553865 -0.060680777 0.39900002 -1.7062129e+38
-0.0065633762 -0.060680777 0.39900002 -1.7061608e+38
-0.0059173708 -0.060680777 0.39900002 -1.7062129e+38
-0.0052713659 -0.060680777 0.39900002 -1.7061608e+38
-0.0046485453 -0.060984943 0.40100002 -1.7061086e+38
-0.0033584128 -0.061137021 0.40200001 -1.7059512e+38
-0.0027142856 -0.061289106 0.40300003 -1.7054815e+38
-0.03840635 -0.06244218 0.41500002 -1.7058983e+38
-0.036973223 -0.062291715 0.41400003 -1.7058987e+38
-0.036302932 -0.062291715 0.41400003 -1.7060553e+38
-0.03563264 -0.062291715 0.41400003 -1.705951e+38
-0.034209225 -0.062141258 0.41300002 -1.705951e+38
-0.033540554 -0.062141258 0.41300002 -1.705951e+38
-0.032792289 -0.06199079 0.41200003 -1.7060553e+38
-0.032125235 -0.06199079 0.41200003 -1.705951e+38
-0.030716393 -0.061840326 0.41100001 -1.7060553e+38
-0.029977843 -0.061689869 0.41000003 -1.7060553e+38
-0.028580334 -0.061539404 0.40900001 -1.7060553e+38
-0.027849879 -0.061388936 0.40800002 -1.7061072e+38
-0.027189301 -0.061388936 0.40800002 -1.7061072e+38
-0.025804747 -0.061238479 0.40700001 -1.7061593e+38
-0.025084006 -0.061088014 0.40600002 -1.7061072e+38
-0.024366502 -0.06093755 0.40500003 -1.7061072e+38
-0.023055064 -0.06093755 0.40500003 -1.7061072e+38
-0.022344038 -0.060787089 0.40400001 -1.7061078e+38
-0.021689937 -0.060787089 0.40400001 -1.7060557e+38
-0.020381736 -0.060787089 0.40400001 -1.7060557e+38
-0.019678805 -0.060636625 0.40300003 -1.7060557e+38
-0.019026322 -0.060636625 0.40300003 -1.7061078e+38
-0.017721361 -0.060636625 0.40300003 -1.7061078e+38
-0.017026523 -0.06048616 0.40200001 -1.7061078e+38
-0.016375661 -0.06048616 0.40200001 -1.7061078e+38
-0.015036439 -0.060335699 0.40100002 -1.7061601e+38
-0.014387195 -0.060335699 0.40100002 -1.7061601e+38
-0.013737951 -0.060335699 0.40100002 -1.7061601e+38
-0.012439466 -0.060335699 0.40100002 -1.7062123e+38
-0.01176082 -0.060185235 0.40000001 -1.7062123e+38
-0.011113196 -0.060185235 0.40000001 -1.7062644e+38
-0.0098179476 -0.060185235 0.40000001 -1.7062123e+38
-0.0091703227 -0.060185235 0.40000001 -1.7061608e+38
-0.0085226987 -0.060185235 0.40000001 -1.7062129e+38
-0.0078553865 -0.060034771 0.39900002 -1.7062129e+38
-0.0065798257 -0.060185235 0.40000001 -1.7061608e+38
-0.0059322016 -0.060185235 0.40000001 -1.7062129e+38
-0.0052977884 -0.060335699 0.40100002 -1.7061608e+38
-0.0046485453 -0.060335699 0.40100002 -1.7061086e+38
-0.0033584128 -0.06048616 0.40200001 -1.7058991e+38
-0.0027075503 -0.06048616 0.40200001 -1.705533e+38
-0.0020566878 -0.06048616 0.40200001 -1.7053245e+38
-0.041103899 -0.062128939 0.42200002 -1.7058458e+38
-0.038498893 -0.061245587 0.41600001 -1.7058462e+38
-0.037734441 -0.06109836 0.41500002 -1.7058987e+38
-0.036302932 -0.060951132 0.41400003 -1.705951e+38
-0.03563264 -0.060951132 0.41400003 -1.705951e+38
-0.034962349 -0.060951132 0.41400003 -1.705951e+38
-0.033540554 -0.060803913 0.41300002 -1.705951e+38
-0.032871883 -0.060803913 0.41300002 -1.705951e+38
-0.032203209 -0.060803913 0.41300002 -1.705951e+38
-0.030865867 -0.060803913 0.41300002 -1.7060553e+38
-0.030124078 -0.060656685 0.41200003 -1.7060553e+38
-0.029385526 -0.060509458 0.41100001 -1.7060553e+38
-0.027986398 -0.060362238 0.41000003 -1.7060553e+38
-0.027255943 -0.060215011 0.40900001 -1.7060553e+38
-0.025868149 -0.060067784 0.40800002 -1.7061072e+38
-0.02514579 -0.059920564 0.40700001 -1.7061072e+38
-0.024366502 -0.05962611 0.40500003 -1.7061072e+38
-0.023055064 -0.05962611 0.40500003 -1.7061078e+38
-0.022344038 -0.05947889 0.40400001 -1.7061078e+38
-0.021689937 -0.05947889 0.40400001 -1.7061078e+38
-0.020381736 -0.05947889 0.40400001 -1.7061078e+38
-0.019727636 -0.05947889 0.40400001 -1.7060557e+38
-0.019026322 -0.059331663 0.40300003 -1.7060557e+38
-0.017721361 -0.059331663 0.40300003 -1.7061078e+38
-0.017026523 -0.059184436 0.40200001 -1.7061078e+38
-0.016375661 -0.059184436 0.40200001 -1.7061078e+38
-0.015073936 -0.059184436 0.40200001 -1.7061082e+38
-0.014387195 -0.059037216 0.40100002 -1.7061601e+38
-0.013737951 -0.059037216 0.40100002 -1.7061601e+38
-0.012439466 -0.059037216 0.40100002 -1.7062123e+38
-0.011790222 -0.059037216 0.40100002 -1.7061601e+38
-0.011140979 -0.059037216 0.40100002 -1.7062644e+38
-0.0098179476 -0.058889989 0.40000001 -1.7062123e+38
-0.0091703227 -0.058889989 0.40000001 -1.7061601e+38
-0.0085226987 -0.058889989 0.40000001 -1.7062644e+38
-0.0078750746 -0.058889989 0.40000001 -1.7062123e+38
-0.0065798257 -0.058889989 0.40000001 -1.7062123e+38
-0.0059322016 -0.058889989 0.40000001 -1.7062123e+38
-0.0052977884 -0.059037216 0.40100002 -1.7062123e+38
-0.0046485453 -0.059037216 0.40100002 -1.7061601e+38
-0.0033584128 -0.059184436 0.40200001 -1.7058472e+38
-0.0027075503 -0.059184436 0.40200001 -1.7054811e+38
-0.0020566878 -0.059184436 0.40200001 -1.7052205e+38
-0.041201301 -0.061591301 0.42300001 -1.7191381e+38
-0.040420655 -0.061445694 0.42200002 -1.7191381e+38
-0.037825365 -0.060572058 0.41600001 -1.7058983e+38
-0.036390621 -0.060426451 0.41500002 -1.7059506e+38
-0.03563264 -0.060280841 0.41400003 -1.7059506e+38
-0.034962349 -0.060280841 0.41400003 -1.7059506e+38
-0.033621766 -0.060280841 0.41400003 -1.705951e+38
-0.032951474 -0.060280841 0.41400003 -1.705951e+38
-0.032281183 -0.060280841 0.41400003 -1.705951e+38
-0.030865867 -0.060135242 0.41300002 -1.705951e+38
-0.030197194 -0.060135242 0.41300002 -1.7060553e+38
-0.029457023 -0.059989631 0.41200003 -1.7060553e+38
-0.028122917 -0.059989631 0.41200003 -1.7060553e+38
-0.027389225 -0.059844024 0.41100001 -1.7060553e+38
-0.026658768 -0.059698425 0.41000003 -1.7061072e+38
-0.025207574 -0.059407208 0.40800002 -1.7061072e+38
-0.024426667 -0.059115998 0.40600002 -1.7061072e+38
-0.023055064 -0.058970392 0.40500003 -1.7061078e+38
-0.022344038 -0.058824789 0.40400001 -1.7061078e+38
-0.021689937 -0.058824789 0.40400001 -1.7061078e+38
-0.020381736 -0.058824789 0.40400001 -1.7061078e+38
-0.019727636 -0.058824789 0.40400001 -1.7060557e+38
-0.019073535 -0.058824789 0.40400001 -1.7060557e+38
-0.017721361 -0.058679182 0.40300003 -1.7061082e+38
-0.017068878 -0.058679182 0.40300003 -1.7061082e+38
-0.016375661 -0.058533572 0.40200001 -1.7061082e+38
-0.015073936 -0.058533572 0.40200001 -1.7061082e+38
-0.014423074 -0.058533572 0.40200001 -1.7061601e+38
-0.013772211 -0.058533572 0.40200001 -1.7061601e+38
-0.013121349 -0.058533572 0.40200001 -1.7062123e+38
-0.011790222 -0.058387972 0.40100002 -1.7061601e+38
-0.011140979 -0.058387972 0.40100002 -1.7062123e+38
-0.010491736 -0.058387972 0.40100002 -1.7062123e+38
-0.009193249 -0.058387972 0.40100002 -1.7061601e+38
-0.0085440055 -0.058387972 0.40100002 -1.7062123e+38
-0.0078947628 -0.058387972 0.40100002 -1.7062123e+38
-0.0065962751 -0.058387972 0.40100002 -1.7062123e+38
-0.005947032 -0.058387972 0.40100002 -1.7062123e+38
-0.0052977884 -0.058387972 0.40100002 -1.7062123e+38
-0.0046485453 -0.058387972 0.40100002 -1.7061601e+38
-0.0033584128 -0.058533572 0.40200001 -1.7058987e+38
-0.0027075503 -0.058533572 0.40200001 -1.7054811e+38
-0.04051644 -0.06090644 0.42300001 -1.7191381e+38
-0.037916292 -0.060042512 0.41700003 -1.7058983e+38
-0.036478307 -0.059898529 0.41600001 -1.7058987e+38
-0.035718709 -0.059754539 0.41500002 -1.7058987e+38
-0.035046801 -0.059754539 0.41500002 -1.7058985e+38
-0.033702981 -0.059754539 0.41500002 -1.705951e+38
-0.032951474 -0.059610553 0.41400003 -1.705951e+38
-0.032281183 -0.059610553 0.41400003 -1.705951e+38
-0.030940602 -0.059610553 0.41400003 -1.705951e+38
-0.030197194 -0.059466571 0.41300002 -1.705951e+38
-0.029528521 -0.059466571 0.41300002 -1.705951e+38
-0.028191177 -0.059466571 0.41300002 -1.705951e+38
-0.027455864 -0.059322581 0.41200003 -1.7060553e+38
-0.026723789 -0.059178591 0.41100001 -1.7060553e+38
-0.025331138 -0.059034608 0.41000003 -1.7061072e+38
-0.024546996 -0.058746632 0.40800002 -1.7061072e+38
-0.02311199 -0.05845866 0.40600002 -1.7061078e+38
-0.022399344 -0.05831467 0.40500003 -1.7061078e+38
-0.021689937 -0.058170687 0.40400001 -1.7061078e+38
-0.020432185 -0.05831467 0.40500003 -1.7061078e+38
-0.019776465 -0.05831467 0.40500003 -1.7060557e+38
-0.019120745 -0.05831467 0.40500003 -1.7060557e+38
-0.017765334 -0.058170687 0.40400001 -1.7061082e+38
-0.017111233 -0.058170687 0.40400001 -1.7061082e+38
-0.016416397 -0.058026697 0.40300003 -1.7061082e+38
-0.015763916 -0.058026697 0.40300003 -1.7061082e+38
-0.014458952 -0.058026697 0.40300003 -1.7061082e+38
-0.013806471 -0.058026697 0.40300003 -1.7061082e+38
-0.013121349 -0.057882711 0.40200001 -1.7061601e+38
-0.011819624 -0.057882711 0.40200001 -1.7061601e+38
-0.011168762 -0.057882711 0.40200001 -1.7062123e+38
-0.010491736 -0.057738729 0.40100002 -1.7062123e+38
-0.009193249 -0.057738729 0.40100002 -1.7061601e+38
-0.0085440055 -0.057738729 0.40100002 -1.7062123e+38
-0.0078947628 -0.057738729 0.40100002 -1.7062123e+38
-0.0065962751 -0.057738729 0.40100002 -1.7061601e+38
-0.005947032 -0.057738729 0.40100002 -1.7062123e+38
-0.0053110002 -0.057882711 0.40200001 -1.7061601e+38
-0.0046601375 -0.057882711 0.40200001 -1.7061601e+38
-0.0033584128 -0.057882711 0.40200001 -1.7059508e+38
-0.0027075503 -0.057882711 0.40200001 -1.7054811e+38
-0.041298706 -0.059677459 0.42400002 -1.7456699e+38
-0.04051644 -0.059536714 0.42300001 -1.7456699e+38
-0.038007218 -0.058832966 0.41800001 -1.7058466e+38
-0.036565993 -0.058692217 0.41700003 -1.7058466e+38
-0.035804775 -0.058551472 0.41600001 -1.7058466e+38
-0.035046801 -0.058410719 0.41500002 -1.7058466e+38
-0.033702981 -0.058410719 0.41500002 -1.7058985e+38
-0.033031069 -0.058410719 0.41500002 -1.7058985e+38
-0.032359157 -0.058410719 0.41500002 -1.705951e+38
-0.030940602 -0.05826997 0.41400003 -1.7058985e+38
-0.03027031 -0.05826997 0.41400003 -1.7058985e+38
-0.029528521 -0.058129225 0.41300002 -1.7058985e+38
-0.028191177 -0.058129225 0.41300002 -1.7058985e+38
-0.027522506 -0.058129225 0.41300002 -1.7059506e+38
-0.026788812 -0.057988476 0.41200003 -1.7059506e+38
-0.025392922 -0.057847723 0.41100001 -1.7059506e+38
-0.024667323 -0.057706978 0.41000003 -1.7059506e+38
-0.02388642 -0.057425477 0.40800002 -1.7058995e+38
-0.022399344 -0.05700323 0.40500003 -1.7060557e+38
-0.021797312 -0.057143982 0.40600002 -1.7060557e+38
-0.021139974 -0.057143982 0.40600002 -1.7061078e+38
-0.019874128 -0.057284731 0.40700001 -1.7060557e+38
-0.019167958 -0.057143982 0.40600002 -1.7060557e+38
-0.018465025 -0.05700323 0.40500003 -1.7060557e+38
-0.017111233 -0.056862488 0.40400001 -1.7061078e+38
-0.016457133 -0.056862488 0.40400001 -1.7061078e+38
-0.015803032 -0.056862488 0.40400001 -1.7061082e+38
-0.014494831 -0.056862488 0.40400001 -1.7061082e+38
-0.013806471 -0.056721736 0.40300003 -1.7061082e+38
-0.01315399 -0.056721736 0.40300003 -1.7061082e+38
-0.011849026 -0.056721736 0.40300003 -1.7061601e+38
-0.011168762 -0.056580987 0.40200001 -1.7062123e+38
-0.010517899 -0.056580987 0.40200001 -1.7062123e+38
-0.0092161745 -0.056580987 0.40200001 -1.7061601e+38
-0.0085653123 -0.056580987 0.40200001 -1.7062123e+38
-0.00791445 -0.056580987 0.40200001 -1.7062123e+38
-0.0072635873 -0.056580987 0.40200001 -1.7061601e+38
-0.0059618624 -0.056580987 0.40200001 -1.7061601e+38
-0.0053110002 -0.056580987 0.40200001 -1.7061601e+38
-0.0046601375 -0.056580987 0.40200001 -1.706108e+38
-0.0033584128 -0.056580987 0.40200001 -1.7058987e+38
-0.0027075503 -0.056580987 0.40200001 -1.7054811e+38
-0.041298706 -0.058990978 0.42400002 -1.7456699e+38
-0.04051644 -0.058851849 0.42300001 -1.7456699e+38
-0.038961623 -0.058573589 0.42100003 -1.7058462e+38
-0.038007218 -0.0581562 0.41800001 -1.7058466e+38
-0.036565993 -0.058017068 0.41700003 -1.7058466e+38
-0.035890844 -0.058017068 0.41700003 -1.7058466e+38
-0.035131246 -0.057877943 0.41600001 -1.7057945e+38
-0.033784188 -0.057877943 0.41600001 -1.7058466e+38
-0.033031069 -0.057738811 0.41500002 -1.7058466e+38
-0.032359157 -0.057738811 0.41500002 -1.7059506e+38
-0.031687248 -0.057738811 0.41500002 -1.7058985e+38
-0.03027031 -0.057599679 0.41400003 -1.7058985e+38
-0.02960002 -0.057599679 0.41400003 -1.705846e+38
