# .PCD v0.7 - Point Cloud Data file format
VERSION 0.7
FIELDS x y z rgb
SIZE 4 4 4 4
TYPE F F F F
COUNT 1 1 1 1
WIDTH 920
HEIGHT 1
VIEWPOINT 0 0 0 1 0 0 0
POINTS 920
DATA ascii
0.0014392446 -0.013648394 0.31300002 -1.7052762e+38
0.0024449402 -0.013604788 0.31200001 -1.7188289e+38
0.0029500872 -0.013604788 0.31200001 -1.7057448e+38
0.0039476873 -0.013561185 0.31100002 -1.7196102e+38
-0.013860169 -0.012763754 0.30400002 -2.2648523e+38
-0.013367974 -0.012763754 0.30400002 -2.1981303e+38
-0.012918134 -0.012805739 0.30500001 -1.8124988e+38
-0.01242432 -0.012805739 0.30500001 -1.78581e+38
-0.011969623 -0.012847726 0.30600002 -1.7325374e+38
-0.010978757 -0.012847726 0.30600002 -1.705172e+38
-0.010517585 -0.012889711 0.30700001 -1.7050677e+38
-0.010053173 -0.012931698 0.30800003 -1.7047546e+38
-0.0095545016 -0.012931698 0.30800003 -1.7046503e+38
-0.0090852333 -0.012973684 0.30900002 -1.7046495e+38
-0.0080846539 -0.012973684 0.30900002 -1.7044933e+38
-0.0076089087 -0.013015671 0.31 -1.7044933e+38
-0.0071299262 -0.013057656 0.31100002 -1.7044933e+38
-0.0066477056 -0.013099642 0.31200001 -1.7044933e+38
-0.0061425581 -0.013099642 0.31200001 -1.7043372e+38
-0.0056554796 -0.013141628 0.31300002 -1.7044414e+38
-0.005165163 -0.013183614 0.31400001 -1.7043372e+38
-0.0041616042 -0.0132256 0.31500003 -1.7042856e+38
-0.003663193 -0.013267586 0.31600001 -1.7043899e+38
-0.0031615428 -0.013309573 0.317 -1.7043899e+38
-0.0026483005 -0.013309573 0.317 -1.7043899e+38
-0.0021350584 -0.013309573 0.317 -1.704598e+38
-0.0016269322 -0.013351559 0.31800002 -1.7047544e+38
-0.0005953316 -0.013309573 0.317 -1.7050152e+38
-8.183036e-05 -0.013267586 0.31600001 -1.7050677e+38
0.00093545771 -0.013183614 0.31400001 -1.7051722e+38
0.0014392446 -0.013141628 0.31300002 -1.7051722e+38
0.0024449402 -0.013099642 0.31200001 -1.7320172e+38
0.0029500872 -0.013099642 0.31200001 -1.7055365e+38
0.0039476873 -0.013057656 0.31100002 -1.7061096e+38
-0.014795726 -0.012231193 0.303 -2.4778939e+38
-0.013860169 -0.01227156 0.30400002 -1.9192019e+38
-0.013367974 -0.01227156 0.30400002 -1.8257911e+38
-0.012918134 -0.012311926 0.30500001 -1.7325889e+38
-0.01242432 -0.012311926 0.30500001 -1.7056916e+38
-0.011969623 -0.012352293 0.30600002 -1.7052756e+38
-0.011511688 -0.01239266 0.30700001 -1.7051193e+38
-0.010517585 -0.01239266 0.30700001 -1.7047031e+38
-0.010053173 -0.012433028 0.30800003 -1.7045984e+38
-0.009585523 -0.012473394 0.30900002 -1.7044942e+38
-0.0090852333 -0.012473394 0.30900002 -1.7044933e+38
-0.0086127268 -0.012513761 0.31 -1.7044933e+38
-0.0081369821 -0.012554128 0.31100002 -1.7043891e+38
-0.0071299262 -0.012554128 0.31100002 -1.7044414e+38
-0.0066477056 -0.012594495 0.31200001 -1.7043372e+38
-0.0061425581 -0.012594495 0.31200001 -1.7043372e+38
-0.0056554796 -0.012634862 0.31300002 -1.7043372e+38
-0.005165163 -0.012675229 0.31400001 -1.7043372e+38
-0.0041616042 -0.012715596 0.31500003 -1.7042856e+38
-0.003663193 -0.012755963 0.31600001 -1.7043899e+38
-0.0031615428 -0.01279633 0.317 -1.7043899e+38
-0.0026483005 -0.01279633 0.317 -1.7043899e+38
-0.0021417937 -0.012836697 0.31800002 -1.7046501e+38
-0.0016269322 -0.012836697 0.31800002 -1.7047544e+38
-0.0005953316 -0.01279633 0.317 -1.7315998e+38
-8.183036e-05 -0.012755963 0.31600001 -1.7050677e+38
0.00093545771 -0.012675229 0.31400001 -1.7051722e+38
0.0014392446 -0.012634862 0.31300002 -1.7051722e+38
0.0024449402 -0.012594495 0.31200001 -1.7186728e+38
0.0029500872 -0.012594495 0.31200001 -1.7054324e+38
0.0034552342 -0.012594495 0.31200001 -1.7188289e+38
-0.015724808 -0.011212912 0.30200002 -2.0918444e+38
-0.015286302 -0.011250042 0.303 -2.0518111e+38
-0.014795726 -0.011250042 0.303 -1.7593818e+38
-0.013860169 -0.01128717 0.30400002 -1.7057959e+38
-0.013367974 -0.01128717 0.30400002 -1.7054831e+38
-0.012918134 -0.011324299 0.30500001 -1.7050148e+38
-0.012465055 -0.011361429 0.30600002 -1.7048584e+38
-0.011969623 -0.011361429 0.30600002 -1.7047546e+38
-0.011511688 -0.011398557 0.30700001 -1.7046503e+38
-0.010551844 -0.011435687 0.30800003 -1.7044939e+38
-0.010053173 -0.011435687 0.30800003 -1.7043899e+38
-0.009585523 -0.011472815 0.30900002 -1.7042856e+38
-0.0091146352 -0.011509944 0.31 -1.7042856e+38
-0.0086127268 -0.011509944 0.31 -1.7042856e+38
-0.0081369821 -0.011547073 0.31100002 -1.704285e+38
-0.0071528521 -0.011584201 0.31200001 -1.7043372e+38
-0.0066477056 -0.011584201 0.31200001 -1.7043372e+38
-0.0061622458 -0.01162133 0.31300002 -1.704285e+38
-0.0056554796 -0.01162133 0.31300002 -1.7043372e+38
-0.005165163 -0.011658459 0.31400001 -1.7043372e+38
-0.0041616042 -0.011695588 0.31500003 -1.7043372e+38
-0.003663193 -0.011732717 0.31600001 -1.7044414e+38
-0.0031615428 -0.011769846 0.317 -1.7043899e+38
-0.0026566549 -0.011806974 0.31800002 -1.7043899e+38
-0.0021417937 -0.011806974 0.31800002 -1.7046501e+38
-0.0016269322 -0.011806974 0.31800002 -1.7047544e+38
-0.0005953316 -0.011769846 0.317 -1.7182554e+38
-8.183036e-05 -0.011732717 0.31600001 -1.7049637e+38
0.00093545771 -0.011658459 0.31400001 -1.7051201e+38
0.0014392446 -0.01162133 0.31300002 -1.7051722e+38
0.0024527765 -0.01162133 0.31300002 -1.7052762e+38
0.0029500872 -0.011584201 0.31200001 -1.7053282e+38
0.0034552342 -0.011584201 0.31200001 -1.7054324e+38
0.0071600322 -0.011064397 0.29800001 -2.1727456e+38
-0.016647413 -0.010688447 0.30100003 -2.2780405e+38
-0.016213765 -0.010723957 0.30200002 -2.1312521e+38
-0.015724808 -0.010723957 0.30200002 -1.8525314e+38
-0.015286302 -0.010759466 0.303 -1.7858094e+38
-0.014844558 -0.010794976 0.30400002 -1.705848e+38
-0.013860169 -0.010794976 0.30400002 -1.7052229e+38
-0.013411947 -0.010830485 0.30500001 -1.7051186e+38
-0.012918134 -0.010830485 0.30500001 -1.7047546e+38
-0.012465055 -0.010865996 0.30600002 -1.7046503e+38
-0.01200874 -0.010901505 0.30700001 -1.7045984e+38
-0.011549185 -0.010937016 0.30800003 -1.7044942e+38
-0.010551844 -0.010937016 0.30800003 -1.7044418e+38
-0.010085814 -0.010972525 0.30900002 -1.7042856e+38
-0.009585523 -0.010972525 0.30900002 -1.7042335e+38
-0.0091146352 -0.011008035 0.31 -1.7042856e+38
-0.00864051 -0.011043545 0.31100002 -1.7042856e+38
-0.0081369821 -0.011043545 0.31100002 -1.704285e+38
-0.0071528521 -0.011079054 0.31200001 -1.7043372e+38
-0.0066477056 -0.011079054 0.31200001 -1.7043372e+38
-0.0061622458 -0.011114565 0.31300002 -1.704285e+38
-0.0056735482 -0.011150074 0.31400001 -1.7043372e+38
-0.005165163 -0.011150074 0.31400001 -1.7043372e+38
-0.0041616042 -0.011185584 0.31500003 -1.7043372e+38
-0.003663193 -0.011221093 0.31600001 -1.7044414e+38
-0.0031615428 -0.011256604 0.317 -1.7043899e+38
-0.0026566549 -0.011292113 0.31800002 -1.7043899e+38
-0.0021417937 -0.011292113 0.31800002 -1.7047022e+38
-0.0016269322 -0.011292113 0.31800002 -1.7314432e+38
-0.0005953316 -0.011256604 0.317 -1.7182554e+38
-8.183036e-05 -0.011221093 0.31600001 -1.7049637e+38
0.00093843683 -0.011185584 0.31500003 -1.7051201e+38
0.0014392446 -0.011114565 0.31300002 -1.7051722e+38
0.0024527765 -0.011114565 0.31300002 -1.7052762e+38
0.0029595427 -0.011114565 0.31300002 -1.7053282e+38
0.0034552342 -0.011079054 0.31200001 -1.7054324e+38
0.0062158611 -0.010617428 0.29900002 -1.7863323e+38
0.0071600322 -0.010581917 0.29800001 -2.0398752e+38
0.0076425122 -0.010581917 0.29800001 -2.4249856e+38
0.0081522577 -0.010617428 0.29900002 -2.6384961e+38
-0.016647413 -0.01020111 0.30100003 -1.9189411e+38
-0.016213765 -0.010235 0.30200002 -1.8655635e+38
-0.015776878 -0.010268891 0.303 -1.7457768e+38
-0.015286302 -0.010268891 0.303 -1.7056393e+38
-0.014844558 -0.010302782 0.30400002 -1.7053793e+38
-0.013860169 -0.010302782 0.30400002 -1.7048586e+38
-0.013411947 -0.010336672 0.30500001 -1.7047544e+38
-0.012918134 -0.010336672 0.30500001 -1.7046503e+38
-0.012465055 -0.010370564 0.30600002 -1.7045461e+38
-0.01200874 -0.010404454 0.30700001 -1.7044422e+38
-0.011549185 -0.010438344 0.30800003 -1.7042859e+38
-0.010551844 -0.010438344 0.30800003 -1.7042856e+38
-0.010085814 -0.010472235 0.30900002 -1.7042856e+38
-0.0096165445 -0.010506126 0.31 -1.7042335e+38
-0.0091146352 -0.010506126 0.31 -1.7042856e+38
-0.00864051 -0.010540017 0.31100002 -1.7042335e+38
-0.0081631467 -0.010573907 0.31200001 -1.7042335e+38
-0.0071528521 -0.010573907 0.31200001 -1.7043372e+38
-0.0066690114 -0.010607799 0.31300002 -1.7043372e+38
-0.0061622458 -0.010607799 0.31300002 -1.704285e+38
-0.0056735482 -0.010641688 0.31400001 -1.7043372e+38
-0.0051816124 -0.01067558 0.31500003 -1.7043372e+38
-0.0046864394 -0.01070947 0.31600001 -1.7043372e+38
-0.0041880277 -0.010743362 0.317 -1.7043372e+38
-0.0031615428 -0.010743362 0.317 -1.7043899e+38
-0.0026566549 -0.010777252 0.31800002 -1.7043899e+38
-0.0021417937 -0.010777252 0.31800002 -1.7046501e+38
-0.0016269322 -0.010777252 0.31800002 -1.7314432e+38
-0.00059720961 -0.010777252 0.31800002 -1.7049631e+38
-8.2089318e-05 -0.010743362 0.317 -1.7050156e+38
0.00093843683 -0.01067558 0.31500003 -1.7051722e+38
0.0014438428 -0.010641688 0.31400001 -1.7051722e+38
0.0024527765 -0.010607799 0.31300002 -1.7052241e+38
0.0029689982 -0.010641688 0.31400001 -1.7052241e+38
0.0034663086 -0.010607799 0.31300002 -1.7052762e+38
0.0039730747 -0.010607799 0.31300002 -1.705276e+38
0.0071840594 -0.010133328 0.29900002 -1.9197759e+38
0.0076425122 -0.010099437 0.29800001 -2.225758e+38
0.0081522577 -0.010133328 0.29900002 -2.2657912e+38
-0.017077824 -0.0096815005 0.30000001 -1.9453693e+38
-0.016647413 -0.0097137727 0.30100003 -1.772466e+38
-0.016213765 -0.0097460439 0.30200002 -1.705744e+38
-0.015776878 -0.0097783161 0.303 -1.7055872e+38
-0.015286302 -0.0097783161 0.303 -1.7052744e+38
-0.014844558 -0.0098105874 0.30400002 -1.7049625e+38
-0.013860169 -0.0098105874 0.30400002 -1.704702e+38
-0.013411947 -0.0098428586 0.30500001 -1.7045978e+38
-0.012960488 -0.0098751308 0.30600002 -1.7045459e+38
-0.012505791 -0.0099074021 0.30700001 -1.7043895e+38
-0.01200874 -0.0099074021 0.30700001 -1.7042856e+38
-0.011549185 -0.0099396743 0.30800003 -1.7041814e+38
-0.011086393 -0.0099719455 0.30900002 -1.7042856e+38
-0.010085814 -0.0099719455 0.30900002 -1.7042335e+38
-0.0096165445 -0.010004218 0.31 -1.7042335e+38
-0.009144038 -0.010036489 0.31100002 -1.7042335e+38
-0.00864051 -0.010036489 0.31100002 -1.7042335e+38
-0.0081631467 -0.01006876 0.31200001 -1.7042856e+38
-0.0076825437 -0.010101032 0.31300002 -1.7042856e+38
-0.0066690114 -0.010101032 0.31300002 -1.7042856e+38
-0.0061819335 -0.010133304 0.31400001 -1.7042335e+38
-0.0056916168 -0.010165576 0.31500003 -1.7042856e+38
-0.0051980624 -0.010197847 0.31600001 -1.7043372e+38
-0.0046864394 -0.010197847 0.31600001 -1.7043372e+38
-0.0041880277 -0.010230119 0.317 -1.7043372e+38
-0.0031715163 -0.010262391 0.31800002 -1.704442e+38
-0.0026566549 -0.010262391 0.31800002 -1.704442e+38
-0.0021417937 -0.010262391 0.31800002 -1.7046501e+38
-0.0016320484 -0.010294663 0.31900001 -1.7314432e+38
-0.00059720961 -0.010262391 0.31800002 -1.7049631e+38
-8.234827e-05 -0.010262391 0.31800002 -1.7050671e+38
0.00094141602 -0.010197847 0.31600001 -1.7051201e+38
0.0014484409 -0.010165576 0.31500003 -1.7051201e+38
0.0019522279 -0.010133304 0.31400001 -1.7051201e+38
0.0029784534 -0.010165576 0.31500003 -1.7052241e+38
0.0034773832 -0.010133304 0.31400001 -1.7052762e+38
0.0039857682 -0.010133304 0.31400001 -1.7052241e+38
0.0071840594 -0.0096492292 0.29900002 -1.8263651e+38
0.0076681585 -0.0096492292 0.29900002 -1.9995807e+38
0.0081522577 -0.0096492292 0.29900002 -2.1063359e+38
-0.01924633 -0.0085939309 0.296 -2.358054e+38
-0.018830491 -0.0086229639 0.29700002 -2.2379544e+38
-0.017077824 -0.008710064 0.30000001 -1.7056401e+38
-0.016647413 -0.008739098 0.30100003 -1.7052231e+38
-0.016213765 -0.008768131 0.30200002 -1.7049625e+38
-0.015776878 -0.008797165 0.303 -1.704702e+38
-0.015286302 -0.008797165 0.303 -1.7046499e+38
-0.014844558 -0.008826199 0.30400002 -1.7045459e+38
-0.014399574 -0.008855232 0.30500001 -1.7045459e+38
-0.013411947 -0.008855232 0.30500001 -1.7043376e+38
-0.012960488 -0.008884266 0.30600002 -1.7042856e+38
-0.012505791 -0.0089132991 0.30700001 -1.7042335e+38
-0.012047855 -0.0089423331 0.30800003 -1.7041816e+38
-0.011586683 -0.0089713661 0.30900002 -1.7041295e+38
-0.011086393 -0.0089713661 0.30900002 -1.7041816e+38
-0.010118453 -0.0090004001 0.31 -1.7041816e+38
-0.0096165445 -0.0090004001 0.31 -1.7041816e+38
-0.009144038 -0.0090294331 0.31100002 -1.7041816e+38
-0.00864051 -0.0090294331 0.31100002 -1.7041816e+38
-0.0081631467 -0.0090584662 0.31200001 -1.7042337e+38
-0.0076825437 -0.0090875002 0.31300002 -1.7041816e+38
-0.0066903187 -0.0091165341 0.31400001 -1.7042337e+38
-0.0061819335 -0.0091165341 0.31400001 -1.7042337e+38
-0.0056916168 -0.0091455681 0.31500003 -1.7042337e+38
-0.0051980624 -0.0091746012 0.31600001 -1.7042337e+38
-0.0047012698 -0.0092036352 0.317 -1.7042337e+38
-0.0041880277 -0.0092036352 0.317 -1.7042337e+38
-0.0031715163 -0.0092326682 0.31800002 -1.704442e+38
-0.0026566549 -0.0092326682 0.31800002 -1.704442e+38
-0.0021485288 -0.0092617022 0.31900001 -1.7047027e+38
-0.0016320484 -0.0092617022 0.31900001 -1.7314436e+38
-0.00059908762 -0.0092617022 0.31900001 -1.7182554e+38
-8.234827e-05 -0.0092326682 0.31800002 -1.7049631e+38
0.00043115293 -0.0092036352 0.317 -1.7050152e+38
0.0014484409 -0.0091455681 0.31500003 -1.7051201e+38
0.0019584452 -0.0091455681 0.31500003 -1.7051201e+38
0.0024762857 -0.0091746012 0.31600001 -1.7051722e+38
0.0034884578 -0.0091455681 0.31500003 -1.7051722e+38
0.0071840594 -0.0086810309 0.29900002 -1.7590705e+38
0.0076425122 -0.008651997 0.29800001 -1.759643e+38
0.0081249923 -0.008651997 0.29800001 -1.8663983e+38
0.0090899523 -0.008651997 0.29800001 -2.18609e+38
-0.019725572 -0.008114689 0.296 -2.35748e+38
-0.01924633 -0.008114689 0.296 -1.9858189e+38
-0.018830491 -0.0081421025 0.29700002 -1.892408e+38
-0.018411413 -0.0081695169 0.29800001 -1.7460374e+38
-0.018049261 -0.0082243457 0.30000001 -1.7058999e+38
-0.017622089 -0.0082517611 0.30100003 -1.7055361e+38
-0.017191676 -0.0082791755 0.30200002 -1.7051712e+38
-0.016213765 -0.0082791755 0.30200002 -1.7047025e+38
-0.015776878 -0.0083065899 0.303 -1.7045459e+38
-0.015336752 -0.0083340043 0.30400002 -1.7044937e+38
-0.014844558 -0.0083340043 0.30400002 -1.7044418e+38
-0.014399574 -0.0083614187 0.30500001 -1.7044418e+38
-0.013951353 -0.0083888331 0.30600002 -1.7042856e+38
-0.013002843 -0.0084162476 0.30700001 -1.7042337e+38
-0.012546526 -0.008443662 0.30800003 -1.7041816e+38
-0.012086973 -0.0084710764 0.30900002 -1.7041816e+38
-0.011586683 -0.0084710764 0.30900002 -1.7041295e+38
-0.01112227 -0.0084984917 0.31 -1.7041816e+38
-0.010118453 -0.0084984917 0.31 -1.7041816e+38
-0.0096475659 -0.0085259052 0.31100002 -1.7041816e+38
-0.009144038 -0.0085259052 0.31100002 -1.7041816e+38
-0.0086682932 -0.0085533196 0.31200001 -1.7041816e+38
-0.0081631467 -0.0085533196 0.31200001 -1.7042337e+38
-0.0076825437 -0.008580735 0.31300002 -1.7041816e+38
-0.0066903187 -0.0086081484 0.31400001 -1.7042337e+38
-0.0062016207 -0.0086355638 0.31500003 -1.7042337e+38
-0.0057096859 -0.0086629782 0.31600001 -1.7042337e+38
-0.0051980624 -0.0086629782 0.31600001 -1.7042337e+38
-0.0047012698 -0.0086903926 0.317 -1.7042337e+38
-0.004201239 -0.008717807 0.31800002 -1.7042337e+38
-0.0031715163 -0.008717807 0.31800002 -1.704442e+38
-0.0026650091 -0.0087452214 0.31900001 -1.704442e+38
-0.0021485288 -0.0087452214 0.31900001 -1.7046505e+38
-0.0016320484 -0.0087452214 0.31900001 -1.7314436e+38
-0.00059908762 -0.0087452214 0.31900001 -1.7182554e+38
-8.234827e-05 -0.008717807 0.31800002 -1.7049116e+38
0.00094141602 -0.0086629782 0.31600001 -1.7051201e+38
0.0014484409 -0.0086355638 0.31500003 -1.7051201e+38
0.0019584452 -0.0086355638 0.31500003 -1.7051201e+38
0.0024762857 -0.0086629782 0.31600001 -1.7051201e+38
0.0072080861 -0.0082243457 0.30000001 -1.7321734e+38
0.0076425122 -0.0081695169 0.29800001 -1.7061092e+38
0.0081249923 -0.0081695169 0.29800001 -1.7861757e+38
-0.020136554 -0.007609651 0.29500002 -2.132138e+38
-0.019725572 -0.0076354467 0.296 -2.0387272e+38
-0.01924633 -0.0076354467 0.296 -1.7727258e+38
-0.018830491 -0.007661242 0.29700002 -1.7193482e+38
-0.018473197 -0.0077128327 0.29900002 -1.7057438e+38
-0.018049261 -0.007738628 0.30000001 -1.7055874e+38
-0.017622089 -0.0077644237 0.30100003 -1.7050154e+38
-0.017191676 -0.007790219 0.30200002 -1.7048069e+38
-0.016267452 -0.0078160148 0.303 -1.7045978e+38
-0.015776878 -0.0078160148 0.303 -1.7044418e+38
-0.015336752 -0.0078418097 0.30400002 -1.7044418e+38
-0.014893387 -0.0078676045 0.30500001 -1.7042856e+38
-0.014399574 -0.0078676045 0.30500001 -1.7042856e+38
-0.013951353 -0.0078934003 0.30600002 -1.7042856e+38
-0.013543868 -0.0079449918 0.30800003 -1.7042335e+38
-0.012587262 -0.0079707867 0.30900002 -1.7041816e+38
-0.012086973 -0.0079707867 0.30900002 -1.7041816e+38
-0.01162418 -0.0079965824 0.31 -1.7041295e+38
-0.01112227 -0.0079965824 0.31 -1.7041816e+38
-0.010654622 -0.0080223773 0.31100002 -1.7042337e+38
-0.0096475659 -0.0080223773 0.31100002 -1.7041816e+38
-0.009144038 -0.0080223773 0.31100002 -1.7041816e+38
-0.0086682932 -0.008048173 0.31200001 -1.7041816e+38
-0.0081893094 -0.0080739688 0.31300002 -1.7042337e+38
-0.0077070887 -0.0080997637 0.31400001 -1.7041816e+38
-0.0066903187 -0.0080997637 0.31400001 -1.7042337e+38
-0.0062016207 -0.0081255594 0.31500003 -1.7042337e+38
-0.0057096859 -0.0081513543 0.31600001 -1.7042337e+38
-0.0052145119 -0.008177151 0.317 -1.7042337e+38
-0.0047012698 -0.008177151 0.317 -1.7042337e+38
-0.004201239 -0.0082029458 0.31800002 -1.7042337e+38
-0.0031715163 -0.0082029458 0.31800002 -1.7044424e+38
-0.0026650091 -0.0082287416 0.31900001 -1.7044424e+38
-0.0021485288 -0.0082287416 0.31900001 -1.7046505e+38
-0.0016320484 -0.0082287416 0.31900001 -1.7047548e+38
-0.00059908762 -0.0082287416 0.31900001 -1.7182038e+38
-8.234827e-05 -0.0082029458 0.31800002 -1.7049116e+38
0.00094141602 -0.0081513543 0.31600001 -1.7051201e+38
0.0014484409 -0.0081255594 0.31500003 -1.7051201e+38
0.0019584452 -0.0081255594 0.31500003 -1.7051201e+38
0.0024762857 -0.0081513543 0.31600001 -1.7051201e+38
0.0035106062 -0.008177151 0.317 -1.7051201e+38
0.0076425122 -0.0076870369 0.29800001 -1.7056926e+38
-0.021496307 -0.0066318484 0.294 -2.4776841e+38
-0.020614177 -0.006654405 0.29500002 -1.919253e+38
-0.020136554 -0.006654405 0.29500002 -1.7460374e+38
-0.019725572 -0.0066769631 0.296 -1.7058999e+38
-0.019311352 -0.0066995197 0.29700002 -1.7055355e+38
-0.018957296 -0.0067446344 0.29900002 -1.7052748e+38
-0.018534979 -0.0067671915 0.30000001 -1.7048065e+38
-0.018109426 -0.0067897495 0.30100003 -1.7047544e+38
-0.017680634 -0.0068123061 0.30200002 -1.704598e+38
-0.017248604 -0.0068348642 0.303 -1.7044937e+38
-0.016267452 -0.0068348642 0.303 -1.7043372e+38
-0.015828947 -0.0068574208 0.30400002 -1.7043372e+38
-0.015336752 -0.0068574208 0.30400002 -1.704285e+38
-0.014893387 -0.0068799779 0.30500001 -1.704285e+38
-0.014446786 -0.0069025359 0.30600002 -1.7043372e+38
-0.013996947 -0.0069250925 0.30700001 -1.704285e+38
-0.013543868 -0.0069476506 0.30800003 -1.704285e+38
-0.012587262 -0.0069702072 0.30900002 -1.7042331e+38
-0.012126088 -0.0069927652 0.31 -1.7042331e+38
-0.01162418 -0.0069927652 0.31 -1.7042331e+38
-0.01115815 -0.0070153219 0.31100002 -1.7042331e+38
-0.010654622 -0.0070153219 0.31100002 -1.7042852e+38
-0.0096475659 -0.0070153219 0.31100002 -1.7042331e+38
-0.0091734398 -0.007037879 0.31200001 -1.7042331e+38
-0.0086682932 -0.007037879 0.31200001 -1.7042331e+38
-0.0081893094 -0.007060437 0.31300002 -1.7042331e+38
-0.0077070887 -0.0070829936 0.31400001 -1.7042331e+38
-0.0072216294 -0.0071055517 0.31500003 -1.7042852e+38
-0.0067329323 -0.0071281083 0.31600001 -1.7042852e+38
-0.0057096859 -0.0071281083 0.31600001 -1.7042852e+38
-0.0052145119 -0.0071506663 0.317 -1.7042337e+38
-0.0047012698 -0.0071506663 0.317 -1.704338e+38
-0.004201239 -0.007173223 0.31800002 -1.7043899e+38
-0.0031715163 -0.007173223 0.31800002 -1.7044946e+38
-0.0026650091 -0.007195781 0.31900001 -1.7044424e+38
-0.0021485288 -0.007195781 0.31900001 -1.7046505e+38
-0.0016320484 -0.007195781 0.31900001 -1.7047548e+38
-0.00059908762 -0.007195781 0.31900001 -1.7182038e+38
-8.234827e-05 -0.007173223 0.31800002 -1.704912e+38
0.00094141602 -0.0071281083 0.31600001 -1.7051201e+38
0.0014484409 -0.0071055517 0.31500003 -1.7051201e+38
0.0019584452 -0.0071055517 0.31500003 -1.7051722e+38
0.0024841221 -0.0071506663 0.317 -1.7051201e+38
0.0030068196 -0.007173223 0.31800002 -1.7051201e+38
-0.021897575 -0.0061349059 0.29300001 -2.1188461e+38
-0.021496307 -0.0061558438 0.294 -1.9854021e+38
-0.020614177 -0.0061767823 0.29500002 -1.7193486e+38
-0.020204814 -0.0061977208 0.296 -1.7055882e+38
-0.019792212 -0.0062186588 0.29700002 -1.7052754e+38
-0.019376373 -0.0062395972 0.29800001 -1.7049629e+38
-0.018957296 -0.0062605357 0.29900002 -1.7048065e+38
-0.018596763 -0.0063024117 0.30100003 -1.704598e+38
-0.018169589 -0.0063233501 0.30200002 -1.704598e+38
-0.017680634 -0.0063233501 0.30200002 -1.7044939e+38
-0.017248604 -0.0063442881 0.303 -1.7043376e+38
-0.016813336 -0.0063652266 0.30400002 -1.7043372e+38
-0.015828947 -0.0063652266 0.30400002 -1.704285e+38
-0.015387201 -0.006386165 0.30500001 -1.704285e+38
-0.014942219 -0.006407103 0.30600002 -1.7042331e+38
-0.014446786 -0.006407103 0.30600002 -1.7042852e+38
-0.013996947 -0.0064280415 0.30700001 -1.7042331e+38
-0.013543868 -0.00644898 0.30800003 -1.7042331e+38
-0.012587262 -0.0064699175 0.30900002 -1.7042331e+38
-0.012126088 -0.0064908559 0.31 -1.7042331e+38
-0.01162418 -0.0064908559 0.31 -1.7042331e+38
-0.01115815 -0.0065117944 0.31100002 -1.7042331e+38
-0.010654622 -0.0065117944 0.31100002 -1.7042852e+38
-0.0096475659 -0.0065117944 0.31100002 -1.7042331e+38
-0.0091734398 -0.0065327324 0.31200001 -1.7042852e+38
-0.0086960755 -0.0065536709 0.31300002 -1.7042331e+38
-0.0081893094 -0.0065536709 0.31300002 -1.7042852e+38
-0.0077070887 -0.0065746093 0.31400001 -1.7042852e+38
-0.0072216294 -0.0065955473 0.31500003 -1.7042852e+38
-0.0067329323 -0.0066164853 0.31600001 -1.7042852e+38
-0.0057096859 -0.0066164853 0.31600001 -1.7042852e+38
-0.0052145119 -0.0066374242 0.317 -1.7042337e+38
-0.0047012698 -0.0066374242 0.317 -1.704338e+38
-0.004201239 -0.0066583618 0.31800002 -1.7043899e+38
-0.0031715163 -0.0066583618 0.31800002 -1.7044946e+38
-0.0026650091 -0.0066793007 0.31900001 -1.7044946e+38
-0.0021485288 -0.0066793007 0.31900001 -1.7046505e+38
-0.0016320484 -0.0066793007 0.31900001 -1.7047548e+38
-0.00059908762 -0.0066793007 0.31900001 -1.7182038e+38
-8.234827e-05 -0.0066583618 0.31800002 -1.7049116e+38
0.00094141602 -0.0066164853 0.31600001 -1.7051201e+38
0.0014530392 -0.0066164853 0.31600001 -1.7051201e+38
0.0019584452 -0.0065955473 0.31500003 -1.7051722e+38
0.0024762857 -0.0066164853 0.31600001 -1.7051722e+38
0.0030068196 -0.0066583618 0.31800002 -1.7051201e+38
0.004036542 -0.0066583618 0.31800002 -1.7051201e+38
0.0098524652 -0.0061139679 0.29200003 -1.8530549e+38
0.010761017 -0.0060930294 0.29100001 -2.0662516e+38
-0.022768371 -0.005641202 0.29200003 -2.3313652e+38
-0.022295605 -0.005641202 0.29200003 -2.291332e+38
-0.021897575 -0.0056605209 0.29300001 -1.8393438e+38
-0.021496307 -0.0056798402 0.294 -1.7592773e+38
-0.020614177 -0.0056991596 0.29500002 -1.7056914e+38
-0.020204814 -0.0057184785 0.296 -1.705171e+38
-0.019792212 -0.0057377978 0.29700002 -1.7049103e+38
-0.019441396 -0.0057764365 0.29900002 -1.704702e+38
-0.019020697 -0.0057957554 0.30000001 -1.7046499e+38
-0.018596763 -0.0058150743 0.30100003 -1.7044939e+38
-0.018169589 -0.0058343937 0.30200002 -1.7044418e+38
-0.017739179 -0.005853713 0.303 -1.7043372e+38
-0.017248604 -0.005853713 0.303 -1.7043372e+38
-0.016813336 -0.0058730324 0.30400002 -1.7043372e+38
-0.015881015 -0.0058923513 0.30500001 -1.7042331e+38
-0.015387201 -0.0058923513 0.30500001 -1.7042331e+38
-0.014942219 -0.0059116706 0.30600002 -1.7042331e+38
-0.014493998 -0.00593099 0.30700001 -1.7042852e+38
-0.013996947 -0.00593099 0.30700001 -1.7042331e+38
-0.013543868 -0.0059503093 0.30800003 -1.704181e+38
-0.012587262 -0.0059696278 0.30900002 -1.7042331e+38
-0.012126088 -0.0059889471 0.31 -1.7042331e+38
-0.01162418 -0.0059889471 0.31 -1.7042331e+38
-0.01115815 -0.0060082665 0.31100002 -1.7042852e+38
-0.010654622 -0.0060082665 0.31100002 -1.7042852e+38
-0.0096475659 -0.0060082665 0.31100002 -1.7042852e+38
-0.0091734398 -0.0060275858 0.31200001 -1.7042852e+38
-0.0086960755 -0.0060469047 0.31300002 -1.7042852e+38
-0.008215474 -0.0060662241 0.31400001 -1.7043895e+38
-0.0077316333 -0.0060855434 0.31500003 -1.7042852e+38
-0.0072445553 -0.0061048623 0.31600001 -1.7042852e+38
-0.0067329323 -0.0061048623 0.31600001 -1.7042852e+38
-0.0057277544 -0.0061241812 0.317 -1.7043895e+38
-0.0052145119 -0.0061241812 0.317 -1.704338e+38
-0.0047161002 -0.0061435006 0.31800002 -1.704338e+38
-0.004201239 -0.0061435006 0.31800002 -1.7044424e+38
-0.0031715163 -0.0061435006 0.31800002 -1.7045465e+38
-0.0026650091 -0.0061628199 0.31900001 -1.7045465e+38
-0.0021485288 -0.0061628199 0.31900001 -1.7045984e+38
-0.0016320484 -0.0061628199 0.31900001 -1.7047548e+38
-0.00059908762 -0.0061628199 0.31900001 -1.7182038e+38
-8.234827e-05 -0.0061435006 0.31800002 -1.7049116e+38
0.00043115293 -0.0061241812 0.317 -1.7049637e+38
0.0014530392 -0.0061048623 0.31600001 -1.7051722e+38
0.0019646625 -0.0061048623 0.31600001 -1.7051722e+38
0.0024762857 -0.0061048623 0.31600001 -1.7051722e+38
0.0035106062 -0.0061241812 0.317 -1.7051722e+38
0.004036542 -0.0061435006 0.31800002 -1.7051722e+38
0.0094118211 -0.0056605209 0.29300001 -1.7061622e+38
0.0098187234 -0.0056218831 0.29100001 -1.7729363e+38
0.010761017 -0.0056218831 0.29100001 -1.9598617e+38
-0.022690397 -0.0051507363 0.29100001 -2.0125077e+38
-0.022295605 -0.0051684366 0.29200003 -1.8390304e+38
-0.021897575 -0.0051861363 0.29300001 -1.7459329e+38
-0.021496307 -0.0052038366 0.294 -1.7057955e+38
-0.020614177 -0.0052215364 0.29500002 -1.7052748e+38
-0.020204814 -0.0052392366 0.296 -1.7048582e+38
-0.019858854 -0.0052746371 0.29800001 -1.7047018e+38
-0.019441396 -0.0052923374 0.29900002 -1.704598e+38
-0.019020697 -0.0053100372 0.30000001 -1.7044937e+38
-0.018596763 -0.0053277374 0.30100003 -1.7044933e+38
-0.018169589 -0.0053454372 0.30200002 -1.7044933e+38
-0.017739179 -0.0053631375 0.303 -1.7043372e+38
-0.017305531 -0.0053808377 0.30400002 -1.704285e+38
-0.016813336 -0.0053808377 0.30400002 -1.7043372e+38
-0.015881015 -0.005398538 0.30500001 -1.704285e+38
-0.015437651 -0.0054162382 0.30600002 -1.704285e+38
-0.014942219 -0.0054162382 0.30600002 -1.7042331e+38
-0.014493998 -0.0054339385 0.30700001 -1.7042852e+38
-0.01404254 -0.0054516383 0.30800003 -1.7042331e+38
-0.013543868 -0.0054516383 0.30800003 -1.704181e+38
-0.012587262 -0.005469338 0.30900002 -1.7042331e+38
-0.012126088 -0.0054870383 0.31 -1.7042331e+38
-0.01162418 -0.0054870383 0.31 -1.7042331e+38
-0.01115815 -0.0055047385 0.31100002 -1.7042852e+38
-0.010654622 -0.0055047385 0.31100002 -1.7042852e+38
-0.0096475659 -0.0055047385 0.31100002 -1.7042852e+38
-0.0091734398 -0.0055224388 0.31200001 -1.7043895e+38
-0.0086960755 -0.005540139 0.31300002 -1.7042852e+38
-0.008215474 -0.0055578393 0.31400001 -1.7043895e+38
-0.0077316333 -0.0055755391 0.31500003 -1.7043895e+38
-0.0072445553 -0.0055932389 0.31600001 -1.704338e+38
-0.0067542386 -0.0056109391 0.317 -1.704338e+38
-0.0057277544 -0.0056109391 0.317 -1.704338e+38
-0.0052145119 -0.0056109391 0.317 -1.704442e+38
-0.0047161002 -0.0056286394 0.31800002 -1.704442e+38
-0.004201239 -0.0056286394 0.31800002 -1.7044946e+38
-0.0031715163 -0.0056286394 0.31800002 -1.7045465e+38
-0.0026566549 -0.0056286394 0.31800002 -1.7045465e+38
-0.0021417937 -0.0056286394 0.31800002 -1.7045984e+38
-0.0016269322 -0.0056286394 0.31800002 -1.7047548e+38
-0.00059720961 -0.0056286394 0.31800002 -1.7049116e+38
-8.2089318e-05 -0.0056109391 0.317 -1.7049641e+38
0.00043115293 -0.0056109391 0.317 -1.7049641e+38
0.0014530392 -0.0055932389 0.31600001 -1.7051722e+38
0.0019646625 -0.0055932389 0.31600001 -1.7051722e+38
0.0024762857 -0.0055932389 0.31600001 -1.7051722e+38
0.0035106062 -0.0056109391 0.317 -1.7051722e+38
0.0094118211 -0.0051861363 0.29300001 -1.7059535e+38
0.0098187234 -0.0051507363 0.29100001 -1.7326423e+38
0.010724038 -0.0051330361 0.29000002 -1.8797952e+38
0.011193565 -0.0051330361 0.29000002 -2.0927317e+38
-0.02363269 -0.0042084432 0.29100001 -1.8527922e+38
-0.023161544 -0.0042084432 0.29100001 -1.7593814e+38
-0.022690397 -0.0042084432 0.29100001 -1.7326415e+38
-0.022295605 -0.0042229053 0.29200003 -1.7056399e+38
-0.021897575 -0.0042373668 0.29300001 -1.7052231e+38
-0.021496307 -0.0042518289 0.294 -1.7049625e+38
-0.021163298 -0.004280753 0.296 -1.7047542e+38
-0.020753935 -0.004295215 0.29700002 -1.7046499e+38
-0.019858854 -0.0043096771 0.29800001 -1.7044933e+38
-0.019441396 -0.0043241391 0.29900002 -1.7044414e+38
-0.019020697 -0.0043386007 0.30000001 -1.704285e+38
-0.018596763 -0.0043530627 0.30100003 -1.704285e+38
-0.018169589 -0.0043675248 0.30200002 -1.7043372e+38
-0.017739179 -0.0043819868 0.303 -1.704285e+38
-0.017305531 -0.0043964488 0.30400002 -1.704285e+38
-0.016813336 -0.0043964488 0.30400002 -1.7043372e+38
-0.015881015 -0.0044109109 0.30500001 -1.7042331e+38
-0.015437651 -0.0044253729 0.30600002 -1.7042331e+38
-0.01499105 -0.004439835 0.30700001 -1.7042331e+38
-0.014493998 -0.004439835 0.30700001 -1.7042852e+38
-0.01404254 -0.004454297 0.30800003 -1.7042331e+38
-0.013587841 -0.0044687591 0.30900002 -1.7042331e+38
-0.012587262 -0.0044687591 0.30900002 -1.7042331e+38
-0.012126088 -0.0044832211 0.31 -1.7042331e+38
-0.01162418 -0.0044832211 0.31 -1.7042852e+38
-0.01115815 -0.0044976831 0.31100002 -1.7042852e+38
-0.010654622 -0.0044976831 0.31100002 -1.7042852e+38
-0.0096475659 -0.0044976831 0.31100002 -1.7042852e+38
-0.0091734398 -0.0045121452 0.31200001 -1.7042852e+38
-0.0086960755 -0.0045266072 0.31300002 -1.7043895e+38
-0.008215474 -0.0045410693 0.31400001 -1.704338e+38
-0.0077561787 -0.0045699929 0.31600001 -1.704338e+38
-0.0072445553 -0.0045699929 0.31600001 -1.7043901e+38
-0.0067542386 -0.0045844549 0.317 -1.7043901e+38
-0.0057096859 -0.0045699929 0.31600001 -1.7044942e+38
-0.0052145119 -0.0045844549 0.317 -1.7045465e+38
-0.0047012698 -0.0045844549 0.317 -1.7045465e+38
-0.004201239 -0.004598917 0.31800002 -1.7045986e+38
-0.0031715163 -0.004598917 0.31800002 -1.7047025e+38
-0.0026566549 -0.004598917 0.31800002 -1.7048067e+38
-0.0021417937 -0.004598917 0.31800002 -1.7051193e+38
-0.0016269322 -0.004598917 0.31800002 -1.7318081e+38
-0.00059720961 -0.004598917 0.31800002 -1.7052237e+38
-8.2089318e-05 -0.0045844549 0.317 -1.7052237e+38
0.00094141602 -0.0045699929 0.31600001 -1.7052241e+38
0.0014484409 -0.0045555313 0.31500003 -1.7052241e+38
0.0019646625 -0.0045699929 0.31600001 -1.7052766e+38
0.0024762857 -0.0045699929 0.31600001 -1.7186732e+38
0.0035106062 -0.0045844549 0.317 -1.7053286e+38
0.0098524652 -0.0042229053 0.29200003 -1.7056407e+38
0.010724038 -0.0041939812 0.29000002 -1.7728317e+38
0.011154966 -0.0041795191 0.289 -1.8132294e+38
0.012048948 -0.0041650571 0.28800002 -2.2122063e+38
0.012471781 -0.0041505951 0.287 -2.2522395e+38
-0.024490535 -0.0037244535 0.29000002 -1.9461505e+38
-0.023551479 -0.0037244535 0.29000002 -1.7728824e+38
-0.023161544 -0.0037372964 0.29100001 -1.7060561e+38
-0.022768371 -0.0037501394 0.29200003 -1.7055355e+38
-0.022295605 -0.0037501394 0.29200003 -1.7052748e+38
-0.021972312 -0.003775825 0.294 -1.7048067e+38
-0.021569423 -0.003788668 0.29500002 -1.7046503e+38
-0.021163298 -0.0038015111 0.296 -1.7045461e+38
-0.020753935 -0.0038143541 0.29700002 -1.7044939e+38
-0.019858854 -0.003827197 0.29800001 -1.7043891e+38
-0.019441396 -0.0038400399 0.29900002 -1.7043372e+38
-0.018957296 -0.0038400399 0.29900002 -1.704285e+38
-0.018596763 -0.0038657256 0.30100003 -1.7042331e+38
-0.018169589 -0.0038785685 0.30200002 -1.7042331e+38
-0.017739179 -0.0038914115 0.303 -1.7042331e+38
-0.017305531 -0.0039042546 0.30400002 -1.7042331e+38
-0.016868642 -0.0039170976 0.30500001 -1.7042852e+38
-0.015881015 -0.0039170976 0.30500001 -1.7042331e+38
-0.015437651 -0.0039299405 0.30600002 -1.7042331e+38
-0.01499105 -0.0039427835 0.30700001 -1.7042331e+38
-0.01454121 -0.0039556264 0.30800003 -1.7042331e+38
-0.01404254 -0.0039556264 0.30800003 -1.7042331e+38
-0.013587841 -0.0039684693 0.30900002 -1.7042331e+38
-0.012587262 -0.0039684693 0.30900002 -1.7042331e+38
-0.012126088 -0.0039813123 0.31 -1.7042331e+38
-0.01162418 -0.0039813123 0.31 -1.7042852e+38
-0.01115815 -0.0039941552 0.31100002 -1.7043895e+38
-0.010654622 -0.0039941552 0.31100002 -1.7042852e+38
-0.0096475659 -0.0039941552 0.31100002 -1.7042852e+38
-0.0091734398 -0.0040069981 0.31200001 -1.7042852e+38
-0.0086960755 -0.0040198411 0.31300002 -1.7043895e+38
-0.008215474 -0.004032684 0.31400001 -1.704338e+38
-0.0077561787 -0.0040583699 0.31600001 -1.704338e+38
-0.0072445553 -0.0040583699 0.31600001 -1.7044424e+38
-0.0067329323 -0.0040583699 0.31600001 -1.7044424e+38
-0.0057096859 -0.0040583699 0.31600001 -1.7045465e+38
-0.0051980624 -0.0040583699 0.31600001 -1.7045986e+38
-0.0047012698 -0.0040712128 0.317 -1.7045986e+38
-0.0041880277 -0.0040712128 0.317 -1.7046505e+38
-0.0031615428 -0.0040712128 0.317 -1.7050675e+38
-0.0026483005 -0.0040712128 0.317 -1.7452571e+38
-0.0021350584 -0.0040712128 0.317 -1.7056924e+38
-0.0011085737 -0.0040712128 0.317 -1.7055365e+38
-0.0005953316 -0.0040712128 0.317 -1.7054843e+38
-8.2089318e-05 -0.0040712128 0.317 -1.7053801e+38
0.00094141602 -0.0040583699 0.31600001 -1.7053286e+38
0.0014484409 -0.004045527 0.31500003 -1.7053286e+38
0.0019584452 -0.004045527 0.31500003 -1.7053286e+38
0.0024762857 -0.0040583699 0.31600001 -1.7054849e+38
0.010761017 -0.0037372964 0.29100001 -1.7458822e+38
0.011154966 -0.0037116106 0.289 -1.7596441e+38
0.012007111 -0.0036859245 0.287 -2.0127703e+38
0.012471781 -0.0036859245 0.287 -2.1061812e+38
-0.023938175 -0.003243702 0.289 -1.7063165e+38
-0.023551479 -0.0032549258 0.29000002 -1.7057959e+38
-0.023161544 -0.0032661497 0.29100001 -1.705431e+38
-0.022768371 -0.0032773735 0.29200003 -1.7050148e+38
-0.022371961 -0.0032885976 0.29300001 -1.7048584e+38
-0.021972312 -0.0032998212 0.294 -1.7046501e+38
-0.021569423 -0.0033110452 0.29500002 -1.7044937e+38
-0.021163298 -0.0033222691 0.296 -1.7044933e+38
-0.020753935 -0.0033334931 0.29700002 -1.7044933e+38
-0.019858854 -0.003344717 0.29800001 -1.7043372e+38
-0.019376373 -0.003344717 0.29800001 -1.7042331e+38
-0.018957296 -0.0033559408 0.29900002 -1.7042331e+38
-0.018534979 -0.0033671644 0.30000001 -1.7042331e+38
-0.018109426 -0.0033783885 0.30100003 -1.7042331e+38
-0.017680634 -0.0033896123 0.30200002 -1.7042331e+38
-0.017248604 -0.0034008361 0.303 -1.7042331e+38
-0.016813336 -0.0034120602 0.30400002 -1.7042852e+38
-0.015881015 -0.003423284 0.30500001 -1.7042331e+38
-0.015437651 -0.0034345081 0.30600002 -1.7042331e+38
-0.01499105 -0.0034457319 0.30700001 -1.7042331e+38
-0.01454121 -0.003456956 0.30800003 -1.7042331e+38
-0.01404254 -0.003456956 0.30800003 -1.7042331e+38
-0.013587841 -0.0034681794 0.30900002 -1.7042331e+38
-0.012587262 -0.0034681794 0.30900002 -1.7042331e+38
-0.012126088 -0.0034794034 0.31 -1.7042331e+38
-0.01162418 -0.0034794034 0.31 -1.7042852e+38
-0.01115815 -0.0034906273 0.31100002 -1.7042852e+38
-0.010654622 -0.0034906273 0.31100002 -1.7042852e+38
-0.0096475659 -0.0034906273 0.31100002 -1.7042852e+38
-0.009144038 -0.0034906273 0.31100002 -1.7043895e+38
-0.0086682932 -0.0035018513 0.31200001 -1.7043895e+38
-0.0081893094 -0.0035130752 0.31300002 -1.704338e+38
-0.0077070887 -0.003524299 0.31400001 -1.704338e+38
-0.0072216294 -0.0035355231 0.31500003 -1.7044424e+38
-0.0067329323 -0.0035467464 0.31600001 -1.7044424e+38
-0.0056916168 -0.0035355231 0.31500003 -1.7045465e+38
-0.0051816124 -0.0035355231 0.31500003 -1.7046511e+38
-0.0046864394 -0.0035467464 0.31600001 -1.7046511e+38
-0.003663193 -0.0035467464 0.31600001 -1.7184126e+38
-0.0031515695 -0.0035467464 0.31600001 -1.7055896e+38
-0.0026399463 -0.0035467464 0.31600001 -1.7456749e+38
-0.0021283231 -0.0035467464 0.31600001 -1.7060581e+38
-0.0011050767 -0.0035467464 0.31600001 -1.7059539e+38
-0.00059345353 -0.0035467464 0.31600001 -1.7057454e+38
-8.183036e-05 -0.0035467464 0.31600001 -1.7055888e+38
0.00093843683 -0.0035355231 0.31500003 -1.7053805e+38
0.0014484409 -0.0035355231 0.31500003 -1.7053805e+38
0.0019584452 -0.0035355231 0.31500003 -1.7054847e+38
0.0029784534 -0.0035355231 0.31500003 -1.7054847e+38
0.011116369 -0.0032324782 0.28800002 -1.7062137e+38
0.012007111 -0.0032212541 0.287 -1.8664508e+38
0.012471781 -0.0032212541 0.287 -1.9465173e+38
0.013401123 -0.0032212541 0.287 -2.5452939e+38
-0.025914013 -0.0027373743 0.28500003 -2.4379114e+38
-0.024991149 -0.0027373743 0.28500003 -1.9194106e+38
-0.023161544 -0.0027950031 0.29100001 -1.7050667e+38
-0.022690397 -0.0027950031 0.29100001 -1.704702e+38
-0.022295605 -0.0028046079 0.29200003 -1.7046499e+38
-0.021897575 -0.0028142128 0.29300001 -1.7044939e+38
-0.021569423 -0.0028334223 0.29500002 -1.7043376e+38
-0.020614177 -0.0028334223 0.29500002 -1.704285e+38
-0.020204814 -0.0028430272 0.296 -1.704181e+38
-0.019792212 -0.002852632 0.29700002 -1.7042331e+38
0.011154966 -0.0027757934 0.289 -1.7060054e+38
0.012048948 -0.0027661887 0.28800002 -1.7598002e+38
0.012471781 -0.0027565837 0.287 -1.8532111e+38
0.012981527 -0.0027661887 0.28800002 -2.1591404e+38
-0.019376373 -0.0023797569 0.29800001 -1.7042331e+38
-0.018893894 -0.0023797569 0.29800001 -1.7042331e+38
-0.018473197 -0.0023877425 0.29900002 -1.7042331e+38
-0.018049261 -0.0023957284 0.30000001 -1.704181e+38
-0.016813336 -0.0024276713 0.30400002 -1.7042331e+38
-0.015881015 -0.0024356572 0.30500001 -1.7042331e+38
-0.015437651 -0.0024436431 0.30600002 -1.7042331e+38
-0.01499105 -0.0024516287 0.30700001 -1.7042331e+38
-0.014493998 -0.0024516287 0.30700001 -1.7042331e+38
-0.01404254 -0.0024596143 0.30800003 -1.7042331e+38
-0.013587841 -0.0024676002 0.30900002 -1.7042331e+38
-0.012587262 -0.0024676002 0.30900002 -1.7042331e+38
-0.012126088 -0.0024755858 0.31 -1.7042852e+38
-0.01162418 -0.0024755858 0.31 -1.7042852e+38
-0.01115815 -0.0024835716 0.31100002 -1.7042852e+38
-0.010654622 -0.0024835716 0.31100002 -1.7043895e+38
-0.0096475659 -0.0024835716 0.31100002 -1.7042852e+38
-0.009144038 -0.0024835716 0.31100002 -1.7043895e+38
-0.0086682932 -0.0024915575 0.31200001 -1.7043895e+38
-0.0081631467 -0.0024915575 0.31200001 -1.704338e+38
-0.0076825437 -0.0024995434 0.31300002 -1.704338e+38
-0.0066903187 -0.002507529 0.31400001 -1.7045465e+38
-0.0061819335 -0.002507529 0.31400001 -1.7046511e+38
-0.0056735482 -0.002507529 0.31400001 -1.7313921e+38
-0.005165163 -0.002507529 0.31400001 -1.7052245e+38
-0.0041616042 -0.0025155146 0.31500003 -1.705902e+38
-0.0036516003 -0.0025155146 0.31500003 -1.7325908e+38
-0.0031415962 -0.0025155146 0.31500003 -1.7061632e+38
-0.0026399463 -0.0025235005 0.31600001 -1.7061632e+38
-0.0021283231 -0.0025235005 0.31600001 -1.7062672e+38
-0.0011050767 -0.0025235005 0.31600001 -1.7062151e+38
-0.00059345353 -0.0025235005 0.31600001 -1.7061109e+38
-8.183036e-05 -0.0025235005 0.31600001 -1.705902e+38
0.00093843683 -0.0025155146 0.31500003 -1.7055886e+38
0.0014438428 -0.002507529 0.31400001 -1.7055886e+38
0.0019584452 -0.0025155146 0.31500003 -1.7054847e+38
0.0029784534 -0.0025155146 0.31500003 -1.7055369e+38
0.0034995319 -0.0025235005 0.31600001 -1.7055369e+38
-0.026742714 -0.001808143 0.28400001 -2.2649566e+38
-0.026282899 -0.001808143 0.28400001 -2.2382677e+38
-0.025363272 -0.001808143 0.28400001 -1.7726747e+38
-0.024903459 -0.001808143 0.28400001 -1.7059527e+38
-0.024529716 -0.0018145097 0.28500003 -1.7056399e+38
-0.024068283 -0.0018145097 0.28500003 -1.7051706e+38
-0.023606852 -0.0018145097 0.28500003 -1.7049621e+38
-0.019311352 -0.0018909101 0.29700002 -1.7042331e+38
-0.018893894 -0.0018972768 0.29800001 -1.704181e+38
-0.018411413 -0.0018972768 0.29800001 -1.7042331e+38
-0.014942219 -0.0019482105 0.30600002 -1.7042331e+38
-0.014493998 -0.0019545769 0.30700001 -1.7042331e+38
-0.01404254 -0.0019609437 0.30800003 -1.7042331e+38
-0.013543868 -0.0019609437 0.30800003 -1.7042331e+38
-0.012587262 -0.0019673104 0.30900002 -1.7041816e+38
-0.012086973 -0.0019673104 0.30900002 -1.7042337e+38
-0.01162418 -0.001973677 0.31 -1.7042337e+38
-0.01112227 -0.001973677 0.31 -1.7042337e+38
-0.010654622 -0.0019800437 0.31100002 -1.704338e+38
-0.0096475659 -0.0019800437 0.31100002 -1.7042337e+38
-0.009144038 -0.0019800437 0.31100002 -1.704338e+38
-0.00864051 -0.0019800437 0.31100002 -1.704338e+38
-0.0081631467 -0.0019864105 0.31200001 -1.7043903e+38
-0.0066690114 -0.0019927772 0.31300002 -1.7047033e+38
-0.0061819335 -0.001999144 0.31400001 -1.7050681e+38
-0.0056735482 -0.001999144 0.31400001 -1.731757e+38
-0.005165163 -0.001999144 0.31400001 -1.7056411e+38
-0.0041616042 -0.0020055107 0.31500003 -1.7060585e+38
-0.0036516003 -0.0020055107 0.31500003 -1.7194029e+38
-0.0031415962 -0.0020055107 0.31500003 -1.7062153e+38
-0.0026315921 -0.0020055107 0.31500003 -1.7061632e+38
-0.0016115839 -0.0020055107 0.31500003 -1.7062672e+38
-0.0011015797 -0.0020055107 0.31500003 -1.7062151e+38
-0.00059157552 -0.0020055107 0.31500003 -1.706163e+38
-8.1571401e-05 -0.0020055107 0.31500003 -1.7060589e+38
0.00093545771 -0.001999144 0.31400001 -1.7058494e+38
0.0014392446 -0.0019927772 0.31300002 -1.7056409e+38
0.0019522279 -0.001999144 0.31400001 -1.7055373e+38
0.0029689982 -0.001999144 0.31400001 -1.7055373e+38
0.0034884578 -0.0020055107 0.31500003 -1.7055894e+38
0.0039984616 -0.0020055107 0.31500003 -1.7055373e+38
0.012048948 -0.0018336098 0.28800002 -1.7062137e+38
0.012471781 -0.001827243 0.287 -1.7729878e+38
0.013401123 -0.001827243 0.287 -1.9731535e+38
0.013865793 -0.001827243 0.287 -2.3583678e+38
-0.026742714 -0.0013483298 0.28400001 -1.9725795e+38
-0.026282899 -0.0013483298 0.28400001 -1.8791687e+38
-0.025363272 -0.0013483298 0.28400001 -1.7057967e+38
-0.024903459 -0.0013483298 0.28400001 -1.7055355e+38
-0.024443647 -0.0013483298 0.28400001 -1.7052227e+38
-0.023983832 -0.0013483298 0.28400001 -1.7048063e+38
-0.023064207 -0.0013483298 0.28400001 -1.7045455e+38
-0.022604393 -0.0013483298 0.28400001 -1.7044933e+38
-0.022222554 -0.0013530775 0.28500003 -1.704285e+38
-0.021761121 -0.0013530775 0.28500003 -1.7043372e+38
-0.0096165445 -0.0014717684 0.31 -1.704338e+38
-0.009144038 -0.001476516 0.31100002 -1.704338e+38
-0.0061622458 -0.0014860114 0.31300002 -1.7055886e+38
-0.0056735482 -0.001490759 0.31400001 -1.7189851e+38
-0.005165163 -0.001490759 0.31400001 -1.705902e+38
-0.0041616042 -0.0014955066 0.31500003 -1.7061105e+38
-0.0036516003 -0.0014955066 0.31500003 -1.7061626e+38
-0.0031415962 -0.0014955066 0.31500003 -1.7061632e+38
-0.0026315921 -0.0014955066 0.31500003 -1.7061632e+38
-0.0016115839 -0.0014955066 0.31500003 -1.7062672e+38
-0.0011015797 -0.0014955066 0.31500003 -1.7062151e+38
-0.00059157552 -0.0014955066 0.31500003 -1.706163e+38
-8.1571401e-05 -0.0014955066 0.31500003 -1.706163e+38
0.00093545771 -0.001490759 0.31400001 -1.7060068e+38
0.0034663086 -0.0014860114 0.31300002 -1.7055894e+38
0.0039857682 -0.001490759 0.31400001 -1.7055894e+38
0.012048948 -0.0013673203 0.28800002 -1.7058488e+38
0.012471781 -0.0013625727 0.287 -1.7459863e+38
0.013354429 -0.001357825 0.28600001 -1.8930881e+38
-0.027202526 -0.0008885166 0.28400001 -2.2249242e+38
-0.026742714 -0.0008885166 0.28400001 -1.8260523e+38
-0.026282899 -0.0008885166 0.28400001 -1.7459859e+38
-0.025363272 -0.0008885166 0.28400001 -1.7053795e+38
-0.024903459 -0.0008885166 0.28400001 -1.7050669e+38
-0.024443647 -0.0008885166 0.28400001 -1.7048584e+38
-0.023983832 -0.0008885166 0.28400001 -1.7046495e+38
-0.023064207 -0.0008885166 0.28400001 -1.7043372e+38
-0.022604393 -0.0008885166 0.28400001 -1.7043372e+38
-0.02214458 -0.0008885166 0.28400001 -1.704285e+38
-0.021224953 -0.0008885166 0.28400001 -1.7042331e+38
-0.020765141 -0.0008885166 0.28400001 -1.7042331e+38
-0.020305326 -0.0008885166 0.28400001 -1.7042331e+38
-0.019845514 -0.0008885166 0.28400001 -1.704181e+38
-0.018925887 -0.0008885166 0.28400001 -1.704181e+38
-0.018466074 -0.0008885166 0.28400001 -1.704181e+38
-0.018006261 -0.0008885166 0.28400001 -1.704181e+38
-0.016626822 -0.0008885166 0.28400001 -1.7041289e+38
-0.016167007 -0.0008885166 0.28400001 -1.704181e+38
-0.015707195 -0.0008885166 0.28400001 -1.7042331e+38
-0.014787568 -0.0008885166 0.28400001 -1.7042331e+38
-0.0021148527 -0.00098237395 0.31400001 -1.7062676e+38
-0.0016064676 -0.00098237395 0.31400001 -1.7062676e+38
-0.0010980826 -0.00098237395 0.31400001 -1.7062676e+38
-0.00058969751 -0.00098237395 0.31400001 -1.7062155e+38
0.00042707263 -0.00098237395 0.31400001 -1.7062151e+38
-0.028221175 3.1219341e-05 0.28500003 -2.0654685e+38
-0.027202526 3.1109797e-05 0.28400001 -1.732693e+38
-0.026742714 3.1109797e-05 0.28400001 -1.7055876e+38
-0.026282899 3.1109797e-05 0.28400001 -1.7053269e+38
-0.025363272 3.1109797e-05 0.28400001 -1.7045978e+38
-0.024903459 3.1109797e-05 0.28400001 -1.7044939e+38
-0.024443647 3.1109797e-05 0.28400001 -1.7044418e+38
-0.023983832 3.1109797e-05 0.28400001 -1.7043372e+38
-0.023064207 3.1109797e-05 0.28400001 -1.7042331e+38
-0.022604393 3.1109797e-05 0.28400001 -1.7042331e+38
-0.02214458 3.1109797e-05 0.28400001 -1.704181e+38
-0.021224953 3.1109797e-05 0.28400001 -1.704181e+38
-0.020765141 3.1109797e-05 0.28400001 -1.704181e+38
-0.020305326 3.1109797e-05 0.28400001 -1.704181e+38
-0.019845514 3.1109797e-05 0.28400001 -1.7041289e+38
-0.018925887 3.1109797e-05 0.28400001 -1.704181e+38
-0.018401053 3.1000254e-05 0.28300002 -1.704181e+38
-0.017942859 3.1000254e-05 0.28300002 -1.704181e+38
-0.017026469 3.1000254e-05 0.28300002 -1.704181e+38
-0.016568275 3.1000254e-05 0.28300002 -1.704181e+38
-0.016110081 3.1000254e-05 0.28300002 -1.704181e+38
-0.015193693 3.1000254e-05 0.28300002 -1.704181e+38
-0.014683429 3.0890715e-05 0.28200001 -1.7042331e+38
-0.014226855 3.0890715e-05 0.28200001 -1.704181e+38
-0.013313704 3.0890715e-05 0.28200001 -1.7041816e+38
-0.01285713 3.0890715e-05 0.28200001 -1.7041816e+38
-0.012400554 3.0890715e-05 0.28200001 -1.7041816e+38
-0.011943979 3.0890715e-05 0.28200001 -1.7042337e+38
-0.01103083 3.0890715e-05 0.28200001 -1.7042337e+38
-0.010574254 3.0890715e-05 0.28200001 -1.7042337e+38
-0.010117679 3.0890715e-05 0.28200001 -1.7042341e+38
-0.0092045292 3.0890715e-05 0.28200001 -1.7044946e+38
-0.0087479539 3.0890715e-05 0.28200001 -1.7311834e+38
-0.0082913786 3.0890715e-05 0.28200001 -1.7049635e+38
-0.0078348033 3.0890715e-05 0.28200001 -1.7317566e+38
0.012666003 3.0781172e-05 0.28100002 -1.7058488e+38
0.013575914 3.0781172e-05 0.28100002 -1.7596441e+38
0.013980939 3.0671632e-05 0.28 -1.8663993e+38
0.014485827 3.0781172e-05 0.28100002 -2.0925745e+38
-0.027298309 0.0004926516 0.28500003 -1.7057442e+38
-0.026836878 0.0004926516 0.28500003 -1.705171e+38
-0.026282899 0.000490923 0.28400001 -1.7049103e+38
-0.025363272 0.000490923 0.28400001 -1.7045457e+38
-0.024903459 0.000490923 0.28400001 -1.7043372e+38
-0.024443647 0.000490923 0.28400001 -1.7043372e+38
-0.023983832 0.000490923 0.28400001 -1.7042331e+38
-0.023064207 0.000490923 0.28400001 -1.7042327e+38
-0.022604393 0.000490923 0.28400001 -1.7042327e+38
-0.02214458 0.000490923 0.28400001 -1.7041806e+38
-0.021224953 0.000490923 0.28400001 -1.7041806e+38
-0.020765141 0.000490923 0.28400001 -1.7041806e+38
-0.020305326 0.000490923 0.28400001 -1.7041806e+38
-0.019845514 0.000490923 0.28400001 -1.7041285e+38
-0.018925887 0.000490923 0.28400001 -1.7041806e+38
-0.018401053 0.00048919441 0.28300002 -1.7041806e+38
-0.017942859 0.00048919441 0.28300002 -1.7041806e+38
-0.017026469 0.00048919441 0.28300002 -1.7041806e+38
-0.016568275 0.00048919441 0.28300002 -1.704181e+38
-0.016110081 0.00048919441 0.28300002 -1.704181e+38
-0.015193693 0.00048919441 0.28300002 -1.704181e+38
-0.014735498 0.00048919441 0.28300002 -1.7042331e+38
-0.014226855 0.00048746579 0.28200001 -1.7042331e+38
-0.013313704 0.00048746579 0.28200001 -1.7042331e+38
-0.01285713 0.00048746579 0.28200001 -1.7041816e+38
-0.012400554 0.00048746579 0.28200001 -1.7041816e+38
-0.011943979 0.00048746579 0.28200001 -1.7042337e+38
-0.01103083 0.00048746579 0.28200001 -1.7042341e+38
-0.010574254 0.00048746579 0.28200001 -1.7042341e+38
-0.010117679 0.00048746579 0.28200001 -1.7043388e+38
