# .PCD v0.7 - Point Cloud Data file format
VERSION 0.7
FIELDS x y z rgb
SIZE 4 4 4 4
TYPE F F F F
COUNT 1 1 1 1
WIDTH 935
HEIGHT 1
VIEWPOINT 0 0 0 1 0 0 0
POINTS 935
DATA ascii
-0.017622089 -0.0043530627 0.30100003 -1.704285e+38
-0.017191676 -0.0043675248 0.30200002 -1.7043372e+38
-0.016267452 -0.0043819868 0.303 -1.704285e+38
-0.015828947 -0.0043964488 0.30400002 -1.704181e+38
-0.015387201 -0.0044109109 0.30500001 -1.7042331e+38
-0.014942219 -0.0044253729 0.30600002 -1.7042331e+38
-0.014493998 -0.004439835 0.30700001 -1.7042331e+38
-0.01404254 -0.004454297 0.30800003 -1.704181e+38
-0.013543868 -0.004454297 0.30800003 -1.7042331e+38
-0.012587262 -0.0044687591 0.30900002 -1.7042852e+38
-0.012126088 -0.0044832211 0.31 -1.7042331e+38
-0.011661678 -0.0044976831 0.31100002 -1.7042852e+38
-0.01115815 -0.0044976831 0.31100002 -1.7042331e+38
-0.010688881 -0.0045121452 0.31200001 -1.7042852e+38
-0.010183734 -0.0045121452 0.31200001 -1.7042337e+38
-0.0092028417 -0.0045266072 0.31300002 -1.7042337e+38
-0.0086960755 -0.0045266072 0.31300002 -1.704338e+38
-0.008215474 -0.0045410693 0.31400001 -1.704338e+38
-0.0077070887 -0.0045410693 0.31400001 -1.704338e+38
-0.0072216294 -0.0045555313 0.31500003 -1.704338e+38
-0.0062016207 -0.0045555313 0.31500003 -1.7044942e+38
-0.0057096859 -0.0045699929 0.31600001 -1.704442e+38
-0.0052145119 -0.0045844549 0.317 -1.7044944e+38
-0.0047161002 -0.004598917 0.31800002 -1.7045465e+38
-0.0042144503 -0.004613379 0.31900001 -1.7045986e+38
-0.0037095624 -0.0046278411 0.32000002 -1.7046507e+38
-0.0026733633 -0.0046278411 0.32000002 -1.7048067e+38
-0.0021485288 -0.004613379 0.31900001 -1.7050156e+38
-0.0016320484 -0.004613379 0.31900001 -1.7184121e+38
-0.00059720961 -0.004598917 0.31800002 -1.7051197e+38
-8.183036e-05 -0.0045699929 0.31600001 -1.7050679e+38
0.00094141602 -0.0045699929 0.31600001 -1.7051722e+38
0.0014484409 -0.0045555313 0.31500003 -1.7051722e+38
0.0019584452 -0.0045555313 0.31500003 -1.7052241e+38
0.0029784534 -0.0045555313 0.31500003 -1.7052762e+38
0.0034884578 -0.0045555313 0.31500003 -1.7186728e+38
0.0039730747 -0.0045266072 0.31300002 -1.7053282e+38
0.006319805 -0.0043964488 0.30400002 -1.705276e+38
0.0067895921 -0.0043819868 0.303 -1.7053282e+38
0.00725614 -0.0043675248 0.30200002 -1.7053282e+38
0.010325231 -0.0042229053 0.29200003 -1.7060054e+38
0.011193565 -0.0041939812 0.29000002 -1.8663983e+38
0.012090784 -0.0041795191 0.289 -2.3183875e+38
0.012515237 -0.0041650571 0.28800002 -2.398454e+38
-0.024490535 -0.0037244535 0.29000002 -2.0391965e+38
-0.02363269 -0.0037372964 0.29100001 -1.7727258e+38
-0.023161544 -0.0037372964 0.29100001 -1.7060038e+38
-0.022768371 -0.0037501394 0.29200003 -1.7055872e+38
-0.022371961 -0.0037629821 0.29300001 -1.7052223e+38
-0.022047047 -0.003788668 0.29500002 -1.7048063e+38
-0.02164254 -0.0038015111 0.296 -1.704702e+38
-0.021234795 -0.0038143541 0.29700002 -1.7045459e+38
-0.020823814 -0.003827197 0.29800001 -1.7044937e+38
-0.020409593 -0.0038400399 0.29900002 -1.7043372e+38
-0.019441396 -0.0038400399 0.29900002 -1.704285e+38
-0.019020697 -0.0038528827 0.30000001 -1.7043372e+38
-0.018534979 -0.0038528827 0.30000001 -1.704285e+38
-0.018109426 -0.0038657256 0.30100003 -1.704285e+38
-0.017680634 -0.0038785685 0.30200002 -1.7042331e+38
-0.017191676 -0.0038785685 0.30200002 -1.7042331e+38
-0.016267452 -0.0038914115 0.303 -1.7042331e+38
-0.015828947 -0.0039042546 0.30400002 -1.704181e+38
-0.015387201 -0.0039170976 0.30500001 -1.7042331e+38
-0.014942219 -0.0039299405 0.30600002 -1.7042331e+38
-0.014493998 -0.0039427835 0.30700001 -1.7042331e+38
-0.01404254 -0.0039556264 0.30800003 -1.704181e+38
-0.013587841 -0.0039684693 0.30900002 -1.7042331e+38
-0.013129906 -0.0039813123 0.31 -1.7042852e+38
-0.012126088 -0.0039813123 0.31 -1.7042852e+38
-0.011661678 -0.0039941552 0.31100002 -1.7042852e+38
-0.01115815 -0.0039941552 0.31100002 -1.7042331e+38
-0.010688881 -0.0040069981 0.31200001 -1.7042331e+38
-0.010183734 -0.0040069981 0.31200001 -1.7042852e+38
-0.0091734398 -0.0040069981 0.31200001 -1.7042337e+38
-0.0086960755 -0.0040198411 0.31300002 -1.7042337e+38
-0.0081893094 -0.0040198411 0.31300002 -1.7043384e+38
-0.0077070887 -0.004032684 0.31400001 -1.7043384e+38
-0.0066903187 -0.004032684 0.31400001 -1.7044424e+38
-0.0062016207 -0.004045527 0.31500003 -1.7044946e+38
-0.0057096859 -0.0040583699 0.31600001 -1.7044946e+38
-0.0051980624 -0.0040583699 0.31600001 -1.7045465e+38
-0.0047161002 -0.0040840558 0.31800002 -1.7045986e+38
-0.0042144503 -0.0040968987 0.31900001 -1.7047027e+38
-0.00369797 -0.0040968987 0.31900001 -1.7047548e+38
-0.0026650091 -0.0040968987 0.31900001 -1.7717898e+38
-0.0021485288 -0.0040968987 0.31900001 -1.7056407e+38
-0.0011085737 -0.0040712128 0.317 -1.7055369e+38
-0.0005953316 -0.0040712128 0.317 -1.7053284e+38
-8.183036e-05 -0.0040583699 0.31600001 -1.7052245e+38
0.00093843683 -0.004045527 0.31500003 -1.7052245e+38
0.0014438428 -0.004032684 0.31400001 -1.7052766e+38
0.0019522279 -0.004032684 0.31400001 -1.7052245e+38
0.0029689982 -0.004032684 0.31400001 -1.7054328e+38
0.0034773832 -0.004032684 0.31400001 -1.7054849e+38
0.0039857682 -0.004032684 0.31400001 -1.7054328e+38
0.0067895921 -0.0038914115 0.303 -1.7054328e+38
0.0072801677 -0.0038914115 0.303 -1.7054328e+38
0.0082340529 -0.0038785685 0.30200002 -1.7054328e+38
0.010325231 -0.0037501394 0.29200003 -1.7057448e+38
0.011193565 -0.0037244535 0.29000002 -1.7729878e+38
0.012048948 -0.0036987674 0.28800002 -2.1457445e+38
0.012515237 -0.0036987674 0.28800002 -2.2258109e+38
-0.024490535 -0.0032549258 0.29000002 -1.8127594e+38
-0.023551479 -0.0032549258 0.29000002 -1.7057959e+38
-0.023161544 -0.0032661497 0.29100001 -1.7054831e+38
-0.022768371 -0.0032773735 0.29200003 -1.7051186e+38
-0.022371961 -0.0032885976 0.29300001 -1.704858e+38
-0.021972312 -0.0032998212 0.294 -1.704598e+38
-0.02164254 -0.0033222691 0.296 -1.7045459e+38
-0.021234795 -0.0033334931 0.29700002 -1.7044418e+38
-0.020823814 -0.003344717 0.29800001 -1.7043376e+38
-0.019858854 -0.003344717 0.29800001 -1.7042846e+38
-0.019441396 -0.0033559408 0.29900002 -1.7042327e+38
-0.019020697 -0.0033671644 0.30000001 -1.7042327e+38
-0.018534979 -0.0033671644 0.30000001 -1.7042327e+38
-0.018109426 -0.0033783885 0.30100003 -1.7042327e+38
-0.017680634 -0.0033896123 0.30200002 -1.7042331e+38
-0.017248604 -0.0034008361 0.303 -1.7042852e+38
-0.016813336 -0.0034120602 0.30400002 -1.7042331e+38
-0.015881015 -0.003423284 0.30500001 -1.704181e+38
-0.015437651 -0.0034345081 0.30600002 -1.7042331e+38
-0.014942219 -0.0034345081 0.30600002 -1.7042331e+38
-0.014493998 -0.0034457319 0.30700001 -1.7042331e+38
-0.01404254 -0.003456956 0.30800003 -1.704181e+38
-0.013587841 -0.0034681794 0.30900002 -1.7042331e+38
-0.013129906 -0.0034794034 0.31 -1.7042331e+38
-0.012126088 -0.0034794034 0.31 -1.7042852e+38
-0.011661678 -0.0034906273 0.31100002 -1.7042852e+38
-0.01115815 -0.0034906273 0.31100002 -1.7042331e+38
-0.010688881 -0.0035018513 0.31200001 -1.7042331e+38
-0.010183734 -0.0035018513 0.31200001 -1.7042852e+38
-0.0091734398 -0.0035018513 0.31200001 -1.7042337e+38
-0.0086960755 -0.0035130752 0.31300002 -1.7042337e+38
-0.0081893094 -0.0035130752 0.31300002 -1.7043384e+38
-0.0077070887 -0.003524299 0.31400001 -1.7043384e+38
-0.0066903187 -0.003524299 0.31400001 -1.7044424e+38
-0.0062016207 -0.0035355231 0.31500003 -1.7045465e+38
-0.0056916168 -0.0035355231 0.31500003 -1.7045465e+38
-0.0051816124 -0.0035355231 0.31500003 -1.7047027e+38
-0.0047012698 -0.0035579705 0.317 -1.7047027e+38
-0.0042144503 -0.0035804184 0.31900001 -1.7049635e+38
-0.0037095624 -0.0035916422 0.32000002 -1.7317566e+38
-0.0026566549 -0.0035691943 0.31800002 -1.7457261e+38
-0.0021350584 -0.0035579705 0.317 -1.7325908e+38
-0.0011050767 -0.0035467464 0.31600001 -1.7057977e+38
-0.00059157552 -0.0035355231 0.31500003 -1.7055892e+38
-8.1571401e-05 -0.0035355231 0.31500003 -1.7053805e+38
0.00093545771 -0.003524299 0.31400001 -1.7053286e+38
0.0014438428 -0.003524299 0.31400001 -1.7053286e+38
0.0019522279 -0.003524299 0.31400001 -1.7053286e+38
0.0029689982 -0.003524299 0.31400001 -1.7054328e+38
0.0034773832 -0.003524299 0.31400001 -1.7054849e+38
0.0068119997 -0.0034120602 0.30400002 -1.7053286e+38
0.0072801677 -0.0034008361 0.303 -1.7054328e+38
0.0082340529 -0.0033896123 0.30200002 -1.7054328e+38
0.011154966 -0.003243702 0.289 -1.7062137e+38
0.012007111 -0.0032212541 0.287 -1.9463081e+38
0.012471781 -0.0032212541 0.287 -2.0130302e+38
0.013401123 -0.0032212541 0.287 -2.6651849e+38
-0.023081951 -0.0027853984 0.29000002 -1.7051186e+38
-0.022690397 -0.0027950031 0.29100001 -1.7048578e+38
-0.022295605 -0.0028046079 0.29200003 -1.7047014e+38
-0.021897575 -0.0028142128 0.29300001 -1.7045455e+38
-0.021569423 -0.0028334223 0.29500002 -1.7043891e+38
-0.021163298 -0.0028430272 0.296 -1.7043372e+38
-0.020753935 -0.002852632 0.29700002 -1.704285e+38
0.011154966 -0.0027757934 0.289 -1.706005e+38
0.012007111 -0.0027565837 0.287 -1.8130211e+38
0.012471781 -0.0027565837 0.287 -1.9197763e+38
0.013401123 -0.0027565837 0.287 -2.2122574e+38
-0.019858854 -0.0023797569 0.29800001 -1.7041806e+38
-0.019441396 -0.0023877425 0.29900002 -1.7041806e+38
-0.018957296 -0.0023877425 0.29900002 -1.7042327e+38
-0.018534979 -0.0023957284 0.30000001 -1.7042327e+38
-0.018109426 -0.0024037142 0.30100003 -1.7041806e+38
-0.017622089 -0.0024037142 0.30100003 -1.7041806e+38
-0.017191676 -0.0024116999 0.30200002 -1.7042327e+38
-0.016813336 -0.0024276713 0.30400002 -1.7042327e+38
-0.015881015 -0.0024356572 0.30500001 -1.7042327e+38
-0.015387201 -0.0024356572 0.30500001 -1.7042327e+38
-0.014942219 -0.0024436431 0.30600002 -1.7042327e+38
-0.014493998 -0.0024516287 0.30700001 -1.7042327e+38
-0.01404254 -0.0024596143 0.30800003 -1.7042331e+38
-0.013587841 -0.0024676002 0.30900002 -1.7042331e+38
-0.013129906 -0.0024755858 0.31 -1.7042852e+38
-0.012126088 -0.0024755858 0.31 -1.7042852e+38
-0.011661678 -0.0024835716 0.31100002 -1.7042852e+38
-0.01115815 -0.0024835716 0.31100002 -1.7042852e+38
-0.010688881 -0.0024915575 0.31200001 -1.7042852e+38
-0.010183734 -0.0024915575 0.31200001 -1.7042852e+38
-0.0091734398 -0.0024915575 0.31200001 -1.7042337e+38
-0.0086960755 -0.0024995434 0.31300002 -1.704338e+38
-0.0081893094 -0.0024995434 0.31300002 -1.7044424e+38
-0.0076825437 -0.0024995434 0.31300002 -1.7044946e+38
-0.0066903187 -0.002507529 0.31400001 -1.704495e+38
-0.0061819335 -0.002507529 0.31400001 -1.704599e+38
-0.0056916168 -0.0025155146 0.31500003 -1.7313921e+38
-0.0051816124 -0.0025155146 0.31500003 -1.7052762e+38
-0.0047012698 -0.0025314863 0.317 -1.758706e+38
-0.0042144503 -0.0025474578 0.31900001 -1.7057973e+38
-0.00369797 -0.0025474578 0.31900001 -1.7325382e+38
-0.0026566549 -0.002539472 0.31800002 -1.7062147e+38
-0.0021283231 -0.0025235005 0.31600001 -1.7062153e+38
-0.0011015797 -0.0025155146 0.31500003 -1.706163e+38
-0.00058969751 -0.002507529 0.31400001 -1.7060587e+38
0.00042707263 -0.002507529 0.31400001 -1.7056941e+38
0.00093247858 -0.0024995434 0.31300002 -1.7054852e+38
0.0014392446 -0.0024995434 0.31300002 -1.7054852e+38
0.0019522279 -0.002507529 0.31400001 -1.7054847e+38
0.0029689982 -0.002507529 0.31400001 -1.7054847e+38
0.0034995319 -0.0025235005 0.31600001 -1.7055369e+38
0.0068119997 -0.0024276713 0.30400002 -1.7054847e+38
0.0072801677 -0.0024196855 0.303 -1.7054847e+38
0.0082340529 -0.0024116999 0.30200002 -1.7054847e+38
-0.026836878 -0.0018145097 0.28500003 -2.2914361e+38
-0.026375445 -0.0018145097 0.28500003 -2.2647472e+38
-0.025914013 -0.0018145097 0.28500003 -1.8393438e+38
-0.024991149 -0.0018145097 0.28500003 -1.7325889e+38
-0.024529716 -0.0018145097 0.28500003 -1.7056395e+38
-0.024068283 -0.0018145097 0.28500003 -1.705171e+38
-0.023606852 -0.0018145097 0.28500003 -1.7049625e+38
-0.022763578 -0.0018208763 0.28600001 -1.7045457e+38
-0.015387201 -0.0019418438 0.30500001 -1.7042327e+38
-0.014942219 -0.0019482105 0.30600002 -1.7042327e+38
-0.014493998 -0.0019545769 0.30700001 -1.7042327e+38
-0.01404254 -0.0019609437 0.30800003 -1.7042331e+38
-0.013543868 -0.0019609437 0.30800003 -1.7042331e+38
-0.012587262 -0.0019673104 0.30900002 -1.7042331e+38
-0.012126088 -0.001973677 0.31 -1.7042852e+38
-0.011661678 -0.0019800437 0.31100002 -1.7042852e+38
-0.01115815 -0.0019800437 0.31100002 -1.7042852e+38
-0.010654622 -0.0019800437 0.31100002 -1.7042852e+38
-0.010183734 -0.0019864105 0.31200001 -1.7042852e+38
-0.0091734398 -0.0019864105 0.31200001 -1.704338e+38
-0.0086682932 -0.0019864105 0.31200001 -1.704338e+38
-0.0081893094 -0.0019927772 0.31300002 -1.7044424e+38
-0.0076825437 -0.0019927772 0.31300002 -1.7044946e+38
-0.0066903187 -0.001999144 0.31400001 -1.7046511e+38
-0.0061819335 -0.001999144 0.31400001 -1.705016e+38
-0.0056916168 -0.0020055107 0.31500003 -1.7584458e+38
-0.0051816124 -0.0020055107 0.31500003 -1.7056417e+38
-0.0042144503 -0.0020309775 0.31900001 -1.7060064e+38
-0.00369797 -0.0020309775 0.31900001 -1.7194029e+38
-0.0026566549 -0.0020246108 0.31800002 -1.7062157e+38
-0.0011015797 -0.0020055107 0.31500003 -1.7062155e+38
-0.00058969751 -0.001999144 0.31400001 -1.7061634e+38
0.00042707263 -0.001999144 0.31400001 -1.706007e+38
0.00093247858 -0.0019927772 0.31300002 -1.7057458e+38
0.0014392446 -0.0019927772 0.31300002 -1.7055894e+38
0.0024527765 -0.0019927772 0.31300002 -1.7055888e+38
0.0029689982 -0.001999144 0.31400001 -1.7054847e+38
0.0072801677 -0.0019291103 0.303 -1.7054847e+38
0.0082340529 -0.0019227435 0.30200002 -1.7054847e+38
0.012007111 -0.001827243 0.287 -1.7061092e+38
0.012471781 -0.001827243 0.287 -1.7995201e+38
0.013401123 -0.001827243 0.287 -1.9731535e+38
0.013865793 -0.001827243 0.287 -2.278666e+38
0.014330463 -0.001827243 0.287 -2.4654877e+38
-0.026836878 -0.0013530775 0.28500003 -2.0125073e+38
-0.026282899 -0.0013483298 0.28400001 -1.9190964e+38
-0.025363272 -0.0013483298 0.28400001 -1.7060042e+38
-0.024903459 -0.0013483298 0.28400001 -1.705535e+38
-0.024443647 -0.0013483298 0.28400001 -1.7052744e+38
-0.023983832 -0.0013483298 0.28400001 -1.7048061e+38
-0.023064207 -0.0013483298 0.28400001 -1.7044933e+38
-0.022604393 -0.0013483298 0.28400001 -1.7043891e+38
-0.02214458 -0.0013483298 0.28400001 -1.7043368e+38
-0.021837475 -0.001357825 0.28600001 -1.7042846e+38
-0.012126088 -0.0014717684 0.31 -1.7042337e+38
-0.01162418 -0.0014717684 0.31 -1.7042337e+38
-0.01115815 -0.001476516 0.31100002 -1.7042337e+38
-0.010654622 -0.001476516 0.31100002 -1.7042337e+38
-0.010183734 -0.0014812637 0.31200001 -1.7042337e+38
-0.0091734398 -0.0014812637 0.31200001 -1.704338e+38
-0.0086682932 -0.0014812637 0.31200001 -1.704338e+38
-0.0081893094 -0.0014860114 0.31300002 -1.7044424e+38
-0.0076825437 -0.0014860114 0.31300002 -1.7311834e+38
-0.0066690114 -0.0014860114 0.31300002 -1.7716857e+38
-0.0061819335 -0.001490759 0.31400001 -1.705589e+38
-0.0056735482 -0.001490759 0.31400001 -1.7189855e+38
-0.0051816124 -0.0014955066 0.31500003 -1.7059024e+38
-8.1053491e-05 -0.0014860114 0.31300002 -1.7062155e+38
0.00042571253 -0.0014860114 0.31300002 -1.7061113e+38
0.00093247858 -0.0014860114 0.31300002 -1.7059547e+38
0.0014392446 -0.0014860114 0.31300002 -1.7057462e+38
0.0024527765 -0.0014860114 0.31300002 -1.7056415e+38
0.0029689982 -0.001490759 0.31400001 -1.7055373e+38
0.0034884578 -0.0014955066 0.31500003 -1.7055894e+38
0.0039984616 -0.0014955066 0.31500003 -1.7055894e+38
0.0072801677 -0.0014385349 0.303 -1.7054847e+38
0.012007111 -0.0013625727 0.287 -1.7058488e+38
0.012471781 -0.0013625727 0.287 -1.7459863e+38
0.013401123 -0.0013625727 0.287 -1.8931396e+38
0.013817481 -0.001357825 0.28600001 -2.0793348e+38
-0.027202526 -0.0008885166 0.28400001 -2.1451179e+38
-0.026742714 -0.0008885166 0.28400001 -1.8261038e+38
-0.026282899 -0.0008885166 0.28400001 -1.7460374e+38
-0.025363272 -0.0008885166 0.28400001 -1.7054308e+38
-0.024903459 -0.0008885166 0.28400001 -1.7050665e+38
-0.024443647 -0.0008885166 0.28400001 -1.704858e+38
-0.023983832 -0.0008885166 0.28400001 -1.7046501e+38
-0.023064207 -0.0008885166 0.28400001 -1.7043372e+38
-0.022604393 -0.0008885166 0.28400001 -1.704285e+38
-0.02214458 -0.0008885166 0.28400001 -1.7042327e+38
-0.021224953 -0.0008885166 0.28400001 -1.7042327e+38
-0.020765141 -0.0008885166 0.28400001 -1.7042327e+38
-0.020305326 -0.0008885166 0.28400001 -1.7041806e+38
-0.019317441 -0.00088538794 0.28300002 -1.7041806e+38
-0.018859247 -0.00088538794 0.28300002 -1.7041285e+38
-0.018401053 -0.00088538794 0.28300002 -1.7041806e+38
-0.017942859 -0.00088538794 0.28300002 -1.7042327e+38
-0.017026469 -0.00088538794 0.28300002 -1.7041806e+38
-0.016568275 -0.00088538794 0.28300002 -1.7041806e+38
-0.016110081 -0.00088538794 0.28300002 -1.7042327e+38
-0.015193693 -0.00088538794 0.28300002 -1.7042327e+38
-0.014735498 -0.00088538794 0.28300002 -1.7042327e+38
0.011965274 -0.00089477375 0.28600001 -1.7056407e+38
-0.027202526 3.1109797e-05 0.28400001 -1.7459859e+38
-0.026742714 3.1109797e-05 0.28400001 -1.7056918e+38
-0.026282899 3.1109797e-05 0.28400001 -1.7053269e+38
-0.025363272 3.1109797e-05 0.28400001 -1.7047014e+38
-0.024903459 3.1109797e-05 0.28400001 -1.7045451e+38
-0.024443647 3.1109797e-05 0.28400001 -1.7044929e+38
-0.023983832 3.1109797e-05 0.28400001 -1.704441e+38
-0.023064207 3.1109797e-05 0.28400001 -1.7042327e+38
-0.022604393 3.1109797e-05 0.28400001 -1.7041285e+38
-0.02214458 3.1109797e-05 0.28400001 -1.7041806e+38
-0.021224953 3.1109797e-05 0.28400001 -1.7041806e+38
-0.020765141 3.1109797e-05 0.28400001 -1.7041806e+38
-0.020233829 3.1000254e-05 0.28300002 -1.7041806e+38
-0.019317441 3.1000254e-05 0.28300002 -1.7041806e+38
-0.018859247 3.1000254e-05 0.28300002 -1.7041806e+38
-0.018401053 3.1000254e-05 0.28300002 -1.7041806e+38
-0.017942859 3.1000254e-05 0.28300002 -1.7042327e+38
-0.017026469 3.1000254e-05 0.28300002 -1.7041806e+38
-0.016568275 3.1000254e-05 0.28300002 -1.7042327e+38
-0.016110081 3.1000254e-05 0.28300002 -1.7042327e+38
-0.015193693 3.1000254e-05 0.28300002 -1.7042327e+38
-0.014683429 3.0890715e-05 0.28200001 -1.7042327e+38
-0.014226855 3.0890715e-05 0.28200001 -1.7042327e+38
-0.013313704 3.0890715e-05 0.28200001 -1.7042327e+38
-0.01285713 3.0890715e-05 0.28200001 -1.7042331e+38
-0.012400554 3.0890715e-05 0.28200001 -1.7042852e+38
-0.011943979 3.0890715e-05 0.28200001 -1.7042337e+38
-0.01103083 3.0890715e-05 0.28200001 -1.7042337e+38
-0.010574254 3.0890715e-05 0.28200001 -1.7042337e+38
-0.010153557 3.1000254e-05 0.28300002 -1.7042337e+38
0.012711078 3.0890715e-05 0.28200001 -1.7058488e+38
0.013575914 3.0781172e-05 0.28100002 -1.7729885e+38
0.014030871 3.0781172e-05 0.28100002 -1.8663993e+38
0.014485827 3.0781172e-05 0.28100002 -2.1192118e+38
-0.027202526 0.000490923 0.28400001 -1.705692e+38
-0.026742714 0.000490923 0.28400001 -1.705171e+38
-0.026282899 0.000490923 0.28400001 -1.7049103e+38
-0.025363272 0.000490923 0.28400001 -1.7045453e+38
-0.024903459 0.000490923 0.28400001 -1.7043368e+38
-0.024443647 0.000490923 0.28400001 -1.7043368e+38
-0.023983832 0.000490923 0.28400001 -1.7043368e+38
-0.023064207 0.000490923 0.28400001 -1.7041806e+38
-0.022604393 0.000490923 0.28400001 -1.7041285e+38
-0.02214458 0.000490923 0.28400001 -1.7041806e+38
-0.021224953 0.000490923 0.28400001 -1.7041806e+38
-0.020692023 0.00048919441 0.28300002 -1.7041806e+38
-0.020233829 0.00048919441 0.28300002 -1.7041806e+38
-0.019317441 0.00048919441 0.28300002 -1.7041806e+38
-0.018859247 0.00048919441 0.28300002 -1.7041806e+38
-0.018401053 0.00048919441 0.28300002 -1.7041806e+38
-0.017942859 0.00048919441 0.28300002 -1.7042327e+38
-0.017026469 0.00048919441 0.28300002 -1.7041806e+38
-0.016568275 0.00048919441 0.28300002 -1.7042327e+38
-0.016110081 0.00048919441 0.28300002 -1.7042327e+38
-0.015193693 0.00048919441 0.28300002 -1.7042327e+38
-0.014735498 0.00048919441 0.28300002 -1.7042327e+38
-0.014226855 0.00048746579 0.28200001 -1.7042327e+38
-0.013313704 0.00048746579 0.28200001 -1.7042331e+38
-0.01285713 0.00048746579 0.28200001 -1.7041816e+38
-0.012400554 0.00048746579 0.28200001 -1.7042337e+38
-0.011943979 0.00048746579 0.28200001 -1.7042337e+38
-0.01103083 0.00048746579 0.28200001 -1.7042337e+38
-0.010574254 0.00048746579 0.28200001 -1.7042337e+38
-0.010081801 0.00048573717 0.28100002 -1.7043899e+38
-0.0091718882 0.00048573717 0.28100002 -1.704911e+38
-0.0087169325 0.00048573717 0.28100002 -1.7183596e+38
-0.0082619758 0.00048573717 0.28100002 -1.7052762e+38
-0.0073520639 0.00048573717 0.28100002 -1.7057973e+38
-0.0068971077 0.00048573717 0.28100002 -1.7057973e+38
-0.006442152 0.00048573717 0.28100002 -1.7059535e+38
-0.0055125519 0.00048400857 0.28 -1.7192464e+38
-0.0050592152 0.00048400857 0.28 -1.7192464e+38
-0.0032458671 0.00048400857 0.28 -1.7061626e+38
-0.00279253 0.00048400857 0.28 -1.7061111e+38
-0.0023391929 0.00048400857 0.28 -1.7061632e+38
-0.0014325189 0.00048400857 0.28 -1.7062153e+38
-7.2507915e-05 0.00048400857 0.28 -1.7063719e+38
0.00083416613 0.00048400857 0.28 -1.7063719e+38
0.0012875032 0.00048400857 0.28 -1.7063719e+38
0.0017408401 0.00048400857 0.28 -1.7063196e+38
0.0022020135 0.00048573717 0.28100002 -1.7062674e+38
0.005386706 0.00048573717 0.28100002 -1.7055894e+38
0.0058208732 0.00048400857 0.28 -1.7055373e+38
0.0067275469 0.00048400857 0.28 -1.7055894e+38
0.007180884 0.00048400857 0.28 -1.7055888e+38
0.0076342211 0.00048400857 0.28 -1.7055888e+38
0.0080875577 0.00048400857 0.28 -1.7054843e+38
0.0085713984 0.00048573717 0.28100002 -1.7054843e+38
0.0094813108 0.00048573717 0.28100002 -1.7054843e+38
0.010428202 0.00048746579 0.28200001 -1.7054843e+38
0.010884777 0.00048746579 0.28200001 -1.7053801e+38
0.011756091 0.00048573717 0.28100002 -1.7053801e+38
0.012167591 0.00048400857 0.28 -1.7055365e+38
0.013074265 0.00048400857 0.28 -1.7191934e+38
0.013527602 0.00048400857 0.28 -1.7062664e+38
0.013980939 0.00048400857 0.28 -1.7996773e+38
0.014434276 0.00048400857 0.28 -1.9463081e+38
0.015395739 0.00048573717 0.28100002 -2.4912908e+38
-0.027298309 0.00095408381 0.28500003 -1.7055352e+38
-0.026836878 0.00095408381 0.28500003 -1.7049095e+38
-0.026375445 0.00095408381 0.28500003 -1.7049095e+38
-0.025363272 0.00095073617 0.28400001 -1.7044408e+38
-0.024903459 0.00095073617 0.28400001 -1.7043366e+38
-0.024443647 0.00095073617 0.28400001 -1.7043366e+38
-0.023983832 0.00095073617 0.28400001 -1.7042846e+38
-0.023064207 0.00095073617 0.28400001 -1.7042327e+38
-0.022604393 0.00095073617 0.28400001 -1.7041285e+38
-0.02214458 0.00095073617 0.28400001 -1.7041806e+38
-0.021224953 0.00095073617 0.28400001 -1.7041806e+38
-0.020765141 0.00095073617 0.28400001 -1.7041806e+38
-0.020233829 0.00094738859 0.28300002 -1.7041806e+38
-0.019317441 0.00094738859 0.28300002 -1.7041806e+38
-0.018859247 0.00094738859 0.28300002 -1.7041806e+38
-0.018401053 0.00094738859 0.28300002 -1.7041806e+38
-0.017942859 0.00094738859 0.28300002 -1.7041806e+38
-0.017026469 0.00094738859 0.28300002 -1.7041806e+38
-0.016568275 0.00094738859 0.28300002 -1.7041806e+38
-0.016110081 0.00094738859 0.28300002 -1.7042327e+38
-0.015193693 0.00094738859 0.28300002 -1.7042327e+38
-0.014735498 0.00094738859 0.28300002 -1.7042327e+38
-0.014226855 0.00094404083 0.28200001 -1.7042327e+38
-0.013313704 0.00094404083 0.28200001 -1.7042331e+38
-0.01285713 0.00094404083 0.28200001 -1.7041816e+38
-0.012400554 0.00094404083 0.28200001 -1.7042337e+38
-0.011943979 0.00094404083 0.28200001 -1.7042341e+38
-0.01103083 0.00094404083 0.28200001 -1.7043384e+38
-0.010574254 0.00094404083 0.28200001 -1.7043384e+38
-0.010081801 0.00094069313 0.28100002 -1.7045984e+38
-0.0091718882 0.00094069313 0.28100002 -1.7052758e+38
-0.0087169325 0.00094069313 0.28100002 -1.7320168e+38
-0.0082619758 0.00094069313 0.28100002 -1.7056411e+38
-0.0073520639 0.00094069313 0.28100002 -1.7057458e+38
-0.0068971077 0.00094069313 0.28100002 -1.7057458e+38
-0.006442152 0.00094069313 0.28100002 -1.705902e+38
-0.0055125519 0.00093734555 0.28 -1.705902e+38
-0.0050592152 0.00093734555 0.28 -1.705902e+38
-0.0046058781 0.00093734555 0.28 -1.706006e+38
-0.004152541 0.00093734555 0.28 -1.7060581e+38
-0.0032458671 0.00093734555 0.28 -1.7061626e+38
-0.00279253 0.00093734555 0.28 -1.7061626e+38
-0.0023391929 0.00093734555 0.28 -1.7061626e+38
-0.0014325189 0.00093734555 0.28 -1.7061632e+38
-0.00097918196 0.00093734555 0.28 -1.7062672e+38
-0.00052584492 0.00093734555 0.28 -1.7062672e+38
-7.2507915e-05 0.00093734555 0.28 -1.7063719e+38
0.00083416613 0.00093734555 0.28 -1.7064238e+38
0.0012875032 0.00093734555 0.28 -1.7064238e+38
0.0017408401 0.00093734555 0.28 -1.7064759e+38
0.0026475142 0.00093734555 0.28 -1.7063196e+38
0.0031008511 0.00093734555 0.28 -1.7061111e+38
0.0035541882 0.00093734555 0.28 -1.7058498e+38
0.0040075253 0.00093734555 0.28 -1.7057456e+38
0.004914199 0.00093734555 0.28 -1.7056935e+38
0.0053675361 0.00093734555 0.28 -1.7056935e+38
0.0058208732 0.00093734555 0.28 -1.7056413e+38
0.0067275469 0.00093734555 0.28 -1.7055894e+38
0.007180884 0.00093734555 0.28 -1.7055888e+38
0.0076342211 0.00093734555 0.28 -1.7055888e+38
0.0080875577 0.00093734555 0.28 -1.7055365e+38
0.0089942319 0.00093734555 0.28 -1.7054843e+38
0.009447569 0.00093734555 0.28 -1.7053801e+38
0.0099009061 0.00093734555 0.28 -1.7054843e+38
0.010354243 0.00093734555 0.28 -1.7054843e+38
0.011260917 0.00093734555 0.28 -1.7053801e+38
0.011714254 0.00093734555 0.28 -1.7053801e+38
0.012167591 0.00093734555 0.28 -1.7055365e+38
0.013074265 0.00093734555 0.28 -1.7056928e+38
0.013527602 0.00093734555 0.28 -1.7061096e+38
0.013980939 0.00093734555 0.28 -1.7995205e+38
0.014434276 0.00093734555 0.28 -1.8531064e+38
0.014993954 0.00094404083 0.28200001 -1.9331728e+38
-0.027298309 0.001415516 0.28500003 -1.7200779e+38
-0.026836878 0.001415516 0.28500003 -1.7066285e+38
-0.026375445 0.001415516 0.28500003 -1.7063157e+38
-0.025914013 0.001415516 0.28500003 -1.7058474e+38
-0.024991149 0.001415516 0.28500003 -1.7050138e+38
-0.024529716 0.001415516 0.28500003 -1.7049095e+38
-0.023983832 0.0014105494 0.28400001 -1.7045968e+38
-0.023064207 0.0014105494 0.28400001 -1.7042844e+38
-0.022604393 0.0014105494 0.28400001 -1.7043887e+38
-0.02214458 0.0014105494 0.28400001 -1.7043362e+38
-0.021224953 0.0014105494 0.28400001 -1.7042842e+38
-0.020765141 0.0014105494 0.28400001 -1.7042842e+38
-0.020305326 0.0014105494 0.28400001 -1.7042325e+38
-0.019317441 0.0014055826 0.28300002 -1.7042325e+38
-0.018859247 0.0014055826 0.28300002 -1.7042325e+38
-0.018401053 0.0014055826 0.28300002 -1.7041806e+38
-0.017942859 0.0014055826 0.28300002 -1.7042327e+38
-0.017026469 0.0014055826 0.28300002 -1.7041806e+38
-0.016568275 0.0014055826 0.28300002 -1.7042327e+38
-0.016110081 0.0014055826 0.28300002 -1.7042327e+38
-0.015193693 0.0014055826 0.28300002 -1.7042327e+38
-0.014735498 0.0014055826 0.28300002 -1.7042327e+38
-0.014277305 0.0014055826 0.28300002 -1.7042327e+38
-0.013313704 0.0014006159 0.28200001 -1.7042852e+38
-0.01285713 0.0014006159 0.28200001 -1.704182e+38
-0.012400554 0.0014006159 0.28200001 -1.7042341e+38
-0.011943979 0.0014006159 0.28200001 -1.7042341e+38
-0.01103083 0.0014006159 0.28200001 -1.7044424e+38
-0.010574254 0.0014006159 0.28200001 -1.717839e+38
-0.010117679 0.0014006159 0.28200001 -1.7049635e+38
-0.0092045292 0.0014006159 0.28200001 -1.7055886e+38
-0.0087169325 0.0013956492 0.28100002 -1.7056928e+38
-0.0082619758 0.0013956492 0.28100002 -1.7057452e+38
-0.0073520639 0.0013956492 0.28100002 -1.705902e+38
-0.0068971077 0.0013956492 0.28100002 -1.705902e+38
-0.006442152 0.0013956492 0.28100002 -1.705902e+38
-0.0059871958 0.0013956492 0.28100002 -1.705902e+38
-0.0050592152 0.0013906824 0.28 -1.705902e+38
-0.0046058781 0.0013906824 0.28 -1.706006e+38
-0.004152541 0.0013906824 0.28 -1.706006e+38
-0.0032458671 0.0013906824 0.28 -1.7061626e+38
-0.00279253 0.0013906824 0.28 -1.7061626e+38
-0.0023391929 0.0013906824 0.28 -1.7061626e+38
-0.0014325189 0.0013906824 0.28 -1.7061632e+38
-0.00097918196 0.0013906824 0.28 -1.7062151e+38
-0.00052584492 0.0013906824 0.28 -1.7062672e+38
-7.2507915e-05 0.0013906824 0.28 -1.7063719e+38
0.00083416613 0.0013906824 0.28 -1.7064759e+38
0.0012875032 0.0013906824 0.28 -1.7064759e+38
0.0017408401 0.0013906824 0.28 -1.7065279e+38
0.0026475142 0.0013906824 0.28 -1.7064757e+38
0.0031008511 0.0013906824 0.28 -1.7063194e+38
0.0035541882 0.0013906824 0.28 -1.7060587e+38
0.0040075253 0.0013906824 0.28 -1.7058502e+38
0.004914199 0.0013906824 0.28 -1.7057458e+38
0.0053675361 0.0013906824 0.28 -1.7056939e+38
0.0058208732 0.0013906824 0.28 -1.7056939e+38
0.0067275469 0.0013906824 0.28 -1.7055898e+38
0.007180884 0.0013906824 0.28 -1.7055894e+38
0.0076342211 0.0013906824 0.28 -1.7055894e+38
0.0080875577 0.0013906824 0.28 -1.7056409e+38
0.0089942319 0.0013906824 0.28 -1.7054843e+38
0.009447569 0.0013906824 0.28 -1.7054843e+38
0.0099009061 0.0013906824 0.28 -1.7054843e+38
0.010354243 0.0013906824 0.28 -1.7054843e+38
0.011260917 0.0013906824 0.28 -1.7053801e+38
0.011714254 0.0013906824 0.28 -1.7053801e+38
0.012167591 0.0013906824 0.28 -1.7054843e+38
0.013074265 0.0013906824 0.28 -1.7056407e+38
0.013527602 0.0013906824 0.28 -1.7058488e+38
0.013980939 0.0013906824 0.28 -1.7459863e+38
0.014485827 0.0013956492 0.28100002 -1.7863329e+38
-0.027857145 0.0023465855 0.28600001 -1.7072029e+38
-0.026836878 0.0023383806 0.28500003 -1.7072029e+38
-0.026375445 0.0023383806 0.28500003 -1.7071507e+38
-0.025914013 0.0023383806 0.28500003 -1.7071507e+38
-0.024991149 0.0023383806 0.28500003 -1.7072029e+38
-0.024529716 0.0023383806 0.28500003 -1.7071507e+38
-0.024068283 0.0023383806 0.28500003 -1.7069942e+38
-0.023606852 0.0023383806 0.28500003 -1.7069942e+38
-0.022604393 0.0023301758 0.28400001 -1.7067859e+38
-0.02214458 0.0023301758 0.28400001 -1.7068376e+38
-0.021224953 0.0023301758 0.28400001 -1.7067329e+38
-0.020765141 0.0023301758 0.28400001 -1.7067329e+38
-0.020305326 0.0023301758 0.28400001 -1.7334739e+38
-0.019845514 0.0023301758 0.28400001 -1.7066808e+38
-0.018859247 0.0023219709 0.28300002 -1.7066289e+38
-0.018401053 0.0023219709 0.28300002 -1.7463504e+38
-0.017942859 0.0023219709 0.28300002 -1.7463504e+38
-0.017026469 0.0023219709 0.28300002 -1.7063165e+38
-0.016568275 0.0023219709 0.28300002 -1.7061604e+38
-0.016110081 0.0023219709 0.28300002 -1.7058997e+38
-0.015193693 0.0023219709 0.28300002 -1.7054829e+38
-0.014735498 0.0023219709 0.28300002 -1.7053269e+38
-0.014277305 0.0023219709 0.28300002 -1.7050663e+38
-0.013819111 0.0023219709 0.28300002 -1.7050144e+38
-0.01285713 0.0023137659 0.28200001 -1.7048061e+38
-0.012400554 0.0023137659 0.28200001 -1.7047018e+38
-0.011943979 0.0023137659 0.28200001 -1.7048061e+38
-0.01103083 0.0023137659 0.28200001 -1.7052756e+38
-0.010574254 0.0023137659 0.28200001 -1.7188285e+38
-0.010117679 0.0023137659 0.28200001 -1.7057448e+38
-0.0092045292 0.0023137659 0.28200001 -1.7058492e+38
-0.0087479539 0.0023137659 0.28200001 -1.7059535e+38
-0.0082619758 0.0023055612 0.28100002 -1.705902e+38
-0.0073520639 0.0023055612 0.28100002 -1.705902e+38
-0.0068971077 0.0023055612 0.28100002 -1.705902e+38
-0.006442152 0.0023055612 0.28100002 -1.705902e+38
-0.0059871958 0.0023055612 0.28100002 -1.705902e+38
-0.0050772838 0.0023055612 0.28100002 -1.706006e+38
-0.0046223276 0.0023055612 0.28100002 -1.706006e+38
-0.0041673714 0.0023055612 0.28100002 -1.706006e+38
-0.0032574593 0.0023055612 0.28100002 -1.7060585e+38
-0.00279253 0.0022973563 0.28 -1.7061105e+38
-0.0023391929 0.0022973563 0.28 -1.7061626e+38
-0.0014325189 0.0022973563 0.28 -1.7061632e+38
-0.00097918196 0.0022973563 0.28 -1.7062151e+38
-0.00052584492 0.0022973563 0.28 -1.7062672e+38
-7.2507915e-05 0.0022973563 0.28 -1.7062676e+38
0.00083416613 0.0022973563 0.28 -1.7064759e+38
0.0012875032 0.0022973563 0.28 -1.7064759e+38
0.0017408401 0.0022973563 0.28 -1.70658e+38
0.0026475142 0.0022973563 0.28 -1.7065279e+38
0.0031008511 0.0022973563 0.28 -1.7064757e+38
0.0035541882 0.0022973563 0.28 -1.7063715e+38
0.0040075253 0.0022973563 0.28 -1.7063194e+38
0.004914199 0.0022973563 0.28 -1.7059024e+38
0.0053675361 0.0022973563 0.28 -1.7057983e+38
0.0058208732 0.0022973563 0.28 -1.7057983e+38
0.0067275469 0.0022973563 0.28 -1.7056939e+38
0.007180884 0.0022973563 0.28 -1.7056417e+38
0.0076342211 0.0022973563 0.28 -1.7056417e+38
0.0080875577 0.0022973563 0.28 -1.7056409e+38
0.0089942319 0.0022973563 0.28 -1.7055369e+38
0.009447569 0.0022973563 0.28 -1.7054847e+38
0.0099009061 0.0022973563 0.28 -1.7054847e+38
0.010354243 0.0022973563 0.28 -1.7054847e+38
0.011260917 0.0022973563 0.28 -1.7053801e+38
0.011714254 0.0022973563 0.28 -1.7053801e+38
0.012167591 0.0022973563 0.28 -1.7054843e+38
0.013074265 0.0022973563 0.28 -1.7055886e+38
0.013527602 0.0022973563 0.28 -1.7056407e+38
0.014030871 0.0023055612 0.28100002 -1.7190372e+38
0.014485827 0.0023055612 0.28100002 -1.7062137e+38
-0.027857145 0.0028096368 0.28600001 -1.7072029e+38
-0.026931042 0.0028096368 0.28600001 -1.7071507e+38
-0.02646799 0.0028096368 0.28600001 -1.7071507e+38
-0.026004938 0.0028096368 0.28600001 -1.7070992e+38
-0.024991149 0.0027998127 0.28500003 -1.7070992e+38
-0.024529716 0.0027998127 0.28500003 -1.7070992e+38
-0.024068283 0.0027998127 0.28500003 -1.7071507e+38
-0.023606852 0.0027998127 0.28500003 -1.7071507e+38
-0.022683987 0.0027998127 0.28500003 -1.7070465e+38
-0.02214458 0.0027899889 0.28400001 -1.7070461e+38
-0.021224953 0.0027899889 0.28400001 -1.7070461e+38
-0.020765141 0.0027899889 0.28400001 -1.7070461e+38
-0.020305326 0.0027899889 0.28400001 -1.7070984e+38
-0.019845514 0.0027899889 0.28400001 -1.7070984e+38
-0.018925887 0.0027899889 0.28400001 -1.706942e+38
-0.018466074 0.0027899889 0.28400001 -1.706838e+38
-0.017942859 0.0027801651 0.28300002 -1.706838e+38
-0.017026469 0.0027801651 0.28300002 -1.706838e+38
-0.016568275 0.0027801651 0.28300002 -1.706838e+38
-0.016110081 0.0027801651 0.28300002 -1.7067859e+38
-0.015193693 0.0027801651 0.28300002 -1.7469229e+38
-0.014735498 0.0027801651 0.28300002 -1.7334223e+38
-0.014277305 0.0027801651 0.28300002 -1.7066814e+38
-0.013819111 0.0027801651 0.28300002 -1.7199218e+38
-0.012902722 0.0027801651 0.28300002 -1.7331621e+38
-0.012400554 0.002770341 0.28200001 -1.7198177e+38
-0.011943979 0.002770341 0.28200001 -1.7331621e+38
-0.01103083 0.002770341 0.28200001 -1.7063691e+38
-0.010574254 0.002770341 0.28200001 -1.7062648e+38
-0.010117679 0.002770341 0.28200001 -1.7063699e+38
-0.0092045292 0.002770341 0.28200001 -1.7062656e+38
-0.0087479539 0.002770341 0.28200001 -1.7062656e+38
-0.0082913786 0.002770341 0.28200001 -1.7062137e+38
-0.0073520639 0.0027605172 0.28100002 -1.7061094e+38
-0.0068971077 0.0027605172 0.28100002 -1.7061094e+38
-0.006442152 0.0027605172 0.28100002 -1.7061094e+38
-0.0059871958 0.0027605172 0.28100002 -1.7061094e+38
-0.0050772838 0.0027605172 0.28100002 -1.7061094e+38
-0.0046223276 0.0027605172 0.28100002 -1.7060579e+38
-0.0041673714 0.0027605172 0.28100002 -1.7060579e+38
-0.0032574593 0.0027605172 0.28100002 -1.7060579e+38
-0.0028025033 0.0027605172 0.28100002 -1.7061101e+38
-0.0023391929 0.0027506934 0.28 -1.7061622e+38
-0.0014325189 0.0027506934 0.28 -1.7062666e+38
-0.00097918196 0.0027506934 0.28 -1.7062666e+38
-0.00052584492 0.0027506934 0.28 -1.7063188e+38
-7.2507915e-05 0.0027506934 0.28 -1.7062672e+38
0.00083714532 0.0027605172 0.28100002 -1.7064759e+38
0.0012921013 0.0027605172 0.28100002 -1.7064759e+38
0.0017470574 0.0027605172 0.28100002 -1.70658e+38
0.0022020135 0.0027605172 0.28100002 -1.70658e+38
0.0031119257 0.0027605172 0.28100002 -1.7065279e+38
0.0035668816 0.0027605172 0.28100002 -1.7065279e+38
0.0040075253 0.0027506934 0.28 -1.7063715e+38
0.004914199 0.0027506934 0.28 -1.7061107e+38
0.0053675361 0.0027506934 0.28 -1.7057983e+38
0.0058208732 0.0027506934 0.28 -1.7057983e+38
0.0067275469 0.0027506934 0.28 -1.7056943e+38
0.007180884 0.0027506934 0.28 -1.7056939e+38
0.0076342211 0.0027506934 0.28 -1.7056417e+38
0.0080875577 0.0027506934 0.28 -1.7055894e+38
0.0089942319 0.0027506934 0.28 -1.7055888e+38
0.009447569 0.0027506934 0.28 -1.7055367e+38
0.0099009061 0.0027506934 0.28 -1.7054847e+38
0.010354243 0.0027506934 0.28 -1.7054847e+38
0.011260917 0.0027506934 0.28 -1.7053801e+38
0.011714254 0.0027506934 0.28 -1.7053801e+38
0.012211047 0.0027605172 0.28100002 -1.7053801e+38
0.012666003 0.0027605172 0.28100002 -1.7055365e+38
0.013575914 0.0027605172 0.28100002 -1.7056407e+38
0.014030871 0.0027605172 0.28100002 -1.7056928e+38
-0.027954549 0.0032841312 0.287 -1.7070465e+38
-0.027489878 0.0032841312 0.287 -1.7069944e+38
-0.02646799 0.0032726882 0.28600001 -1.7069428e+38
-0.026004938 0.0032726882 0.28600001 -1.7068909e+38
-0.025541887 0.0032726882 0.28600001 -1.7069431e+38
-0.024615783 0.0032726882 0.28600001 -1.7068909e+38
-0.024068283 0.0032612451 0.28500003 -1.7069431e+38
-0.023606852 0.0032612451 0.28500003 -1.7069431e+38
-0.022683987 0.0032612451 0.28500003 -1.7069431e+38
-0.022222554 0.0032612451 0.28500003 -1.7069946e+38
-0.021224953 0.0032498022 0.28400001 -1.706942e+38
-0.020765141 0.0032498022 0.28400001 -1.7069942e+38
-0.020305326 0.0032498022 0.28400001 -1.7070984e+38
-0.019845514 0.0032498022 0.28400001 -1.7070984e+38
-0.018925887 0.0032498022 0.28400001 -1.7069946e+38
-0.018466074 0.0032498022 0.28400001 -1.7069946e+38
-0.018006261 0.0032498022 0.28400001 -1.7069946e+38
-0.017546447 0.0032498022 0.28400001 -1.7069946e+38
-0.016568275 0.0032383592 0.28300002 -1.7069946e+38
-0.016110081 0.0032383592 0.28300002 -1.7069946e+38
-0.015193693 0.0032383592 0.28300002 -1.7070988e+38
-0.014735498 0.0032383592 0.28300002 -1.7069942e+38
-0.014277305 0.0032383592 0.28300002 -1.706942e+38
-0.013819111 0.0032383592 0.28300002 -1.706942e+38
-0.012902722 0.0032383592 0.28300002 -1.7068899e+38
-0.012444528 0.0032383592 0.28300002 -1.7068899e+38
-0.011986334 0.0032383592 0.28300002 -1.7068901e+38
-0.01103083 0.0032269161 0.28200001 -1.706838e+38
-0.010574254 0.0032269161 0.28200001 -1.7068901e+38
-0.010117679 0.0032269161 0.28200001 -1.7068905e+38
-0.0092045292 0.0032269161 0.28200001 -1.7068384e+38
-0.0087479539 0.0032269161 0.28200001 -1.7067863e+38
-0.0082913786 0.0032269161 0.28200001 -1.7067863e+38
-0.0078348033 0.0032269161 0.28200001 -1.7067863e+38
-0.0069216532 0.0032269161 0.28200001 -1.7067863e+38
-0.006442152 0.0032154731 0.28100002 -1.7067863e+38
-0.0059871958 0.0032154731 0.28100002 -1.7066299e+38
-0.0050772838 0.0032154731 0.28100002 -1.7066307e+38
-0.0046223276 0.0032154731 0.28100002 -1.7066307e+38
-0.0041673714 0.0032154731 0.28100002 -1.7065264e+38
-0.0032574593 0.0032154731 0.28100002 -1.7063181e+38
-0.0028025033 0.0032154731 0.28100002 -1.7063181e+38
-0.0023475471 0.0032154731 0.28100002 -1.7064745e+38
-0.0018925911 0.0032154731 0.28100002 -1.7063703e+38
-0.00098267896 0.0032154731 0.28100002 -1.7063703e+38
-0.00052772294 0.0032154731 0.28100002 -1.7064745e+38
-7.2766867e-05 0.0032154731 0.28100002 -1.7064749e+38
0.00083714532 0.0032154731 0.28100002 -1.7065275e+38
0.0012921013 0.0032154731 0.28100002 -1.7065796e+38
0.0017470574 0.0032154731 0.28100002 -1.7066315e+38
0.0022020135 0.0032154731 0.28100002 -1.7066315e+38
0.0031119257 0.0032154731 0.28100002 -1.7066319e+38
0.0035668816 0.0032154731 0.28100002 -1.7066319e+38
0.0040218378 0.0032154731 0.28100002 -1.7066319e+38
0.004476794 0.0032154731 0.28100002 -1.7063711e+38
0.0053675361 0.0032040302 0.28 -1.7061628e+38
0.0058208732 0.0032040302 0.28 -1.7060585e+38
0.0067275469 0.0032040302 0.28 -1.7059024e+38
0.007180884 0.0032040302 0.28 -1.7058498e+38
0.0076342211 0.0032040302 0.28 -1.7058498e+38
0.0080875577 0.0032040302 0.28 -1.7058494e+38
0.0089942319 0.0032040302 0.28 -1.7057448e+38
0.009447569 0.0032040302 0.28 -1.7057448e+38
0.0099362666 0.0032154731 0.28100002 -1.7056407e+38
0.010391223 0.0032154731 0.28100002 -1.7056928e+38
0.011301135 0.0032154731 0.28100002 -1.7056407e+38
0.011756091 0.0032154731 0.28100002 -1.7055888e+38
0.012211047 0.0032154731 0.28100002 -1.7055367e+38
0.012666003 0.0032154731 0.28100002 -1.7055888e+38
0.013575914 0.0032154731 0.28100002 -1.7056409e+38
0.014130736 0.0032383592 0.28300002 -1.7057452e+38
-0.0028025033 0.0036704291 0.28100002 -1.7067863e+38
-0.0023475471 0.0036704291 0.28100002 -1.7067863e+38
-0.0018925911 0.0036704291 0.28100002 -1.7067341e+38
-0.00098267896 0.0036704291 0.28100002 -1.7067341e+38
-0.00052772294 0.0036704291 0.28100002 -1.7067341e+38
-7.2766867e-05 0.0036704291 0.28100002 -1.7066826e+38
0.00083714532 0.0036704291 0.28100002 -1.7067352e+38
0.0012921013 0.0036704291 0.28100002 -1.7068394e+38
0.0017470574 0.0036704291 0.28100002 -1.7067873e+38
0.0022020135 0.0036704291 0.28100002 -1.7067352e+38
0.0031119257 0.0036704291 0.28100002 -1.7066836e+38
0.0035668816 0.0036704291 0.28100002 -1.7066836e+38
0.0040218378 0.0036704291 0.28100002 -1.7066836e+38
0.004476794 0.0036704291 0.28100002 -1.7066315e+38
0.005386706 0.0036704291 0.28100002 -1.7064745e+38
0.0058416622 0.0036704291 0.28100002 -1.7065788e+38
0.0062966184 0.0036704291 0.28100002 -1.7064226e+38
0.0072065303 0.0036704291 0.28100002 -1.7065786e+38
0.0076614865 0.0036704291 0.28100002 -1.7065264e+38
0.0081164427 0.0036704291 0.28100002 -1.7065782e+38
0.0085713984 0.0036704291 0.28100002 -1.706526e+38
0.0094813108 0.0036704291 0.28100002 -1.7064218e+38
0.0099362666 0.0036704291 0.28100002 -1.706526e+38
0.010391223 0.0036704291 0.28100002 -1.706526e+38
0.011301135 0.0036704291 0.28100002 -1.7064218e+38
0.011756091 0.0036704291 0.28100002 -1.7063699e+38
0.012211047 0.0036704291 0.28100002 -1.7064741e+38
0.012666003 0.0036704291 0.28100002 -1.7062656e+38
-0.027954549 0.0042134719 0.287 -1.7067348e+38
-0.027489878 0.0042134719 0.287 -1.7066826e+38
-0.026560538 0.0042134719 0.287 -1.7067341e+38
-0.026095865 0.0042134719 0.287 -1.706682e+38
-0.025541887 0.004198791 0.28600001 -1.706682e+38
-0.024615783 0.004198791 0.28600001 -1.7066301e+38
-0.024152733 0.004198791 0.28600001 -1.7066301e+38
-0.023689682 0.004198791 0.28600001 -1.7066822e+38
-0.022683987 0.0041841096 0.28500003 -1.7066822e+38
-0.022222554 0.0041841096 0.28500003 -1.7066822e+38
-0.021761121 0.0041841096 0.28500003 -1.7067343e+38
-0.020838257 0.0041841096 0.28500003 -1.7067341e+38
-0.020305326 0.0041694287 0.28400001 -1.7068384e+38
-0.019845514 0.0041694287 0.28400001 -1.7067863e+38
-0.018925887 0.0041694287 0.28400001 -1.7067341e+38
-0.018466074 0.0041694287 0.28400001 -1.7068384e+38
-0.018006261 0.0041694287 0.28400001 -1.7068384e+38
-0.017546447 0.0041694287 0.28400001 -1.7068384e+38
-0.016626822 0.0041694287 0.28400001 -1.7067869e+38
-0.016110081 0.0041547474 0.28300002 -1.7067869e+38
-0.015193693 0.0041547474 0.28300002 -1.7067869e+38
-0.014735498 0.0041547474 0.28300002 -1.7068384e+38
-0.014277305 0.0041547474 0.28300002 -1.7067863e+38
-0.013819111 0.0041547474 0.28300002 -1.7068384e+38
-0.012902722 0.0041547474 0.28300002 -1.7068905e+38
-0.012444528 0.0041547474 0.28300002 -1.7068905e+38
-0.011986334 0.0041547474 0.28300002 -1.7068905e+38
-0.011069945 0.0041547474 0.28300002 -1.7069424e+38
-0.010611751 0.0041547474 0.28300002 -1.7069424e+38
-0.010117679 0.0041400664 0.28200001 -1.7069431e+38
-0.0092045292 0.0041400664 0.28200001 -1.7068909e+38
-0.0087479539 0.0041400664 0.28200001 -1.7068388e+38
-0.0082913786 0.0041400664 0.28200001 -1.7068909e+38
-0.0078348033 0.0041400664 0.28200001 -1.7068909e+38
-0.0069216532 0.0041400664 0.28200001 -1.7068388e+38
-0.0064650774 0.0041400664 0.28200001 -1.7068909e+38
-0.0060085026 0.0041400664 0.28200001 -1.7068388e+38
-0.0050953524 0.0041400664 0.28200001 -1.7068909e+38
-0.0046387771 0.0041400664 0.28200001 -1.7068909e+38
-0.0041822018 0.0041400664 0.28200001 -1.7068388e+38
-0.0037256267 0.0041400664 0.28200001 -1.7067867e+38
0.013167652 0.0041400664 0.28200001 -1.7067863e+38
0.013720853 0.0041694287 0.28400001 -1.706682e+38
-0.028051948 0.0046944423 0.28800002 -1.7067863e+38
-0.027585659 0.0046944423 0.28800002 -1.706682e+38
-0.026560538 0.0046781423 0.287 -1.706682e+38
-0.026095865 0.0046781423 0.287 -1.7066299e+38
-0.025631195 0.0046781423 0.287 -1.7066299e+38
-0.024701854 0.0046781423 0.287 -1.706578e+38
-0.024152733 0.0046618422 0.28600001 -1.706578e+38
-0.023689682 0.0046618422 0.28600001 -1.706578e+38
-0.022763578 0.0046618422 0.28600001 -1.706578e+38
-0.022300526 0.0046618422 0.28600001 -1.706578e+38
-0.021761121 0.0046455418 0.28500003 -1.7066301e+38
-0.020838257 0.0046455418 0.28500003 -1.7066301e+38
-0.020376826 0.0046455418 0.28500003 -1.7066301e+38
-0.019845514 0.0046292418 0.28400001 -1.706578e+38
-0.018925887 0.0046292418 0.28400001 -1.706578e+38
-0.018466074 0.0046292418 0.28400001 -1.7066301e+38
-0.018006261 0.0046292418 0.28400001 -1.7066822e+38
-0.017546447 0.0046292418 0.28400001 -1.7066822e+38
-0.016626822 0.0046292418 0.28400001 -1.7065786e+38
-0.016167007 0.0046292418 0.28400001 -1.7066307e+38
-0.015707195 0.0046292418 0.28400001 -1.7065786e+38
-0.014787568 0.0046292418 0.28400001 -1.7066301e+38
-0.014327755 0.0046292418 0.28400001 -1.7066301e+38
-0.013867942 0.0046292418 0.28400001 -1.7067341e+38
-0.012902722 0.0046129413 0.28300002 -1.7067337e+38
-0.012444528 0.0046129413 0.28300002 -1.7067337e+38
-0.011986334 0.0046129413 0.28300002 -1.7067337e+38
-0.011069945 0.0046129413 0.28300002 -1.7068384e+38
-0.010611751 0.0046129413 0.28300002 -1.7067341e+38
-0.010153557 0.0046129413 0.28300002 -1.7067863e+38
-0.0092045292 0.0045966413 0.28200001 -1.7067863e+38
-0.0087479539 0.0045966413 0.28200001 -1.7067863e+38
-0.0082913786 0.0045966413 0.28200001 -1.7067348e+38
-0.0078348033 0.0045966413 0.28200001 -1.7066826e+38
-0.0069216532 0.0045966413 0.28200001 -1.7067348e+38
-0.0064650774 0.0045966413 0.28200001 -1.7067869e+38
-0.0060085026 0.0045966413 0.28200001 -1.7067348e+38
-0.0050953524 0.0045966413 0.28200001 -1.7067869e+38
-0.0046387771 0.0045966413 0.28200001 -1.7067869e+38
-0.0041822018 0.0045966413 0.28200001 -1.7067869e+38
-0.0037256267 0.0045966413 0.28200001 -1.7067863e+38
-0.0028124766 0.0045966413 0.28200001 -1.7068384e+38
-0.0023559013 0.0045966413 0.28200001 -1.7068384e+38
-0.0018993262 0.0045966413 0.28200001 -1.7067863e+38
-0.0014427513 0.0045966413 0.28200001 -1.7067863e+38
-0.00052960095 0.0045966413 0.28200001 -1.7067863e+38
-7.3025825e-05 0.0045966413 0.28200001 -1.7067869e+38
0.00038354931 0.0045966413 0.28200001 -1.706839e+38
0.0012966996 0.0045966413 0.28200001 -1.706839e+38
0.0017470574 0.0045803413 0.28100002 -1.706839e+38
0.0022020135 0.0045803413 0.28100002 -1.706839e+38
0.0031119257 0.0045803413 0.28100002 -1.706839e+38
0.0035668816 0.0045803413 0.28100002 -1.706839e+38
0.0040218378 0.0045803413 0.28100002 -1.7067869e+38
0.004476794 0.0045803413 0.28100002 -1.706839e+38
0.005386706 0.0045803413 0.28100002 -1.7068905e+38
0.0058416622 0.0045803413 0.28100002 -1.7068905e+38
0.0062966184 0.0045803413 0.28100002 -1.7068905e+38
0.0072065303 0.0045803413 0.28100002 -1.7068905e+38
0.0076614865 0.0045803413 0.28100002 -1.7068905e+38
0.0081164427 0.0045803413 0.28100002 -1.7069946e+38
0.0085713984 0.0045803413 0.28100002 -1.7069946e+38
0.0094813108 0.0045803413 0.28100002 -1.7069424e+38
0.0099362666 0.0045803413 0.28100002 -1.7069424e+38
0.010391223 0.0045803413 0.28100002 -1.7069424e+38
0.011301135 0.0045803413 0.28100002 -1.7069946e+38
0.011756091 0.0045803413 0.28100002 -1.7069946e+38
0.012211047 0.0045803413 0.28100002 -1.7069946e+38
0.012711078 0.0045966413 0.28200001 -1.7068909e+38
0.013167652 0.0045966413 0.28200001 -1.7068388e+38
0.013720853 0.0046292418 0.28400001 -1.7067863e+38
-0.028149351 0.0051786508 0.289 -1.7067348e+38
-0.027585659 0.0051607317 0.28800002 -1.7066305e+38
-0.027119368 0.0051607317 0.28800002 -1.706682e+38
-0.026186792 0.0051607317 0.28800002 -1.706578e+38
-0.025631195 0.0051428126 0.287 -1.7064737e+38
-0.024701854 0.0051428126 0.287 -1.7064737e+38
-0.024237184 0.0051428126 0.287 -1.7064218e+38
-0.023689682 0.0051248935 0.28600001 -1.7064218e+38
-0.022763578 0.0051248935 0.28600001 -1.7064218e+38
-0.022300526 0.0051248935 0.28600001 -1.7064218e+38
-0.021837475 0.0051248935 0.28600001 -1.706526e+38
-0.020838257 0.0051069744 0.28500003 -1.7064218e+38
-0.020376826 0.0051069744 0.28500003 -1.7064214e+38
-0.019915393 0.0051069744 0.28500003 -1.7064214e+38
-0.018925887 0.0050890553 0.28400001 -1.7064214e+38
-0.018466074 0.0050890553 0.28400001 -1.7064218e+38
-0.018006261 0.0050890553 0.28400001 -1.706526e+38
-0.017546447 0.0050890553 0.28400001 -1.7065782e+38
-0.016626822 0.0050890553 0.28400001 -1.7064218e+38
