# .PCD v0.7 - Point Cloud Data file format
VERSION 0.7
FIELDS x y z rgb
SIZE 4 4 4 4
TYPE F F F F
COUNT 1 1 1 1
WIDTH 969
HEIGHT 1
VIEWPOINT 0 0 0 1 0 0 0
POINTS 969
DATA ascii
0.019014336 0.069963865 0.23100001 -1.9313979e+38
0.01938834 0.069963865 0.23100001 -1.9313979e+38
0.019762343 0.069963865 0.23100001 -1.9313979e+38
0.020223515 0.070266731 0.23200001 -1.9313979e+38
0.020687927 0.070569612 0.23300001 -1.9180535e+38
0.022768484 0.072386853 0.23900001 -1.9446381e+38
0.023252325 0.072689727 0.24000001 -1.9579825e+38
0.023640899 0.072689727 0.24000001 -1.9579825e+38
0.024029473 0.072689727 0.24000001 -1.9579821e+38
0.024519792 0.072992601 0.24100001 -1.9579821e+38
0.025300179 0.072992601 0.24100001 -2.0378923e+38
0.025690373 0.072992601 0.24100001 -2.0512368e+38
0.026080566 0.072992601 0.24100001 -2.0645812e+38
0.026860952 0.072992601 0.24100001 -2.09127e+38
0.027251145 0.072992601 0.24100001 -2.1310945e+38
0.027641339 0.072992601 0.24100001 -2.1577833e+38
-0.0016097128 0.072773814 0.23900001 -2.5447711e+38
-0.00083580177 0.072773814 0.23900001 -2.3718674e+38
-0.0004488462 0.072773814 0.23900001 -2.3184897e+38
-6.1890685e-05 0.072773814 0.23900001 -2.2785612e+38
0.00032642495 0.073078305 0.24000001 -2.2652168e+38
0.00071499951 0.073078305 0.24000001 -2.2652172e+38
0.0014921487 0.073078305 0.24000001 -2.238632e+38
0.0018807233 0.073078305 0.24000001 -2.2252876e+38
0.0053339838 0.067597426 0.22200002 -1.9991629e+38
0.0060255816 0.067292936 0.22100002 -1.8393949e+38
0.0063833939 0.067292936 0.22100002 -1.7330575e+38
0.0070990194 0.067292936 0.22100002 -1.7062123e+38
0.0074905725 0.067597426 0.22200002 -1.7061601e+38
0.0078500044 0.067597426 0.22200002 -1.7061076e+38
0.0082094353 0.067597426 0.22200002 -1.7060034e+38
0.0085688671 0.067597426 0.22200002 -1.7058987e+38
0.0092458939 0.067292936 0.22100002 -1.7056902e+38
0.0096037062 0.067292936 0.22100002 -1.7056381e+38
0.010319331 0.067292936 0.22100002 -1.7055338e+38
0.010677144 0.067292936 0.22100002 -1.7320661e+38
0.011084887 0.067597426 0.22200002 -1.7454105e+38
0.011444319 0.067597426 0.22200002 -1.8117676e+38
0.011856921 0.067901917 0.223 -1.825112e+38
0.012217971 0.067901917 0.223 -1.8516447e+38
0.012940072 0.067901917 0.223 -1.8782294e+38
0.013301123 0.067901917 0.223 -1.8782294e+38
0.013723439 0.068206415 0.22400001 -1.878229e+38
0.014086109 0.068206415 0.22400001 -1.8648846e+38
0.014448778 0.068206415 0.22400001 -1.9047617e+38
0.015174117 0.068206415 0.22400001 -1.8914688e+38
0.015606147 0.068510905 0.22500001 -1.8914688e+38
0.016041415 0.068815395 0.22600001 -1.9181576e+38
0.016625119 0.069728874 0.22900002 -1.9181576e+38
0.017144321 0.070337862 0.23100001 -1.9313979e+38
0.017669998 0.07094685 0.23300001 -1.9313979e+38
0.018047238 0.07094685 0.23300001 -1.9447423e+38
0.018503554 0.07125134 0.23400001 -1.9447423e+38
0.018801721 0.07094685 0.23300001 -1.9313979e+38
0.019472271 0.070642352 0.23200001 -1.9313979e+38
0.019847894 0.070642352 0.23200001 -1.9313979e+38
0.020310685 0.07094685 0.23300001 -1.9313979e+38
0.022381529 0.072773814 0.23900001 -1.9711703e+38
0.022768484 0.072773814 0.23900001 -1.9845147e+38
0.023252325 0.073078305 0.24000001 -1.9845147e+38
0.023640899 0.073078305 0.24000001 -1.9978591e+38
0.024029473 0.073078305 0.24000001 -1.9845147e+38
0.024806622 0.073078305 0.24000001 -2.0378923e+38
0.025300179 0.073382795 0.24100001 -2.0378923e+38
0.025690373 0.073382795 0.24100001 -2.0645812e+38
0.026080566 0.073382795 0.24100001 -2.0779256e+38
0.026860952 0.073382795 0.24100001 -2.1045618e+38
0.027251145 0.073382795 0.24100001 -2.2106916e+38
0.027641339 0.073382795 0.24100001 -2.2373804e+38
0.0053339838 0.067956857 0.22200002 -1.9991629e+38
0.0060255816 0.06765075 0.22100002 -1.8393949e+38
0.0063833939 0.06765075 0.22100002 -1.7330575e+38
0.0070990194 0.06765075 0.22100002 -1.7062123e+38
0.0074905725 0.067956857 0.22200002 -1.7061601e+38
0.0082464153 0.068262972 0.223 -1.7060034e+38
0.0085688671 0.067956857 0.22200002 -1.7059508e+38
0.0092458939 0.06765075 0.22100002 -1.7056902e+38
0.0096471617 0.067956857 0.22200002 -1.7056381e+38
0.010319331 0.06765075 0.22100002 -1.7055338e+38
0.010677144 0.06765075 0.22100002 -1.7320661e+38
0.011084887 0.067956857 0.22200002 -1.7454105e+38
0.011495871 0.068262972 0.223 -1.7985275e+38
0.011856921 0.068262972 0.223 -1.7985275e+38
0.012217971 0.068262972 0.223 -1.8516447e+38
0.012940072 0.068262972 0.223 -1.878229e+38
0.013723439 0.068569086 0.22400001 -1.878229e+38
0.014148992 0.068875194 0.22500001 -1.878229e+38
0.015009816 0.069487423 0.22700001 -1.9048132e+38
0.015377343 0.069487423 0.22700001 -1.9048132e+38
0.01581423 0.06979353 0.22800002 -1.9048132e+38
0.016183376 0.06979353 0.22800002 -1.9181576e+38
0.016625119 0.070099644 0.22900002 -1.931502e+38
0.017144321 0.070711866 0.23100001 -1.9447423e+38
0.017745834 0.071630202 0.23400001 -1.9313979e+38
-0.00083580177 0.073547721 0.23900001 -2.411745e+38
-0.0004488462 0.073547721 0.23900001 -2.3717118e+38
-6.1890685e-05 0.073547721 0.23900001 -2.2785616e+38
0.00032506484 0.073547721 0.23900001 -2.2785616e+38
0.0010989758 0.073547721 0.23900001 -2.2785612e+38
0.0014859313 0.073547721 0.23900001 -2.238632e+38
0.0018728869 0.073547721 0.23900001 -2.2252876e+38
0.0060528466 0.068316288 0.22200002 -1.8659275e+38
0.0063833939 0.068008564 0.22100002 -1.7463497e+38
0.0067717098 0.068316288 0.22200002 -1.7063165e+38
0.0074905725 0.068316288 0.22200002 -1.7061601e+38
0.0085688671 0.068316288 0.22200002 -1.7059508e+38
0.0092877299 0.068316288 0.22200002 -1.7056902e+38
0.0096037062 0.068008564 0.22100002 -1.7056381e+38
0.010006594 0.068316288 0.22200002 -1.7055338e+38
0.010366024 0.068316288 0.22200002 -1.7055338e+38
0.011084887 0.068316288 0.22200002 -1.7719431e+38
0.01820215 0.072316796 0.23500001 -1.9447419e+38
0.018963108 0.072316796 0.23500001 -1.9313979e+38
0.019425903 0.072624527 0.23600002 -1.9313979e+38
0.019808 0.072624527 0.23600002 -1.9313979e+38
0.020190099 0.072624527 0.23600002 -1.9313979e+38
0.020659367 0.072932258 0.23700002 -1.9313979e+38
0.021426803 0.072932258 0.23700002 -1.9180531e+38
0.021902546 0.07323999 0.23800001 -1.9180531e+38
0.022381529 0.073547721 0.23900001 -1.9845147e+38
0.022768484 0.073547721 0.23900001 -1.9845147e+38
0.02315544 0.073547721 0.23900001 -1.9845147e+38
0.023542395 0.073547721 0.23900001 -1.9978591e+38
0.024316307 0.073547721 0.23900001 -2.0378923e+38
0.024703262 0.073547721 0.23900001 -2.0512368e+38
0.025090218 0.073547721 0.23900001 -2.0645812e+38
0.025864128 0.073547721 0.23900001 -2.1045103e+38
0.026251085 0.073547721 0.23900001 -2.170919e+38
0.02663804 0.073547721 0.23900001 -2.170919e+38
-0.00083230465 0.073625326 0.23800001 -2.4250894e+38
-0.00044696819 0.073625326 0.23800001 -2.3850562e+38
-6.1890685e-05 0.073934674 0.23900001 -2.291906e+38
0.00032506484 0.073934674 0.23900001 -2.291906e+38
0.0010989758 0.073934674 0.23900001 -2.2785612e+38
0.0014859313 0.073934674 0.23900001 -2.238632e+38
0.0018728869 0.073934674 0.23900001 -2.2252876e+38
0.0026357234 0.073625326 0.23800001 -2.1453778e+38
0.005358011 0.068985067 0.223 -1.9992144e+38
0.0075243143 0.068985067 0.223 -1.7061601e+38
0.0082464153 0.068985067 0.223 -1.7060034e+38
0.011495871 0.068985067 0.223 -1.8118719e+38
0.011856921 0.068985067 0.223 -1.7985275e+38
0.012217971 0.068985067 0.223 -1.8649887e+38
0.012940072 0.068985067 0.223 -1.8916249e+38
0.013480061 0.069913119 0.22600001 -1.8916249e+38
0.013907235 0.070222475 0.22700001 -1.8916249e+38
0.014337646 0.070531823 0.22800002 -1.8916249e+38
0.014706792 0.070531823 0.22800002 -1.9181572e+38
0.015445083 0.070531823 0.22800002 -1.9315016e+38
0.01581423 0.070531823 0.22800002 -1.9048128e+38
0.016183376 0.070531823 0.22800002 -1.9447419e+38
0.016625119 0.070841171 0.22900002 -1.9447419e+38
0.017144321 0.071459875 0.23100001 -1.9313975e+38
0.017669998 0.072078578 0.23300001 -1.9447419e+38
0.01820215 0.072697274 0.23500001 -1.9313975e+38
0.018963108 0.072697274 0.23500001 -1.9313975e+38
0.019425903 0.07300663 0.23600002 -1.9313975e+38
0.019808 0.07300663 0.23600002 -1.9180531e+38
0.020275649 0.073315978 0.23700002 -1.9313975e+38
0.020659367 0.073315978 0.23700002 -1.9313975e+38
0.021426803 0.073315978 0.23700002 -1.9180531e+38
0.021902546 0.073625326 0.23800001 -1.9180531e+38
0.022287883 0.073625326 0.23800001 -1.9845147e+38
0.022768484 0.073934674 0.23900001 -1.9845147e+38
0.02315544 0.073934674 0.23900001 -1.9978591e+38
0.023542395 0.073934674 0.23900001 -1.9978591e+38
0.024316307 0.073934674 0.23900001 -2.0378923e+38
0.024703262 0.073934674 0.23900001 -2.0645812e+38
0.025090218 0.073934674 0.23900001 -2.0645812e+38
0.025864128 0.073934674 0.23900001 -2.0912174e+38
0.026251085 0.073934674 0.23900001 -2.2370155e+38
-0.00083230465 0.074010663 0.23800001 -2.4783628e+38
-0.00044696819 0.074010663 0.23800001 -2.4116408e+38
-6.1631727e-05 0.074010663 0.23800001 -2.3451274e+38
0.0007090412 0.074010663 0.23800001 -2.2786652e+38
0.0010943776 0.074010663 0.23800001 -2.2653208e+38
0.0014859313 0.074321635 0.23900001 -2.2120994e+38
0.0018650505 0.074010663 0.23800001 -2.198755e+38
0.0022598424 0.074321635 0.23900001 -2.1588264e+38
0.0030210598 0.074010663 0.23800001 -2.1055532e+38
0.0057190615 0.069346122 0.223 -1.919253e+38
0.0064122784 0.06903515 0.22200002 -1.7728824e+38
0.0067717098 0.06903515 0.22200002 -1.7328492e+38
0.0071632639 0.069346122 0.223 -1.7062123e+38
0.0075243143 0.069346122 0.223 -1.7061601e+38
0.0082464153 0.069346122 0.223 -1.7060034e+38
0.0086074658 0.069346122 0.223 -1.7059508e+38
0.0092877299 0.06903515 0.22200002 -1.7056381e+38
0.0096471617 0.06903515 0.22200002 -1.7056381e+38
0.010006594 0.06903515 0.22200002 -1.7055338e+38
0.010412719 0.069346122 0.223 -1.7055338e+38
0.01077377 0.069346122 0.223 -1.7454105e+38
0.011495871 0.069346122 0.223 -1.7985275e+38
0.011856921 0.069346122 0.223 -1.8118719e+38
0.012217971 0.069346122 0.223 -1.8649887e+38
0.01263543 0.069657095 0.22400001 -1.8783331e+38
0.012998099 0.069657095 0.22400001 -1.8916249e+38
0.013539708 0.070590004 0.22700001 -1.8916249e+38
0.0139685 0.070900969 0.22800002 -1.8916249e+38
0.014337646 0.070900969 0.22800002 -1.8916249e+38
0.014706792 0.070900969 0.22800002 -1.9181572e+38
0.015445083 0.070900969 0.22800002 -1.9447419e+38
0.01581423 0.070900969 0.22800002 -1.9180531e+38
0.016183376 0.070900969 0.22800002 -1.9447419e+38
0.016625119 0.071211934 0.22900002 -1.9447419e+38
0.017144321 0.071833879 0.23100001 -1.9313975e+38
0.017669998 0.072455816 0.23300001 -1.9447419e+38
0.01820215 0.073077753 0.23500001 -1.9313975e+38
0.018963108 0.073077753 0.23500001 -1.9313975e+38
0.019425903 0.073388726 0.23600002 -1.9180531e+38
0.019808 0.073388726 0.23600002 -1.9180531e+38
0.020275649 0.07369969 0.23700002 -1.9313975e+38
0.020659367 0.07369969 0.23700002 -1.9313975e+38
0.021426803 0.07369969 0.23700002 -1.9180531e+38
0.021810519 0.07369969 0.23700002 -1.9180531e+38
0.022287883 0.074010663 0.23800001 -1.9845147e+38
0.022673219 0.074010663 0.23800001 -2.0245479e+38
0.023058556 0.074010663 0.23800001 -2.0245479e+38
0.023829229 0.074010663 0.23800001 -2.0378923e+38
0.024214566 0.074010663 0.23800001 -2.0512368e+38
0.024599902 0.074010663 0.23800001 -2.0645812e+38
0.025370574 0.074010663 0.23800001 -2.1443344e+38
0.025864128 0.074321635 0.23900001 -2.13099e+38
-0.00082880759 0.07408341 0.23700002 -2.504947e+38
-0.00044509018 0.07408341 0.23700002 -2.4515693e+38
0.00032234463 0.07408341 0.23700002 -2.345127e+38
0.0007090412 0.074395999 0.23800001 -2.2786652e+38
0.0010943776 0.074395999 0.23800001 -2.2653208e+38
0.0014797141 0.074395999 0.23800001 -2.1855148e+38
0.0018728869 0.074708588 0.23900001 -2.1721704e+38
0.0022692978 0.075021178 0.24000001 -2.1588264e+38
0.0026578724 0.075021178 0.24000001 -2.1187932e+38
0.0057447073 0.070019767 0.22400001 -1.9192526e+38
0.0064411624 0.06970717 0.223 -1.7463497e+38
0.0068022134 0.06970717 0.223 -1.7063165e+38
0.0071632639 0.06970717 0.223 -1.7062644e+38
0.0075243143 0.06970717 0.223 -1.7061601e+38
0.0082464153 0.06970717 0.223 -1.7059516e+38
0.0086074658 0.06970717 0.223 -1.7058472e+38
0.0089685163 0.06970717 0.223 -1.7057951e+38
0.0096471617 0.069394588 0.22200002 -1.7056381e+38
0.010006594 0.069394588 0.22200002 -1.7055338e+38
0.010412719 0.06970717 0.223 -1.7055338e+38
0.01077377 0.06970717 0.223 -1.7587549e+38
0.011495871 0.06970717 0.223 -1.8384564e+38
0.011856921 0.06970717 0.223 -1.8384564e+38
0.012217971 0.06970717 0.223 -1.8783331e+38
0.01263543 0.070019767 0.22400001 -1.8783331e+38
0.012998099 0.070019767 0.22400001 -1.8916249e+38
0.013480061 0.070644937 0.22600001 -1.8916249e+38
0.0139685 0.071270116 0.22800002 -1.8916249e+38
0.014400531 0.071582697 0.22900002 -1.8916249e+38
0.014706792 0.071270116 0.22800002 -1.9181572e+38
0.015445083 0.071270116 0.22800002 -1.9447419e+38
0.01581423 0.071270116 0.22800002 -1.9313975e+38
0.016183376 0.071270116 0.22800002 -1.9447419e+38
0.016625119 0.071582697 0.22900002 -1.9313975e+38
0.017144321 0.072207883 0.23100001 -1.9180531e+38
0.017821671 0.073458232 0.23500001 -1.9313975e+38
0.01820215 0.073458232 0.23500001 -1.9313975e+38
0.018661706 0.073770821 0.23600002 -1.9313975e+38
0.019425903 0.073770821 0.23600002 -1.9180531e+38
0.019808 0.073770821 0.23600002 -1.9180531e+38
0.020275649 0.07408341 0.23700002 -1.9313975e+38
0.020659367 0.07408341 0.23700002 -1.9313975e+38
0.021426803 0.07408341 0.23700002 -1.9313975e+38
0.021810519 0.07408341 0.23700002 -1.9313975e+38
0.022194237 0.07408341 0.23700002 -1.9713265e+38
0.022673219 0.074395999 0.23800001 -1.9980153e+38
0.023058556 0.074395999 0.23800001 -1.9980153e+38
0.023829229 0.074395999 0.23800001 -2.0512368e+38
0.024214566 0.074395999 0.23800001 -2.0512368e+38
0.024599902 0.074395999 0.23800001 -2.0646327e+38
0.025370574 0.074395999 0.23800001 -2.2772049e+38
0.02575591 0.074395999 0.23800001 -2.3439269e+38
0.0054300916 0.071010843 0.22600001 -2.0389874e+38
0.0061346423 0.070696637 0.22500001 -1.8792715e+38
0.0068327161 0.070382431 0.22400001 -1.7328488e+38
0.0071953856 0.070382431 0.22400001 -1.7062644e+38
0.0075580557 0.070382431 0.22400001 -1.7061601e+38
0.0082464153 0.070068225 0.223 -1.7059516e+38
0.0086074658 0.070068225 0.223 -1.7058472e+38
0.0089685163 0.070068225 0.223 -1.7057951e+38
0.0096906181 0.070068225 0.223 -1.7056381e+38
0.010051669 0.070068225 0.223 -1.7055338e+38
0.010412719 0.070068225 0.223 -1.7055338e+38
0.01077377 0.070068225 0.223 -1.7587549e+38
0.011495871 0.070068225 0.223 -1.8384564e+38
0.011856921 0.070068225 0.223 -1.8384564e+38
0.012217971 0.070068225 0.223 -1.8649887e+38
0.01263543 0.070382431 0.22400001 -1.8649887e+38
0.012998099 0.070382431 0.22400001 -1.8916249e+38
0.013539708 0.071325056 0.22700001 -1.9049693e+38
0.0139685 0.071639262 0.22800002 -1.8916245e+38
0.014337646 0.071639262 0.22800002 -1.8916245e+38
0.014706792 0.071639262 0.22800002 -1.9181572e+38
0.015445083 0.071639262 0.22800002 -1.9447419e+38
0.01581423 0.071639262 0.22800002 -1.9313975e+38
0.016254354 0.071953468 0.22900002 -1.9713265e+38
0.016625119 0.071953468 0.22900002 -1.9579821e+38
-0.00044509018 0.074850842 0.23700002 -2.5579072e+38
0.00032234463 0.074850842 0.23700002 -2.3718674e+38
0.00070606201 0.074850842 0.23700002 -2.305354e+38
0.0010897794 0.074850842 0.23700002 -2.2786652e+38
0.0014797141 0.075166665 0.23800001 -2.1722749e+38
0.0018650505 0.075166665 0.23800001 -2.1722749e+38
0.0022598424 0.075482503 0.23900001 -2.1589309e+38
0.0037598694 0.07453502 0.23600002 -2.092365e+38
0.017821671 0.07421919 0.23500001 -1.9446377e+38
0.01820215 0.07421919 0.23500001 -1.9579821e+38
0.018661706 0.07453502 0.23600002 -1.9579821e+38
0.019425903 0.07453502 0.23600002 -1.9579821e+38
0.019808 0.07453502 0.23600002 -1.9579821e+38
0.020190099 0.07453502 0.23600002 -1.9713265e+38
0.020659367 0.074850842 0.23700002 -1.9713265e+38
0.021426803 0.074850842 0.23700002 -1.9713265e+38
0.021810519 0.074850842 0.23700002 -1.9980153e+38
0.022194237 0.074850842 0.23700002 -2.0114112e+38
0.022577954 0.074850842 0.23700002 -2.0114112e+38
0.023345388 0.074850842 0.23700002 -2.0381e+38
0.023829229 0.075166665 0.23800001 -2.0247556e+38
0.024214566 0.075166665 0.23800001 -2.0247556e+38
0.024599902 0.075166665 0.23800001 -2.1442298e+38
0.00032234463 0.075234562 0.23700002 -2.3852118e+38
0.00070606201 0.075234562 0.23700002 -2.3453347e+38
0.0010897794 0.075234562 0.23700002 -2.2919571e+38
0.0014797141 0.075552002 0.23800001 -2.1722749e+38
0.0018650505 0.075552002 0.23800001 -2.1722749e+38
0.0022598424 0.075869456 0.23900001 -2.1589309e+38
0.0030083666 0.075234562 0.23700002 -2.0790206e+38
0.0037598694 0.074917115 0.23600002 -2.0657803e+38
0.0054541188 0.072060108 0.22700001 -2.025747e+38
0.0061619072 0.071742661 0.22600001 -1.8792715e+38
0.006498931 0.071425214 0.22500001 -1.7596937e+38
0.0071953856 0.071107775 0.22400001 -1.706264e+38
0.0075580557 0.071107775 0.22400001 -1.7062119e+38
0.0079207253 0.071107775 0.22400001 -1.7061076e+38
0.0086460644 0.071107775 0.22400001 -1.7058987e+38
0.0089685163 0.070790321 0.223 -1.7058466e+38
0.0096906181 0.070790321 0.223 -1.7056381e+38
0.010051669 0.070790321 0.223 -1.7055858e+38
0.010412719 0.070790321 0.223 -1.7055858e+38
0.01077377 0.070790321 0.223 -1.7720993e+38
0.011495871 0.070790321 0.223 -1.8384564e+38
0.011910091 0.071107775 0.22400001 -1.8384564e+38
0.01227276 0.071107775 0.22400001 -1.8783331e+38
0.01263543 0.071107775 0.22400001 -1.8783331e+38
0.013114154 0.071742661 0.22600001 -1.8783846e+38
0.013539708 0.072060108 0.22700001 -1.891729e+38
0.0139685 0.072377555 0.22800002 -1.8916245e+38
0.014337646 0.072377555 0.22800002 -1.8916245e+38
0.014706792 0.072377555 0.22800002 -1.9181572e+38
0.015445083 0.072377555 0.22800002 -1.9313975e+38
0.01581423 0.072377555 0.22800002 -1.9313975e+38
0.016254354 0.072694995 0.22900002 -1.9579821e+38
0.016697718 0.073012449 0.23 -1.9579821e+38
0.017366974 0.074282221 0.23400001 -1.9579821e+38
0.017821671 0.074599668 0.23500001 -1.9579821e+38
0.01820215 0.074599668 0.23500001 -1.9579821e+38
0.018661706 0.074917115 0.23600002 -1.9579821e+38
0.019425903 0.074917115 0.23600002 -1.9579821e+38
0.019808 0.074917115 0.23600002 -1.9579821e+38
0.020190099 0.074917115 0.23600002 -1.9713265e+38
0.020954296 0.074917115 0.23600002 -1.9713265e+38
0.021426803 0.075234562 0.23700002 -1.9713265e+38
0.021810519 0.075234562 0.23700002 -2.0113597e+38
0.022194237 0.075234562 0.23700002 -2.0247556e+38
0.022577954 0.075234562 0.23700002 -2.0247556e+38
0.023345388 0.075234562 0.23700002 -2.0381e+38
0.023729106 0.075234562 0.23700002 -2.0646323e+38
0.024112824 0.075234562 0.23700002 -2.0779767e+38
-6.1113809e-05 0.075299218 0.23600002 -2.4251405e+38
0.00032098452 0.075299218 0.23600002 -2.4117961e+38
0.00070308289 0.075299218 0.23600002 -2.3586791e+38
0.0010897794 0.075618282 0.23700002 -2.3186459e+38
0.0014734969 0.075618282 0.23700002 -2.1988596e+38
0.0022409316 0.075618282 0.23700002 -2.1589309e+38
0.0030083666 0.075618282 0.23700002 -2.0790206e+38
0.0037598694 0.075299218 0.23600002 -2.0657803e+38
0.0054541188 0.072427638 0.22700001 -2.0256955e+38
0.0061619072 0.072108567 0.22600001 -1.8792719e+38
0.006498931 0.071789503 0.22500001 -1.7596937e+38
0.0071953856 0.071470439 0.22400001 -1.706264e+38
0.0075917966 0.071789503 0.22500001 -1.7062119e+38
0.0079207253 0.071470439 0.22400001 -1.7061076e+38
0.0086460644 0.071470439 0.22400001 -1.7058987e+38
0.0089685163 0.071151376 0.223 -1.7058466e+38
0.0096906181 0.071151376 0.223 -1.7056902e+38
0.010051669 0.071151376 0.223 -1.7056379e+38
0.010459412 0.071470439 0.22400001 -1.7056379e+38
0.010822082 0.071470439 0.22400001 -1.7587549e+38
0.011184752 0.071470439 0.22400001 -1.7720993e+38
0.011650523 0.072108567 0.22600001 -1.8649891e+38
0.01201643 0.072108567 0.22600001 -1.8649891e+38
0.012748246 0.072108567 0.22600001 -1.8649887e+38
0.013114154 0.072108567 0.22600001 -1.8783846e+38
0.013539708 0.072427638 0.22700001 -1.891729e+38
0.0139685 0.072746702 0.22800002 -1.8916245e+38
0.014337646 0.072746702 0.22800002 -1.8916245e+38
0.014706792 0.072746702 0.22800002 -1.9181572e+38
0.01514206 0.073065758 0.22900002 -1.9181572e+38
0.015883589 0.073065758 0.22900002 -1.9313975e+38
0.016325334 0.073384829 0.23 -1.9579821e+38
0.016770318 0.073703893 0.23100001 -1.9579821e+38
0.017366974 0.074661084 0.23400001 -1.9579821e+38
0.017821671 0.074980147 0.23500001 -1.9579821e+38
0.01820215 0.074980147 0.23500001 -1.9579821e+38
0.018661706 0.075299218 0.23600002 -1.9579821e+38
0.019425903 0.075299218 0.23600002 -1.9579821e+38
0.019808 0.075299218 0.23600002 -1.9579821e+38
0.020190099 0.075299218 0.23600002 -1.9713265e+38
0.020954296 0.075299218 0.23600002 -2.0245479e+38
0.021336393 0.075299218 0.23600002 -2.0245479e+38
0.021718493 0.075299218 0.23600002 -2.0512368e+38
0.02210059 0.075299218 0.23600002 -2.0512883e+38
0.022577954 0.075618282 0.23700002 -2.0512883e+38
0.023246886 0.075299218 0.23600002 -2.0646327e+38
0.023628984 0.075299218 0.23600002 -2.1309896e+38
-6.1113809e-05 0.075681314 0.23600002 -2.4517251e+38
0.00032098452 0.075681314 0.23600002 -2.4517251e+38
0.00070308289 0.075681314 0.23600002 -2.3586791e+38
0.0010851813 0.075681314 0.23600002 -2.3319903e+38
0.0018493779 0.075681314 0.23600002 -2.1988596e+38
0.0022314761 0.075681314 0.23600002 -2.1855152e+38
0.0026246491 0.076001994 0.23700002 -2.1588264e+38
0.003377771 0.075681314 0.23600002 -2.0790206e+38
0.0037439382 0.075360626 0.23500001 -2.0790206e+38
0.0044665569 0.074719265 0.23300001 -2.0790206e+38
0.0054541188 0.07279516 0.22700001 -2.0256955e+38
0.0061619072 0.072474472 0.22600001 -1.8792719e+38
0.006527815 0.072474472 0.22600001 -1.7463493e+38
0.0072275079 0.072153792 0.22500001 -1.706264e+38
0.0075917966 0.072153792 0.22500001 -1.7062119e+38
0.0079207253 0.071833111 0.22400001 -1.7061076e+38
0.0086460644 0.071833111 0.22400001 -1.7059508e+38
0.0089685163 0.071512423 0.223 -1.7058466e+38
0.0096906181 0.071512423 0.223 -1.7056902e+38
0.010051669 0.071512423 0.223 -1.7056379e+38
0.010459412 0.071833111 0.22400001 -1.7056379e+38
0.010822082 0.071833111 0.22400001 -1.7587549e+38
0.011284616 0.072474472 0.22600001 -1.7720993e+38
0.011650523 0.072474472 0.22600001 -1.8783335e+38
0.012122771 0.073115841 0.22800002 -1.8649891e+38
0.012748246 0.072474472 0.22600001 -1.8649887e+38
0.013172181 0.07279516 0.22700001 -1.8783846e+38
0.013539708 0.07279516 0.22700001 -1.891729e+38
0.0139685 0.073115841 0.22800002 -1.8916245e+38
0.014400531 0.073436528 0.22900002 -1.8916245e+38
0.014771295 0.073436528 0.22900002 -1.9048128e+38
0.01514206 0.073436528 0.22900002 -1.9048128e+38
0.015580567 0.073757216 0.23 -1.9180531e+38
0.016022312 0.074077897 0.23100001 -1.9313975e+38
0.016538274 0.074719265 0.23300001 -1.9579821e+38
0.016988114 0.075039946 0.23400001 -1.9579821e+38
0.017366974 0.075039946 0.23400001 -1.9713265e+38
0.017821671 0.075360626 0.23500001 -1.9579821e+38
0.01820215 0.075360626 0.23500001 -1.9579821e+38
0.018963108 0.075360626 0.23500001 -1.9713265e+38
0.019343589 0.075360626 0.23500001 -1.9579821e+38
0.019808 0.075681314 0.23600002 -1.9845147e+38
0.020190099 0.075681314 0.23600002 -2.0245479e+38
0.020954296 0.075681314 0.23600002 -2.0245479e+38
0.021336393 0.075681314 0.23600002 -2.0245479e+38
0.021718493 0.075681314 0.23600002 -2.0512368e+38
0.02210059 0.075681314 0.23600002 -2.0512883e+38
0.022864787 0.075681314 0.23600002 -2.0379435e+38
0.023246886 0.075681314 0.23600002 -2.0779767e+38
0.023628984 0.075681314 0.23600002 -2.2370151e+38
0.0075917966 0.07251808 0.22500001 -1.7061597e+38
0.0079560848 0.07251808 0.22500001 -1.7061076e+38
0.0086460644 0.072195783 0.22400001 -1.7058987e+38
0.0090087336 0.072195783 0.22400001 -1.7058466e+38
0.0093714036 0.072195783 0.22400001 -1.7057423e+38
0.010096743 0.072195783 0.22400001 -1.70569e+38
0.010459412 0.072195783 0.22400001 -1.70569e+38
0.00031962444 0.076121584 0.23500001 -2.5313222e+38
0.0007001037 0.076121584 0.23500001 -2.3720235e+38
0.0014610622 0.076121584 0.23500001 -2.2254442e+38
0.0018415415 0.076121584 0.23500001 -2.2254442e+38
0.0022314761 0.076445512 0.23600002 -2.1988596e+38
0.0029829794 0.076121584 0.23500001 -2.1188972e+38
0.0033634587 0.076121584 0.23500001 -2.1055528e+38
0.0037280063 0.075797662 0.23400001 -2.0790206e+38
0.0044665569 0.075473748 0.23300001 -2.0524358e+38
0.0054541188 0.073530212 0.22700001 -2.0256955e+38
0.0061619072 0.073206291 0.22600001 -1.8792719e+38
0.006527815 0.073206291 0.22600001 -1.7463493e+38
0.0068937228 0.073206291 0.22600001 -1.7063161e+38
0.0105528 0.073206291 0.22600001 -1.70569e+38
0.011284616 0.073206291 0.22600001 -1.7986319e+38
0.011650523 0.073206291 0.22600001 -1.8783335e+38
0.012122771 0.073854133 0.22800002 -1.8783335e+38
0.012748246 0.073206291 0.22600001 -1.878229e+38
0.013172181 0.073530212 0.22700001 -1.8782805e+38
0.013539708 0.073530212 0.22700001 -1.8916249e+38
0.0139685 0.073854133 0.22800002 -1.9048132e+38
0.014400531 0.074178055 0.22900002 -1.9048132e+38
0.014771295 0.074178055 0.22900002 -1.9048132e+38
0.01514206 0.074178055 0.22900002 -1.9048132e+38
0.015580567 0.074501984 0.23 -1.9181572e+38
0.016022312 0.074825898 0.23100001 -1.9181572e+38
0.016538274 0.075473748 0.23300001 -1.9313975e+38
0.016988114 0.075797662 0.23400001 -1.9447419e+38
0.017366974 0.075797662 0.23400001 -1.9713265e+38
0.017745834 0.075797662 0.23400001 -1.9713265e+38
0.01820215 0.076121584 0.23500001 -1.9713265e+38
0.018963108 0.076121584 0.23500001 -1.9980153e+38
0.019343589 0.076121584 0.23500001 -1.9713265e+38
0.019724067 0.076121584 0.23500001 -1.9978591e+38
0.020485025 0.076121584 0.23500001 -2.0378923e+38
0.020865506 0.076121584 0.23500001 -2.0512368e+38
0.021245984 0.076121584 0.23500001 -2.0378923e+38
0.021718493 0.076445512 0.23600002 -2.0512368e+38
0.02210059 0.076445512 0.23600002 -2.0512883e+38
0.022767901 0.076121584 0.23500001 -2.2238273e+38
0.0007001037 0.076502062 0.23500001 -2.4119006e+38
0.0014610622 0.076502062 0.23500001 -2.2387882e+38
0.0018415415 0.076502062 0.23500001 -2.2387882e+38
0.0022220206 0.076502062 0.23500001 -2.1988596e+38
0.0029829794 0.076502062 0.23500001 -2.1188972e+38
0.0033634587 0.076502062 0.23500001 -2.1055528e+38
0.0037280063 0.076176524 0.23400001 -2.0790202e+38
0.0044665569 0.075850986 0.23300001 -2.0524354e+38
0.0058216457 0.073897742 0.22700001 -1.9193052e+38
0.006527815 0.073572196 0.22600001 -1.7464009e+38
0.0068937228 0.073572196 0.22600001 -1.7063676e+38
0.0075917966 0.073246658 0.22500001 -1.7062113e+38
0.0079560848 0.073246658 0.22500001 -1.7061591e+38
0.0083203735 0.073246658 0.22500001 -1.7060549e+38
0.0090087336 0.07292112 0.22400001 -1.7058466e+38
0.0093714036 0.07292112 0.22400001 -1.7057419e+38
0.010096743 0.07292112 0.22400001 -1.7057415e+38
0.010459412 0.07292112 0.22400001 -1.7057936e+38
0.011015333 0.07422328 0.22800002 -1.7986315e+38
0.01138448 0.07422328 0.22800002 -1.7986315e+38
0.012122771 0.07422328 0.22800002 -1.8649891e+38
0.012437128 0.073897742 0.22700001 -1.9181576e+38
0.013172181 0.073897742 0.22700001 -1.9048132e+38
0.013539708 0.073897742 0.22700001 -1.9181576e+38
0.0139685 0.07422328 0.22800002 -1.9180535e+38
0.014400531 0.074548818 0.22900002 -1.9313979e+38
0.014771295 0.074548818 0.22900002 -1.9180535e+38
0.015208182 0.074874364 0.23 -1.9180535e+38
0.015648309 0.075199902 0.23100001 -1.9181572e+38
0.016161032 0.075850986 0.23300001 -1.9181572e+38
0.016538274 0.075850986 0.23300001 -1.9313975e+38
0.016988114 0.076176524 0.23400001 -1.9714307e+38
0.017366974 0.076176524 0.23400001 -1.9713265e+38
0.017745834 0.076176524 0.23400001 -1.9980153e+38
0.01820215 0.076502062 0.23500001 -1.9713265e+38
0.018963108 0.076502062 0.23500001 -1.9980153e+38
0.019343589 0.076502062 0.23500001 -1.9980153e+38
0.019724067 0.076502062 0.23500001 -1.9980153e+38
0.020485025 0.076502062 0.23500001 -2.0378923e+38
0.020865506 0.076502062 0.23500001 -2.0512368e+38
0.021245984 0.076502062 0.23500001 -2.0378923e+38
0.021718493 0.076827608 0.23600002 -2.0512368e+38
0.02210059 0.076827608 0.23600002 -2.1044053e+38
0.0007001037 0.076882541 0.23500001 -2.4119002e+38
0.0014610622 0.076882541 0.23500001 -2.305354e+38
0.0018415415 0.076882541 0.23500001 -2.2653208e+38
0.0022220206 0.076882541 0.23500001 -2.1988596e+38
0.0029829794 0.076882541 0.23500001 -2.1455861e+38
0.0033491461 0.076555386 0.23400001 -2.1188972e+38
0.0037280063 0.076555386 0.23400001 -2.0790202e+38
0.0044665569 0.076228231 0.23300001 -2.0656758e+38
0.0051986314 0.075901061 0.23200001 -2.0524358e+38
0.0058472916 0.074592426 0.22800002 -1.9193052e+38
0.006527815 0.073938102 0.22600001 -1.7464009e+38
0.0068937228 0.073938102 0.22600001 -1.719712e+38
0.0076255384 0.073938102 0.22600001 -1.7062634e+38
0.0079914462 0.073938102 0.22600001 -1.7061591e+38
0.0083203735 0.073610947 0.22500001 -1.7060549e+38
0.0090489509 0.073610947 0.22500001 -1.7058466e+38
0.0093714036 0.073283792 0.22400001 -1.7057419e+38
0.010096743 0.073283792 0.22400001 -1.7189819e+38
0.010506106 0.073610947 0.22500001 -1.7323263e+38
0.011015333 0.074592426 0.22800002 -1.7852871e+38
0.01138448 0.074592426 0.22800002 -1.7986315e+38
0.012122771 0.074592426 0.22800002 -1.878229e+38
0.012437128 0.074265271 0.22700001 -1.9181576e+38
0.013172181 0.074265271 0.22700001 -1.9048132e+38
0.013539708 0.074265271 0.22700001 -1.9181576e+38
0.0139685 0.074592426 0.22800002 -1.9180535e+38
0.014400531 0.074919581 0.22900002 -1.9180535e+38
0.014835798 0.075246751 0.23 -1.9180531e+38
0.015274306 0.075573906 0.23100001 -1.9180531e+38
0.01571605 0.075901061 0.23200001 -1.9181572e+38
0.016161032 0.076228231 0.23300001 -1.9181572e+38
0.016609253 0.076555386 0.23400001 -1.9447419e+38
0.016988114 0.076555386 0.23400001 -1.9714307e+38
0.017366974 0.076555386 0.23400001 -1.9713265e+38
0.017745834 0.076555386 0.23400001 -1.9980153e+38
0.018503554 0.076555386 0.23400001 -1.9980153e+38
0.018963108 0.076882541 0.23500001 -1.9980153e+38
0.019343589 0.076882541 0.23500001 -1.9980153e+38
0.019724067 0.076882541 0.23500001 -2.0378923e+38
0.020485025 0.076882541 0.23500001 -2.0512368e+38
0.020865506 0.076882541 0.23500001 -2.0512368e+38
0.021245984 0.076882541 0.23500001 -2.0512883e+38
0.021626463 0.076882541 0.23500001 -2.0646327e+38
0.0065566991 0.074632794 0.22700001 -1.7597453e+38
0.0068937228 0.074304014 0.22600001 -1.719712e+38
0.0076255384 0.074304014 0.22600001 -1.7062119e+38
0.0079914462 0.074304014 0.22600001 -1.7061591e+38
0.0083203735 0.073975235 0.22500001 -1.7060549e+38
0.0090489509 0.073975235 0.22500001 -1.7058987e+38
0.0094132395 0.073975235 0.22500001 -1.70569e+38
0.0097775282 0.073975235 0.22500001 -1.70569e+38
0.010506106 0.073975235 0.22500001 -1.7455145e+38
0.011015333 0.074961573 0.22800002 -1.7985275e+38
0.01138448 0.074961573 0.22800002 -1.8118719e+38
0.012122771 0.074961573 0.22800002 -1.8915734e+38
0.012491917 0.074961573 0.22800002 -1.9181576e+38
0.013172181 0.074632794 0.22700001 -1.9313975e+38
0.013599355 0.074961573 0.22800002 -1.9313975e+38
0.014091031 0.075619131 0.23 -1.9446377e+38
0.0145263 0.075947911 0.23100001 -1.9579821e+38
0.014964806 0.07627669 0.23200001 -1.9313975e+38
0.00069712452 0.077313103 0.23400001 -2.5580114e+38
0.0010759848 0.077313103 0.23400001 -2.5179782e+38
0.001454845 0.077313103 0.23400001 -2.3718159e+38
0.0018337052 0.077313103 0.23400001 -2.345127e+38
0.0025914258 0.077313103 0.23400001 -2.2120994e+38
0.0029702859 0.077313103 0.23400001 -2.1455861e+38
0.0033491461 0.077313103 0.23400001 -2.1188972e+38
0.0037280063 0.077313103 0.23400001 -2.0790202e+38
0.0044857268 0.077313103 0.23400001 -2.0790206e+38
0.004843798 0.076982707 0.23300001 -2.0656762e+38
0.015406551 0.076982707 0.23300001 -1.9313975e+38
0.016161032 0.076982707 0.23300001 -1.9447419e+38
0.016609253 0.077313103 0.23400001 -1.9714823e+38
0.016988114 0.077313103 0.23400001 -1.9848267e+38
0.017366974 0.077313103 0.23400001 -1.9980668e+38
0.017745834 0.077313103 0.23400001 -2.0114112e+38
0.018503554 0.077313103 0.23400001 -1.9980668e+38
0.018882414 0.077313103 0.23400001 -2.0114112e+38
0.019261274 0.077313103 0.23400001 -2.0114112e+38
0.019724067 0.077643499 0.23500001 -2.0512883e+38
0.020485025 0.077643499 0.23500001 -2.077873e+38
0.020865506 0.077643499 0.23500001 -2.077873e+38
0.021245984 0.077643499 0.23500001 -2.157418e+38
0.021626463 0.077643499 0.23500001 -2.2908621e+38
0.001454845 0.077691965 0.23400001 -2.4250367e+38
0.0018337052 0.077691965 0.23400001 -2.4116923e+38
0.0025914258 0.077691965 0.23400001 -2.2254438e+38
0.0029702859 0.077691965 0.23400001 -2.1323978e+38
0.0033491461 0.077691965 0.23400001 -2.0923646e+38
0.0037280063 0.077691965 0.23400001 -2.0923646e+38
0.0044857268 0.077691965 0.23400001 -2.0657803e+38
0.0051986314 0.077027932 0.23200001 -2.0258517e+38
0.0055502267 0.076695919 0.23100001 -1.9991629e+38
0.0065566991 0.075367853 0.22700001 -1.7862779e+38
0.0069242255 0.075367853 0.22700001 -1.7462447e+38
0.0076255384 0.075035825 0.22600001 -1.7062634e+38
0.0079914462 0.075035825 0.22600001 -1.7061591e+38
0.0083573535 0.075035825 0.22600001 -1.7060549e+38
0.0087232618 0.075035825 0.22600001 -1.7059508e+38
0.0094132395 0.074703813 0.22500001 -1.70569e+38
0.0097775282 0.074703813 0.22500001 -1.70569e+38
0.010506106 0.074703813 0.22500001 -1.7720993e+38
0.011015333 0.075699866 0.22800002 -1.8118719e+38
0.01138448 0.075699866 0.22800002 -1.8118719e+38
0.012122771 0.075699866 0.22800002 -1.8915734e+38
0.012491917 0.075699866 0.22800002 -1.9181576e+38
0.012861063 0.075699866 0.22800002 -1.9181576e+38
0.013288235 0.076031879 0.22900002 -1.9313979e+38
0.013718646 0.076363899 0.23 -1.9313979e+38
0.014152297 0.076695919 0.23100001 -1.9313979e+38
0.014589184 0.077027932 0.23200001 -1.9313979e+38
0.014964806 0.077027932 0.23200001 -1.9313979e+38
0.015406551 0.077359952 0.23300001 -1.9313979e+38
0.016161032 0.077359952 0.23300001 -1.9447419e+38
0.016538274 0.077359952 0.23300001 -1.9447934e+38
0.016988114 0.077691965 0.23400001 -1.9848267e+38
0.017366974 0.077691965 0.23400001 -1.9980668e+38
0.017745834 0.077691965 0.23400001 -1.9980668e+38
0.018503554 0.077691965 0.23400001 -2.0114112e+38
0.018882414 0.077691965 0.23400001 -2.0247556e+38
0.019261274 0.077691965 0.23400001 -2.0247556e+38
0.020018995 0.077691965 0.23400001 -2.0646327e+38
0.020397855 0.077691965 0.23400001 -2.1177497e+38
0.020776715 0.077691965 0.23400001 -2.1177497e+38
0.0018180325 0.077403553 0.23200001 -2.4515689e+38
0.0021936547 0.077403553 0.23200001 -2.3054056e+38
0.0025692766 0.077403553 0.23200001 -2.2520279e+38
0.0029448988 0.077403553 0.23200001 -2.1323974e+38
0.0036961429 0.077403553 0.23200001 -2.0790202e+38
0.0040893159 0.07773719 0.23300001 -2.0790202e+38
0.0044665569 0.07773719 0.23300001 -2.0657803e+38
0.0051986314 0.077403553 0.23200001 -2.0125073e+38
0.0055502267 0.077069916 0.23100001 -1.9858185e+38
0.0069242255 0.075735375 0.22700001 -1.719712e+38
0.0072917524 0.075735375 0.22700001 -1.7063676e+38
0.0079914462 0.075401738 0.22600001 -1.7061591e+38
0.0083573535 0.075401738 0.22600001 -1.7060549e+38
0.0087232618 0.075401738 0.22600001 -1.7059508e+38
0.0094550764 0.075401738 0.22600001 -1.7056904e+38
0.0098209847 0.075401738 0.22600001 -1.7056904e+38
0.010231967 0.075735375 0.22700001 -1.7720993e+38
0.010599493 0.075735375 0.22700001 -1.7720993e+38
0.01096702 0.075735375 0.22700001 -1.8384564e+38
0.01138448 0.076069012 0.22800002 -1.8384564e+38
0.012122771 0.076069012 0.22800002 -1.8915734e+38
0.012491917 0.076069012 0.22800002 -1.9181576e+38
0.012917471 0.076402642 0.22900002 -1.9181576e+38
0.013346262 0.076736286 0.23 -1.9313979e+38
0.013718646 0.076736286 0.23 -1.9313979e+38
0.014152297 0.077069916 0.23100001 -1.9313979e+38
0.014589184 0.077403553 0.23200001 -1.9313979e+38
0.014964806 0.077403553 0.23200001 -1.9313979e+38
0.01571605 0.077403553 0.23200001 -1.9315016e+38
0.016161032 0.07773719 0.23300001 -1.9315016e+38
0.016538274 0.07773719 0.23300001 -1.9447934e+38
0.016915515 0.07773719 0.23300001 -1.9714823e+38
0.017669998 0.07773719 0.23300001 -1.9848267e+38
0.018047238 0.07773719 0.23300001 -1.9848267e+38
0.018424479 0.07773719 0.23300001 -1.9981711e+38
0.018882414 0.078070827 0.23400001 -2.0247556e+38
0.019261274 0.078070827 0.23400001 -2.0247556e+38
0.020018995 0.078070827 0.23400001 -2.0779767e+38
0.020397855 0.078070827 0.23400001 -2.1841068e+38
0.020776715 0.078070827 0.23400001 -2.2641733e+38
0.0018180325 0.077779174 0.23200001 -2.4781537e+38
0.0021936547 0.077779174 0.23200001 -2.3319903e+38
0.0025692766 0.077779174 0.23200001 -2.2786127e+38
0.0029448988 0.077779174 0.23200001 -2.1722745e+38
0.0036961429 0.077779174 0.23200001 -2.0790206e+38
0.0040717651 0.077779174 0.23200001 -2.0790206e+38
0.0044473871 0.077779174 0.23200001 -2.0524358e+38
0.0051762233 0.07744392 0.23100001 -2.0125073e+38
0.0055502267 0.07744392 0.23100001 -1.9858185e+38
0.0059242295 0.07744392 0.23100001 -1.8794285e+38
0.0066433516 0.077108666 0.23 -1.7463493e+38
0.0073559969 0.076773413 0.22900002 -1.7063161e+38
0.007726762 0.076773413 0.22900002 -1.7061597e+38
0.0083573535 0.075767644 0.22600001 -1.7060034e+38
0.0087232618 0.075767644 0.22600001 -1.7059508e+38
0.0094550764 0.075767644 0.22600001 -1.7056904e+38
0.0098644402 0.076102905 0.22700001 -1.7056904e+38
0.010186892 0.075767644 0.22600001 -1.7985804e+38
0.010599493 0.076102905 0.22700001 -1.7985804e+38
0.01096702 0.076102905 0.22700001 -1.8384564e+38
0.01138448 0.076438159 0.22800002 -1.8518008e+38
0.012122771 0.076438159 0.22800002 -1.9181576e+38
0.012546706 0.076773413 0.22900002 -1.9447423e+38
0.012917471 0.076773413 0.22900002 -1.9447423e+38
0.013346262 0.077108666 0.23 -1.9313979e+38
0.013778294 0.07744392 0.23100001 -1.9313979e+38
0.014152297 0.07744392 0.23100001 -1.9313979e+38
0.014589184 0.077779174 0.23200001 -1.9313979e+38
0.014964806 0.077779174 0.23200001 -1.9447423e+38
0.01571605 0.077779174 0.23200001 -1.931502e+38
0.016091673 0.077779174 0.23200001 -1.931502e+38
0.016538274 0.078114435 0.23300001 -1.9714307e+38
0.016915515 0.078114435 0.23300001 -1.9714307e+38
0.017669998 0.078114435 0.23300001 -1.9848267e+38
0.018047238 0.078114435 0.23300001 -1.9981711e+38
0.018424479 0.078114435 0.23300001 -1.9981711e+38
0.018801721 0.078114435 0.23300001 -2.0247556e+38
0.019556204 0.078114435 0.23300001 -2.0646323e+38
0.019933444 0.078114435 0.23300001 -2.0779767e+38
0.0021841992 0.078191929 0.23100001 -2.3852114e+38
0.0029322051 0.078191929 0.23100001 -2.1856189e+38
0.0033062082 0.078191929 0.23100001 -2.1455857e+38
0.0036802113 0.078191929 0.23100001 -2.0791247e+38
0.0040542143 0.078191929 0.23100001 -2.0791247e+38
0.0048022205 0.078191929 0.23100001 -2.0657287e+38
0.0051762233 0.078191929 0.23100001 -2.0125077e+38
0.0055502267 0.078191929 0.23100001 -1.9991633e+38
0.0059242295 0.078191929 0.23100001 -1.879377e+38
0.0066433516 0.077853434 0.23 -1.7463493e+38
0.0070157358 0.077853434 0.23 -1.7196605e+38
0.007726762 0.077514939 0.22900002 -1.7062119e+38
0.0080975266 0.077514939 0.22900002 -1.7061076e+38
0.0084682917 0.077514939 0.22900002 -1.7060034e+38
0.0092098219 0.077514939 0.22900002 -1.7059508e+38
0.0095805861 0.077514939 0.22900002 -1.7056904e+38
0.0099513512 0.077514939 0.22900002 -1.7057425e+38
0.010692881 0.077514939 0.22900002 -1.7985804e+38
0.011063647 0.077514939 0.22900002 -1.8518008e+38
0.011434411 0.077514939 0.22900002 -1.8518008e+38
0.011805176 0.077514939 0.22900002 -1.9181576e+38
0.012229111 0.077853434 0.23 -1.9181576e+38
0.012973879 0.077853434 0.23 -1.9447423e+38
0.013346262 0.077853434 0.23 -1.9447423e+38
0.013778294 0.078191929 0.23100001 -1.9313979e+38
0.014152297 0.078191929 0.23100001 -1.9313979e+38
0.0145263 0.078191929 0.23100001 -1.9313979e+38
0.014964806 0.078530416 0.23200001 -1.9447423e+38
0.01571605 0.078530416 0.23200001 -1.9714307e+38
0.016091673 0.078530416 0.23200001 -1.9847751e+38
0.016467294 0.078530416 0.23200001 -1.9981711e+38
0.017218539 0.078530416 0.23200001 -2.0247556e+38
0.017594161 0.078530416 0.23200001 -2.0247556e+38
0.018047238 0.078868918 0.23300001 -2.0247556e+38
0.018424479 0.078868918 0.23300001 -2.0247556e+38
0.018801721 0.078868918 0.23300001 -2.0646323e+38
0.019556204 0.078868918 0.23300001 -2.2237222e+38
0.0021841992 0.078565933 0.23100001 -2.3852118e+38
0.0029322051 0.078565933 0.23100001 -2.2255484e+38
0.0033062082 0.078565933 0.23100001 -2.1721708e+38
0.0036802113 0.078565933 0.23100001 -2.0791247e+38
0.0040542143 0.078565933 0.23100001 -2.0791247e+38
0.0048022205 0.078565933 0.23100001 -2.0657803e+38
0.0051762233 0.078565933 0.23100001 -2.0258521e+38
0.0055502267 0.078565933 0.23100001 -1.9991633e+38
0.0062709674 0.078225821 0.23 -1.8527397e+38
0.0066433516 0.078225821 0.23 -1.7730381e+38
0.0070157358 0.078225821 0.23 -1.7196605e+38
0.007726762 0.077885702 0.22900002 -1.7062119e+38
0.0080975266 0.077885702 0.22900002 -1.7061076e+38
0.0084682917 0.077885702 0.22900002 -1.7060034e+38
0.0092098219 0.077885702 0.22900002 -1.7059508e+38
0.0095805861 0.077885702 0.22900002 -1.7056904e+38
0.0099513512 0.077885702 0.22900002 -1.7057425e+38
0.010692881 0.077885702 0.22900002 -1.7985804e+38
0.011063647 0.077885702 0.22900002 -1.8518008e+38
0.011434411 0.077885702 0.22900002 -1.8518008e+38
0.011856727 0.078225821 0.23 -1.9049693e+38
0.012229111 0.078225821 0.23 -1.9049693e+38
0.012973879 0.078225821 0.23 -1.931502e+38
0.013346262 0.078225821 0.23 -1.931502e+38
0.013718646 0.078225821 0.23 -1.931502e+38
0.014152297 0.078565933 0.23100001 -1.9313979e+38
0.0145263 0.078565933 0.23100001 -1.9447423e+38
0.015274306 0.078565933 0.23100001 -1.9714311e+38
0.015648309 0.078565933 0.23100001 -1.9847751e+38
0.016022312 0.078565933 0.23100001 -1.9847751e+38
0.016770318 0.078565933 0.23100001 -2.0247556e+38
0.017144321 0.078565933 0.23100001 -2.0512883e+38
0.017518325 0.078565933 0.23100001 -2.0646327e+38
0.017892327 0.078565933 0.23100001 -2.0512883e+38
0.018640334 0.078565933 0.23100001 -2.1177493e+38
0.019014336 0.078565933 0.23100001 -2.0910605e+38
0.0025471277 0.078598201 0.23 -2.3851077e+38
0.0029322051 0.07893993 0.23100001 -2.252133e+38
0.0033062082 0.07893993 0.23100001 -2.2120998e+38
0.0036802113 0.07893993 0.23100001 -2.1190534e+38
0.0040542143 0.07893993 0.23100001 -2.0923646e+38
0.0048022205 0.07893993 0.23100001 -2.0790206e+38
0.0051538153 0.078598201 0.23 -2.0258517e+38
0.0055261995 0.078598201 0.23 -2.0125073e+38
0.0062709674 0.078598201 0.23 -1.8792723e+38
0.0066433516 0.078598201 0.23 -1.7995712e+38
0.0070157358 0.078598201 0.23 -1.7461936e+38
0.007726762 0.078256465 0.22900002 -1.7062119e+38
0.0080975266 0.078256465 0.22900002 -1.7061076e+38
0.0084682917 0.078256465 0.22900002 -1.7060034e+38
0.0092098219 0.078256465 0.22900002 -1.7058987e+38
0.0095805861 0.078256465 0.22900002 -1.7057425e+38
0.0099513512 0.078256465 0.22900002 -1.7057425e+38
0.010692881 0.078256465 0.22900002 -1.7986319e+38
0.011063647 0.078256465 0.22900002 -1.8518008e+38
0.011434411 0.078256465 0.22900002 -1.8518008e+38
0.011805176 0.078256465 0.22900002 -1.9049693e+38
0.012546706 0.078256465 0.22900002 -1.9581908e+38
0.012973879 0.078598201 0.23 -1.931502e+38
0.013346262 0.078598201 0.23 -1.931502e+38
0.013718646 0.078598201 0.23 -1.931502e+38
0.014091031 0.078598201 0.23 -1.9447423e+38
0.014835798 0.078598201 0.23 -1.9714311e+38
0.015274306 0.07893993 0.23100001 -1.9847756e+38
0.015648309 0.07893993 0.23100001 -1.9847751e+38
0.016022312 0.07893993 0.23100001 -1.9847751e+38
0.016770318 0.07893993 0.23100001 -2.0247556e+38
0.017144321 0.07893993 0.23100001 -2.0512883e+38
0.017518325 0.07893993 0.23100001 -2.0512883e+38
0.017892327 0.07893993 0.23100001 -2.0512883e+38
0.018640334 0.07893993 0.23100001 -2.1839492e+38
0.0025471277 0.078970589 0.23 -2.4382249e+38
0.0029195116 0.078970589 0.23 -2.2788214e+38
0.0032918956 0.078970589 0.23 -2.2254438e+38
0.0036642796 0.078970589 0.23 -2.1455861e+38
0.0044090473 0.078970589 0.23 -2.0791247e+38
0.0047814315 0.078970589 0.23 -2.0657803e+38
0.0051538153 0.078970589 0.23 -2.0125073e+38
0.0055261995 0.078970589 0.23 -1.9991629e+38
0.0062709674 0.078970589 0.23 -1.8926167e+38
0.0066433516 0.078970589 0.23 -1.7995712e+38
0.0073559969 0.078627236 0.22900002 -1.706264e+38
0.007726762 0.078627236 0.22900002 -1.7062119e+38
0.0080975266 0.078627236 0.22900002 -1.7061076e+38
0.0084682917 0.078627236 0.22900002 -1.7060034e+38
0.0092098219 0.078627236 0.22900002 -1.7058987e+38
0.0095805861 0.078627236 0.22900002 -1.7057421e+38
0.0099513512 0.078627236 0.22900002 -1.7057421e+38
0.010692881 0.078627236 0.22900002 -1.8252167e+38
0.011063647 0.078627236 0.22900002 -1.8518008e+38
0.011434411 0.078627236 0.22900002 -1.8518008e+38
0.011805176 0.078627236 0.22900002 -1.9049178e+38
0.012546706 0.078627236 0.22900002 -1.9581908e+38
0.012917471 0.078627236 0.22900002 -1.931502e+38
0.013346262 0.078970589 0.23 -1.931502e+38
0.013718646 0.078970589 0.23 -1.9581908e+38
0.014091031 0.078970589 0.23 -1.9714311e+38
0.014835798 0.078970589 0.23 -1.9847756e+38
0.015208182 0.078970589 0.23 -1.99812e+38
0.015580567 0.078970589 0.23 -1.9847751e+38
0.016325334 0.078970589 0.23 -2.0381e+38
0.016697718 0.078970589 0.23 -2.0247556e+38
0.017070102 0.078970589 0.23 -2.0512883e+38
0.017442485 0.078970589 0.23 -2.0512883e+38
0.018187255 0.078970589 0.23 -2.13099e+38
0.0029195116 0.079715356 0.23 -2.2788214e+38
0.0032918956 0.079715356 0.23 -2.2387882e+38
0.0036642796 0.079715356 0.23 -2.19886e+38
0.0044090473 0.079715356 0.23 -2.0791247e+38
0.0047814315 0.079715356 0.23 -2.0524358e+38
0.0051538153 0.079715356 0.23 -1.9993706e+38
0.0055261995 0.079715356 0.23 -1.9860262e+38
0.006243702 0.079368763 0.22900002 -1.8926163e+38
0.0066144671 0.079368763 0.22900002 -1.7995708e+38
0.0073559969 0.079368763 0.22900002 -1.7062644e+38
0.007726762 0.079368763 0.22900002 -1.7062123e+38
0.0080975266 0.079368763 0.22900002 -1.7061076e+38
0.0084682917 0.079368763 0.22900002 -1.7060034e+38
0.0092098219 0.079368763 0.22900002 -1.7058989e+38
0.0095805861 0.079368763 0.22900002 -1.7057425e+38
0.0099513512 0.079368763 0.22900002 -1.7057425e+38
0.010692881 0.079368763 0.22900002 -1.7985804e+38
0.011063647 0.079368763 0.22900002 -1.8518008e+38
0.011434411 0.079368763 0.22900002 -1.8518008e+38
0.011805176 0.079368763 0.22900002 -1.8916779e+38
0.012546706 0.079368763 0.22900002 -1.9581393e+38
0.012917471 0.079368763 0.22900002 -1.9314505e+38
0.013288235 0.079368763 0.22900002 -1.9581393e+38
0.013718646 0.079715356 0.23 -1.9714837e+38
0.014091031 0.079715356 0.23 -1.9847756e+38
0.014835798 0.079715356 0.23 -1.9981196e+38
0.015208182 0.079715356 0.23 -1.9981196e+38
0.015580567 0.079715356 0.23 -1.9981196e+38
0.016325334 0.079715356 0.23 -2.011464e+38
0.016697718 0.079715356 0.23 -2.011464e+38
0.017070102 0.079715356 0.23 -2.1044053e+38
0.017442485 0.079715356 0.23 -2.1044053e+38
0.0029195116 0.080087736 0.23 -2.3186985e+38
0.0032918956 0.080087736 0.23 -2.2786652e+38
0.0040191128 0.079739526 0.22900002 -2.1721712e+38
0.0043898779 0.079739526 0.22900002 -2.1455861e+38
0.0047606425 0.079739526 0.22900002 -2.1055528e+38
0.0055021723 0.079739526 0.22900002 -1.9860262e+38
0.0058729374 0.079739526 0.22900002 -1.8927725e+38
0.006243702 0.079739526 0.22900002 -1.8660837e+38
0.0066144671 0.079739526 0.22900002 -1.7862268e+38
0.0073559969 0.079739526 0.22900002 -1.7062644e+38
0.007726762 0.079739526 0.22900002 -1.7062123e+38
0.0080975266 0.079739526 0.22900002 -1.7061076e+38
0.0084682917 0.079739526 0.22900002 -1.7060034e+38
0.0092098219 0.079739526 0.22900002 -1.7058989e+38
0.0095805861 0.079739526 0.22900002 -1.7057425e+38
0.0099513512 0.079739526 0.22900002 -1.7057425e+38
0.010692881 0.079739526 0.22900002 -1.7985804e+38
0.011063647 0.079739526 0.22900002 -1.8916779e+38
0.011434411 0.079739526 0.22900002 -1.8916779e+38
0.011805176 0.079739526 0.22900002 -1.9049182e+38
0.012546706 0.079739526 0.22900002 -1.9581393e+38
0.012917471 0.079739526 0.22900002 -1.9581393e+38
0.013288235 0.079739526 0.22900002 -1.9581393e+38
0.013659 0.079739526 0.22900002 -1.9714837e+38
0.014400531 0.079739526 0.22900002 -1.9848796e+38
0.014771295 0.079739526 0.22900002 -2.011464e+38
0.01514206 0.079739526 0.22900002 -1.9981196e+38
0.015883589 0.079739526 0.22900002 -2.0247041e+38
0.016254354 0.079739526 0.22900002 -2.0381e+38
0.016625119 0.079739526 0.22900002 -2.0381e+38
0.016995884 0.079739526 0.22900002 -2.2238269e+38
0.0029068182 0.080110289 0.22900002 -2.3317301e+38
0.003277583 0.080110289 0.22900002 -2.3584189e+38
