# .PCD v0.7 - Point Cloud Data file format
VERSION 0.7
FIELDS x y z rgb
SIZE 4 4 4 4
TYPE F F F F
COUNT 1 1 1 1
WIDTH 969
HEIGHT 1
VIEWPOINT 0 0 0 1 0 0 0
POINTS 969
DATA ascii
0.0075808526 0.050844923 0.23600002 -1.7057965e+38
0.0079966933 0.051060367 0.23700002 -1.7057965e+38
0.0084157707 0.051275812 0.23800001 -1.7058484e+38
0.0088380864 0.051491257 0.23900001 -1.7058484e+38
0.0092636403 0.051706702 0.24000001 -1.7059531e+38
0.0096522151 0.051706702 0.24000001 -1.7059531e+38
0.010429364 0.051706702 0.24000001 -1.7060054e+38
0.010817938 0.051706702 0.24000001 -1.7060054e+38
0.011253207 0.051922146 0.24100001 -1.7060575e+38
0.0116434 0.051922146 0.24100001 -1.7060575e+38
0.012033594 0.051922146 0.24100001 -1.7061096e+38
0.012813982 0.051922146 0.24100001 -1.7061616e+38
0.013149386 0.051706702 0.24000001 -1.7061616e+38
0.013926535 0.051706702 0.24000001 -1.7062137e+38
0.014255463 0.051491257 0.23900001 -1.7062137e+38
0.014642418 0.051491257 0.23900001 -1.7062137e+38
0.01541633 0.051491257 0.23900001 -1.7062662e+38
0.015803285 0.051491257 0.23900001 -1.7062662e+38
0.018735727 0.047182366 0.21900001 -1.7064234e+38
0.019356087 0.046966922 0.21800001 -1.7064755e+38
0.019709041 0.046966922 0.21800001 -1.7064755e+38
0.020414952 0.046966922 0.21800001 -1.7065275e+38
0.020767907 0.046966922 0.21800001 -1.7065275e+38
0.021217747 0.047182366 0.21900001 -1.7065275e+38
0.021572322 0.047182366 0.21900001 -1.7065275e+38
0.021926895 0.047182366 0.21900001 -1.7065275e+38
0.022484953 0.047613256 0.22100002 -1.7065275e+38
0.022842765 0.047613256 0.22100002 -1.7066311e+38
0.02330556 0.0478287 0.22200002 -1.706579e+38
0.02366499 0.0478287 0.22200002 -1.7065786e+38
0.024240857 0.04825959 0.22400001 -1.7065264e+38
0.024713363 0.048475031 0.22500001 -1.7063697e+38
0.025300566 0.04890592 0.22700001 -1.7062654e+38
0.025668092 0.04890592 0.22700001 -1.7060565e+38
0.026150314 0.049121365 0.22800002 -1.7059523e+38
0.026635772 0.049336813 0.22900002 -1.7324313e+38
0.02712447 0.049552254 0.23 -1.7324313e+38
0.027616404 0.049767699 0.23100001 -1.891834e+38
0.027990408 0.049767699 0.23100001 -1.9051785e+38
0.0284872 0.049983148 0.23200001 -1.9847751e+38
0.028987231 0.050198589 0.23300001 -1.9847751e+38
0.029616529 0.050629482 0.23500001 -2.0247041e+38
0.031153081 0.051922146 0.24100001 -2.0247041e+38
0.031543273 0.051922146 0.24100001 -2.0113597e+38
0.032055415 0.051491257 0.23900001 -2.0646327e+38
0.032691967 0.051275812 0.23800001 -2.0912174e+38
0.033633225 0.052137591 0.24200001 -2.1310945e+38
0.034025036 0.052137591 0.24200001 -2.1310945e+38
0.034520987 0.051706702 0.24000001 -2.1711277e+38
0.00064647873 0.047102813 0.21700001 -1.7061608e+38
0.00099781493 0.047102813 0.21700001 -1.7057959e+38
0.0013491511 0.047102813 0.21700001 -1.7049621e+38
0.0020518235 0.047102813 0.21700001 -1.7049106e+38
0.0024142342 0.047319878 0.21800001 -1.7049106e+38
0.0027671894 0.047319878 0.21800001 -1.7049621e+38
0.0031344572 0.047536939 0.21900001 -1.7050142e+38
0.0036642796 0.049924638 0.23 -1.7051182e+38
0.0044090473 0.049924638 0.23 -1.7052229e+38
0.005109 0.049490511 0.22800002 -1.7187235e+38
0.0055021723 0.049707577 0.22900002 -1.7320679e+38
0.017944265 0.047319878 0.21800001 -1.7063188e+38
0.018564623 0.047102813 0.21700001 -1.7064749e+38
0.018915959 0.047102813 0.21700001 -1.7064749e+38
0.019267296 0.047102813 0.21700001 -1.7064749e+38
0.019709041 0.047319878 0.21800001 -1.7064749e+38
0.020414952 0.047319878 0.21800001 -1.7064749e+38
0.020767907 0.047319878 0.21800001 -1.7064749e+38
0.021217747 0.047536939 0.21900001 -1.706579e+38
0.021572322 0.047536939 0.21900001 -1.706579e+38
0.022027018 0.047754005 0.22000001 -1.706579e+38
0.022484953 0.04797107 0.22100002 -1.706579e+38
0.022946127 0.048188131 0.22200002 -1.7066307e+38
0.02330556 0.048188131 0.22200002 -1.7065786e+38
0.02377159 0.048405197 0.223 -1.706578e+38
0.024240857 0.048622258 0.22400001 -1.7063695e+38
0.024713363 0.048839319 0.22500001 -1.7062127e+38
0.025300566 0.049273446 0.22700001 -1.7061084e+38
0.025781168 0.049490511 0.22800002 -1.7060038e+38
0.026150314 0.049490511 0.22800002 -1.7058995e+38
0.026635772 0.049707577 0.22900002 -1.8254254e+38
0.02712447 0.049924638 0.23 -1.8254254e+38
0.00064349954 0.047235467 0.21600001 -1.7063689e+38
0.00099321664 0.047235467 0.21600001 -1.7061604e+38
0.001692651 0.047235467 0.21600001 -1.7049623e+38
0.0020423681 0.047235467 0.21600001 -1.7048063e+38
0.0059242295 0.050515708 0.23100001 -1.7055357e+38
0.0063527627 0.050953072 0.23300001 -1.7188801e+38
0.0067588878 0.051171754 0.23400001 -1.7056403e+38
0.0071682516 0.051390439 0.23500001 -1.7056403e+38
0.0075487308 0.051390439 0.23500001 -1.7056403e+38
0.0079629514 0.051609121 0.23600002 -1.7056403e+38
0.0087271482 0.051609121 0.23600002 -1.7057965e+38
0.0092250425 0.052265167 0.23900001 -1.7058488e+38
0.0096522151 0.052483853 0.24000001 -1.7058488e+38
0.010429364 0.052483853 0.24000001 -1.7058488e+38
0.010817938 0.052483853 0.24000001 -1.7058488e+38
0.011206513 0.052483853 0.24000001 -1.7059531e+38
0.0116434 0.052702531 0.24100001 -1.706005e+38
0.012033594 0.052702531 0.24100001 -1.7060571e+38
0.012813982 0.052702531 0.24100001 -1.7061092e+38
0.013149386 0.052483853 0.24000001 -1.7061616e+38
0.013868508 0.052265167 0.23900001 -1.7062137e+38
0.014195818 0.052046485 0.23800001 -1.7062137e+38
0.01496649 0.052046485 0.23800001 -1.7062137e+38
0.018129356 0.047235467 0.21600001 -1.7063188e+38
0.018479072 0.047235467 0.21600001 -1.7063188e+38
0.018828789 0.047235467 0.21600001 -1.7063707e+38
0.027616404 0.050515708 0.23100001 -1.9450026e+38
0.027990408 0.050515708 0.23100001 -1.9450026e+38
0.0284872 0.05073439 0.23200001 -1.9848267e+38
0.029111642 0.051171754 0.23400001 -1.9848267e+38
0.029616529 0.051390439 0.23500001 -2.0247556e+38
0.030762888 0.052702531 0.24100001 -2.0247556e+38
0.031153081 0.052702531 0.24100001 -2.0247556e+38
0.031543273 0.052702531 0.24100001 -2.0247556e+38
0.032055415 0.052265167 0.23900001 -2.0646327e+38
0.032442372 0.052265167 0.23900001 -2.0912174e+38
0.033216283 0.052265167 0.23900001 -2.1310945e+38
0.034025036 0.052921217 0.24200001 -2.1310945e+38
0.038809299 0.05707619 0.26100001 -2.3041539e+38
0.039231874 0.05707619 0.26100001 -2.3441872e+38
0.0024031596 0.047805484 0.21700001 -1.7048063e+38
0.0027544959 0.047805484 0.21700001 -1.7048578e+38
0.0031201446 0.048025787 0.21800001 -1.7049621e+38
0.005478146 0.050228804 0.22800002 -1.7053785e+38
0.0058729374 0.050449107 0.22900002 -1.7055352e+38
0.0063527627 0.051330313 0.23300001 -1.7188797e+38
0.0067588878 0.051550616 0.23400001 -1.7056918e+38
0.0071682516 0.051770918 0.23500001 -1.7056397e+38
0.0075487308 0.051770918 0.23500001 -1.7056397e+38
0.0079629514 0.051991217 0.23600002 -1.7056918e+38
0.0087271482 0.051991217 0.23600002 -1.7057444e+38
0.0091092465 0.051991217 0.23600002 -1.7057444e+38
0.0095315622 0.052211519 0.23700002 -1.7057965e+38
0.009998953 0.052652124 0.23900001 -1.7058484e+38
0.010429364 0.052872427 0.24000001 -1.7058484e+38
0.010817938 0.052872427 0.24000001 -1.7058488e+38
0.011206513 0.052872427 0.24000001 -1.7059531e+38
0.011595088 0.052872427 0.24000001 -1.706005e+38
0.012372237 0.052872427 0.24000001 -1.7060571e+38
0.012760811 0.052872427 0.24000001 -1.7060571e+38
0.013481552 0.052652124 0.23900001 -1.7061616e+38
0.013810481 0.052431822 0.23800001 -1.7061616e+38
0.014519889 0.052211519 0.23700002 -1.7061616e+38
0.017510615 0.047805484 0.21700001 -1.7062666e+38
0.019267296 0.047805484 0.21700001 -1.7063188e+38
0.019969968 0.047805484 0.21700001 -1.7063188e+38
0.020414952 0.048025787 0.21800001 -1.7064749e+38
0.020767907 0.048025787 0.21800001 -1.7063707e+38
0.021217747 0.048246086 0.21900001 -1.7065269e+38
0.021572322 0.048246086 0.21900001 -1.7066311e+38
0.022027018 0.048466392 0.22000001 -1.7066307e+38
0.022586696 0.048906993 0.22200002 -1.7066307e+38
0.022946127 0.048906993 0.22200002 -1.7065776e+38
0.023410538 0.049127296 0.223 -1.7064212e+38
0.02377159 0.049127296 0.223 -1.7063684e+38
0.024240857 0.049347598 0.22400001 -1.7061599e+38
0.024713363 0.049567897 0.22500001 -1.705951e+38
0.025300566 0.050008502 0.22700001 -1.705951e+38
0.025781168 0.050228804 0.22800002 -1.8388213e+38
0.026265008 0.050449107 0.22900002 -1.8254769e+38
0.026752086 0.050669406 0.23 -1.9317107e+38
0.02712447 0.050669406 0.23 -1.9183663e+38
0.027616404 0.050889708 0.23100001 -1.9715348e+38
0.028111577 0.051110014 0.23200001 -1.9715348e+38
0.0284872 0.051110014 0.23200001 -1.9848267e+38
0.029111642 0.051550616 0.23400001 -1.9848267e+38
0.030762888 0.053092726 0.24100001 -2.0247556e+38
0.031153081 0.053092726 0.24100001 -2.0247556e+38
0.031543273 0.053092726 0.24100001 -2.0247556e+38
0.032055415 0.052652124 0.23900001 -2.0646327e+38
0.032691967 0.052431822 0.23800001 -2.1045618e+38
0.033216283 0.052652124 0.23900001 -2.1310945e+38
0.03427463 0.053092726 0.24100001 -2.1711277e+38
0.03796415 0.057498764 0.26100001 -2.2509854e+38
0.038660605 0.057278458 0.26000002 -2.3174983e+38
0.039231874 0.057498764 0.26100001 -2.3441872e+38
0.00099321664 0.047934897 0.21600001 -1.7064208e+38
0.0016848146 0.047712982 0.215 -1.7054827e+38
0.0020329126 0.047712982 0.215 -1.7049101e+38
0.0027291088 0.047712982 0.215 -1.7048057e+38
0.0030915195 0.047934897 0.21600001 -1.7048578e+38
0.0034412364 0.047934897 0.21600001 -1.7049621e+38
0.0058729374 0.05081987 0.22900002 -1.7055352e+38
0.0063527627 0.051707555 0.23300001 -1.7055352e+38
0.0067588878 0.051929474 0.23400001 -1.7056397e+38
0.0071682516 0.052151397 0.23500001 -1.7055876e+38
0.0075487308 0.052151397 0.23500001 -1.7056397e+38
0.0083096894 0.052151397 0.23500001 -1.7056918e+38
0.0086901691 0.052151397 0.23500001 -1.7056918e+38
0.0090706479 0.052151397 0.23500001 -1.7057438e+38
0.009491344 0.052373316 0.23600002 -1.7057959e+38
0.0099152802 0.052595239 0.23700002 -1.7057444e+38
0.010385909 0.053039078 0.23900001 -1.7056922e+38
0.010817938 0.053261001 0.24000001 -1.7057444e+38
0.011206513 0.053261001 0.24000001 -1.7057965e+38
0.011595088 0.053261001 0.24000001 -1.7058484e+38
0.012372237 0.053261001 0.24000001 -1.7060567e+38
0.012707642 0.053039078 0.23900001 -1.7060567e+38
0.013425144 0.052817158 0.23800001 -1.7060575e+38
0.013752454 0.052595239 0.23700002 -1.7061094e+38
0.017349228 0.047712982 0.215 -1.7062666e+38
0.017697325 0.047712982 0.215 -1.7062145e+38
0.018045424 0.047712982 0.215 -1.7062666e+38
0.018741619 0.047712982 0.215 -1.7063188e+38
0.019267296 0.04815682 0.21700001 -1.7062666e+38
0.019969968 0.04815682 0.21700001 -1.7062666e+38
0.020414952 0.048378743 0.21800001 -1.7063707e+38
0.020863174 0.048600662 0.21900001 -1.7064749e+38
0.021217747 0.048600662 0.21900001 -1.7065786e+38
0.021670824 0.048822582 0.22000001 -1.7066307e+38
0.022027018 0.048822582 0.22000001 -1.7066301e+38
0.022586696 0.049266424 0.22200002 -1.706578e+38
0.023049489 0.049488347 0.223 -1.7063689e+38
0.023410538 0.049488347 0.223 -1.7062646e+38
0.023878187 0.04971027 0.22400001 -1.7061601e+38
0.024240857 0.04971027 0.22400001 -1.7059516e+38
0.024713363 0.049932186 0.22500001 -1.7191395e+38
0.025300566 0.050376028 0.22700001 -1.7191395e+38
0.026007317 0.051041789 0.23 -1.8652491e+38
0.026752086 0.051041789 0.23 -1.9450026e+38
0.027242402 0.051263712 0.23100001 -1.9316582e+38
0.027616404 0.051263712 0.23100001 -1.9847751e+38
0.028111577 0.051485635 0.23200001 -1.9847751e+38
0.028609989 0.051707555 0.23300001 -2.0114112e+38
0.030246668 0.053261001 0.24000001 -2.0247556e+38
0.030762888 0.05348292 0.24100001 -2.0247556e+38
0.031153081 0.05348292 0.24100001 -2.0247556e+38
0.031674162 0.053704847 0.24200001 -2.0247556e+38
0.032189541 0.053261001 0.24000001 -2.0646327e+38
0.032691967 0.052817158 0.23800001 -2.1045618e+38
0.033216283 0.053039078 0.23900001 -2.1310941e+38
0.03360324 0.053039078 0.23900001 -2.1577829e+38
0.034132414 0.053261001 0.24000001 -2.1844717e+38
0.034664825 0.05348292 0.24100001 -2.1978161e+38
0.0013367165 0.048061077 0.215 -1.7062129e+38
0.0016848146 0.048061077 0.215 -1.705848e+38
0.0020329126 0.048061077 0.215 -1.7050663e+38
0.0027164151 0.047837537 0.21400002 -1.7048057e+38
0.0030628941 0.047837537 0.21400002 -1.7048057e+38
0.0034412364 0.048284616 0.21600001 -1.7048578e+38
0.0037909537 0.048284616 0.21600001 -1.7049621e+38
0.0059755216 0.052084796 0.23300001 -1.7187235e+38
0.0063800281 0.052308336 0.23400001 -1.7187235e+38
0.0067588878 0.052308336 0.23400001 -1.7055876e+38
0.0071377479 0.052308336 0.23400001 -1.7055876e+38
0.0075487308 0.052531876 0.23500001 -1.7056397e+38
0.0083096894 0.052531876 0.23500001 -1.7056918e+38
0.0086901691 0.052531876 0.23500001 -1.7056918e+38
0.0090706479 0.052531876 0.23500001 -1.7057438e+38
0.0094511276 0.052531876 0.23500001 -1.7057438e+38
0.0098734424 0.052755415 0.23600002 -1.7057438e+38
0.010298997 0.052978955 0.23700002 -1.7057438e+38
0.010727789 0.053202495 0.23800001 -1.7057959e+38
0.011498462 0.053202495 0.23800001 -1.705848e+38
0.011933731 0.053426038 0.23900001 -1.705848e+38
0.012320686 0.053426038 0.23900001 -1.7058484e+38
0.012707642 0.053426038 0.23900001 -1.7059527e+38
0.013368736 0.052978955 0.23700002 -1.7060571e+38
0.01638077 0.048284616 0.21600001 -1.7061626e+38
0.016922055 0.047837537 0.21400002 -1.7062147e+38
0.017349228 0.048061077 0.215 -1.7061626e+38
0.017697325 0.048061077 0.215 -1.7061626e+38
0.018045424 0.048061077 0.215 -1.7062147e+38
0.018741619 0.048061077 0.215 -1.7063188e+38
0.019267296 0.048508156 0.21700001 -1.7062666e+38
0.019709041 0.0487317 0.21800001 -1.7062666e+38
0.020414952 0.0487317 0.21800001 -1.7064745e+38
0.020863174 0.048955236 0.21900001 -1.7198711e+38
0.021217747 0.048955236 0.21900001 -1.7066822e+38
0.021670824 0.049178775 0.22000001 -1.7066822e+38
0.022027018 0.049178775 0.22000001 -1.7066297e+38
0.023049489 0.049849398 0.223 -1.7063167e+38
0.023410538 0.049849398 0.223 -1.7062125e+38
0.023878187 0.050072938 0.22400001 -1.7060038e+38
0.024240857 0.050072938 0.22400001 -1.7059516e+38
0.024713363 0.050296474 0.22500001 -1.758964e+38
0.025300566 0.050743554 0.22700001 -1.758964e+38
0.026007317 0.051414173 0.23 -1.8918336e+38
0.026752086 0.051414173 0.23 -1.9715352e+38
0.027242402 0.051637717 0.23100001 -1.9715352e+38
0.027735956 0.051861256 0.23200001 -1.9848267e+38
0.028232748 0.052084796 0.23300001 -1.9848267e+38
0.032442372 0.053426038 0.23900001 -2.091217e+38
0.033077303 0.053202495 0.23800001 -2.1577829e+38
0.03360324 0.053426038 0.23900001 -2.1711273e+38
0.036976781 0.05812037 0.26000002 -2.1977121e+38
0.037397735 0.05812037 0.26000002 -2.2244009e+38
0.038239647 0.05812037 0.26000002 -2.2509854e+38
0.038660605 0.05812037 0.26000002 -2.3174983e+38
0.039081559 0.05812037 0.26000002 -2.3575316e+38
0.0013367165 0.048409175 0.215 -1.7063689e+38
0.0016848146 0.048409175 0.215 -1.7061604e+38
0.0020329126 0.048409175 0.215 -1.7052746e+38
0.0027037219 0.047958855 0.21300001 -1.7048057e+38
0.0033934414 0.047958855 0.21300001 -1.7048578e+38
0.0037558521 0.048184015 0.21400002 -1.7049621e+38
0.0041023311 0.048184015 0.21400002 -1.7050661e+38
0.0044695991 0.048409175 0.215 -1.7051182e+38
0.015956836 0.048409175 0.215 -1.7061626e+38
0.016229097 0.048184015 0.21400002 -1.7061626e+38
0.016922055 0.048184015 0.21400002 -1.7061626e+38
0.017268533 0.048184015 0.21400002 -1.7061626e+38
0.017697325 0.048409175 0.215 -1.7061626e+38
0.018045424 0.048409175 0.215 -1.7061626e+38
0.018741619 0.048409175 0.215 -1.7062666e+38
0.019267296 0.048859492 0.21700001 -1.7062666e+38
0.019709041 0.049084652 0.21800001 -1.7062666e+38
0.020154024 0.049309809 0.21900001 -1.7063188e+38
0.020863174 0.049309809 0.21900001 -1.7199226e+38
0.021217747 0.049309809 0.21900001 -1.7066301e+38
0.021670824 0.049534969 0.22000001 -1.7066301e+38
0.022027018 0.049534969 0.22000001 -1.7064214e+38
0.023049489 0.050210446 0.223 -1.7061086e+38
0.023515519 0.050435606 0.22400001 -1.7059523e+38
0.023878187 0.050435606 0.22400001 -1.7058995e+38
0.024240857 0.050435606 0.22400001 -1.7058474e+38
0.029469518 0.054038148 0.24000001 -2.0247556e+38
0.0299825 0.054263309 0.24100001 -2.0247556e+38
0.030498723 0.054488469 0.24200001 -2.0247556e+38
0.031282347 0.054488469 0.24200001 -2.0247556e+38
0.031674162 0.054488469 0.24200001 -2.0381e+38
0.032323662 0.054263309 0.24100001 -2.0779771e+38
0.034132414 0.054038148 0.24000001 -2.1977121e+38
0.037397735 0.058541328 0.26000002 -2.2244009e+38
0.038239647 0.058541328 0.26000002 -2.2509854e+38
0.038660605 0.058541328 0.26000002 -2.3041539e+38
0.039081559 0.058541328 0.26000002 -2.3575316e+38
0.0059755216 0.052839275 0.23300001 -1.7053269e+38
0.0063527627 0.052839275 0.23300001 -1.7053269e+38
0.0067588878 0.053066056 0.23400001 -1.705432e+38
0.0071377479 0.053066056 0.23400001 -1.7054841e+38
0.0078954687 0.053066056 0.23400001 -1.7055882e+38
0.0082743289 0.053066056 0.23400001 -1.7055882e+38
0.0086531891 0.053066056 0.23400001 -1.7055882e+38
0.0094109094 0.053066056 0.23400001 -1.7056397e+38
0.010212086 0.053292833 0.23500001 -1.7053265e+38
0.010592565 0.053292833 0.23500001 -1.7050659e+38
0.011019737 0.053519614 0.23600002 -1.7052223e+38
0.011401836 0.053519614 0.23600002 -1.7318592e+38
0.011833867 0.053746391 0.23700002 -1.7318592e+38
0.012601302 0.053746391 0.23700002 -1.7588082e+38
0.013039808 0.053973164 0.23800001 -1.7057429e+38
0.024713363 0.051025052 0.22500001 -1.8385611e+38
0.025300566 0.051478609 0.22700001 -1.8385611e+38
0.026007317 0.052158941 0.23 -1.9183663e+38
0.026752086 0.052158941 0.23 -1.9715352e+38
0.027242402 0.052385721 0.23100001 -1.9715352e+38
0.027735956 0.052612502 0.23200001 -2.0247041e+38
0.029469518 0.054426726 0.24000001 -2.0247041e+38
0.0299825 0.054653499 0.24100001 -2.0247041e+38
0.030498723 0.054880284 0.24200001 -2.0247041e+38
0.031018184 0.055107057 0.24300002 -2.0247041e+38
0.031674162 0.054880284 0.24200001 -2.0381e+38
0.032323662 0.054653499 0.24100001 -2.0913215e+38
0.032442372 0.054199949 0.23900001 -2.091217e+38
0.033216283 0.054199949 0.23900001 -2.1577829e+38
0.03360324 0.054199949 0.23900001 -2.1844717e+38
0.034132414 0.054426726 0.24000001 -2.1977121e+38
0.037673235 0.058735505 0.259 -2.2509854e+38
0.038239647 0.058962282 0.26000002 -2.2509854e+38
0.038660605 0.058962282 0.26000002 -2.3174468e+38
0.039081559 0.058962282 0.26000002 -2.3708244e+38
0.0013367165 0.049105372 0.215 -1.7066808e+38
0.0016769782 0.048876975 0.21400002 -1.7064202e+38
0.0023699361 0.048876975 0.21400002 -1.7054823e+38
0.0027037219 0.048648577 0.21300001 -1.7049101e+38
0.0033934414 0.048648577 0.21300001 -1.7048578e+38
0.0037558521 0.048876975 0.21400002 -1.7049621e+38
0.0044695991 0.049105372 0.215 -1.7050142e+38
0.0047952891 0.048876975 0.21400002 -1.7052223e+38
0.0063254978 0.052988123 0.23200001 -1.7053269e+38
0.0070767421 0.052988123 0.23200001 -1.7054841e+38
0.0074844863 0.053216521 0.23300001 -1.7055361e+38
0.0078954687 0.053444915 0.23400001 -1.7055361e+38
0.0082743289 0.053444915 0.23400001 -1.7055882e+38
0.0086531891 0.053444915 0.23400001 -1.7055882e+38
0.0094109094 0.053444915 0.23400001 -1.7055876e+38
0.0097897695 0.053444915 0.23400001 -1.7051704e+38
0.01016863 0.053444915 0.23400001 -1.7042842e+38
0.010592565 0.053673312 0.23500001 -1.7040238e+38
0.010973045 0.053673312 0.23500001 -1.7040238e+38
0.011734003 0.053673312 0.23500001 -1.7040761e+38
0.012114482 0.053673312 0.23500001 -1.7043359e+38
0.012494962 0.053673312 0.23500001 -1.7177325e+38
0.015608737 0.049105372 0.215 -1.7061101e+38
0.015882617 0.048876975 0.21400002 -1.7061105e+38
0.016229097 0.048876975 0.21400002 -1.7061105e+38
0.016922055 0.048876975 0.21400002 -1.7061626e+38
0.017268533 0.048876975 0.21400002 -1.7061626e+38
0.017615013 0.048876975 0.21400002 -1.7061626e+38
0.018045424 0.049105372 0.215 -1.7061626e+38
0.018741619 0.049105372 0.215 -1.7062666e+38
0.019267296 0.049562164 0.21700001 -1.7063188e+38
0.019709041 0.049790565 0.21800001 -1.7065267e+38
0.020154024 0.050018959 0.21900001 -1.7065267e+38
0.020863174 0.050018959 0.21900001 -1.7065778e+38
0.021217747 0.050018959 0.21900001 -1.7064214e+38
0.021670824 0.050247356 0.22000001 -1.7063171e+38
0.02212714 0.050475754 0.22100002 -1.706108e+38
0.023049489 0.050932549 0.223 -1.7058476e+38
0.023515519 0.051160946 0.22400001 -1.7057955e+38
0.023878187 0.051160946 0.22400001 -1.7987366e+38
0.024240857 0.051160946 0.22400001 -1.7987366e+38
0.024713363 0.05138934 0.22500001 -1.8385607e+38
0.025300566 0.051846135 0.22700001 -1.8385607e+38
0.025781168 0.052074533 0.22800002 -1.9183663e+38
0.026265008 0.052302931 0.22900002 -1.9317107e+38
0.026752086 0.052531328 0.23 -1.9715352e+38
0.027242402 0.052759726 0.23100001 -1.9715352e+38
0.027735956 0.052988123 0.23200001 -2.0247041e+38
0.029080942 0.0548153 0.24000001 -2.0247041e+38
0.029592307 0.055043694 0.24100001 -2.0380485e+38
0.0299825 0.055043694 0.24100001 -2.0380485e+38
0.030498723 0.055272095 0.24200001 -2.0645812e+38
0.031282347 0.055272095 0.24200001 -2.0645812e+38
0.031674162 0.055272095 0.24200001 -2.0645812e+38
0.032323662 0.055043694 0.24100001 -2.0779771e+38
0.032442372 0.054586902 0.23900001 -2.0912174e+38
0.033216283 0.054586902 0.23900001 -2.1577833e+38
0.03346264 0.054358501 0.23800001 -2.1711277e+38
0.037673235 0.059154842 0.259 -2.2643294e+38
0.038092572 0.059154842 0.259 -2.2643294e+38
0.03851191 0.059154842 0.259 -2.3439795e+38
0.038931247 0.059154842 0.259 -2.4107015e+38
0.0013367165 0.049453471 0.215 -1.7067327e+38
0.0016769782 0.049223453 0.21400002 -1.7065763e+38
0.0023588617 0.048993435 0.21300001 -1.7059516e+38
0.0027037219 0.048993435 0.21300001 -1.7050663e+38
0.0033934414 0.048993435 0.21300001 -1.7048578e+38
0.0037383013 0.048993435 0.21300001 -1.7048578e+38
0.0041023311 0.049223453 0.21400002 -1.7048578e+38
0.0044488101 0.049223453 0.21400002 -1.7050142e+38
0.0047952891 0.049223453 0.21400002 -1.7051182e+38
0.0070767421 0.05336374 0.23200001 -1.705432e+38
0.0074523641 0.05336374 0.23200001 -1.7054841e+38
0.007827986 0.05336374 0.23200001 -1.7054841e+38
0.0082389684 0.053593762 0.23300001 -1.7055882e+38
0.0089934506 0.053593762 0.23300001 -1.7055876e+38
0.0094109094 0.053823777 0.23400001 -1.7055355e+38
0.0097897695 0.053823777 0.23400001 -1.7048574e+38
0.01016863 0.053823777 0.23400001 -1.703867e+38
0.01054749 0.053823777 0.23400001 -1.7033981e+38
0.010973045 0.054053791 0.23500001 -1.7035023e+38
0.011734003 0.054053791 0.23500001 -1.7034504e+38
0.012062931 0.053823777 0.23400001 -1.7034504e+38
0.01518966 0.049223453 0.21400002 -1.7061101e+38
0.01546354 0.048993435 0.21300001 -1.7061101e+38
0.016153259 0.048993435 0.21300001 -1.7061105e+38
0.016922055 0.049223453 0.21400002 -1.7061626e+38
0.017268533 0.049223453 0.21400002 -1.7061626e+38
0.017615013 0.049223453 0.21400002 -1.7061626e+38
0.018045424 0.049453471 0.215 -1.7061626e+38
0.018741619 0.049453471 0.215 -1.7063184e+38
0.019267296 0.049913503 0.21700001 -1.719767e+38
0.019709041 0.050143518 0.21800001 -1.7065782e+38
0.020154024 0.050373532 0.21900001 -1.7065782e+38
0.020863174 0.050373532 0.21900001 -1.7064214e+38
0.021670824 0.05060355 0.22000001 -1.7061606e+38
0.02212714 0.050833568 0.22100002 -1.7060038e+38
0.023049489 0.0512936 0.223 -1.7589644e+38
0.023515519 0.051523615 0.22400001 -1.74562e+38
0.023878187 0.051523615 0.22400001 -1.8385611e+38
0.024349075 0.051753629 0.22500001 -1.8252167e+38
0.0248232 0.051983647 0.22600001 -1.8916779e+38
0.025300566 0.052213661 0.22700001 -1.8916779e+38
0.026265008 0.052673697 0.22900002 -1.944951e+38
0.026752086 0.052903712 0.23 -1.9847756e+38
0.027242402 0.053133726 0.23100001 -1.9847756e+38
0.029080942 0.055203874 0.24000001 -2.0247041e+38
0.029592307 0.055433888 0.24100001 -2.0646327e+38
0.0299825 0.055433888 0.24100001 -2.0646327e+38
0.030498723 0.05566391 0.24200001 -2.0646327e+38
0.031282347 0.05566391 0.24200001 -2.0646327e+38
0.031674162 0.05566391 0.24200001 -2.0779771e+38
0.032189541 0.055203874 0.24000001 -2.0779771e+38
0.032691967 0.054743838 0.23800001 -2.1180103e+38
0.033077303 0.054743838 0.23800001 -2.1312507e+38
0.03360324 0.054973859 0.23900001 -2.1445951e+38
0.0013367165 0.049801569 0.215 -1.7067848e+38
0.0016769782 0.049569931 0.21400002 -1.7066806e+38
0.0023477874 0.049106661 0.21200001 -1.706264e+38
0.003034269 0.049106661 0.21200001 -1.7050134e+38
0.0033775102 0.049106661 0.21200001 -1.7048057e+38
0.0037383013 0.049338296 0.21300001 -1.7048578e+38
0.0040831612 0.049338296 0.21300001 -1.7048578e+38
0.0044280211 0.049338296 0.21300001 -1.7050142e+38
0.0051177409 0.049338296 0.21300001 -1.7051704e+38
0.0070767421 0.053739365 0.23200001 -1.705432e+38
0.0074523641 0.053739365 0.23200001 -1.7054841e+38
0.0080975266 0.053044461 0.22900002 -1.7055361e+38
0.0084682917 0.053044461 0.22900002 -1.7055882e+38
0.0092098219 0.053044461 0.22900002 -1.7055355e+38
0.0095805861 0.053044461 0.22900002 -1.704753e+38
0.0099948077 0.053276096 0.23 -1.7037104e+38
0.014150223 0.049569931 0.21400002 -1.7192975e+38
0.014773821 0.049338296 0.21300001 -1.7061096e+38
0.01511868 0.049338296 0.21300001 -1.7061101e+38
0.01546354 0.049338296 0.21300001 -1.7061101e+38
0.016153259 0.049338296 0.21300001 -1.7061105e+38
0.016498121 0.049338296 0.21300001 -1.7061105e+38
0.016922055 0.049569931 0.21400002 -1.7061626e+38
0.017268533 0.049569931 0.21400002 -1.7061626e+38
0.017615013 0.049569931 0.21400002 -1.7061626e+38
0.018045424 0.049801569 0.215 -1.7062662e+38
0.018741619 0.049801569 0.215 -1.7063703e+38
0.019267296 0.050264839 0.21700001 -1.7065267e+38
0.019709041 0.050496474 0.21800001 -1.7065782e+38
0.020154024 0.050728109 0.21900001 -1.706526e+38
0.020863174 0.050728109 0.21900001 -1.7062646e+38
0.021670824 0.050959744 0.22000001 -1.7060038e+38
0.02212714 0.051191378 0.22100002 -1.7057955e+38
0.023049489 0.051654648 0.223 -1.7853922e+38
0.023515519 0.051886287 0.22400001 -1.7853922e+38
0.023878187 0.051886287 0.22400001 -1.8518008e+38
0.024349075 0.052117918 0.22500001 -1.8518008e+38
0.025042877 0.052812826 0.22800002 -1.8916775e+38
0.025523478 0.053044461 0.22900002 -1.8916775e+38
0.026007317 0.053276096 0.23 -1.9581908e+38
0.026494397 0.05350773 0.23100001 -1.9715352e+38
0.026984712 0.053739365 0.23200001 -1.9847751e+38
0.036966223 0.059530243 0.257 -2.1978161e+38
0.037527781 0.059761882 0.25800002 -2.2775181e+38
0.038092572 0.059993517 0.259 -2.2908625e+38
0.0020140018 0.049683154 0.21300001 -1.7066287e+38
0.0023477874 0.049449902 0.21200001 -1.7064202e+38
0.003034269 0.049449902 0.21200001 -1.7052221e+38
0.0033775102 0.049449902 0.21200001 -1.7048576e+38
0.003720751 0.049449902 0.21200001 -1.7049097e+38
0.0040639918 0.049449902 0.21200001 -1.7048578e+38
0.0044280211 0.049683154 0.21300001 -1.7049621e+38
0.0051177409 0.049683154 0.21300001 -1.7051704e+38
0.0054626013 0.049683154 0.21300001 -1.7051708e+38
0.013803744 0.049916409 0.21400002 -1.719193e+38
0.014361218 0.049449902 0.21200001 -1.7060575e+38
0.014704458 0.049449902 0.21200001 -1.7060575e+38
0.01511868 0.049683154 0.21300001 -1.7060579e+38
0.01546354 0.049683154 0.21300001 -1.7061101e+38
0.016153259 0.049683154 0.21300001 -1.7061101e+38
0.016498121 0.049683154 0.21300001 -1.7061626e+38
0.016922055 0.049916409 0.21400002 -1.7061626e+38
0.017268533 0.049916409 0.21400002 -1.7061622e+38
0.017615013 0.049916409 0.21400002 -1.7061622e+38
0.018045424 0.050149668 0.215 -1.7063184e+38
0.018741619 0.050149668 0.215 -1.7064745e+38
0.019267296 0.050616175 0.21700001 -1.7065267e+38
0.019709041 0.05084943 0.21800001 -1.7065778e+38
0.020154024 0.051082682 0.21900001 -1.7064214e+38
0.028692368 0.055981021 0.24000001 -2.0247041e+38
0.029202113 0.056214273 0.24100001 -2.0247041e+38
0.029592307 0.056214273 0.24100001 -2.0646327e+38
0.0299825 0.056214273 0.24100001 -2.0646327e+38
0.030498723 0.056447532 0.24200001 -2.0646323e+38
0.031282347 0.056447532 0.24200001 -2.0646323e+38
0.031543273 0.056214273 0.24100001 -2.0646323e+38
0.032055415 0.05574777 0.23900001 -2.0779767e+38
0.032554608 0.055281259 0.23700002 -2.1313543e+38
0.033077303 0.055514511 0.23800001 -2.1445947e+38
0.03346264 0.055514511 0.23800001 -2.1579391e+38
0.034132414 0.055981021 0.24000001 -2.1978161e+38
0.036822386 0.059713092 0.25600001 -2.2111605e+38
0.037382323 0.059946343 0.257 -2.2775177e+38
0.037945498 0.060179602 0.25800002 -2.2908621e+38
0.0066144671 0.053785987 0.22900002 -1.7052758e+38
0.0070157358 0.054020867 0.23 -1.7186724e+38
0.0077605038 0.054020867 0.23 -1.705432e+38
0.0080975266 0.053785987 0.22900002 -1.7055361e+38
0.0084682917 0.053785987 0.22900002 -1.7055361e+38
0.0092098219 0.053785987 0.22900002 -1.7055355e+38
0.0095805861 0.053785987 0.22900002 -1.7317543e+38
0.0099948077 0.054020867 0.23 -1.7039709e+38
0.020602245 0.051672131 0.22000001 -1.7061601e+38
0.020958439 0.051672131 0.22000001 -1.7060038e+38
0.021670824 0.051672131 0.22000001 -1.7058989e+38
0.02212714 0.051907003 0.22100002 -1.8251652e+38
0.023049489 0.052376751 0.223 -1.8783335e+38
0.023515519 0.052611623 0.22400001 -1.8783335e+38
0.023878187 0.052611623 0.22400001 -1.8916249e+38
0.02467373 0.053551115 0.22800002 -1.8916249e+38
0.025152713 0.053785987 0.22900002 -1.9049693e+38
0.025634933 0.054020867 0.23 -1.9316582e+38
0.026007317 0.054020867 0.23 -1.9847751e+38
0.026609089 0.054490607 0.23200001 -1.9847751e+38
0.028303795 0.056369595 0.24000001 -2.0113597e+38
0.02881192 0.056604467 0.24100001 -2.0247041e+38
0.029202113 0.056604467 0.24100001 -2.0247041e+38
0.029592307 0.056604467 0.24100001 -2.0646327e+38
0.0299825 0.056604467 0.24100001 -2.0646327e+38
0.030498723 0.056839347 0.24200001 -2.0646323e+38
0.031153081 0.056604467 0.24100001 -2.0646323e+38
0.031543273 0.056604467 0.24100001 -2.0646323e+38
0.032170888 0.055664975 0.23700002 -2.1180099e+38
0.032554608 0.055664975 0.23700002 -2.1313543e+38
0.032938324 0.055664975 0.23700002 -2.1445947e+38
0.03346264 0.055899847 0.23800001 -2.1579391e+38
0.034132414 0.056369595 0.24000001 -2.1978161e+38
0.036822386 0.060127571 0.25600001 -2.1978161e+38
0.037382323 0.06036244 0.257 -2.2775177e+38
0.037945498 0.060597319 0.25800002 -2.2908621e+38
0.0026783347 0.049899891 0.21100001 -1.7064206e+38
0.0030199564 0.049899891 0.21100001 -1.7060557e+38
0.0033615783 0.049899891 0.21100001 -1.705274e+38
0.003720751 0.050136384 0.21200001 -1.7050655e+38
0.0040639918 0.050136384 0.21200001 -1.7049097e+38
0.0047504739 0.050136384 0.21200001 -1.7050661e+38
0.0051177409 0.050372876 0.21300001 -1.7051704e+38
0.0054626013 0.050372876 0.21300001 -1.7051708e+38
0.0058074612 0.050372876 0.21300001 -1.7051708e+38
0.0066144671 0.054156754 0.22900002 -1.7052752e+38
0.0073238751 0.053920262 0.22800002 -1.705432e+38
0.0076930211 0.053920262 0.22800002 -1.7054841e+38
0.013803744 0.050609369 0.21400002 -1.719193e+38
0.014361218 0.050136384 0.21200001 -1.7060054e+38
0.014704458 0.050136384 0.21200001 -1.7060575e+38
0.01511868 0.050372876 0.21300001 -1.7060575e+38
0.01546354 0.050372876 0.21300001 -1.7061096e+38
0.016153259 0.050372876 0.21300001 -1.7061101e+38
0.016498121 0.050372876 0.21300001 -1.7061101e+38
0.016922055 0.050609369 0.21400002 -1.7062664e+38
0.017268533 0.050609369 0.21400002 -1.7063184e+38
0.017615013 0.050609369 0.21400002 -1.7064226e+38
0.018045424 0.050845861 0.215 -1.7065782e+38
0.018741619 0.050845861 0.215 -1.7064214e+38
0.019267296 0.051318847 0.21700001 -1.7064214e+38
0.019709041 0.051555339 0.21800001 -1.7062646e+38
0.020154024 0.051791828 0.21900001 -1.7062125e+38
0.020602245 0.052028324 0.22000001 -1.7060034e+38
0.020958439 0.052028324 0.22000001 -1.7059512e+38
0.021411516 0.052264817 0.22100002 -1.7190869e+38
0.021867832 0.052501306 0.22200002 -1.7190869e+38
0.022327388 0.052737802 0.223 -1.8518012e+38
0.022790179 0.052974295 0.22400001 -1.8518012e+38
0.023515519 0.052974295 0.22400001 -1.8783331e+38
0.023984786 0.053210784 0.22500001 -1.8916249e+38
0.024781948 0.054156754 0.22900002 -1.8916249e+38
0.025152713 0.054156754 0.22900002 -1.931502e+38
0.025634933 0.05439325 0.23 -1.9581908e+38
0.026120394 0.054629739 0.23100001 -2.0247041e+38
0.028303795 0.056758173 0.24000001 -2.0113597e+38
0.02881192 0.056994662 0.24100001 -2.0113597e+38
0.029202113 0.056994662 0.24100001 -2.0247041e+38
0.029592307 0.056994662 0.24100001 -2.0646327e+38
0.0299825 0.056994662 0.24100001 -2.0646327e+38
0.030498723 0.057231158 0.24200001 -2.0646323e+38
0.031153081 0.056994662 0.24100001 -2.0646323e+38
0.031543273 0.056994662 0.24100001 -2.0779767e+38
0.032170888 0.056048695 0.23700002 -2.1312502e+38
0.032554608 0.056048695 0.23700002 -2.1579391e+38
0.032938324 0.056048695 0.23700002 -2.1844717e+38
0.03346264 0.056285184 0.23800001 -2.1711273e+38
0.036678549 0.060305558 0.25500003 -2.2110565e+38
0.037382323 0.06077854 0.257 -2.2775177e+38
0.037798423 0.06077854 0.257 -2.2908621e+38
0.0026783347 0.050241511 0.21100001 -1.7065772e+38
0.0030199564 0.050241511 0.21100001 -1.7063165e+38
0.0033615783 0.050241511 0.21100001 -1.7055872e+38
0.004044822 0.050241511 0.21100001 -1.7049617e+38
0.0047504739 0.050479624 0.21200001 -1.705014e+38
0.0050937147 0.050479624 0.21200001 -1.7051182e+38
0.0054369555 0.050479624 0.21200001 -1.7051704e+38
0.0061234371 0.050479624 0.21200001 -1.7053272e+38
0.0069547291 0.054289408 0.22800002 -1.7054835e+38
0.0073238751 0.054289408 0.22800002 -1.7054835e+38
0.013394381 0.050717734 0.21300001 -1.7321194e+38
0.014017977 0.050479624 0.21200001 -1.719193e+38
0.014361218 0.050479624 0.21200001 -1.7060054e+38
0.014704458 0.050479624 0.21200001 -1.7060575e+38
0.01511868 0.050717734 0.21300001 -1.7060575e+38
0.01546354 0.050717734 0.21300001 -1.7061096e+38
0.016153259 0.050717734 0.21300001 -1.7061101e+38
0.016498121 0.050717734 0.21300001 -1.7062137e+38
0.016922055 0.050955847 0.21400002 -1.7330068e+38
0.017268533 0.050955847 0.21400002 -1.7065778e+38
0.017615013 0.050955847 0.21400002 -1.7065778e+38
0.018045424 0.05119396 0.215 -1.7065256e+38
0.018741619 0.05119396 0.215 -1.7063693e+38
0.019267296 0.051670182 0.21700001 -1.7063171e+38
0.019709041 0.051908296 0.21800001 -1.7061601e+38
0.020154024 0.052146405 0.21900001 -1.7060038e+38
0.020602245 0.052384518 0.22000001 -1.7058989e+38
0.020958439 0.052384518 0.22000001 -1.7058989e+38
0.021411516 0.052622631 0.22100002 -1.7722033e+38
0.021867832 0.052860741 0.22200002 -1.7722033e+38
0.022327388 0.05309885 0.223 -1.8518008e+38
0.022790179 0.053336963 0.22400001 -1.8651452e+38
0.023515519 0.053336963 0.22400001 -1.8916249e+38
0.023984786 0.053575072 0.22500001 -1.9049693e+38
0.024781948 0.054527517 0.22900002 -1.8916249e+38
0.025152713 0.054527517 0.22900002 -1.9581908e+38
0.025634933 0.054765634 0.23 -1.9715352e+38
0.026120394 0.055003744 0.23100001 -2.0113597e+38
0.028303795 0.057146747 0.24000001 -2.0113597e+38
0.02881192 0.057384856 0.24100001 -2.0378923e+38
0.029202113 0.057384856 0.24100001 -2.0378923e+38
0.029592307 0.057384856 0.24100001 -2.0646327e+38
0.0299825 0.057384856 0.24100001 -2.0646327e+38
0.030498723 0.057622973 0.24200001 -2.0646323e+38
0.031282347 0.057622973 0.24200001 -2.0646323e+38
0.031543273 0.057384856 0.24100001 -2.0779767e+38
0.032170888 0.056432411 0.23700002 -2.1711273e+38
0.032417245 0.056194302 0.23600002 -2.1711273e+38
0.032938324 0.056432411 0.23700002 -2.1844717e+38
0.03360324 0.056908637 0.23900001 -2.1711273e+38
0.0026783347 0.050583135 0.21100001 -1.7066812e+38
0.0030199564 0.050583135 0.21100001 -1.7065248e+38
0.0033615783 0.050583135 0.21100001 -1.7060042e+38
0.004044822 0.050583135 0.21100001 -1.7049617e+38
0.0043864441 0.050583135 0.21100001 -1.7049617e+38
0.0047280658 0.050583135 0.21100001 -1.705014e+38
0.0050937147 0.050822865 0.21200001 -1.7051182e+38
0.0054369555 0.050822865 0.21200001 -1.7051704e+38
0.0061234371 0.050822865 0.21200001 -1.7053789e+38
0.0064666779 0.050822865 0.21200001 -1.7054831e+38
0.01201494 0.051062595 0.21300001 -1.7300861e+38
0.012645014 0.050822865 0.21200001 -1.7982163e+38
0.012988254 0.050822865 0.21200001 -1.7055872e+38
0.013331495 0.050822865 0.21200001 -1.7056914e+38
0.014017977 0.050822865 0.21200001 -1.7191934e+38
0.014361218 0.050822865 0.21200001 -1.7060054e+38
0.014704458 0.050822865 0.21200001 -1.7060575e+38
0.01511868 0.051062595 0.21300001 -1.7061096e+38
0.01546354 0.051062595 0.21300001 -1.7061096e+38
0.016153259 0.051062595 0.21300001 -1.7062658e+38
0.016498121 0.051062595 0.21300001 -1.7064741e+38
0.016922055 0.051302325 0.21400002 -1.7198185e+38
0.017268533 0.051302325 0.21400002 -1.7199222e+38
0.017615013 0.051302325 0.21400002 -1.7065256e+38
0.018045424 0.051542059 0.215 -1.7064214e+38
0.018741619 0.051542059 0.215 -1.7062127e+38
0.019356087 0.052261248 0.21800001 -1.7061606e+38
0.01979945 0.052500978 0.21900001 -1.7060038e+38
0.020246051 0.052740712 0.22000001 -1.7059516e+38
0.020602245 0.052740712 0.22000001 -1.7057947e+38
0.021053704 0.052980442 0.22100002 -1.7057947e+38
0.021411516 0.052980442 0.22100002 -1.7720989e+38
0.021867832 0.053220171 0.22200002 -1.7854433e+38
0.022327388 0.053459898 0.223 -1.8518004e+38
0.022790179 0.053699635 0.22400001 -1.8518004e+38
0.023256209 0.053939361 0.22500001 -1.8916249e+38
0.036678549 0.06113128 0.25500003 -2.2242966e+38
0.037236866 0.061371006 0.25600001 -2.290758e+38
0.037798423 0.061610736 0.257 -2.3174468e+38
0.0030199564 0.050924756 0.21100001 -1.7066291e+38
0.0033615783 0.050924756 0.21100001 -1.7061608e+38
0.004044822 0.050924756 0.21100001 -1.7051698e+38
0.0043864441 0.050924756 0.21100001 -1.7050655e+38
0.0047280658 0.050924756 0.21100001 -1.7050136e+38
0.0050696875 0.050924756 0.21100001 -1.7050657e+38
0.0057529313 0.050924756 0.21100001 -1.7051704e+38
0.006094553 0.050924756 0.21100001 -1.7053269e+38
0.0064361747 0.050924756 0.21100001 -1.7053269e+38
0.0098523926 0.050924756 0.21100001 -1.7047534e+38
0.010535636 0.050924756 0.21100001 -1.7031896e+38
0.010877258 0.050924756 0.21100001 -1.7030849e+38
0.01121888 0.050924756 0.21100001 -1.7030328e+38
0.011615291 0.051166106 0.21200001 -1.70345e+38
0.011958532 0.051166106 0.21200001 -1.9041374e+38
0.012645014 0.051166106 0.21200001 -1.7453082e+38
0.012988254 0.051166106 0.21200001 -1.7056918e+38
0.013331495 0.051166106 0.21200001 -1.705744e+38
0.014017977 0.051166106 0.21200001 -1.7059535e+38
0.014361218 0.051166106 0.21200001 -1.7060575e+38
0.014704458 0.051166106 0.21200001 -1.7060575e+38
0.015047699 0.051166106 0.21200001 -1.7061616e+38
0.01546354 0.051407456 0.21300001 -1.7061616e+38
0.016153259 0.051407456 0.21300001 -1.7330068e+38
0.016498121 0.051407456 0.21300001 -1.7065778e+38
0.016922055 0.051648807 0.21400002 -1.7065778e+38
0.017268533 0.051648807 0.21400002 -1.7199222e+38
0.017615013 0.051648807 0.21400002 -1.7065256e+38
0.018045424 0.051890157 0.215 -1.7063689e+38
0.024304584 0.055027701 0.22800002 -1.9049693e+38
0.024781948 0.055269048 0.22900002 -1.9049693e+38
0.02526255 0.055510402 0.23 -1.9581908e+38
0.025634933 0.055510402 0.23 -1.9715352e+38
0.026120394 0.055751748 0.23100001 -2.0113597e+38
0.028031532 0.058165241 0.24100001 -1.9980153e+38
0.02881192 0.058165241 0.24100001 -2.0378923e+38
0.029202113 0.058165241 0.24100001 -2.0512368e+38
0.029592307 0.058165241 0.24100001 -2.0646327e+38
0.0299825 0.058165241 0.24100001 -2.0646327e+38
0.030762888 0.058165241 0.24100001 -2.0913215e+38
0.031153081 0.058165241 0.24100001 -2.1045614e+38
0.031800967 0.057923894 0.24000001 -2.1577829e+38
0.032170888 0.057199847 0.23700002 -2.1843676e+38
0.036678549 0.061544139 0.25500003 -2.1977121e+38
0.037236866 0.061785486 0.25600001 -2.2775177e+38
0.018479072 0.052481219 0.21600001 -1.7061599e+38
0.018915959 0.05272419 0.21700001 -1.7060028e+38
0.019356087 0.052967161 0.21800001 -1.7059506e+38
0.01979945 0.053210128 0.21900001 -1.7057421e+38
0.020246051 0.053453095 0.22000001 -1.7057943e+38
0.020695891 0.053696066 0.22100002 -1.7854437e+38
0.021053704 0.053696066 0.22100002 -1.7854437e+38
0.021508401 0.053939033 0.22200002 -1.838456e+38
0.021867832 0.053939033 0.22200002 -1.838456e+38
0.022427509 0.054424971 0.22400001 -1.8650402e+38
0.02289192 0.054667939 0.22500001 -1.8783846e+38
0.023935439 0.055396844 0.22800002 -1.9049693e+38
0.024411183 0.055639811 0.22900002 -1.9049693e+38
0.024890166 0.055882785 0.23 -1.9049693e+38
0.02526255 0.055882785 0.23 -1.9581908e+38
0.02574639 0.056125753 0.23100001 -1.9715352e+38
0.026120394 0.056125753 0.23100001 -1.9847751e+38
0.028031532 0.058555435 0.24100001 -1.9980153e+38
0.02881192 0.058555435 0.24100001 -2.0378923e+38
0.029202113 0.058555435 0.24100001 -2.0512368e+38
0.029592307 0.058555435 0.24100001 -2.0645812e+38
0.0299825 0.058555435 0.24100001 -2.0645812e+38
0.030762888 0.058555435 0.24100001 -2.1045618e+38
0.031153081 0.058555435 0.24100001 -2.1577833e+38
0.031800967 0.058312468 0.24000001 -2.1843676e+38
0.032189541 0.058312468 0.24000001 -2.1843676e+38
0.032554608 0.057583563 0.23700002 -2.1843676e+38
0.036123473 0.061714027 0.25400001 -2.1977121e+38
0.036678549 0.061957002 0.25500003 -2.2110565e+38
0.037091412 0.061957002 0.25500003 -2.2775177e+38
0.0030199564 0.051608 0.21100001 -1.7067855e+38
0.0033615783 0.051608 0.21100001 -1.7065776e+38
0.004044822 0.051608 0.21100001 -1.7056393e+38
0.0043656551 0.051363416 0.21000001 -1.7052223e+38
0.0047056577 0.051363416 0.21000001 -1.7048572e+38
0.0053856634 0.051363416 0.21000001 -1.7051178e+38
0.0057256659 0.051363416 0.21000001 -1.70517e+38
0.006065669 0.051363416 0.21000001 -1.7053263e+38
0.0067456742 0.051363416 0.21000001 -1.7054835e+38
0.0070856772 0.051363416 0.21000001 -1.7054835e+38
0.0098056989 0.051363416 0.21000001 -1.7054312e+38
0.010145701 0.051363416 0.21000001 -1.7052742e+38
0.010435772 0.051118825 0.20900001 -1.7052221e+38
0.01111254 0.051118825 0.20900001 -1.7185148e+38
0.011505713 0.051363416 0.21000001 -1.7053789e+38
0.011845715 0.051363416 0.21000001 -1.7054831e+38
0.012243745 0.051608 0.21100001 -1.7055361e+38
0.012585367 0.051608 0.21100001 -1.7056403e+38
0.012988254 0.051852588 0.21200001 -1.7057448e+38
0.013331495 0.051852588 0.21200001 -1.7057969e+38
0.014017977 0.051852588 0.21200001 -1.7059535e+38
0.014361218 0.051852588 0.21200001 -1.7060054e+38
0.014704458 0.051852588 0.21200001 -1.7060575e+38
0.01511868 0.052097175 0.21300001 -1.7062137e+38
0.01546354 0.052097175 0.21300001 -1.7196102e+38
0.016153259 0.052097175 0.21300001 -1.7065782e+38
0.016498121 0.052097175 0.21300001 -1.7065778e+38
0.016922055 0.052341763 0.21400002 -1.7064214e+38
0.017268533 0.052341763 0.21400002 -1.706421e+38
0.017697325 0.052586351 0.215 -1.7062646e+38
0.018129356 0.052830938 0.21600001 -1.7061076e+38
0.018479072 0.052830938 0.21600001 -1.7059512e+38
0.018915959 0.05307553 0.21700001 -1.7058464e+38
0.019356087 0.053320117 0.21800001 -1.7058464e+38
0.01979945 0.053564701 0.21900001 -1.7588589e+38
0.020246051 0.053809285 0.22000001 -1.7722033e+38
0.020695891 0.05405388 0.22100002 -1.8119759e+38
0.02114897 0.054298464 0.22200002 -1.8119759e+38
0.021508401 0.054298464 0.22200002 -1.838456e+38
0.021966336 0.054543052 0.223 -1.838456e+38
0.022427509 0.054787643 0.22400001 -1.8650402e+38
0.023669653 0.056010578 0.22900002 -1.9181576e+38
0.024145398 0.056255169 0.23 -1.931502e+38
0.024890166 0.056255169 0.23 -1.931502e+38
0.02526255 0.056255169 0.23 -1.9581904e+38
0.02574639 0.056499753 0.23100001 -1.9715348e+38
0.026120394 0.056499753 0.23100001 -1.9847751e+38
0.028031532 0.05894563 0.24100001 -1.9980153e+38
0.02881192 0.05894563 0.24100001 -2.0378923e+38
0.029202113 0.05894563 0.24100001 -2.0512368e+38
0.029592307 0.05894563 0.24100001 -2.0778215e+38
0.0299825 0.05894563 0.24100001 -2.0778215e+38
0.030762888 0.05894563 0.24100001 -2.1312507e+38
0.031153081 0.05894563 0.24100001 -2.1577833e+38
0.031543273 0.05894563 0.24100001 -2.1711277e+38
0.032189541 0.058701046 0.24000001 -2.1843676e+38
0.032578114 0.058701046 0.24000001 -2.1843676e+38
0.0030199564 0.05194962 0.21100001 -1.706837e+38
0.0033615783 0.05194962 0.21100001 -1.7066816e+38
0.0040256521 0.051703416 0.21000001 -1.7060038e+38
0.0043656551 0.051703416 0.21000001 -1.7054304e+38
0.0047056577 0.051703416 0.21000001 -1.7049617e+38
0.0053856634 0.051703416 0.21000001 -1.705118e+38
0.0057256659 0.051703416 0.21000001 -1.7051702e+38
0.006065669 0.051703416 0.21000001 -1.7053263e+38
0.0067456742 0.051703416 0.21000001 -1.7054835e+38
0.0070856772 0.051703416 0.21000001 -1.7054835e+38
0.0074256798 0.051703416 0.21000001 -1.705432e+38
0.0081442837 0.05194962 0.21100001 -1.7055882e+38
0.0087856911 0.051703416 0.21000001 -1.7056403e+38
0.0091256937 0.051703416 0.21000001 -1.7055882e+38
0.0098056989 0.051703416 0.21000001 -1.7055361e+38
0.010097388 0.051457208 0.20900001 -1.7055876e+38
0.010435772 0.051457208 0.20900001 -1.7055355e+38
0.01111254 0.051457208 0.20900001 -1.7055876e+38
0.011505713 0.051703416 0.21000001 -1.7055882e+38
0.011845715 0.051703416 0.21000001 -1.7055882e+38
0.012185719 0.051703416 0.21000001 -1.7055886e+38
0.012585367 0.05194962 0.21100001 -1.7056928e+38
0.012926989 0.05194962 0.21100001 -1.7057969e+38
0.013331495 0.052195828 0.21200001 -1.7191934e+38
0.014017977 0.052195828 0.21200001 -1.7059535e+38
0.014361218 0.052195828 0.21200001 -1.7061094e+38
0.014704458 0.052195828 0.21200001 -1.7062658e+38
0.01511868 0.052442033 0.21300001 -1.7330068e+38
0.01546354 0.052442033 0.21300001 -1.7330068e+38
0.016153259 0.052442033 0.21300001 -1.7065782e+38
0.016922055 0.052688241 0.21400002 -1.7063171e+38
0.017349228 0.052934449 0.215 -1.7062642e+38
0.017697325 0.052934449 0.215 -1.7062121e+38
0.018129356 0.053180654 0.21600001 -1.7060549e+38
0.018564623 0.053426865 0.21700001 -1.7060028e+38
0.01900313 0.05367307 0.21800001 -1.7057421e+38
0.019444875 0.053919274 0.21900001 -1.7190865e+38
0.019889858 0.054165479 0.22000001 -1.7986319e+38
0.020246051 0.054165479 0.22000001 -1.8119763e+38
0.020695891 0.054411691 0.22100002 -1.838456e+38
0.02114897 0.054657895 0.22200002 -1.838456e+38
0.021605287 0.0549041 0.223 -1.838456e+38
0.021966336 0.0549041 0.223 -1.838456e+38
0.023298888 0.056381341 0.22900002 -1.8783846e+38
0.023773015 0.056627553 0.23 -1.9181576e+38
0.024145398 0.056627553 0.23 -1.931502e+38
0.024890166 0.056627553 0.23 -1.931502e+38
0.02526255 0.056627553 0.23 -1.9581904e+38
0.02574639 0.056873757 0.23100001 -1.9581904e+38
0.026120394 0.056873757 0.23100001 -1.9847751e+38
0.026723783 0.057366174 0.23300001 -1.9847751e+38
0.035571631 0.062290307 0.25300002 -2.1843681e+38
0.036123473 0.062536508 0.25400001 -2.1977121e+38
0.036678549 0.06278272 0.25500003 -2.2110565e+38
0.037091412 0.06278272 0.25500003 -2.3041024e+38
0.0030199564 0.052291244 0.21100001 -1.7069402e+38
0.0033615783 0.052291244 0.21100001 -1.7067333e+38
0.004044822 0.052291244 0.21100001 -1.7062644e+38
0.0043656551 0.052043419 0.21000001 -1.7059516e+38
0.0047056577 0.052043419 0.21000001 -1.7052225e+38
0.0053856634 0.052043419 0.21000001 -1.705118e+38
0.0057256659 0.052043419 0.21000001 -1.7051702e+38
0.006065669 0.052043419 0.21000001 -1.7053263e+38
0.0067456742 0.052043419 0.21000001 -1.7054835e+38
0.0070856772 0.052043419 0.21000001 -1.7054835e+38
0.0074256798 0.052043419 0.21000001 -1.7054841e+38
0.0077656824 0.052043419 0.21000001 -1.7054841e+38
0.0084456885 0.052043419 0.21000001 -1.7055882e+38
0.0087856911 0.052043419 0.21000001 -1.7056403e+38
0.0094206212 0.051795594 0.20900001 -1.7055882e+38
0.0097590052 0.051795594 0.20900001 -1.7056403e+38
0.010097388 0.051795594 0.20900001 -1.7055882e+38
0.010435772 0.051795594 0.20900001 -1.7055882e+38
0.01111254 0.051795594 0.20900001 -1.7056924e+38
0.011505713 0.052043419 0.21000001 -1.7056928e+38
0.011845715 0.052043419 0.21000001 -1.7056928e+38
0.012185719 0.052043419 0.21000001 -1.7056926e+38
0.012585367 0.052291244 0.21100001 -1.7057969e+38
0.012926989 0.052291244 0.21100001 -1.7059531e+38
0.013610233 0.052291244 0.21100001 -1.7060054e+38
0.014017977 0.052539069 0.21200001 -1.7060575e+38
0.014361218 0.052539069 0.21200001 -1.7062658e+38
0.014704458 0.052539069 0.21200001 -1.7463512e+38
0.01511868 0.052786894 0.21300001 -1.7064741e+38
0.01546354 0.052786894 0.21300001 -1.7064741e+38
0.015882617 0.053034723 0.21400002 -1.7065778e+38
0.016229097 0.053034723 0.21400002 -1.7064214e+38
0.016653031 0.053282548 0.215 -1.7063171e+38
0.017349228 0.053282548 0.215 -1.706108e+38
0.017779639 0.053530373 0.21600001 -1.7060038e+38
0.018213287 0.053778201 0.21700001 -1.7058985e+38
0.01900313 0.054026026 0.21800001 -1.7720993e+38
0.019444875 0.054273851 0.21900001 -1.7854437e+38
0.019889858 0.054521672 0.22000001 -1.838456e+38
0.020338079 0.054769505 0.22100002 -1.8518004e+38
