# .PCD v0.7 - Point Cloud Data file format
VERSION 0.7
FIELDS x y z
SIZE 4 4 4
TYPE F F F
COUNT 1 1 1
WIDTH 1372
HEIGHT 1
VIEWPOINT 0 0 0 1 0 0 0
POINTS 1372
DATA ascii
-0.5820393 -0.087305881 -0.1050091
-0.58662862 -0.1173256 -0.093535833
-0.59129089 -0.14782268 -0.081880242
-0.59602612 -0.1788078 -0.070042089
-0.60083956 -0.21029386 -0.05800844
-0.60573137 -0.24229252 -0.045778923
-0.61070347 -0.27481645 -0.033348665
-0.61575788 -0.30787897 -0.020712584
-0.62089485 -0.34149212 -0.007870242
-0.62612009 -0.37567201 0.0051929355
-0.63143402 -0.4104321 0.018477812
-0.63683897 -0.44578725 0.031990021
-0.6423372 -0.48175287 0.045735613
-0.64792919 -0.51834327 0.059715629
-0.65362149 -0.55557823 0.073946238
-0.65941459 -0.59347308 0.088429168
-0.6653114 -0.63204575 0.10317111
-0.67131245 -0.67131233 0.11817375
-0.67742491 -0.71129602 0.1334548
-0.68364972 -0.7520147 0.14901698
-0.68998998 -0.79348844 0.16486761
-0.69644898 -0.83573872 0.18101504
-0.70302761 -0.87878442 0.19746163
-0.7097342 -0.92265439 0.21422809
-0.7165699 -0.96736926 0.23131737
-0.72353864 -1.012954 0.24873906
-0.47491962 0.44992384 -0.31031892
-0.47813234 0.42780265 -0.30186427
-0.48138887 0.40538016 -0.29329452
-0.48469004 0.38265002 -0.28460729
-0.48803675 0.35960609 -0.27580002
-0.49143004 0.33624163 -0.26687032
-0.49486965 0.31254929 -0.25781882
-0.49835896 0.28852364 -0.24863638
-0.50189787 0.26415685 -0.2393235
-0.50548732 0.23944139 -0.22987759
-0.50912726 0.2143694 -0.22029889
-0.51282126 0.18893419 -0.21057773
-0.51656926 0.1631272 -0.2007145
-0.52037245 0.13694015 -0.19070598
-0.52423215 0.11036476 -0.18054916
-0.528148 0.08339183 -0.17024408
-0.53212428 0.05601304 -0.15978026
-0.53616089 0.028219081 -0.14915757
-0.54025918 3.7252903e-08 -0.13837261
-0.54441917 -0.028653614 -0.1274254
-0.5486452 -0.057752077 -0.11630411
-0.55293733 -0.087305881 -0.1050091
-0.55729717 -0.1173256 -0.093535833
-0.56172633 -0.14782268 -0.081880242
-0.56622481 -0.1788078 -0.070042089
-0.57079756 -0.21029386 -0.05800844
-0.57544482 -0.24229252 -0.045778923
-0.58016831 -0.27481645 -0.033348665
-0.58497 -0.30787897 -0.020712584
-0.58985013 -0.34149212 -0.007870242
-0.59481406 -0.37567201 0.0051929355
-0.59986234 -0.4104321 0.018477812
-0.60499698 -0.44578725 0.031990021
-0.61022031 -0.48175287 0.045735613
-0.61553276 -0.51834327 0.059715629
-0.62094039 -0.55557823 0.073946238
-0.62644386 -0.59347308 0.088429168
-0.63204581 -0.63204575 0.10317111
-0.63774681 -0.67131233 0.11817375
-0.64355367 -0.71129602 0.1334548
-0.64946723 -0.7520147 0.14901698
-0.65549046 -0.79348844 0.16486761
-0.66162646 -0.83573872 0.18101504
-0.66787624 -0.87878442 0.19746163
-0.67424744 -0.92265439 0.21422809
-0.68074137 -0.96736926 0.23131737
-0.68736166 -1.012954 0.24873906
-0.44992387 0.44992384 -0.31031892
-0.45296749 0.42780265 -0.30186427
-0.45605257 0.40538016 -0.29329452
-0.45918 0.38265002 -0.28460729
-0.46235064 0.35960609 -0.27580002
-0.46556535 0.33624163 -0.26687032
-0.46882388 0.31254929 -0.25781882
-0.47212955 0.28852364 -0.24863638
-0.47548214 0.26415685 -0.2393235
-0.47888276 0.23944139 -0.22987759
-0.48233107 0.2143694 -0.22029889
-0.48583069 0.18893419 -0.21057773
-0.48938143 0.1631272 -0.2007145
-0.49298447 0.13694015 -0.19070598
-0.49664095 0.11036476 -0.18054916
-0.50035077 0.08339183 -0.17024408
-0.50411779 0.05601304 -0.15978026
-0.5079419 0.028219081 -0.14915757
-0.51182449 3.7252903e-08 -0.13837261
-0.51576555 -0.028653614 -0.1274254
-0.51976913 -0.057752077 -0.11630411
-0.52383542 -0.087305881 -0.1050091
-0.52796578 -0.1173256 -0.093535833
-0.53216177 -0.14782268 -0.081880242
-0.5364235 -0.1788078 -0.070042089
-0.54075563 -0.21029386 -0.05800844
-0.54515827 -0.24229252 -0.045778923
-0.54963315 -0.27481645 -0.033348665
-0.55418211 -0.30787897 -0.020712584
-0.55880535 -0.34149212 -0.007870242
-0.56350809 -0.37567201 0.0051929355
-0.56829059 -0.4104321 0.018477812
-0.57315505 -0.44578725 0.031990021
-0.57810348 -0.48175287 0.045735613
-0.58313626 -0.51834327 0.059715629
-0.58825928 -0.55557823 0.073946238
-0.59347314 -0.59347308 0.088429168
-0.59878021 -0.63204575 0.10317111
-0.60418123 -0.67131233 0.11817375
-0.60968244 -0.71129602 0.1334548
-0.61528474 -0.7520147 0.14901698
-0.62099099 -0.79348844 0.16486761
-0.62680405 -0.83573872 0.18101504
-0.63272488 -0.87878442 0.19746163
-0.63876075 -0.92265439 0.21422809
-0.6449129 -0.96736926 0.23131737
-0.65118474 -1.012954 0.24873906
-0.42492807 0.44992384 -0.31031892
-0.42780262 0.42780265 -0.30186427
-0.43071634 0.40538016 -0.29329452
-0.43367001 0.38265002 -0.28460729
-0.43666446 0.35960609 -0.27580002
-0.4397006 0.33624163 -0.26687032
-0.44277811 0.31254929 -0.25781882
-0.44590014 0.28852364 -0.24863638
-0.44906649 0.26415685 -0.2393235
-0.45227817 0.23944139 -0.22987759
-0.45553491 0.2143694 -0.22029889
-0.45884007 0.18893419 -0.21057773
-0.46219355 0.1631272 -0.2007145
-0.46559647 0.13694015 -0.19070598
-0.46904978 0.11036476 -0.18054916
-0.47255349 0.08339183 -0.17024408
-0.47611123 0.05601304 -0.15978026
-0.47972292 0.028219081 -0.14915757
-0.48338979 3.7252903e-08 -0.13837261
-0.4871119 -0.028653614 -0.1274254
-0.4908931 -0.057752077 -0.11630411
-0.49473342 -0.087305881 -0.1050091
-0.49863434 -0.1173256 -0.093535833
-0.50259721 -0.14782268 -0.081880242
-0.5066222 -0.1788078 -0.070042089
-0.51071364 -0.21029386 -0.05800844
-0.51487166 -0.24229252 -0.045778923
-0.51909798 -0.27481645 -0.033348665
-0.52339417 -0.30787897 -0.020712584
-0.52776062 -0.34149212 -0.007870242
-0.53220206 -0.37567201 0.0051929355
-0.5367189 -0.4104321 0.018477812
-0.54131311 -0.44578725 0.031990021
-0.54598659 -0.48175287 0.045735613
-0.55073982 -0.51834327 0.059715629
-0.55557823 -0.55557823 0.073946238
-0.56050241 -0.59347308 0.088429168
-0.56551468 -0.63204575 0.10317111
-0.57061559 -0.67131233 0.11817375
-0.57581115 -0.71129602 0.1334548
-0.58110225 -0.7520147 0.14901698
-0.58649147 -0.79348844 0.16486761
-0.59198159 -0.83573872 0.18101504
-0.59757346 -0.87878442 0.19746163
-0.60327405 -0.92265439 0.21422809
-0.60908443 -0.96736926 0.23131737
-0.61500782 -1.012954 0.24873906
-0.39993232 0.44992384 -0.31031892
-0.40263778 0.42780265 -0.30186427
-0.4053801 0.40538016 -0.29329452
-0.40816003 0.38265002 -0.28460729
-0.41097835 0.35960609 -0.27580002
-0.41383582 0.33624163 -0.26687032
-0.41673234 0.31254929 -0.25781882
-0.4196707 0.28852364 -0.24863638
-0.42265081 0.26415685 -0.2393235
-0.42567354 0.23944139 -0.22987759
-0.42873874 0.2143694 -0.22029889
-0.43184948 0.18893419 -0.21057773
-0.43500572 0.1631272 -0.2007145
-0.4382084 0.13694015 -0.19070598
-0.44145864 0.11036476 -0.18054916
-0.44475624 0.08339183 -0.17024408
-0.44810465 0.05601304 -0.15978026
-0.4515039 0.028219081 -0.14915757
-0.4549551 3.7252903e-08 -0.13837261
-0.45845827 -0.028653614 -0.1274254
-0.462017 -0.057752077 -0.11630411
-0.46563148 -0.087305881 -0.1050091
-0.46930289 -0.1173256 -0.093535833
-0.47303268 -0.14782268 -0.081880242
-0.47682092 -0.1788078 -0.070042089
-0.48067164 -0.21029386 -0.05800844
-0.48458511 -0.24229252 -0.045778923
-0.48856279 -0.27481645 -0.033348665
-0.49260634 -0.30787897 -0.020712584
-0.49671587 -0.34149212 -0.007870242
-0.5008961 -0.37567201 0.0051929355
-0.50514722 -0.4104321 0.018477812
-0.50947118 -0.44578725 0.031990021
-0.51386976 -0.48175287 0.045735613
-0.51834333 -0.51834327 0.059715629
-0.52289718 -0.55557823 0.073946238
-0.52753168 -0.59347308 0.088429168
-0.53224909 -0.63204575 0.10317111
-0.53704995 -0.67131233 0.11817375
-0.54193991 -0.71129602 0.1334548
-0.54691976 -0.7520147 0.14901698
-0.551992 -0.79348844 0.16486761
-0.55715913 -0.83573872 0.18101504
-0.5624221 -0.87878442 0.19746163
-0.56778735 -0.92265439 0.21422809
-0.5732559 -0.96736926 0.23131737
-0.5788309 -1.012954 0.24873906
-0.37493652 0.44992384 -0.31031892
-0.37747291 0.42780265 -0.30186427
-0.38004383 0.40538016 -0.29329452
-0.38265002 0.38265002 -0.28460729
-0.38529217 0.35960609 -0.27580002
-0.3879711 0.33624163 -0.26687032
-0.39068657 0.31254929 -0.25781882
-0.39344129 0.28852364 -0.24863638
-0.39623514 0.26415685 -0.2393235
-0.39906895 0.23944139 -0.22987759
-0.40194255 0.2143694 -0.22029889
-0.40485892 0.18893419 -0.21057773
-0.40781787 0.1631272 -0.2007145
-0.41082039 0.13694015 -0.19070598
-0.41386747 0.11036476 -0.18054916
-0.41695899 0.08339183 -0.17024408
-0.42009813 0.05601304 -0.15978026
-0.42328492 0.028219081 -0.14915757
-0.42652041 3.7252903e-08 -0.13837261
-0.42980462 -0.028653614 -0.1274254
-0.43314093 -0.057752077 -0.11630411
-0.43652949 -0.087305881 -0.1050091
-0.43997145 -0.1173256 -0.093535833
-0.44346815 -0.14782268 -0.081880242
-0.44701958 -0.1788078 -0.070042089
-0.45062968 -0.21029386 -0.05800844
-0.45429853 -0.24229252 -0.045778923
-0.4580276 -0.27481645 -0.033348665
-0.46181843 -0.30787897 -0.020712584
-0.46567112 -0.34149212 -0.007870242
-0.46959007 -0.37567201 0.0051929355
-0.4735755 -0.4104321 0.018477812
-0.47762918 -0.44578725 0.031990021
-0.4817529 -0.48175287 0.045735613
-0.48594689 -0.51834327 0.059715629
-0.49021608 -0.55557823 0.073946238
-0.49456093 -0.59347308 0.088429168
-0.49898356 -0.63204575 0.10317111
-0.50348431 -0.67131233 0.11817375
-0.50806868 -0.71129602 0.1334548
-0.51273727 -0.7520147 0.14901698
-0.51749247 -0.79348844 0.16486761
-0.52233672 -0.83573872 0.18101504
-0.52727067 -0.87878442 0.19746163
-0.53230065 -0.92265439 0.21422809
-0.53742743 -0.96736926 0.23131737
-0.54265398 -1.012954 0.24873906
-0.34994078 0.44992384 -0.31031892
-0.35230806 0.42780265 -0.30186427
-0.3547076 0.40538016 -0.29329452
-0.35714 0.38265002 -0.28460729
-0.35960606 0.35960609 -0.27580002
-0.36210638 0.33624163 -0.26687032
-0.3646408 0.31254929 -0.25781882
-0.36721188 0.28852364 -0.24863638
-0.36981946 0.26415685 -0.2393235
-0.37246436 0.23944139 -0.22987759
-0.37514639 0.2143694 -0.22029889
-0.37786829 0.18893419 -0.21057773
-0.38062999 0.1631272 -0.2007145
-0.38343236 0.13694015 -0.19070598
-0.3862763 0.11036476 -0.18054916
-0.38916171 0.08339183 -0.17024408
-0.3920916 0.05601304 -0.15978026
-0.3950659 0.028219081 -0.14915757
-0.39808574 3.7252903e-08 -0.13837261
-0.40115097 -0.028653614 -0.1274254
-0.40426487 -0.057752077 -0.11630411
-0.40742755 -0.087305881 -0.1050091
-0.41064003 -0.1173256 -0.093535833
-0.41390359 -0.14782268 -0.081880242
-0.4172183 -0.1788078 -0.070042089
-0.42058769 -0.21029386 -0.05800844
-0.42401195 -0.24229252 -0.045778923
-0.42749244 -0.27481645 -0.033348665
-0.43103051 -0.30787897 -0.020712584
-0.4346264 -0.34149212 -0.007870242
-0.43828407 -0.37567201 0.0051929355
-0.44200382 -0.4104321 0.018477812
-0.44578725 -0.44578725 0.031990021
-0.44963604 -0.48175287 0.045735613
-0.45355046 -0.51834327 0.059715629
-0.457535 -0.55557823 0.073946238
-0.46159023 -0.59347308 0.088429168
-0.46571797 -0.63204575 0.10317111
-0.4699187 -0.67131233 0.11817375
-0.47419742 -0.71129602 0.1334548
-0.47855479 -0.7520147 0.14901698
-0.48299301 -0.79348844 0.16486761
-0.48751426 -0.83573872 0.18101504
-0.49211934 -0.87878442 0.19746163
-0.49681389 -0.92265439 0.21422809
-0.50159895 -0.96736926 0.23131737
-0.506477 -1.012954 0.24873906
-0.324945 0.44992384 -0.31031892
-0.32714319 0.42780265 -0.30186427
-0.3293713 0.40538016 -0.29329452
-0.33162999 0.38265002 -0.28460729
-0.33391991 0.35960609 -0.27580002
-0.33624163 0.33624163 -0.26687032
-0.33859503 0.31254929 -0.25781882
-0.34098247 0.28852364 -0.24863638
-0.34340379 0.26415685 -0.2393235
-0.34585974 0.23944139 -0.22987759
-0.3483502 0.2143694 -0.22029889
-0.3508777 0.18893419 -0.21057773
-0.35344213 0.1631272 -0.2007145
-0.35604435 0.13694015 -0.19070598
-0.35868514 0.11036476 -0.18054916
-0.36136442 0.08339183 -0.17024408
-0.36408505 0.05601304 -0.15978026
-0.36684695 0.028219081 -0.14915757
-0.36965102 3.7252903e-08 -0.13837261
-0.37249735 -0.028653614 -0.1274254
-0.37538883 -0.057752077 -0.11630411
-0.37832555 -0.087305881 -0.1050091
-0.38130859 -0.1173256 -0.093535833
-0.38433906 -0.14782268 -0.081880242
-0.38741699 -0.1788078 -0.070042089
-0.39054573 -0.21029386 -0.05800844
-0.39372537 -0.24229252 -0.045778923
-0.39695725 -0.27481645 -0.033348665
-0.40024266 -0.30787897 -0.020712584
-0.40358162 -0.34149212 -0.007870242
-0.40697807 -0.37567201 0.0051929355
-0.41043213 -0.4104321 0.018477812
-0.41394532 -0.44578725 0.031990021
-0.41751918 -0.48175287 0.045735613
-0.42115396 -0.51834327 0.059715629
-0.42485398 -0.55557823 0.073946238
-0.42861947 -0.59347308 0.088429168
-0.43245238 -0.63204575 0.10317111
-0.43635306 -0.67131233 0.11817375
-0.44032621 -0.71129602 0.1334548
-0.44437233 -0.7520147 0.14901698
-0.44849351 -0.79348844 0.16486761
-0.45269182 -0.83573872 0.18101504
-0.45696795 -0.87878442 0.19746163
-0.46132722 -0.92265439 0.21422809
-0.46577045 -0.96736926 0.23131737
-0.47030008 -1.012954 0.24873906
-0.29994923 0.44992384 -0.31031892
-0.30197835 0.42780265 -0.30186427
-0.30403507 0.40538016 -0.29329452
-0.30612001 0.38265002 -0.28460729
-0.30823374 0.35960609 -0.27580002
-0.31037688 0.33624163 -0.26687032
-0.31254926 0.31254929 -0.25781882
-0.31475306 0.28852364 -0.24863638
-0.31698811 0.26415685 -0.2393235
-0.31925517 0.23944139 -0.22987759
-0.32155406 0.2143694 -0.22029889
-0.32388714 0.18893419 -0.21057773
-0.32625428 0.1631272 -0.2007145
-0.32865632 0.13694015 -0.19070598
-0.33109397 0.11036476 -0.18054916
-0.33356717 0.08339183 -0.17024408
-0.33607849 0.05601304 -0.15978026
-0.33862793 0.028219081 -0.14915757
-0.34121636 3.7252903e-08 -0.13837261
-0.3438437 -0.028653614 -0.1274254
-0.34651276 -0.057752077 -0.11630411
-0.34922358 -0.087305881 -0.1050091
-0.35197717 -0.1173256 -0.093535833
-0.3547745 -0.14782268 -0.081880242
-0.35761568 -0.1788078 -0.070042089
-0.36050373 -0.21029386 -0.05800844
-0.36343881 -0.24229252 -0.045778923
-0.36642209 -0.27481645 -0.033348665
-0.36945474 -0.30787897 -0.020712584
-0.3725369 -0.34149212 -0.007870242
-0.37567207 -0.37567201 0.0051929355
-0.37886041 -0.4104321 0.018477812
-0.38210335 -0.44578725 0.031990021
-0.38540232 -0.48175287 0.045735613
-0.3887575 -0.51834327 0.059715629
-0.39217287 -0.55557823 0.073946238
-0.39564878 -0.59347308 0.088429168
-0.39918685 -0.63204575 0.10317111
-0.40278748 -0.67131233 0.11817375
-0.40645495 -0.71129602 0.1334548
-0.41018981 -0.7520147 0.14901698
-0.41399401 -0.79348844 0.16486761
-0.41786939 -0.83573872 0.18101504
-0.42181656 -0.87878442 0.19746163
-0.4258405 -0.92265439 0.21422809
-0.42994195 -0.96736926 0.23131737
-0.43412316 -1.012954 0.24873906
-0.27495345 0.44992384 -0.31031892
-0.27681348 0.42780265 -0.30186427
-0.2786988 0.40538016 -0.29329452
-0.28061 0.38265002 -0.28460729
-0.28254759 0.35960609 -0.27580002
-0.28451213 0.33624163 -0.26687032
-0.28650349 0.31254929 -0.25781882
-0.28852361 0.28852364 -0.24863638
-0.29057243 0.26415685 -0.2393235
-0.29265055 0.23944139 -0.22987759
-0.29475787 0.2143694 -0.22029889
-0.29689652 0.18893419 -0.21057773
-0.29906642 0.1631272 -0.2007145
-0.30126828 0.13694015 -0.19070598
-0.3035028 0.11036476 -0.18054916
-0.30576992 0.08339183 -0.17024408
-0.30807197 0.05601304 -0.15978026
-0.31040895 0.028219081 -0.14915757
-0.31278166 3.7252903e-08 -0.13837261
-0.31519005 -0.028653614 -0.1274254
-0.3176367 -0.057752077 -0.11630411
-0.32012162 -0.087305881 -0.1050091
-0.32264572 -0.1173256 -0.093535833
-0.32520998 -0.14782268 -0.081880242
-0.32781437 -0.1788078 -0.070042089
-0.33046174 -0.21029386 -0.05800844
-0.33315223 -0.24229252 -0.045778923
-0.3358869 -0.27481645 -0.033348665
-0.33866686 -0.30787897 -0.020712584
-0.34149218 -0.34149212 -0.007870242
-0.34436607 -0.37567201 0.0051929355
-0.3472887 -0.4104321 0.018477812
-0.35026142 -0.44578725 0.031990021
-0.35328546 -0.48175287 0.045735613
-0.35636106 -0.51834327 0.059715629
-0.3594918 -0.55557823 0.073946238
-0.36267805 -0.59347308 0.088429168
-0.36592126 -0.63204575 0.10317111
-0.36922184 -0.67131233 0.11817375
-0.37258369 -0.71129602 0.1334548
-0.37600732 -0.7520147 0.14901698
-0.37949449 -0.79348844 0.16486761
-0.38304693 -0.83573872 0.18101504
-0.3866652 -0.87878442 0.19746163
-0.3903538 -0.92265439 0.21422809
-0.39411345 -0.96736926 0.23131737
-0.39794624 -1.012954 0.24873906
-0.24995768 0.44992384 -0.31031892
-0.2516486 0.42780265 -0.30186427
-0.25336257 0.40538016 -0.29329452
-0.25510001 0.38265002 -0.28460729
-0.25686148 0.35960609 -0.27580002
-0.25864741 0.33624163 -0.26687032
-0.26045772 0.31254929 -0.25781882
-0.2622942 0.28852364 -0.24863638
-0.26415676 0.26415685 -0.2393235
-0.26604596 0.23944139 -0.22987759
-0.26796171 0.2143694 -0.22029889
-0.26990592 0.18893419 -0.21057773
-0.27187857 0.1631272 -0.2007145
-0.27388027 0.13694015 -0.19070598
-0.27591163 0.11036476 -0.18054916
-0.27797267 0.08339183 -0.17024408
-0.28006542 0.05601304 -0.15978026
-0.28218994 0.028219081 -0.14915757
-0.28434697 3.7252903e-08 -0.13837261
-0.28653643 -0.028653614 -0.1274254
-0.28876063 -0.057752077 -0.11630411
-0.29101965 -0.087305881 -0.1050091
-0.29331431 -0.1173256 -0.093535833
-0.29564545 -0.14782268 -0.081880242
-0.29801306 -0.1788078 -0.070042089
-0.30041978 -0.21029386 -0.05800844
-0.30286568 -0.24229252 -0.045778923
-0.30535173 -0.27481645 -0.033348665
-0.30787894 -0.30787897 -0.020712584
-0.31044742 -0.34149212 -0.007870242
-0.31306005 -0.37567201 0.0051929355
-0.31571701 -0.4104321 0.018477812
-0.31841949 -0.44578725 0.031990021
-0.3211686 -0.48175287 0.045735613
-0.3239646 -0.51834327 0.059715629
-0.32681075 -0.55557823 0.073946238
-0.32970729 -0.59347308 0.088429168
-0.3326557 -0.63204575 0.10317111
-0.33565623 -0.67131233 0.11817375
-0.33871245 -0.71129602 0.1334548
-0.34182486 -0.7520147 0.14901698
-0.34499499 -0.79348844 0.16486761
-0.34822449 -0.83573872 0.18101504
-0.3515138 -0.87878442 0.19746163
-0.3548671 -0.92265439 0.21422809
-0.35828495 -0.96736926 0.23131737
-0.36176932 -1.012954 0.24873906
-0.22496194 0.44992384 -0.31031892
-0.22648375 0.42780265 -0.30186427
-0.22802629 0.40538016 -0.29329452
-0.22959 0.38265002 -0.28460729
-0.23117532 0.35960609 -0.27580002
-0.23278268 0.33624163 -0.26687032
-0.23441194 0.31254929 -0.25781882
-0.23606478 0.28852364 -0.24863638
-0.23774107 0.26415685 -0.2393235
-0.23944138 0.23944139 -0.22987759
-0.24116553 0.2143694 -0.22029889
-0.24291535 0.18893419 -0.21057773
-0.24469072 0.1631272 -0.2007145
-0.24649224 0.13694015 -0.19070598
-0.24832048 0.11036476 -0.18054916
-0.25017539 0.08339183 -0.17024408
-0.25205889 0.05601304 -0.15978026
-0.25397095 0.028219081 -0.14915757
-0.25591224 3.7252903e-08 -0.13837261
-0.25788277 -0.028653614 -0.1274254
-0.25988457 -0.057752077 -0.11630411
-0.26191771 -0.087305881 -0.1050091
-0.26398289 -0.1173256 -0.093535833
-0.26608089 -0.14782268 -0.081880242
-0.26821175 -0.1788078 -0.070042089
-0.27037781 -0.21029386 -0.05800844
-0.27257913 -0.24229252 -0.045778923
-0.27481657 -0.27481645 -0.033348665
-0.27709106 -0.30787897 -0.020712584
-0.27940267 -0.34149212 -0.007870242
-0.28175405 -0.37567201 0.0051929355
-0.2841453 -0.4104321 0.018477812
-0.28657752 -0.44578725 0.031990021
-0.28905174 -0.48175287 0.045735613
-0.29156813 -0.51834327 0.059715629
-0.29412964 -0.55557823 0.073946238
-0.29673657 -0.59347308 0.088429168
-0.29939011 -0.63204575 0.10317111
-0.30209062 -0.67131233 0.11817375
-0.30484122 -0.71129602 0.1334548
-0.30764237 -0.7520147 0.14901698
-0.3104955 -0.79348844 0.16486761
-0.31340203 -0.83573872 0.18101504
-0.31636244 -0.87878442 0.19746163
-0.31938037 -0.92265439 0.21422809
-0.32245645 -0.96736926 0.23131737
-0.32559237 -1.012954 0.24873906
-0.19996616 0.44992384 -0.31031892
-0.20131889 0.42780265 -0.30186427
-0.20269005 0.40538016 -0.29329452
-0.20408002 0.38265002 -0.28460729
-0.20548917 0.35960609 -0.27580002
-0.20691791 0.33624163 -0.26687032
-0.20836617 0.31254929 -0.25781882
-0.20983535 0.28852364 -0.24863638
-0.21132541 0.26415685 -0.2393235
-0.21283677 0.23944139 -0.22987759
-0.21436937 0.2143694 -0.22029889
-0.21592474 0.18893419 -0.21057773
-0.21750286 0.1631272 -0.2007145
-0.2191042 0.13694015 -0.19070598
-0.22072932 0.11036476 -0.18054916
-0.22237812 0.08339183 -0.17024408
-0.22405232 0.05601304 -0.15978026
-0.22575195 0.028219081 -0.14915757
-0.22747755 3.7252903e-08 -0.13837261
-0.22922914 -0.028653614 -0.1274254
-0.2310085 -0.057752077 -0.11630411
-0.23281574 -0.087305881 -0.1050091
-0.23465145 -0.1173256 -0.093535833
-0.23651634 -0.14782268 -0.081880242
-0.23841046 -0.1788078 -0.070042089
-0.24033582 -0.21029386 -0.05800844
-0.24229255 -0.24229252 -0.045778923
-0.2442814 -0.27481645 -0.033348665
-0.24630317 -0.30787897 -0.020712584
-0.24835794 -0.34149212 -0.007870242
-0.25044805 -0.37567201 0.0051929355
-0.25257361 -0.4104321 0.018477812
-0.25473559 -0.44578725 0.031990021
-0.25693488 -0.48175287 0.045735613
-0.25917166 -0.51834327 0.059715629
-0.26144859 -0.55557823 0.073946238
-0.26376584 -0.59347308 0.088429168
-0.26612455 -0.63204575 0.10317111
-0.26852497 -0.67131233 0.11817375
-0.27096996 -0.71129602 0.1334548
-0.27345988 -0.7520147 0.14901698
-0.275996 -0.79348844 0.16486761
-0.27857956 -0.83573872 0.18101504
-0.28121105 -0.87878442 0.19746163
-0.28389367 -0.92265439 0.21422809
-0.28662795 -0.96736926 0.23131737
-0.28941545 -1.012954 0.24873906
-0.17497039 0.44992384 -0.31031892
-0.17615403 0.42780265 -0.30186427
-0.1773538 0.40538016 -0.29329452
-0.17857 0.38265002 -0.28460729
-0.17980303 0.35960609 -0.27580002
-0.18105319 0.33624163 -0.26687032
-0.1823204 0.31254929 -0.25781882
-0.18360594 0.28852364 -0.24863638
-0.18490973 0.26415685 -0.2393235
-0.18623218 0.23944139 -0.22987759
-0.18757319 0.2143694 -0.22029889
-0.18893415 0.18893419 -0.21057773
-0.19031499 0.1631272 -0.2007145
-0.19171618 0.13694015 -0.19070598
-0.19313815 0.11036476 -0.18054916
-0.19458085 0.08339183 -0.17024408
-0.1960458 0.05601304 -0.15978026
-0.19753295 0.028219081 -0.14915757
-0.19904287 3.7252903e-08 -0.13837261
-0.20057549 -0.028653614 -0.1274254
-0.20213243 -0.057752077 -0.11630411
-0.20371377 -0.087305881 -0.1050091
-0.20532002 -0.1173256 -0.093535833
-0.2069518 -0.14782268 -0.081880242
-0.20860915 -0.1788078 -0.070042089
-0.21029384 -0.21029386 -0.05800844
-0.21200597 -0.24229252 -0.045778923
-0.21374622 -0.27481645 -0.033348665
-0.21551526 -0.30787897 -0.020712584
-0.2173132 -0.34149212 -0.007870242
-0.21914203 -0.37567201 0.0051929355
-0.22100191 -0.4104321 0.018477812
-0.22289363 -0.44578725 0.031990021
-0.22481802 -0.48175287 0.045735613
-0.22677523 -0.51834327 0.059715629
-0.2287675 -0.55557823 0.073946238
-0.23079512 -0.59347308 0.088429168
-0.23285899 -0.63204575 0.10317111
-0.23495935 -0.67131233 0.11817375
-0.23709871 -0.71129602 0.1334548
-0.23927739 -0.7520147 0.14901698
-0.2414965 -0.79348844 0.16486761
-0.24375713 -0.83573872 0.18101504
-0.24605967 -0.87878442 0.19746163
-0.24840695 -0.92265439 0.21422809
-0.25079948 -0.96736926 0.23131737
-0.2532385 -1.012954 0.24873906
-0.14997461 0.44992384 -0.31031892
-0.15098917 0.42780265 -0.30186427
-0.15201753 0.40538016 -0.29329452
-0.15306 0.38265002 -0.28460729
-0.15411687 0.35960609 -0.27580002
-0.15518844 0.33624163 -0.26687032
-0.15627463 0.31254929 -0.25781882
-0.15737653 0.28852364 -0.24863638
-0.15849406 0.26415685 -0.2393235
-0.15962759 0.23944139 -0.22987759
-0.16077703 0.2143694 -0.22029889
-0.16194357 0.18893419 -0.21057773
-0.16312714 0.1631272 -0.2007145
-0.16432816 0.13694015 -0.19070598
-0.16554698 0.11036476 -0.18054916
-0.16678359 0.08339183 -0.17024408
-0.16803925 0.05601304 -0.15978026
-0.16931397 0.028219081 -0.14915757
-0.17060818 3.7252903e-08 -0.13837261
-0.17192185 -0.028653614 -0.1274254
-0.17325638 -0.057752077 -0.11630411
-0.17461179 -0.087305881 -0.1050091
-0.17598858 -0.1173256 -0.093535833
-0.17738725 -0.14782268 -0.081880242
-0.17880784 -0.1788078 -0.070042089
-0.18025187 -0.21029386 -0.05800844
-0.18171941 -0.24229252 -0.045778923
-0.18321104 -0.27481645 -0.033348665
-0.18472737 -0.30787897 -0.020712584
-0.18626845 -0.34149212 -0.007870242
-0.18783604 -0.37567201 0.0051929355
-0.18943021 -0.4104321 0.018477812
-0.19105168 -0.44578725 0.031990021
-0.19270116 -0.48175287 0.045735613
-0.19437875 -0.51834327 0.059715629
-0.19608644 -0.55557823 0.073946238
-0.19782439 -0.59347308 0.088429168
-0.19959342 -0.63204575 0.10317111
-0.20139374 -0.67131233 0.11817375
-0.20322748 -0.71129602 0.1334548
-0.2050949 -0.7520147 0.14901698
-0.20699701 -0.79348844 0.16486761
-0.20893469 -0.83573872 0.18101504
-0.21090828 -0.87878442 0.19746163
-0.21292025 -0.92265439 0.21422809
-0.21497098 -0.96736926 0.23131737
-0.21706158 -1.012954 0.24873906
-0.12497884 0.44992384 -0.31031892
-0.1258243 0.42780265 -0.30186427
-0.12668128 0.40538016 -0.29329452
-0.12755001 0.38265002 -0.28460729
-0.12843074 0.35960609 -0.27580002
-0.12932371 0.33624163 -0.26687032
-0.13022886 0.31254929 -0.25781882
-0.1311471 0.28852364 -0.24863638
-0.13207838 0.26415685 -0.2393235
-0.13302298 0.23944139 -0.22987759
-0.13398086 0.2143694 -0.22029889
-0.13495296 0.18893419 -0.21057773
-0.13593929 0.1631272 -0.2007145
-0.13694014 0.13694015 -0.19070598
-0.13795581 0.11036476 -0.18054916
-0.13898633 0.08339183 -0.17024408
-0.14003271 0.05601304 -0.15978026
-0.14109497 0.028219081 -0.14915757
-0.14217348 3.7252903e-08 -0.13837261
-0.14326821 -0.028653614 -0.1274254
-0.14438032 -0.057752077 -0.11630411
-0.14550982 -0.087305881 -0.1050091
-0.14665715 -0.1173256 -0.093535833
-0.14782272 -0.14782268 -0.081880242
-0.14900653 -0.1788078 -0.070042089
-0.15020989 -0.21029386 -0.05800844
-0.15143284 -0.24229252 -0.045778923
-0.15267587 -0.27481645 -0.033348665
-0.15393947 -0.30787897 -0.020712584
-0.15522371 -0.34149212 -0.007870242
-0.15653002 -0.37567201 0.0051929355
-0.15785851 -0.4104321 0.018477812
-0.15920974 -0.44578725 0.031990021
-0.1605843 -0.48175287 0.045735613
-0.1619823 -0.51834327 0.059715629
-0.16340537 -0.55557823 0.073946238
-0.16485365 -0.59347308 0.088429168
-0.16632785 -0.63204575 0.10317111
-0.16782811 -0.67131233 0.11817375
-0.16935623 -0.71129602 0.1334548
-0.17091243 -0.7520147 0.14901698
-0.1724975 -0.79348844 0.16486761
-0.17411225 -0.83573872 0.18101504
-0.1757569 -0.87878442 0.19746163
-0.17743355 -0.92265439 0.21422809
-0.17914248 -0.96736926 0.23131737
-0.18088466 -1.012954 0.24873906
-0.099983081 0.44992384 -0.31031892
-0.10065944 0.42780265 -0.30186427
-0.10134503 0.40538016 -0.29329452
-0.10204001 0.38265002 -0.28460729
-0.10274459 0.35960609 -0.27580002
-0.10345896 0.33624163 -0.26687032
-0.10418309 0.31254929 -0.25781882
-0.10491768 0.28852364 -0.24863638
-0.1056627 0.26415685 -0.2393235
-0.10641839 0.23944139 -0.22987759
-0.10718469 0.2143694 -0.22029889
-0.10796237 0.18893419 -0.21057773
-0.10875143 0.1631272 -0.2007145
-0.1095521 0.13694015 -0.19070598
-0.11036466 0.11036476 -0.18054916
-0.11118906 0.08339183 -0.17024408
-0.11202616 0.05601304 -0.15978026
-0.11287598 0.028219081 -0.14915757
-0.11373878 3.7252903e-08 -0.13837261
-0.11461457 -0.028653614 -0.1274254
-0.11550425 -0.057752077 -0.11630411
-0.11640787 -0.087305881 -0.1050091
-0.11732572 -0.1173256 -0.093535833
-0.11825817 -0.14782268 -0.081880242
-0.11920523 -0.1788078 -0.070042089
-0.12016791 -0.21029386 -0.05800844
-0.12114628 -0.24229252 -0.045778923
-0.1221407 -0.27481645 -0.033348665
-0.12315159 -0.30787897 -0.020712584
-0.12417897 -0.34149212 -0.007870242
-0.12522402 -0.37567201 0.0051929355
-0.1262868 -0.4104321 0.018477812
-0.12736779 -0.44578725 0.031990021
-0.12846744 -0.48175287 0.045735613
-0.12958583 -0.51834327 0.059715629
-0.1307243 -0.55557823 0.073946238
-0.13188292 -0.59347308 0.088429168
-0.13306227 -0.63204575 0.10317111
-0.13426249 -0.67131233 0.11817375
-0.13548498 -0.71129602 0.1334548
-0.13672994 -0.7520147 0.14901698
-0.137998 -0.79348844 0.16486761
-0.13928978 -0.83573872 0.18101504
-0.14060552 -0.87878442 0.19746163
-0.14194684 -0.92265439 0.21422809
-0.14331397 -0.96736926 0.23131737
-0.14470772 -1.012954 0.24873906
-0.074987307 0.44992384 -0.31031892
-0.075494587 0.42780265 -0.30186427
-0.076008767 0.40538016 -0.29329452
-0.076530002 0.38265002 -0.28460729
-0.077058434 0.35960609 -0.27580002
-0.077594221 0.33624163 -0.26687032
-0.078137316 0.31254929 -0.25781882
-0.078688264 0.28852364 -0.24863638
-0.079247028 0.26415685 -0.2393235
-0.079813793 0.23944139 -0.22987759
-0.080388516 0.2143694 -0.22029889
-0.080971785 0.18893419 -0.21057773
-0.08156357 0.1631272 -0.2007145
-0.082164079 0.13694015 -0.19070598
-0.082773492 0.11036476 -0.18054916
-0.083391793 0.08339183 -0.17024408
-0.084019624 0.05601304 -0.15978026
-0.084656984 0.028219081 -0.14915757
-0.085304089 3.7252903e-08 -0.13837261
-0.085960925 -0.028653614 -0.1274254
-0.086628191 -0.057752077 -0.11630411
-0.087305896 -0.087305881 -0.1050091
-0.087994292 -0.1173256 -0.093535833
-0.088693626 -0.14782268 -0.081880242
-0.08940392 -0.1788078 -0.070042089
-0.090125933 -0.21029386 -0.05800844
-0.090859704 -0.24229252 -0.045778923
-0.091605522 -0.27481645 -0.033348665
-0.092363685 -0.30787897 -0.020712584
-0.093134224 -0.34149212 -0.007870242
-0.093918018 -0.37567201 0.0051929355
-0.094715104 -0.4104321 0.018477812
-0.095525838 -0.44578725 0.031990021
-0.09635058 -0.48175287 0.045735613
-0.097189374 -0.51834327 0.059715629
-0.098043218 -0.55557823 0.073946238
-0.098912194 -0.59347308 0.088429168
-0.099796712 -0.63204575 0.10317111
-0.10069687 -0.67131233 0.11817375
-0.10161374 -0.71129602 0.1334548
-0.10254745 -0.7520147 0.14901698
-0.1034985 -0.79348844 0.16486761
-0.10446735 -0.83573872 0.18101504
-0.10545414 -0.87878442 0.19746163
-0.10646012 -0.92265439 0.21422809
-0.10748549 -0.96736926 0.23131737
-0.10853079 -1.012954 0.24873906
-0.049991541 0.44992384 -0.31031892
-0.050329722 0.42780265 -0.30186427
-0.050672513 0.40538016 -0.29329452
-0.051020004 0.38265002 -0.28460729
-0.051372293 0.35960609 -0.27580002
-0.051729478 0.33624163 -0.26687032
-0.052091543 0.31254929 -0.25781882
-0.052458838 0.28852364 -0.24863638
-0.052831352 0.26415685 -0.2393235
-0.053209193 0.23944139 -0.22987759
-0.053592343 0.2143694 -0.22029889
-0.053981185 0.18893419 -0.21057773
-0.054375716 0.1631272 -0.2007145
-0.05477605 0.13694015 -0.19070598
-0.05518233 0.11036476 -0.18054916
-0.05559453 0.08339183 -0.17024408
-0.056013081 0.05601304 -0.15978026
-0.056437988 0.028219081 -0.14915757
-0.056869388 3.7252903e-08 -0.13837261
-0.057307284 -0.028653614 -0.1274254
-0.057752125 -0.057752077 -0.11630411
-0.058203936 -0.087305881 -0.1050091
-0.058662862 -0.1173256 -0.093535833
-0.059129085 -0.14782268 -0.081880242
-0.059602614 -0.1788078 -0.070042089
-0.060083956 -0.21029386 -0.05800844
-0.060573138 -0.24229252 -0.045778923
-0.061070349 -0.27481645 -0.033348665
-0.061575793 -0.30787897 -0.020712584
-0.062089484 -0.34149212 -0.007870242
-0.062612012 -0.37567201 0.0051929355
-0.063143402 -0.4104321 0.018477812
-0.063683897 -0.44578725 0.031990021
-0.06423372 -0.48175287 0.045735613
-0.064792916 -0.51834327 0.059715629
-0.065362148 -0.55557823 0.073946238
-0.06594146 -0.59347308 0.088429168
-0.066531137 -0.63204575 0.10317111
-0.067131244 -0.67131233 0.11817375
-0.067742489 -0.71129602 0.1334548
-0.06836497 -0.7520147 0.14901698
-0.068999 -0.79348844 0.16486761
-0.069644891 -0.83573872 0.18101504
-0.070302762 -0.87878442 0.19746163
-0.070973419 -0.92265439 0.21422809
-0.071656987 -0.96736926 0.23131737
-0.072353862 -1.012954 0.24873906
-0.02499577 0.44992384 -0.31031892
-0.025164861 0.42780265 -0.30186427
-0.025336256 0.40538016 -0.29329452
-0.025510002 0.38265002 -0.28460729
-0.025686147 0.35960609 -0.27580002
-0.025864739 0.33624163 -0.26687032
-0.026045771 0.31254929 -0.25781882
-0.026229419 0.28852364 -0.24863638
-0.026415676 0.26415685 -0.2393235
-0.026604597 0.23944139 -0.22987759
-0.026796171 0.2143694 -0.22029889
-0.026990592 0.18893419 -0.21057773
-0.027187858 0.1631272 -0.2007145
-0.027388025 0.13694015 -0.19070598
-0.027591165 0.11036476 -0.18054916
-0.027797265 0.08339183 -0.17024408
-0.028006541 0.05601304 -0.15978026
-0.028218994 0.028219081 -0.14915757
-0.028434694 3.7252903e-08 -0.13837261
-0.028653642 -0.028653614 -0.1274254
-0.028876062 -0.057752077 -0.11630411
-0.029101968 -0.087305881 -0.1050091
-0.029331431 -0.1173256 -0.093535833
-0.029564543 -0.14782268 -0.081880242
-0.029801307 -0.1788078 -0.070042089
-0.030041978 -0.21029386 -0.05800844
-0.030286569 -0.24229252 -0.045778923
-0.030535175 -0.27481645 -0.033348665
-0.030787896 -0.30787897 -0.020712584
-0.031044742 -0.34149212 -0.007870242
-0.031306006 -0.37567201 0.0051929355
-0.031571701 -0.4104321 0.018477812
-0.031841949 -0.44578725 0.031990021
-0.03211686 -0.48175287 0.045735613
-0.032396458 -0.51834327 0.059715629
-0.032681074 -0.55557823 0.073946238
-0.03297073 -0.59347308 0.088429168
-0.033265568 -0.63204575 0.10317111
-0.033565622 -0.67131233 0.11817375
-0.033871245 -0.71129602 0.1334548
-0.034182485 -0.7520147 0.14901698
-0.0344995 -0.79348844 0.16486761
-0.034822445 -0.83573872 0.18101504
-0.035151381 -0.87878442 0.19746163
-0.035486709 -0.92265439 0.21422809
-0.035828494 -0.96736926 0.23131737
-0.036176931 -1.012954 0.24873906
0 0.44992384 -0.31031892
0 0.42780265 -0.30186427
0 0.40538016 -0.29329452
0 0.38265002 -0.28460729
0 0.35960609 -0.27580002
0 0.33624163 -0.26687032
0 0.31254929 -0.25781882
0 0.28852364 -0.24863638
0 0.26415685 -0.2393235
0 0.23944139 -0.22987759
0 0.2143694 -0.22029889
0 0.18893419 -0.21057773
0 0.1631272 -0.2007145
0 0.13694015 -0.19070598
0 0.11036476 -0.18054916
0 0.08339183 -0.17024408
0 0.05601304 -0.15978026
0 0.028219081 -0.14915757
0 3.7252903e-08 -0.13837261
0 -0.028653614 -0.1274254
0 -0.057752077 -0.11630411
0 -0.087305881 -0.1050091
0 -0.1173256 -0.093535833
0 -0.14782268 -0.081880242
0 -0.1788078 -0.070042089
0 -0.21029386 -0.05800844
0 -0.24229252 -0.045778923
0 -0.27481645 -0.033348665
0 -0.30787897 -0.020712584
0 -0.34149212 -0.007870242
0 -0.37567201 0.0051929355
0 -0.4104321 0.018477812
0 -0.44578725 0.031990021
0 -0.48175287 0.045735613
0 -0.51834327 0.059715629
0 -0.55557823 0.073946238
0 -0.59347308 0.088429168
0 -0.63204575 0.10317111
0 -0.67131233 0.11817375
0 -0.71129602 0.1334548
0 -0.7520147 0.14901698
0 -0.79348844 0.16486761
0 -0.83573872 0.18101504
0 -0.87878442 0.19746163
0 -0.92265439 0.21422809
0 -0.96736926 0.23131737
0 -1.012954 0.24873906
0.02499577 0.44992384 -0.31031892
0.025164861 0.42780265 -0.30186427
0.025336256 0.40538016 -0.29329452
0.025510002 0.38265002 -0.28460729
0.025686147 0.35960609 -0.27580002
0.025864739 0.33624163 -0.26687032
0.026045771 0.31254929 -0.25781882
0.026229419 0.28852364 -0.24863638
0.026415676 0.26415685 -0.2393235
0.026604597 0.23944139 -0.22987759
0.026796171 0.2143694 -0.22029889
0.026990592 0.18893419 -0.21057773
0.027187858 0.1631272 -0.2007145
0.027388025 0.13694015 -0.19070598
0.027591165 0.11036476 -0.18054916
0.027797265 0.08339183 -0.17024408
0.028006541 0.05601304 -0.15978026
0.028218994 0.028219081 -0.14915757
0.028434694 3.7252903e-08 -0.13837261
0.028653642 -0.028653614 -0.1274254
0.028876062 -0.057752077 -0.11630411
0.029101968 -0.087305881 -0.1050091
0.029331431 -0.1173256 -0.093535833
0.029564543 -0.14782268 -0.081880242
0.029801307 -0.1788078 -0.070042089
0.030041978 -0.21029386 -0.05800844
0.030286569 -0.24229252 -0.045778923
0.030535175 -0.27481645 -0.033348665
0.030787896 -0.30787897 -0.020712584
0.031044742 -0.34149212 -0.007870242
0.031306006 -0.37567201 0.0051929355
0.031571701 -0.4104321 0.018477812
0.031841949 -0.44578725 0.031990021
0.03211686 -0.48175287 0.045735613
0.032396458 -0.51834327 0.059715629
0.032681074 -0.55557823 0.073946238
0.03297073 -0.59347308 0.088429168
0.033265568 -0.63204575 0.10317111
0.033565622 -0.67131233 0.11817375
0.033871245 -0.71129602 0.1334548
0.034182485 -0.7520147 0.14901698
0.0344995 -0.79348844 0.16486761
0.034822445 -0.83573872 0.18101504
0.035151381 -0.87878442 0.19746163
0.035486709 -0.92265439 0.21422809
0.035828494 -0.96736926 0.23131737
0.036176931 -1.012954 0.24873906
0.049991541 0.44992384 -0.31031892
0.050329722 0.42780265 -0.30186427
0.050672513 0.40538016 -0.29329452
0.051020004 0.38265002 -0.28460729
0.051372293 0.35960609 -0.27580002
0.051729478 0.33624163 -0.26687032
0.052091543 0.31254929 -0.25781882
0.052458838 0.28852364 -0.24863638
0.052831352 0.26415685 -0.2393235
0.053209193 0.23944139 -0.22987759
0.053592343 0.2143694 -0.22029889
0.053981185 0.18893419 -0.21057773
0.054375716 0.1631272 -0.2007145
0.05477605 0.13694015 -0.19070598
0.05518233 0.11036476 -0.18054916
0.05559453 0.08339183 -0.17024408
0.056013081 0.05601304 -0.15978026
0.056437988 0.028219081 -0.14915757
0.056869388 3.7252903e-08 -0.13837261
0.057307284 -0.028653614 -0.1274254
0.057752125 -0.057752077 -0.11630411
0.058203936 -0.087305881 -0.1050091
0.058662862 -0.1173256 -0.093535833
0.059129085 -0.14782268 -0.081880242
0.059602614 -0.1788078 -0.070042089
0.060083956 -0.21029386 -0.05800844
0.060573138 -0.24229252 -0.045778923
0.061070349 -0.27481645 -0.033348665
0.061575793 -0.30787897 -0.020712584
0.062089484 -0.34149212 -0.007870242
0.062612012 -0.37567201 0.0051929355
0.063143402 -0.4104321 0.018477812
0.063683897 -0.44578725 0.031990021
0.06423372 -0.48175287 0.045735613
0.064792916 -0.51834327 0.059715629
0.065362148 -0.55557823 0.073946238
0.06594146 -0.59347308 0.088429168
0.066531137 -0.63204575 0.10317111
0.067131244 -0.67131233 0.11817375
0.067742489 -0.71129602 0.1334548
0.06836497 -0.7520147 0.14901698
0.068999 -0.79348844 0.16486761
0.069644891 -0.83573872 0.18101504
0.070302762 -0.87878442 0.19746163
0.070973419 -0.92265439 0.21422809
0.071656987 -0.96736926 0.23131737
0.072353862 -1.012954 0.24873906
0.074987307 0.44992384 -0.31031892
0.075494587 0.42780265 -0.30186427
0.076008767 0.40538016 -0.29329452
0.076530002 0.38265002 -0.28460729
0.077058434 0.35960609 -0.27580002
0.077594221 0.33624163 -0.26687032
0.078137316 0.31254929 -0.25781882
0.078688264 0.28852364 -0.24863638
0.079247028 0.26415685 -0.2393235
0.079813793 0.23944139 -0.22987759
0.080388516 0.2143694 -0.22029889
0.080971785 0.18893419 -0.21057773
0.08156357 0.1631272 -0.2007145
0.082164079 0.13694015 -0.19070598
0.082773492 0.11036476 -0.18054916
0.083391793 0.08339183 -0.17024408
0.084019624 0.05601304 -0.15978026
0.084656984 0.028219081 -0.14915757
0.085304089 3.7252903e-08 -0.13837261
0.085960925 -0.028653614 -0.1274254
0.086628191 -0.057752077 -0.11630411
0.087305896 -0.087305881 -0.1050091
0.087994292 -0.1173256 -0.093535833
0.088693626 -0.14782268 -0.081880242
0.08940392 -0.1788078 -0.070042089
0.090125933 -0.21029386 -0.05800844
0.090859704 -0.24229252 -0.045778923
0.091605522 -0.27481645 -0.033348665
0.092363685 -0.30787897 -0.020712584
0.093134224 -0.34149212 -0.007870242
0.093918018 -0.37567201 0.0051929355
0.094715104 -0.4104321 0.018477812
0.095525838 -0.44578725 0.031990021
0.09635058 -0.48175287 0.045735613
0.097189374 -0.51834327 0.059715629
0.098043218 -0.55557823 0.073946238
0.098912194 -0.59347308 0.088429168
0.099796712 -0.63204575 0.10317111
0.10069687 -0.67131233 0.11817375
0.10161374 -0.71129602 0.1334548
0.10254745 -0.7520147 0.14901698
0.1034985 -0.79348844 0.16486761
0.10446735 -0.83573872 0.18101504
0.10545414 -0.87878442 0.19746163
0.10646012 -0.92265439 0.21422809
0.10748549 -0.96736926 0.23131737
0.10853079 -1.012954 0.24873906
0.099983081 0.44992384 -0.31031892
0.10065944 0.42780265 -0.30186427
0.10134503 0.40538016 -0.29329452
0.10204001 0.38265002 -0.28460729
0.10274459 0.35960609 -0.27580002
0.10345896 0.33624163 -0.26687032
0.10418309 0.31254929 -0.25781882
0.10491768 0.28852364 -0.24863638
0.1056627 0.26415685 -0.2393235
0.10641839 0.23944139 -0.22987759
0.10718469 0.2143694 -0.22029889
0.10796237 0.18893419 -0.21057773
0.10875143 0.1631272 -0.2007145
0.1095521 0.13694015 -0.19070598
0.11036466 0.11036476 -0.18054916
0.11118906 0.08339183 -0.17024408
0.11202616 0.05601304 -0.15978026
0.11287598 0.028219081 -0.14915757
0.11373878 3.7252903e-08 -0.13837261
0.11461457 -0.028653614 -0.1274254
0.11550425 -0.057752077 -0.11630411
0.11640787 -0.087305881 -0.1050091
0.11732572 -0.1173256 -0.093535833
0.11825817 -0.14782268 -0.081880242
0.11920523 -0.1788078 -0.070042089
0.12016791 -0.21029386 -0.05800844
0.12114628 -0.24229252 -0.045778923
0.1221407 -0.27481645 -0.033348665
0.12315159 -0.30787897 -0.020712584
0.12417897 -0.34149212 -0.007870242
0.12522402 -0.37567201 0.0051929355
0.1262868 -0.4104321 0.018477812
0.12736779 -0.44578725 0.031990021
0.12846744 -0.48175287 0.045735613
0.12958583 -0.51834327 0.059715629
0.1307243 -0.55557823 0.073946238
0.13188292 -0.59347308 0.088429168
0.13306227 -0.63204575 0.10317111
0.13426249 -0.67131233 0.11817375
0.13548498 -0.71129602 0.1334548
0.13672994 -0.7520147 0.14901698
0.137998 -0.79348844 0.16486761
0.13928978 -0.83573872 0.18101504
0.14060552 -0.87878442 0.19746163
0.14194684 -0.92265439 0.21422809
0.14331397 -0.96736926 0.23131737
0.14470772 -1.012954 0.24873906
0.12497884 0.44992384 -0.31031892
0.1258243 0.42780265 -0.30186427
0.12668128 0.40538016 -0.29329452
0.12755001 0.38265002 -0.28460729
0.12843074 0.35960609 -0.27580002
0.12932371 0.33624163 -0.26687032
0.13022886 0.31254929 -0.25781882
0.1311471 0.28852364 -0.24863638
0.13207838 0.26415685 -0.2393235
0.13302298 0.23944139 -0.22987759
0.13398086 0.2143694 -0.22029889
0.13495296 0.18893419 -0.21057773
0.13593929 0.1631272 -0.2007145
0.13694014 0.13694015 -0.19070598
0.13795581 0.11036476 -0.18054916
0.13898633 0.08339183 -0.17024408
0.14003271 0.05601304 -0.15978026
0.14109497 0.028219081 -0.14915757
0.14217348 3.7252903e-08 -0.13837261
0.14326821 -0.028653614 -0.1274254
0.14438032 -0.057752077 -0.11630411
0.14550982 -0.087305881 -0.1050091
0.14665715 -0.1173256 -0.093535833
0.14782272 -0.14782268 -0.081880242
0.14900653 -0.1788078 -0.070042089
0.15020989 -0.21029386 -0.05800844
0.15143284 -0.24229252 -0.045778923
0.15267587 -0.27481645 -0.033348665
0.15393947 -0.30787897 -0.020712584
0.15522371 -0.34149212 -0.007870242
0.15653002 -0.37567201 0.0051929355
0.15785851 -0.4104321 0.018477812
0.15920974 -0.44578725 0.031990021
0.1605843 -0.48175287 0.045735613
0.1619823 -0.51834327 0.059715629
0.16340537 -0.55557823 0.073946238
0.16485365 -0.59347308 0.088429168
0.16632785 -0.63204575 0.10317111
0.16782811 -0.67131233 0.11817375
0.16935623 -0.71129602 0.1334548
0.17091243 -0.7520147 0.14901698
0.1724975 -0.79348844 0.16486761
0.17411225 -0.83573872 0.18101504
0.1757569 -0.87878442 0.19746163
0.17743355 -0.92265439 0.21422809
0.17914248 -0.96736926 0.23131737
0.18088466 -1.012954 0.24873906
0.14997461 0.44992384 -0.31031892
0.15098917 0.42780265 -0.30186427
0.15201753 0.40538016 -0.29329452
0.15306 0.38265002 -0.28460729
0.15411687 0.35960609 -0.27580002
0.15518844 0.33624163 -0.26687032
0.15627463 0.31254929 -0.25781882
0.15737653 0.28852364 -0.24863638
0.15849406 0.26415685 -0.2393235
0.15962759 0.23944139 -0.22987759
0.16077703 0.2143694 -0.22029889
0.16194357 0.18893419 -0.21057773
0.16312714 0.1631272 -0.2007145
0.16432816 0.13694015 -0.19070598
0.16554698 0.11036476 -0.18054916
0.16678359 0.08339183 -0.17024408
0.16803925 0.05601304 -0.15978026
0.16931397 0.028219081 -0.14915757
0.17060818 3.7252903e-08 -0.13837261
0.17192185 -0.028653614 -0.1274254
0.17325638 -0.057752077 -0.11630411
0.17461179 -0.087305881 -0.1050091
0.17598858 -0.1173256 -0.093535833
0.17738725 -0.14782268 -0.081880242
0.17880784 -0.1788078 -0.070042089
0.18025187 -0.21029386 -0.05800844
0.18171941 -0.24229252 -0.045778923
0.18321104 -0.27481645 -0.033348665
0.18472737 -0.30787897 -0.020712584
0.18626845 -0.34149212 -0.007870242
0.18783604 -0.37567201 0.0051929355
0.18943021 -0.4104321 0.018477812
0.19105168 -0.44578725 0.031990021
0.19270116 -0.48175287 0.045735613
0.19437875 -0.51834327 0.059715629
0.19608644 -0.55557823 0.073946238
0.19782439 -0.59347308 0.088429168
0.19959342 -0.63204575 0.10317111
0.20139374 -0.67131233 0.11817375
0.20322748 -0.71129602 0.1334548
0.2050949 -0.7520147 0.14901698
0.20699701 -0.79348844 0.16486761
0.20893469 -0.83573872 0.18101504
0.21090828 -0.87878442 0.19746163
0.21292025 -0.92265439 0.21422809
0.21497098 -0.96736926 0.23131737
0.21706158 -1.012954 0.24873906
0.17497039 0.44992384 -0.31031892
0.17615403 0.42780265 -0.30186427
0.1773538 0.40538016 -0.29329452
0.17857 0.38265002 -0.28460729
0.17980303 0.35960609 -0.27580002
0.18105319 0.33624163 -0.26687032
0.1823204 0.31254929 -0.25781882
0.18360594 0.28852364 -0.24863638
0.18490973 0.26415685 -0.2393235
0.18623218 0.23944139 -0.22987759
0.18757319 0.2143694 -0.22029889
0.18893415 0.18893419 -0.21057773
0.19031499 0.1631272 -0.2007145
0.19171618 0.13694015 -0.19070598
0.19313815 0.11036476 -0.18054916
0.19458085 0.08339183 -0.17024408
0.1960458 0.05601304 -0.15978026
0.19753295 0.028219081 -0.14915757
0.19904287 3.7252903e-08 -0.13837261
0.20057549 -0.028653614 -0.1274254
0.20213243 -0.057752077 -0.11630411
0.20371377 -0.087305881 -0.1050091
0.20532002 -0.1173256 -0.093535833
0.2069518 -0.14782268 -0.081880242
0.20860915 -0.1788078 -0.070042089
0.21029384 -0.21029386 -0.05800844
0.21200597 -0.24229252 -0.045778923
0.21374622 -0.27481645 -0.033348665
0.21551526 -0.30787897 -0.020712584
0.2173132 -0.34149212 -0.007870242
0.21914203 -0.37567201 0.0051929355
0.22100191 -0.4104321 0.018477812
0.22289363 -0.44578725 0.031990021
0.22481802 -0.48175287 0.045735613
0.22677523 -0.51834327 0.059715629
0.2287675 -0.55557823 0.073946238
0.23079512 -0.59347308 0.088429168
0.23285899 -0.63204575 0.10317111
0.23495935 -0.67131233 0.11817375
0.23709871 -0.71129602 0.1334548
0.23927739 -0.7520147 0.14901698
0.2414965 -0.79348844 0.16486761
0.24375713 -0.83573872 0.18101504
0.24605967 -0.87878442 0.19746163
0.24840695 -0.92265439 0.21422809
0.25079948 -0.96736926 0.23131737
0.2532385 -1.012954 0.24873906
0.19996616 0.44992384 -0.31031892
0.20131889 0.42780265 -0.30186427
0.20269005 0.40538016 -0.29329452
0.20408002 0.38265002 -0.28460729
0.20548917 0.35960609 -0.27580002
0.20691791 0.33624163 -0.26687032
0.20836617 0.31254929 -0.25781882
0.20983535 0.28852364 -0.24863638
0.21132541 0.26415685 -0.2393235
0.21283677 0.23944139 -0.22987759
0.21436937 0.2143694 -0.22029889
0.21592474 0.18893419 -0.21057773
0.21750286 0.1631272 -0.2007145
0.2191042 0.13694015 -0.19070598
0.22072932 0.11036476 -0.18054916
0.22237812 0.08339183 -0.17024408
0.22405232 0.05601304 -0.15978026
0.22575195 0.028219081 -0.14915757
0.22747755 3.7252903e-08 -0.13837261
0.22922914 -0.028653614 -0.1274254
0.2310085 -0.057752077 -0.11630411
0.23281574 -0.087305881 -0.1050091
0.23465145 -0.1173256 -0.093535833
0.23651634 -0.14782268 -0.081880242
0.23841046 -0.1788078 -0.070042089
0.24033582 -0.21029386 -0.05800844
0.24229255 -0.24229252 -0.045778923
0.2442814 -0.27481645 -0.033348665
0.24630317 -0.30787897 -0.020712584
0.24835794 -0.34149212 -0.007870242
0.25044805 -0.37567201 0.0051929355
0.25257361 -0.4104321 0.018477812
0.25473559 -0.44578725 0.031990021
0.25693488 -0.48175287 0.045735613
0.25917166 -0.51834327 0.059715629
0.26144859 -0.55557823 0.073946238
0.26376584 -0.59347308 0.088429168
0.26612455 -0.63204575 0.10317111
0.26852497 -0.67131233 0.11817375
0.27096996 -0.71129602 0.1334548
0.27345988 -0.7520147 0.14901698
0.275996 -0.79348844 0.16486761
0.27857956 -0.83573872 0.18101504
0.28121105 -0.87878442 0.19746163
0.28389367 -0.92265439 0.21422809
0.28662795 -0.96736926 0.23131737
0.28941545 -1.012954 0.24873906
0.22496194 0.44992384 -0.31031892
0.22648375 0.42780265 -0.30186427
0.22802629 0.40538016 -0.29329452
0.22959 0.38265002 -0.28460729
0.23117532 0.35960609 -0.27580002
0.23278268 0.33624163 -0.26687032
0.23441194 0.31254929 -0.25781882
0.23606478 0.28852364 -0.24863638
0.23774107 0.26415685 -0.2393235
0.23944138 0.23944139 -0.22987759
0.24116553 0.2143694 -0.22029889
0.24291535 0.18893419 -0.21057773
0.24469072 0.1631272 -0.2007145
0.24649224 0.13694015 -0.19070598
0.24832048 0.11036476 -0.18054916
0.25017539 0.08339183 -0.17024408
0.25205889 0.05601304 -0.15978026
0.25397095 0.028219081 -0.14915757
0.25591224 3.7252903e-08 -0.13837261
0.25788277 -0.028653614 -0.1274254
0.25988457 -0.057752077 -0.11630411
0.26191771 -0.087305881 -0.1050091
0.26398289 -0.1173256 -0.093535833
0.26608089 -0.14782268 -0.081880242
0.26821175 -0.1788078 -0.070042089
0.27037781 -0.21029386 -0.05800844
0.27257913 -0.24229252 -0.045778923
0.27481657 -0.27481645 -0.033348665
0.27709106 -0.30787897 -0.020712584
0.27940267 -0.34149212 -0.007870242
