# .PCD v0.7 - Point Cloud Data file format
VERSION 0.7
FIELDS x y z
SIZE 4 4 4
TYPE F F F
COUNT 1 1 1
WIDTH 1366
HEIGHT 1
VIEWPOINT 0 0 0 1 0 0 0
POINTS 1366
DATA ascii
-0.50679529 0.47300887 0.12921011
-0.50447768 0.43721408 0.12148501
-0.50217968 0.40174377 0.11382492
-0.49990404 0.36659634 0.10623951
-0.49764892 0.33176604 0.098722465
-0.49541414 0.29724848 0.09127301
-0.49319774 0.26303881 0.083885051
-0.49100259 0.22913447 0.076567918
-0.48882541 0.19553022 0.069310725
-0.48666894 0.16222306 0.062122475
-0.4845314 0.12920842 0.054997347
-0.48241258 0.096482605 0.047934614
-0.4803108 0.064041436 0.040928423
-0.4782286 0.031881992 0.03398807
-0.4761644 -4.7497451e-08 0.027107362
-0.47411659 -0.031607687 0.020281177
-0.47208765 -0.062945038 0.013518253
-0.47007605 -0.094015211 0.0068127885
-0.4680801 -0.12482139 0.00015963987
-0.46610245 -0.15536751 -0.0064326078
-0.4641414 -0.18565653 -0.012969397
-0.46219543 -0.21569121 -0.019455947
-0.46026707 -0.2454758 -0.025883846
-0.45835474 -0.27501273 -0.032258302
-0.45645687 -0.3043046 -0.038584456
-0.45457599 -0.33335572 -0.044854075
-0.45271054 -0.3621684 -0.051072165
-0.45086035 -0.39074552 -0.057239473
-0.44902393 -0.41908902 -0.063360855
-0.4472037 -0.44720364 -0.069428325
-0.44539693 -0.47508991 -0.075450987
-0.44360593 -0.50275338 -0.081421018
-0.44182923 -0.530195 -0.08734332
-0.44006673 -0.55741781 -0.093218252
-0.438317 -0.58442271 -0.099050552
-0.43658239 -0.61121529 -0.10483277
-0.49444145 0.88293117 0.20575497
-0.49207842 0.84356308 0.19731563
-0.4897379 0.80456936 0.18895647
-0.48741952 0.76594496 0.18067655
-0.48512134 0.72768199 0.1724689
-0.48284638 0.68978059 0.16434398
-0.48059267 0.65223289 0.15629497
-0.47835985 0.6150341 0.14832072
-0.47614616 0.57817751 0.14041463
-0.47395441 0.54166222 0.13258694
-0.47178271 0.50548148 0.12483092
-0.46963084 0.46963078 0.11714554
-0.46749699 0.43410438 0.10952485
-0.46538401 0.39890051 0.10197824
-0.46328995 0.36401349 0.094499573
-0.46121466 0.32943898 0.087087914
-0.45915648 0.29517204 0.079737276
-0.457118 0.26121032 0.072457053
-0.45509756 0.2275487 0.065241016
-0.45309347 0.19418298 0.058083609
-0.45110837 0.16111022 0.050993972
-0.44914055 0.12832594 0.043966107
-0.4471885 0.095826194 0.036994398
-0.44525465 0.063607797 0.030087911
-0.4433375 0.031666983 0.023240909
-0.44143677 1.4901161e-08 0.016452532
-0.43955097 -0.031396527 0.009717539
-0.43768248 -0.062526055 0.0030443817
-0.43582982 -0.093392059 -0.0035722628
-0.43399149 -0.12399746 -0.010137599
-0.43216988 -0.15434633 -0.016643383
-0.43036354 -0.18444151 -0.023094743
-0.42857096 -0.21428546 -0.029496752
-0.4267945 -0.24388251 -0.035841398
-0.42503268 -0.27323523 -0.042133577
-0.42328417 -0.30234569 -0.048378333
-0.42155111 -0.33121869 -0.05456759
-0.41983226 -0.35985619 -0.060706526
-0.41812617 -0.38825998 -0.066799626
-0.41643503 -0.41643503 -0.07283929
-0.41475755 -0.44438303 -0.078830376
-0.41309237 -0.47210556 -0.084777489
-0.41144165 -0.49960768 -0.090672866
-0.40980408 -0.52689087 -0.096521378
-0.40817946 -0.55395782 -0.10232352
-0.40656662 -0.58080935 -0.10808381
-0.40496752 -0.6074512 -0.11379483
-0.4578802 0.91576046 0.20097044
-0.45569783 0.876342 0.19257653
-0.45353615 0.83729744 0.18426234
-0.45139489 0.79862171 0.17602673
-0.44927225 0.76030684 0.16786268
-0.44717094 0.7223531 0.15978095
-0.44508922 0.68475276 0.15177438
-0.44302681 0.64750075 0.14384183
-0.44098195 0.61059046 0.13597718
-0.4389573 0.5740211 0.1281901
-0.43695122 0.53778613 0.12047417
-0.43496335 0.50188076 0.11282855
-0.4329921 0.46629921 0.10524693
-0.43104005 0.43104008 0.097738892
-0.42910546 0.39609736 0.090298206
-0.42718816 0.36146688 0.082924113
-0.42528796 0.32714465 0.07561551
-0.42340323 0.29312527 0.068366624
-0.42153648 0.25940704 0.061186686
-0.41968605 0.22598475 0.054069869
-0.41785061 0.1928542 0.047010288
-0.41603234 0.16001245 0.040017035
-0.4142299 0.12745535 0.033084422
-0.4124417 0.09517891 0.026206918
-0.41067013 0.063180029 0.019393168
-0.4089137 0.03145498 0.012637744
-0.40717104 -6.8917871e-08 0.0059351246
-0.40544435 -0.031188 -0.00070590246
-0.4037323 -0.06211254 -0.0072909333
-0.40203458 -0.0927772 -0.013820574
-0.40034994 -0.12318455 -0.020299986
-0.39868048 -0.1533386 -0.026720852
-0.3970238 -0.18324167 -0.033092812
-0.3953819 -0.2128979 -0.039407715
-0.39375359 -0.24230981 -0.045670487
-0.39213863 -0.27148062 -0.051881902
-0.39053571 -0.30041206 -0.058046907
-0.38894698 -0.32910895 -0.064157456
-0.38737109 -0.35757321 -0.070218459
-0.38580686 -0.38580686 -0.076234743
-0.38425627 -0.41381443 -0.082198545
-0.38271812 -0.44159782 -0.088114589
-0.38119116 -0.46915835 -0.09398745
-0.37967741 -0.49650121 -0.099809676
-0.37817559 -0.52362776 -0.10558581
-0.37668461 -0.55053902 -0.11132044
-0.37520635 -0.57724047 -0.11700603
-0.37373963 -0.60373324 -0.12264721
-0.41951287 0.90894461 0.18786302
-0.41752818 0.8698504 0.17959344
-0.41556215 0.83112442 0.17140165
-0.41361323 0.79275864 0.16328099
-0.41168383 0.75475371 0.15524185
-0.40977234 0.71710157 0.14727741
-0.40787852 0.67979753 0.13938636
-0.4060021 0.64283669 0.13156816
-0.40414163 0.60621238 0.12381604
-0.40229937 0.56992412 0.11613998
-0.40047383 0.53396511 0.10853367
-0.3986648 0.4983311 0.10099611
-0.39687082 0.463016 0.093521044
-0.39509413 0.42801866 0.086118057
-0.39333326 0.39333326 0.078781113
-0.391588 0.35895568 0.071509257
-0.38985699 0.3248809 0.064296693
-0.38814238 0.29110682 0.057152629
-0.38644281 0.2576285 0.050070949
-0.38475806 0.22444224 0.04305122
-0.38308677 0.19154343 0.036087528
-0.38143107 0.15892959 0.029188767
-0.37978965 0.12659666 0.022349447
-0.37816113 0.094540291 0.015564051
-0.37654766 0.062757939 0.0088412166
-0.37494788 0.031245653 0.0021755472
-0.37336057 7.1479008e-08 -0.00443841
-0.37178773 -0.030982243 -0.010991861
-0.37022805 -0.061704636 -0.017490417
-0.36868036 -0.092170119 -0.023939207
-0.36714661 -0.12238216 -0.030329861
-0.36562556 -0.15234396 -0.036667518
-0.36411604 -0.18205801 -0.042957261
-0.36261994 -0.21152827 -0.049190946
-0.36113611 -0.24075726 -0.055373631
-0.35966334 -0.2697475 -0.061510086
-0.35820353 -0.29850304 -0.067592591
-0.35675555 -0.32702577 -0.073625892
-0.3553192 -0.3553192 -0.079610601
-0.35389343 -0.38338453 -0.085551396
-0.35247999 -0.41122663 -0.091440722
-0.35107782 -0.43884724 -0.097283065
-0.34968579 -0.46624762 -0.10308328
-0.34830573 -0.49343306 -0.10883351
-0.34693646 -0.5204047 -0.11453862
-0.34557703 -0.54716361 -0.12020303
-0.34422913 -0.57371521 -0.12581921
-0.34289172 -0.6000604 -0.13139191
-0.34156373 -0.62620008 -0.13692519
-0.38171247 0.90222949 0.17494932
-0.37991989 0.86345434 0.16680124
-0.3781428 0.82503897 0.15872368
-0.37638351 0.78698361 0.15072677
-0.37464049 0.74928117 0.14280412
-0.37291357 0.71192592 0.13495427
-0.37120247 0.67491364 0.12717658
-0.36950585 0.63823742 0.1194647
-0.36782581 0.60189682 0.11182821
-0.36616099 0.56588519 0.10426076
-0.36451116 0.5301981 0.096761569
-0.36287501 0.4948296 0.089324549
-0.3612546 0.45977867 0.081959113
-0.35964862 0.42503923 0.074659064
-0.35805681 0.39060748 0.067423716
-0.35647798 0.35647801 0.060247123
-0.3549141 0.32264915 0.053138375
-0.35336384 0.28911585 0.046091869
-0.35182709 0.25587428 0.039106652
-0.35030362 0.22292048 0.032181881
-0.34879228 0.1902504 0.025312118
-0.34729496 0.1578614 0.018506072
-0.34581041 0.12574936 0.01175816
-0.34433749 0.093910232 0.0050630569
-0.34287807 0.0623415 -0.0015705973
-0.34143099 0.031039203 -0.0081483731
-0.33999506 1.15484e-07 -0.014675196
-0.33857217 -0.030779224 -0.021143038
-0.33716109 -0.061301962 -0.027556911
-0.3357608 -0.091571093 -0.033921935
-0.33437303 -0.12159018 -0.040229835
-0.3329967 -0.15136199 -0.046485968
-0.33163071 -0.18088943 -0.052695028
-0.33027679 -0.21017613 -0.058849178
-0.32893389 -0.23922467 -0.064953201
-0.32760096 -0.26803723 -0.071012005
-0.3262797 -0.29661787 -0.07701771
-0.32496908 -0.32496905 -0.082975224
-0.323668 -0.35309225 -0.088889092
-0.32237822 -0.38099244 -0.094751775
-0.32109866 -0.40867099 -0.100568
-0.31982923 -0.43613076 -0.10633816
-0.31856892 -0.46337289 -0.11206684
-0.31731936 -0.49040258 -0.11774658
-0.31607959 -0.51722103 -0.12338202
-0.3148486 -0.54382938 -0.12897739
-0.31362802 -0.57023269 -0.13452551
-0.31241685 -0.59643203 -0.14003086
-0.31121418 -0.6224283 -0.14549747
-0.34446648 0.89561284 0.16222507
-0.34285951 0.85714871 0.15419012
-0.34126854 0.81904459 0.14623532
-0.33969229 0.78129232 0.13835412
-0.3381305 0.74388713 0.13054523
-0.33658305 0.7068243 0.12280777
-0.33504862 0.67009729 0.1151357
-0.33352914 0.63370544 0.1075384
-0.33202341 0.59764218 0.10000965
-0.33053121 0.56190306 0.092548713
-0.32905132 0.52648216 0.085149363
-0.32758567 0.49137849 0.077820972
-0.32613301 0.45658624 0.070557669
-0.32469317 0.42210108 0.063358456
-0.32326499 0.387918 0.056217611
-0.3218503 0.35403538 0.049144194
-0.32044795 0.32044798 0.042132378
-0.31905776 0.28715205 0.035181493
-0.31767958 0.25414366 0.028290614
-0.31631234 0.22141871 0.021454334
-0.31495771 0.18897475 0.014681213
-0.31361467 0.15680739 0.0079659149
-0.31228209 0.12491291 0.0013029911
-0.31096169 0.093288571 -0.0052987523
-0.30965245 0.061930545 -0.01184513
-0.30835417 0.030835401 -0.01833665
-0.30706581 1.1827797e-07 -0.024778269
-0.30578908 -0.030578932 -0.031161971
-0.3045229 -0.0609046 -0.0374927
-0.30326635 -0.090979964 -0.043775667
-0.30202094 -0.12080833 -0.050002661
-0.30078572 -0.1503928 -0.056178734
-0.29955971 -0.17973581 -0.062308714
-0.29834452 -0.20884119 -0.06838464
-0.29713914 -0.23771131 -0.074411631
-0.29594263 -0.26634839 -0.080394074
-0.29475656 -0.29475647 -0.086324625
-0.29357994 -0.32293785 -0.092207745
-0.29241186 -0.35089421 -0.098048106
-0.29125383 -0.37862992 -0.10383812
-0.29010499 -0.40614682 -0.10958251
-0.28896433 -0.43344647 -0.11528566
-0.28783339 -0.4605335 -0.12094022
-0.28671131 -0.4874092 -0.12655079
-0.28559715 -0.51407486 -0.13212159
-0.28449237 -0.54053539 -0.13764548
-0.28339615 -0.56679219 -0.14312668
-0.28230754 -0.5928458 -0.14856969
-0.28122804 -0.61870158 -0.15396719
-0.30776182 0.8890897 0.14968041
-0.30633745 0.85093743 0.14176747
-0.30492625 0.8131367 0.13392729
-0.30352795 0.77568251 0.12615898
-0.30214241 0.73857039 0.11846161
-0.30076852 0.70179331 0.11082906
-0.29940805 0.66535115 0.10327056
-0.29805979 0.62923729 0.095780283
-0.29672363 0.59344727 0.088357151
-0.29539937 0.5579766 0.081000283
-0.29408601 0.52281952 0.073703751
-0.29278514 0.4879753 0.066476822
-0.29149577 0.45343786 0.059313565
-0.2902177 0.41920328 0.052213043
-0.28894988 0.38526654 0.045169666
-0.28769398 0.35162598 0.038192436
-0.28644893 0.31827658 0.031275511
-0.28521463 0.28521472 0.024418309
-0.28399006 0.25243565 0.017615192
-0.28277683 0.21993759 0.010874905
-0.28157389 0.18771596 0.00419195
-0.28038114 0.15576735 -0.0024343506
-0.27919766 0.12408788 -0.0090092979
-0.27802491 0.09267506 -0.015524469
-0.276862 0.061524905 -0.021985218
-0.27570796 0.030634308 -0.028396424
-0.2745643 7.4505806e-09 -0.034750089
-0.27343008 -0.030381165 -0.041051351
-0.27230442 -0.060512107 -0.047304939
-0.27118877 -0.090396188 -0.053503081
-0.27008224 -0.12003651 -0.059650637
-0.26898465 -0.14943585 -0.065748081
-0.26789522 -0.17859684 -0.0718005
-0.26681536 -0.20752299 -0.077799931
-0.26574412 -0.23621699 -0.08375106
-0.26468074 -0.26468071 -0.089658871
-0.26362655 -0.29291832 -0.09551537
-0.26258075 -0.32093197 -0.10132546
-0.26154247 -0.34872323 -0.10709365
-0.2605131 -0.37629667 -0.11281234
-0.25949177 -0.4036538 -0.11848634
-0.25847775 -0.43079621 -0.12411986
-0.25747231 -0.45772851 -0.12970568
-0.25647464 -0.4844521 -0.13524817
-0.25548401 -0.51096797 -0.1407517
-0.2545017 -0.53728133 -0.14620906
-0.25352687 -0.56339294 -0.15162477
-0.25255883 -0.58930397 -0.15700261
-0.25159883 -0.61501932 -0.16233605
-0.2728492 0.92086601 0.14520007
-0.27158883 0.88266373 0.1373229
-0.27034095 0.84481543 0.12952349
-0.26910445 0.80731338 0.12179551
-0.26787922 0.77015275 0.11413774
-0.26666427 0.73332679 0.10654426
-0.26546112 0.69683546 0.099024594
-0.26426876 0.66067195 0.091572434
-0.26308709 0.6248318 0.084186822
-0.26191592 0.58931077 0.076867074
-0.26075435 0.5541029 0.069607168
-0.2596038 0.51920766 0.06241636
-0.25846335 0.48461884 0.055288672
-0.25733292 0.45033264 0.048223406
-0.25621155 0.41634375 0.041214764
-0.25510067 0.38265106 0.034271777
-0.25399938 0.34924915 0.027388692
-0.25290754 0.31613451 0.020564795
-0.25182435 0.28330237 0.013794705
-0.25075111 0.25075117 0.0070870146
-0.24968697 0.21847612 0.00043612719
-0.24863183 0.18647383 -0.0061584935
-0.24758555 0.154741 -0.012697481
-0.24654736 0.12327363 -0.019186363
-0.24551854 0.092069492 -0.025616435
-0.24449827 0.061124586 -0.031993225
-0.24348575 0.03043572 -0.03832154
-0.24248224 5.5879354e-08 -0.044593256
-0.24148701 -0.030185912 -0.050813541
-0.24049923 -0.060124792 -0.056987226
-0.23952016 -0.089820027 -0.063106462
-0.23854902 -0.11927449 -0.069176018
-0.23758507 -0.1484907 -0.075200632
-0.23662955 -0.17747216 -0.081172727
-0.23568167 -0.20622143 -0.08709687
-0.2347407 -0.23474067 -0.092977971
-0.23380788 -0.26303381 -0.098808125
-0.23288243 -0.29110301 -0.10459226
-0.23196426 -0.31895083 -0.11033077
-0.23105271 -0.34657896 -0.11602799
-0.2301489 -0.37399194 -0.12167673
-0.22925213 -0.40119117 -0.12728161
-0.2283617 -0.42817819 -0.13284673
-0.2274788 -0.45495749 -0.13836491
-0.22660267 -0.48153061 -0.14384064
-0.22573267 -0.50789845 -0.14927815
-0.22486992 -0.53406602 -0.15467033
-0.22401375 -0.56003439 -0.16002141
-0.22316349 -0.5858041 -0.1653356
-0.22232023 -0.61138058 -0.1706059
-0.23702124 0.91422486 0.13290146
-0.23593499 0.8763299 0.12514246
-0.23485865 0.83878088 0.11745438
-0.2337921 0.80157292 0.10983625
-0.23273446 0.76469886 0.10228154
-0.23168705 0.72815931 0.094800144
-0.23064904 0.6919471 0.087385744
-0.22962029 0.65605795 0.080037564
-0.22860068 0.62048751 0.072754532
-0.22758937 0.58522981 0.065530986
-0.22658768 0.55028445 0.058376163
-0.22559476 0.51564521 0.051283792
-0.22461051 0.48130819 0.044253394
-0.22363414 0.44726825 0.037279233
-0.22266687 0.41352421 0.03037028
-0.22170794 0.38007078 0.023520797
-0.22075725 0.34690431 0.0167301
-0.21981402 0.31402004 0.0099926889
-0.21887945 0.28141648 0.0033173114
-0.2179528 0.24908894 -0.0033016801
-0.21703395 0.21703395 -0.0098648518
-0.21612285 0.18524823 -0.01637283
-0.21521871 0.15372767 -0.022830933
-0.21432275 0.1224702 -0.029230736
-0.21343419 0.091471821 -0.035577446
-0.21255298 0.060729481 -0.041871745
-0.2116784 0.030239806 -0.048118748
-0.2108116 2.7939677e-08 -0.05431024
-0.20995186 -0.029993076 -0.06045115
-0.20909853 -0.059742402 -0.066546395
-0.20825268 -0.089251146 -0.072588161
-0.20741367 -0.11852215 -0.078581244
-0.2065808 -0.14755774 -0.084530272
-0.20575516 -0.17636158 -0.090427712
-0.20493609 -0.20493607 -0.096278124
-0.20412296 -0.23328331 -0.10208615
-0.20331681 -0.26140732 -0.10784437
-0.202517 -0.28930998 -0.1135572
-0.20172293 -0.31699312 -0.11922931
-0.20093559 -0.34446102 -0.1248532
-0.20015439 -0.37171519 -0.13043325
-0.19937868 -0.39875728 -0.13597405
-0.1986095 -0.42559177 -0.14146805
-0.19784623 -0.45221996 -0.14692003
-0.19708881 -0.47864419 -0.15233019
-0.19633664 -0.50486559 -0.15770283
-0.19559072 -0.53088909 -0.16303082
-0.19485043 -0.55671555 -0.16831857
-0.19411522 -0.5823456 -0.17357008
-0.19338605 -0.60778469 -0.17877842
-0.20170699 0.90768158 0.12078434
-0.20078918 0.87008643 0.11313576
-0.19987966 0.83283204 0.1055567
-0.19897775 0.79591107 0.09804073
-0.19808456 0.75932419 0.090597272
-0.19719933 0.72306418 0.083220303
-0.19632198 0.68712699 0.075909168
-0.19545241 0.65150797 0.068662763
-0.19458991 0.61620134 0.061475188
-0.19373558 0.5812068 0.054355919
-0.19288874 0.54651803 0.04729864
-0.19204925 0.51213139 0.040303022
-0.19121704 0.47804257 0.033367887
-0.19039142 0.44424677 0.026487902
-0.1895735 0.41074258 0.019671798
-0.18876256 0.37752515 0.012913898
-0.18795851 0.34459066 0.0062137097
-0.18716075 0.31193465 -0.00043438375
-0.18637028 0.2795555 -0.007021606
-0.18558647 0.24744865 -0.01355356
-0.18480921 0.21561083 -0.020030633
-0.18403789 0.18403792 -0.026458181
-0.18327352 0.15272802 -0.032827877
-0.18251549 0.12167697 -0.039145041
-0.18176368 0.090881839 -0.045410011
-0.18101805 0.060339369 -0.051623579
-0.180278 0.030046402 -0.057790589
-0.17954448 -0 -0.063903309
-0.17881691 -0.029802823 -0.069966398
-0.17809471 -0.059364852 -0.075984709
-0.17737882 -0.08868935 -0.08195053
-0.17666867 -0.1177791 -0.087868556
-0.17596368 -0.14663631 -0.093743339
-0.17526478 -0.17526481 -0.099567473
-0.17457141 -0.20366663 -0.10534552
-0.17388304 -0.23184401 -0.11108204
-0.17320053 -0.25980082 -0.11676949
-0.17252338 -0.28753889 -0.12241256
-0.17185102 -0.31506017 -0.12801549
-0.17118435 -0.34236863 -0.13357106
-0.17052282 -0.36946613 -0.13908373
-0.16986597 -0.39635381 -0.14455783
-0.16921456 -0.42303637 -0.14998592
-0.16856816 -0.44951504 -0.15537268
-0.16792622 -0.47579092 -0.16072217
-0.1672896 -0.50186878 -0.16602735
-0.16665779 -0.52774954 -0.1712925
-0.16603073 -0.55343568 -0.17651799
-0.16540793 -0.57892776 -0.18170792
-0.16479023 -0.60423076 -0.18685548
-0.16689467 0.90123117 0.1088393
-0.16614063 0.86393124 0.10129893
-0.16539337 0.82696688 0.093826413
-0.16465229 0.79033101 0.086415559
-0.16391833 0.75402433 0.079076052
-0.1631909 0.71803999 0.071801543
-0.16246988 0.68237346 0.064591408
-0.16175471 0.64701897 0.057439774
-0.1610463 0.61197597 0.050355643
-0.16034406 0.57723862 0.043333232
-0.15964793 0.54280305 0.036372036
-0.15895781 0.50866508 0.029470876
-0.15827318 0.47481957 0.022624344
-0.15759486 0.44126558 0.01584129
-0.15692234 0.40799814 0.009116143
-0.15625554 0.37501341 0.0024481267
-0.15559393 0.34230661 -0.004168123
-0.15493836 0.30987677 -0.010723874
-0.15428826 0.2777189 -0.017224714
-0.15364362 0.24582976 -0.02367121
-0.15300389 0.21420543 -0.030068569
-0.1523699 0.18284398 -0.036408253
-0.15174115 0.15174116 -0.042695876
-0.15111756 0.12089403 -0.048931718
-0.15049909 0.090299532 -0.055116449
-0.14988522 0.059954092 -0.061255038
-0.14927678 0.029855371 -0.067339614
-0.14867324 7.8231096e-08 -0.073374912
-0.14807457 -0.029614851 -0.079361752
-0.14748028 -0.058992058 -0.085304454
-0.14689116 -0.088134654 -0.091195777
-0.14630632 -0.11704494 -0.097044125
-0.14572653 -0.14572641 -0.10284208
-0.1451513 -0.17418154 -0.10859427
-0.1445806 -0.20241281 -0.11430131
-0.14401399 -0.23042236 -0.11996757
-0.14345217 -0.25821385 -0.12558568
-0.14289473 -0.28578937 -0.13116005
-0.14234121 -0.31315064 -0.13669509
-0.14179236 -0.3403016 -0.14218377
-0.14124772 -0.36724406 -0.14763011
-0.14070688 -0.39397919 -0.15303868
-0.14017053 -0.42051148 -0.15840216
-0.13963825 -0.44684237 -0.16372488
-0.13910964 -0.47297263 -0.1690111
-0.13858536 -0.49890733 -0.17425367
-0.13806504 -0.52464706 -0.17945696
-0.13754824 -0.55019289 -0.18462496
-0.13703567 -0.57554972 -0.18975075
-0.13652688 -0.60071826 -0.19483852
-0.13602151 -0.62569892 -0.19989215
-0.13257362 0.89487195 0.097062945
-0.13197885 0.85786253 0.089628369
-0.13138899 0.82118118 0.082255036
-0.13080478 0.78482872 0.074952513
-0.13022575 0.74879807 0.067714512
-0.12965181 0.71308494 0.060540318
-0.12908253 0.67768329 0.05342418
-0.1285186 0.64259303 0.046375185
-0.12795958 0.60780805 0.039387405
-0.12740541 0.57332438 0.032460243
-0.12685601 0.53913808 0.025592834
-0.12631096 0.50524378 0.018779561
-0.12577094 0.47164106 0.012029409
-0.12523551 0.43832433 0.0053365678
-0.12470464 0.40529007 -0.001299426
-0.12417787 0.37253365 -0.0078838766
-0.12365591 0.34005374 -0.014408529
-0.1231383 0.30784574 -0.020878583
-0.12262502 0.27590632 -0.027294584
-0.12211565 0.2442313 -0.033661753
-0.12161084 0.21281901 -0.03997191
-0.12111018 0.1816652 -0.04623016
-0.12061362 0.15076703 -0.052437086
-0.12012113 0.12012111 -0.058593195
-0.1196323 0.08972431 -0.064703532
-0.11914777 0.059573926 -0.07076022
-0.11866716 0.029666863 -0.076768011
-0.11819039 8.9406967e-08 -0.082727432
-0.11771712 -0.029429251 -0.088643424
-0.11724795 -0.058623858 -0.094507977
-0.11678251 -0.087586828 -0.10032614
-0.11632042 -0.1163203 -0.10610206
-0.1158623 -0.14482784 -0.11182871
-0.11540776 -0.17311153 -0.11751034
-0.11495679 -0.20117427 -0.12314758
-0.114509 -0.22901794 -0.1287448
-0.11406501 -0.25664622 -0.1342947
-0.11362445 -0.28406104 -0.1398018
-0.11318696 -0.3112641 -0.14527023
-0.11275315 -0.3382594 -0.15069295
-0.11232264 -0.36504853 -0.15607435
-0.11189511 -0.39163285 -0.16141853
-0.11147112 -0.41801661 -0.16671847
-0.11105032 -0.44420129 -0.17197831
-0.1106324 -0.47018769 -0.17720233
-0.11021791 -0.4959805 -0.18238357
-0.1098065 -0.52158087 -0.18752608
-0.10939788 -0.54698932 -0.1926339
-0.10899256 -0.57221097 -0.19770028
-0.10859024 -0.59724629 -0.20272933
-0.1081906 -0.62209588 -0.20772487
-0.098733544 0.88860184 0.085451573
-0.098293371 0.8518759 0.078115493
-0.097857416 0.81547844 0.070849538
-0.097425312 0.77940249 0.063647866
-0.096997008 0.74364364 0.056509286
-0.096572153 0.70819575 0.049428463
-0.096151292 0.67305911 0.042414159
-0.09573409 0.63822728 0.03546083
-0.095320493 0.60369653 0.028567672
-0.094910458 0.56946278 0.021733642
-0.094503649 0.53552073 0.014953494
-0.094100595 0.50186986 0.0082358271
-0.09370096 0.46850485 0.0015753359
-0.093304709 0.43542206 -0.0050288737
-0.092911519 0.40261662 -0.011582062
-0.092521898 0.37008768 -0.0180756
-0.092135541 0.33783025 -0.024515122
-0.091752388 0.3058413 -0.030900955
-0.091372408 0.27411723 -0.037233867
-0.090995304 0.24265417 -0.04351896
-0.090621561 0.21145034 -0.049748048
-0.090250872 0.18050179 -0.055926144
-0.089883201 0.14980546 -0.062053889
-0.089518264 0.11935775 -0.068136185
-0.089156531 0.089156546 -0.074165098
-0.088797711 0.059198573 -0.080145493
-0.088441759 0.029480664 -0.086077958
-0.088088661 2.9802322e-08 -0.091963068
-0.087738127 -0.029246051 -0.097805247
-0.087390602 -0.058260471 -0.10359729
-0.087045826 -0.087045774 -0.1093436
-0.086703524 -0.11560469 -0.11504859
-0.086364135 -0.14394021 -0.12070505
-0.086027399 -0.17205481 -0.12631735
-0.085693039 -0.19995035 -0.13188998
-0.085361503 -0.22763059 -0.13741568
-0.085032515 -0.25509751 -0.14289868
-0.084705837 -0.28235281 -0.14834332
-0.084381886 -0.3094002 -0.15374264
-0.084060393 -0.33624151 -0.15910077
-0.083741345 -0.36287913 -0.16441825
-0.083424486 -0.38931423 -0.16969921
-0.083110236 -0.41555113 -0.17493668
-0.082798138 -0.44158998 -0.1801385
-0.082488582 -0.46743527 -0.18529771
-0.082181327 -0.49308783 -0.19041862
-0.08187636 -0.51855022 -0.19550136
-0.081573434 -0.54382282 -0.20055011
-0.081272952 -0.56891072 -0.20555808
-0.080974676 -0.59381425 -0.2105294
-0.080678374 -0.61853409 -0.21546778
-0.065656133 0.91918588 0.081295997
-0.065364167 0.88241625 0.073996782
-0.06507498 0.84597492 0.066767365
-0.064788349 0.80985439 0.059601367
-0.064504236 0.77405077 0.05249837
-0.064222597 0.7385599 0.045457453
-0.063943207 0.70337528 0.038472831
-0.063666433 0.66849756 0.031553596
-0.063392058 0.63392055 0.024693936
-0.063120022 0.59964013 0.017893076
-0.062850125 0.56565118 0.01114586
-0.062582716 0.53195316 0.0044606328
-0.062317576 0.49854064 -0.0021679699
-0.062054671 0.46541002 -0.0087406784
-0.061793789 0.43255651 -0.015262604
-0.061535276 0.39997935 -0.021725401
-0.061278917 0.36767352 -0.028134465
-0.061024684 0.33563575 -0.034490362
-0.060772549 0.30386278 -0.040793642
-0.060522322 0.27235043 -0.047049426
-0.06027431 0.24109735 -0.053249575
-0.060028329 0.21009915 -0.05939915
-0.059784342 0.17935304 -0.065498747
-0.059542172 0.14885543 -0.071553111
-0.059302114 0.11860423 -0.077554472
-0.059063982 0.088596046 -0.083507754
-0.058827765 0.05882781 -0.089413323
-0.058593422 0.02929673 -0.095271766
-0.058360785 4.0978193e-08 -0.10108776
-0.058130138 -0.029065013 -0.10685389
-0.057901312 -0.057901286 -0.1125745
-0.057674281 -0.086511448 -0.11825038
-0.057448868 -0.11489767 -0.12388569
-0.057225361 -0.14306337 -0.12947327
-0.057003587 -0.17101072 -0.13501765
-0.056783378 -0.1987417 -0.14052293
-0.056565013 -0.22626001 -0.14598207
-0.056348316 -0.25356743 -0.15139937
-0.056133129 -0.28066558 -0.15677908
-0.055919725 -0.30755839 -0.1621142
-0.055707935 -0.33424762 -0.16740885
-0.055497609 -0.3607344 -0.17266719
-0.055288997 -0.38702297 -0.17788231
-0.055081952 -0.41311455 -0.1830585
-0.054876313 -0.43901044 -0.18819956
-0.054672342 -0.46471477 -0.19329889
-0.05446988 -0.49022889 -0.19836038
-0.054268911 -0.51555461 -0.20338458
-0.054069284 -0.54069281 -0.20837519
-0.053871259 -0.56564814 -0.21332593
-0.053674679 -0.59042132 -0.21824044
-0.053479392 -0.61501288 -0.22312266
-0.032600123 0.91280347 0.069898814
-0.032456253 0.87631881 0.062705308
-0.032313652 0.84015495 0.055575132
-0.032172296 0.80430734 0.048507392
-0.032032169 0.76877213 0.041501135
-0.031893164 0.7335428 0.034550875
-0.031755455 0.69862008 0.027665466
-0.03161893 0.66399753 0.020839185
-0.031483576 0.62967145 0.014071405
-0.031349279 0.59563625 0.0073565841
-0.031216215 0.56189191 0.00070348382
-0.031084279 0.52843279 -0.0058934391
-0.030953454 0.49525529 -0.012434676
-0.030823722 0.46235585 -0.018921241
-0.030694986 0.42972988 -0.025357962
-0.030567411 0.39737639 -0.031736806
-0.030440889 0.3652907 -0.038062945
-0.030315412 0.33346957 -0.044336841
-0.030190878 0.30190885 -0.050563477
-0.030067448 0.27060705 -0.056734949
-0.029945023 0.23956025 -0.062856175
-0.029823592 0.20876522 -0.068927713
-0.029703058 0.17821836 -0.074954391
-0.029583577 0.14791793 -0.080928519
-0.029465053 0.11786019 -0.086854652
-0.029347476 0.088042527 -0.092733473
-0.029230833 0.058461718 -0.098565698
-0.029115034 0.029115099 -0.1043556
-0.029000228 5.2154064e-08 -0.11009593
-0.028886322 -0.028886221 -0.11579117
-0.028773312 -0.057546511 -0.12144177
-0.028661177 -0.08598344 -0.12704843
-0.028549841 -0.1141993 -0.13261533
-0.02843944 -0.14219713 -0.13813536
-0.02832989 -0.16997927 -0.14361288
-0.028221106 -0.19754772 -0.14905207
-0.028113227 -0.2249058 -0.15444595
-0.028006172 -0.25205556 -0.15979877
-0.027899854 -0.27899849 -0.16511464
-0.027794413 -0.30573848 -0.1703867
-0.027689768 -0.33227724 -0.17561895
-0.027585836 -0.35861582 -0.18081561
-0.02748275 -0.38475847 -0.18596977
-0.027380435 -0.41070646 -0.19108564
-0.027278805 -0.43646085 -0.19616705
-0.027177999 -0.46202594 -0.20120737
-0.027077936 -0.48740274 -0.20621063
-0.026978534 -0.51259208 -0.21118058
-0.026879931 -0.53759861 -0.21611077
-0.026782047 -0.56242287 -0.22100502
-0.026684806 -0.5870657 -0.22586717
-0.026588332 -0.61153156 -0.23069076
0 0.90651178 0.058663636
0 0.87030518 0.051568836
0 0.8344146 0.044536084
0 0.79883581 0.037564218
0 0.76356268 0.030648082
0 0.72859561 0.023796082
0 0.6939286 0.01700303
0 0.6595577 0.010267973
0 0.62547719 0.003585577
0 0.59168732 -0.0030356348
0 0.55818224 -0.009600997
0 0.52495873 -0.016111165
0 0.49201292 -0.022567019
0 0.45934021 -0.02897346
0 0.42693979 -0.035322368
0 0.39480704 -0.041618809
0 0.36293858 -0.047863469
0 0.33133018 -0.054061234
0 0.29998067 -0.0602042
0 0.26888582 -0.066297315
0 0.23804265 -0.072341017
0 0.20744805 -0.078336105
0 0.17709848 -0.084287062
0 0.14699209 -0.090186462
0 0.11712547 -0.096038811
0 0.087495789 -0.10184475
0 0.058099937 -0.10760888
0 0.028935712 -0.11332362
0 3.7252903e-08 -0.11899355
0 -0.028709717 -0.12461926
0 -0.057196181 -0.13020113
0 -0.085461855 -0.13574363
0 -0.11350938 -0.14123961
0 -0.14134137 -0.14669317
0 -0.16895978 -0.15210885
0 -0.19636783 -0.15747947
0 -0.22356772 -0.16280916
0 -0.25056088 -0.16810223
0 -0.27735108 -0.17335182
0 -0.30393994 -0.17856185
0 -0.33032978 -0.18373287
0 -0.35652193 -0.18886891
0 -0.38252032 -0.1939632
0 -0.40832618 -0.19901976
0 -0.43394068 -0.20404252
0 -0.45936796 -0.20902497
0 -0.48460907 -0.21397094
0 -0.50966483 -0.2188841
0 -0.53453958 -0.22375825
0 -0.55923426 -0.22859709
0 -0.58374918 -0.23340435
0 -0.60808945 -0.23817366
0.032153796 0.90030622 0.047582358
0.03201383 0.86437345 0.040584236
0.031875078 0.82875204 0.033646673
0.031737432 0.79343575 0.026764184
0.03160106 0.75842559 0.019945711
0.031465858 0.72371477 0.013185531
0.031331807 0.68929982 0.0064829886
0.031198893 0.65517676 -0.00016272068
0.03106701 0.62134027 -0.0067568123
0.030936329 0.58779019 -0.013290972
0.030806743 0.55452138 -0.019770265
0.030678237 0.52153003 -0.026195571
0.030550709 0.48881137 -0.032571912
0.030424329 0.45636487 -0.038891107
0.030298986 0.42418581 -0.045158118
0.030174673 0.39227074 -0.05137375
0.030051289 0.36061549 -0.057542905
0.029928997 0.32921898 -0.063657582
0.029807696 0.29807702 -0.069722638
0.029687371 0.26718634 -0.075738758
0.029568018 0.23654416 -0.081706479
0.029449537 0.20614673 -0.08763063
0.029332081 0.1759925 -0.093503252
0.029215561 0.14607784 -0.099329248
0.029099964 0.11639984 -0.10510925
0.028985195 0.08695557 -0.11084766
0.02887141 0.057742815 -0.1165369
0.028758513 0.028758548 -0.12218176
0.028646497 7.4505806e-09 -0.12778252
0.028535347 -0.028535251 -0.13333994
0.028424982 -0.056849953 -0.13885824
0.028315544 -0.084946543 -0.14433014
0.028206944 -0.11282776 -0.14976019
0.028099176 -0.14049584 -0.1551486
0.02799215 -0.16795284 -0.16049983
0.027886014 -0.19520202 -0.16580674
0.027780676 -0.22224537 -0.17107345
0.027676065 -0.24908449 -0.17630421
0.027572304 -0.27572307 -0.18149213
0.027469322 -0.30216253 -0.18664126
0.027367031 -0.32840431 -0.19175565
0.027265575 -0.35445249 -0.19682863
0.027164865 -0.38030815 -0.20186406
0.027064899 -0.4059734 -0.20686245
0.026965596 -0.43144944 -0.21182765
0.026867086 -0.45674035 -0.21675313
0.026769293 -0.48184723 -0.22164264
0.026672142 -0.50677067 -0.22650023
0.026575763 -0.53151518 -0.23131925
0.026480075 -0.55608153 -0.23610352
0.026385011 -0.58047014 -0.2408569
0.026290691 -0.60468578 -0.24557287
0.063870363 0.89418513 0.036651731
0.063594222 0.85852206 0.029748231
0.063320264 0.82316357 0.022899449
0.063048854 0.78811073 0.016113997
0.062779754 0.75335717 0.0093865097
0.062512942 0.71889883 0.0027161539
0.062248386 0.68473232 -0.0038976967
0.061985876 0.65085179 -0.010460407
0.061725758 0.61725765 -0.016963333
0.061467811 0.58394426 -0.023412019
0.061212011 0.55090809 -0.029807031
0.060958154 0.51814437 -0.036153421
0.060706571 0.48565257 -0.042443141
0.060457055 0.45342797 -0.048680961
0.060209583 0.4214671 -0.054867804
0.059963956 0.38976571 -0.061008483
0.059720498 0.35832304 -0.067094952
0.059479006 0.32713455 -0.073132329
0.059239455 0.2961973 -0.079120979
0.059001826 0.26550829 -0.085061565
0.058765937 0.23506376 -0.090958901
0.058532089 0.20486242 -0.096805051
0.058300093 0.17490028 -0.10260504
0.058069929 0.14517491 -0.10835912
0.05784142 0.11568284 -0.11407188
0.057614859 0.086422294 -0.11973595
0.05739006 0.057390127 -0.12535585
0.057167012 0.028583542 -0.13093202
0.056945689 7.4505806e-09 -0.13646509
0.056725927 -0.028362922 -0.14195926
0.056508001 -0.056507923 -0.14740734
0.05629174 -0.084437624 -0.15281382
0.056077134 -0.11215419 -0.15817897
0.055864152 -0.13966027 -0.1635035
0.055652644 -0.16695783 -0.16879129
0.055442873 -0.19404997 -0.17403558
0.055234674 -0.22093862 -0.17924052
0.055027891 -0.24762556 -0.18441004
0.054822795 -0.27411389 -0.18953754
0.054619219 -0.30040568 -0.19462681
0.05441701 -0.32650203 -0.19968207
0.054216437 -0.35240668 -0.20469645
0.054017331 -0.37812126 -0.20967403
0.053819682 -0.40364754 -0.21461533
0.053623341 -0.42898676 -0.21952379
0.053428564 -0.45414269 -0.22439335
0.053235061 -0.47911549 -0.22923093
0.053043082 -0.50390929 -0.23403025
0.052852489 -0.52852488 -0.23879513
0.052663125 -0.55296284 -0.2435291
0.052475248 -0.57722771 -0.24822611
0.052288707 -0.60132009 -0.25288969
0.052103486 -0.62524176 -0.2575202
0.09515857 0.88814676 0.025868833
0.094749637 0.85274673 0.019053251
0.094344482 0.81765223 0.01230073
0.093942776 0.78285658 0.005605638
0.093544483 0.74835593 -0.0010326207
0.09314955 0.71414661 -0.0076148212
0.092757665 0.68022299 -0.014146209
0.092369333 0.64658535 -0.020618409
0.091984242 0.61322832 -0.027036667
0.091602348 0.58014828 -0.033401519
0.091223344 0.5473401 -0.03971827
0.090847731 0.51480377 -0.045978546
0.090475194 0.48253441 -0.052187458
0.090105698 0.45052856 -0.05834572
0.089738958 0.41878188 -0.064458027
0.089375436 0.38729361 -0.070516676
0.089014858 0.35605943 -0.076526433
0.088657171 0.32507634 -0.082487822
0.088302352 0.29434121 -0.088401504
0.08795011 0.26385036 -0.094272122
0.087600917 0.23360246 -0.1000921
0.08725448 0.20359382 -0.10586599
0.086910777 0.1738216 -0.11159444
0.086569764 0.14428297 -0.11727788
0.086231187 0.11497501 -0.12292089
0.085895486 0.085895546 -0.12851603
0.085562378 0.0570416 -0.13406771
0.085231856 0.028410636 -0.13957655
0.084903643 7.4505806e-09 -0.14504673
0.084578171 -0.028192755 -0.15047124
0.084255189 -0.056170125 -0.15585423
0.083934657 -0.083934583 -0.1611964
0.083616562 -0.11148869 -0.16649798
0.08330065 -0.13883445 -0.17176315
0.082987331 -0.1659746 -0.17698514
0.082676366 -0.19291154 -0.18216795
0.082367718 -0.21964726 -0.18731205
0.082061149 -0.24618338 -0.19242157
0.081757076 -0.27252352 -0.19748956
0.081455238 -0.29866916 -0.20252004
0.081155412 -0.32462162 -0.20751712
0.080858 -0.35038453 -0.21247411
0.080562748 -0.37595949 -0.21739486
0.080269448 -0.40134719 -0.22228318
0.079978481 -0.42655188 -0.22713262
0.079689614 -0.4515745 -0.23194711
0.079402626 -0.47641569 -0.23673022
0.079117894 -0.50107998 -0.24147576
0.078835197 -0.52556789 -0.24618739
0.078554317 -0.54988015 -0.25086871
0.078275628 -0.57402122 -0.25551349
0.077998914 -0.59799165 -0.26012552
0.07772395 -0.62179148 -0.26470828
0.12656926 0.9176271 0.02200824
0.12602665 0.88218665 0.015225828
0.12548906 0.84705126 0.0085059106
0.12495603 0.81221426 0.0018430948
0.12442751 0.77767193 -0.0047634244
0.12390345 0.74342066 -0.011314332
0.12338342 0.70945466 -0.017814636
0.1228681 0.67577446 -0.024256259
0.12235706 0.64237458 -0.030644149
0.12185024 0.60925126 -0.036979258
0.12134763 0.57640123 -0.043262035
0.12084877 0.54381955 -0.0494975
0.12035436 0.51150614 -0.055677742
0.11986399 0.47945601 -0.061807528
0.11937758 0.44766593 -0.067887604
0.11889476 0.41613173 -0.073922709
0.11841618 0.38485265 -0.079905003
0.11794143 0.35382435 -0.085839376
0.11747047 0.32304385 -0.091726348
0.11700294 0.29250732 -0.09757062
0.11653943 0.26221377 -0.10336443
0.11607958 0.2321592 -0.10911254
0.11562335 0.20234092 -0.11481543
0.11517069 0.17275614 -0.1204737
0.11472125 0.14340159 -0.12609176
0.1142756 0.1142756 -0.13166222
0.11383342 0.085375115 -0.13718963
0.11339464 0.056697283 -0.14267442
0.11295892 0.028239723 -0.14812078
0.11252684 1.4901161e-08 -0.15352178
0.11209805 -0.028024487 -0.15888157
0.11167253 -0.055836197 -0.16420077
0.11125021 -0.083437666 -0.16947967
0.1108308 -0.11083075 -0.17472245
0.11041481 -0.13801849 -0.17992219
0.11000194 -0.16500284 -0.18508314
0.10959215 -0.19178618 -0.19020544
0.10918511 -0.21837017 -0.19529341
0.10878137 -0.24475801 -0.2003402
0.1083806 -0.27095145 -0.20534979
0.10798278 -0.29695255 -0.21032262
0.10758759 -0.3227627 -0.21526244
0.10719556 -0.34838545 -0.22016288
0.10680637 -0.37382224 -0.2250278
0.10641973 -0.39907396 -0.22986077
0.10603614 -0.42414451 -0.23465563
0.10565531 -0.44903505 -0.23941597
0.10527695 -0.47374618 -0.24414556
0.10490153 -0.49828222 -0.24883813
0.10452881 -0.52264392 -0.25349742
0.10415845 -0.54683173 -0.25812683
0.10379096 -0.57085019 -0.26272041
0.10342606 -0.5946998 -0.26728165
0.10306346 -0.61838067 -0.27181411
0.15715289 0.91148674 0.011421531
0.15648367 0.87630862 0.0047293603
0.15582058 0.84143114 -0.0019015372
0.15516309 0.80684817 -0.0084763765
0.15451112 0.77255571 -0.014996022
0.15386416 0.73854798 -0.021465689
0.15322305 0.70482606 -0.027876794
0.15258725 0.67138398 -0.034234732
0.15195671 0.63821822 -0.040540189
0.15133135 0.60532552 -0.046793699
0.1507107 0.57270074 -0.053000301
0.15009555 0.540344 -0.059151858
0.14948538 0.50825036 -0.065253496
0.14888017 0.47641656 -0.071305647
0.14827941 0.44483829 -0.077313244
0.1476839 0.41351488 -0.083268374
0.14709315 0.38244224 -0.089175791
0.14650711 0.3516171 -0.095036201
0.14592531 0.32103571 -0.10085421
0.14534853 0.29069716 -0.10662195
0.14477628 0.26059729 -0.11234453
0.14420852 0.23073366 -0.11802216
0.1436452 0.20110326 -0.12365539
0.14308587 0.17170298 -0.12924863
0.14253128 0.14253132 -0.13479464
0.14198095 0.11358481 -0.14029793
0.14143486 0.084860981 -0.14575875
0.14089258 0.056357089 -0.15118152
0.14035483 0.028071001 -0.1565592
0.13982114 3.7252903e-08 -0.16189592
0.13929151 -0.027858235 -0.16719225
0.13876587 -0.055506296 -0.17244861
0.13824382 -0.082946286 -0.17766899
0.13772605 -0.11018077 -0.18284675
0.13721216 -0.13721216 -0.18798584
0.13670206 -0.16404244 -0.19308662
0.13619541 -0.19067352 -0.19815326
0.13569283 -0.21710849 -0.20317896
0.13519396 -0.24334911 -0.20816769
0.13469875 -0.26939744 -0.21311991
0.1342068 -0.29525492 -0.21803939
0.13371877 -0.32092497 -0.22291958
0.13323428 -0.34640902 -0.22776452
0.13275297 -0.37170821 -0.23257783
0.13227543 -0.3968263 -0.23735303
0.13180132 -0.42176419 -0.24209414
0.13133061 -0.44652399 -0.24680129
0.13086291 -0.47110641 -0.25147825
0.13039885 -0.49551561 -0.25611871
0.12993808 -0.51975226 -0.26072648
0.12948024 -0.54381698 -0.26530492
0.12902592 -0.56771404 -0.26984805
0.12857479 -0.59144402 -0.27435946
0.12812649 -0.6150071 -0.27884245
0.1873294 0.90542531 0.00097087026
0.18653749 0.87050831 -0.0056282282
0.18575227 0.83588529 -0.012171686
0.18497363 0.80155241 -0.018660426
0.18420094 0.76750398 -0.025099516
0.18343523 0.73374093 -0.031480372
0.18267585 0.70025748 -0.037808567
0.18192273 0.66705 -0.044084638
0.1811758 0.63411534 -0.050309002
0.18043447 0.60144824 -0.056486845
0.17969967 0.569049 -0.062610045
0.17897084 0.53691256 -0.068683624
0.17824791 0.5050357 -0.074708194
0.17753029 0.47341418 -0.080688253
0.17681891 0.4420473 -0.086616412
0.17611323 0.41093087 -0.0924972
0.17541315 0.38006186 -0.098331109
0.17471811 0.34943622 -0.10412304
0.17402907 0.31905332 -0.10986514
0.17334543 0.28890908 -0.11556216
0.17266713 0.25900075 -0.12121459
0.17199412 0.22932549 -0.12682298
0.17132589 0.19988018 -0.13239171
0.17066328 0.17066336 -0.13791338
0.17000577 0.14167154 -0.14339255
0.16935331 0.11290227 -0.14882976
0.16870584 0.084352933 -0.15422527
0.16806287 0.056020994 -0.15958354
0.1674252 0.02790419 -0.1648974
0.16679236 -1.4901161e-08 -0.17017096
0.16616429 -0.027694091 -0.17540491
0.1655405 -0.055180129 -0.18060313
0.16492181 -0.082460903 -0.18575898
0.16430771 -0.10953844 -0.19087636
0.16369818 -0.13641508 -0.1959558
0.16309273 -0.16309267 -0.20100117
0.16249217 -0.18957417 -0.20600596
0.16189601 -0.21586132 -0.21097398
0.16130421 -0.24195632 -0.21590564
0.16071671 -0.26786119 -0.22080143
0.16013308 -0.29357731 -0.22566496
0.15955408 -0.31910816 -0.23049001
0.15897924 -0.344455 -0.23528031
0.15840814 -0.36961901 -0.24003948
0.15784152 -0.39460373 -0.24476135
0.15727894 -0.41941044 -0.24944955
0.15671995 -0.44403982 -0.25410774
0.15616533 -0.46849597 -0.25872961
0.1556146 -0.49277955 -0.26331896
0.15506776 -0.51689249 -0.26787603
0.15452437 -0.54083526 -0.27240431
0.15398513 -0.56461215 -0.27689791
0.15344967 -0.58822364 -0.28136015
0.15291753 -0.61167008 -0.28579459
0.21710785 0.89944673 -0.0093370676
0.2161961 0.86478436 -0.015849501
0.21529199 0.83041191 -0.022307515
0.21439478 0.79632354 -0.028716058
0.21350564 0.76252019 -0.035067141
0.21262385 0.72899604 -0.041365623
0.2117493 0.69574773 -0.047612429
0.2108819 0.66277164 -0.053808004
0.21002102 0.63006306 -0.059957266
0.20916772 0.59762204 -0.066052318
0.2083213 0.56544363 -0.072097987
0.20748173 0.53352439 -0.078095019
0.20664887 0.50186163 -0.084043831
0.20582213 0.47045064 -0.08994922
0.20500255 0.43929112 -0.095803559
0.20418943 0.40837899 -0.10161127
0.20338278 0.37771091 -0.10737322
0.2025819 0.34728321 -0.11309384
0.20178786 0.31709522 -0.11876555
0.20100002 0.28714293 -0.12439295
0.20021829 0.25742355 -0.12997665
0.19944212 0.22793382 -0.13552092
0.19867244 0.19867252 -0.14101852
0.19790867 0.16963601 -0.14647394
0.19715078 0.14082205 -0.15188739
0.19639868 0.11222785 -0.15725964
0.19565175 0.083850726 -0.16259481
0.194911 0.05568888 -0.16788587
0.19417585 0.027739495 -0.17313698
0.19344622 8.1956387e-08 -0.17834866
0.19272155 -0.027531572 -0.18352485
0.19200279 -0.054857906 -0.18865886
0.19128937 -0.081981108 -0.19375479
0.19058122 -0.10890351 -0.19881292
0.18987831 -0.13562724 -0.20383376
0.18918008 -0.16215436 -0.20882115
0.18848744 -0.18848735 -0.21376859
0.18779984 -0.21462835 -0.21867983
0.18711726 -0.24057931 -0.22355548
0.18643914 -0.2663416 -0.22839916
0.1857664 -0.29191861 -0.23320439
0.18509848 -0.3173117 -0.23797527
0.18443537 -0.34252283 -0.24271187
0.18377653 -0.36755297 -0.24741796
0.18312281 -0.39240599 -0.25208721
0.18247375 -0.41708285 -0.2567234
0.18182883 -0.44158429 -0.26133001
0.18118887 -0.46591419 -0.26590118
0.18055341 -0.49007356 -0.27044004
0.17992197 -0.51406276 -0.27495039
0.17929536 -0.53788596 -0.27942628
0.17867309 -0.56154394 -0.28387105
0.17805512 -0.58503819 -0.28828502
0.177441 -0.60836905 -0.29267168
0.24649562 0.89354664 -0.019509792
0.24546722 0.85913527 -0.025937289
0.24444737 0.82500982 -0.03231132
0.24343526 0.79116458 -0.038637102
0.24243219 0.75760055 -0.044906259
0.24143736 0.72431201 -0.051123977
0.24045065 0.69129562 -0.057290763
0.2394713 0.65854609 -0.063411772
0.23850057 0.626064 -0.06947878
0.23753767 0.59384423 -0.075496852
0.23658252 0.56188357 -0.081466541
0.23563504 0.53017884 -0.087388486
0.23469444 0.49872574 -0.093267128
0.23376197 0.46752396 -0.099095106
0.23283689 0.43656927 -0.10487679
0.23191908 0.40585846 -0.11061306
0.23100789 0.37538785 -0.11630813
0.2301044 0.34515667 -0.12195471
0.22920799 0.31516096 -0.1275574
0.22831854 0.28539813 -0.13311654
0.22743534 0.25586477 -0.13863653
0.22655955 0.22655955 -0.1441101
0.2256905 0.19747917 -0.14954183
0.22482808 0.16862105 -0.15493199
0.22397222 0.13998264 -0.16028103
0.22312227 0.11156117 -0.16559324
0.22227933 0.083354682 -0.17086166
0.22144273 0.05536072 -0.17609036
0.22061239 0.027576648 -0.1812799
0.21978772 5.9604645e-08 -0.18643415
0.21896972 -0.02737122 -0.19154654
0.21815781 -0.054539397 -0.19662106
0.2173519 -0.081506893 -0.20165808
0.2165519 -0.10827591 -0.20665789
0.21575724 -0.13484824 -0.21162459
0.21496893 -0.16122665 -0.21655159
0.21418636 -0.18741305 -0.22144264
0.21340945 -0.21340939 -0.22629826
0.21263765 -0.23921727 -0.23112212
0.21187194 -0.26483989 -0.23590776
0.21111169 -0.29027855 -0.24065922
0.21035692 -0.31553531 -0.24537662
0.2096075 -0.34061211 -0.25006053
0.2088629 -0.36551005 -0.25471428
0.20812407 -0.39023268 -0.25933185
0.20739046 -0.41478091 -0.26391697
0.20666151 -0.43915564 -0.26847297
0.20593815 -0.46336079 -0.27299401
0.20521982 -0.48739704 -0.27748343
0.20450602 -0.51126504 -0.28194469
0.20379764 -0.53496873 -0.2863721
0.20309417 -0.55850893 -0.29076886
0.20239502 -0.5818857 -0.29513842
0.20170119 -0.60510355 -0.29947495
0.27550033 0.88772321 -0.029550016
0.27435839 0.85355949 -0.035894036
0.27322507 0.81967533 -0.042190135
0.27210188 0.78607213 -0.048430204
0.2709879 0.75274408 -0.054619104
0.26988298 0.719688 -0.060757428
0.26878628 0.68689823 -0.066850364
0.26769918 0.65437591 -0.072889507
0.26662087 0.62211543 -0.078880191
0.26555121 0.59011382 -0.084822804
0.26449013 0.55836809 -0.090717837
0.2634367 0.52687347 -0.09656997
0.2623924 0.49563009 -0.1023718
0.26135635 0.46463358 -0.10812764
0.26032841 0.43388066 -0.11383842
0.25930783 0.40336776 -0.11950819
0.25829595 0.37309411 -0.12512994
0.25729191 0.34305587 -0.13070789
0.25629565 0.31325027 -0.13624257
0.25530639 0.28367382 -0.14173844
0.25432542 0.25432554 -0.14718823
0.25335199 0.22520179 -0.1525964
0.25238594 0.19630025 -0.15796326
0.25142723 0.16761822 -0.16328932
0.25047514 0.13915291 -0.16857879
0.24953087 0.11090262 -0.17382471
0.24859372 0.082864672 -0.17903121
0.24766356 0.055036344 -0.18419877
0.24674033 0.027415633 -0.18932772
0.24582332 -0 -0.19442216
0.24491374 -0.027212635 -0.19947541
0.24401088 -0.05422461 -0.20449136
0.24311465 -0.081038132 -0.20947047
0.24222435 -0.10765518 -0.21441655
0.24134114 -0.13407835 -0.21932317
0.2404644 -0.16030957 -0.22419406
0.23959395 -0.18635085 -0.2290298
0.23872922 -0.21220371 -0.23383391
0.23787129 -0.23787124 -0.23860024
0.23701951 -0.26335502 -0.24333224
0.23617381 -0.28865683 -0.24803072
0.2353341 -0.3137787 -0.25269568
0.23449978 -0.3387219 -0.25733075
0.23367193 -0.36348966 -0.26192993
0.23284991 -0.38808313 -0.26649672
0.23203366 -0.4125042 -0.27103159
0.23122251 -0.43675354 -0.27553785
0.23041761 -0.46083516 -0.28000951
0.22961828 -0.48474967 -0.2844502
0.22882392 -0.5084976 -0.28886327
0.22803558 -0.53208303 -0.2932429
0.22725268 -0.55550653 -0.29759252
0.22647458 -0.57876831 -0.30191523
0.22570232 -0.6018728 -0.30620551
0.22493532 -0.62482029 -0.31046665
0.30539232 0.91617703 -0.033145696
0.30412945 0.88197535 -0.039460123
0.30287609 0.84805304 -0.045726866
0.30163389 0.81441152 -0.051937878
0.30040184 0.78104484 -0.058098167
0.29917982 0.7479496 -0.064208239
0.29796684 0.71512049 -0.070273072
0.29676449 0.68255842 -0.076284707
0.29557183 0.65025812 -0.082248092
0.29438871 0.61821634 -0.088163733
0.29321504 0.58643007 -0.094032228
0.29204985 0.55489475 -0.099858135
0.29089469 0.52361053 -0.10563384
0.28974864 0.4925727 -0.11136413
0.28861159 0.46177852 -0.11704943
0.28748342 0.43122518 -0.12269023
0.28636327 0.40090859 -0.128291
0.28525257 0.37082839 -0.13384444
0.28415048 0.34098062 -0.13935496
0.28305686 0.31136256 -0.14482315
0.28197086 0.28197092 -0.15025303
0.28089392 0.25280455 -0.15563777
0.27982518 0.2238602 -0.16098154
0.27876452 0.19513519 -0.1662847
0.27771115 0.16662672 -0.17155157
0.27666646 0.13833328 -0.17677505
0.27562955 0.11025179 -0.18195958
0.27460042 0.082380176 -0.18710521
0.27357894 0.05471582 -0.19221257
0.27256435 0.027256489 -0.19728568
0.2715579 3.7252903e-08 -0.2023178
0.27055889 -0.02705583 -0.20731282
0.26956722 -0.0539134 -0.21227133
0.26858208 -0.080574632 -0.21719691
0.2676048 -0.10704186 -0.22208333
0.26663461 -0.13331729 -0.22693424
0.26567143 -0.15940289 -0.23175016
0.26471451 -0.18530013 -0.23653464
0.26376516 -0.21101211 -0.24128166
0.26282254 -0.2365403 -0.24599454
0.26188666 -0.26188663 -0.25067401
0.26095742 -0.28705314 -0.25532025
0.26003411 -0.31204087 -0.25993681
0.25911796 -0.33685333 -0.26451764
0.25820822 -0.36149147 -0.26906627
0.25730485 -0.38595718 -0.27358311
0.25640717 -0.41025144 -0.27807155
0.25551632 -0.43437773 -0.28252572
0.25463167 -0.45833686 -0.2869491
0.25375313 -0.48213083 -0.29134178
0.25288001 -0.50575989 -0.2957074
0.25201344 -0.52922821 -0.30004007
0.25115284 -0.55253625 -0.3043431
0.25029749 -0.57568425 -0.3086198
0.24944852 -0.59867644 -0.31286463
0.24860534 -0.62151325 -0.31708071
0.33376151 0.91025877 -0.04300943
0.33238927 0.87629902 -0.049247116
0.33102918 0.84261966 -0.055429339
0.32968014 0.80921495 -0.061561137
0.32834214 0.77608144 -0.067643136
0.32701489 0.74321562 -0.073676109
0.32569742 0.7106126 -0.079664528
0.32439145 0.67827302 -0.085600853
0.32309589 0.64619178 -0.091489673
0.32181066 0.61436582 -0.097331718
0.32053471 0.58279037 -0.10313141
0.31926972 0.55146587 -0.10888138
0.31801465 0.52038765 -0.1145861
0.31676945 0.4895528 -0.12024617
0.31553397 0.45895857 -0.12586209
0.31430721 0.42860073 -0.1314383
0.3130908 0.39847925 -0.1369673
0.31188378 0.36859 -0.14245385
0.31068602 0.33893025 -0.14789817
0.30949661 0.30949664 -0.15330459
0.30831707 0.28028822 -0.15866616
0.30714652 0.25130165 -0.16398688
0.3059848 0.22253445 -0.16926733
0.30483106 0.19398345 -0.17451167
0.30368674 0.1656474 -0.17971304
0.302551 0.1375232 -0.18487549
0.30142373 0.10960861 -0.18999951
0.30030483 0.081901357 -0.19508541
0.29919344 0.054398842 -0.20013732
0.29809099 0.027099244 -0.20514828
0.29699665 1.4901161e-08 -0.21012257
0.2959103 -0.02690091 -0.21506044
0.29483113 -0.053605609 -0.21996576
0.29376054 -0.080116443 -0.22483203
0.29269773 -0.10643551 -0.22966324
0.29164255 -0.13256475 -0.23445939
0.29059422 -0.15850596 -0.23922449
0.28955415 -0.18426171 -0.24395217
0.28852147 -0.20983383 -0.24864614
0.28749615 -0.2352241 -0.25330663
0.28647807 -0.26043454 -0.2579343
