# .PCD v0.7 - Point Cloud Data file format
VERSION 0.7
FIELDS x y z
SIZE 4 4 4
TYPE F F F
COUNT 1 1 1
WIDTH 1365
HEIGHT 1
VIEWPOINT 0 0 0 1 0 0 0
POINTS 1365
DATA ascii
-0.42701498 0.24400857 -0.035053827
-0.42879328 0.21439663 -0.028702818
-0.43058649 0.18453714 -0.022298485
-0.43239471 0.15442677 -0.015840501
-0.43421823 0.12406239 -0.009327881
-0.43605846 0.093441173 -0.0027556606
-0.43791306 0.062559083 0.0038679708
-0.43978351 0.03141319 0.010548073
-0.44167134 2.3283064e-08 0.017290315
-0.4435741 -0.031683892 0.024085728
-0.44549331 -0.063641861 0.030940158
-0.44743055 -0.095877916 0.037858974
-0.44938338 -0.1283952 0.044833228
-0.45135331 -0.16119753 0.05186874
-0.45334199 -0.1942893 0.058971174
-0.45534685 -0.22767344 0.066131443
-0.45736951 -0.26135403 0.073355258
-0.45941171 -0.2953361 0.080648668
-0.46147075 -0.32962197 0.088002346
-0.4635483 -0.36421639 0.095422313
-0.46564618 -0.39912522 0.10291462
-0.46776158 -0.43435001 0.11046973
-0.46989632 -0.46989626 0.11809382
-0.47205216 -0.50577015 0.12579316
-0.47422633 -0.54197294 0.13355805
-0.47642061 -0.57851064 0.14139482
-0.47863683 -0.61539012 0.14931002
-0.48087224 -0.65261221 0.15729351
-0.48312864 -0.6901837 0.16535203
-0.48540786 -0.72811168 0.17349204
-0.48770711 -0.76639688 0.18170366
-0.49002823 -0.8050462 0.18999335
-0.49237317 -0.84406817 0.19836822
-0.49473906 -0.88346249 0.20681778
-0.37392169 0.60402745 -0.12194687
-0.37539086 0.57752442 -0.11629632
-0.37687057 0.55081093 -0.11060508
-0.37836203 0.52388585 -0.1048688
-0.37986529 0.4967469 -0.099086955
-0.38138163 0.46939281 -0.093254879
-0.38290906 0.44181818 -0.087380245
-0.38444877 0.41402176 -0.081458285
-0.3860009 0.38600093 -0.075488478
-0.38756672 0.35775387 -0.069466174
-0.38914418 0.32927591 -0.063399032
-0.39073452 0.300565 -0.057282269
-0.39233795 0.27161855 -0.051115282
-0.39395571 0.24243432 -0.044893026
-0.39558569 0.21300775 -0.038623877
-0.39722928 0.18333665 -0.032302409
-0.39888653 0.15341794 -0.025928389
-0.4005577 0.12324861 -0.019500766
-0.40224409 0.092825547 -0.013014667
-0.40394357 0.062145211 -0.006478196
-0.40565747 0.031204443 0.00011355802
-0.40738595 6.519258e-09 0.0067616701
-0.40913045 -0.031471618 0.013471376
-0.41088873 -0.063213632 0.020233942
-0.41266218 -0.095229745 0.027054932
-0.41445228 -0.12752382 0.033939887
-0.41625673 -0.16009869 0.040879901
-0.41807818 -0.19295919 0.047885768
-0.41991439 -0.22610782 0.05494801
-0.42176682 -0.25954875 0.062072568
-0.42363694 -0.2932871 0.069265418
-0.42552239 -0.32732481 0.076517291
-0.4274247 -0.36166698 0.083833873
-0.42934412 -0.3963176 0.091216266
-0.43128222 -0.4312821 0.098670453
-0.43323648 -0.46656239 0.10618697
-0.43520862 -0.50216371 0.11377193
-0.4372001 -0.53809237 0.12143147
-0.43920851 -0.57434952 0.12915619
-0.44123688 -0.61094332 0.1369576
-0.44328263 -0.64787453 0.14482588
-0.44534749 -0.68514991 0.15276757
-0.44743308 -0.72277653 0.16078913
-0.44953686 -0.76075464 0.16888052
-0.45166048 -0.79909158 0.17704836
-0.45380577 -0.83779526 0.18529943
-0.45597002 -0.87686539 0.19362357
-0.45815504 -0.91631001 0.20202738
-0.34172937 0.62650388 -0.13623483
-0.34305775 0.60035104 -0.13070017
-0.34439647 0.57399416 -0.12512204
-0.34574661 0.54743218 -0.11949638
-0.34710646 0.52065969 -0.11383043
-0.34847704 0.49367583 -0.10811974
-0.34985846 0.46647799 -0.10236377
-0.35125187 0.43906489 -0.096557796
-0.35265544 0.41143137 -0.090709656
-0.35407028 0.38357615 -0.084814548
-0.3554965 0.35549647 -0.078871965
-0.35693526 0.3271907 -0.072877042
-0.35838476 0.29865396 -0.066837639
-0.359846 0.26988447 -0.060749032
-0.36131924 0.24087958 -0.054610513
-0.36280563 0.21163663 -0.04841727
-0.36430326 0.18215171 -0.042177096
-0.36581329 0.15242228 -0.035885319
-0.36733592 0.12244537 -0.029541072
-0.36887231 0.092218161 -0.023139391
-0.37042055 0.061736792 -0.016688474
-0.37198183 0.030998524 -0.010183105
-0.37355635 2.0954758e-08 -0.0036227773
-0.37514532 -0.03126213 0.0029981369
-0.37674677 -0.062791035 0.0096708294
-0.37836194 -0.094590411 0.016400859
-0.37999219 -0.12666394 0.023193445
-0.38163537 -0.1590147 0.030040085
-0.38329285 -0.1916464 0.036946163
-0.38496593 -0.22456342 0.043917358
-0.38665253 -0.25776824 0.050944775
-0.38835397 -0.2912654 0.0580341
-0.3900716 -0.32505956 0.065191045
-0.39180332 -0.35915303 0.072406605
-0.39355049 -0.39355043 0.079686373
-0.39531457 -0.42825732 0.087036565
-0.39709321 -0.46327543 0.094447821
-0.39888802 -0.49860999 0.10192604
-0.40070033 -0.53426707 0.10947739
-0.40252796 -0.57024789 0.11709245
-0.40437227 -0.60655838 0.12477714
-0.40623492 -0.64320511 0.13253807
-0.40811345 -0.68018907 0.14036545
-0.41000944 -0.71751654 0.14826536
-0.41192451 -0.75519484 0.15624472
-0.41385615 -0.79322433 0.16429341
-0.41580603 -0.83161199 0.17241779
-0.41777575 -0.8703661 0.18062496
-0.41976285 -0.909486 0.18890437
-0.3113642 0.62272835 -0.14481553
-0.3125672 0.59671926 -0.13934727
-0.31377953 0.57050824 -0.13383676
-0.31500217 0.54409462 -0.1282794
-0.31623349 0.51747298 -0.12268241
-0.31747448 0.49064237 -0.11704157
-0.31872526 0.4636004 -0.11135618
-0.31998679 0.43634573 -0.10562187
-0.3212575 0.40887317 -0.099845976
-0.32253832 0.38118172 -0.094024032
-0.32382941 0.35326844 -0.08815556
-0.32513177 0.3251318 -0.082235754
-0.32644373 0.29676703 -0.076272272
-0.3277663 0.26817247 -0.070260458
-0.32909968 0.23934525 -0.064199805
-0.33044487 0.21028313 -0.058085285
-0.33180013 0.18098196 -0.051924933
-0.33316657 0.15143937 -0.045713902
-0.33454433 0.12165245 -0.039451379
-0.33593446 0.09161853 -0.033132412
-0.33733526 0.061333764 -0.026765313
-0.33874777 0.030795254 -0.020344764
-0.34017214 1.6763806e-08 -0.013870385
-0.34160957 -0.031055406 -0.0073365187
-0.3430582 -0.062374219 -0.00075189583
-0.34451914 -0.093959764 0.0058887377
-0.34599259 -0.12581541 0.012586225
-0.34747973 -0.15794533 0.019345924
-0.34897864 -0.19035187 0.026159286
-0.35049057 -0.22303951 0.033031575
-0.35201672 -0.25601214 0.03996858
-0.35355511 -0.2892724 0.046961337
-0.35510704 -0.32282454 0.054015592
-0.35667378 -0.35667375 0.061137035
-0.35825324 -0.3908217 0.06831646
-0.35984677 -0.42527336 0.075559735
-0.36145568 -0.4600344 0.082872957
-0.36307788 -0.4951061 0.090246692
-0.36471474 -0.53049403 0.097686797
-0.36636755 -0.56620431 0.10519971
-0.36803424 -0.60223782 0.11277553
-0.3697162 -0.63860065 0.12042078
-0.37141478 -0.67529958 0.12814161
-0.37312782 -0.71233487 0.13592809
-0.37485793 -0.74971581 0.1437923
-0.37660298 -0.78744251 0.1517244
-0.37836432 -0.82552207 0.15973052
-0.38014349 -0.86396253 0.16781765
-0.38193819 -0.90276289 0.17597541
-0.2813628 0.61899817 -0.15329333
-0.28244334 0.59313107 -0.1478906
-0.28353223 0.56706452 -0.14244628
-0.28462952 0.54079616 -0.13695964
-0.28573614 0.51432508 -0.13142659
-0.2868506 0.48764604 -0.12585434
-0.28797379 0.46075809 -0.12023838
-0.28910583 0.43365872 -0.11457825
-0.29024759 0.40634671 -0.10886939
-0.2913976 0.3788169 -0.10311942
-0.29255673 0.35106817 -0.097323604
-0.29372516 0.32309771 -0.091481529
-0.29490378 0.29490378 -0.08558847
-0.29609105 0.26648194 -0.079652131
-0.29728791 0.23783034 -0.073667772
-0.29849452 0.20894623 -0.067634717
-0.29971179 0.17982706 -0.061548442
-0.30093819 0.15046911 -0.055416409
-0.30217466 0.12086989 -0.049234137
-0.30342132 0.091026463 -0.043000795
-0.30467919 0.060935862 -0.036711488
-0.30594665 0.030594712 -0.030374153
-0.30722469 2.4214387e-08 -0.023983855
-0.30851346 -0.030851331 -0.017539937
-0.30981401 -0.061962686 -0.011037322
-0.31112465 -0.093337342 -0.0044840276
-0.31244642 -0.12497853 0.0021247827
-0.3137804 -0.15689012 0.0087946504
-0.3151249 -0.18907486 0.015517093
-0.31648093 -0.22153661 0.022297323
-0.31784967 -0.25427967 0.029140934
-0.31922933 -0.28730637 0.036039226
-0.32062101 -0.32062095 0.042997628
-0.32202587 -0.35422844 0.050021902
-0.3234421 -0.38813049 0.057103083
-0.32487082 -0.42233205 0.064246804
-0.32631326 -0.45683849 0.071458906
-0.32776752 -0.49165121 0.07873027
-0.32923484 -0.52677566 0.086066797
-0.33071637 -0.56221777 0.093474433
-0.33221024 -0.59797835 0.10094377
-0.33371767 -0.63406354 0.10848105
-0.33523992 -0.67047977 0.11609215
-0.33677503 -0.70722741 0.1237677
-0.33832425 -0.74431336 0.13151392
-0.33988893 -0.78174448 0.13933727
-0.34146702 -0.81952077 0.14722773
-0.34305984 -0.85764951 0.15519178
-0.34466869 -0.89613867 0.1632362
-0.2517187 0.61531234 -0.16167024
-0.25267962 0.58958578 -0.15633175
-0.25364789 0.56366205 -0.15095241
-0.25462365 0.53753877 -0.14553162
-0.2556076 0.51121521 -0.14006518
-0.2565985 0.48468608 -0.13456012
-0.25759712 0.45795041 -0.12901224
-0.25860354 0.43100592 -0.12342106
-0.25961855 0.40385115 -0.11778204
-0.26064086 0.37648129 -0.11210251
-0.26167127 0.34889501 -0.10637808
-0.26270983 0.32108986 -0.10060824
-0.26375744 0.29306379 -0.094788387
-0.26481265 0.26481268 -0.088925995
-0.26587635 0.23633453 -0.0830165
-0.26694864 0.20762676 -0.077059388
-0.26803038 0.17868693 -0.07104975
-0.26912013 0.14951114 -0.064995542
-0.27021879 0.12009728 -0.058891796
-0.27132645 0.090442151 -0.052738108
-0.27244404 0.060543094 -0.04652936
-0.27357006 0.030396689 -0.040273614
-0.27470547 4.0978193e-08 -0.03396602
-0.2758503 -0.030649949 -0.027605787
-0.27700552 -0.061556783 -0.021187847
-0.27816963 -0.092723191 -0.014720388
-0.27934361 -0.12415269 -0.0081983432
-0.28052753 -0.15584859 -0.0016212016
-0.28172234 -0.1878148 0.0050167516
-0.28292653 -0.22005385 0.01170671
-0.28414106 -0.25256974 0.018454127
-0.28536695 -0.28536683 0.025264516
-0.28660256 -0.31844729 0.032129154
-0.28784895 -0.35181534 0.03905347
-0.28910708 -0.38547605 0.046043068
-0.29037538 -0.41943112 0.053089276
-0.29165486 -0.45368522 0.060197458
-0.29294658 -0.48824418 0.067373499
-0.29424885 -0.52310896 0.074608475
-0.29556277 -0.55828518 0.081908002
-0.29688939 -0.59377873 0.089278266
-0.29822707 -0.62959033 0.096709639
-0.29957682 -0.66572618 0.10420826
-0.30093983 -0.70219284 0.11178046
-0.30231431 -0.73899043 0.11941656
-0.30370143 -0.77612567 0.1271227
-0.30510229 -0.81360602 0.13490534
-0.30651516 -0.85143089 0.14275461
-0.30794117 -0.88960779 0.15067694
-0.22242549 0.6116702 -0.16994797
-0.22326957 0.58608258 -0.16467257
-0.22412005 0.56030011 -0.15935703
-0.22497705 0.53432047 -0.15400091
-0.22584061 0.5081414 -0.14860357
-0.22671142 0.48176184 -0.14316083
-0.22758839 0.45517683 -0.13767982
-0.22847216 0.42838541 -0.13215625
-0.22936282 0.40138498 -0.12658969
-0.23026109 0.37417424 -0.12097562
-0.23116577 0.34674871 -0.11532126
-0.2320776 0.31910676 -0.10962231
-0.23299666 0.29124588 -0.10387824
-0.23392366 0.26316416 -0.098084383
-0.23485743 0.23485744 -0.092248484
-0.23579867 0.2063238 -0.086365722
-0.23674749 0.17756066 -0.080435634
-0.23770463 0.14856543 -0.074453451
-0.23866889 0.11933452 -0.068426795
-0.23964098 0.089865424 -0.062351122
-0.24062106 0.060155325 -0.056225743
-0.24160984 0.030201258 -0.050045893
-0.2426061 7.0780516e-08 -0.043819249
-0.24361061 -0.030451257 -0.037540991
-0.24462348 -0.061155889 -0.031210601
-0.24564552 -0.092117041 -0.024822947
-0.24667539 -0.12333766 -0.018386025
-0.24771397 -0.15482125 -0.01189509
-0.24876204 -0.18657148 -0.0053445995
-0.2498183 -0.21859086 0.0012568906
-0.25088355 -0.25088346 0.0079147667
-0.25195867 -0.28345346 0.014634281
-0.25304228 -0.3163029 0.021406963
-0.25413525 -0.34943593 0.028238043
-0.2552385 -0.38285771 0.035133362
-0.25635058 -0.41656965 0.0420838
-0.25747243 -0.45057672 0.049095243
-0.25860488 -0.48488408 0.056173146
-0.25974655 -0.51949304 0.063308597
-0.26089835 -0.55440891 0.070507288
-0.26206124 -0.58963764 0.077775359
-0.26323369 -0.62517995 0.085103154
-0.26441672 -0.66104174 0.092497021
-0.26561123 -0.69722939 0.099962741
-0.26681575 -0.73374313 0.10749096
-0.26803124 -0.77058971 0.11508784
-0.26925871 -0.80777609 0.12275958
-0.27049661 -0.84530193 0.13049653
-0.27174598 -0.8831743 0.13830486
-0.19347708 0.60807085 -0.1781282
-0.19420695 0.5826208 -0.17291494
-0.19494234 0.55697811 -0.16766208
-0.19568333 0.53114045 -0.16236931
-0.19642995 0.50510573 -0.15703619
-0.19718283 0.47887257 -0.15165852
-0.19794099 0.45243663 -0.14624311
-0.19870499 0.42579645 -0.14078599
-0.1994749 0.39894983 -0.13528663
-0.20025136 0.37189543 -0.12974054
-0.20103332 0.34462854 -0.12415504
-0.20182145 0.317148 -0.11852563
-0.20261574 0.28945112 -0.11285203
-0.2034169 0.26153609 -0.10712958
-0.20422384 0.23339869 -0.10136576
-0.20503721 0.20503722 -0.095555991
-0.20585707 0.17644903 -0.0896997
-0.2066841 0.14763151 -0.083792299
-0.20751722 0.11858132 -0.077841416
-0.2083571 0.089295916 -0.071842358
-0.20920378 0.05977254 -0.065794639
-0.21005797 0.030008251 -0.059693199
-0.21091859 4.0978193e-08 -0.053545989
-0.21178629 -0.030255135 -0.047348335
-0.21266113 -0.060760304 -0.041099358
-0.21354385 -0.091518693 -0.034794234
-0.21443331 -0.12253326 -0.028440937
-0.2153302 -0.15380734 -0.022034407
-0.21623464 -0.18534395 -0.015574083
-0.21714734 -0.21714725 -0.0090548024
-0.21806715 -0.24921967 -0.0024848506
-0.21899478 -0.28156465 0.0041410923
-0.21993098 -0.31418708 0.010828197
-0.22087456 -0.34708858 0.017568082
-0.22182629 -0.38027358 0.024366096
-0.2227869 -0.41374704 0.031227604
-0.2237552 -0.44751036 0.038144082
-0.22473197 -0.4815684 0.045120925
-0.22571798 -0.51592678 0.052163944
-0.22671199 -0.55058622 0.059263915
-0.22771478 -0.58555222 0.066426784
-0.22872719 -0.62083089 0.073658317
-0.22974792 -0.65642267 0.080949336
-0.23077784 -0.69233346 0.088305801
-0.23181774 -0.72857004 0.095733643
-0.2328663 -0.76513207 0.10322341
-0.23392443 -0.80202645 0.11078137
-0.23499295 -0.8392604 0.11841357
-0.2360705 -0.87683332 0.12611058
-0.237158 -0.91475224 0.13387835
-0.16425325 0.62963742 -0.19133037
-0.16486692 0.60451204 -0.18621635
-0.16548564 0.57919979 -0.18106042
-0.16610858 0.55369532 -0.17586915
-0.16673622 0.52799809 -0.17063883
-0.16736864 0.50210589 -0.16536875
-0.1680063 0.47601795 -0.16005476
-0.16864841 0.4497292 -0.15470386
-0.16929543 0.42323861 -0.14931205
-0.16994745 0.3965441 -0.14387859
-0.17060496 0.36964402 -0.13839938
-0.17126711 0.34253424 -0.13288143
-0.17193443 0.31521311 -0.12732041
-0.17260697 0.28767836 -0.12171588
-0.17328526 0.25992784 -0.11606355
-0.17396842 0.23195799 -0.11037046
-0.174657 0.20376645 -0.10463236
-0.17535105 0.17535114 -0.098848566
-0.17605063 0.14670889 -0.093018696
-0.17675632 0.11783757 -0.087138064
-0.17746718 0.088733576 -0.081214137
-0.17818379 0.059394654 -0.075242437
-0.17890622 0.029817773 -0.069222234
-0.17963502 1.6763806e-08 -0.063148826
-0.18036929 -0.030061588 -0.057030015
-0.18110956 -0.060369767 -0.050860945
-0.18185595 -0.090927981 -0.044641145
-0.18260905 -0.1217394 -0.038365364
-0.18336786 -0.15280655 -0.032041803
-0.18413302 -0.18413302 -0.025665499
-0.18490513 -0.21572264 -0.019231237
-0.18568319 -0.24757758 -0.012747377
-0.18646784 -0.27970177 -0.0062087327
-0.18725969 -0.31209946 0.0003900826
-0.18805774 -0.34477252 0.0070405751
-0.18886262 -0.37772518 0.013747796
-0.18967499 -0.4109624 0.020517588
-0.19049381 -0.44448552 0.027341068
-0.19131972 -0.47829926 0.034223691
-0.19215341 -0.51240903 0.041171089
-0.19299382 -0.54681581 0.048174456
-0.19384159 -0.58152479 0.055239409
-0.19469747 -0.61654192 0.062371463
-0.19556031 -0.65186769 0.069561899
-0.19643085 -0.68750787 0.07681644
-0.19730979 -0.72346914 0.084140778
-0.19819599 -0.75975126 0.091525942
-0.19909021 -0.79636073 0.098977625
-0.19999315 -0.83330488 0.10650229
-0.2009037 -0.87058258 0.11409009
-0.20182256 -0.90820134 0.12174726
-0.13608457 0.62598908 -0.19926162
-0.13659005 0.60099626 -0.19420682
-0.13709965 0.57581854 -0.18911082
-0.13761273 0.55045092 -0.18398014
-0.13812964 0.52489263 -0.17881094
-0.13865046 0.4991416 -0.17360282
-0.13917558 0.47319701 -0.16835159
-0.13970433 0.44705391 -0.16306405
-0.14023711 0.42071131 -0.1577363
-0.14077397 0.39416713 -0.15236767
-0.14131534 0.36741987 -0.14695403
-0.1418605 0.34046522 -0.14150238
-0.14240989 0.3133018 -0.13600847
-0.14296354 0.28592718 -0.13047186
-0.14352192 0.25833949 -0.12488826
-0.14408426 0.23053482 -0.11926465
-0.14465104 0.20251147 -0.11359686
-0.14522231 0.17426682 -0.10788428
-0.1457981 0.14579807 -0.10212648
-0.14637886 0.11710311 -0.096318655
-0.14696388 0.088178411 -0.090468504
-0.14755358 0.059021503 -0.084571511
-0.14814804 0.029629627 -0.078626856
-0.14874773 -0 -0.072630115
-0.14935187 -0.029870385 -0.066588596
-0.14996094 -0.059984349 -0.060497984
-0.150575 -0.090344943 -0.054357365
-0.15119453 -0.12095562 -0.048162062
-0.15181875 -0.15181866 -0.041919824
-0.15244815 -0.18293774 -0.035625786
-0.15308279 -0.21431582 -0.029279567
-0.15372318 -0.24595705 -0.022875562
-0.15436849 -0.27786326 -0.016422421
-0.15501925 -0.31003848 -0.0099148601
-0.15567598 -0.34248713 -0.0033475459
-0.15633783 -0.37521073 0.0032709688
-0.15700534 -0.40821379 0.0099461079
-0.15767904 -0.44150132 0.016683131
-0.15835807 -0.47507417 0.023473427
-0.15904297 -0.50893754 0.030322492
-0.15973432 -0.54309666 0.037235826
-0.16043121 -0.57755232 0.044204742
-0.16113421 -0.61230987 0.051234603
-0.16184388 -0.6473754 0.0583314
-0.16255935 -0.68274915 0.065486073
-0.16328114 -0.71843702 0.072704166
-0.16400991 -0.75444543 0.079991698
-0.16474469 -0.79077446 0.08733952
-0.16548608 -0.82743049 0.094753563
-0.16623472 -0.86442041 0.10223967
-0.16698959 -0.90174389 0.10978869
-0.10824046 0.6223827 -0.20710148
-0.1086402 0.59752101 -0.20210494
-0.10904289 0.57247519 -0.19707133
-0.10944887 0.54724437 -0.19199654
-0.10985759 0.52182359 -0.18688756
-0.11026937 0.49621212 -0.18174022
-0.11068425 0.47040805 -0.1765542
-0.11110257 0.4444102 -0.17132536
-0.11152375 0.41821411 -0.16606042
-0.11194815 0.39181858 -0.16075549
-0.11237579 0.36522135 -0.15541002
-0.11280701 0.33842099 -0.15001985
-0.11324124 0.31141347 -0.14459181
-0.11367884 0.28419715 -0.1391219
-0.11411983 0.2567696 -0.13360955
-0.11456456 0.22912914 -0.12805046
-0.11501245 0.20127182 -0.12245163
-0.11546388 0.17319584 -0.11680899
-0.11591884 0.14489868 -0.11112177
-0.11637774 0.11637776 -0.10538557
-0.11683995 0.087629981 -0.09960793
-0.11730587 0.058652923 -0.093784064
-0.1177755 0.02944392 -0.087913603
-0.11824924 -2.6077032e-08 -0.081991889
-0.11872648 -0.029681571 -0.076026395
-0.11920758 -0.059603799 -0.070012569
-0.1196926 -0.089769334 -0.06394989
-0.12018193 -0.12018192 -0.057833388
-0.12067492 -0.15084359 -0.051670909
-0.12117197 -0.1817579 -0.04545781
-0.12167314 -0.21292797 -0.039193131
-0.12217847 -0.24435696 -0.032876529
-0.12268837 -0.27604884 -0.026502743
-0.12320219 -0.30800551 -0.02008
-0.12372069 -0.34023181 -0.0135988
-0.12424321 -0.3727296 -0.0070672631
-0.12477016 -0.40550292 -0.00048042834
-0.1253016 -0.4385556 0.006162554
-0.12583795 -0.4718923 0.012867033
-0.12637855 -0.50551409 0.019624531
-0.1269238 -0.53942621 0.026440233
-0.12747417 -0.57363379 0.033319861
-0.12802896 -0.60813749 0.040254503
-0.12858897 -0.64294481 0.047254711
-0.1291535 -0.67805588 0.054311514
-0.12972303 -0.71347654 0.061430454
-0.13029799 -0.74921346 0.068617612
-0.13087769 -0.78526592 0.07586357
-0.13146253 -0.82164085 0.083174407
-0.13205306 -0.85834479 0.090555996
-0.1326485 -0.8953774 0.097999007
-0.080715343 0.61881769 -0.2148516
-0.081011713 0.59408593 -0.20991217
-0.081310257 0.56917185 -0.20493637
-0.081611231 0.54407495 -0.19992013
-0.081914224 0.51879013 -0.19487032
-0.082219481 0.49331689 -0.18978274
-0.082527012 0.4676531 -0.18465716
-0.082837075 0.44179779 -0.17948942
-0.083149254 0.41574633 -0.17428643
-0.083463803 0.3894977 -0.16904402
-0.083780736 0.36304986 -0.16376182
-0.084100306 0.33640122 -0.15843564
-0.084422097 0.30954775 -0.15307237
-0.084746368 0.28248799 -0.14766791
-0.085073136 0.25521949 -0.14222178
-0.08540266 0.22774045 -0.13672972
-0.085734524 0.20004721 -0.13119876
-0.086068965 0.17213795 -0.12562455
-0.08640603 0.14401013 -0.12000677
-0.086745985 0.11566141 -0.11434089
-0.087088384 0.087088406 -0.10863422
-0.087433502 0.058289014 -0.10288227
-0.087781362 0.029260423 -0.097084641
-0.088132247 -1.1175871e-08 -0.091236562
-0.088485703 -0.029495146 -0.085345626
-0.088841997 -0.059228025 -0.079407319
-0.089201182 -0.089201145 -0.073420912
-0.089563534 -0.11941803 -0.067381784
-0.08992859 -0.14988098 -0.061297566
-0.090296626 -0.18059319 -0.05516357
-0.090667695 -0.21155789 -0.04897929
-0.091041818 -0.24277812 -0.04274375
-0.091419309 -0.2742579 -0.036452211
-0.091799676 -0.30599892 -0.030112773
-0.092183225 -0.33800507 -0.023720384
-0.092570253 -0.37028092 -0.01726979
-0.092960283 -0.40282786 -0.010769323
-0.093353607 -0.43565011 -0.0042138249
-0.093750551 -0.46875268 0.002401799
-0.094150618 -0.50213659 0.0090695024
-0.094554096 -0.53580654 0.015794307
-0.094961345 -0.56976807 0.022581637
-0.09537182 -0.60402143 0.029422969
-0.095785864 -0.63857239 0.036323816
-0.096203811 -0.67342663 0.043289542
-0.096625127 -0.70858419 0.050311446
-0.097050153 -0.7440511 0.057395071
-0.097479232 -0.77983379 0.064546406
-0.097911812 -0.81593174 0.071756154
-0.098348252 -0.85235143 0.079030156
-0.09878891 -0.88910019 0.086374551
-0.053503755 0.61529315 -0.22251347
-0.053699084 0.59068996 -0.21763021
-0.053895846 0.56590647 -0.21271116
-0.054094054 0.54094058 -0.20775601
-0.054293863 0.51579177 -0.20276064
-0.054495018 0.49045518 -0.19773187
-0.054697666 0.46493018 -0.19266571
-0.054901827 0.43921471 -0.18756165
-0.055107661 0.41330755 -0.18241581
-0.055314898 0.38720429 -0.17723489
-0.055523701 0.36090416 -0.17201479
-0.055734083 0.33440459 -0.16675517
-0.05594622 0.30770427 -0.16145179
-0.056159824 0.28079918 -0.15611169
-0.056375068 0.25368783 -0.15073059
-0.056591969 0.22636791 -0.14530812
-0.056810692 0.1988375 -0.1398399
-0.057030968 0.17109285 -0.13433324
-0.057252951 0.14313245 -0.12878355
-0.057476677 0.11495335 -0.12319049
-0.057702307 0.086553507 -0.11754977
-0.057929561 0.057929665 -0.11186835
-0.05815861 0.029079303 -0.10614216
-0.058389477 -0 -0.10037038
-0.058622353 -0.029311107 -0.094548643
-0.058856923 -0.058856864 -0.088684246
-0.059093382 -0.088639952 -0.082772844
-0.059331749 -0.11866339 -0.07681372
-0.059572209 -0.14893046 -0.070802137
-0.059814457 -0.17944334 -0.064745836
-0.060058691 -0.21020535 -0.058640145
-0.060304921 -0.24121964 -0.052484371
-0.060553353 -0.27249014 -0.046273485
-0.060803663 -0.30401832 -0.040015608
-0.061056059 -0.33580828 -0.03370589
-0.061310731 -0.36786437 -0.027339071
-0.061567362 -0.40018779 -0.020923346
-0.061826143 -0.43278301 -0.014453799
-0.062087111 -0.46565336 -0.0079294592
-0.062350482 -0.49880376 -0.0013453662
-0.062615901 -0.53223515 0.0052902699
-0.062883601 -0.56595236 0.01198262
-0.063153781 -0.59996086 0.018737137
-0.063426107 -0.63426095 0.02554515
-0.063700788 -0.66885811 0.032412171
-0.063978046 -0.70375854 0.039343953
-0.06425754 -0.7389617 0.046331227
-0.064539686 -0.77447617 0.053384721
-0.064824112 -0.81030142 0.060495555
-0.065111071 -0.84644389 0.067669362
-0.065400772 -0.88291037 0.074911952
-0.026600379 0.61180878 -0.23008844
-0.026696937 0.58733267 -0.2252605
-0.026794199 0.56267828 -0.22039732
-0.026892174 0.53784347 -0.21549858
-0.026990939 0.51282787 -0.21056047
-0.027090359 0.48762655 -0.20558941
-0.027190516 0.46223882 -0.20058155
-0.027291415 0.43666267 -0.19553661
-0.027393138 0.41089702 -0.19045052
-0.027495548 0.3849377 -0.18532985
-0.027598731 0.35878354 -0.18017082
-0.027702687 0.33243233 -0.17497295
-0.027807506 0.30588248 -0.16973218
-0.027913045 0.27913046 -0.16445518
-0.028019389 0.25217453 -0.15913795
-0.028126545 0.22501235 -0.15378009
-0.028234599 0.19764221 -0.14837739
-0.028343413 0.1700605 -0.14293672
-0.028453069 0.14226533 -0.137454
-0.028563574 0.11425434 -0.13192853
-0.02867502 0.086025067 -0.12635626
-0.028787263 0.057574581 -0.12074429
-0.028900385 0.0289004 -0.11508808
-0.029014399 2.6077032e-08 -0.10938739
-0.029129399 -0.029129311 -0.10363746
-0.029245233 -0.058490489 -0.097845733
-0.029361989 -0.088086016 -0.092007823
-0.029479684 -0.11791862 -0.086123139
-0.029598407 -0.147992 -0.080186881
-0.02971801 -0.17830798 -0.074206948
-0.029838581 -0.20887008 -0.068178341
-0.029960133 -0.23968098 -0.062100679
-0.030082768 -0.27074486 -0.055968963
-0.030206323 -0.30206314 -0.049791172
-0.0303309 -0.33363986 -0.043562412
-0.030456504 -0.36547801 -0.037282065
-0.030583242 -0.39758208 -0.030945137
-0.030710952 -0.42995328 -0.024559751
-0.030839734 -0.462596 -0.018120632
-0.030969691 -0.49551502 -0.011622772
-0.031100653 -0.52871108 -0.0050746202
-0.031232731 -0.5621891 0.0015292168
-0.031366024 -0.59595454 0.0081939697
-0.031500369 -0.63000739 0.014911264
-0.031635873 -0.66435331 0.021686316
-0.03177264 -0.69899803 0.028524607
-0.031910498 -0.73394132 0.035417467
-0.032049559 -0.76918942 0.042370588
-0.032189932 -0.80474824 0.049389273
-0.032331444 -0.84061754 0.056464881
-0.032474205 -0.87680352 0.063602924
-0.032618333 -0.91331327 0.070809275
0 0.60836339 -0.23757818
0 0.58401322 -0.23280452
0 0.55948669 -0.22799632
0 0.53478175 -0.2231531
0 0.50989777 -0.21827114
0 0.48483029 -0.21335676
0 0.45957834 -0.20840642
0 0.43414026 -0.20341936
0 0.40851459 -0.198392
0 0.38269746 -0.19333075
0 0.35668769 -0.18823159
0 0.33048317 -0.18309444
0 0.30408165 -0.17791849
0 0.27748153 -0.17269999
0 0.25067917 -0.16744554
0 0.22367302 -0.16215113
0 0.19646078 -0.15681635
0 0.16904046 -0.15143697
0 0.14140877 -0.14601991
0 0.11356383 -0.14056103
0 0.085502908 -0.13505986
0 0.057223868 -0.12951204
0 0.028723683 -0.12392472
0 9.3132257e-08 -0.11829358
0 -0.028949689 -0.11261812
0 -0.058128484 -0.10689385
0 -0.087538756 -0.1011281
0 -0.11718324 -0.095316447
0 -0.14706485 -0.089458287
0 -0.17718697 -0.083548948
0 -0.20755154 -0.077596135
0 -0.23816197 -0.071595073
0 -0.26902115 -0.065545276
0 -0.30013305 -0.059441797
0 -0.33149922 -0.053292528
0 -0.36312348 -0.04709278
0 -0.39500904 -0.040841624
0 -0.42716038 -0.034534305
0 -0.45957851 -0.028178871
0 -0.49226931 -0.021765783
0 -0.52523333 -0.015303224
0 -0.55847555 -0.0087861419
0 -0.59199941 -0.0022139251
0 -0.6258105 0.0044189095
0 -0.65990859 0.011103719
0 -0.69429946 0.017846107
0 -0.72898883 0.02465117
0 -0.76397651 0.031510442
0 -0.79926836 0.038429409
0 -0.83487087 0.045413584
0 -0.87078309 0.052454144
0 -0.90701461 0.0595617
0.026208669 0.62900811 -0.24967384
0.026302468 0.60495681 -0.244984
0.026396872 0.58073121 -0.24026372
0.026491959 0.5563311 -0.23550953
0.02658773 0.53175461 -0.23072083
0.026684266 0.50700098 -0.22589417
0.026781436 0.48206586 -0.2210356
0.026879316 0.45694837 -0.21614154
0.026977915 0.4316467 -0.21121156
0.02707731 0.4061597 -0.20624182
0.027177371 0.38048327 -0.20123881
0.02727817 0.35461625 -0.19619876
0.027379725 0.32855669 -0.19112122
0.027482035 0.30230242 -0.18600555
0.027585188 0.27585194 -0.18084797
0.027689043 0.2492014 -0.17565523
0.027793683 0.22234948 -0.17042321
0.027899118 0.19529389 -0.16515149
0.028005429 0.1680326 -0.15983596
0.02811248 0.14056246 -0.15448332
0.028220352 0.11288145 -0.14908984
0.028329054 0.084987164 -0.14365467
0.028438674 0.056877345 -0.13817367
0.02854907 0.028549112 -0.13265394
0.028660323 -2.2351742e-08 -0.12709114
0.028772449 -0.028772496 -0.12148491
0.028885534 -0.057771049 -0.11583066
0.028999433 -0.086998262 -0.11013579
0.029114231 -0.11645693 -0.10439582
0.029229945 -0.14614971 -0.098610029
0.029346664 -0.17607996 -0.092774302
0.029464232 -0.20624956 -0.086895712
0.02958275 -0.23666193 -0.080969833
0.029702222 -0.26732004 -0.074996121
0.029822752 -0.29822749 -0.068969779
0.029944176 -0.32938588 -0.062898636
0.030066591 -0.36079901 -0.056777716
0.030190015 -0.39247015 -0.050606579
0.03031454 -0.42440352 -0.044380188
0.030440012 -0.45660016 -0.038106769
0.030566525 -0.48906443 -0.031781062
0.030694185 -0.52180111 -0.025398135
0.030822825 -0.5548107 -0.018966198
0.030952547 -0.58809841 -0.01248005
0.031083457 -0.62166905 -0.0059345365
0.031215386 -0.65552312 0.00066199899
0.031348445 -0.68966556 0.0073147416
0.03148273 -0.72410268 0.014029115
0.031618077 -0.75883377 0.020796508
0.031754598 -0.79386485 0.027622521
0.031892393 -0.82920229 0.034512401
0.032031294 -0.86484504 0.041457444
0.032171413 -0.90079945 0.048463345
0.052126486 0.62551785 -0.25694525
0.052311867 0.60158652 -0.2523106
0.052498709 0.57748586 -0.24763954
0.052686755 0.55321097 -0.24293844
0.052876152 0.52876163 -0.2382035
0.053066924 0.50413579 -0.23343438
0.053259201 0.4793328 -0.22862729
0.053452745 0.45434833 -0.22378868
0.053647704 0.42918167 -0.21891475
0.053844091 0.40383071 -0.2140052
0.054042052 0.37829441 -0.20905605
0.054241341 0.35256875 -0.20407388
0.0544421 0.32665271 -0.19905481
0.054644354 0.3005439 -0.19399855
0.054848257 0.27424136 -0.18890089
0.055053547 0.24774091 -0.18376872
0.055260379 0.22104155 -0.17859793
0.055468768 0.19414076 -0.17338812
0.05567874 0.16703629 -0.16813894
0.055890448 0.13972618 -0.16284615
0.056103628 0.11220731 -0.15751666
0.05631844 0.084477678 -0.1521464
0.056534905 0.056534965 -0.14673479
0.056753188 0.028376609 -0.14127757
0.05697301 2.9802322e-08 -0.13578194
0.057194546 -0.028597213 -0.1302436
0.05741781 -0.057417817 -0.12466212
0.057642981 -0.08646448 -0.11903281
0.057869766 -0.11573946 -0.11336316
0.058098342 -0.14524576 -0.10764886
0.058328733 -0.17498615 -0.10188907
0.058561116 -0.20496389 -0.09607935
0.058795199 -0.23518074 -0.090227395
0.059031159 -0.26564014 -0.084328309
0.059269022 -0.29634511 -0.078381725
0.059508976 -0.32729936 -0.072382957
0.059750717 -0.35850412 -0.066339523
0.059994422 -0.38996369 -0.06024684
0.060240123 -0.42168084 -0.054104179
0.060488023 -0.45366013 -0.047906756
0.060737796 -0.48590225 -0.04166247
0.060989641 -0.51841187 -0.035366401
0.061243758 -0.55119389 -0.029013366
0.061499823 -0.5842483 -0.022611648
0.061758041 -0.61758041 -0.016156346
0.062018618 -0.65119541 -0.0096419156
0.062281221 -0.6850934 -0.0030768514
0.062546052 -0.71927953 0.0035439134
0.062813334 -0.75376004 0.010226041
0.063082717 -0.78853393 0.016960651
0.063354433 -0.82360756 0.023753375
0.063628681 -0.85898715 0.030609697
0.063905127 -0.89467168 0.037520707
0.077758268 0.62206614 -0.26413625
0.078033276 0.5982551 -0.25955278
0.07831043 0.57427651 -0.25493354
0.078589365 0.55012566 -0.25028443
0.078870304 0.52580208 -0.24560229
0.079153255 0.50130391 -0.24088652
0.079438433 0.47663063 -0.23613343
0.079725482 0.45177776 -0.2313493
0.080014609 0.42674458 -0.22653054
0.080305845 0.40152919 -0.22167657
0.080599412 0.37613055 -0.21678385
0.080894925 0.35054472 -0.21185854
0.081192613 0.32477048 -0.20689711
0.081492499 0.29880583 -0.20189896
0.081794821 0.2726495 -0.19686022
0.082099192 0.2462976 -0.19178756
0.08240582 0.21974888 -0.18667701
0.082714751 0.19300112 -0.18152808
0.083026014 0.16605203 -0.17634052
0.083339848 0.13889977 -0.17110993
0.083655834 0.11154114 -0.16584344
0.083974227 0.083974272 -0.16053694
0.084295057 0.056196798 -0.15518966
0.084618576 0.028206222 -0.14979784
0.084944353 -1.4901161e-08 -0.1443681
0.085272655 -0.028424192 -0.13889644
0.085603505 -0.057068933 -0.13338229
0.085937157 -0.085937165 -0.12782145
0.086273193 -0.11503091 -0.12222079
0.08661186 -0.14435309 -0.1165763
0.0869532 -0.17390634 -0.11088738
0.087297484 -0.20369408 -0.10514924
0.087644264 -0.23371795 -0.099369645
0.087993801 -0.26398137 -0.093543939
0.088346146 -0.29448715 -0.087671593
0.088701569 -0.32523906 -0.081747815
0.089059614 -0.35623842 -0.075780392
0.089420564 -0.38748902 -0.069764689
0.089784443 -0.41899407 -0.063699886
0.090151563 -0.45075774 -0.05758141
0.090521432 -0.48278093 -0.051416799
0.090894349 -0.51506793 -0.04520151
0.091270611 -0.54762357 -0.038930476
0.091649741 -0.58044827 -0.032611638
0.09203203 -0.61354685 -0.026240081
0.092417799 -0.64692456 -0.019810677
0.09280654 -0.68058121 -0.013331741
0.093198568 -0.71452224 -0.0067979693
0.093594193 -0.74875343 -0.00020420551
0.093992911 -0.78327417 0.0064411759
0.094395049 -0.8180902 0.013143331
0.094800912 -0.85320812 0.019907922
0.095210008 -0.88862669 0.026726037
0.10310871 0.61865222 -0.27124852
0.10347138 0.59496045 -0.26671517
0.10383659 0.57110125 -0.26214993
0.10420466 0.5470745 -0.25754917
0.10457508 0.52287543 -0.25291884
0.10494815 0.49850371 -0.24825543
0.1053239 0.4739576 -0.2435587
0.10570259 0.44923612 -0.23882484
0.10608377 0.42433515 -0.23406014
0.1064677 0.39925388 -0.2292611
0.10685442 0.37399048 -0.22442713
0.10724423 0.34854388 -0.21955442
0.10763662 0.32290995 -0.21464951
0.10803191 0.29708776 -0.2097086
0.1084301 0.27107525 -0.2047313
0.1088315 0.24487093 -0.19971356
0.10923561 0.21847127 -0.19466217
0.10964274 0.19187486 -0.18957298
0.11005292 0.1650794 -0.18444587
0.11046646 0.13808309 -0.17927662
0.11088283 0.11088288 -0.17407188
0.11130235 0.083476841 -0.16882795
0.11172507 0.055862598 -0.16354403
0.11215129 0.028037913 -0.15821615
0.11258049 8.1956387e-08 -0.15285125
0.11301298 -0.028253175 -0.14744519
0.11344881 -0.056724414 -0.14199731
0.11388832 -0.085416131 -0.13650343
0.11433093 -0.11433098 -0.13097067
0.114777 -0.14347126 -0.12539473
0.11522657 -0.17283982 -0.11977519
0.11567967 -0.20243938 -0.11411147
0.11613667 -0.23227334 -0.10839899
0.11659697 -0.26234317 -0.10264512
0.11706094 -0.29265228 -0.096845724
0.11752861 -0.32320362 -0.09099973
0.11800037 -0.35400108 -0.085102782
0.11847559 -0.38504559 -0.079162478
0.11895465 -0.41634119 -0.073174134
0.11943761 -0.447891 -0.067137152
0.11992485 -0.47969934 -0.061046734
0.12041573 -0.51176679 -0.054910764
0.12091064 -0.5440979 -0.048724189
0.12141 -0.57669753 -0.042482197
0.12191314 -0.60956573 -0.036192983
0.12242047 -0.64270747 -0.029851377
0.1229324 -0.67612821 -0.023452282
0.12344827 -0.70982742 -0.017003953
0.12396848 -0.74381089 -0.010501236
0.12449347 -0.77808416 -0.0039389133
0.12502255 -0.81264657 0.0026745796
0.12555616 -0.8475039 0.009344548
0.12609468 -0.88266277 0.016076267
0.12818243 0.61527568 -0.278283
0.12863082 0.59170175 -0.27379921
0.12908235 0.56796235 -0.26928383
0.12953737 0.54405701 -0.26473355
0.12999532 0.51998127 -0.26015428
0.13045648 0.49573466 -0.25554246
0.13092095 0.47131544 -0.25089788
0.13138907 0.44672281 -0.2462168
0.1318602 0.42195261 -0.24150541
0.13233472 0.39700419 -0.23676008
0.13281268 0.37187552 -0.23198047
0.13329443 0.3465656 -0.22716285
0.13377938 0.32107052 -0.22231367
0.13426784 0.29538921 -0.21742898
0.13475989 0.26951984 -0.21250843
0.1352559 0.2434607 -0.20754823
0.13575524 0.21720847 -0.20255494
0.13625827 0.1907616 -0.19752471
0.13676505 0.16411807 -0.1924569
0.13727596 0.13727596 -0.1873478
0.13779034 0.11023225 -0.18220392
0.1383086 0.082985193 -0.17702128
0.13883077 0.055532366 -0.17179963
0.13935727 0.027871519 -0.16653471
0.13988739 2.2351742e-08 -0.16123334
0.14042158 -0.028084248 -0.15589154
0.14095986 -0.056383964 -0.15050884
0.14150265 -0.084901586 -0.14508076
0.14204927 -0.11363935 -0.13961469
0.14260012 -0.14260007 -0.1341062
0.14315526 -0.17178622 -0.12855476
0.14371474 -0.20120068 -0.12295993
0.144279 -0.23084632 -0.11731733
0.14484732 -0.26072511 -0.11163417
0.14542013 -0.29084027 -0.10590599
0.14599749 -0.3211945 -0.10013245
0.14657986 -0.35179168 -0.094308734
0.14716648 -0.38263279 -0.088442519
0.14775783 -0.41372183 -0.082529187
0.14835393 -0.44506183 -0.076568052
0.14895529 -0.47665691 -0.070554495
0.14956112 -0.50850779 -0.064496189
0.15017189 -0.54061884 -0.058388337
0.15078768 -0.57299316 -0.052230537
0.15140897 -0.60563576 -0.046017617
0.15203497 -0.63854682 -0.039757699
0.1526666 -0.67173308 -0.033441246
0.15330307 -0.705194 -0.027076691
0.15394485 -0.73893529 -0.020658791
0.1545925 -0.77296245 -0.014182448
0.15524516 -0.8072747 -0.0076559186
0.15590334 -0.84187794 -0.0010740161
0.15656759 -0.87677848 0.0055685341
0.15723707 -0.91197503 0.012263358
0.15298395 0.61193579 -0.28524116
0.15351616 0.58847862 -0.28080606
0.15405209 0.56485772 -0.27633989
0.1545918 0.54107136 -0.27184239
0.15513568 0.51711887 -0.2673102
0.155683 0.49299616 -0.26274908
0.1562342 0.46870267 -0.2581557
0.15678932 0.4442364 -0.25352973
0.1573488 0.41959676 -0.24886742
0.15791187 0.39477962 -0.24417508
0.15847901 0.36978436 -0.23944899
0.15905021 0.34460884 -0.23468882
0.15962598 0.31925195 -0.22989097
0.1602055 0.29371017 -0.22506146
0.16078925 0.2679821 -0.22019689
0.16137728 0.24206594 -0.21529675
0.16197003 0.21596003 -0.21035713
0.16256674 0.18966126 -0.20538446
0.16316786 0.16316788 -0.2003752
0.16377343 0.13647787 -0.19532868
0.16438396 0.10958938 -0.19024095
0.16499862 0.082499348 -0.18511884
0.1656179 0.055205941 -0.17995824
0.16624184 0.027707033 -0.17475872
0.16687094 -0 -0.1695163
0.16750437 -0.027917333 -0.16423757
0.16814263 -0.056047525 -0.1589188
0.16878578 -0.084392875 -0.15355922
0.16943431 -0.11295623 -0.14815469
0.1700874 -0.14173947 -0.14271241
0.17074552 -0.17074548 -0.13722794
0.17140879 -0.19997692 -0.13170087
0.17207767 -0.22943692 -0.12612672
0.17275132 -0.25912693 -0.12051292
0.17343029 -0.28905043 -0.11485492
0.1741146 -0.31921002 -0.10915235
0.17480481 -0.34960961 -0.10340053
0.17550004 -0.38025004 -0.097607031
0.17620082 -0.41113526 -0.091767162
0.17690721 -0.44226798 -0.085880548
0.1776198 -0.47365272 -0.079942361
0.17833765 -0.50528991 -0.073960394
0.17906131 -0.53718388 -0.067929864
0.17979087 -0.56933773 -0.061850071
0.18052693 -0.60175639 -0.055716306
0.1812685 -0.63443971 -0.049536496
0.18201621 -0.66739279 -0.043305606
0.18277062 -0.70062071 -0.037018836
0.18353079 -0.73412311 -0.030684054
0.18429731 -0.76790547 -0.024296343
0.18507081 -0.80197346 -0.017850608
0.18585028 -0.83632618 -0.011355102
0.18663633 -0.87096941 -0.0048046708
0.18742962 -0.90590978 0.0018061697
0.17751764 0.60863197 -0.29212424
0.17813186 0.58529043 -0.28773692
0.17875037 0.56178689 -0.28331909
0.17937317 0.53811955 -0.27887046
0.18000077 0.51428795 -0.27438766
0.18063232 0.49028781 -0.26987639
0.18126833 0.46611863 -0.26533341
0.18190886 0.44177872 -0.2607584
0.18255435 0.41726714 -0.25614768
0.183204 0.39258006 -0.2515074
0.18385828 0.36771661 -0.24683398
0.18451725 0.34267488 -0.24212702
0.18518142 0.31745392 -0.23738287
0.18584993 0.29204994 -0.23260772
0.1865233 0.26646188 -0.2277981
0.18720154 0.24068774 -0.22295344
0.18788522 0.21472597 -0.21807002
0.18857343 0.18857345 -0.21315424
0.18926671 0.1622286 -0.20820229
0.18996508 0.13568935 -0.2032139
0.19066913 0.10895386 -0.1981848
0.19137794 0.082019135 -0.19312209
0.19209203 0.054883562 -0.18802145
0.19281146 0.027544521 -0.18288273
0.1935368 1.0430813e-07 -0.17770156
0.19426712 -0.027752437 -0.17248504
0.19500297 -0.055715103 -0.16722894
0.19574443 -0.083890453 -0.16193292
0.19649205 -0.11228119 -0.15659276
0.19724488 -0.14088911 -0.15121534
0.1980035 -0.16971725 -0.14579661
0.19876799 -0.19876795 -0.14033601
0.19953893 -0.22804444 -0.13482927
0.20031534 -0.25754821 -0.12928355
0.2010978 -0.28728253 -0.12369443
0.20188642 -0.31725001 -0.11806154
0.20268179 -0.34745455 -0.11238018
0.20348291 -0.37789685 -0.10665797
0.20429036 -0.40858066 -0.10089035
0.20510428 -0.43950909 -0.095076814
0.20592527 -0.47068629 -0.089212701
0.20675227 -0.50211263 -0.083305448
0.20758593 -0.53379226 -0.077350721
0.20842636 -0.5657286 -0.071347639
0.20927362 -0.59792459 -0.065295726
0.21012838 -0.63038516 -0.059190243
0.21098958 -0.66311002 -0.053039014
0.21185783 -0.69610417 -0.046837151
0.21273389 -0.72937334 -0.040579557
0.21361661 -0.76291639 -0.034274429
0.2145073 -0.79674131 -0.027912378
0.21540482 -0.83084702 -0.021501541
0.21630989 -0.8652395 -0.015036762
0.21722323 -0.89992476 -0.0085128844
0.20109767 0.62843025 -0.30324692
0.20178783 0.60536355 -0.29893333
0.20248228 0.58213663 -0.29459307
0.20318154 0.55874926 -0.29022273
0.20388561 0.53519976 -0.28582227
0.2045951 0.51148778 -0.28138801
0.20530903 0.487609 -0.27692586
0.20602795 0.46356291 -0.2724326
0.20675196 0.43934795 -0.26790762
0.20748156 0.41496307 -0.26334763
0.20821582 0.39040476 -0.25875846
0.20895529 0.36567181 -0.25413668
0.20970005 0.34076262 -0.2494821
0.2104501 0.3156752 -0.24479413
0.21120609 0.29040846 -0.24006918
0.21196702 0.26495877 -0.2353135
0.2127334 0.23932511 -0.23052357
0.21350539 0.21350533 -0.22569875
0.21428353 0.18749814 -0.22083533
0.21506681 0.16130015 -0.21593983
0.21585585 0.13490991 -0.21100838
0.21665068 0.10832535 -0.20604058
0.21745196 0.081544504 -0.20103267
0.21825862 0.054564692 -0.19599101
0.21907128 0.027383901 -0.19091183
0.21989003 5.9604645e-08 -0.18579474
0.22071548 -0.027589403 -0.18063566
0.22154659 -0.055386592 -0.17544124
0.22238396 -0.083393961 -0.17020757
0.22322772 -0.11161383 -0.16493414
0.22407848 -0.140049 -0.15961698
0.22493513 -0.16870135 -0.15426278
0.2257984 -0.19757353 -0.14886755
0.2266683 -0.22666821 -0.14343055
0.22754551 -0.2559886 -0.13794787
0.22842896 -0.28553626 -0.13242635
0.22931929 -0.31531399 -0.12686186
0.23021658 -0.34532481 -0.1212538
0.23112154 -0.3755725 -0.11559768
0.23203301 -0.40605772 -0.10990095
0.23295173 -0.43678445 -0.1041591
0.2338777 -0.46775538 -0.09837167
0.23481177 -0.49897495 -0.092533842
0.23575266 -0.53044343 -0.086653352
0.23670109 -0.56216508 -0.080725536
0.2376572 -0.59414291 -0.074749887
0.23862173 -0.62638199 -0.068721563
0.23959346 -0.65888202 -0.062648267
0.24057312 -0.69164765 -0.056525379
0.24156152 -0.7246846 -0.050347835
0.24255739 -0.75799173 -0.044123739
0.24356149 -0.79157484 -0.037848055
0.24457465 -0.82543945 -0.031515747
0.24559556 -0.85958445 -0.025134981
0.24662504 -0.89401567 -0.018700868
0.22503057 0.62508506 -0.30993748
0.22579877 0.60213006 -0.30566972
0.22657168 0.57901651 -0.30137581
0.22734989 0.55574417 -0.29705235
0.22813348 0.5323115 -0.29269907
0.22892307 0.50871789 -0.28831264
0.22971754 0.48495927 -0.28389877
0.23051755 0.46103516 -0.27945423
0.23132318 0.4369438 -0.27497855
0.232135 0.4126845 -0.27046835
0.23295198 0.38825327 -0.26592967
0.23377474 0.3636497 -0.26135874
0.23460332 0.33887151 -0.25675559
0.2354378 0.31391707 -0.25211966
0.23627882 0.28878525 -0.24744725
0.23712528 0.26347256 -0.2427447
0.23797783 0.23797786 -0.23800826
0.23883653 0.21229918 -0.23323779
0.23970205 0.18643504 -0.2284293
0.24057326 0.16038218 -0.2235893
0.24145083 0.13413939 -0.21871389
0.24233481 0.10770435 -0.21380281
0.24322592 0.081075326 -0.20885223
0.244123 0.054249555 -0.20386854
0.24502669 0.027225226 -0.19884801
0.24593711 2.2351742e-08 -0.19379002
0.24685496 -0.027428307 -0.1886909
0.24777904 -0.055061959 -0.18355712
0.24871007 -0.082903296 -0.17838478
0.24964811 -0.11095466 -0.17317344
0.25059393 -0.13921882 -0.16791888
0.25154626 -0.16769747 -0.16262813
0.25250587 -0.19639336 -0.15729699
0.25347283 -0.22530907 -0.15192503
0.25444791 -0.25444785 -0.14650792
0.2554298 -0.28381079 -0.14105284
0.25641933 -0.31340128 -0.13555546
0.25741658 -0.34322208 -0.1300153
0.25842226 -0.37327659 -0.12442811
0.25943515 -0.4035657 -0.11880101
0.26045603 -0.43409324 -0.11312942
0.26148495 -0.46486205 -0.10741317
0.26252276 -0.49587625 -0.10164763
0.26356813 -0.52713621 -0.095840022
0.26462182 -0.55864602 -0.089986086
0.26568398 -0.59040892 -0.084085107
0.26675549 -0.62242937 -0.07813248
0.2678349 -0.65470743 -0.072135717
0.26892304 -0.68724775 -0.066090316
0.2700201 -0.72005361 -0.059995592
0.27112693 -0.75313026 -0.053846627
0.27224207 -0.78647709 -0.04765135
0.27336645 -0.82009929 -0.041404933
0.27450091 -0.85400283 -0.035102248
0.27564403 -0.88818622 -0.028751642
0.24871004 0.62177515 -0.31655711
0.24955396 0.59892964 -0.31233749
0.25040424 0.57592976 -0.3080861
0.25125971 0.55277145 -0.30380869
0.25212106 0.52945435 -0.29950193
0.25298834 0.50597668 -0.29516572
0.2538622 0.48233822 -0.29079628
0.25474152 0.45853475 -0.28639978
0.25562695 0.43456581 -0.28197256
0.25651854 0.41042975 -0.27751452
0.25741702 0.38612556 -0.27302217
0.2583212 0.36164969 -0.26850143
0.25923172 0.33700123 -0.26394883
0.2601487 0.31217846 -0.25936386
0.26107281 0.28718022 -0.25474319
0.26200289 0.26200292 -0.25009292
0.2629396 0.2366457 -0.24540931
0.26388302 0.2111064 -0.24069218
0.26483396 0.18538375 -0.23593776
0.26579106 0.15947463 -0.23115218
0.2667551 0.13337764 -0.22633186
0.26772615 0.10709047 -0.2214766
0.26870501 0.080611564 -0.21658233
0.26969036 0.053938158 -0.21165562
0.27068293 0.027068354 -0.20669267
0.27168286 3.7252903e-08 -0.20169289
0.27269021 -0.027269013 -0.19665626
0.27370578 -0.05474104 -0.19157851
0.27472821 -0.082418367 -0.18646634
0.2757583 -0.11030331 -0.18131587
0.27679616 -0.13839801 -0.17612667
0.27784255 -0.16670549 -0.17089447
0.27889621 -0.19522731 -0.16562638
0.27995786 -0.2239663 -0.16031803
0.28102762 -0.25292477 -0.15496933
0.28210634 -0.28210631 -0.14957571
0.28319263 -0.31151187 -0.14414427
0.2842873 -0.3411448 -0.13867086
0.28539047 -0.37100759 -0.13315494
0.28650299 -0.40110409 -0.12759237
0.28762347 -0.43143517 -0.12198995
0.28875273 -0.4620043 -0.1163436
0.28989092 -0.49281454 -0.11065274
0.2910389 -0.52386999 -0.10491288
0.2921952 -0.55517089 -0.09913139
0.29336074 -0.58672136 -0.0933038
0.29453558 -0.61852461 -0.087429523
0.29572073 -0.65058547 -0.081503808
0.29691461 -0.68290353 -0.075534403
0.29811814 -0.71548355 -0.069516599
0.29933235 -0.74833083 -0.063445628
0.30055562 -0.78144455 -0.057329237
0.30178893 -0.81483006 -0.05116272
0.30303329 -0.84849316 -0.044940889
0.30428705 -0.88243246 -0.038672
0.30555126 -0.91665375 -0.032351047
0.27214006 0.61850023 -0.32310694
0.27305862 0.59576428 -0.31893179
0.27398404 0.57287574 -0.31472528
0.2749151 0.54983026 -0.31049326
0.27585253 0.52662754 -0.3062323
0.27679634 0.50326604 -0.30194226
0.2777473 0.47974533 -0.29761964
0.27870417 0.45606139 -0.29327023
0.27966765 0.4322136 -0.28889087
0.2806378 0.40820047 -0.28448102
0.28161538 0.38402098 -0.28003746
0.28259912 0.35967159 -0.27556589
0.28358975 0.33515155 -0.27106297
0.28458738 0.31045905 -0.26652837
0.28559271 0.28559273 -0.2619586
0.28660449 0.26054955 -0.25735965
0.28762347 0.23532832 -0.25272799
0.28864971 0.20992711 -0.24806324
0.289684 0.1843444 -0.24336186
0.29072502 0.15857732 -0.23862988
0.29177359 0.13262442 -0.23386385
0.29282969 0.10648353 -0.2290633
0.29389423 0.080153026 -0.22422448
0.29496577 0.053630173 -0.21935368
0.29604518 0.026913263 -0.21444738
0.29713252 1.4901161e-08 -0.20950505
0.29822788 -0.027111523 -0.2045261
0.29933211 -0.054424047 -0.19950691
0.30044374 -0.081939176 -0.19445392
0.30156368 -0.10965949 -0.1893633
0.30269203 -0.1375872 -0.18423457
0.30382961 -0.16572514 -0.17906372
0.304975 -0.19407493 -0.17385738
0.30612904 -0.22263926 -0.16861174
0.30729184 -0.2514205 -0.16332626
0.30846432 -0.28042212 -0.15799673
0.309645 -0.30964494 -0.15263015
0.31083471 -0.33909237 -0.14722224
0.31203362 -0.36876696 -0.14177269
0.31324264 -0.39867237 -0.13627712
0.31446025 -0.4288094 -0.13074253
0.31568733 -0.45918149 -0.12516488
0.31692404 -0.48979163 -0.11954357
0.31817135 -0.52064401 -0.11387397
0.31942761 -0.55173862 -0.10816364
0.32069388 -0.5830797 -0.10240799
0.32197019 -0.61467028 -0.096606582
0.3232576 -0.64651513 -0.090754598
0.32455447 -0.67861378 -0.084859878
0.32586175 -0.71097106 -0.078917563
0.32717964 -0.74359 -0.072927296
0.32850915 -0.77647609 -0.066883981
0.32984856 -0.80962813 -0.060795784
0.33119893 -0.84305173 -0.054657698
0.33256137 -0.87675267 -0.048464775
0.3339341 -0.91072929 -0.042225063
0.29532459 0.61525959 -0.32958823
0.29631612 0.59263229 -0.32545674
0.29731441 0.56985259 -0.32129741
0.29832006 0.54692018 -0.31710705
0.2993319 0.52383083 -0.31289119
0.30035058 0.5005843 -0.30864662
0.30137622 0.47717908 -0.30437297
0.30240965 0.45361459 -0.30006707
0.30344945 0.42988679 -0.29573461
0.30449641 0.40599522 -0.29137227
0.30555063 0.38193831 -0.28697973
0.30661294 0.35771516 -0.28255343
0.30768186 0.33332205 -0.2780996
0.30875829 0.30875829 -0.27361453
0.30984229 0.28402209 -0.26909783
0.31093469 0.25911224 -0.26454622
0.31203401 0.23402557 -0.25996548
0.3131412 0.20876087 -0.25535238
0.31425622 0.18331616 -0.25070646
0.31538001 0.15769005 -0.246024
0.31651106 0.13187967 -0.24131119
0.31765029 0.1058834 -0.23656456
0.31879771 0.079699412 -0.23178351
0.31995428 0.053325839 -0.2269645
0.32111847 0.026759826 -0.22211379
0.32229114 1.4901161e-08 -0.21722764
0.32347241 -0.026956059 -0.21230567
0.32466322 -0.05411052 -0.20734406
0.32586196 -0.081465423 -0.20234919
0.32706961 -0.10902314 -0.19731736
0.32828623 -0.13678594 -0.19224805
0.32951194 -0.16475601 -0.18714085
0.33074772 -0.19293612 -0.18199189
