# .PCD v0.7 - Point Cloud Data file format
VERSION 0.7
FIELDS x y z
SIZE 4 4 4
TYPE F F F
COUNT 1 1 1
WIDTH 1392
HEIGHT 1
VIEWPOINT 0 0 0 1 0 0 0
POINTS 1392
DATA ascii
-0.26798415 -0.10719365 -0.22018671
-0.27305093 -0.13652548 -0.19485264
-0.27831376 -0.16698815 -0.16853848
-0.28378272 -0.1986478 -0.14119384
-0.28947088 -0.23157661 -0.11275295
-0.29539257 -0.26585326 -0.083144464
-0.30156073 -0.30156064 -0.052303702
-0.30799291 -0.33879215 -0.020142853
-0.31470448 -0.37764528 0.013415053
-0.32171509 -0.41822958 0.048468158
-0.32904622 -0.46066469 0.085123658
-0.33671814 -0.50507718 0.12348337
-0.34475753 -0.55161196 0.16368027
-0.35318899 -0.60042125 0.20583756
-0.36204317 -0.65167779 0.2501086
-0.37135404 -0.70557261 0.29666287
-0.38115507 -0.76231015 0.34566802
-0.39148894 -0.82212669 0.39733726
-0.40239719 -0.88527381 0.45187876
-0.41393077 -0.95204085 0.5095467
-0.42614678 -1.0227523 0.57062662
-0.4391039 -1.0977598 0.63541222
-0.4152883 1.0612923 0.74704981
-0.39570644 0.96728259 0.63826197
-0.37788665 0.88173562 0.53926307
-0.36160401 0.80356437 0.44880372
-0.34666532 0.73184901 0.36581105
-0.33291316 0.66582632 0.28941011
-0.32020935 0.60483992 0.21883351
-0.30844048 0.54833865 0.15345076
-0.297506 0.49584338 0.092703789
-0.28731939 0.44694141 0.036111593
-0.2778081 0.40127838 -0.016728997
-0.26890558 0.3585408 -0.066187471
-0.26055664 0.31845808 -0.11257061
-0.25270981 0.28078875 -0.15616392
-0.24532245 0.24532253 -0.19720486
-0.23835413 0.2118704 -0.23591779
-0.23177129 0.18026656 -0.27248901
-0.22554177 0.15036117 -0.30709755
-0.21963887 0.12202162 -0.33989149
-0.21403703 0.095127627 -0.3710126
-0.21345727 0.071152493 -0.37423354
-0.21702141 0.048226997 -0.35443288
-0.22070707 0.024523064 -0.3339569
-0.2245196 -1.4901161e-08 -0.31277636
-0.22846666 -0.025385186 -0.29084808
-0.23255444 -0.05167871 -0.26813826
-0.23679115 -0.078930393 -0.24460086
-0.24118571 -0.10719365 -0.22018671
-0.24574584 -0.13652548 -0.19485264
-0.25048238 -0.16698815 -0.16853848
-0.25540444 -0.1986478 -0.14119384
-0.2605238 -0.23157661 -0.11275295
-0.26585332 -0.26585326 -0.083144464
-0.27140468 -0.30156064 -0.052303702
-0.27719361 -0.33879215 -0.020142853
-0.28323403 -0.37764528 0.013415053
-0.2895436 -0.41822958 0.048468158
-0.29614159 -0.46066469 0.085123658
-0.30304635 -0.50507718 0.12348337
-0.31028175 -0.55161196 0.16368027
-0.31787008 -0.60042125 0.20583756
-0.32583886 -0.65167779 0.2501086
-0.33421862 -0.70557261 0.29666287
-0.34303957 -0.76231015 0.34566802
-0.35234004 -0.82212669 0.39733726
-0.36215749 -0.88527381 0.45187876
-0.37253773 -0.95204085 0.5095467
-0.38353211 -1.0227523 0.57062662
-0.39519352 -1.0977598 0.63541222
-0.36914515 1.0612923 0.74704981
-0.35173908 0.96728259 0.63826197
-0.33589923 0.88173562 0.53926307
-0.3214258 0.80356437 0.44880372
-0.30814698 0.73184901 0.36581105
-0.29592282 0.66582632 0.28941011
-0.28463054 0.60483992 0.21883351
-0.2741693 0.54833865 0.15345076
-0.26444978 0.49584338 0.092703789
-0.25539503 0.44694141 0.036111593
-0.24694054 0.40127838 -0.016728997
-0.23902717 0.3585408 -0.066187471
-0.23160589 0.31845808 -0.11257061
-0.22463094 0.28078875 -0.15616392
-0.21806441 0.24532253 -0.19720486
-0.21187034 0.2118704 -0.23591779
-0.20601892 0.18026656 -0.27248901
-0.20048158 0.15036117 -0.30709755
-0.19523454 0.12202162 -0.33989149
-0.19025515 0.095127627 -0.3710126
-0.18973981 0.071152493 -0.37423354
-0.19290791 0.048226997 -0.35443288
-0.19618407 0.024523064 -0.3339569
-0.19957297 -1.4901161e-08 -0.31277636
-0.20308147 -0.025385186 -0.29084808
-0.20671505 -0.05167871 -0.26813826
-0.21048103 -0.078930393 -0.24460086
-0.2143873 -0.10719365 -0.22018671
-0.21844076 -0.13652548 -0.19485264
-0.222651 -0.16698815 -0.16853848
-0.22702615 -0.1986478 -0.14119384
-0.23157671 -0.23157661 -0.11275295
-0.23631406 -0.26585326 -0.083144464
-0.24124859 -0.30156064 -0.052303702
-0.24639431 -0.33879215 -0.020142853
-0.25176358 -0.37764528 0.013415053
-0.25737208 -0.41822958 0.048468158
-0.26323697 -0.46066469 0.085123658
-0.26937452 -0.50507718 0.12348337
-0.27580601 -0.55161196 0.16368027
-0.2825512 -0.60042125 0.20583756
-0.28963456 -0.65167779 0.2501086
-0.29708323 -0.70557261 0.29666287
-0.30492404 -0.76231015 0.34566802
-0.31319115 -0.82212669 0.39733726
-0.32191777 -0.88527381 0.45187876
-0.33114466 -0.95204085 0.5095467
-0.34091741 -1.0227523 0.57062662
-0.3512831 -1.0977598 0.63541222
-0.32300201 1.0612923 0.74704981
-0.30777168 0.96728259 0.63826197
-0.29391184 0.88173562 0.53926307
-0.28124756 0.80356437 0.44880372
-0.26962858 0.73184901 0.36581105
-0.25893244 0.66582632 0.28941011
-0.24905172 0.60483992 0.21883351
-0.23989813 0.54833865 0.15345076
-0.23139356 0.49584338 0.092703789
-0.22347064 0.44694141 0.036111593
-0.21607296 0.40127838 -0.016728997
-0.20914878 0.3585408 -0.066187471
-0.20265515 0.31845808 -0.11257061
-0.19655208 0.28078875 -0.15616392
-0.19080634 0.24532253 -0.19720486
-0.18538654 0.2118704 -0.23591779
-0.18026656 0.18026656 -0.27248901
-0.17542137 0.15036117 -0.30709755
-0.17083022 0.12202162 -0.33989149
-0.16647325 0.095127627 -0.3710126
-0.16602233 0.071152493 -0.37423354
-0.16879442 0.048226997 -0.35443288
-0.17166106 0.024523064 -0.3339569
-0.17462634 -1.4901161e-08 -0.31277636
-0.1776963 -0.025385186 -0.29084808
-0.18087567 -0.05167871 -0.26813826
-0.1841709 -0.078930393 -0.24460086
-0.1875889 -0.10719365 -0.22018671
-0.19113566 -0.13652548 -0.19485264
-0.19481964 -0.16698815 -0.16853848
-0.19864789 -0.1986478 -0.14119384
-0.20262963 -0.23157661 -0.11275295
-0.2067748 -0.26585326 -0.083144464
-0.21109252 -0.30156064 -0.052303702
-0.21559502 -0.33879215 -0.020142853
-0.22029315 -0.37764528 0.013415053
-0.22520059 -0.41822958 0.048468158
-0.23033236 -0.46066469 0.085123658
-0.23570271 -0.50507718 0.12348337
-0.24133027 -0.55161196 0.16368027
-0.24723229 -0.60042125 0.20583756
-0.25343025 -0.65167779 0.2501086
-0.25994781 -0.70557261 0.29666287
-0.26680854 -0.76231015 0.34566802
-0.27404225 -0.82212669 0.39733726
-0.28167805 -0.88527381 0.45187876
-0.28975156 -0.95204085 0.5095467
-0.29830274 -1.0227523 0.57062662
-0.30737272 -1.0977598 0.63541222
-0.27685887 1.0612923 0.74704981
-0.26380432 0.96728259 0.63826197
-0.25192446 0.88173562 0.53926307
-0.24106933 0.80356437 0.44880372
-0.23111023 0.73184901 0.36581105
-0.2219421 0.66582632 0.28941011
-0.2134729 0.60483992 0.21883351
-0.20562698 0.54833865 0.15345076
-0.19833733 0.49584338 0.092703789
-0.19154626 0.44694141 0.036111593
-0.1852054 0.40127838 -0.016728997
-0.17927039 0.3585408 -0.066187471
-0.17370442 0.31845808 -0.11257061
-0.16847321 0.28078875 -0.15616392
-0.16354831 0.24532253 -0.19720486
-0.15890275 0.2118704 -0.23591779
-0.15451419 0.18026656 -0.27248901
-0.15036118 0.15036117 -0.30709755
-0.1464259 0.12202162 -0.33989149
-0.14269137 0.095127627 -0.3710126
-0.14230485 0.071152493 -0.37423354
-0.14468093 0.048226997 -0.35443288
-0.14713804 0.024523064 -0.3339569
-0.14967972 -1.4901161e-08 -0.31277636
-0.15231112 -0.025385186 -0.29084808
-0.15503629 -0.05167871 -0.26813826
-0.15786077 -0.078930393 -0.24460086
-0.16079049 -0.10719365 -0.22018671
-0.16383056 -0.13652548 -0.19485264
-0.16698827 -0.16698815 -0.16853848
-0.17026962 -0.1986478 -0.14119384
-0.17368253 -0.23157661 -0.11275295
-0.17723554 -0.26585326 -0.083144464
-0.18093644 -0.30156064 -0.052303702
-0.18479574 -0.33879215 -0.020142853
-0.1888227 -0.37764528 0.013415053
-0.19302906 -0.41822958 0.048468158
-0.19742773 -0.46066469 0.085123658
-0.2020309 -0.50507718 0.12348337
-0.20685451 -0.55161196 0.16368027
-0.21191339 -0.60042125 0.20583756
-0.21722591 -0.65167779 0.2501086
-0.22281243 -0.70557261 0.29666287
-0.22869304 -0.76231015 0.34566802
-0.23489335 -0.82212669 0.39733726
-0.24143833 -0.88527381 0.45187876
-0.24835849 -0.95204085 0.5095467
-0.25568807 -1.0227523 0.57062662
-0.26346233 -1.0977598 0.63541222
-0.23071571 1.0612923 0.74704981
-0.21983692 0.96728259 0.63826197
-0.20993704 0.88173562 0.53926307
-0.20089111 0.80356437 0.44880372
-0.19259185 0.73184901 0.36581105
-0.18495175 0.66582632 0.28941011
-0.17789409 0.60483992 0.21883351
-0.17135581 0.54833865 0.15345076
-0.16528112 0.49584338 0.092703789
-0.15962189 0.44694141 0.036111593
-0.15433784 0.40127838 -0.016728997
-0.14939199 0.3585408 -0.066187471
-0.14475368 0.31845808 -0.11257061
-0.14039434 0.28078875 -0.15616392
-0.13629025 0.24532253 -0.19720486
-0.13241896 0.2118704 -0.23591779
-0.12876183 0.18026656 -0.27248901
-0.12530099 0.15036117 -0.30709755
-0.12202158 0.12202162 -0.33989149
-0.11890947 0.095127627 -0.3710126
-0.11858738 0.071152493 -0.37423354
-0.12056745 0.048226997 -0.35443288
-0.12261505 0.024523064 -0.3339569
-0.1247331 -1.4901161e-08 -0.31277636
-0.12692593 -0.025385186 -0.29084808
-0.12919691 -0.05167871 -0.26813826
-0.13155064 -0.078930393 -0.24460086
-0.13399208 -0.10719365 -0.22018671
-0.13652547 -0.13652548 -0.19485264
-0.13915688 -0.16698815 -0.16853848
-0.14189136 -0.1986478 -0.14119384
-0.14473544 -0.23157661 -0.11275295
-0.14769629 -0.26585326 -0.083144464
-0.15078036 -0.30156064 -0.052303702
-0.15399645 -0.33879215 -0.020142853
-0.15735224 -0.37764528 0.013415053
-0.16085754 -0.41822958 0.048468158
-0.16452311 -0.46066469 0.085123658
-0.16835907 -0.50507718 0.12348337
-0.17237876 -0.55161196 0.16368027
-0.1765945 -0.60042125 0.20583756
-0.18102159 -0.65167779 0.2501086
-0.18567702 -0.70557261 0.29666287
-0.19057754 -0.76231015 0.34566802
-0.19574447 -0.82212669 0.39733726
-0.20119859 -0.88527381 0.45187876
-0.20696539 -0.95204085 0.5095467
-0.21307339 -1.0227523 0.57062662
-0.21955195 -1.0977598 0.63541222
-0.18457258 1.0612923 0.74704981
-0.17586954 0.96728259 0.63826197
-0.16794962 0.88173562 0.53926307
-0.1607129 0.80356437 0.44880372
-0.15407349 0.73184901 0.36581105
-0.14796141 0.66582632 0.28941011
-0.14231527 0.60483992 0.21883351
-0.13708465 0.54833865 0.15345076
-0.13222489 0.49584338 0.092703789
-0.12769751 0.44694141 0.036111593
-0.12347027 0.40127838 -0.016728997
-0.11951359 0.3585408 -0.066187471
-0.11580294 0.31845808 -0.11257061
-0.11231547 0.28078875 -0.15616392
-0.10903221 0.24532253 -0.19720486
-0.10593517 0.2118704 -0.23591779
-0.10300946 0.18026656 -0.27248901
-0.10024079 0.15036117 -0.30709755
-0.097617269 0.12202162 -0.33989149
-0.095127575 0.095127627 -0.3710126
-0.094869904 0.071152493 -0.37423354
-0.096453957 0.048226997 -0.35443288
-0.098092034 0.024523064 -0.3339569
-0.099786483 -1.4901161e-08 -0.31277636
-0.10154074 -0.025385186 -0.29084808
-0.10335752 -0.05167871 -0.26813826
-0.10524052 -0.078930393 -0.24460086
-0.10719365 -0.10719365 -0.22018671
-0.10922038 -0.13652548 -0.19485264
-0.1113255 -0.16698815 -0.16853848
-0.11351307 -0.1986478 -0.14119384
-0.11578836 -0.23157661 -0.11275295
-0.11815703 -0.26585326 -0.083144464
-0.1206243 -0.30156064 -0.052303702
-0.12319715 -0.33879215 -0.020142853
-0.12588179 -0.37764528 0.013415053
-0.12868604 -0.41822958 0.048468158
-0.13161848 -0.46066469 0.085123658
-0.13468726 -0.50507718 0.12348337
-0.137903 -0.55161196 0.16368027
-0.1412756 -0.60042125 0.20583756
-0.14481728 -0.65167779 0.2501086
-0.14854161 -0.70557261 0.29666287
-0.15246202 -0.76231015 0.34566802
-0.15659557 -0.82212669 0.39733726
-0.16095889 -0.88527381 0.45187876
-0.16557233 -0.95204085 0.5095467
-0.1704587 -1.0227523 0.57062662
-0.17564155 -1.0977598 0.63541222
-0.13842943 1.0612923 0.74704981
-0.13190216 0.96728259 0.63826197
-0.12596223 0.88173562 0.53926307
-0.12053467 0.80356437 0.44880372
-0.11555512 0.73184901 0.36581105
-0.11097105 0.66582632 0.28941011
-0.10673645 0.60483992 0.21883351
-0.10281349 0.54833865 0.15345076
-0.099168666 0.49584338 0.092703789
-0.095773131 0.44694141 0.036111593
-0.0926027 0.40127838 -0.016728997
-0.089635193 0.3585408 -0.066187471
-0.086852208 0.31845808 -0.11257061
-0.084236607 0.28078875 -0.15616392
-0.081774153 0.24532253 -0.19720486
-0.079451375 0.2118704 -0.23591779
-0.077257097 0.18026656 -0.27248901
-0.07518059 0.15036117 -0.30709755
-0.073212951 0.12202162 -0.33989149
-0.071345687 0.095127627 -0.3710126
-0.071152426 0.071152493 -0.37423354
-0.072340466 0.048226997 -0.35443288
-0.073569022 0.024523064 -0.3339569
-0.07483986 -1.4901161e-08 -0.31277636
-0.076155558 -0.025385186 -0.29084808
-0.077518143 -0.05167871 -0.26813826
-0.078930385 -0.078930393 -0.24460086
-0.080395244 -0.10719365 -0.22018671
-0.081915282 -0.13652548 -0.19485264
-0.083494134 -0.16698815 -0.16853848
-0.085134812 -0.1986478 -0.14119384
-0.086841263 -0.23157661 -0.11275295
-0.088617772 -0.26585326 -0.083144464
-0.09046822 -0.30156064 -0.052303702
-0.092397869 -0.33879215 -0.020142853
-0.094411351 -0.37764528 0.013415053
-0.09651453 -0.41822958 0.048468158
-0.098713867 -0.46066469 0.085123658
-0.10101545 -0.50507718 0.12348337
-0.10342725 -0.55161196 0.16368027
-0.1059567 -0.60042125 0.20583756
-0.10861295 -0.65167779 0.2501086
-0.11140621 -0.70557261 0.29666287
-0.11434652 -0.76231015 0.34566802
-0.11744668 -0.82212669 0.39733726
-0.12071916 -0.88527381 0.45187876
-0.12417924 -0.95204085 0.5095467
-0.12784404 -1.0227523 0.57062662
-0.13173117 -1.0977598 0.63541222
-0.092286289 1.0612923 0.74704981
-0.08793477 0.96728259 0.63826197
-0.083974808 0.88173562 0.53926307
-0.080356449 0.80356437 0.44880372
-0.077036746 0.73184901 0.36581105
-0.073980704 0.66582632 0.28941011
-0.071157634 0.60483992 0.21883351
-0.068542324 0.54833865 0.15345076
-0.066112444 0.49584338 0.092703789
-0.063848756 0.44694141 0.036111593
-0.061735135 0.40127838 -0.016728997
-0.059756793 0.3585408 -0.066187471
-0.057901472 0.31845808 -0.11257061
-0.056157734 0.28078875 -0.15616392
-0.054516103 0.24532253 -0.19720486
-0.052967586 0.2118704 -0.23591779
-0.051504731 0.18026656 -0.27248901
-0.050120395 0.15036117 -0.30709755
-0.048808634 0.12202162 -0.33989149
-0.047563788 0.095127627 -0.3710126
-0.047434952 0.071152493 -0.37423354
-0.048226979 0.048226997 -0.35443288
-0.049046017 0.024523064 -0.3339569
-0.049893241 -1.4901161e-08 -0.31277636
-0.050770368 -0.025385186 -0.29084808
-0.051678762 -0.05167871 -0.26813826
-0.052620258 -0.078930393 -0.24460086
-0.053596824 -0.10719365 -0.22018671
-0.054610189 -0.13652548 -0.19485264
-0.055662751 -0.16698815 -0.16853848
-0.056756537 -0.1986478 -0.14119384
-0.057894178 -0.23157661 -0.11275295
-0.059078515 -0.26585326 -0.083144464
-0.060312148 -0.30156064 -0.052303702
-0.061598577 -0.33879215 -0.020142853
-0.062940896 -0.37764528 0.013415053
-0.06434302 -0.41822958 0.048468158
-0.065809242 -0.46066469 0.085123658
-0.06734363 -0.50507718 0.12348337
-0.068951502 -0.55161196 0.16368027
-0.0706378 -0.60042125 0.20583756
-0.072408639 -0.65167779 0.2501086
-0.074270807 -0.70557261 0.29666287
-0.07623101 -0.76231015 0.34566802
-0.078297786 -0.82212669 0.39733726
-0.080479443 -0.88527381 0.45187876
-0.082786165 -0.95204085 0.5095467
-0.085229352 -1.0227523 0.57062662
-0.087820776 -1.0977598 0.63541222
-0.046143144 1.0612923 0.74704981
-0.043967385 0.96728259 0.63826197
-0.041987404 0.88173562 0.53926307
-0.040178224 0.80356437 0.44880372
-0.038518373 0.73184901 0.36581105
-0.036990352 0.66582632 0.28941011
-0.035578817 0.60483992 0.21883351
-0.034271162 0.54833865 0.15345076
-0.033056222 0.49584338 0.092703789
-0.031924378 0.44694141 0.036111593
-0.030867567 0.40127838 -0.016728997
-0.029878397 0.3585408 -0.066187471
-0.028950736 0.31845808 -0.11257061
-0.028078867 0.28078875 -0.15616392
-0.027258052 0.24532253 -0.19720486
-0.026483793 0.2118704 -0.23591779
-0.025752366 0.18026656 -0.27248901
-0.025060197 0.15036117 -0.30709755
-0.024404317 0.12202162 -0.33989149
-0.023781894 0.095127627 -0.3710126
-0.023717476 0.071152493 -0.37423354
-0.024113489 0.048226997 -0.35443288
-0.024523009 0.024523064 -0.3339569
-0.024946621 -1.4901161e-08 -0.31277636
-0.025385184 -0.025385186 -0.29084808
-0.025839381 -0.05167871 -0.26813826
-0.026310129 -0.078930393 -0.24460086
-0.026798412 -0.10719365 -0.22018671
-0.027305095 -0.13652548 -0.19485264
-0.027831376 -0.16698815 -0.16853848
-0.028378269 -0.1986478 -0.14119384
-0.028947089 -0.23157661 -0.11275295
-0.029539257 -0.26585326 -0.083144464
-0.030156074 -0.30156064 -0.052303702
-0.030799288 -0.33879215 -0.020142853
-0.031470448 -0.37764528 0.013415053
-0.03217151 -0.41822958 0.048468158
-0.032904621 -0.46066469 0.085123658
-0.033671815 -0.50507718 0.12348337
-0.034475751 -0.55161196 0.16368027
-0.0353189 -0.60042125 0.20583756
-0.036204319 -0.65167779 0.2501086
-0.037135404 -0.70557261 0.29666287
-0.038115505 -0.76231015 0.34566802
-0.039148893 -0.82212669 0.39733726
-0.040239722 -0.88527381 0.45187876
-0.041393083 -0.95204085 0.5095467
-0.042614676 -1.0227523 0.57062662
-0.043910388 -1.0977598 0.63541222
0 1.0612923 0.74704981
0 0.96728259 0.63826197
0 0.88173562 0.53926307
0 0.80356437 0.44880372
0 0.73184901 0.36581105
0 0.66582632 0.28941011
0 0.60483992 0.21883351
0 0.54833865 0.15345076
0 0.49584338 0.092703789
0 0.44694141 0.036111593
0 0.40127838 -0.016728997
0 0.3585408 -0.066187471
0 0.31845808 -0.11257061
0 0.28078875 -0.15616392
0 0.24532253 -0.19720486
0 0.2118704 -0.23591779
0 0.18026656 -0.27248901
0 0.15036117 -0.30709755
0 0.12202162 -0.33989149
0 0.095127627 -0.3710126
0 0.071152493 -0.37423354
0 0.048226997 -0.35443288
0 0.024523064 -0.3339569
0 -1.4901161e-08 -0.31277636
0 -0.025385186 -0.29084808
0 -0.05167871 -0.26813826
0 -0.078930393 -0.24460086
0 -0.10719365 -0.22018671
0 -0.13652548 -0.19485264
0 -0.16698815 -0.16853848
0 -0.1986478 -0.14119384
0 -0.23157661 -0.11275295
0 -0.26585326 -0.083144464
0 -0.30156064 -0.052303702
0 -0.33879215 -0.020142853
0 -0.37764528 0.013415053
0 -0.41822958 0.048468158
0 -0.46066469 0.085123658
0 -0.50507718 0.12348337
0 -0.55161196 0.16368027
0 -0.60042125 0.20583756
0 -0.65167779 0.2501086
0 -0.70557261 0.29666287
0 -0.76231015 0.34566802
0 -0.82212669 0.39733726
0 -0.88527381 0.45187876
0 -0.95204085 0.5095467
0 -1.0227523 0.57062662
0 -1.0977598 0.63541222
0.046143144 1.0612923 0.74704981
0.043967385 0.96728259 0.63826197
0.041987404 0.88173562 0.53926307
0.040178224 0.80356437 0.44880372
0.038518373 0.73184901 0.36581105
0.036990352 0.66582632 0.28941011
0.035578817 0.60483992 0.21883351
0.034271162 0.54833865 0.15345076
0.033056222 0.49584338 0.092703789
0.031924378 0.44694141 0.036111593
0.030867567 0.40127838 -0.016728997
0.029878397 0.3585408 -0.066187471
0.028950736 0.31845808 -0.11257061
0.028078867 0.28078875 -0.15616392
0.027258052 0.24532253 -0.19720486
0.026483793 0.2118704 -0.23591779
0.025752366 0.18026656 -0.27248901
0.025060197 0.15036117 -0.30709755
0.024404317 0.12202162 -0.33989149
0.023781894 0.095127627 -0.3710126
0.023717476 0.071152493 -0.37423354
0.024113489 0.048226997 -0.35443288
0.024523009 0.024523064 -0.3339569
0.024946621 -1.4901161e-08 -0.31277636
0.025385184 -0.025385186 -0.29084808
0.025839381 -0.05167871 -0.26813826
0.026310129 -0.078930393 -0.24460086
0.026798412 -0.10719365 -0.22018671
0.027305095 -0.13652548 -0.19485264
0.027831376 -0.16698815 -0.16853848
0.028378269 -0.1986478 -0.14119384
0.028947089 -0.23157661 -0.11275295
0.029539257 -0.26585326 -0.083144464
0.030156074 -0.30156064 -0.052303702
0.030799288 -0.33879215 -0.020142853
0.031470448 -0.37764528 0.013415053
0.03217151 -0.41822958 0.048468158
0.032904621 -0.46066469 0.085123658
0.033671815 -0.50507718 0.12348337
0.034475751 -0.55161196 0.16368027
0.0353189 -0.60042125 0.20583756
0.036204319 -0.65167779 0.2501086
0.037135404 -0.70557261 0.29666287
0.038115505 -0.76231015 0.34566802
0.039148893 -0.82212669 0.39733726
0.040239722 -0.88527381 0.45187876
0.041393083 -0.95204085 0.5095467
0.042614676 -1.0227523 0.57062662
0.043910388 -1.0977598 0.63541222
0.092286289 1.0612923 0.74704981
0.08793477 0.96728259 0.63826197
0.083974808 0.88173562 0.53926307
0.080356449 0.80356437 0.44880372
0.077036746 0.73184901 0.36581105
0.073980704 0.66582632 0.28941011
0.071157634 0.60483992 0.21883351
0.068542324 0.54833865 0.15345076
0.066112444 0.49584338 0.092703789
0.063848756 0.44694141 0.036111593
0.061735135 0.40127838 -0.016728997
0.059756793 0.3585408 -0.066187471
0.057901472 0.31845808 -0.11257061
0.056157734 0.28078875 -0.15616392
0.054516103 0.24532253 -0.19720486
0.052967586 0.2118704 -0.23591779
0.051504731 0.18026656 -0.27248901
0.050120395 0.15036117 -0.30709755
0.048808634 0.12202162 -0.33989149
0.047563788 0.095127627 -0.3710126
0.047434952 0.071152493 -0.37423354
0.048226979 0.048226997 -0.35443288
0.049046017 0.024523064 -0.3339569
0.049893241 -1.4901161e-08 -0.31277636
0.050770368 -0.025385186 -0.29084808
0.051678762 -0.05167871 -0.26813826
0.052620258 -0.078930393 -0.24460086
0.053596824 -0.10719365 -0.22018671
0.054610189 -0.13652548 -0.19485264
0.055662751 -0.16698815 -0.16853848
0.056756537 -0.1986478 -0.14119384
0.057894178 -0.23157661 -0.11275295
0.059078515 -0.26585326 -0.083144464
0.060312148 -0.30156064 -0.052303702
0.061598577 -0.33879215 -0.020142853
0.062940896 -0.37764528 0.013415053
0.06434302 -0.41822958 0.048468158
0.065809242 -0.46066469 0.085123658
0.06734363 -0.50507718 0.12348337
0.068951502 -0.55161196 0.16368027
0.0706378 -0.60042125 0.20583756
0.072408639 -0.65167779 0.2501086
0.074270807 -0.70557261 0.29666287
0.07623101 -0.76231015 0.34566802
0.078297786 -0.82212669 0.39733726
0.080479443 -0.88527381 0.45187876
0.082786165 -0.95204085 0.5095467
0.085229352 -1.0227523 0.57062662
0.087820776 -1.0977598 0.63541222
0.13842943 1.0612923 0.74704981
0.13190216 0.96728259 0.63826197
0.12596223 0.88173562 0.53926307
0.12053467 0.80356437 0.44880372
0.11555512 0.73184901 0.36581105
0.11097105 0.66582632 0.28941011
0.10673645 0.60483992 0.21883351
0.10281349 0.54833865 0.15345076
0.099168666 0.49584338 0.092703789
0.095773131 0.44694141 0.036111593
0.0926027 0.40127838 -0.016728997
0.089635193 0.3585408 -0.066187471
0.086852208 0.31845808 -0.11257061
0.084236607 0.28078875 -0.15616392
0.081774153 0.24532253 -0.19720486
0.079451375 0.2118704 -0.23591779
0.077257097 0.18026656 -0.27248901
0.07518059 0.15036117 -0.30709755
0.073212951 0.12202162 -0.33989149
0.071345687 0.095127627 -0.3710126
0.071152426 0.071152493 -0.37423354
0.072340466 0.048226997 -0.35443288
0.073569022 0.024523064 -0.3339569
0.07483986 -1.4901161e-08 -0.31277636
0.076155558 -0.025385186 -0.29084808
0.077518143 -0.05167871 -0.26813826
0.078930385 -0.078930393 -0.24460086
0.080395244 -0.10719365 -0.22018671
0.081915282 -0.13652548 -0.19485264
0.083494134 -0.16698815 -0.16853848
0.085134812 -0.1986478 -0.14119384
0.086841263 -0.23157661 -0.11275295
0.088617772 -0.26585326 -0.083144464
0.09046822 -0.30156064 -0.052303702
0.092397869 -0.33879215 -0.020142853
0.094411351 -0.37764528 0.013415053
0.09651453 -0.41822958 0.048468158
0.098713867 -0.46066469 0.085123658
0.10101545 -0.50507718 0.12348337
0.10342725 -0.55161196 0.16368027
0.1059567 -0.60042125 0.20583756
0.10861295 -0.65167779 0.2501086
0.11140621 -0.70557261 0.29666287
0.11434652 -0.76231015 0.34566802
0.11744668 -0.82212669 0.39733726
0.12071916 -0.88527381 0.45187876
0.12417924 -0.95204085 0.5095467
0.12784404 -1.0227523 0.57062662
0.13173117 -1.0977598 0.63541222
0.18457258 1.0612923 0.74704981
0.17586954 0.96728259 0.63826197
0.16794962 0.88173562 0.53926307
0.1607129 0.80356437 0.44880372
0.15407349 0.73184901 0.36581105
0.14796141 0.66582632 0.28941011
0.14231527 0.60483992 0.21883351
0.13708465 0.54833865 0.15345076
0.13222489 0.49584338 0.092703789
0.12769751 0.44694141 0.036111593
0.12347027 0.40127838 -0.016728997
0.11951359 0.3585408 -0.066187471
0.11580294 0.31845808 -0.11257061
0.11231547 0.28078875 -0.15616392
0.10903221 0.24532253 -0.19720486
0.10593517 0.2118704 -0.23591779
0.10300946 0.18026656 -0.27248901
0.10024079 0.15036117 -0.30709755
0.097617269 0.12202162 -0.33989149
0.095127575 0.095127627 -0.3710126
0.094869904 0.071152493 -0.37423354
0.096453957 0.048226997 -0.35443288
0.098092034 0.024523064 -0.3339569
0.099786483 -1.4901161e-08 -0.31277636
0.10154074 -0.025385186 -0.29084808
0.10335752 -0.05167871 -0.26813826
0.10524052 -0.078930393 -0.24460086
0.10719365 -0.10719365 -0.22018671
0.10922038 -0.13652548 -0.19485264
0.1113255 -0.16698815 -0.16853848
0.11351307 -0.1986478 -0.14119384
0.11578836 -0.23157661 -0.11275295
0.11815703 -0.26585326 -0.083144464
0.1206243 -0.30156064 -0.052303702
0.12319715 -0.33879215 -0.020142853
0.12588179 -0.37764528 0.013415053
0.12868604 -0.41822958 0.048468158
0.13161848 -0.46066469 0.085123658
0.13468726 -0.50507718 0.12348337
0.137903 -0.55161196 0.16368027
0.1412756 -0.60042125 0.20583756
0.14481728 -0.65167779 0.2501086
0.14854161 -0.70557261 0.29666287
0.15246202 -0.76231015 0.34566802
0.15659557 -0.82212669 0.39733726
0.16095889 -0.88527381 0.45187876
0.16557233 -0.95204085 0.5095467
0.1704587 -1.0227523 0.57062662
0.17564155 -1.0977598 0.63541222
0.23071571 1.0612923 0.74704981
0.21983692 0.96728259 0.63826197
0.20993704 0.88173562 0.53926307
0.20089111 0.80356437 0.44880372
0.19259185 0.73184901 0.36581105
0.18495175 0.66582632 0.28941011
0.17789409 0.60483992 0.21883351
0.17135581 0.54833865 0.15345076
0.16528112 0.49584338 0.092703789
0.15962189 0.44694141 0.036111593
0.15433784 0.40127838 -0.016728997
0.14939199 0.3585408 -0.066187471
0.14475368 0.31845808 -0.11257061
0.14039434 0.28078875 -0.15616392
0.13629025 0.24532253 -0.19720486
0.13241896 0.2118704 -0.23591779
0.12876183 0.18026656 -0.27248901
0.12530099 0.15036117 -0.30709755
0.12202158 0.12202162 -0.33989149
0.11890947 0.095127627 -0.3710126
0.11858738 0.071152493 -0.37423354
0.12056745 0.048226997 -0.35443288
0.12261505 0.024523064 -0.3339569
0.1247331 -1.4901161e-08 -0.31277636
0.12692593 -0.025385186 -0.29084808
0.12919691 -0.05167871 -0.26813826
0.13155064 -0.078930393 -0.24460086
0.13399208 -0.10719365 -0.22018671
0.13652547 -0.13652548 -0.19485264
0.13915688 -0.16698815 -0.16853848
0.14189136 -0.1986478 -0.14119384
0.14473544 -0.23157661 -0.11275295
0.14769629 -0.26585326 -0.083144464
0.15078036 -0.30156064 -0.052303702
0.15399645 -0.33879215 -0.020142853
0.15735224 -0.37764528 0.013415053
0.16085754 -0.41822958 0.048468158
0.16452311 -0.46066469 0.085123658
0.16835907 -0.50507718 0.12348337
0.17237876 -0.55161196 0.16368027
0.1765945 -0.60042125 0.20583756
0.18102159 -0.65167779 0.2501086
0.18567702 -0.70557261 0.29666287
0.19057754 -0.76231015 0.34566802
0.19574447 -0.82212669 0.39733726
0.20119859 -0.88527381 0.45187876
0.20696539 -0.95204085 0.5095467
0.21307339 -1.0227523 0.57062662
0.21955195 -1.0977598 0.63541222
0.27685887 1.0612923 0.74704981
0.26380432 0.96728259 0.63826197
0.25192446 0.88173562 0.53926307
0.24106933 0.80356437 0.44880372
0.23111023 0.73184901 0.36581105
0.2219421 0.66582632 0.28941011
0.2134729 0.60483992 0.21883351
0.20562698 0.54833865 0.15345076
0.19833733 0.49584338 0.092703789
0.19154626 0.44694141 0.036111593
0.1852054 0.40127838 -0.016728997
0.17927039 0.3585408 -0.066187471
0.17370442 0.31845808 -0.11257061
0.16847321 0.28078875 -0.15616392
0.16354831 0.24532253 -0.19720486
0.15890275 0.2118704 -0.23591779
0.15451419 0.18026656 -0.27248901
0.15036118 0.15036117 -0.30709755
0.1464259 0.12202162 -0.33989149
0.14269137 0.095127627 -0.3710126
0.14230485 0.071152493 -0.37423354
0.14468093 0.048226997 -0.35443288
0.14713804 0.024523064 -0.3339569
0.14967972 -1.4901161e-08 -0.31277636
0.15231112 -0.025385186 -0.29084808
0.15503629 -0.05167871 -0.26813826
0.15786077 -0.078930393 -0.24460086
0.16079049 -0.10719365 -0.22018671
0.16383056 -0.13652548 -0.19485264
0.16698827 -0.16698815 -0.16853848
0.17026962 -0.1986478 -0.14119384
0.17368253 -0.23157661 -0.11275295
0.17723554 -0.26585326 -0.083144464
0.18093644 -0.30156064 -0.052303702
0.18479574 -0.33879215 -0.020142853
0.1888227 -0.37764528 0.013415053
0.19302906 -0.41822958 0.048468158
0.19742773 -0.46066469 0.085123658
0.2020309 -0.50507718 0.12348337
0.20685451 -0.55161196 0.16368027
0.21191339 -0.60042125 0.20583756
0.21722591 -0.65167779 0.2501086
0.22281243 -0.70557261 0.29666287
0.22869304 -0.76231015 0.34566802
0.23489335 -0.82212669 0.39733726
0.24143833 -0.88527381 0.45187876
0.24835849 -0.95204085 0.5095467
0.25568807 -1.0227523 0.57062662
0.26346233 -1.0977598 0.63541222
0.32300201 1.0612923 0.74704981
0.30777168 0.96728259 0.63826197
0.29391184 0.88173562 0.53926307
0.28124756 0.80356437 0.44880372
0.26962858 0.73184901 0.36581105
0.25893244 0.66582632 0.28941011
0.24905172 0.60483992 0.21883351
0.23989813 0.54833865 0.15345076
0.23139356 0.49584338 0.092703789
0.22347064 0.44694141 0.036111593
0.21607296 0.40127838 -0.016728997
0.20914878 0.3585408 -0.066187471
0.20265515 0.31845808 -0.11257061
0.19655208 0.28078875 -0.15616392
0.19080634 0.24532253 -0.19720486
0.18538654 0.2118704 -0.23591779
0.18026656 0.18026656 -0.27248901
0.17542137 0.15036117 -0.30709755
0.17083022 0.12202162 -0.33989149
0.16647325 0.095127627 -0.3710126
0.16602233 0.071152493 -0.37423354
0.16879442 0.048226997 -0.35443288
0.17166106 0.024523064 -0.3339569
0.17462634 -1.4901161e-08 -0.31277636
0.1776963 -0.025385186 -0.29084808
0.18087567 -0.05167871 -0.26813826
0.1841709 -0.078930393 -0.24460086
0.1875889 -0.10719365 -0.22018671
0.19113566 -0.13652548 -0.19485264
0.19481964 -0.16698815 -0.16853848
0.19864789 -0.1986478 -0.14119384
0.20262963 -0.23157661 -0.11275295
0.2067748 -0.26585326 -0.083144464
0.21109252 -0.30156064 -0.052303702
0.21559502 -0.33879215 -0.020142853
0.22029315 -0.37764528 0.013415053
0.22520059 -0.41822958 0.048468158
0.23033236 -0.46066469 0.085123658
0.23570271 -0.50507718 0.12348337
0.24133027 -0.55161196 0.16368027
0.24723229 -0.60042125 0.20583756
0.25343025 -0.65167779 0.2501086
0.25994781 -0.70557261 0.29666287
0.26680854 -0.76231015 0.34566802
0.27404225 -0.82212669 0.39733726
0.28167805 -0.88527381 0.45187876
0.28975156 -0.95204085 0.5095467
0.29830274 -1.0227523 0.57062662
0.30737272 -1.0977598 0.63541222
0.36914515 1.0612923 0.74704981
0.35173908 0.96728259 0.63826197
0.33589923 0.88173562 0.53926307
0.3214258 0.80356437 0.44880372
0.30814698 0.73184901 0.36581105
0.29592282 0.66582632 0.28941011
0.28463054 0.60483992 0.21883351
0.2741693 0.54833865 0.15345076
0.26444978 0.49584338 0.092703789
0.25539503 0.44694141 0.036111593
0.24694054 0.40127838 -0.016728997
0.23902717 0.3585408 -0.066187471
0.23160589 0.31845808 -0.11257061
0.22463094 0.28078875 -0.15616392
0.21806441 0.24532253 -0.19720486
0.21187034 0.2118704 -0.23591779
0.20601892 0.18026656 -0.27248901
0.20048158 0.15036117 -0.30709755
0.19523454 0.12202162 -0.33989149
0.19025515 0.095127627 -0.3710126
0.18973981 0.071152493 -0.37423354
0.19290791 0.048226997 -0.35443288
0.19618407 0.024523064 -0.3339569
0.19957297 -1.4901161e-08 -0.31277636
0.20308147 -0.025385186 -0.29084808
0.20671505 -0.05167871 -0.26813826
0.21048103 -0.078930393 -0.24460086
0.2143873 -0.10719365 -0.22018671
0.21844076 -0.13652548 -0.19485264
0.222651 -0.16698815 -0.16853848
0.22702615 -0.1986478 -0.14119384
0.23157671 -0.23157661 -0.11275295
0.23631406 -0.26585326 -0.083144464
0.24124859 -0.30156064 -0.052303702
0.24639431 -0.33879215 -0.020142853
0.25176358 -0.37764528 0.013415053
0.25737208 -0.41822958 0.048468158
0.26323697 -0.46066469 0.085123658
0.26937452 -0.50507718 0.12348337
0.27580601 -0.55161196 0.16368027
0.2825512 -0.60042125 0.20583756
0.28963456 -0.65167779 0.2501086
0.29708323 -0.70557261 0.29666287
0.30492404 -0.76231015 0.34566802
0.31319115 -0.82212669 0.39733726
0.32191777 -0.88527381 0.45187876
0.33114466 -0.95204085 0.5095467
0.34091741 -1.0227523 0.57062662
0.3512831 -1.0977598 0.63541222
0.4152883 1.0612923 0.74704981
0.39570644 0.96728259 0.63826197
0.37788665 0.88173562 0.53926307
0.36160401 0.80356437 0.44880372
0.34666532 0.73184901 0.36581105
0.33291316 0.66582632 0.28941011
0.32020935 0.60483992 0.21883351
0.30844048 0.54833865 0.15345076
0.297506 0.49584338 0.092703789
0.28731939 0.44694141 0.036111593
0.2778081 0.40127838 -0.016728997
0.26890558 0.3585408 -0.066187471
0.26055664 0.31845808 -0.11257061
0.25270981 0.28078875 -0.15616392
0.24532245 0.24532253 -0.19720486
0.23835413 0.2118704 -0.23591779
0.23177129 0.18026656 -0.27248901
0.22554177 0.15036117 -0.30709755
0.21963887 0.12202162 -0.33989149
0.21403703 0.095127627 -0.3710126
0.21345727 0.071152493 -0.37423354
0.21702141 0.048226997 -0.35443288
0.22070707 0.024523064 -0.3339569
0.2245196 -1.4901161e-08 -0.31277636
0.22846666 -0.025385186 -0.29084808
0.23255444 -0.05167871 -0.26813826
0.23679115 -0.078930393 -0.24460086
0.24118571 -0.10719365 -0.22018671
0.24574584 -0.13652548 -0.19485264
0.25048238 -0.16698815 -0.16853848
0.25540444 -0.1986478 -0.14119384
0.2605238 -0.23157661 -0.11275295
0.26585332 -0.26585326 -0.083144464
0.27140468 -0.30156064 -0.052303702
0.27719361 -0.33879215 -0.020142853
0.28323403 -0.37764528 0.013415053
0.2895436 -0.41822958 0.048468158
0.29614159 -0.46066469 0.085123658
0.30304635 -0.50507718 0.12348337
0.31028175 -0.55161196 0.16368027
0.31787008 -0.60042125 0.20583756
0.32583886 -0.65167779 0.2501086
0.33421862 -0.70557261 0.29666287
0.34303957 -0.76231015 0.34566802
0.35234004 -0.82212669 0.39733726
0.36215749 -0.88527381 0.45187876
0.37253773 -0.95204085 0.5095467
0.38353211 -1.0227523 0.57062662
0.39519352 -1.0977598 0.63541222
0.46143141 1.0612923 0.74704981
0.43967384 0.96728259 0.63826197
0.41987407 0.88173562 0.53926307
0.40178221 0.80356437 0.44880372
0.38518369 0.73184901 0.36581105
0.3699035 0.66582632 0.28941011
0.35578817 0.60483992 0.21883351
0.34271163 0.54833865 0.15345076
0.33056223 0.49584338 0.092703789
0.31924379 0.44694141 0.036111593
0.30867568 0.40127838 -0.016728997
0.29878399 0.3585408 -0.066187471
0.28950736 0.31845808 -0.11257061
0.28078869 0.28078875 -0.15616392
0.2725805 0.24532253 -0.19720486
0.26483792 0.2118704 -0.23591779
0.25752366 0.18026656 -0.27248901
0.25060198 0.15036117 -0.30709755
0.24404316 0.12202162 -0.33989149
0.23781894 0.095127627 -0.3710126
0.23717476 0.071152493 -0.37423354
0.2411349 0.048226997 -0.35443288
0.24523009 0.024523064 -0.3339569
0.2494662 -1.4901161e-08 -0.31277636
0.25385186 -0.025385186 -0.29084808
0.25839382 -0.05167871 -0.26813826
0.26310128 -0.078930393 -0.24460086
0.26798415 -0.10719365 -0.22018671
0.27305093 -0.13652548 -0.19485264
0.27831376 -0.16698815 -0.16853848
0.28378272 -0.1986478 -0.14119384
0.28947088 -0.23157661 -0.11275295
0.29539257 -0.26585326 -0.083144464
0.30156073 -0.30156064 -0.052303702
0.30799291 -0.33879215 -0.020142853
0.31470448 -0.37764528 0.013415053
0.32171509 -0.41822958 0.048468158
0.32904622 -0.46066469 0.085123658
0.33671814 -0.50507718 0.12348337
0.34475753 -0.55161196 0.16368027
0.35318899 -0.60042125 0.20583756
0.36204317 -0.65167779 0.2501086
0.37135404 -0.70557261 0.29666287
0.38115507 -0.76231015 0.34566802
0.39148748 -0.82212377 0.39733005
0.40239719 -0.88527381 0.45187876
0.41393077 -0.95204085 0.5095467
0.42614678 -1.0227523 0.57062662
0.4391039 -1.0977598 0.63541222
0.50757456 1.0612923 0.74704981
0.48364124 0.96728259 0.63826197
0.46186146 0.88173562 0.53926307
0.44196045 0.80356437 0.44880372
0.42370206 0.73184901 0.36581105
0.40689388 0.66582632 0.28941011
0.39136699 0.60483992 0.21883351
0.37698278 0.54833865 0.15345076
0.36361846 0.49584338 0.092703789
0.35116819 0.44694141 0.036111593
0.33954322 0.40127838 -0.016728997
0.32866237 0.3585408 -0.066187471
0.31845808 0.31845808 -0.11257061
0.30886754 0.28078875 -0.15616392
0.29983854 0.24532253 -0.19720486
0.29132169 0.2118704 -0.23591779
0.28327602 0.18026656 -0.27248901
0.27566215 0.15036117 -0.30709755
0.26844749 0.12202162 -0.33989149
0.26160085 0.095127627 -0.3710126
0.26089221 0.071152493 -0.37423354
0.26524839 0.048226997 -0.35443288
0.2697531 0.024523064 -0.3339569
0.27441284 -1.4901161e-08 -0.31277636
0.27923703 -0.025385186 -0.29084808
0.28423318 -0.05167871 -0.26813826
0.2894114 -0.078930393 -0.24460086
0.29478255 -0.10719365 -0.22018671
0.30035603 -0.13652548 -0.19485264
0.30614516 -0.16698815 -0.16853848
0.31216097 -0.1986478 -0.14119384
0.31841797 -0.23157661 -0.11275295
0.32493183 -0.26585326 -0.083144464
0.33171681 -0.30156064 -0.052303702
0.33879218 -0.33879215 -0.020142853
0.34617496 -0.37764528 0.013415053
0.3538866 -0.41822958 0.048468158
0.36195084 -0.46066469 0.085123658
0.37038997 -0.50507718 0.12348337
0.37923327 -0.55161196 0.16368027
0.38850787 -0.60042125 0.20583756
0.39824748 -0.65167779 0.2501086
0.40848944 -0.70557261 0.29666287
0.41927058 -0.76231015 0.34566802
0.43063623 -0.82212377 0.39733005
0.44263694 -0.88527381 0.45187876
0.4553239 -0.95204085 0.5095467
0.46876147 -1.0227523 0.57062662
0.48301429 -1.0977598 0.63541222
0.55371773 1.0612923 0.74704981
0.52760863 0.96728259 0.63826197
0.50384891 0.88173562 0.53926307
0.48213866 0.80356437 0.44880372
0.46222046 0.73184901 0.36581105
0.44388419 0.66582632 0.28941011
0.42694581 0.60483992 0.21883351
0.41125396 0.54833865 0.15345076
0.39667466 0.49584338 0.092703789
0.38309252 0.44694141 0.036111593
0.3704108 0.40127838 -0.016728997
0.35854077 0.3585408 -0.066187471
0.34740883 0.31845808 -0.11257061
0.33694643 0.28078875 -0.15616392
0.32709661 0.24532253 -0.19720486
0.3178055 0.2118704 -0.23591779
0.30902839 0.18026656 -0.27248901
0.30072236 0.15036117 -0.30709755
0.29285181 0.12202162 -0.33989149
0.28538275 0.095127627 -0.3710126
0.28460971 0.071152493 -0.37423354
0.28936186 0.048226997 -0.35443288
0.29427609 0.024523064 -0.3339569
0.29935944 -1.4901161e-08 -0.31277636
0.30462223 -0.025385186 -0.29084808
0.31007257 -0.05167871 -0.26813826
0.31572154 -0.078930393 -0.24460086
0.32158098 -0.10719365 -0.22018671
0.32766113 -0.13652548 -0.19485264
0.33397654 -0.16698815 -0.16853848
0.34053925 -0.1986478 -0.14119384
0.34736505 -0.23157661 -0.11275295
0.35447109 -0.26585326 -0.083144464
0.36187288 -0.30156064 -0.052303702
0.36959147 -0.33879215 -0.020142853
0.3776454 -0.37764528 0.013415053
0.38605812 -0.41822958 0.048468158
0.39485547 -0.46066469 0.085123658
0.40406179 -0.50507718 0.12348337
0.41370901 -0.55161196 0.16368027
0.42382678 -0.60042125 0.20583756
0.43445182 -0.65167779 0.2501086
0.44562486 -0.70557261 0.29666287
0.45738608 -0.76231015 0.34566802
0.46978498 -0.82212377 0.39733005
0.48287666 -0.88527381 0.45187876
0.49671698 -0.95204085 0.5095467
0.51137614 -1.0227523 0.57062662
0.52692467 -1.0977598 0.63541222
0.59986085 1.0612923 0.74704981
0.571576 0.96728259 0.63826197
0.54583627 0.88173562 0.53926307
0.52231687 0.80356437 0.44880372
0.5007388 0.73184901 0.36581105
0.48087454 0.66582632 0.28941011
0.46252462 0.60483992 0.21883351
0.44552508 0.54833865 0.15345076
0.42973089 0.49584338 0.092703789
0.41501689 0.44694141 0.036111593
0.40127835 0.40127838 -0.016728997
0.38841918 0.3585408 -0.066187471
0.37635955 0.31845808 -0.11257061
0.36502528 0.28078875 -0.15616392
0.35435465 0.24532253 -0.19720486
0.34428927 0.2118704 -0.23591779
0.33478075 0.18026656 -0.27248901
0.32578257 0.15036117 -0.30709755
0.31725612 0.12202162 -0.33989149
0.30916461 0.095127627 -0.3710126
0.30832717 0.071152493 -0.37423354
0.31347537 0.048226997 -0.35443288
0.31879911 0.024523064 -0.3339569
0.32430607 -1.4901161e-08 -0.31277636
0.3300074 -0.025385186 -0.29084808
0.33591196 -0.05167871 -0.26813826
0.34203166 -0.078930393 -0.24460086
0.34837937 -0.10719365 -0.22018671
0.35496622 -0.13652548 -0.19485264
0.36180791 -0.16698815 -0.16853848
0.36891752 -0.1986478 -0.14119384
0.37631214 -0.23157661 -0.11275295
0.38401034 -0.26585326 -0.083144464
0.39202896 -0.30156064 -0.052303702
0.40039077 -0.33879215 -0.020142853
0.40911585 -0.37764528 0.013415053
0.41822964 -0.41822958 0.048468158
0.42776009 -0.46066469 0.085123658
0.43773359 -0.50507718 0.12348337
0.44818476 -0.55161196 0.16368027
0.45914569 -0.60042125 0.20583756
0.47065616 -0.65167779 0.2501086
0.48276025 -0.70557261 0.29666287
0.49550161 -0.76231015 0.34566802
0.50893372 -0.82212377 0.39733005
0.52311641 -0.88527381 0.45187876
0.53811008 -0.95204085 0.5095467
0.55399078 -1.0227523 0.57062662
0.57083505 -1.0977598 0.63541222
0.64600402 1.0612923 0.74704981
0.61554337 0.96728259 0.63826197
0.58782369 0.88173562 0.53926307
0.56249511 0.80356437 0.44880372
0.53925717 0.73184901 0.36581105
0.51786488 0.66582632 0.28941011
0.49810344 0.60483992 0.21883351
0.47979626 0.54833865 0.15345076
0.46278712 0.49584338 0.092703789
0.44694129 0.44694141 0.036111593
0.43214592 0.40127838 -0.016728997
0.41829756 0.3585408 -0.066187471
0.4053103 0.31845808 -0.11257061
0.39310417 0.28078875 -0.15616392
0.38161269 0.24532253 -0.19720486
0.37077308 0.2118704 -0.23591779
0.36053312 0.18026656 -0.27248901
0.35084274 0.15036117 -0.30709755
0.34166044 0.12202162 -0.33989149
0.33294651 0.095127627 -0.3710126
0.33204466 0.071152493 -0.37423354
0.33758885 0.048226997 -0.35443288
0.34332213 0.024523064 -0.3339569
0.34925267 -1.4901161e-08 -0.31277636
0.35539261 -0.025385186 -0.29084808
0.36175135 -0.05167871 -0.26813826
0.3683418 -0.078930393 -0.24460086
0.3751778 -0.10719365 -0.22018671
0.38227132 -0.13652548 -0.19485264
0.38963929 -0.16698815 -0.16853848
0.39729577 -0.1986478 -0.14119384
0.40525925 -0.23157661 -0.11275295
0.4135496 -0.26585326 -0.083144464
0.42218503 -0.30156064 -0.052303702
0.43119004 -0.33879215 -0.020142853
0.4405863 -0.37764528 0.013415053
0.45040119 -0.41822958 0.048468158
0.46066472 -0.46066469 0.085123658
0.47140542 -0.50507718 0.12348337
0.48266053 -0.55161196 0.16368027
0.49446458 -0.60042125 0.20583756
0.50686049 -0.65167779 0.2501086
0.51989561 -0.70557261 0.29666287
0.53361708 -0.76231015 0.34566802
0.54808247 -0.82212377 0.39733005
0.5633561 -0.88527381 0.45187876
0.57950312 -0.95204085 0.5095467
0.59660548 -1.0227523 0.57062662
0.61474544 -1.0977598 0.63541222
0.69214714 1.0612923 0.74704981
0.65951079 0.96728259 0.63826197
0.62981111 0.88173562 0.53926307
0.60267335 0.80356437 0.44880372
0.57777554 0.73184901 0.36581105
0.55485529 0.66582632 0.28941011
0.53368223 0.60483992 0.21883351
0.51406741 0.54833865 0.15345076
0.49584332 0.49584338 0.092703789
0.47886568 0.44694141 0.036111593
0.46301353 0.40127838 -0.016728997
0.44817594 0.3585408 -0.066187471
0.43426102 0.31845808 -0.11257061
0.42118302 0.28078875 -0.15616392
0.40887076 0.24532253 -0.19720486
0.39725688 0.2118704 -0.23591779
0.38628548 0.18026656 -0.27248901
0.37590295 0.15036117 -0.30709755
0.36606476 0.12202162 -0.33989149
0.3567284 0.095127627 -0.3710126
0.35576215 0.071152493 -0.37423354
0.36170232 0.048226997 -0.35443288
0.36784512 0.024523064 -0.3339569
0.3741993 -1.4901161e-08 -0.31277636
0.38077778 -0.025385186 -0.29084808
0.38759074 -0.05167871 -0.26813826
0.39465192 -0.078930393 -0.24460086
0.4019762 -0.10719365 -0.22018671
0.40957642 -0.13652548 -0.19485264
0.41747063 -0.16698815 -0.16853848
0.42567408 -0.1986478 -0.14119384
0.43420631 -0.23157661 -0.11275295
0.44308886 -0.26585326 -0.083144464
0.45234108 -0.30156064 -0.052303702
0.46198934 -0.33879215 -0.020142853
0.47205672 -0.37764528 0.013415053
0.48257267 -0.41822958 0.048468158
0.49356934 -0.46066469 0.085123658
0.50507724 -0.50507718 0.12348337
0.51713628 -0.55161196 0.16368027
0.52978349 -0.60042125 0.20583756
0.54306477 -0.65167779 0.2501086
0.55703104 -0.70557261 0.29666287
0.57173264 -0.76231015 0.34566802
0.58723122 -0.82212377 0.39733005
0.60359579 -0.88527381 0.45187876
0.62089622 -0.95204085 0.5095467
0.63922018 -1.0227523 0.57062662
0.65865588 -1.0977598 0.63541222
0.73829031 1.0612923 0.74704981
0.70347816 0.96728259 0.63826197
0.67179847 0.88173562 0.53926307
0.64285159 0.80356437 0.44880372
0.61629397 0.73184901 0.36581105
0.59184563 0.66582632 0.28941011
0.56926107 0.60483992 0.21883351
0.54833859 0.54833865 0.15345076
0.52889955 0.49584338 0.092703789
0.51079005 0.44694141 0.036111593
0.49388108 0.40127838 -0.016728997
0.47805434 0.3585408 -0.066187471
0.46321177 0.31845808 -0.11257061
0.44926187 0.28078875 -0.15616392
0.43612882 0.24532253 -0.19720486
0.42374068 0.2118704 -0.23591779
0.41203785 0.18026656 -0.27248901
0.40096316 0.15036117 -0.30709755
0.39046907 0.12202162 -0.33989149
0.3805103 0.095127627 -0.3710126
0.37947962 0.071152493 -0.37423354
0.38581583 0.048226997 -0.35443288
0.39236814 0.024523064 -0.3339569
0.39914593 -1.4901161e-08 -0.31277636
0.40616295 -0.025385186 -0.29084808
0.41343009 -0.05167871 -0.26813826
0.42096207 -0.078930393 -0.24460086
0.4287746 -0.10719365 -0.22018671
0.43688151 -0.13652548 -0.19485264
0.44530201 -0.16698815 -0.16853848
0.4540523 -0.1986478 -0.14119384
0.46315342 -0.23157661 -0.11275295
0.47262812 -0.26585326 -0.083144464
0.48249719 -0.30156064 -0.052303702
0.49278861 -0.33879215 -0.020142853
0.50352716 -0.37764528 0.013415053
0.51474416 -0.41822958 0.048468158
0.52647394 -0.46066469 0.085123658
0.53874904 -0.50507718 0.12348337
0.55161202 -0.55161196 0.16368027
0.5651024 -0.60042125 0.20583756
0.57926911 -0.65167779 0.2501086
0.59416646 -0.70557261 0.29666287
0.60984808 -0.76231015 0.34566802
0.62637997 -0.82212377 0.39733005
0.64383554 -0.88527381 0.45187876
0.66228932 -0.95204085 0.5095467
0.68183482 -1.0227523 0.57062662
0.70256621 -1.0977598 0.63541222
0.74744558 0.96728259 0.63826197
0.71378595 0.88173562 0.53926307
0.68302977 0.80356437 0.44880372
0.65481228 0.73184901 0.36581105
0.62883592 0.66582632 0.28941011
0.60483992 0.60483992 0.21883351
0.58260977 0.54833865 0.15345076
0.56195575 0.49584338 0.092703789
0.54271448 0.44694141 0.036111593
0.52474862 0.40127838 -0.016728997
0.50793272 0.3585408 -0.066187471
0.4921625 0.31845808 -0.11257061
0.47734079 0.28078875 -0.15616392
0.46338686 0.24532253 -0.19720486
0.45022446 0.2118704 -0.23591779
0.43779024 0.18026656 -0.27248901
0.42602333 0.15036117 -0.30709755
0.41487339 0.12202162 -0.33989149
0.4042922 0.095127627 -0.3710126
0.40319708 0.071152493 -0.37423354
0.40992934 0.048226997 -0.35443288
0.41689116 0.024523064 -0.3339569
0.42409253 -1.4901161e-08 -0.31277636
0.43154812 -0.025385186 -0.29084808
0.43926951 -0.05167871 -0.26813826
0.44727215 -0.078930393 -0.24460086
0.45557302 -0.10719365 -0.22018671
0.46418661 -0.13652548 -0.19485264
0.47313339 -0.16698815 -0.16853848
0.48243061 -0.1986478 -0.14119384
0.49210048 -0.23157661 -0.11275295
0.5021674 -0.26585326 -0.083144464
0.51265323 -0.30156064 -0.052303702
0.52358794 -0.33879215 -0.020142853
0.53499764 -0.37764528 0.013415053
0.54691571 -0.41822958 0.048468158
0.55937856 -0.46066469 0.085123658
0.5724209 -0.50507718 0.12348337
0.58608776 -0.55161196 0.16368027
0.60042125 -0.60042125 0.20583756
0.61547339 -0.65167779 0.2501086
0.63130188 -0.70557261 0.29666287
0.64796364 -0.76231015 0.34566802
0.66552871 -0.82212377 0.39733005
0.68407524 -0.88527381 0.45187876
0.70368236 -0.95204085 0.5095467
0.72444952 -1.0227523 0.57062662
0.74647665 -1.0977598 0.63541222
0.75577331 0.88173562 0.53926307
0.72320801 0.80356437 0.44880372
0.69333065 0.73184901 0.36581105
0.66582632 0.66582632 0.28941011
0.64041871 0.60483992 0.21883351
0.61688095 0.54833865 0.15345076
0.59501201 0.49584338 0.092703789
0.57463878 0.44694141 0.036111593
0.5556162 0.40127838 -0.016728997
0.53781116 0.3585408 -0.066187471
0.52111328 0.31845808 -0.11257061
0.50541961 0.28078875 -0.15616392
0.4906449 0.24532253 -0.19720486
0.47670826 0.2118704 -0.23591779
0.46354258 0.18026656 -0.27248901
0.45108354 0.15036117 -0.30709755
0.43927774 0.12202162 -0.33989149
0.42807406 0.095127627 -0.3710126
0.42691454 0.071152493 -0.37423354
0.43404281 0.048226997 -0.35443288
0.44141415 0.024523064 -0.3339569
0.44903919 -1.4901161e-08 -0.31277636
0.45693332 -0.025385186 -0.29084808
0.46510887 -0.05167871 -0.26813826
0.4735823 -0.078930393 -0.24460086
0.48237142 -0.10719365 -0.22018671
0.49149168 -0.13652548 -0.19485264
0.50096476 -0.16698815 -0.16853848
0.51080889 -0.1986478 -0.14119384
0.52104759 -0.23157661 -0.11275295
0.53170663 -0.26585326 -0.083144464
0.54280937 -0.30156064 -0.052303702
0.55438721 -0.33879215 -0.020142853
0.56646806 -0.37764528 0.013415053
0.5790872 -0.41822958 0.048468158
0.59228319 -0.46066469 0.085123658
0.60609269 -0.50507718 0.12348337
0.62056351 -0.55161196 0.16368027
0.63574016 -0.60042125 0.20583756
0.65167773 -0.65167779 0.2501086
0.66843724 -0.70557261 0.29666287
0.68607914 -0.76231015 0.34566802
0.70467746 -0.82212377 0.39733005
0.72431499 -0.88527381 0.45187876
0.74507546 -0.95204085 0.5095467
0.73184901 0.73184901 0.36581105
0.70281667 0.66582632 0.28941011
0.6759975 0.60483992 0.21883351
