# .PCD v0.7 - Point Cloud Data file format
VERSION 0.7
FIELDS x y z
SIZE 4 4 4
TYPE F F F
COUNT 1 1 1
WIDTH 1347
HEIGHT 1
VIEWPOINT 0 0 0 1 0 0 0
POINTS 1347
DATA ascii
-0.63510442 -0.36769196 0.11122005
-0.63510442 -0.40111855 0.11122006
-0.63510442 -0.43454504 0.11121994
-0.63510442 -0.46797156 0.11121997
-0.63510638 -0.50139982 0.11122534
-0.63510638 -0.5348264 0.11122531
-0.63510638 -0.56825304 0.11122523
-0.63510442 -0.60167783 0.11122
-0.63510638 -0.63510638 0.11122534
-0.63510638 -0.66853309 0.11122531
-0.59663182 0.96124023 0.097203404
-0.59663182 0.92809397 0.097203255
-0.59663182 0.89494777 0.097203344
-0.59663182 0.86180156 0.097203285
-0.59663182 0.82865542 0.097203314
-0.59663182 0.7955091 0.097203225
-0.59663182 0.76236296 0.097203285
-0.59663182 0.72921669 0.097203255
-0.59663373 0.69607258 0.09720844
-0.59663373 0.66292644 0.09720856
-0.59663373 0.62978011 0.097208589
-0.59663373 0.59663373 0.0972085
-0.59663373 0.56348741 0.097208515
-0.59663373 0.53034109 0.09720844
-0.59663373 0.49719468 0.097208425
-0.59663558 0.46404994 0.0972137
-0.59663558 0.43090349 0.0972137
-0.59663558 0.39775708 0.097213656
-0.59663558 0.36461061 0.097213671
-0.59663558 0.33146429 0.09721373
-0.59663558 0.29831788 0.097213686
-0.59663558 0.26517138 0.097213738
-0.59663749 0.23202571 0.097218864
-0.59663749 0.19887914 0.097218812
-0.59663749 0.16573259 0.097218901
-0.59663749 0.13258614 0.097218908
-0.59663749 0.099439681 0.097218901
-0.59663749 0.066293053 0.097218901
-0.59663749 0.033146597 0.097218901
-0.59663749 4.8428774e-08 0.097218983
-0.59663934 -0.03314653 0.097224131
-0.59663934 -0.066293158 0.097224124
-0.59663934 -0.099439859 0.097224027
-0.59663934 -0.13258648 0.097224012
-0.59663934 -0.16573311 0.097224012
-0.59663934 -0.19887966 0.097224087
-0.59663934 -0.23202638 0.097224161
-0.59663934 -0.26517302 0.097224154
-0.59663934 -0.29831964 0.097224146
-0.59663934 -0.33146626 0.097224139
-0.59663934 -0.36461294 0.097224034
-0.59663934 -0.3977595 0.097224116
-0.59663934 -0.43090612 0.097224087
-0.59663934 -0.46405274 0.097224101
-0.59663934 -0.49719936 0.097224101
-0.59663934 -0.53034598 0.097224072
-0.59663934 -0.56349266 0.097224042
-0.59663934 -0.59663922 0.097224101
-0.59663934 -0.62978584 0.097224116
-0.59663934 -0.66293246 0.097224087
-0.59663934 -0.69607919 0.097224116
-0.55880439 1.0518671 0.083434969
-0.55880439 1.0189962 0.083435088
-0.55880439 0.98612547 0.083435088
-0.55880439 0.95325464 0.083435059
-0.55880439 0.92038375 0.083435088
-0.55880618 0.88751566 0.083440185
-0.55880618 0.85464472 0.083440214
-0.55880618 0.82177377 0.083440155
-0.55880618 0.78890282 0.083440185
-0.55880618 0.75603187 0.083440185
-0.55880618 0.72316086 0.083440125
-0.55880618 0.69028997 0.083440214
-0.55880618 0.65741903 0.083440125
-0.55880791 0.6245501 0.08344537
-0.55880791 0.5916791 0.083445311
-0.55880791 0.55880797 0.083445311
-0.55880791 0.5259369 0.083445325
-0.55880791 0.49306577 0.083445311
-0.55880791 0.46019477 0.083445266
-0.55880791 0.4273237 0.083445251
-0.55880964 0.39445391 0.083450422
-0.55880964 0.3615827 0.083450377
-0.55880964 0.32871157 0.083450407
-0.55880964 0.29584044 0.083450451
-0.55880964 0.26296923 0.083450384
-0.55880964 0.2300981 0.083450414
-0.55880964 0.19722697 0.083450459
-0.55881137 0.16435632 0.083455428
-0.55881137 0.1314851 0.08345554
-0.55881137 0.098613784 0.083455436
-0.55881137 0.06574256 0.083455548
-0.55881137 0.032871306 0.083455533
-0.55881137 5.5879354e-08 0.083455518
-0.55881137 -0.032871198 0.083455503
-0.5588131 -0.065742746 0.083460622
-0.5588131 -0.098613992 0.083460599
-0.5588131 -0.13148542 0.083460577
-0.5588131 -0.16435675 0.083460636
-0.5588131 -0.19722819 0.083460599
-0.5588131 -0.23009944 0.083460592
-0.5588131 -0.26297078 0.083460659
-0.5588131 -0.2958422 0.083460622
-0.5588131 -0.32871354 0.083460681
-0.5588131 -0.36158496 0.083460659
-0.5588131 -0.3944563 0.083460718
-0.5588131 -0.42732757 0.083460659
-0.5588131 -0.460199 0.083460674
-0.5588131 -0.49307036 0.083460703
-0.5588131 -0.52594167 0.083460584
-0.5588131 -0.5588131 0.083460599
-0.5588131 -0.59168446 0.083460629
-0.5588131 -0.62455571 0.08346054
-0.5588131 -0.65742713 0.083460569
-0.5588131 -0.6902985 0.083460599
-0.5588131 -0.72316992 0.083460599
-0.52160197 1.0432038 0.069898695
-0.52160197 1.0106038 0.069898695
-0.52160197 0.97800362 0.069898665
-0.52160197 0.94540358 0.069898814
-0.52160197 0.91280347 0.069898814
-0.52160197 0.88020325 0.069898635
-0.52160197 0.8476032 0.069898725
-0.52160358 0.81500548 0.069903731
-0.52160358 0.78240544 0.069903821
-0.52160358 0.74980509 0.069903731
-0.52160358 0.71720493 0.069903821
-0.52160358 0.68460464 0.069903761
-0.52160358 0.65200454 0.069903791
-0.52160358 0.61940426 0.069903821
-0.52160358 0.58680391 0.069903642
-0.52160513 0.55420554 0.069908828
-0.52160513 0.52160513 0.069908738
-0.52160513 0.48900491 0.069908842
-0.52160513 0.45640454 0.069908768
-0.52160513 0.42380422 0.069908813
-0.52160513 0.39120394 0.069908798
-0.52160513 0.35860366 0.069908783
-0.52160674 0.32600427 0.069913834
-0.52160674 0.29340383 0.069913805
-0.52160674 0.26080352 0.069913834
-0.52160674 0.22820289 0.069913805
-0.52160674 0.19560258 0.069913834
-0.52160674 0.16300213 0.069913805
-0.52160674 0.13040173 0.069913916
-0.52160841 0.097801648 0.069918782
-0.52160841 0.065201066 0.069918878
-0.52160841 0.032600529 0.069918931
-0.52160841 8.5681677e-08 0.069918908
-0.52160841 -0.032600522 0.069918871
-0.52160841 -0.06520097 0.069918856
-0.52160841 -0.097801581 0.069918819
-0.52160841 -0.13040203 0.069918796
-0.52160841 -0.16300255 0.069918856
-0.52160841 -0.19560301 0.069918841
-0.52160841 -0.22820362 0.069918968
-0.52160841 -0.26080415 0.069918849
-0.52160841 -0.29340476 0.069918819
-0.52160841 -0.32600522 0.069918804
-0.52160841 -0.35860574 0.069918841
-0.52160841 -0.3912062 0.069918826
-0.52160841 -0.42380673 0.069918886
-0.52161002 -0.45640871 0.069923818
-0.52161002 -0.48900938 0.069923908
-0.52161002 -0.52160996 0.069923893
-0.52161002 -0.55421054 0.069923893
-0.52161002 -0.58681118 0.069923878
-0.52161002 -0.61941177 0.069923818
-0.52161002 -0.65201247 0.069923878
-0.52161002 -0.68461305 0.069923878
-0.52161002 -0.71721375 0.069923908
-0.52161002 -0.74981439 0.069923908
-0.4850058 1.0346791 0.056578636
-0.4850058 1.0023453 0.056578696
-0.48500726 0.97001457 0.056583554
-0.48500726 0.93768072 0.056583554
-0.48500726 0.90534693 0.056583583
-0.48500726 0.87301302 0.056583464
-0.48500726 0.84067929 0.056583554
-0.48500726 0.80834544 0.056583494
-0.48500726 0.77601171 0.056583583
-0.48500875 0.74368 0.056588471
-0.48500875 0.71134615 0.056588441
-0.48500875 0.67901236 0.056588531
-0.48500875 0.64667833 0.056588531
-0.48500875 0.61434448 0.056588531
-0.48500875 0.58201051 0.056588441
-0.48500875 0.54967654 0.056588531
-0.48500875 0.51734269 0.056588516
-0.48501027 0.48501027 0.056593433
-0.48501027 0.45267624 0.056593418
-0.48501027 0.42034227 0.056593508
-0.48501027 0.38800818 0.056593403
-0.48501027 0.35567421 0.056593478
-0.48501027 0.32334018 0.056593463
-0.48501027 0.29100615 0.056593455
-0.48501173 0.25867295 0.056598403
-0.48501173 0.22633879 0.056598336
-0.48501173 0.19400471 0.056598358
-0.48501173 0.16167064 0.056598388
-0.48501173 0.12933645 0.056598369
-0.48501173 0.097002365 0.056598391
-0.48501173 0.064668335 0.056598376
-0.48501322 0.032334268 0.056603435
-0.48501322 6.7055225e-08 0.056603409
-0.48501322 -0.032334208 0.056603294
-0.48501322 -0.06466841 0.056603268
-0.48501322 -0.097002529 0.056603335
-0.48501322 -0.12933682 0.056603387
-0.48501322 -0.16167101 0.056603361
-0.48501322 -0.19400522 0.056603335
-0.48501322 -0.22633943 0.056603305
-0.48501322 -0.25867361 0.056603283
-0.48501322 -0.29100791 0.056603342
-0.48501322 -0.32334208 0.056603312
-0.48501322 -0.35567626 0.056603327
-0.48501322 -0.38801047 0.056603298
-0.48501322 -0.42034465 0.056603283
-0.48501322 -0.45267898 0.056603298
-0.48501322 -0.48501322 0.056603432
-0.48501322 -0.5173474 0.056603402
-0.48501322 -0.54968166 0.056603327
-0.48501322 -0.58201581 0.056603312
-0.48501322 -0.61434996 0.056603312
-0.48501322 -0.64668429 0.056603372
-0.48501322 -0.67901844 0.056603402
-0.48501322 -0.71135271 0.056603342
-0.48501322 -0.74368685 0.056603342
-0.48501322 -0.776021 0.056603312
-0.44900426 0.99422371 0.043479204
-0.44900426 0.962152 0.043479294
-0.44900426 0.93008029 0.043479234
-0.44900563 0.89801133 0.043484151
-0.44900563 0.8659395 0.043484211
-0.44900563 0.83386755 0.043484092
-0.44900563 0.80179578 0.043484092
-0.44900563 0.76972401 0.043484181
-0.44900563 0.73765218 0.043484211
-0.44900563 0.70558035 0.043484181
-0.44900697 0.67351055 0.043489039
-0.44900697 0.64143866 0.043489099
-0.44900697 0.60936666 0.043488979
-0.44900697 0.57729465 0.04348895
-0.44900697 0.54522276 0.043489009
-0.44900697 0.51315093 0.043489069
-0.44900697 0.48107892 0.043489039
-0.44900697 0.44900697 0.043488994
-0.44900835 0.4169364 0.043493897
-0.44900835 0.38486433 0.043493941
-0.44900835 0.35279226 0.043493867
-0.44900835 0.32072029 0.043493837
-0.44900835 0.28864825 0.043493845
-0.44900835 0.25657621 0.043493897
-0.44900835 0.2245042 0.043493904
-0.44900972 0.19243279 0.043498732
-0.44900972 0.16036069 0.043498822
-0.44900972 0.12828855 0.043498781
-0.44900972 0.09621641 0.04349874
-0.44900972 0.064144358 0.043498788
-0.44900972 0.032072168 0.043498788
-0.44900972 7.8231096e-08 0.04349871
-0.44901106 -0.032072216 0.043503687
-0.44901106 -0.064144313 0.043503605
-0.44901106 -0.096216664 0.043503594
-0.44901106 -0.12828884 0.043503586
-0.44901106 -0.16036111 0.043503661
-0.44901106 -0.1924333 0.043503664
-0.44901106 -0.22450548 0.043503664
-0.44901106 -0.25657767 0.043503664
-0.44901106 -0.28864992 0.04350356
-0.44901106 -0.32072219 0.043503642
-0.44901106 -0.35279435 0.043503672
-0.44901106 -0.3848666 0.043503582
-0.44901106 -0.41693878 0.043503582
-0.44901106 -0.44901109 0.043503612
-0.44901106 -0.48108321 0.043503538
-0.44901106 -0.51315546 0.043503627
-0.44901106 -0.54522771 0.043503582
-0.44901106 -0.57729995 0.043503642
-0.44901106 -0.60937214 0.043503642
-0.44901106 -0.64144433 0.043503582
-0.44901106 -0.67351651 0.043503582
-0.44901106 -0.7055887 0.043503582
-0.44901106 -0.737661 0.043503642
-0.44901106 -0.76973319 0.043503612
-0.44901106 -0.8018055 0.043503702
-0.41358146 0.9862327 0.030590564
-0.41358146 0.95441878 0.030590653
-0.41358146 0.9226048 0.030590534
-0.41358146 0.89079088 0.030590594
-0.41358146 0.85897684 0.030590504
-0.41358268 0.82716542 0.030595362
-0.41358268 0.79535139 0.030595332
-0.41358268 0.76353735 0.030595362
-0.41358268 0.73172319 0.030595332
-0.41358268 0.69990915 0.030595243
-0.41358268 0.66809523 0.030595362
-0.41358268 0.63628107 0.030595332
-0.41358393 0.60446882 0.030600131
-0.41358393 0.57265484 0.03060019
-0.41358393 0.54084057 0.030600101
-0.41358393 0.50902641 0.030600116
-0.41358393 0.47721225 0.030600086
-0.41358393 0.44539815 0.030600071
-0.41358393 0.41358396 0.030600086
-0.41358393 0.38176984 0.030600071
-0.41358516 0.34995669 0.030604869
-0.41358516 0.3181425 0.030604884
-0.41358516 0.28632826 0.030604824
-0.41358516 0.25451401 0.030604884
-0.41358516 0.22269972 0.030604847
-0.41358516 0.19088553 0.030604869
-0.41358516 0.15907124 0.030604839
-0.41358644 0.12725745 0.030609708
-0.41358644 0.0954431 0.030609716
-0.41358644 0.063628674 0.030609639
-0.41358644 0.0318144 0.030609736
-0.41358644 1.6763806e-08 0.030609617
-0.41358644 -0.031814303 0.030609755
-0.41358644 -0.063628606 0.030609725
-0.41358644 -0.095442988 0.030609606
-0.41358644 -0.1272573 0.030609746
-0.41358644 -0.1590717 0.030609794
-0.41358644 -0.19088599 0.030609593
-0.41358644 -0.2227003 0.030609727
-0.41358644 -0.25451478 0.030609682
-0.41358644 -0.28632891 0.030609667
-0.41358644 -0.31814337 0.030609667
-0.41358766 -0.34995878 0.03061454
-0.41358766 -0.38177317 0.030614436
-0.41358766 -0.41358769 0.030614495
-0.41358766 -0.445402 0.03061448
-0.41358766 -0.47721657 0.03061448
-0.41358766 -0.50903088 0.030614451
-0.41358766 -0.54084539 0.03061451
-0.41358766 -0.57265985 0.030614585
-0.41358766 -0.60447425 0.030614376
-0.41358766 -0.63628876 0.030614525
-0.41358766 -0.6681031 0.030614406
-0.41358766 -0.69991755 0.030614525
-0.41358766 -0.73173201 0.030614436
-0.41358766 -0.76354647 0.030614555
-0.41358766 -0.79536092 0.030614495
-0.41358766 -0.82717526 0.030614465
-0.3787235 0.94680882 0.017907381
-0.3787235 0.91524851 0.017907381
-0.3787235 0.88368821 0.017907381
-0.3787235 0.85212785 0.017907232
-0.3787235 0.82056773 0.017907381
-0.3787235 0.78900743 0.017907381
-0.37872463 0.75744933 0.01791206
-0.37872463 0.72588897 0.01791209
-0.37872463 0.69432867 0.01791212
-0.37872463 0.66276813 0.01791206
-0.37872463 0.63120782 0.01791209
-0.37872463 0.5996474 0.01791203
-0.37872463 0.56808698 0.01791203
-0.3787258 0.53652829 0.017916828
-0.3787258 0.50496781 0.017916813
-0.3787258 0.4734073 0.017916784
-0.3787258 0.44184682 0.017916754
-0.3787258 0.41028631 0.017916784
-0.3787258 0.37872583 0.017916769
-0.3787258 0.34716532 0.017916754
-0.3787258 0.31560495 0.017916769
-0.37872693 0.28404528 0.017921418
-0.37872693 0.25248462 0.017921388
-0.37872693 0.22092411 0.017921537
-0.37872693 0.18936351 0.01792147
-0.37872693 0.15780294 0.01792153
-0.37872693 0.12624232 0.017921455
-0.37872693 0.094681792 0.017921474
-0.37872803 0.063121386 0.017926114
-0.37872803 0.031560685 0.017926119
-0.37872803 1.9557774e-08 0.017926257
-0.37872803 -0.031560633 0.017926225
-0.37872803 -0.063121289 0.017926196
-0.37872803 -0.094681941 0.017926164
-0.37872803 -0.12624268 0.017926212
-0.37872803 -0.15780334 0.017926179
-0.37872803 -0.18936399 0.017926149
-0.37872803 -0.22092468 0.017926291
-0.37872803 -0.25248522 0.017926179
-0.37872803 -0.28404605 0.017926127
-0.37872803 -0.31560665 0.017926142
-0.37872803 -0.34716731 0.017926112
-0.37872803 -0.37872803 0.017926201
-0.37872803 -0.41028869 0.017926171
-0.37872803 -0.44184929 0.017926201
-0.37872803 -0.47340998 0.017926127
-0.37872803 -0.50497073 0.017926157
-0.37872803 -0.53653133 0.017926186
-0.37872803 -0.56809199 0.017926157
-0.37872803 -0.59965271 0.017926246
-0.37872803 -0.63121337 0.017926216
-0.37872803 -0.66277403 0.017926186
-0.37872916 -0.69433677 0.017930865
-0.37872916 -0.72589755 0.017930835
-0.37872916 -0.75745833 0.017930865
-0.37872916 -0.78901899 0.017930806
-0.37872916 -0.82057983 0.017930895
-0.37872916 -0.85214067 0.017930895
-0.34441605 0.93931657 0.0054201782
-0.34441707 0.90800858 0.0054247379
-0.34441707 0.87669802 0.0054247975
-0.34441707 0.84538734 0.0054247975
-0.34441707 0.81407672 0.0054247379
-0.34441707 0.7827661 0.0054248571
-0.34441707 0.75145543 0.0054248273
-0.34441707 0.72014481 0.0054247677
-0.34441808 0.68883616 0.0054292977
-0.34441808 0.65752542 0.0054293275
-0.34441808 0.62621474 0.0054294765
-0.34441808 0.59490395 0.0054294169
-0.34441808 0.56359327 0.0054294467
-0.34441808 0.53228247 0.0054293573
-0.34441808 0.50097185 0.0054294616
-0.34441909 0.46966243 0.0054340214
-0.34441909 0.43835163 0.005434081
-0.34441909 0.40704077 0.0054340661
-0.34441909 0.37572998 0.0054340065
-0.34441909 0.34441921 0.005434081
-0.34441909 0.31310827 0.0054340214
-0.34441909 0.28179753 0.0054340512
-0.34441909 0.25048661 0.0054340512
-0.34442014 0.21917644 0.0054386482
-0.34442014 0.18786556 0.0054386705
-0.34442014 0.15655465 0.0054386929
-0.34442014 0.12524375 0.0054387152
-0.34442014 0.093932785 0.0054386407
-0.34442014 0.062621891 0.0054386593
-0.34442014 0.031310994 0.005438677
-0.34442115 5.6577846e-08 0.0054433011
-0.34442115 -0.031311005 0.0054433076
-0.34442115 -0.062621981 0.0054432359
-0.34442115 -0.093933046 0.0054432452
-0.34442115 -0.12524402 0.0054433383
-0.34442115 -0.156555 0.0054432675
-0.34442115 -0.18786606 0.005443275
-0.34442115 -0.21917705 0.0054433718
-0.34442115 -0.25048801 0.0054432973
-0.34442115 -0.28179908 0.0054433197
-0.34442115 -0.31311011 0.0054433495
-0.34442115 -0.34442109 0.0054432899
-0.34442115 -0.37573215 0.0054432899
-0.34442115 -0.4070431 0.005443275
-0.34442115 -0.43835416 0.005443275
-0.34442115 -0.46966511 0.0054433793
-0.34442115 -0.50097609 0.0054433048
-0.34442115 -0.53228718 0.0054433048
-0.34442115 -0.56359816 0.0054433644
-0.34442115 -0.59490919 0.005443275
-0.34442115 -0.62622023 0.0054433346
-0.34442115 -0.65753126 0.0054433644
-0.34442115 -0.68884224 0.005443275
-0.34442115 -0.72015327 0.0054433346
-0.34442115 -0.75146425 0.0054432452
-0.34442115 -0.78277534 0.0054433942
-0.34442115 -0.81408632 0.0054433048
-0.34442115 -0.84539735 0.0054433048
-0.34442115 -0.87670827 0.0054433048
-0.31064817 0.93194449 -0.0068665445
-0.31064817 0.90087974 -0.0068663657
-0.31064817 0.86981493 -0.0068664253
-0.3106491 0.83875263 -0.0068618655
-0.3106491 0.8076877 -0.0068618655
-0.3106491 0.77662277 -0.0068618357
-0.3106491 0.7455579 -0.0068618059
-0.3106491 0.71449298 -0.0068618059
-0.3106491 0.68342799 -0.0068618953
-0.3106491 0.65236312 -0.0068618953
-0.31065002 0.62129998 -0.0068573058
-0.31065002 0.59023499 -0.0068573654
-0.31065002 0.55917007 -0.0068573356
-0.31065002 0.52810502 -0.0068573058
-0.31065002 0.49704009 -0.006857276
-0.31065002 0.46597505 -0.0068572909
-0.31065002 0.43491009 -0.0068572462
-0.31065094 0.4038462 -0.0068527758
-0.31065094 0.3727811 -0.0068527311
-0.31065094 0.34171605 -0.0068527609
-0.31065094 0.31065094 -0.0068527162
-0.31065094 0.2795859 -0.0068527311
-0.31065094 0.24852081 -0.0068527386
-0.31065094 0.21745569 -0.0068528354
-0.31065094 0.18639052 -0.0068527684
-0.31065184 0.15532596 -0.0068481714
-0.31065184 0.12426074 -0.00684819
-0.31065184 0.093195587 -0.0068481229
-0.31065184 0.062130403 -0.0068481807
-0.31065184 0.031065173 -0.0068482039
-0.31065184 2.1420419e-08 -0.0068481341
-0.31065184 -0.031065084 -0.0068481043
-0.31065184 -0.062130362 -0.0068480838
-0.31065184 -0.093195543 -0.0068481453
-0.31065184 -0.12426073 -0.0068482012
-0.31065184 -0.15532592 -0.0068482608
-0.31065273 -0.18639162 -0.0068436339
-0.31065273 -0.21745688 -0.0068436041
-0.31065273 -0.24852216 -0.0068435892
-0.31065273 -0.27958748 -0.0068436116
-0.31065273 -0.31065267 -0.0068436861
-0.31065273 -0.34171799 -0.0068435371
-0.31065273 -0.37278333 -0.0068436116
-0.31065273 -0.40384847 -0.0068436265
-0.31065273 -0.43491381 -0.0068436414
-0.31065273 -0.4659791 -0.0068436414
-0.31065273 -0.49704432 -0.0068435669
-0.31065273 -0.52810967 -0.0068436265
-0.31065273 -0.5591749 -0.0068435669
-0.31065273 -0.59024012 -0.0068436861
-0.31065273 -0.62130541 -0.0068436563
-0.31065273 -0.65237075 -0.0068435669
-0.31065273 -0.68343598 -0.0068436563
-0.31065273 -0.7145012 -0.0068435967
-0.31065273 -0.74556649 -0.0068436563
-0.31065273 -0.77663183 -0.0068435967
-0.31065273 -0.80769706 -0.0068435967
-0.31065273 -0.83876228 -0.0068436861
-0.31065273 -0.86982763 -0.0068435967
-0.31065273 -0.90089285 -0.0068436861
-0.27740622 0.89386457 -0.018961638
-0.27740622 0.86304164 -0.018961608
-0.27740622 0.83221865 -0.018961668
-0.27740622 0.80139577 -0.018961698
-0.27740702 0.77057505 -0.018957198
-0.27740702 0.73975211 -0.018957168
-0.27740702 0.70892906 -0.018957227
-0.27740702 0.67810613 -0.018957168
-0.27740702 0.6472832 -0.018957108
-0.27740702 0.61646008 -0.018957198
-0.27740702 0.58563709 -0.018957138
-0.27740785 0.55481565 -0.018952727
-0.27740785 0.5239926 -0.018952742
-0.27740785 0.49316955 -0.018952623
-0.27740785 0.46234646 -0.018952668
-0.27740785 0.43152335 -0.018952638
-0.27740785 0.40070027 -0.018952668
-0.27740785 0.36987716 -0.018952653
-0.27740866 0.33905506 -0.018948168
-0.27740866 0.30823189 -0.018948108
-0.27740866 0.27740866 -0.018948138
-0.27740866 0.24658546 -0.018948212
-0.27740866 0.2157623 -0.01894816
-0.27740866 0.18493906 -0.018948197
-0.27740866 0.15411589 -0.018948138
-0.27740866 0.12329277 -0.018948127
-0.27740946 0.092469789 -0.018943664
-0.27740946 0.06164667 -0.018943647
-0.27740946 0.030823261 -0.018943693
-0.27740946 1.7695129e-08 -0.018943729
-0.27740946 -0.03082327 -0.018943727
-0.27740946 -0.061646476 -0.01894363
-0.27740946 -0.092469767 -0.018943626
-0.27740946 -0.12329297 -0.018943705
-0.27740946 -0.15411642 -0.018943705
-0.27740946 -0.18493962 -0.018943615
-0.27740946 -0.21576291 -0.018943608
-0.27740946 -0.24658611 -0.018943697
-0.27740946 -0.27740937 -0.018943682
-0.27740946 -0.30823267 -0.018943638
-0.27740946 -0.33905599 -0.018943682
-0.27740946 -0.36987928 -0.018943682
-0.27740946 -0.40070254 -0.018943667
-0.27740946 -0.43152571 -0.018943697
-0.27740946 -0.46234906 -0.018943623
-0.27740946 -0.49317241 -0.018943667
-0.27740946 -0.52399564 -0.018943727
-0.27740946 -0.55481887 -0.018943667
-0.27741027 -0.58564389 -0.018939108
-0.27741027 -0.61646724 -0.018939137
-0.27741027 -0.64729071 -0.018939167
-0.27741027 -0.67811394 -0.018939167
-0.27741027 -0.70893729 -0.018939227
-0.27741027 -0.7397607 -0.018939167
-0.27741027 -0.77058411 -0.018939108
-0.27741027 -0.80140734 -0.018939257
-0.27741027 -0.83223069 -0.018939167
-0.27741027 -0.86305416 -0.018939197
-0.27741027 -0.89387739 -0.018939257
-0.27741027 -0.92470086 -0.018939227
-0.24467798 0.88695776 -0.030869961
-0.24467798 0.85637295 -0.030869961
-0.24467798 0.82578826 -0.030869961
-0.24467798 0.79520357 -0.030869871
-0.24467798 0.76461875 -0.030869901
-0.24467798 0.73403406 -0.030869931
-0.24467871 0.70345122 -0.030865639
-0.24467871 0.67286646 -0.03086549
-0.24467871 0.64228165 -0.030865431
-0.24467871 0.61169672 -0.03086552
-0.24467871 0.58111191 -0.03086549
-0.24467871 0.55052704 -0.03086555
-0.24467871 0.51994228 -0.030865431
-0.24467941 0.48935884 -0.030861095
-0.24467941 0.45877391 -0.03086108
-0.24467941 0.42818904 -0.03086102
-0.24467941 0.39760402 -0.030861124
-0.24467941 0.36701918 -0.030861065
-0.24467941 0.33643419 -0.03086105
-0.24467941 0.30584925 -0.030861065
-0.24468011 0.27526516 -0.030856632
-0.24468011 0.24468008 -0.030856684
-0.24468011 0.21409512 -0.030856669
-0.24468011 0.18351007 -0.030856617
-0.24468011 0.1529251 -0.030856602
-0.24468011 0.12234008 -0.030856714
-0.24468011 0.091755107 -0.030856702
-0.24468011 0.061170086 -0.030856648
-0.24468082 0.030585118 -0.03085224
-0.24468082 -2.7008355e-08 -0.030852238
-0.24468082 -0.030585082 -0.030852312
-0.24468082 -0.061170198 -0.030852186
-0.24468082 -0.091755211 -0.030852303
-0.24468082 -0.12234032 -0.030852165
-0.24468082 -0.15292552 -0.030852128
-0.24468082 -0.1835106 -0.030852333
-0.24468082 -0.21409571 -0.030852206
-0.24468082 -0.24468082 -0.030852236
-0.24468082 -0.27526584 -0.030852199
-0.24468082 -0.30585098 -0.030852273
-0.24468082 -0.33643609 -0.030852303
-0.24468082 -0.3670212 -0.030852184
-0.24468082 -0.39760631 -0.030852214
-0.24468082 -0.42819136 -0.030852199
-0.24468082 -0.45877647 -0.030852243
-0.24468082 -0.48936167 -0.030852214
-0.24468082 -0.51994663 -0.030852288
-0.24468082 -0.5505318 -0.030852228
-0.24468082 -0.58111691 -0.030852258
-0.24468082 -0.61170197 -0.030852258
-0.24468082 -0.64228714 -0.030852169
-0.24468082 -0.67287219 -0.030852288
-0.24468082 -0.7034573 -0.030852199
-0.24468082 -0.73404241 -0.030852258
-0.24468082 -0.76462758 -0.030852228
-0.24468082 -0.79521257 -0.030852288
-0.24468082 -0.82579762 -0.030852258
-0.24468082 -0.85638285 -0.030852228
-0.24468082 -0.88696802 -0.030852139
-0.24468152 -0.91755569 -0.030847788
-0.21245165 0.84980655 -0.042595685
-0.21245165 0.81945634 -0.042595625
-0.21245165 0.78910613 -0.042595655
-0.21245165 0.75875586 -0.042595685
-0.21245165 0.72840565 -0.042595595
-0.21245165 0.69805539 -0.042595625
-0.21245165 0.66770518 -0.042595655
-0.21245226 0.63735676 -0.042591304
-0.21245226 0.60700643 -0.042591274
-0.21245226 0.5766561 -0.042591274
-0.21245226 0.54630584 -0.042591259
-0.21245226 0.51595551 -0.042591229
-0.21245226 0.48560521 -0.042591229
-0.21245226 0.45525482 -0.042591304
-0.21245287 0.42490572 -0.042586967
-0.21245287 0.39455533 -0.042586908
-0.21245287 0.36420491 -0.042586952
-0.21245287 0.33385456 -0.042586908
-0.21245287 0.30350417 -0.042586818
-0.21245287 0.27315366 -0.042586938
-0.21245287 0.24280328 -0.042586863
-0.21245347 0.21245345 -0.042582542
-0.21245347 0.18210299 -0.042582542
-0.21245347 0.15175252 -0.042582545
-0.21245347 0.12140205 -0.042582545
-0.21245347 0.091051482 -0.042582475
-0.21245347 0.060701057 -0.042582516
-0.21245347 0.03035051 -0.042582605
-0.21245347 1.15484e-07 -0.042582519
-0.21245347 -0.030350402 -0.042582482
-0.21245347 -0.060700949 -0.042582575
-0.21245408 -0.091051742 -0.042578205
-0.21245408 -0.12140221 -0.042578209
-0.21245408 -0.15175277 -0.042578135
-0.21245408 -0.1821035 -0.042578235
-0.21245408 -0.21245405 -0.042578168
-0.21245408 -0.24280469 -0.042578183
-0.21245408 -0.27315515 -0.042578183
-0.21245408 -0.30350581 -0.042578191
-0.21245408 -0.3338564 -0.042578161
-0.21245408 -0.36420703 -0.042578176
-0.21245408 -0.39455751 -0.042578176
-0.21245408 -0.4249081 -0.042578146
-0.21245408 -0.45525876 -0.042578176
-0.21245408 -0.48560932 -0.042578086
-0.21245408 -0.51595986 -0.042578235
-0.21245408 -0.54631042 -0.042578161
-0.21245408 -0.57666099 -0.042578191
-0.21245408 -0.60701162 -0.04257822
-0.21245408 -0.63736224 -0.042578191
-0.21245408 -0.66771281 -0.042578161
-0.21245408 -0.69806331 -0.042578191
-0.21245408 -0.72841394 -0.042578191
-0.21245408 -0.75876451 -0.042578131
-0.21245408 -0.78911519 -0.042578161
-0.21245408 -0.81946564 -0.04257822
-0.21245408 -0.84981626 -0.042578161
-0.21245408 -0.88016689 -0.042578191
-0.21245408 -0.91051751 -0.042578161
-0.21245408 -0.94086808 -0.042578071
-0.18071522 0.84333777 -0.054147094
-0.18071522 0.81321853 -0.054147154
-0.18071574 0.78310156 -0.054142833
-0.18071574 0.75298232 -0.054142833
-0.18071574 0.72286296 -0.054142892
-0.18071574 0.69274366 -0.054142773
-0.18071574 0.66262436 -0.054142892
-0.18071574 0.63250506 -0.054142892
-0.18071574 0.60238588 -0.054142773
-0.18071626 0.57226813 -0.054138571
-0.18071626 0.54214883 -0.054138526
-0.18071626 0.51202935 -0.054138556
-0.18071626 0.48191005 -0.054138526
-0.18071626 0.45179063 -0.054138541
-0.18071626 0.42167127 -0.054138601
-0.18071626 0.39155191 -0.054138541
-0.18071677 0.36143363 -0.054134205
-0.18071677 0.33131415 -0.054134175
-0.18071677 0.30119461 -0.054134257
-0.18071677 0.27107519 -0.054134272
-0.18071677 0.24095574 -0.054134294
-0.18071677 0.21083626 -0.054134265
-0.18071677 0.18071675 -0.054134212
-0.18071729 0.15059777 -0.054129895
-0.18071729 0.12047821 -0.054129966
-0.18071729 0.090358734 -0.054129943
-0.18071729 0.060239092 -0.05412994
-0.18071729 0.03011962 -0.054129921
-0.18071729 2.2351742e-08 -0.054129951
-0.18071729 -0.030119453 -0.054129936
-0.18071729 -0.060239002 -0.054130007
-0.18071729 -0.09035857 -0.05412991
-0.18071729 -0.12047812 -0.054129981
-0.18071729 -0.15059769 -0.054129887
-0.18071729 -0.18071723 -0.054129958
-0.18071729 -0.21083671 -0.054129936
-0.18071729 -0.24095635 -0.054129928
-0.18071729 -0.27107584 -0.054129958
-0.18071729 -0.30119538 -0.054129988
-0.18071729 -0.33131498 -0.054129928
-0.18071729 -0.36143452 -0.054129958
-0.18071729 -0.39155412 -0.054129913
-0.18071729 -0.42167363 -0.054129943
-0.18071729 -0.45179313 -0.054129973
-0.18071729 -0.48191273 -0.054129899
-0.18071729 -0.51203227 -0.054129943
-0.18071781 -0.54215336 -0.054125637
-0.18071781 -0.57227302 -0.054125637
-0.18071781 -0.60239267 -0.054125637
-0.18071781 -0.63251221 -0.054125696
-0.18071781 -0.66263187 -0.054125696
-0.18071781 -0.69275153 -0.054125696
-0.18071781 -0.72287118 -0.054125696
-0.18071781 -0.75299084 -0.054125667
-0.18071781 -0.78311044 -0.054125667
-0.18071781 -0.81322998 -0.054125756
-0.18071781 -0.8433497 -0.054125607
-0.18071781 -0.87346923 -0.054125726
-0.18071781 -0.90358901 -0.054125667
-0.18071781 -0.93370855 -0.054125726
-0.18071781 -0.96382821 -0.054125667
-0.14945875 0.80707729 -0.065519869
-0.14945875 0.77718544 -0.065519929
-0.14945917 0.74729586 -0.065515608
-0.14945917 0.71740401 -0.065515667
-0.14945917 0.68751216 -0.065515697
-0.14945917 0.65762037 -0.065515667
-0.14945917 0.62772852 -0.065515697
-0.14945917 0.59783673 -0.065515637
-0.14945917 0.56794488 -0.065515697
-0.14945917 0.53805304 -0.065515667
-0.1494596 0.50816268 -0.065511391
-0.1494596 0.47827071 -0.065511465
-0.1494596 0.44837877 -0.065511435
-0.1494596 0.41848689 -0.065511435
-0.1494596 0.38859496 -0.06551142
-0.1494596 0.35870302 -0.065511391
-0.1494596 0.32881114 -0.065511391
-0.14946002 0.29892004 -0.065507203
-0.14946002 0.2690281 -0.065507159
-0.14946002 0.2391361 -0.065507241
-0.14946002 0.20924413 -0.065507166
-0.14946002 0.1793521 -0.065507218
-0.14946002 0.14946003 -0.065507233
-0.14946002 0.11956809 -0.065507203
-0.14946043 0.089676261 -0.065503016
-0.14946043 0.059784275 -0.065502934
-0.14946043 0.029892087 -0.065503001
-0.14946043 5.2154064e-08 -0.065502882
-0.14946043 -0.029892046 -0.065503024
-0.14946043 -0.059784081 -0.065502912
-0.14946043 -0.089676268 -0.065502971
-0.14946043 -0.11956838 -0.065502949
-0.14946043 -0.14946041 -0.065503001
-0.14946043 -0.17935251 -0.065502971
-0.14946043 -0.20924461 -0.065502949
-0.14946043 -0.23913664 -0.065503009
-0.14946043 -0.26902875 -0.065502979
-0.14946043 -0.29892087 -0.065502942
-0.14946043 -0.32881293 -0.065503046
-0.14946043 -0.35870498 -0.065502971
-0.14946043 -0.38859707 -0.065502912
-0.14946043 -0.41848913 -0.065503001
-0.14946043 -0.44838125 -0.065502971
-0.14946043 -0.47827333 -0.065502957
-0.14946043 -0.50816536 -0.065503001
-0.14946043 -0.53805757 -0.065503016
-0.14946043 -0.56794965 -0.065503001
-0.14946043 -0.59784174 -0.065502971
-0.14946043 -0.62773383 -0.065502942
-0.14946043 -0.65762591 -0.065503001
-0.14946043 -0.68751794 -0.065502942
-0.14946043 -0.71741009 -0.065502882
-0.14946043 -0.74730217 -0.065502912
-0.14946043 -0.77719426 -0.065502971
-0.14946087 -0.80708855 -0.065498739
-0.14946087 -0.83698082 -0.06549871
-0.14946087 -0.86687291 -0.06549871
-0.14946087 -0.89676511 -0.065498739
-0.14946087 -0.9266572 -0.065498769
-0.14946087 -0.95654947 -0.065498799
-0.14946087 -0.98644149 -0.065498769
-0.11867081 0.80102807 -0.076722145
-0.11867081 0.7713604 -0.076722085
-0.11867081 0.74169266 -0.076722145
-0.11867081 0.71202499 -0.076722115
-0.11867081 0.68235719 -0.076722175
-0.11867116 0.65269136 -0.076718032
-0.11867116 0.62302363 -0.076717913
-0.11867116 0.59335577 -0.076718047
-0.11867116 0.56368798 -0.076717943
-0.11867116 0.53402013 -0.076718047
-0.11867116 0.50435245 -0.076717988
-0.11867116 0.4746846 -0.076717973
-0.11867148 0.44501805 -0.076713875
-0.11867148 0.4153502 -0.076713815
-0.11867148 0.38568234 -0.076713815
-0.11867148 0.35601446 -0.076713875
-0.11867148 0.32634664 -0.07671386
-0.11867148 0.29667875 -0.0767138
-0.11867148 0.26701084 -0.076713875
-0.11867181 0.23734376 -0.076709628
-0.11867181 0.20767576 -0.076709613
-0.11867181 0.17800768 -0.076709703
-0.11867181 0.14833975 -0.076709606
-0.11867181 0.11867184 -0.07670968
-0.11867181 0.089003973 -0.076709621
-0.11867181 0.059335973 -0.076709621
-0.11867181 0.029667974 -0.076709613
-0.11867181 1.8626451e-08 -0.07670965
-0.11867181 -0.029667892 -0.076709718
-0.11867215 -0.059336029 -0.0767055
-0.11867215 -0.089004077 -0.076705456
-0.11867215 -0.11867203 -0.076705493
-0.11867215 -0.14834008 -0.076705448
-0.11867215 -0.1780082 -0.076705486
-0.11867215 -0.20767629 -0.076705493
-0.11867215 -0.23734424 -0.07670553
-0.11867215 -0.26701227 -0.076705486
-0.11867215 -0.29668033 -0.076705448
-0.11867215 -0.32634845 -0.0767055
-0.11867215 -0.3560164 -0.076705515
-0.11867215 -0.38568443 -0.076705471
-0.11867215 -0.41535249 -0.076705441
-0.11867215 -0.44502056 -0.076705456
-0.11867215 -0.47468853 -0.076705471
-0.11867215 -0.50435662 -0.0767055
-0.11867215 -0.5340246 -0.0767055
-0.11867215 -0.56369269 -0.0767055
-0.11867215 -0.59336066 -0.076705486
-0.11867215 -0.62302864 -0.076705486
-0.11867215 -0.65269673 -0.076705515
-0.11867215 -0.68236482 -0.076705515
-0.11867215 -0.71203285 -0.076705456
-0.11867215 -0.74170089 -0.076705515
-0.11867215 -0.77136892 -0.076705515
-0.11867215 -0.80103695 -0.076705456
-0.11867215 -0.83070505 -0.076705456
-0.11867215 -0.86037296 -0.076705515
-0.11867215 -0.89004111 -0.076705486
-0.11867215 -0.91970915 -0.076705486
-0.11867215 -0.94937718 -0.076705426
-0.11867215 -0.97904515 -0.076705486
-0.11867215 -1.0087131 -0.076705575
-0.088340975 0.7656219 -0.087757736
-0.088340975 0.73617488 -0.087757707
-0.088340975 0.70672786 -0.087757707
-0.088340975 0.67728084 -0.087757707
-0.088340975 0.64783388 -0.087757736
-0.088341221 0.61838865 -0.087753594
-0.088341221 0.58894145 -0.087753624
-0.088341221 0.5594945 -0.087753624
-0.088341221 0.53004742 -0.087753624
-0.088341221 0.50060022 -0.087753609
-0.088341221 0.47115323 -0.087753609
-0.088341221 0.44170624 -0.087753609
-0.088341221 0.41225904 -0.087753624
-0.088341467 0.38281304 -0.0877496
-0.088341467 0.35336584 -0.087749615
-0.088341467 0.32391876 -0.087749518
-0.088341467 0.29447168 -0.087749474
-0.088341467 0.26502448 -0.087749489
-0.088341467 0.2355773 -0.087749481
-0.088341467 0.20613016 -0.087749541
-0.088341713 0.1766834 -0.087745488
-0.088341713 0.14723629 -0.087745406
-0.088341713 0.11778894 -0.087745428
-0.088341713 0.088341758 -0.087745436
-0.088341713 0.058894448 -0.087745495
-0.088341713 0.029447338 -0.087745413
-0.088341713 -1.4901161e-08 -0.087745428
-0.088341713 -0.0294472 -0.087745428
-0.088341713 -0.058894556 -0.08774545
-0.088341713 -0.088341661 -0.087745361
-0.088341713 -0.11778892 -0.087745458
-0.088341713 -0.14723611 -0.087745465
-0.088341713 -0.17668343 -0.087745443
-0.088341713 -0.20613061 -0.08774545
-0.088341713 -0.23557791 -0.087745421
-0.088341713 -0.26502511 -0.087745413
-0.088341713 -0.29447243 -0.087745391
-0.088341959 -0.32392049 -0.087741323
-0.088341959 -0.35336781 -0.0877413
-0.088341959 -0.38281506 -0.087741345
-0.088341713 -0.41226134 -0.087745413
-0.088341959 -0.44170982 -0.087741256
-0.088341959 -0.47115707 -0.087741405
-0.088341959 -0.50060439 -0.08774136
-0.088341959 -0.53005171 -0.0877413
-0.088341959 -0.55949903 -0.087741315
-0.088341959 -0.5889464 -0.087741345
-0.088341959 -0.61839366 -0.087741315
-0.088341959 -0.64784104 -0.087741286
-0.088341959 -0.67728841 -0.087741315
-0.088341959 -0.70673561 -0.087741345
-0.088341959 -0.73618293 -0.087741315
-0.088341959 -0.76563025 -0.087741345
-0.088341959 -0.79507762 -0.087741375
-0.088341959 -0.82452494 -0.087741315
-0.088341959 -0.85397226 -0.087741315
-0.088341959 -0.88341963 -0.087741345
-0.088341959 -0.91286695 -0.087741315
-0.088341959 -0.94231415 -0.087741375
-0.088341959 -0.97176147 -0.087741375
-0.088341959 -1.0012088 -0.087741405
-0.088341959 -1.0306562 -0.087741375
-0.058459077 0.75996804 -0.098630339
-0.058459077 0.73073852 -0.098630339
-0.058459077 0.701509 -0.098630339
-0.058459077 0.67227948 -0.098630309
-0.058459077 0.64304996 -0.098630279
-0.058459077 0.61382037 -0.098630369
-0.058459077 0.58459085 -0.098630339
-0.058459077 0.55536133 -0.098630324
-0.058459245 0.52613318 -0.098626271
-0.058459245 0.49690354 -0.09862633
-0.058459245 0.46767396 -0.098626241
-0.058459245 0.43844435 -0.098626271
-0.058459245 0.40921474 -0.09862633
-0.058459245 0.37998506 -0.09862633
-0.058459245 0.35075551 -0.098626278
-0.058459401 0.32152683 -0.098622248
-0.058459401 0.29229704 -0.098622307
-0.058459401 0.26306731 -0.09862227
-0.058459401 0.23383763 -0.09862227
-0.058459401 0.20460798 -0.098622285
-0.058459401 0.17537826 -0.098622255
-0.058459401 0.14614859 -0.098622255
-0.058459565 0.11691918 -0.098618224
-0.058459565 0.08768934 -0.098618239
-0.058459565 0.058459632 -0.098618209
-0.058459565 0.029229794 -0.098618224
-0.058459565 7.8231096e-08 -0.098618194
-0.058459565 -0.029229756 -0.098618209
-0.058459565 -0.058459472 -0.09861818
-0.058459565 -0.08768943 -0.098618247
-0.058459565 -0.11691906 -0.098618291
-0.058459565 -0.14614893 -0.098618262
-0.058459565 -0.17537865 -0.098618232
-0.058459565 -0.20460849 -0.098618165
-0.058459565 -0.23383825 -0.09861818
-0.058459565 -0.26306799 -0.098618187
-0.058459565 -0.29229775 -0.098618202
-0.058459565 -0.32152763 -0.09861818
-0.058459565 -0.35075736 -0.098618194
-0.058459565 -0.37998712 -0.098618209
-0.058459565 -0.40921688 -0.098618209
-0.058459565 -0.43844667 -0.098618254
-0.058459565 -0.46767652 -0.098618209
-0.058459565 -0.49690628 -0.098618209
-0.058459565 -0.52613604 -0.098618239
-0.058459565 -0.5553658 -0.098618224
-0.058459565 -0.58459568 -0.098618209
-0.058459565 -0.61382544 -0.098618239
-0.058459565 -0.64305514 -0.098618239
-0.058459565 -0.6722849 -0.098618269
-0.058459565 -0.70151478 -0.098618239
-0.058459565 -0.73074454 -0.098618239
-0.058459729 -0.75997639 -0.098614156
-0.058459729 -0.78920627 -0.098614126
-0.058459729 -0.81843615 -0.098614216
-0.058459729 -0.84766603 -0.098614186
-0.058459729 -0.87689579 -0.098614216
-0.058459729 -0.90612566 -0.098614216
-0.058459729 -0.93535554 -0.098614216
-0.058459729 -0.96458536 -0.098614275
-0.058459729 -0.99381524 -0.098614246
-0.058459729 -1.0230451 -0.098614216
-0.058459729 -1.0522751 -0.098614126
-0.029015196 0.72537994 -0.10934746
-0.029015277 0.69636661 -0.10934359
-0.029015277 0.66735137 -0.10934347
-0.029015277 0.63833612 -0.10934353
-0.029015277 0.60932088 -0.1093435
-0.029015277 0.58030558 -0.10934351
-0.029015277 0.55129027 -0.10934359
-0.029015277 0.52227497 -0.10934357
-0.029015355 0.49326104 -0.10933965
-0.029015355 0.46424568 -0.10933958
-0.029015355 0.43523037 -0.10933954
-0.029015355 0.40621495 -0.10933957
-0.029015355 0.37719959 -0.10933959
-0.029015355 0.34818429 -0.10933958
-0.029015355 0.31916896 -0.10933952
-0.029015355 0.29015356 -0.10933955
-0.029015435 0.26113898 -0.10933556
-0.029015435 0.23212351 -0.10933554
-0.029015435 0.20310807 -0.10933554
-0.029015435 0.1740927 -0.10933562
-0.029015435 0.1450772 -0.10933556
-0.029015435 0.11606181 -0.1093356
-0.029015435 0.087046355 -0.10933559
-0.029015435 0.058030866 -0.10933556
-0.029015513 0.029015593 -0.10933161
-0.029015513 1.8626451e-08 -0.10933165
-0.029015513 -0.029015426 -0.10933164
-0.029015513 -0.058031045 -0.10933165
-0.029015513 -0.087046489 -0.10933164
-0.029015513 -0.11606211 -0.10933165
-0.029015513 -0.14507748 -0.10933156
-0.029015513 -0.17409301 -0.10933164
-0.029015513 -0.20310858 -0.1093316
-0.029015513 -0.23212406 -0.10933164
-0.029015513 -0.26113966 -0.1093316
-0.029015513 -0.29015514 -0.10933164
-0.029015513 -0.31917062 -0.10933167
-0.029015513 -0.34818611 -0.10933171
-0.029015513 -0.37720162 -0.10933159
-0.029015513 -0.40621719 -0.10933155
-0.029015513 -0.43523267 -0.10933159
-0.029015513 -0.46424812 -0.10933162
-0.029015513 -0.49326366 -0.10933167
-0.029015513 -0.52227926 -0.10933149
-0.029015513 -0.5512948 -0.10933153
-0.029015513 -0.58031023 -0.10933156
-0.029015513 -0.60932577 -0.10933161
-0.029015513 -0.63834119 -0.10933164
-0.029015513 -0.66735679 -0.10933161
-0.029015513 -0.69637239 -0.10933158
-0.029015513 -0.72538787 -0.10933161
-0.029015513 -0.75440335 -0.10933161
-0.029015513 -0.78341889 -0.10933158
-0.029015513 -0.81243438 -0.10933161
-0.029015513 -0.84144998 -0.10933158
-0.029015513 -0.87046528 -0.10933164
-0.029015513 -0.89948088 -0.10933161
-0.029015513 -0.92849642 -0.1093317
-0.029015513 -0.9575119 -0.10933161
-0.029015513 -0.9865275 -0.10933149
-0.029015593 -1.0155457 -0.10932764
-0.029015593 -1.0445614 -0.10932761
0 0.72010136 -0.11990479
0 0.69129729 -0.11990476
0 0.66249323 -0.11990479
0 0.63369095 -0.11990085
0 0.60488677 -0.11990082
0 0.57608265 -0.11990081
0 0.54727846 -0.11990079
0 0.5184744 -0.11990084
0 0.48967025 -0.11990082
0 0.46086609 -0.11990081
0 0.432062 -0.11990082
0 0.40325895 -0.11989687
0 0.3744548 -0.11989684
0 0.34565055 -0.11989691
0 0.31684628 -0.11989696
0 0.28804216 -0.11989694
0 0.25923795 -0.11989687
0 0.23043369 -0.11989692
0 0.2016301 -0.11989298
0 0.17282574 -0.11989294
0 0.14402147 -0.11989297
0 0.11521717 -0.11989297
0 0.086412899 -0.11989301
0 0.057608712 -0.11989295
0 0.028804351 -0.11989291
0 8.5681677e-08 -0.11989295
0 -0.028804351 -0.119893
0 -0.057608619 -0.11989304
0 -0.086412802 -0.11989298
0 -0.11521712 -0.11989298
0 -0.14402144 -0.11989298
0 -0.17282574 -0.11989298
0 -0.20162997 -0.11989306
0 -0.23043421 -0.11989297
0 -0.25923851 -0.11989296
0 -0.28804365 -0.11988901
0 -0.31684798 -0.11988901
0 -0.34565237 -0.1198891
0 -0.37445676 -0.11988901
0 -0.40326107 -0.11988902
0 -0.43206549 -0.1198891
0 -0.46086979 -0.1198891
0 -0.48967424 -0.11988907
0 -0.51847851 -0.11988908
0 -0.54728287 -0.11988913
0 -0.57608724 -0.11988902
0 -0.60489166 -0.11988907
0 -0.63369596 -0.11988908
0 -0.66250038 -0.11988905
0 -0.69130468 -0.11988902
0 -0.72010911 -0.11988908
0 -0.74891341 -0.11988911
0 -0.77771783 -0.11988908
0 -0.80652213 -0.11988908
0 -0.83532649 -0.11988914
0 -0.86413097 -0.11988911
0 -0.89293528 -0.11988911
0 -0.92173958 -0.11988908
0 -0.95054406 -0.11988911
0 -0.97934836 -0.11988908
0 -1.0081527 -0.11988908
0.028595958 0.714899 -0.13030946
0.028595958 0.68630302 -0.1303094
0.028595958 0.65770704 -0.13030949
0.028595958 0.62911111 -0.13030948
0.028595958 0.60051513 -0.13030942
0.028596034 0.57192069 -0.13030563
0.028596034 0.54332471 -0.1303056
0.028596034 0.51472867 -0.13030563
0.028596034 0.48613265 -0.13030554
0.028596034 0.45753661 -0.1303056
0.028596034 0.4289405 -0.1303056
0.028596034 0.40034455 -0.13030557
0.028596114 0.37174946 -0.13030173
0.028596114 0.34315333 -0.1303017
0.028596114 0.31455731 -0.13030174
0.028596114 0.28596115 -0.13030171
0.028596114 0.25736508 -0.13030171
0.028596114 0.22876893 -0.13030168
0.028596114 0.20017277 -0.13030179
0.028596191 0.17157719 -0.13029781
0.028596191 0.14298096 -0.13029787
0.028596191 0.11438479 -0.13029781
0.028596191 0.08578857 -0.13029785
0.028596191 0.057192385 -0.13029779
0.028596191 0.028596222 -0.13029788
0.028596191 8.1956387e-08 -0.13029785
0.028596191 -0.028596174 -0.13029787
0.028596191 -0.057192311 -0.13029784
0.028596191 -0.08578857 -0.13029787
0.028596191 -0.11438476 -0.13029778
0.028596191 -0.14298093 -0.13029779
0.028596191 -0.1715771 -0.13029781
0.028596191 -0.20017329 -0.13029782
0.028596191 -0.2287695 -0.13029787
0.028596191 -0.25736564 -0.13029784
0.028596191 -0.28596187 -0.1302979
0.028596191 -0.31455809 -0.13029779
0.028596191 -0.34315431 -0.13029784
0.028596191 -0.37175041 -0.13029782
0.028596191 -0.40034664 -0.13029787
0.028596191 -0.4289428 -0.13029784
0.028596191 -0.45753896 -0.13029787
0.028596191 -0.48613513 -0.13029787
0.028596191 -0.51473147 -0.13029785
0.028596267 -0.54332906 -0.13029391
0.028596267 -0.57192528 -0.13029397
0.028596267 -0.60052162 -0.13029395
0.028596191 -0.62911618 -0.13029778
0.028596267 -0.65771407 -0.13029397
0.028596267 -0.68631029 -0.13029402
0.028596267 -0.71490669 -0.13029391
0.028596267 -0.74350291 -0.13029397
0.028596267 -0.77209926 -0.13029394
0.028596267 -0.80069542 -0.130294
0.028596267 -0.8292917 -0.130294
0.028596267 -0.85788786 -0.130294
0.028596267 -0.88648427 -0.130294
0.028596267 -0.91508055 -0.13029394
0.028596267 -0.94367671 -0.13029402
0.056781702 0.68138045 -0.14056486
0.056781702 0.65298951 -0.1405648
0.056781702 0.62459874 -0.1405648
0.056781702 0.5962078 -0.14056486
0.056781702 0.56781703 -0.14056489
0.056781702 0.53942621 -0.14056486
0.056781854 0.51103669 -0.1405611
0.056781854 0.48264569 -0.1405611
0.056781854 0.45425487 -0.14056107
0.056781854 0.42586386 -0.14056106
0.056781854 0.39747295 -0.14056116
0.056781854 0.36908206 -0.14056107
0.056781854 0.34069112 -0.1405611
0.056781854 0.31230015 -0.14056113
0.056782007 0.2839101 -0.14055721
0.056782007 0.255519 -0.14055729
0.056782007 0.22712809 -0.1405572
0.056782007 0.19873701 -0.14055727
0.056782007 0.1703461 -0.14055718
0.056782007 0.14195502 -0.14055726
0.056782007 0.11356401 -0.14055726
0.05678216 0.085173249 -0.1405535
0.05678216 0.056782201 -0.14055346
0.05678216 0.028391078 -0.1405535
0.05678216 2.9802322e-08 -0.14055344
0.05678216 -0.028391093 -0.14055349
0.05678216 -0.056782134 -0.14055344
0.05678216 -0.085173257 -0.14055349
0.05678216 -0.1135643 -0.14055343
0.05678216 -0.14195535 -0.14055347
0.05678216 -0.17034647 -0.14055343
0.05678216 -0.19873752 -0.14055347
0.05678216 -0.22712864 -0.14055343
0.05678216 -0.25551969 -0.14055347
0.05678216 -0.28391081 -0.14055343
0.05678216 -0.31230181 -0.14055341
0.05678216 -0.34069285 -0.14055346
0.05678216 -0.36908397 -0.14055341
0.05678216 -0.397475 -0.14055344
0.05678216 -0.42586613 -0.14055341
0.05678216 -0.45425719 -0.14055343
0.05678216 -0.48264831 -0.14055341
0.05678216 -0.51103938 -0.14055343
0.05678216 -0.53943038 -0.14055349
0.05678216 -0.5678215 -0.14055343
0.05678216 -0.59621257 -0.14055344
0.05678216 -0.62460369 -0.14055343
0.05678216 -0.65299475 -0.14055344
0.05678216 -0.68138587 -0.14055341
0.05678216 -0.70977688 -0.14055344
0.05678216 -0.73816794 -0.1405535
0.05678216 -0.76655906 -0.14055344
0.05678216 -0.79495013 -0.1405535
0.05678216 -0.82334125 -0.14055344
0.05678216 -0.85173225 -0.14055347
0.05678216 -0.88012332 -0.1405535
0.05678216 -0.90851432 -0.1405535
0.084565759 0.67652607 -0.15067802
0.08456599 0.64833927 -0.15067428
0.08456599 0.62015063 -0.15067422
0.08456599 0.59196192 -0.1506743
0.08456599 0.56377327 -0.15067425
0.08456599 0.53558463 -0.15067425
0.08456599 0.50739586 -0.15067427
0.08456599 0.47920725 -0.15067428
0.084566213 0.45101982 -0.15067045
0.084566213 0.42283109 -0.1506705
0.084566213 0.39464238 -0.15067044
0.084566213 0.36645362 -0.15067045
0.084566213 0.33826488 -0.1506705
0.084566213 0.31007618 -0.15067042
0.084566213 0.28188738 -0.15067045
0.084566437 0.25369936 -0.1506667
0.084566437 0.22551057 -0.15066671
0.084566437 0.19732174 -0.1506667
0.084566437 0.16913296 -0.15066671
0.084566437 0.14094414 -0.1506667
0.084566437 0.11275525 -0.15066676
0.084566437 0.084566489 -0.15066665
0.084566437 0.056377713 -0.15066667
0.084566437 0.02818881 -0.15066674
0.084566437 -1.4901161e-08 -0.15066671
0.084566437 -0.028188717 -0.15066665
0.084566437 -0.05637762 -0.15066671
0.084566437 -0.084566444 -0.1506667
0.084566437 -0.11275522 -0.15066662
0.084566437 -0.140944 -0.15066673
0.084566437 -0.16913283 -0.15066671
0.08456666 -0.19732222 -0.15066297
0.08456666 -0.22551109 -0.15066299
0.08456666 -0.25369987 -0.15066293
0.08456666 -0.28188878 -0.150663
0.08456666 -0.31007773 -0.15066293
0.08456666 -0.33826658 -0.15066299
0.08456666 -0.36645544 -0.15066297
0.08456666 -0.39464441 -0.15066293
0.08456666 -0.42283332 -0.15066302
0.08456666 -0.45102224 -0.1506629
0.08456666 -0.47921103 -0.150663
0.08456666 -0.50739992 -0.1506629
0.08456666 -0.5355888 -0.15066299
0.08456666 -0.56377774 -0.15066294
0.08456666 -0.59196651 -0.15066302
0.08456666 -0.62015545 -0.15066293
0.08456666 -0.6483444 -0.15066299
0.08456666 -0.67653334 -0.15066293
0.08456666 -0.70472217 -0.1506629
0.08456666 -0.73291099 -0.15066293
0.08456666 -0.76109993 -0.1506629
0.08456666 -0.78928888 -0.15066299
0.08456666 -0.8174777 -0.15066296
0.08456666 -0.84566653 -0.15066299
0.11195704 0.64375305 -0.16064437
0.11195704 0.61576372 -0.16064437
0.11195734 0.58777601 -0.1606406
0.11195734 0.55978668 -0.16064063
0.11195734 0.53179747 -0.16064054
0.11195734 0.50380802 -0.16064064
0.11195734 0.47581866 -0.16064061
0.11195734 0.44782934 -0.16064066
0.11195734 0.41984001 -0.16064066
0.11195763 0.39185169 -0.16063698
0.11195763 0.36386237 -0.16063686
0.11195763 0.33587295 -0.16063693
0.11195763 0.30788356 -0.1606369
0.11195763 0.27989405 -0.16063696
0.11195763 0.25190473 -0.16063695
0.11195763 0.22391532 -0.1606369
0.11195763 0.19592592 -0.16063687
0.11195794 0.16793691 -0.16063321
0.11195794 0.1399475 -0.16063316
0.11195794 0.11195803 -0.16063321
0.11195794 0.083968505 -0.16063322
0.11195794 0.055978939 -0.16063319
0.11195794 0.027989544 -0.16063315
0.11195794 -5.2154064e-08 -0.16063325
0.11195794 -0.027989455 -0.16063321
0.11195794 -0.055978969 -0.16063322
0.11195794 -0.083968438 -0.16063327
0.11195794 -0.11195787 -0.16063327
0.11195794 -0.13994731 -0.16063328
0.11195794 -0.16793689 -0.16063316
0.11195794 -0.19592641 -0.16063318
0.11195794 -0.22391579 -0.16063321
0.11195794 -0.25190526 -0.16063318
0.11195794 -0.2798948 -0.16063318
0.11195794 -0.30788419 -0.16063322
0.11195794 -0.33587366 -0.16063321
0.11195794 -0.3638632 -0.16063321
0.11195794 -0.39185274 -0.16063327
0.11195794 -0.41984218 -0.16063318
0.11195794 -0.44783172 -0.16063318
0.11195794 -0.47582123 -0.16063321
0.11195823 -0.50381202 -0.16062954
0.11195823 -0.53180152 -0.16062954
