# .PCD v0.7 - Point Cloud Data file format
VERSION 0.7
FIELDS x y z
SIZE 4 4 4
TYPE F F F
COUNT 1 1 1
WIDTH 1394
HEIGHT 1
VIEWPOINT 0 0 0 1 0 0 0
POINTS 1394
DATA ascii
-0.087653711 0.17530744 -0.099212185
-0.087306857 0.14551142 -0.10499302
-0.086962737 0.1159504 -0.11072832
-0.086621329 0.086621329 -0.1164186
-0.086282343 0.057521626 -0.12206824
-0.08594624 0.028648835 -0.12766995
-0.085612752 -0 -0.13322824
-0.085281834 -0.028427295 -0.13874355
-0.084953234 -0.056635398 -0.14422014
-0.084627382 -0.08462733 -0.14965104
-0.084304027 -0.11240535 -0.15504032
-0.083983131 -0.13997188 -0.16038857
-0.083664447 -0.1673288 -0.16569993
-0.083348386 -0.19447951 -0.17096752
-0.083034709 -0.2214258 -0.17619549
-0.082723387 -0.24817011 -0.18138422
-0.082414389 -0.27471453 -0.1865342
-0.082107477 -0.30106068 -0.19164945
-0.081803054 -0.32721221 -0.19672307
-0.081500888 -0.35317045 -0.20175935
-0.081200927 -0.37893763 -0.20675853
-0.080902979 -0.40451485 -0.2117244
-0.080607399 -0.4299061 -0.21665062
-0.080313981 -0.45511258 -0.22154099
-0.080022693 -0.4801361 -0.2263958
-0.079733305 -0.50497746 -0.23121902
-0.079446197 -0.52964133 -0.23600401
-0.079161152 -0.55412805 -0.24075471
-0.078878149 -0.57843983 -0.24547146
-0.078597166 -0.60257822 -0.25015461
-0.07831797 -0.6265437 -0.25480783
-0.064473145 0.90262401 0.051721305
-0.064191781 0.86658907 0.044687122
-0.06391266 0.83086473 0.037709236
-0.063636154 0.79545194 0.030796498
-0.063361838 0.76034206 0.023938566
-0.063090064 0.72553587 0.017144412
-0.062820613 0.69102669 0.010407984
-0.06255345 0.6568113 0.0037289262
-0.062288377 0.62288374 -0.0028980374
-0.062025711 0.58924437 -0.0094644427
-0.061765257 0.55588734 -0.015975773
-0.061506808 0.5228079 -0.0224372
-0.061250683 0.49000549 -0.028840303
-0.060996681 0.45747513 -0.035190284
-0.060744606 0.42521226 -0.041492209
-0.060494777 0.3932161 -0.047737867
-0.060246997 0.36148202 -0.053932503
-0.06000106 0.33000591 -0.060080692
-0.059757303 0.29878652 -0.066174857
-0.059515513 0.26781979 -0.072219655
-0.059275676 0.23710278 -0.078215547
-0.059037589 0.20663157 -0.084167518
-0.058801576 0.1764048 -0.090067923
-0.058567446 0.14641862 -0.095921166
-0.05833517 0.11667033 -0.10172807
-0.058104731 0.08715719 -0.10748908
-0.057875946 0.057875972 -0.11320868
-0.057649113 0.028824609 -0.11887957
-0.057424054 -3.3527613e-08 -0.12450612
-0.057200741 -0.028600357 -0.13008896
-0.056979001 -0.056978937 -0.13563228
-0.05675913 -0.085138649 -0.14112908
-0.056540955 -0.11308189 -0.14658354
-0.056324441 -0.14081112 -0.15199627
-0.056109436 -0.16832824 -0.1573714
-0.055896215 -0.19563663 -0.16270205
-0.055684604 -0.22273834 -0.16799226
-0.055474594 -0.24963561 -0.17324258
-0.055266161 -0.27633068 -0.17845348
-0.055059139 -0.30282521 -0.18362886
-0.054853808 -0.32912281 -0.18876207
-0.054650009 -0.35522503 -0.19385722
-0.054447711 -0.38113394 -0.1989146
-0.054246768 -0.4068507 -0.20393816
-0.054047443 -0.43237951 -0.20892131
-0.053849574 -0.45772135 -0.21386798
-0.053653151 -0.48287833 -0.21877857
-0.053458154 -0.50785232 -0.22365354
-0.053264435 -0.53264427 -0.22849646
-0.053072251 -0.55725855 -0.23330104
-0.052881446 -0.58169591 -0.23807116
-0.052692011 -0.6059581 -0.24280709
-0.032459345 0.90886164 0.062859893
-0.032316715 0.87255126 0.055728287
-0.032175232 0.83655608 0.048654288
-0.032035083 0.80087709 0.041646719
-0.031896148 0.76550758 0.034700036
-0.03175832 0.73044121 0.027808487
-0.031621769 0.69567889 0.020981044
-0.031486388 0.66121423 0.014212072
-0.031352069 0.62704146 0.0074961185
-0.031218981 0.59316069 0.0008418262
-0.031087022 0.55956638 -0.0057562292
-0.030956082 0.5262534 -0.012303233
-0.03082633 0.49322128 -0.018790841
-0.030697662 0.46046498 -0.025224239
-0.030569974 0.42797968 -0.031608686
-0.030443432 0.39576465 -0.037935704
-0.030317934 0.36381525 -0.044210643
-0.030193465 0.33212817 -0.050434083
-0.03006993 0.30069932 -0.056610912
-0.029947484 0.26952741 -0.062733106
-0.029826034 0.23860836 -0.068805665
-0.029705564 0.20793894 -0.074829236
-0.02958598 0.17751601 -0.080808371
-0.029467436 0.14733723 -0.086735547
-0.029349839 0.11739936 -0.092615359
-0.02923318 0.087699533 -0.098448493
-0.029117361 0.058234822 -0.10423932
-0.029002538 0.029002611 -0.10998058
-0.028888613 1.4901161e-08 -0.1156767
-0.028775582 -0.028775573 -0.12132826
-0.028663432 -0.057326805 -0.12693566
-0.028552076 -0.085656203 -0.13250348
-0.028441658 -0.1137666 -0.1380244
-0.028332094 -0.14166045 -0.14350274
-0.028223366 -0.16934018 -0.14893913
-0.028115395 -0.19680776 -0.1543375
-0.028008325 -0.22406651 -0.15969111
-0.027902063 -0.25111854 -0.16500419
-0.027796607 -0.27796602 -0.17027694
-0.027691871 -0.30461055 -0.17551374
-0.027587995 -0.33105585 -0.18070757
-0.027484896 -0.35730359 -0.18586259
-0.02738256 -0.3833558 -0.1909793
-0.02728099 -0.40921479 -0.1960579
-0.027180096 -0.43488151 -0.2011025
-0.027080018 -0.46036023 -0.20610656
-0.02698067 -0.48565203 -0.21107389
-0.026882052 -0.510759 -0.21600474
-0.026784083 -0.53568161 -0.22090317
-0.026686894 -0.56042469 -0.22576271
-0.026590405 -0.58498883 -0.23058708
-0.026494613 -0.60937607 -0.23537664
0 0.91518605 0.074153483
0 0.87859619 0.066922575
0 0.84232855 0.059755325
0 0.80637681 0.05264619
0 0.7707414 0.045603842
0 0.73541582 0.038622767
0 0.70039415 0.031697452
0 0.66567647 0.0248366
0 0.63125682 0.018034518
0 0.59712952 0.01128605
0 0.56329453 0.0045996606
0 0.52974629 -0.0020301044
0 0.49647963 -0.0086085498
0 0.46349406 -0.015127078
0 0.43078458 -0.021591097
0 0.39834645 -0.028005689
0 0.36617881 -0.034362569
0 0.33427697 -0.040666923
0 0.30263674 -0.046923816
0 0.27125686 -0.053124964
0 0.24013314 -0.059275523
0 0.2092624 -0.065376051
0 0.17864108 -0.071431533
0 0.14826736 -0.077433921
0 0.11813761 -0.083387963
0 0.088248789 -0.089294508
0 0.058597993 -0.09515813
0 0.029182818 -0.10097092
0 7.4505806e-09 -0.10673796
0 -0.028953001 -0.11245955
0 -0.057678815 -0.11813626
0 -0.086180046 -0.12377248
0 -0.11445966 -0.12936088
0 -0.14252017 -0.13490611
0 -0.17036387 -0.14040846
0 -0.19799292 -0.14587225
0 -0.22541064 -0.15129057
0 -0.25261915 -0.15666731
0 -0.2796208 -0.16200322
0 -0.30641785 -0.16729872
0 -0.33301181 -0.17255795
0 -0.35940659 -0.17777391
0 -0.38560385 -0.18295082
0 -0.41160542 -0.18808919
0 -0.43741262 -0.19319277
0 -0.46302974 -0.19825508
0 -0.4884578 -0.20327999
0 -0.51369894 -0.20826796
0 -0.53875506 -0.21321951
0 -0.563627 -0.21813819
0 -0.58831936 -0.22301778
0 -0.61283284 -0.2278619
0.032767605 0.88472539 0.078272969
0.032622259 0.84817886 0.071005672
0.032478198 0.81195498 0.06380254
0.032335304 0.77604729 0.056657732
0.032193758 0.74045646 0.049580544
0.032053348 0.70517367 0.042560041
0.031914257 0.67019939 0.035605431
0.031776365 0.63552737 0.028710902
0.031639569 0.60115182 0.021870911
0.031504035 0.56707263 0.01509434
0.031369656 0.53328419 0.0083754659
0.03123633 0.49978134 0.0017092079
0.031104222 0.4665634 -0.0048961639
0.03097323 0.43362519 -0.01144594
0.030843245 0.40096217 -0.017945185
0.030714434 0.36857319 -0.024385631
0.030586695 0.33645371 -0.030772552
0.030459926 0.30459934 -0.037110969
0.030334294 0.27300867 -0.043392673
0.03020969 0.24167752 -0.049622774
0.030086108 0.21060269 -0.055801973
0.029963532 0.17978126 -0.061930727
0.029841866 0.14920934 -0.068014026
0.029721269 0.11888506 -0.074043967
0.029601639 0.088804975 -0.080025285
0.029482974 0.058966059 -0.085958667
0.029365173 0.029365215 -0.091848701
0.029248388 -3.7252903e-09 -0.097687908
0.02913253 -0.02913247 -0.1034809
0.029017584 -0.058035128 -0.10922799
0.028903468 -0.086710349 -0.11493401
0.028790319 -0.11516122 -0.12059133
0.028678056 -0.14339028 -0.12620454
0.028566664 -0.17139992 -0.1317742
0.028456135 -0.19919282 -0.1373007
0.028346378 -0.22677106 -0.14278844
0.028237542 -0.25413781 -0.14823018
0.02812954 -0.28129536 -0.15363035
0.02802236 -0.30824596 -0.15898937
0.027915919 -0.33499095 -0.16431141
0.027810359 -0.36153466 -0.16958937
0.027705593 -0.3878783 -0.17482775
0.027601615 -0.41402417 -0.18002667
0.027498338 -0.43997338 -0.18519042
0.027395908 -0.46573034 -0.19031201
0.027294233 -0.49129617 -0.19539568
0.027193313 -0.51667291 -0.20044164
0.027093139 -0.54186267 -0.20545055
0.026993627 -0.56686604 -0.21042602
0.026894912 -0.5916881 -0.21536168
0.026796918 -0.61632907 -0.22026145
0.065995611 0.89094079 0.089782834
0.065700829 0.85411072 0.082413286
0.065408669 0.81760836 0.075109243
0.065118887 0.78142667 0.067864835
0.064831868 0.74556655 0.060689509
0.064547367 0.71002114 0.053576946
0.064265162 0.67478424 0.046521723
0.063985601 0.6398561 0.039532751
0.063708462 0.60523033 0.032604158
0.063433528 0.57090181 0.025730819
0.063161142 0.53686976 0.018921167
0.062891081 0.50312871 0.012169749
0.062623136 0.46967357 0.0054711401
0.062357657 0.43650359 -0.0011659861
0.062094409 0.40361369 -0.0077470541
0.061833199 0.37099928 -0.014277339
0.061574355 0.33865896 -0.020748481
0.061317667 0.30658835 -0.027165607
0.061062939 0.27478319 -0.033533864
0.060810488 0.24324201 -0.039845064
0.060560118 0.21196049 -0.046104312
0.060311802 0.18093547 -0.0523123
0.060065348 0.15016344 -0.058473762
0.059821062 0.11964209 -0.064580843
0.059578754 0.089368224 -0.070638381
0.059338406 0.059338391 -0.076647148
0.059099823 0.029549949 -0.082611807
0.058863316 7.4505806e-09 -0.088524505
0.058628693 -0.029314252 -0.09439005
0.05839593 -0.058395904 -0.1002091
0.05816501 -0.087247498 -0.10598212
0.057935756 -0.11587141 -0.11171354
0.057708453 -0.14427114 -0.11739609
0.057482924 -0.17244871 -0.12303429
0.057259154 -0.20040703 -0.1286284
0.057037119 -0.22814846 -0.13417922
0.056816652 -0.2556749 -0.13969103
0.05659803 -0.28299013 -0.14515661
0.056381084 -0.31009585 -0.1505803
0.056165796 -0.33699471 -0.15596238
0.055951994 -0.36368793 -0.16130747
0.055739962 -0.39017969 -0.16660821
0.055529535 -0.41647151 -0.17186892
0.055320688 -0.44256544 -0.17709018
0.055113263 -0.46846271 -0.18227571
0.054907527 -0.49416775 -0.18741906
0.054703329 -0.51968145 -0.19252418
0.054500639 -0.54500639 -0.19759133
0.054299444 -0.57014418 -0.20262125
0.05409959 -0.59509546 -0.20761755
0.053901348 -0.61986542 -0.21257372
0.099694096 0.8972469 0.10146087
0.099245347 0.86012638 0.093981743
0.098800912 0.82334095 0.086574614
0.098360464 0.78688371 0.079233587
0.097923607 0.7507478 0.07195282
0.097490914 0.7149334 0.064741284
0.097062029 0.6794343 0.057593226
0.096636616 0.64424419 0.050502956
0.096215203 0.60936296 0.043479264
0.095797151 0.57478297 0.036511898
0.095383011 0.54050386 0.029609472
0.094972439 0.50651973 0.022766635
0.094565094 0.47282553 0.015977651
0.094161518 0.43942046 0.0092512816
0.09376137 0.40629929 0.0025820881
0.093364604 0.37345845 -0.0040305853
0.092970915 0.34089339 -0.010592148
0.092580795 0.30860275 -0.017094016
0.092193939 0.27658191 -0.023541637
0.09181004 0.24482676 -0.029939972
0.091429584 0.21333578 -0.036280945
0.091052279 0.18210459 -0.042569451
0.090677798 0.15112977 -0.048810676
0.090306655 0.12040889 -0.054996431
0.089938529 0.089938551 -0.06113179
0.089573398 0.059715614 -0.067217365
0.089211218 0.029737113 -0.073253572
0.088851713 7.8231096e-08 -0.079245426
0.088495329 -0.029498421 -0.085185185
0.088141806 -0.058761112 -0.091077283
0.087791085 -0.087791041 -0.096922696
0.087442905 -0.11659048 -0.10272561
0.087097719 -0.14516285 -0.10847867
0.086755246 -0.17351049 -0.11418662
0.086415455 -0.20163593 -0.1198498
0.086078316 -0.22954214 -0.12546873
0.085743561 -0.25723064 -0.13104798
0.085411638 -0.28470534 -0.13658011
0.08508227 -0.3119683 -0.14206961
0.084755428 -0.33902162 -0.14751688
0.084430866 -0.36586699 -0.15292622
0.084109001 -0.39250869 -0.15829057
0.083789594 -0.41894791 -0.16361423
0.083472587 -0.44518712 -0.16889752
0.083157979 -0.47122842 -0.17414105
0.082845517 -0.49707305 -0.17934874
0.082535602 -0.52272546 -0.18451394
0.082228005 -0.54818666 -0.18964061
0.081922695 -0.57345879 -0.19472915
0.081619427 -0.59854233 -0.19978364
0.081318602 -0.62344253 -0.20479731
0.1338726 0.90364003 0.11330011
0.13326572 0.86622727 0.10571411
0.13266474 0.82915473 0.09820199
0.13206916 0.7924149 0.090757072
0.13147849 0.75600129 0.083373666
0.13089348 0.71991414 0.0760611
0.13031365 0.68414664 0.068813413
0.12973855 0.64869273 0.061624557
0.1291689 0.61355233 0.054503918
0.12860422 0.57871902 0.047445446
0.12804408 0.54418731 0.04044351
0.12748916 0.50995666 0.033507273
0.12693904 0.47602147 0.026630715
0.12639329 0.44237655 0.019808695
0.12585257 0.40902084 0.013049662
0.12531646 0.37594938 0.0063482523
0.12478451 0.3431575 -0.00030083954
0.12425745 0.31064367 -0.0068892688
0.1237348 0.27840334 -0.013422266
0.12321618 0.2464323 -0.019905001
0.12270226 0.21472898 -0.026329145
0.12219259 0.18328896 -0.032699928
0.12168715 0.15210891 -0.039018046
0.12118552 0.12118554 -0.045288403
0.12068835 0.090516314 -0.05150298
0.12019524 0.060097598 -0.057666823
0.11970615 0.029926553 -0.063780487
0.11922103 5.9604645e-08 -0.069844559
0.11873948 -0.029684793 -0.075863801
0.11826215 -0.059131052 -0.081830688
0.11778863 -0.088341445 -0.087749489
0.11731888 -0.11731879 -0.093621373
0.11685256 -0.14606568 -0.099450432
0.11639024 -0.17458534 -0.10522944
0.11593156 -0.20288014 -0.11096282
0.11547649 -0.23095289 -0.11665124
0.11502466 -0.25880548 -0.12229911
0.11457667 -0.28644162 -0.12789905
0.11413214 -0.31386328 -0.13345551
0.11369106 -0.34107319 -0.13896908
0.11325338 -0.36807349 -0.14444013
0.11281874 -0.39486557 -0.14987308
0.11238773 -0.42145401 -0.15526073
0.11196 -0.44783992 -0.16060728
0.11153552 -0.47402596 -0.16591327
0.11111396 -0.50001276 -0.17118298
0.11069585 -0.52580523 -0.17640927
0.11028087 -0.5514043 -0.18159649
0.109869 -0.57681215 -0.18674487
0.10945991 -0.60202944 -0.19185847
0.16854165 0.9101249 0.12530908
0.1677727 0.87241805 0.11761957
0.16701019 0.83505106 0.10999453
0.1662551 0.79802454 0.10244367
0.16550682 0.76133132 0.094960779
0.16476473 0.72496486 0.087539971
0.16402978 0.68892503 0.080190331
0.16330133 0.65320539 0.072906047
0.16257885 0.61779964 0.06568104
0.16186321 0.58270764 0.058524787
0.16115387 0.54792315 0.051431224
0.16045021 0.51344067 0.044394717
0.15975316 0.47925943 0.037424177
0.15906212 0.44537401 0.030513987
0.15837657 0.41177917 0.023658484
0.15769739 0.37847379 0.01686658
0.157024 0.34545285 0.010132656
0.15635587 0.31271172 0.0034513921
0.15569386 0.280249 -0.0031686872
0.15503745 0.24805997 -0.0097329095
0.15438609 0.2161406 -0.01624649
0.15374061 0.18448874 -0.022701211
0.15310052 0.15310061 -0.029102102
0.1524653 0.12197229 -0.035454318
0.15183577 0.091101557 -0.041749619
0.15121141 0.060484514 -0.047993325
0.15059216 0.030118449 -0.054185748
0.14997797 2.7939677e-08 -0.060327649
0.14936833 -0.029873591 -0.066423967
0.14876406 -0.059505571 -0.072466783
0.14816466 -0.088898741 -0.078460746
0.14757007 -0.118056 -0.084406644
0.14697982 -0.14697979 -0.090309158
0.14639468 -0.1756736 -0.096160457
0.14581418 -0.20413983 -0.10196551
0.14523827 -0.23238118 -0.1077247
0.14466688 -0.26040033 -0.11343843
0.14409959 -0.2881991 -0.11911149
0.14353712 -0.31578156 -0.12473625
0.14297903 -0.34314957 -0.13031721
0.14242524 -0.37030557 -0.135855
0.14187534 -0.39725092 -0.14135376
0.14133008 -0.42399025 -0.1468066
0.14078897 -0.45052466 -0.1522176
0.14025201 -0.47685677 -0.15758738
0.13971874 -0.50298738 -0.16292
0.13918988 -0.52892148 -0.16820858
0.13866501 -0.55466002 -0.17345722
0.13814409 -0.58020514 -0.1786665
0.13762705 -0.60555905 -0.18383673
0.20371191 0.91670358 0.13749182
0.20277579 0.87869525 0.12969106
0.20184827 0.84103441 0.12196147
0.20092852 0.80371404 0.11429691
0.20001774 0.76673484 0.10670727
0.1991152 0.73008919 0.099186152
0.19822015 0.69377059 0.091727316
0.19733372 0.65777922 0.084340483
0.1964552 0.6221081 0.077019215
0.19558384 0.58675158 0.069757998
0.19472077 0.55170882 0.062565774
0.19386472 0.5169726 0.055431932
0.19301674 0.48254189 0.048365399
0.19217613 0.44841093 0.041360334
0.19134223 0.41457486 0.034411296
0.19051613 0.38103229 0.027527064
0.18969713 0.34777808 0.020702019
0.18888457 0.31480765 0.013930663
0.18807949 0.28211921 0.0072217435
0.18728127 0.24970837 0.0005697757
0.18648922 0.21757084 -0.0060304999
0.18570441 0.18570445 -0.012570605
0.18492617 0.15410516 -0.019056022
0.18415441 0.12276962 -0.025487185
0.18338855 0.091694318 -0.031869397
0.18262956 0.060876563 -0.038194355
0.18187681 0.030312847 -0.044467218
0.18113026 3.7252903e-09 -0.050688561
0.18038929 -0.030064818 -0.056863323
0.17965487 -0.059884913 -0.062983468
0.17892641 -0.089463204 -0.069054022
0.17820382 -0.11880255 -0.075075373
0.17748706 -0.14790583 -0.081048496
0.17677553 -0.17677549 -0.086977869
0.1760702 -0.2054151 -0.092855781
0.17537045 -0.23382723 -0.098686963
0.17467625 -0.26201427 -0.10447191
0.17398705 -0.28997841 -0.11021531
0.17330372 -0.31772345 -0.11590952
0.17262577 -0.34525147 -0.12155931
0.17195308 -0.37256491 -0.12716497
0.17128515 -0.3996653 -0.13273101
0.17062287 -0.42655712 -0.13825022
0.16996567 -0.45324177 -0.14372677
0.16931352 -0.47972161 -0.14916132
0.16866636 -0.50599897 -0.15455443
0.16802368 -0.53207487 -0.15991007
0.16738631 -0.55795431 -0.16522145
0.16675377 -0.58363807 -0.17049268
0.166126 -0.60912859 -0.17572416
0.23828627 0.88506329 0.14193749
0.23718841 0.84710157 0.1340957
0.23609988 0.80948532 0.12632042
0.23502205 0.77221531 0.11862159
0.23395403 0.73528409 0.11099276
0.23289491 0.69868469 0.10342765
0.23184606 0.66241735 0.095936
0.23080663 0.62647521 0.088511556
0.22977576 0.59085202 0.081148177
0.22875479 0.55554736 0.073855281
0.22774282 0.52055508 0.06662707
0.22673906 0.4858695 0.059457526
0.22574484 0.45148969 0.052355736
0.22475928 0.41741014 0.045316026
0.2237816 0.3836256 0.038332641
0.22281307 0.35013482 0.031414613
0.2218529 0.31693274 0.024556071
0.22090028 0.2840147 0.017751768
0.21995649 0.25137883 0.011010379
0.21902071 0.21902075 0.0043262988
0.21809222 0.18693615 -0.0023057908
0.21717222 0.15512297 -0.0088773221
0.21625994 0.12357707 -0.01539354
0.21535465 0.092294842 -0.021859832
0.21445756 0.061273657 -0.028267637
0.2135679 0.030509703 -0.034622483
0.21268559 4.2840838e-08 -0.040924668
0.21181051 -0.03025868 -0.047175072
0.21094203 -0.060269158 -0.053378463
0.21008126 -0.090034753 -0.059527047
0.20922746 -0.1195585 -0.065625623
0.20838058 -0.14884323 -0.071674734
0.20753992 -0.17789137 -0.077679202
0.20670663 -0.2067066 -0.083631448
0.20587997 -0.23529142 -0.089535996
0.20505992 -0.26364845 -0.095393486
0.20424582 -0.29177967 -0.10120864
0.2034387 -0.31968933 -0.10697376
0.20263793 -0.34737927 -0.1126935
0.20184346 -0.37485206 -0.11836833
0.2010552 -0.40211034 -0.12399893
0.2002725 -0.42915529 -0.12958956
0.19949642 -0.45599174 -0.13513292
0.19872634 -0.48262107 -0.14063349
0.19796218 -0.5090456 -0.14609177
0.19720335 -0.53526616 -0.15151206
0.19645083 -0.561288 -0.15688714
0.19570403 -0.58711201 -0.16222149
0.19496289 -0.6127404 -0.16751534
0.27431518 0.89152431 0.15436256
0.27304217 0.85325682 0.14640623
0.27178091 0.81534272 0.13852328
0.27053037 0.77777487 0.13070753
0.26929215 0.7405535 0.12296864
0.26806521 0.70367122 0.1153003
0.26684859 0.66712141 0.10769618
0.26564378 0.63090396 0.10016614
0.26444978 0.59501195 0.09270376
0.26326567 0.55943954 0.085303038
0.26209292 0.52418578 0.077973306
0.26093057 0.48924488 0.070708662
0.25977769 0.45461106 0.063503131
0.25863573 0.42028308 0.056365922
0.257503 0.38625452 0.049286321
0.25638092 0.35252374 0.042273372
0.25526857 0.31908578 0.03532128
0.25416583 0.28593656 0.028429076
0.25307184 0.25307187 0.021591514
0.25198793 0.2204895 0.014817372
0.25091332 0.18818501 0.0081008896
0.24984708 0.15615439 0.0014368594
0.24879058 0.12439527 -0.0051661916
0.247743 0.092903644 -0.011713658
0.24670348 0.061675869 -0.018210718
0.24567334 0.030709164 -0.024649
0.24465179 2.0489097e-08 -0.031033661
0.24363869 -0.030454798 -0.03736553
0.24263325 -0.060658224 -0.043649476
0.24163678 -0.090613805 -0.049877558
0.24064845 -0.12032423 -0.056054544
0.23966816 -0.14979264 -0.062181324
0.23869517 -0.17902133 -0.068262577
0.2377307 -0.20801438 -0.07429041
0.236774 -0.23677398 -0.080269784
0.23582497 -0.26530302 -0.086201303
0.23488353 -0.29360428 -0.092085406
0.2339489 -0.32167977 -0.097926624
0.23302233 -0.34953344 -0.10371771
0.23210308 -0.37716752 -0.10946305
0.23119107 -0.40458423 -0.11516327
0.23028554 -0.43178537 -0.12082268
0.22938772 -0.45877534 -0.12643412
0.22849686 -0.4855558 -0.132002
0.22761291 -0.51212895 -0.13752669
0.22673514 -0.5384959 -0.14301275
0.22586474 -0.56466174 -0.14845279
0.22500098 -0.59062755 -0.15385124
0.22414382 -0.61639541 -0.15920855
0.31087402 0.89808047 0.16697037
0.30942076 0.8595022 0.15889689
0.30798107 0.82128274 0.15089843
0.30655366 0.78341496 0.14296865
0.30514047 0.74589884 0.13511738
0.3037402 0.70872724 0.12733829
0.30235177 0.67189288 0.11962476
0.30097696 0.63539577 0.11198682
0.29961458 0.59922922 0.10441813
0.29826355 0.56338668 0.09691225
0.29692554 0.52786767 0.089479014
0.29559952 0.49266589 0.082112104
0.29428437 0.45777571 0.074805766
0.29298177 0.4231959 0.067569017
0.29169065 0.3889209 0.06039618
0.29040998 0.35494554 0.053281367
0.28914136 0.32126826 0.046233475
0.28788379 0.28788382 0.039246991
0.28663623 0.2547878 0.032316282
0.28540033 0.22197801 0.025450096
0.28417501 0.18945006 0.01864285
0.28295937 0.15719976 0.01188907
0.28175488 0.12522453 0.0051975511
0.28056061 0.093520269 -0.0014372543
0.27937561 0.062083498 -0.0080207009
0.2782014 0.030911336 -0.014544182
0.27703699 8.4750354e-08 -0.02101299
0.2758823 -0.030653493 -0.02742796
0.27473637 -0.06105246 -0.033794004
0.27360076 -0.091200277 -0.0401031
0.2724745 -0.12109971 -0.046360265
0.27135745 -0.15075409 -0.052566081
0.27024952 -0.18016633 -0.058721185
0.26914984 -0.20933877 -0.064830497
0.26805982 -0.23827538 -0.070886172
0.26697862 -0.26697856 -0.076892883
0.26590607 -0.29545122 -0.082851343
0.26484141 -0.323695 -0.088766284
0.26378593 -0.35171455 -0.094629928
0.26273885 -0.37951171 -0.10044694
0.26170006 -0.40708888 -0.10621813
0.26066944 -0.43444899 -0.11194374
0.25964621 -0.46159315 -0.11762843
0.25863165 -0.48852652 -0.12326472
0.25762501 -0.51525009 -0.12885715
0.25662619 -0.54176641 -0.1344063
0.2556344 -0.56807637 -0.13991629
0.25465092 -0.59418541 -0.14538012
0.25367495 -0.6200943 -0.15080202
0.34797567 0.90473688 0.17977104
0.34633586 0.8658396 0.17157185
0.34471256 0.82731009 0.16345525
0.34310436 0.78914005 0.15541449
0.34151003 0.75132215 0.14744288
0.33993158 0.71385634 0.13955057
0.33836761 0.67673528 0.13173071
0.33681688 0.63995206 0.12397701
0.33528137 0.60350657 0.11629958
0.33375981 0.56739181 0.1086918
0.33225098 0.53160155 0.10114734
0.33075672 0.49613509 0.093676284
0.32927585 0.4609862 0.086271927
0.32780719 0.42614937 0.07892853
0.32635257 0.39162308 0.071655408
0.32491079 0.35740197 0.064446613
0.3234807 0.3234807 0.057296172
0.32206413 0.28985775 0.050213322
0.32065991 0.25652802 0.043192238
0.31926692 0.22348687 0.036227271
0.31788695 0.19073217 0.0293274
0.31651884 0.15825939 0.022486866
0.31516153 0.12606467 0.01570024
0.31381673 0.094145052 0.008976344
0.31248337 0.062496729 0.0023094863
0.31116036 0.031116111 -0.0043054139
0.30984944 -2.7008355e-08 -0.010860224
0.30854949 -0.030854959 -0.017359836
0.30726042 -0.061452039 -0.023805128
0.30598119 -0.091794267 -0.030201402
0.30471343 -0.1218853 -0.036540121
0.30345616 -0.15172797 -0.042826574
0.3022092 -0.18132545 -0.049061336
0.3009716 -0.21068007 -0.055249311
0.29974493 -0.23979589 -0.061382592
0.29852822 -0.26867539 -0.06746605
0.29732138 -0.29732132 -0.073500358
0.29612342 -0.32573575 -0.079490259
0.29493588 -0.35392302 -0.085428044
0.29375783 -0.38188517 -0.091318175
0.29258916 -0.40962479 -0.097161576
0.29142976 -0.43714464 -0.10295865
0.29027867 -0.46444583 -0.10871398
0.28913748 -0.49153364 -0.11442004
0.2880052 -0.51840925 -0.12008142
0.28688174 -0.5450753 -0.12569857
0.28576705 -0.57153404 -0.13127206
0.28466022 -0.59778643 -0.13680637
0.28356266 -0.62383783 -0.14229403
0.3856301 0.91148943 0.19275677
0.38380063 0.87227416 0.18444079
0.38198715 0.83342648 0.1761978
0.38019198 0.79494691 0.16803807
0.37841237 0.75682479 0.15994889
0.37665057 0.71906018 0.15194061
0.37490508 0.68164569 0.14400673
0.37317455 0.64457422 0.13614053
0.37146103 0.60784537 0.12835191
0.36976323 0.57145238 0.12063469
0.36808088 0.53539044 0.11298752
0.36641258 0.49965364 0.10540445
0.36476049 0.46424061 0.097894862
0.36312324 0.42914575 0.090452895
0.36149952 0.39436314 0.083072141
0.35989133 0.35989141 0.075762302
0.3582963 0.32572395 0.068512231
0.35671642 0.29185891 0.061330952
0.35515043 0.25829124 0.054212853
0.35359707 0.22501636 0.04715199
0.35205829 0.19203182 0.040157557
0.35053283 0.15933318 0.033223771
0.34901953 0.12691627 0.02634497
0.34752023 0.094778284 0.019530021
0.34603378 0.062915288 0.01277348
0.34455895 0.031323608 0.0060697179
0.34309769 1.4682882e-07 -0.00057245616
0.34164873 -0.03105887 -0.0071586007
0.34021196 -0.061856739 -0.013689343
0.33878627 -0.092396125 -0.020169772
0.33737344 -0.12268128 -0.026591677
0.33597234 -0.15271457 -0.032960378
0.33458284 -0.18249971 -0.039276324
0.33320478 -0.21203935 -0.045540214
0.33183706 -0.24133602 -0.051757008
0.3304815 -0.27039391 -0.057918772
0.32913694 -0.29921538 -0.064030409
0.32780328 -0.32780322 -0.070092499
0.32647946 -0.35615942 -0.076109767
0.32516721 -0.38428849 -0.082074583
0.32386547 -0.41219234 -0.087991536
0.32257411 -0.43987375 -0.093861312
0.32129213 -0.46733403 -0.099688604
0.32002115 -0.49457806 -0.1054657
0.31876022 -0.52160764 -0.11119722
0.31750917 -0.5484249 -0.11688384
0.31626791 -0.57503247 -0.12252598
0.31503546 -0.60143125 -0.12812801
0.42385086 0.91834354 0.20593786
0.42182496 0.87880212 0.19749674
0.419817 0.83963406 0.18913016
0.41782945 0.80083966 0.18084854
0.41586056 0.76241112 0.17264512
0.41390887 0.72434056 0.1645129
0.4119767 0.68662786 0.15646228
0.41006249 0.64926565 0.14848635
0.40816468 0.61224699 0.14057884
0.40628567 0.57557136 0.1327495
0.40442389 0.53923196 0.12499218
0.40257779 0.50322223 0.11730008
0.40074971 0.4675414 0.1096832
0.39893821 0.43218303 0.10213509
0.39714175 0.39714181 0.094649851
0.39536262 0.36241576 0.087236851
0.39359936 0.32799956 0.079889983
0.39185056 0.293888 0.072603323
0.39011842 0.26007897 0.065385975
0.38840154 0.22656763 0.058232345
0.38669851 0.19334926 0.051136427
0.38501152 0.16042154 0.044107296
0.3833392 0.12777978 0.037139244
0.38168016 0.09542004 0.030226704
0.38003659 0.063339479 0.023378411
0.37840712 0.031533975 0.01658896
0.37679043 6.9849193e-09 0.0098527214
0.37518862 -0.031265691 0.0031784978
0.37360033 -0.062266678 -0.0034392979
0.37202439 -0.093006134 -0.010005794
0.37046275 -0.12348753 -0.016512644
0.36891416 -0.15371421 -0.022965141
0.36737844 -0.18368927 -0.029363796
0.36585552 -0.21341577 -0.035709389
0.36434406 -0.24289602 -0.042007029
0.36284611 -0.27213451 -0.048248522
0.36136043 -0.30113366 -0.054438934
0.35988685 -0.3298963 -0.060578749
0.35842526 -0.35842517 -0.066668808
0.35697445 -0.38672227 -0.072713777
0.35553637 -0.41479242 -0.078705788
0.35410982 -0.44263721 -0.084649682
0.35269469 -0.47025949 -0.090546161
0.35128981 -0.49766058 -0.096399739
0.34989706 -0.52484554 -0.10220286
0.34851533 -0.55181587 -0.10796013
0.34714445 -0.57857406 -0.11367209
0.34578338 -0.6051209 -0.11934327
0.46042278 0.88542837 0.21074948
0.45821613 0.84593755 0.20226252
0.45602909 0.80682069 0.19385061
0.45386425 0.76807803 0.18552437
0.45171988 0.72970134 0.17727679
0.4495942 0.69168335 0.16910112
0.44748995 0.65402377 0.16100773
0.44540522 0.61671489 0.15298963
0.44333845 0.5797503 0.14504053
0.44129217 0.54312879 0.13717017
0.43926468 0.50684386 0.12937227
0.43725437 0.47088939 0.12164026
0.43526375 0.43526369 0.11398396
0.43329117 0.39996117 0.10639715
0.431335 0.36497587 0.098873571
0.42939782 0.33030599 0.091422647
0.42747793 0.29594627 0.084038526
0.42557383 0.26189166 0.07671503
0.42368788 0.22813964 0.069461383
0.42181733 0.19468494 0.062266916
0.41996446 0.16152477 0.055140462
0.4181278 0.12865479 0.048076622
0.4163059 0.096070662 0.041069247
0.41450107 0.06376946 0.034127455
0.4127118 0.03174711 0.027245628
0.41093788 8.2887709e-08 0.02042304
0.40917799 -0.031475186 0.013654102
0.40743425 -0.062682129 0.0069476068
0.40570539 -0.093624219 0.00029788911
0.40398991 -0.12430456 -0.0063000992
0.40229005 -0.15472688 -0.012837917
0.4006044 -0.18489425 -0.019321129
0.39893284 -0.21481001 -0.025750145
0.39727405 -0.24447632 -0.032130197
0.39563015 -0.27389774 -0.038453035
0.39399973 -0.30307668 -0.044723719
0.39238277 -0.33201611 -0.050942898
0.39077899 -0.36071903 -0.057111323
0.38918716 -0.3891871 -0.063233629
0.38760936 -0.41742542 -0.069302112
0.38604429 -0.44543558 -0.075321645
0.3844918 -0.47322065 -0.081292704
0.38295174 -0.50078303 -0.08721593
0.38142294 -0.52812409 -0.093096092
0.37990734 -0.55524909 -0.098925382
0.37840372 -0.58215952 -0.10470846
0.37691197 -0.60885775 -0.11044598
0.49960712 0.89215547 0.22420362
0.49719459 0.85233355 0.2155875
0.49480522 0.81289434 0.2070542
0.49243709 0.7738297 0.19859645
0.49009311 0.73513973 0.19022527
0.48776981 0.69681394 0.18192762
0.48546997 0.6588521 0.17371386
0.4831917 0.62124658 0.16557741
0.48093322 0.58399028 0.15751114
0.47869724 0.54708254 0.14952561
0.47648197 0.51051646 0.14161402
0.4742856 0.47428566 0.13376977
0.47211087 0.43838871 0.12600292
0.46995601 0.40281945 0.11830704
0.46781924 0.36757237 0.11067572
0.46570334 0.33264524 0.1031188
0.46360642 0.29803273 0.095629849
0.46152687 0.26372963 0.088202834
0.45946732 0.22973371 0.080847442
0.45742613 0.1960398 0.073557228
0.45540154 0.16264345 0.066326573
0.45339614 0.12954184 0.059164699
0.45140839 0.096730441 0.052065443
0.4494366 0.064205274 0.045023404
0.44748336 0.031963088 0.038047377
0.44554695 1.5832484e-08 0.031131878
0.44362596 -0.031687565 0.024271069
0.44172275 -0.063103192 0.017473811
0.43983582 -0.094250515 0.010734774
0.43796492 -0.12513278 0.0040531196
0.43610859 -0.15575305 -0.0025767013
0.43426919 -0.18611532 -0.0091458559
0.43244529 -0.21622261 -0.01565998
0.43063661 -0.24607797 -0.022119544
0.42884174 -0.27568397 -0.028529674
0.42706305 -0.30504501 -0.034882218
0.42529902 -0.33416349 -0.04118225
0.4235495 -0.36304229 -0.047430605
0.4218131 -0.39168352 -0.053631932
0.42009211 -0.42009208 -0.059778333
0.41838509 -0.44826975 -0.06587486
0.4166919 -0.47621924 -0.071922094
0.41501236 -0.5039435 -0.077920482
0.4133451 -0.53144366 -0.083874837
0.41169238 -0.55872536 -0.089777455
0.41005278 -0.58578968 -0.09563309
0.40842623 -0.61263931 -0.10144225
0.5393914 0.89898556 0.23786381
0.53676683 0.85882699 0.22911549
0.53416783 0.81905735 0.22045201
0.53159201 0.77966833 0.21186602
0.52904266 0.74065971 0.20336825
0.52651769 0.70202363 0.19495165
0.52401495 0.66375232 0.18660922
0.5215376 0.62584513 0.17835133
0.51908362 0.58829486 0.17017138
0.51665092 0.55109435 0.16206227
0.51424253 0.51424247 0.15403433
0.5118565 0.47773275 0.14608106
0.50949091 0.44155884 0.13819572
0.50714868 0.40571892 0.1303883
0.50482792 0.37020722 0.12265243
0.5025267 0.3350178 0.1149817
0.50024796 0.30014881 0.10738578
0.49798974 0.2655946 0.099858522
0.49575031 0.23135021 0.092393637
0.49353245 0.19741303 0.085000761
0.49133435 0.16377816 0.07767377
0.48915425 0.13044117 0.070406705
0.48699486 0.097398967 0.063208856
0.48485449 0.064647339 0.056074236
0.4827314 0.032182105 0.048997171
0.48062825 1.3038516e-08 0.041986775
0.47854328 -0.031902812 0.035037089
0.476475 -0.06353002 0.028142607
0.47442588 -0.094885133 0.021312196
0.47239435 -0.12597182 0.014540516
0.47037873 -0.15679294 0.007821694
0.46838158 -0.18735263 0.0011646301
0.46640137 -0.21765384 -0.005436115
0.46443784 -0.2477001 -0.011981331
0.46249074 -0.27749443 -0.018471599
0.46055856 -0.30703896 -0.024912149
0.45864379 -0.33633876 -0.031294629
0.45674488 -0.36539584 -0.037624404
0.45486167 -0.39421338 -0.043901935
0.45299256 -0.42279297 -0.0501322
0.45114008 -0.45113999 -0.056307107
0.44930267 -0.47925609 -0.062431738
0.44748017 -0.50714421 -0.068506867
0.44567114 -0.5348053 -0.074536875
0.44387791 -0.56224525 -0.080514327
0.44209909 -0.58946538 -0.086443752
0.44033441 -0.61646819 -0.092325896
0.57979143 0.90592408 0.2517409
0.57694674 0.86542022 0.24285129
0.57413179 0.82531452 0.23405454
0.57134414 0.78559828 0.22534323
0.56858158 0.74626327 0.21671
0.56584746 0.70730925 0.20816591
0.56313944 0.66872823 0.19970359
0.56045544 0.63051242 0.19131593
0.55779874 0.59266126 0.18301374
0.55516708 0.55516708 0.17478977
0.55255836 0.51802349 0.16663751
0.54997581 0.48122883 0.15856703
0.54741728 0.44477654 0.1505717
0.54488075 0.40866053 0.14264496
0.54236925 0.37287888 0.13479654
0.53988087 0.33742553 0.12702039
0.53741348 0.30229509 0.11930983
0.53497028 0.2674852 0.11167475
0.53254914 0.23299026 0.10410874
0.53014821 0.19880566 0.096605822
0.52777046 0.16492835 0.089175314
0.52541226 0.1313531 0.081806011
0.52307671 0.09807688 0.074507296
0.52076185 0.065095238 0.067273244
0.51846576 0.032404117 0.060098067
0.51619136 1.0989606e-07 0.05299069
0.51393694 -0.032121018 0.045945477
0.51170045 -0.063962549 0.038956612
0.50948495 -0.095528379 0.032033257
0.50728858 -0.12682211 0.025169417
0.50510949 -0.15784669 0.018359877
0.50295061 -0.18860652 0.011613198
0.50081003 -0.21910432 0.0049240142
0.49868765 -0.24934369 -0.0017085224
0.49658313 -0.27932799 -0.0082850009
0.49449492 -0.30905926 -0.014810786
0.49242553 -0.33854258 -0.021277472
0.49037349 -0.36778006 -0.027690277
0.48833844 -0.39677489 -0.034049734
0.48631883 -0.42552882 -0.040361091
0.48431721 -0.45404738 -0.046616003
0.48233205 -0.48233193 -0.052819788
0.48036307 -0.51038569 -0.05897288
0.47840872 -0.5382098 -0.065080032
0.47647157 -0.56580997 -0.071133703
0.47455007 -0.59318757 -0.077138394
0.47264397 -0.62034518 -0.083094984
0.6208179 0.91296756 0.26582772
0.61774832 0.87211531 0.25679952
0.61471111 0.83166802 0.24786648
0.61170357 0.79161644 0.23902082
0.60872328 0.75195235 0.23025519
0.60577393 0.71267521 0.22158059
0.602853 0.67377687 0.21298967
0.59995812 0.63524973 0.20447528
0.59709287 0.59709281 0.19604807
0.59425485 0.55929869 0.18770105
0.59144175 0.52186042 0.17942728
0.58865708 0.48477647 0.17123714
0.58589858 0.4480401 0.16312373
0.58316386 0.41164511 0.15508042
0.58045638 0.37558952 0.14711741
0.57777399 0.33986709 0.13922799
0.57511443 0.30447248 0.13140571
0.57248104 0.26940283 0.12366048
0.56987166 0.2346531 0.1159859
0.56728417 0.20021804 0.10837566
0.56472188 0.16609466 0.10083944
0.56218266 0.13227829 0.093370989
0.55966431 0.098764293 0.08596427
0.55717021 0.065549448 0.078628652
0.55469829 0.03262936 0.071358182
0.55224645 1.4528632e-07 0.064146914
0.54981792 -0.032342173 0.057004102
0.54741061 -0.064401202 0.04992374
0.54502267 -0.096180357 0.042900406
0.54265708 -0.12768391 0.035942852
0.54031193 -0.15891516 0.029045407
0.53798538 -0.18987718 0.022202529
0.53568035 -0.22057426 0.015423112
0.53339499 -0.25100932 0.0087015256
0.53112912 -0.28118595 0.0020369738
0.52888077 -0.31110635 -0.0045757145
0.52665293 -0.34077537 -0.011128053
0.52444381 -0.37019554 -0.017625555
0.52225316 -0.39936996 -0.024068743
0.52008069 -0.42830172 -0.030458227
0.51792473 -0.45699236 -0.036799267
0.51578808 -0.48544759 -0.043083549
0.51366901 -0.51366901 -0.049316168
0.51156723 -0.54165936 -0.0554979
0.50948113 -0.56941998 -0.061633438
0.50741345 -0.59695697 -0.0677149
0.50536245 -0.62427121 -0.073747218
0.66248733 0.92012131 0.28013512
0.65918845 0.87891793 0.27097169
0.65592003 0.83812022 0.26189286
0.65268612 0.79772747 0.25290963
0.64948392 0.75773126 0.24401462
0.64631087 0.71812308 0.23520046
0.64317077 0.67890251 0.22647804
0.64006102 0.64006102 0.21783982
0.6369791 0.60159141 0.20927897
0.63392878 0.56349224 0.20080598
0.6309076 0.52575624 0.19241367
0.627913 0.48837677 0.18409529
0.62494874 0.45135182 0.17586122
0.62201232 0.41467485 0.16770458
0.61910135 0.3783398 0.15961866
0.61621952 0.34234414 0.15161341
0.61336434 0.30668217 0.14368251
0.6105336 0.27134836 0.13581929
0.60773075 0.23633975 0.12803367
0.60495359 0.20165125 0.12031935
0.60219973 0.16727768 0.11266973
0.59947276 0.13321623 0.1050947
0.59677035 0.099461854 0.097588047
0.59409034 0.066010006 0.090143599
0.59143615 0.032857575 0.082770824
0.58880556 3.7252903e-08 0.075463548
0.58619648 -0.032566421 0.068216071
0.58361214 -0.064845748 0.061037499
0.58105057 -0.09684176 0.053921964
0.57850957 -0.12855767 0.046863742
0.57599247 -0.15999791 0.039871711
0.57349718 -0.19116572 0.032940313
0.57102168 -0.222064 0.026064001
0.56856918 -0.25269735 0.019251503
0.56613767 -0.28306872 0.012497157
0.56372517 -0.31318069 0.005795911
0.56133479 -0.3430379 -0.00084395707
0.55896467 -0.37264308 -0.0074277669
0.5566144 -0.40199926 -0.013956219
0.55428386 -0.43110961 -0.020430058
0.55197108 -0.4599759 -0.026854232
0.54967916 -0.48860371 -0.033220649
0.54740626 -0.51699471 -0.03953445
0.54515201 -0.54515201 -0.045796245
0.54291469 -0.57307649 -0.052011073
0.54069716 -0.60077459 -0.058170706
0.70127767 0.88582438 0.2853601
0.6977734 0.8446731 0.27613845
0.69430631 0.80393362 0.26701462
0.69087356 0.76359713 0.25798103
0.68747461 0.72365749 0.24903631
0.68410659 0.68410659 0.2401731
0.68077374 0.64494359 0.23140244
0.67747313 0.60616016 0.2227167
0.6742022 0.56774926 0.21410893
0.6709649 0.5297091 0.20558962
0.66775632 0.49203095 0.19714601
0.66458046 0.45471305 0.1887887
0.66143471 0.41774833 0.18051031
0.65831637 0.38113064 0.17230427
0.65522951 0.34485769 0.16418085
0.65217143 0.30892333 0.15613323
0.64913964 0.27332205 0.148155
0.64613807 0.23805092 0.14025599
0.6431641 0.20310444 0.13242966
0.64021528 0.16847771 0.12466973
0.63729542 0.13416754 0.1169859
0.6344021 0.10016876 0.10937191
0.63153297 0.066477239 0.10182141
0.62869155 0.033089079 0.094344214
0.62587571 1.4901161e-08 0.086933926
0.62308294 -0.032793827 0.079584599
0.62031698 -0.065296523 0.072305731
0.61757541 -0.097511835 0.065091133
0.61485612 -0.12944333 0.057935044
0.61216247 -0.16109538 0.050846618
0.60949242 -0.19247131 0.043820016
0.60684365 -0.22357386 0.036849633
0.60421962 -0.2544083 0.029944398
0.60161823 -0.2849769 0.023098528
0.59903914 -0.31528383 0.016311452
0.59648031 -0.3453306 0.0095776469
0.59394497 -0.37512305 0.0029056221
0.59143108 -0.40466332 -0.0037097633
0.58893842 -0.43395454 -0.010269478
0.58646494 -0.46299851 -0.016778618
0.58401388 -0.49180108 -0.023228765
0.58158314 -0.52036381 -0.029625341
0.57917267 -0.54868984 -0.03596884
0.57678205 -0.57678199 -0.042260021
0.57440937 -0.60464144 -0.048503697
0.74403358 0.89284033 0.29997659
0.74028891 0.85133219 0.29061493
0.73657924 0.81023717 0.28134078
0.73290908 0.7695545 0.27216527
0.72927529 0.72927529 0.26308087
0.72567487 0.6893912 0.25407982
0.7221123 0.64990109 0.24517345
0.7185846 0.61079693 0.23635411
0.71508867 0.57207108 0.22761442
0.71162903 0.5337218 0.21896532
0.70820278 0.49574193 0.21039943
0.70480686 0.45812452 0.20190991
0.70144582 0.4208675 0.19350712
0.6981166 0.38396412 0.18518418
0.69481659 0.34740829 0.17693418
0.6915499 0.31119752 0.16876736
0.68831378 0.2753256 0.16067708
0.68510556 0.23978701 0.15265657
0.68192929 0.20457882 0.14471596
0.67878234 0.16969559 0.13684861
0.67566222 0.1351324 0.1290482
0.67257273 0.1008859 0.12132456
0.66951144 0.06695126 0.11367113
0.66647565 0.033323873 0.10608183
0.66346949 6.7055225e-08 0.098566264
0.66049021 -0.033024434 0.091118217
0.65753555 -0.065753482 0.083731562
0.65460932 -0.098191254 0.076415896
0.6517089 -0.13034169 0.069164991
0.64883214 -0.16220808 0.061973047
0.64598262 -0.19379474 0.054849282
0.64315808 -0.22510529 0.04778786
0.64035612 -0.25614244 0.040782914
0.63758045 -0.28691125 0.033843711
0.63482869 -0.31741431 0.026964456
0.63209867 -0.34765428 0.020139456
0.62939399 -0.37763634 0.013377577
0.62671232 -0.407363 0.0066734254
0.62405342 -0.43683732 2.6091933e-05
0.62141693 -0.46606261 -0.0065651089
0.61880082 -0.4950406 -0.013105229
0.61620849 -0.52377719 -0.019586176
0.61363775 -0.55227399 -0.026012987
0.6110884 -0.58053386 -0.032386392
0.60855836 -0.6085583 -0.038711458
0.78747213 0.89996815 0.31482637
0.78347743 0.85809433 0.30531517
0.77952302 0.81664324 0.29589993
0.77560562 0.77560568 0.28657272
0.77173007 0.734981 0.27734512
0.76789308 0.69476038 0.26820949
0.76409137 0.65493548 0.25915772
0.76032972 0.6155051 0.25020152
0.75660503 0.57646096 0.2413331
0.75291401 0.53779572 0.23254502
0.74926132 0.49950758 0.22384821
0.74564397 0.46158919 0.21523561
0.74205893 0.4240337 0.20669955
0.73851061 0.386839 0.1982512
0.73499608 0.34999815 0.18988326
0.73151237 0.31350544 0.1815889
0.728064 0.2773577 0.17337838
0.72464794 0.24154931 0.16524492
0.7212615 0.20607468 0.15718183
0.71790886 0.17093073 0.14919935
0.71458715 0.13611187 0.14129065
0.71129388 0.10161342 0.13344947
0.70803303 0.06743174 0.12568563
0.70480198 0.033562068 0.11799253
0.70159799 1.0803342e-07 0.11036409
0.69842523 -0.033258308 0.10280991
0.69527894 -0.06621699 0.095318601
0.69216293 -0.098880276 0.08789961
0.68907475 -0.13125226 0.080546863
0.68601191 -0.16333616 0.073254287
0.68297827 -0.19513661 0.066031277
0.67997134 -0.22665709 0.058871984
0.67698866 -0.25790036 0.051770456
0.67403412 -0.28887177 0.0447357
0.67110527 -0.31957382 0.037762359
0.66820174 -0.35001034 0.030849099
0.66532123 -0.38018358 0.023990855
0.66246748 -0.41009879 0.017196074
0.65963805 -0.43975872 0.010459378
0.65683264 -0.4691661 0.0037799627
0.65404916 -0.49832317 -0.0028474778
0.65129101 -0.52723551 -0.0094144642
0.64855605 -0.55590516 -0.015926242
0.64584398 -0.58433503 -0.022383511
0.64315265 -0.6125263 -0.028791547
0.8316099 0.90721077 0.32991511
0.82735753 0.86496472 0.32025057
0.82314837 0.82314837 0.31068441
0.81897891 0.78175271 0.30120847
0.81485432 0.74077672 0.29183432
0.81077117 0.70021152 0.28255439
0.80672586 0.66004843 0.27336046
0.80272353 0.62028641 0.26426423
0.79876071 0.58091688 0.25525784
0.79483402 0.54193234 0.24633369
0.79094857 0.50333083 0.23750295
0.78710079 0.46510506 0.22875819
0.78328776 0.42724776 0.22009203
0.77951401 0.38975698 0.21151528
0.77577651 0.35262567 0.20302103
0.77207208 0.31584772 0.194602
0.76840544 0.27942014 0.1862686
0.76477337 0.24333704 0.17801398
0.76117307 0.2075927 0.1698314
0.75760895 0.17218393 0.16173114
0.75407803 0.13710517 0.15370645
0.75057751 0.10235146 0.14575061
0.74711168 0.067919299 0.13787384
0.74367774 0.033803586 0.13006932
0.74027288 3.7252903e-08 0.12233095
0.73690134 -0.03349543 0.11466845
0.73356038 -0.066687256 0.10707538
0.73024732 -0.099579126 0.09954565
0.72696632 -0.13217564 0.092088878
0.72371465 -0.16448055 0.084698722
0.72048974 -0.19649716 0.077369183
0.71729559 -0.22823028 0.070109971
0.71412969 -0.25968346 0.062914632
0.71098942 -0.29085928 0.055777766
0.70787883 -0.32176304 0.048708096
0.7047953 -0.35239762 0.041700155
0.70173854 -0.38276649 0.034752965
0.69870609 -0.41287175 0.027861059
0.69570178 -0.44271928 0.021033183
0.69272321 -0.4723112 0.014263645
0.6897701 -0.50165093 0.0075519085
0.68683994 -0.53073996 0.00089257956
0.6839366 -0.55958438 -0.0057059526
0.68105775 -0.58818614 -0.012248784
0.67820299 -0.61654818 -0.018736839
0.87646705 0.91457427 0.34525573
0.87194592 0.87194586 0.33542717
0.86747426 0.82975799 0.32570627
0.86304832 0.78800064 0.31608459
0.85866421 0.74666452 0.3065539
0.85432744 0.70574874 0.29712617
0.85003424 0.66524422 0.28779325
0.84578109 0.62514257 0.27854711
0.84157318 0.58544225 0.26939946
0.83740687 0.54613489 0.2603423
0.83327883 0.50721318 0.25136822
0.82919407 0.46867496 0.24248843
0.82514912 0.43051267 0.23369513
0.82114077 0.39271954 0.22498134
0.81717384 0.35529307 0.21635762
0.81324512 0.3182264 0.20781687
0.80935127 0.28151351 0.19935195
0.80549723 0.24515134 0.19097345
0.80167961 0.2091338 0.18267451
0.79789555 0.17345554 0.17444813
0.79414958 0.1381131 0.16630469
0.79043859 0.10310078 0.15823728
0.7867595 0.068413988 0.15023948
0.78311718 0.034048606 0.14232114
0.77950829 1.1920929e-07 0.13447592
0.77593011 -0.033736043 0.12669721
0.77238709 -0.067164019 0.11899506
0.76887625 -0.10028812 0.11136276
0.76539475 -0.13311215 0.10379434
0.7619471 -0.16564059 0.096299306
0.75853032 -0.19787748 0.088871561
0.75514168 -0.22982569 0.081505045
0.75178558 -0.26149061 0.074209012
0.7484591 -0.2928752 0.066977665
0.74515969 -0.32398239 0.059805006
0.7418915 -0.35481766 0.052700281
0.73865187 -0.38538355 0.04565756
0.73543811 -0.41568244 0.038671181
0.73225445 -0.44572008 0.031750187
0.72909826 -0.47549874 0.024888843
0.72596914 -0.50502205 0.018086433
0.72286463 -0.53429115 0.011337519
0.71978861 -0.56331283 0.004650563
0.71673876 -0.59208858 -0.0019795895
0.7137146 -0.62062132 -0.0085539222
0.91251779 0.83647478 0.3409715
0.90782452 0.79434651 0.33119372
0.90317923 0.75264943 0.32151604
0.89857811 0.71137434 0.31193033
0.89402676 0.67052007 0.30244836
0.88952118 0.6300776 0.29306191
0.88505781 0.59003866 0.28376323
0.88064212 0.55040139 0.27456373
0.87627017 0.51115751 0.26545542
0.87193841 0.47230002 0.25643095
0.8676523 0.43382621 0.24750152
0.86340809 0.39572883 0.2386595
0.85920227 0.35800102 0.22989738
0.85504013 0.32064012 0.22122622
0.85091525 0.28363845 0.21263286
0.84683281 0.24699296 0.20412773
0.84278941 0.21069737 0.19570388
0.8387816 0.17474617 0.18735434
0.83481449 0.13913569 0.17908947
0.8308847 0.10386061 0.17090255
0.82698905 0.068915844 0.16278662
0.82313251 0.034297176 0.15475208
0.81931174 3.7252903e-08 0.14679202
0.81552356 -0.033980098 0.1389001
0.81177288 -0.067647666 0.1310863
0.80805665 -0.10100701 0.12334398
0.80437171 -0.13406189 0.11566692
0.80072266 -0.16681717 0.10806483
0.79710662 -0.19927654 0.10053145
0.79352057 -0.23144348 0.093060508
0.78996915 -0.26332313 0.085661769
0.78644937 -0.29491848 0.078328863
0.78295845 -0.32623264 0.07105612
0.77950072 -0.35727108 0.0638524
0.7760734 -0.38803658 0.056712106
0.77267373 -0.41853154 0.049629509
0.769306 -0.44876176 0.042613581
0.76596761 -0.47872967 0.035658404
0.762658 -0.50843865 0.028763458
0.75937688 -0.53789192 0.021927774
0.75612158 -0.56709117 0.015145987
0.75289637 -0.59604287 0.0084267259
0.74969852 -0.62474871 0.0017645359
0.92923075 0.59470767 0.29835421
0.9245581 0.55473495 0.28900892
0.91993225 0.51516211 0.27975702
0.91534919 0.47598165 0.27059114
0.91081482 0.43719107 0.26152214
0.90632504 0.39878309 0.25254273
0.90187627 0.36075056 0.24364519
0.89747405 0.32309067 0.23484069
0.89311457 0.2857967 0.22612169
0.88879424 0.24886236 0.21748097
0.88451844 0.21228449 0.2089296
0.88028359 0.1760568 0.20045979
0.87608624 0.14017382 0.19206506
0.87193155 0.10463178 0.1837558
0.86781609 0.069425344 0.17552491
0.86373651 0.034549527 0.1673657
0.85969794 1.4901161e-08 0.1592885
0.85569686 -0.034227759 0.15128639
0.85173017 -0.068138398 0.14335293
0.84780276 -0.10173627 0.1354982
0.84391147 -0.13502578 0.12771563
0.84005302 -0.16801055 0.11999869
0.8362323 -0.20069565 0.1123573
0.83244622 -0.23308495 0.1047852
0.82869172 -0.2651813 0.097276032
0.8249734 -0.29699036 0.089839555
0.82128847 -0.32851529 0.082469478
0.81763357 -0.3597587 0.075159937
0.81401378 -0.39072648 0.067920059
0.81042576 -0.42142135 0.060744092
0.80686677 -0.45184538 0.053626195
0.80334133 -0.48200476 0.046575412
0.79984665 -0.51190186 0.039585903
0.79638225 -0.54153991 0.032657072
0.79294527 -0.57092053 0.025783092
0.78954017 -0.60005051 0.018973023
0.94056153 0.32557899 0.24866477
0.93595773 0.28798711 0.23981141
0.93139875 0.25076115 0.23104408
0.92688096 0.21389571 0.22235589
0.92240971 0.17738655 0.2137575
0.91798151 0.14122793 0.20524164
0.91359258 0.10541449 0.19680141
0.90924835 0.069942281 0.18844716
0.90494531 0.034805536 0.18017204
0.90067983 4.4703484e-08 0.17196916
0.89645731 -0.034479029 0.16384897
0.8922742 -0.068636402 0.15580454
0.88812703 -0.10247609 0.14782923
0.88402104 -0.13600323 0.1399333
0.87995291 -0.1692217 0.1321099
0.87591934 -0.20213521 0.1243529
0.87192523 -0.23474902 0.1166719
0.86796468 -0.267066 0.1090555
0.86404264 -0.29909164 0.10151316
0.86015594 -0.3308292 0.094038591
0.85630131 -0.36228123 0.086625963
0.85248375 -0.39345396 0.079284459
0.84870011 -0.42434996 0.072008193
0.8449499 -0.45497298 0.064796209
0.84123009 -0.48532504 0.057642743
0.83754539 -0.51541251 0.050556898
0.83389288 -0.54523754 0.043532789
