# .PCD v0.7 - Point Cloud Data file format
VERSION 0.7
FIELDS x y z
SIZE 4 4 4
TYPE F F F
COUNT 1 1 1
WIDTH 1385
HEIGHT 1
VIEWPOINT 0 0 0 1 0 0 0
POINTS 1385
DATA ascii
-0.54539824 0.4170692 0.044005007
-0.53354394 0.37661928 0.0091393888
-0.52219546 0.33789119 -0.024238303
-0.51131827 0.3007755 -0.056230113
-0.50088638 0.26517519 -0.08691214
-0.49087161 0.23099841 -0.11636733
-0.48124823 0.19816111 -0.14467144
-0.47199607 0.16658688 -0.1718836
-0.46309185 0.13620348 -0.1980726
-0.45451844 0.10694554 -0.22328834
-0.44625679 0.078751266 -0.24758738
-0.43828899 0.051563464 -0.27102211
-0.43060178 0.025329545 -0.29363161
-0.42317855 2.9802322e-08 -0.31546453
-0.41600788 -0.02447103 -0.33655471
-0.40907618 -0.048126563 -0.35694206
-0.40237087 -0.071006611 -0.37666366
-0.40558454 -0.095431626 -0.36721158
-0.41623536 -0.12242212 -0.33588573
-0.42745963 -0.15086809 -0.30287313
-0.43930709 -0.18089113 -0.26802769
-0.45182887 -0.21262531 -0.23119901
-0.46508542 -0.24622159 -0.19220911
-0.47914463 -0.28184974 -0.15085845
-0.49407899 -0.31969815 -0.10693374
-0.50997573 -0.35998282 -0.060178652
-0.52692789 -0.4029448 -0.010319427
-0.54504579 -0.44886124 0.042968571
-0.56445581 -0.49804914 0.10005672
-0.58529735 -0.55086797 0.16135533
-0.60773903 -0.60773903 0.22736037
-0.63196802 -0.6691426 0.29862231
-0.6582092 -0.73564541 0.37580204
-0.68672657 -0.80791354 0.45967683
-0.7178241 -0.88672382 0.55114001
-0.75187165 -0.9730103 0.65127993
-0.78931332 -1.0678945 0.76140237
-0.6999054 1.0936022 0.62709701
-0.67932844 1.0189927 0.56279409
-0.65992427 0.94864118 0.50215608
-0.64160025 0.88220048 0.44489354
-0.62426639 0.81934965 0.39072502
-0.60784227 0.75980294 0.33939976
-0.59226227 0.70331144 0.29071224
-0.577461 0.64964366 0.24445827
-0.56337965 0.59859085 0.20045395
-0.54997045 0.54997039 0.15855023
-0.53718305 0.50360918 0.11858968
-0.52497834 0.45935613 0.080450058
-0.51331592 0.4170692 0.044005007
-0.502159 0.37661928 0.0091393888
-0.49147806 0.33789119 -0.024238303
-0.48124072 0.3007755 -0.056230113
-0.47142246 0.26517519 -0.08691214
-0.46199682 0.23099841 -0.11636733
-0.45293948 0.19816111 -0.14467144
-0.44423163 0.16658688 -0.1718836
-0.43585113 0.13620348 -0.1980726
-0.42778212 0.10694554 -0.22328834
-0.42000636 0.078751266 -0.24758738
-0.41250727 0.051563464 -0.27102211
-0.40527225 0.025329545 -0.29363161
-0.39828569 2.9802322e-08 -0.31546453
-0.39153686 -0.02447103 -0.33655471
-0.38501289 -0.048126563 -0.35694206
-0.37870198 -0.071006611 -0.37666366
-0.38172662 -0.095431626 -0.36721158
-0.39175093 -0.12242212 -0.33588573
-0.40231493 -0.15086809 -0.30287313
-0.4134655 -0.18089113 -0.26802769
-0.42525068 -0.21262531 -0.23119901
-0.43772745 -0.24622159 -0.19220911
-0.45095968 -0.28184974 -0.15085845
-0.46501553 -0.31969815 -0.10693374
-0.47997719 -0.35998282 -0.060178652
-0.49593213 -0.4029448 -0.010319427
-0.51298428 -0.44886124 0.042968571
-0.5312525 -0.49804914 0.10005672
-0.55086809 -0.55086797 0.16135533
-0.57198966 -0.60773903 0.22736037
-0.5947935 -0.6691426 0.29862231
-0.61949098 -0.73564541 0.37580204
-0.64633095 -0.80791354 0.45967683
-0.67559916 -0.88672382 0.55114001
-0.70764393 -0.9730103 0.65127993
-0.74288315 -1.0678945 0.76140237
-0.65616131 1.0936022 0.62709701
-0.63687038 1.0189927 0.56279409
-0.61867905 0.94864118 0.50215608
-0.60150027 0.88220048 0.44489354
-0.58524972 0.81934965 0.39072502
-0.56985211 0.75980294 0.33939976
-0.55524588 0.70331144 0.29071224
-0.54136968 0.64964366 0.24445827
-0.52816838 0.59859085 0.20045395
-0.51559728 0.54997039 0.15855023
-0.50360906 0.50360918 0.11858968
-0.49216723 0.45935613 0.080450058
-0.48123372 0.4170692 0.044005007
-0.47077405 0.37661928 0.0091393888
-0.46076068 0.33789119 -0.024238303
-0.45116317 0.3007755 -0.056230113
-0.44195858 0.26517519 -0.08691214
-0.43312201 0.23099841 -0.11636733
-0.42463076 0.19816111 -0.14467144
-0.41646713 0.16658688 -0.1718836
-0.40861043 0.13620348 -0.1980726
-0.40104571 0.10694554 -0.22328834
-0.39375597 0.078751266 -0.24758738
-0.38672557 0.051563464 -0.27102211
-0.37994274 0.025329545 -0.29363161
-0.37339285 2.9802322e-08 -0.31546453
-0.36706579 -0.02447103 -0.33655471
-0.36094961 -0.048126563 -0.35694206
-0.3550331 -0.071006611 -0.37666366
-0.35786873 -0.095431626 -0.36721158
-0.36726651 -0.12242212 -0.33588573
-0.37717026 -0.15086809 -0.30287313
-0.38762391 -0.18089113 -0.26802769
-0.39867252 -0.21262531 -0.23119901
-0.41036949 -0.24622159 -0.19220911
-0.4227747 -0.28184974 -0.15085845
-0.43595207 -0.31969815 -0.10693374
-0.44997859 -0.35998282 -0.060178652
-0.46493635 -0.4029448 -0.010319427
-0.48092273 -0.44886124 0.042968571
-0.49804923 -0.49804914 0.10005672
-0.51643878 -0.55086797 0.16135533
-0.53624028 -0.60773903 0.22736037
-0.55761886 -0.6691426 0.29862231
-0.58077282 -0.73564541 0.37580204
-0.60593522 -0.80791354 0.45967683
-0.63337421 -0.88672382 0.55114001
-0.66341615 -0.9730103 0.65127993
-0.69645292 -1.0678945 0.76140237
-0.61241722 1.0936022 0.62709701
-0.59441239 1.0189927 0.56279409
-0.57743371 0.94864118 0.50215608
-0.56140023 0.88220048 0.44489354
-0.54623306 0.81934965 0.39072502
-0.53186196 0.75980294 0.33939976
-0.51822948 0.70331144 0.29071224
-0.50527835 0.64964366 0.24445827
-0.4929572 0.59859085 0.20045395
-0.48122415 0.54997039 0.15855023
-0.47003514 0.50360918 0.11858968
-0.4593561 0.45935613 0.080450058
-0.44915146 0.4170692 0.044005007
-0.43938911 0.37661928 0.0091393888
-0.43004334 0.33789119 -0.024238303
-0.42108563 0.3007755 -0.056230113
-0.41249463 0.26517519 -0.08691214
-0.40424722 0.23099841 -0.11636733
-0.39632207 0.19816111 -0.14467144
-0.38870266 0.16658688 -0.1718836
-0.38136974 0.13620348 -0.1980726
-0.37430933 0.10694554 -0.22328834
-0.36750558 0.078751266 -0.24758738
-0.36094388 0.051563464 -0.27102211
-0.35461321 0.025329545 -0.29363161
-0.34849998 2.9802322e-08 -0.31546453
-0.34259474 -0.02447103 -0.33655471
-0.33688629 -0.048126563 -0.35694206
-0.33136421 -0.071006611 -0.37666366
-0.33401081 -0.095431626 -0.36721158
-0.34278205 -0.12242212 -0.33588573
-0.35202557 -0.15086809 -0.30287313
-0.36178231 -0.18089113 -0.26802769
-0.37209436 -0.21262531 -0.23119901
-0.38301152 -0.24622159 -0.19220911
-0.39458969 -0.28184974 -0.15085845
-0.4068886 -0.31969815 -0.10693374
-0.41998005 -0.35998282 -0.060178652
-0.43394062 -0.4029448 -0.010319427
-0.44886121 -0.44886124 0.042968571
-0.46484593 -0.49804914 0.10005672
-0.48200956 -0.55086797 0.16135533
-0.50049096 -0.60773903 0.22736037
-0.52044427 -0.6691426 0.29862231
-0.54205465 -0.73564541 0.37580204
-0.56553954 -0.80791354 0.45967683
-0.59114927 -0.88672382 0.55114001
-0.61918843 -0.9730103 0.65127993
-0.65002275 -1.0678945 0.76140237
-0.56867319 1.0936022 0.62709701
-0.55195439 1.0189927 0.56279409
-0.53618848 0.94864118 0.50215608
-0.52130026 0.88220048 0.44489354
-0.50721639 0.81934965 0.39072502
-0.49387184 0.75980294 0.33939976
-0.48121312 0.70331144 0.29071224
-0.46918705 0.64964366 0.24445827
-0.45774597 0.59859085 0.20045395
-0.44685099 0.54997039 0.15855023
-0.43646121 0.50360918 0.11858968
-0.4265449 0.45935613 0.080450058
-0.41706923 0.4170692 0.044005007
-0.40800416 0.37661928 0.0091393888
-0.39932597 0.33789119 -0.024238303
-0.39100808 0.3007755 -0.056230113
-0.38303074 0.26517519 -0.08691214
-0.37537241 0.23099841 -0.11636733
-0.36801332 0.19816111 -0.14467144
-0.36093819 0.16658688 -0.1718836
-0.35412905 0.13620348 -0.1980726
-0.34757292 0.10694554 -0.22328834
-0.34125516 0.078751266 -0.24758738
-0.33516216 0.051563464 -0.27102211
-0.32928368 0.025329545 -0.29363161
-0.32360712 2.9802322e-08 -0.31546453
-0.3181237 -0.02447103 -0.33655471
-0.31282297 -0.048126563 -0.35694206
-0.30769536 -0.071006611 -0.37666366
-0.31015289 -0.095431626 -0.36721158
-0.31829762 -0.12242212 -0.33588573
-0.32688087 -0.15086809 -0.30287313
-0.33594072 -0.18089113 -0.26802769
-0.3455162 -0.21262531 -0.23119901
-0.35565352 -0.24622159 -0.19220911
-0.36640471 -0.28184974 -0.15085845
-0.37782514 -0.31969815 -0.10693374
-0.38998145 -0.35998282 -0.060178652
-0.40294486 -0.4029448 -0.010319427
-0.41679972 -0.44886124 0.042968571
-0.43164265 -0.49804914 0.10005672
-0.44758034 -0.55086797 0.16135533
-0.46474162 -0.60773903 0.22736037
-0.48326972 -0.6691426 0.29862231
-0.50333643 -0.73564541 0.37580204
-0.52514392 -0.80791354 0.45967683
-0.54892433 -0.88672382 0.55114001
-0.57496065 -0.9730103 0.65127993
-0.60359251 -1.0678945 0.76140237
-0.52492905 1.0936022 0.62709701
-0.50949639 1.0189927 0.56279409
-0.4949432 0.94864118 0.50215608
-0.48120022 0.88220048 0.44489354
-0.46819979 0.81934965 0.39072502
-0.45588171 0.75980294 0.33939976
-0.4441967 0.70331144 0.29071224
-0.43309575 0.64964366 0.24445827
-0.42253473 0.59859085 0.20045395
-0.41247785 0.54997039 0.15855023
-0.40288725 0.50360918 0.11858968
-0.39373377 0.45935613 0.080450058
-0.38498697 0.4170692 0.044005007
-0.37661922 0.37661928 0.0091393888
-0.36860856 0.33789119 -0.024238303
-0.36093053 0.3007755 -0.056230113
-0.35356683 0.26517519 -0.08691214
-0.3464976 0.23099841 -0.11636733
-0.3397046 0.19816111 -0.14467144
-0.33317372 0.16658688 -0.1718836
-0.32688835 0.13620348 -0.1980726
-0.32083657 0.10694554 -0.22328834
-0.31500477 0.078751266 -0.24758738
-0.30938047 0.051563464 -0.27102211
-0.30395418 0.025329545 -0.29363161
-0.29871428 2.9802322e-08 -0.31546453
-0.29365265 -0.02447103 -0.33655471
-0.28875968 -0.048126563 -0.35694206
-0.28402647 -0.071006611 -0.37666366
-0.28629497 -0.095431626 -0.36721158
-0.29381317 -0.12242212 -0.33588573
-0.30173621 -0.15086809 -0.30287313
-0.31009912 -0.18089113 -0.26802769
-0.31893802 -0.21262531 -0.23119901
-0.32829559 -0.24622159 -0.19220911
-0.33821973 -0.28184974 -0.15085845
-0.34876165 -0.31969815 -0.10693374
-0.35998288 -0.35998282 -0.060178652
-0.37194911 -0.4029448 -0.010319427
-0.38473821 -0.44886124 0.042968571
-0.39843935 -0.49804914 0.10005672
-0.41315106 -0.55086797 0.16135533
-0.42899227 -0.60773903 0.22736037
-0.44609508 -0.6691426 0.29862231
-0.46461824 -0.73564541 0.37580204
-0.48474818 -0.80791354 0.45967683
-0.50669938 -0.88672382 0.55114001
-0.53073293 -0.9730103 0.65127993
-0.55716234 -1.0678945 0.76140237
-0.48118496 1.0936022 0.62709701
-0.46703833 1.0189927 0.56279409
-0.45369792 0.94864118 0.50215608
-0.44110018 0.88220048 0.44489354
-0.42918316 0.81934965 0.39072502
-0.41789153 0.75980294 0.33939976
-0.40718031 0.70331144 0.29071224
-0.39700443 0.64964366 0.24445827
-0.3873235 0.59859085 0.20045395
-0.37810469 0.54997039 0.15855023
-0.36931333 0.50360918 0.11858968
-0.36092263 0.45935613 0.080450058
-0.35290474 0.4170692 0.044005007
-0.3452343 0.37661928 0.0091393888
-0.33789119 0.33789119 -0.024238303
-0.33085302 0.3007755 -0.056230113
-0.32410294 0.26517519 -0.08691214
-0.31762281 0.23099841 -0.11636733
-0.31139588 0.19816111 -0.14467144
-0.30540925 0.16658688 -0.1718836
-0.29964766 0.13620348 -0.1980726
-0.29410017 0.10694554 -0.22328834
-0.28875437 0.078751266 -0.24758738
-0.28359875 0.051563464 -0.27102211
-0.27862468 0.025329545 -0.29363161
-0.27382141 2.9802322e-08 -0.31546453
-0.26918158 -0.02447103 -0.33655471
-0.26469639 -0.048126563 -0.35694206
-0.26035762 -0.071006611 -0.37666366
-0.26243708 -0.095431626 -0.36721158
-0.26932877 -0.12242212 -0.33588573
-0.27659151 -0.15086809 -0.30287313
-0.28425753 -0.18089113 -0.26802769
-0.29235986 -0.21262531 -0.23119901
-0.30093762 -0.24622159 -0.19220911
-0.31003478 -0.28184974 -0.15085845
-0.31969818 -0.31969815 -0.10693374
-0.32998431 -0.35998282 -0.060178652
-0.34095335 -0.4029448 -0.010319427
-0.35267669 -0.44886124 0.042968571
-0.36523607 -0.49804914 0.10005672
-0.3787218 -0.55086797 0.16135533
-0.3932429 -0.60773903 0.22736037
-0.40892053 -0.6691426 0.29862231
-0.42590004 -0.73564541 0.37580204
-0.44435254 -0.80791354 0.45967683
-0.46447444 -0.88672382 0.55114001
-0.48650515 -0.9730103 0.65127993
-0.51073217 -1.0678945 0.76140237
-0.43744087 1.0936022 0.62709701
-0.42458031 1.0189927 0.56279409
-0.41245267 0.94864118 0.50215608
-0.4010002 0.88220048 0.44489354
-0.39016649 0.81934965 0.39072502
-0.37990141 0.75980294 0.33939976
-0.37016392 0.70331144 0.29071224
-0.36091313 0.64964366 0.24445827
-0.35211226 0.59859085 0.20045395
-0.34373152 0.54997039 0.15855023
-0.3357394 0.50360918 0.11858968
-0.32811147 0.45935613 0.080450058
-0.32082248 0.4170692 0.044005007
-0.31384936 0.37661928 0.0091393888
-0.30717379 0.33789119 -0.024238303
-0.30077544 0.3007755 -0.056230113
-0.29463902 0.26517519 -0.08691214
-0.288748 0.23099841 -0.11636733
-0.28308719 0.19816111 -0.14467144
-0.27764475 0.16658688 -0.1718836
-0.27240697 0.13620348 -0.1980726
-0.26736382 0.10694554 -0.22328834
-0.26250398 0.078751266 -0.24758738
-0.25781706 0.051563464 -0.27102211
-0.25329515 0.025329545 -0.29363161
-0.24892856 2.9802322e-08 -0.31546453
-0.24471052 -0.02447103 -0.33655471
-0.24063307 -0.048126563 -0.35694206
-0.23668872 -0.071006611 -0.37666366
-0.23857915 -0.095431626 -0.36721158
-0.24484433 -0.12242212 -0.33588573
-0.25144684 -0.15086809 -0.30287313
-0.25841594 -0.18089113 -0.26802769
-0.26578167 -0.21262531 -0.23119901
-0.27357966 -0.24622159 -0.19220911
-0.28184977 -0.28184974 -0.15085845
-0.29063469 -0.31969815 -0.10693374
-0.29998574 -0.35998282 -0.060178652
-0.30995756 -0.4029448 -0.010319427
-0.32061517 -0.44886124 0.042968571
-0.3320328 -0.49804914 0.10005672
-0.34429255 -0.55086797 0.16135533
-0.35749355 -0.60773903 0.22736037
-0.37174591 -0.6691426 0.29862231
-0.38718188 -0.73564541 0.37580204
-0.4039568 -0.80791354 0.45967683
-0.42224947 -0.88672382 0.55114001
-0.44227743 -0.9730103 0.65127993
-0.46430197 -1.0678945 0.76140237
-0.39369678 1.0936022 0.62709701
-0.38212225 1.0189927 0.56279409
-0.37120742 0.94864118 0.50215608
-0.36090016 0.88220048 0.44489354
-0.35114983 0.81934965 0.39072502
-0.34191126 0.75980294 0.33939976
-0.33314753 0.70331144 0.29071224
-0.32482183 0.64964366 0.24445827
-0.31690103 0.59859085 0.20045395
-0.30935839 0.54997039 0.15855023
-0.30216545 0.50360918 0.11858968
-0.29530033 0.45935613 0.080450058
-0.28874025 0.4170692 0.044005007
-0.28246441 0.37661928 0.0091393888
-0.27645642 0.33789119 -0.024238303
-0.27069792 0.3007755 -0.056230113
-0.26517513 0.26517519 -0.08691214
-0.25987321 0.23099841 -0.11636733
-0.25477844 0.19816111 -0.14467144
-0.24988028 0.16658688 -0.1718836
-0.24516627 0.13620348 -0.1980726
-0.24062742 0.10694554 -0.22328834
-0.23625359 0.078751266 -0.24758738
-0.23203534 0.051563464 -0.27102211
-0.22796564 0.025329545 -0.29363161
-0.2240357 2.9802322e-08 -0.31546453
-0.22023949 -0.02447103 -0.33655471
-0.21656977 -0.048126563 -0.35694206
-0.21301986 -0.071006611 -0.37666366
-0.21472122 -0.095431626 -0.36721158
-0.22035989 -0.12242212 -0.33588573
-0.22630215 -0.15086809 -0.30287313
-0.23257434 -0.18089113 -0.26802769
-0.23920353 -0.21262531 -0.23119901
-0.24622169 -0.24622159 -0.19220911
-0.25366482 -0.28184974 -0.15085845
-0.26157126 -0.31969815 -0.10693374
-0.26998717 -0.35998282 -0.060178652
-0.27896181 -0.4029448 -0.010319427
-0.28855366 -0.44886124 0.042968571
-0.29882953 -0.49804914 0.10005672
-0.30986327 -0.55086797 0.16135533
-0.3217442 -0.60773903 0.22736037
-0.33457133 -0.6691426 0.29862231
-0.34846368 -0.73564541 0.37580204
-0.36356115 -0.80791354 0.45967683
-0.38002455 -0.88672382 0.55114001
-0.39804971 -0.9730103 0.65127993
-0.41787177 -1.0678945 0.76140237
-0.3499527 1.0936022 0.62709701
-0.33966422 1.0189927 0.56279409
-0.32996213 0.94864118 0.50215608
-0.32080013 0.88220048 0.44489354
-0.31213319 0.81934965 0.39072502
-0.30392113 0.75980294 0.33939976
-0.29613113 0.70331144 0.29071224
-0.2887305 0.64964366 0.24445827
-0.28168982 0.59859085 0.20045395
-0.27498522 0.54997039 0.15855023
-0.26859152 0.50360918 0.11858968
-0.26248917 0.45935613 0.080450058
-0.25665796 0.4170692 0.044005007
-0.2510795 0.37661928 0.0091393888
-0.24573903 0.33789119 -0.024238303
-0.24062036 0.3007755 -0.056230113
-0.23571123 0.26517519 -0.08691214
-0.23099841 0.23099841 -0.11636733
-0.22646974 0.19816111 -0.14467144
-0.22211581 0.16658688 -0.1718836
-0.21792556 0.13620348 -0.1980726
-0.21389106 0.10694554 -0.22328834
-0.21000318 0.078751266 -0.24758738
-0.20625363 0.051563464 -0.27102211
-0.20263612 0.025329545 -0.29363161
-0.19914284 2.9802322e-08 -0.31546453
-0.19576843 -0.02447103 -0.33655471
-0.19250645 -0.048126563 -0.35694206
-0.18935099 -0.071006611 -0.37666366
-0.19086331 -0.095431626 -0.36721158
-0.19587547 -0.12242212 -0.33588573
-0.20115747 -0.15086809 -0.30287313
-0.20673275 -0.18089113 -0.26802769
-0.21262534 -0.21262531 -0.23119901
-0.21886373 -0.24622159 -0.19220911
-0.22547984 -0.28184974 -0.15085845
-0.23250777 -0.31969815 -0.10693374
-0.2399886 -0.35998282 -0.060178652
-0.24796607 -0.4029448 -0.010319427
-0.25649214 -0.44886124 0.042968571
-0.26562625 -0.49804914 0.10005672
-0.27543405 -0.55086797 0.16135533
-0.28599483 -0.60773903 0.22736037
-0.29739675 -0.6691426 0.29862231
-0.30974549 -0.73564541 0.37580204
-0.32316548 -0.80791354 0.45967683
-0.33779958 -0.88672382 0.55114001
-0.35382196 -0.9730103 0.65127993
-0.37144157 -1.0678945 0.76140237
-0.30620861 1.0936022 0.62709701
-0.29720619 1.0189927 0.56279409
-0.28871685 0.94864118 0.50215608
-0.28070012 0.88220048 0.44489354
-0.27311653 0.81934965 0.39072502
-0.26593098 0.75980294 0.33939976
-0.25911474 0.70331144 0.29071224
-0.25263917 0.64964366 0.24445827
-0.2464786 0.59859085 0.20045395
-0.24061207 0.54997039 0.15855023
-0.23501757 0.50360918 0.11858968
-0.22967805 0.45935613 0.080450058
-0.22457573 0.4170692 0.044005007
-0.21969455 0.37661928 0.0091393888
-0.21502167 0.33789119 -0.024238303
-0.21054281 0.3007755 -0.056230113
-0.20624731 0.26517519 -0.08691214
-0.20212361 0.23099841 -0.11636733
-0.19816104 0.19816111 -0.14467144
-0.19435133 0.16658688 -0.1718836
-0.19068487 0.13620348 -0.1980726
-0.18715467 0.10694554 -0.22328834
-0.18375279 0.078751266 -0.24758738
-0.18047194 0.051563464 -0.27102211
-0.17730661 0.025329545 -0.29363161
-0.17424999 2.9802322e-08 -0.31546453
-0.17129737 -0.02447103 -0.33655471
-0.16844314 -0.048126563 -0.35694206
-0.16568211 -0.071006611 -0.37666366
-0.1670054 -0.095431626 -0.36721158
-0.17139103 -0.12242212 -0.33588573
-0.17601278 -0.15086809 -0.30287313
-0.18089116 -0.18089113 -0.26802769
-0.18604718 -0.21262531 -0.23119901
-0.19150576 -0.24622159 -0.19220911
-0.19729485 -0.28184974 -0.15085845
-0.2034443 -0.31969815 -0.10693374
-0.20999002 -0.35998282 -0.060178652
-0.21697031 -0.4029448 -0.010319427
-0.22443061 -0.44886124 0.042968571
-0.23242296 -0.49804914 0.10005672
-0.24100478 -0.55086797 0.16135533
-0.25024548 -0.60773903 0.22736037
-0.26022214 -0.6691426 0.29862231
-0.27102733 -0.73564541 0.37580204
-0.28276977 -0.80791354 0.45967683
-0.29557464 -0.88672382 0.55114001
-0.30959421 -0.9730103 0.65127993
-0.32501137 -1.0678945 0.76140237
-0.26246452 1.0936022 0.62709701
-0.2547482 1.0189927 0.56279409
-0.2474716 0.94864118 0.50215608
-0.24060011 0.88220048 0.44489354
-0.23409989 0.81934965 0.39072502
-0.22794086 0.75980294 0.33939976
-0.22209835 0.70331144 0.29071224
-0.21654788 0.64964366 0.24445827
-0.21126737 0.59859085 0.20045395
-0.20623893 0.54997039 0.15855023
-0.20144363 0.50360918 0.11858968
-0.19686688 0.45935613 0.080450058
-0.19249348 0.4170692 0.044005007
-0.18830961 0.37661928 0.0091393888
-0.18430428 0.33789119 -0.024238303
-0.18046527 0.3007755 -0.056230113
-0.17678341 0.26517519 -0.08691214
-0.1732488 0.23099841 -0.11636733
-0.1698523 0.19816111 -0.14467144
-0.16658686 0.16658688 -0.1718836
-0.16344418 0.13620348 -0.1980726
-0.16041829 0.10694554 -0.22328834
-0.15750238 0.078751266 -0.24758738
-0.15469024 0.051563464 -0.27102211
-0.15197709 0.025329545 -0.29363161
-0.14935714 2.9802322e-08 -0.31546453
-0.14682633 -0.02447103 -0.33655471
-0.14437984 -0.048126563 -0.35694206
-0.14201324 -0.071006611 -0.37666366
-0.14314748 -0.095431626 -0.36721158
-0.14690658 -0.12242212 -0.33588573
-0.1508681 -0.15086809 -0.30287313
-0.15504956 -0.18089113 -0.26802769
-0.15946901 -0.21262531 -0.23119901
-0.16414779 -0.24622159 -0.19220911
-0.16910987 -0.28184974 -0.15085845
-0.17438082 -0.31969815 -0.10693374
-0.17999144 -0.35998282 -0.060178652
-0.18597455 -0.4029448 -0.010319427
-0.1923691 -0.44886124 0.042968571
-0.19921967 -0.49804914 0.10005672
-0.20657553 -0.55086797 0.16135533
-0.21449614 -0.60773903 0.22736037
-0.22304754 -0.6691426 0.29862231
-0.23230912 -0.73564541 0.37580204
-0.24237409 -0.80791354 0.45967683
-0.25334969 -0.88672382 0.55114001
-0.26536646 -0.9730103 0.65127993
-0.27858117 -1.0678945 0.76140237
-0.21872044 1.0936022 0.62709701
-0.21229015 1.0189927 0.56279409
-0.20622633 0.94864118 0.50215608
-0.2005001 0.88220048 0.44489354
-0.19508325 0.81934965 0.39072502
-0.1899507 0.75980294 0.33939976
-0.18508196 0.70331144 0.29071224
-0.18045656 0.64964366 0.24445827
-0.17605613 0.59859085 0.20045395
-0.17186576 0.54997039 0.15855023
-0.1678697 0.50360918 0.11858968
-0.16405573 0.45935613 0.080450058
-0.16041124 0.4170692 0.044005007
-0.15692468 0.37661928 0.0091393888
-0.15358689 0.33789119 -0.024238303
-0.15038772 0.3007755 -0.056230113
-0.14731951 0.26517519 -0.08691214
-0.144374 0.23099841 -0.11636733
-0.1415436 0.19816111 -0.14467144
-0.13882238 0.16658688 -0.1718836
-0.13620348 0.13620348 -0.1980726
-0.13368191 0.10694554 -0.22328834
-0.13125199 0.078751266 -0.24758738
-0.12890853 0.051563464 -0.27102211
-0.12664758 0.025329545 -0.29363161
-0.12446428 2.9802322e-08 -0.31546453
-0.12235526 -0.02447103 -0.33655471
-0.12031654 -0.048126563 -0.35694206
-0.11834436 -0.071006611 -0.37666366
-0.11928958 -0.095431626 -0.36721158
-0.12242217 -0.12242212 -0.33588573
-0.12572342 -0.15086809 -0.30287313
-0.12920797 -0.18089113 -0.26802769
-0.13289084 -0.21262531 -0.23119901
-0.13678983 -0.24622159 -0.19220911
-0.14092489 -0.28184974 -0.15085845
-0.14531735 -0.31969815 -0.10693374
-0.14999287 -0.35998282 -0.060178652
-0.15497878 -0.4029448 -0.010319427
-0.16030759 -0.44886124 0.042968571
-0.1660164 -0.49804914 0.10005672
-0.17214628 -0.55086797 0.16135533
-0.17874677 -0.60773903 0.22736037
-0.18587296 -0.6691426 0.29862231
-0.19359094 -0.73564541 0.37580204
-0.2019784 -0.80791354 0.45967683
-0.21112473 -0.88672382 0.55114001
-0.22113872 -0.9730103 0.65127993
-0.23215099 -1.0678945 0.76140237
-0.17497635 1.0936022 0.62709701
-0.16983211 1.0189927 0.56279409
-0.16498107 0.94864118 0.50215608
-0.16040006 0.88220048 0.44489354
-0.1560666 0.81934965 0.39072502
-0.15196057 0.75980294 0.33939976
-0.14806557 0.70331144 0.29071224
-0.14436525 0.64964366 0.24445827
-0.14084491 0.59859085 0.20045395
-0.13749261 0.54997039 0.15855023
-0.13429576 0.50360918 0.11858968
-0.13124458 0.45935613 0.080450058
-0.12832898 0.4170692 0.044005007
-0.12553975 0.37661928 0.0091393888
-0.12286951 0.33789119 -0.024238303
-0.12031018 0.3007755 -0.056230113
-0.11785562 0.26517519 -0.08691214
-0.11549921 0.23099841 -0.11636733
-0.11323487 0.19816111 -0.14467144
-0.11105791 0.16658688 -0.1718836
-0.10896278 0.13620348 -0.1980726
-0.10694553 0.10694554 -0.22328834
-0.10500159 0.078751266 -0.24758738
-0.10312682 0.051563464 -0.27102211
-0.10131806 0.025329545 -0.29363161
-0.099571422 2.9802322e-08 -0.31546453
-0.097884215 -0.02447103 -0.33655471
-0.096253224 -0.048126563 -0.35694206
-0.094675496 -0.071006611 -0.37666366
-0.095431656 -0.095431626 -0.36721158
-0.097937733 -0.12242212 -0.33588573
-0.10057873 -0.15086809 -0.30287313
-0.10336637 -0.18089113 -0.26802769
-0.10631267 -0.21262531 -0.23119901
-0.10943186 -0.24622159 -0.19220911
-0.11273992 -0.28184974 -0.15085845
-0.11625388 -0.31969815 -0.10693374
-0.1199943 -0.35998282 -0.060178652
-0.12398303 -0.4029448 -0.010319427
-0.12824607 -0.44886124 0.042968571
-0.13281313 -0.49804914 0.10005672
-0.13771702 -0.55086797 0.16135533
-0.14299741 -0.60773903 0.22736037
-0.14869837 -0.6691426 0.29862231
-0.15487275 -0.73564541 0.37580204
-0.16158274 -0.80791354 0.45967683
-0.16889979 -0.88672382 0.55114001
-0.17691098 -0.9730103 0.65127993
-0.18572079 -1.0678945 0.76140237
-0.13123226 1.0936022 0.62709701
-0.1273741 1.0189927 0.56279409
-0.1237358 0.94864118 0.50215608
-0.12030005 0.88220048 0.44489354
-0.11704995 0.81934965 0.39072502
-0.11397043 0.75980294 0.33939976
-0.11104918 0.70331144 0.29071224
-0.10827394 0.64964366 0.24445827
-0.10563368 0.59859085 0.20045395
-0.10311946 0.54997039 0.15855023
-0.10072181 0.50360918 0.11858968
-0.098433442 0.45935613 0.080450058
-0.096246742 0.4170692 0.044005007
-0.094154805 0.37661928 0.0091393888
-0.092152141 0.33789119 -0.024238303
-0.090232633 0.3007755 -0.056230113
-0.088391706 0.26517519 -0.08691214
-0.086624399 0.23099841 -0.11636733
-0.084926151 0.19816111 -0.14467144
-0.083293431 0.16658688 -0.1718836
-0.081722088 0.13620348 -0.1980726
-0.080209143 0.10694554 -0.22328834
-0.078751191 0.078751266 -0.24758738
-0.077345118 0.051563464 -0.27102211
-0.075988546 0.025329545 -0.29363161
-0.07467857 2.9802322e-08 -0.31546453
-0.073413163 -0.02447103 -0.33655471
-0.07218992 -0.048126563 -0.35694206
-0.071006618 -0.071006611 -0.37666366
-0.071573742 -0.095431626 -0.36721158
-0.073453292 -0.12242212 -0.33588573
-0.075434051 -0.15086809 -0.30287313
-0.077524781 -0.18089113 -0.26802769
-0.079734504 -0.21262531 -0.23119901
-0.082073897 -0.24622159 -0.19220911
-0.084554933 -0.28184974 -0.15085845
-0.087190412 -0.31969815 -0.10693374
-0.089995719 -0.35998282 -0.060178652
-0.092987277 -0.4029448 -0.010319427
-0.096184552 -0.44886124 0.042968571
-0.099609837 -0.49804914 0.10005672
-0.10328776 -0.55086797 0.16135533
-0.10724807 -0.60773903 0.22736037
-0.11152377 -0.6691426 0.29862231
-0.11615456 -0.73564541 0.37580204
-0.12118705 -0.80791354 0.45967683
-0.12667485 -0.88672382 0.55114001
-0.13268323 -0.9730103 0.65127993
-0.13929059 -1.0678945 0.76140237
-0.087488174 1.0936022 0.62709701
-0.084916055 1.0189927 0.56279409
-0.082490534 0.94864118 0.50215608
-0.080200031 0.88220048 0.44489354
-0.078033298 0.81934965 0.39072502
-0.075980283 0.75980294 0.33939976
-0.074032784 0.70331144 0.29071224
-0.072182626 0.64964366 0.24445827
-0.070422456 0.59859085 0.20045395
-0.068746306 0.54997039 0.15855023
-0.067147881 0.50360918 0.11858968
-0.065622292 0.45935613 0.080450058
-0.06416449 0.4170692 0.044005007
-0.062769875 0.37661928 0.0091393888
-0.061434757 0.33789119 -0.024238303
-0.06015509 0.3007755 -0.056230113
-0.058927808 0.26517519 -0.08691214
-0.057749603 0.23099841 -0.11636733
-0.056617435 0.19816111 -0.14467144
-0.055528954 0.16658688 -0.1718836
-0.054481391 0.13620348 -0.1980726
-0.053472765 0.10694554 -0.22328834
-0.052500796 0.078751266 -0.24758738
-0.051563408 0.051563464 -0.27102211
-0.050659031 0.025329545 -0.29363161
-0.049785711 2.9802322e-08 -0.31546453
-0.048942108 -0.02447103 -0.33655471
-0.048126612 -0.048126563 -0.35694206
-0.047337748 -0.071006611 -0.37666366
-0.047715828 -0.095431626 -0.36721158
-0.048968866 -0.12242212 -0.33588573
-0.050289366 -0.15086809 -0.30287313
-0.051683187 -0.18089113 -0.26802769
-0.053156335 -0.21262531 -0.23119901
-0.054715931 -0.24622159 -0.19220911
-0.05636996 -0.28184974 -0.15085845
-0.058126941 -0.31969815 -0.10693374
-0.059997149 -0.35998282 -0.060178652
-0.061991517 -0.4029448 -0.010319427
-0.064123034 -0.44886124 0.042968571
-0.066406563 -0.49804914 0.10005672
-0.068858512 -0.55086797 0.16135533
-0.071498707 -0.60773903 0.22736037
-0.074349187 -0.6691426 0.29862231
-0.077436373 -0.73564541 0.37580204
-0.080791369 -0.80791354 0.45967683
-0.084449895 -0.88672382 0.55114001
-0.088455491 -0.9730103 0.65127993
-0.092860393 -1.0678945 0.76140237
-0.043744087 1.0936022 0.62709701
-0.042458028 1.0189927 0.56279409
-0.041245267 0.94864118 0.50215608
-0.040100016 0.88220048 0.44489354
-0.039016649 0.81934965 0.39072502
-0.037990142 0.75980294 0.33939976
-0.037016392 0.70331144 0.29071224
-0.036091313 0.64964366 0.24445827
-0.035211228 0.59859085 0.20045395
-0.034373153 0.54997039 0.15855023
-0.03357394 0.50360918 0.11858968
-0.032811146 0.45935613 0.080450058
-0.032082245 0.4170692 0.044005007
-0.031384937 0.37661928 0.0091393888
-0.030717378 0.33789119 -0.024238303
-0.030077545 0.3007755 -0.056230113
-0.029463904 0.26517519 -0.08691214
-0.028874801 0.23099841 -0.11636733
-0.028308718 0.19816111 -0.14467144
-0.027764477 0.16658688 -0.1718836
-0.027240695 0.13620348 -0.1980726
-0.026736382 0.10694554 -0.22328834
-0.026250398 0.078751266 -0.24758738
-0.025781704 0.051563464 -0.27102211
-0.025329515 0.025329545 -0.29363161
-0.024892855 2.9802322e-08 -0.31546453
-0.024471054 -0.02447103 -0.33655471
-0.024063306 -0.048126563 -0.35694206
-0.023668874 -0.071006611 -0.37666366
-0.023857914 -0.095431626 -0.36721158
-0.024484433 -0.12242212 -0.33588573
-0.025144683 -0.15086809 -0.30287313
-0.025841594 -0.18089113 -0.26802769
-0.026578167 -0.21262531 -0.23119901
-0.027357966 -0.24622159 -0.19220911
-0.02818498 -0.28184974 -0.15085845
-0.029063471 -0.31969815 -0.10693374
-0.029998574 -0.35998282 -0.060178652
-0.030995758 -0.4029448 -0.010319427
-0.032061517 -0.44886124 0.042968571
-0.033203281 -0.49804914 0.10005672
-0.034429256 -0.55086797 0.16135533
-0.035749353 -0.60773903 0.22736037
-0.037174594 -0.6691426 0.29862231
-0.038718186 -0.73564541 0.37580204
-0.040395685 -0.80791354 0.45967683
-0.042224947 -0.88672382 0.55114001
-0.044227745 -0.9730103 0.65127993
-0.046430197 -1.0678945 0.76140237
0 1.0936022 0.62709701
0 1.0189927 0.56279409
0 0.94864118 0.50215608
0 0.88220048 0.44489354
0 0.81934965 0.39072502
0 0.75980294 0.33939976
0 0.70331144 0.29071224
0 0.64964366 0.24445827
0 0.59859085 0.20045395
0 0.54997039 0.15855023
0 0.50360918 0.11858968
0 0.45935613 0.080450058
0 0.4170692 0.044005007
0 0.37661928 0.0091393888
0 0.33789119 -0.024238303
0 0.3007755 -0.056230113
0 0.26517519 -0.08691214
0 0.23099841 -0.11636733
0 0.19816111 -0.14467144
0 0.16658688 -0.1718836
0 0.13620348 -0.1980726
0 0.10694554 -0.22328834
0 0.078751266 -0.24758738
0 0.051563464 -0.27102211
0 0.025329545 -0.29363161
0 2.9802322e-08 -0.31546453
0 -0.02447103 -0.33655471
0 -0.048126563 -0.35694206
0 -0.071006611 -0.37666366
0 -0.095431626 -0.36721158
0 -0.12242212 -0.33588573
0 -0.15086809 -0.30287313
0 -0.18089113 -0.26802769
0 -0.21262531 -0.23119901
0 -0.24622159 -0.19220911
0 -0.28184974 -0.15085845
0 -0.31969815 -0.10693374
0 -0.35998282 -0.060178652
0 -0.4029448 -0.010319427
0 -0.44886124 0.042968571
0 -0.49804914 0.10005672
0 -0.55086797 0.16135533
0 -0.60773903 0.22736037
0 -0.6691426 0.29862231
0 -0.73564541 0.37580204
0 -0.80791354 0.45967683
0 -0.88672382 0.55114001
0 -0.9730103 0.65127993
0 -1.0678945 0.76140237
0.043744087 1.0936022 0.62709701
0.042458028 1.0189927 0.56279409
0.041245267 0.94864118 0.50215608
0.040100016 0.88220048 0.44489354
0.039016649 0.81934965 0.39072502
0.037990142 0.75980294 0.33939976
0.037016392 0.70331144 0.29071224
0.036091313 0.64964366 0.24445827
0.035211228 0.59859085 0.20045395
0.034373153 0.54997039 0.15855023
0.03357394 0.50360918 0.11858968
0.032811146 0.45935613 0.080450058
0.032082245 0.4170692 0.044005007
0.031384937 0.37661928 0.0091393888
0.030717378 0.33789119 -0.024238303
0.030077545 0.3007755 -0.056230113
0.029463904 0.26517519 -0.08691214
0.028874801 0.23099841 -0.11636733
0.028308718 0.19816111 -0.14467144
0.027764477 0.16658688 -0.1718836
0.027240695 0.13620348 -0.1980726
0.026736382 0.10694554 -0.22328834
0.026250398 0.078751266 -0.24758738
0.025781704 0.051563464 -0.27102211
0.025329515 0.025329545 -0.29363161
0.024892855 2.9802322e-08 -0.31546453
0.024471054 -0.02447103 -0.33655471
0.024063306 -0.048126563 -0.35694206
0.023668874 -0.071006611 -0.37666366
0.023857914 -0.095431626 -0.36721158
0.024484433 -0.12242212 -0.33588573
0.025144683 -0.15086809 -0.30287313
0.025841594 -0.18089113 -0.26802769
0.026578167 -0.21262531 -0.23119901
0.027357966 -0.24622159 -0.19220911
0.02818498 -0.28184974 -0.15085845
0.029063471 -0.31969815 -0.10693374
0.029998574 -0.35998282 -0.060178652
0.030995758 -0.4029448 -0.010319427
0.032061517 -0.44886124 0.042968571
0.033203281 -0.49804914 0.10005672
0.034429256 -0.55086797 0.16135533
0.035749353 -0.60773903 0.22736037
0.037174594 -0.6691426 0.29862231
0.038718186 -0.73564541 0.37580204
0.040395685 -0.80791354 0.45967683
0.042224947 -0.88672382 0.55114001
0.044227745 -0.9730103 0.65127993
0.046430197 -1.0678945 0.76140237
0.087488174 1.0936022 0.62709701
0.084916055 1.0189927 0.56279409
0.082490534 0.94864118 0.50215608
0.080200031 0.88220048 0.44489354
0.078033298 0.81934965 0.39072502
0.075980283 0.75980294 0.33939976
0.074032784 0.70331144 0.29071224
0.072182626 0.64964366 0.24445827
0.070422456 0.59859085 0.20045395
0.068746306 0.54997039 0.15855023
0.067147881 0.50360918 0.11858968
0.065622292 0.45935613 0.080450058
0.06416449 0.4170692 0.044005007
0.062769875 0.37661928 0.0091393888
0.061434757 0.33789119 -0.024238303
0.06015509 0.3007755 -0.056230113
0.058927808 0.26517519 -0.08691214
0.057749603 0.23099841 -0.11636733
0.056617435 0.19816111 -0.14467144
0.055528954 0.16658688 -0.1718836
0.054481391 0.13620348 -0.1980726
0.053472765 0.10694554 -0.22328834
0.052500796 0.078751266 -0.24758738
0.051563408 0.051563464 -0.27102211
0.050659031 0.025329545 -0.29363161
0.049785711 2.9802322e-08 -0.31546453
0.048942108 -0.02447103 -0.33655471
0.048126612 -0.048126563 -0.35694206
0.047337748 -0.071006611 -0.37666366
0.047715828 -0.095431626 -0.36721158
0.048968866 -0.12242212 -0.33588573
0.050289366 -0.15086809 -0.30287313
0.051683187 -0.18089113 -0.26802769
0.053156335 -0.21262531 -0.23119901
0.054715931 -0.24622159 -0.19220911
0.05636996 -0.28184974 -0.15085845
0.058126941 -0.31969815 -0.10693374
0.059997149 -0.35998282 -0.060178652
0.061991517 -0.4029448 -0.010319427
0.064123034 -0.44886124 0.042968571
0.066406563 -0.49804914 0.10005672
0.068858512 -0.55086797 0.16135533
0.071498707 -0.60773903 0.22736037
0.074349187 -0.6691426 0.29862231
0.077436373 -0.73564541 0.37580204
0.080791369 -0.80791354 0.45967683
0.084449895 -0.88672382 0.55114001
0.088455491 -0.9730103 0.65127993
0.092860393 -1.0678945 0.76140237
0.13123226 1.0936022 0.62709701
0.1273741 1.0189927 0.56279409
0.1237358 0.94864118 0.50215608
0.12030005 0.88220048 0.44489354
0.11704995 0.81934965 0.39072502
0.11397043 0.75980294 0.33939976
0.11104918 0.70331144 0.29071224
0.10827394 0.64964366 0.24445827
0.10563368 0.59859085 0.20045395
0.10311946 0.54997039 0.15855023
0.10072181 0.50360918 0.11858968
0.098433442 0.45935613 0.080450058
0.096246742 0.4170692 0.044005007
0.094154805 0.37661928 0.0091393888
0.092152141 0.33789119 -0.024238303
0.090232633 0.3007755 -0.056230113
0.088391706 0.26517519 -0.08691214
0.086624399 0.23099841 -0.11636733
0.084926151 0.19816111 -0.14467144
0.083293431 0.16658688 -0.1718836
0.081722088 0.13620348 -0.1980726
0.080209143 0.10694554 -0.22328834
0.078751191 0.078751266 -0.24758738
0.077345118 0.051563464 -0.27102211
0.075988546 0.025329545 -0.29363161
0.07467857 2.9802322e-08 -0.31546453
0.073413163 -0.02447103 -0.33655471
0.07218992 -0.048126563 -0.35694206
0.071006618 -0.071006611 -0.37666366
0.071573742 -0.095431626 -0.36721158
0.073453292 -0.12242212 -0.33588573
0.075434051 -0.15086809 -0.30287313
0.077524781 -0.18089113 -0.26802769
0.079734504 -0.21262531 -0.23119901
0.082073897 -0.24622159 -0.19220911
0.084554933 -0.28184974 -0.15085845
0.087190412 -0.31969815 -0.10693374
0.089995719 -0.35998282 -0.060178652
0.092987277 -0.4029448 -0.010319427
0.096184552 -0.44886124 0.042968571
0.099609837 -0.49804914 0.10005672
0.10328776 -0.55086797 0.16135533
0.10724807 -0.60773903 0.22736037
0.11152377 -0.6691426 0.29862231
0.11615456 -0.73564541 0.37580204
0.12118705 -0.80791354 0.45967683
0.12667485 -0.88672382 0.55114001
0.13268323 -0.9730103 0.65127993
0.13929059 -1.0678945 0.76140237
0.17497635 1.0936022 0.62709701
0.16983211 1.0189927 0.56279409
0.16498107 0.94864118 0.50215608
0.16040006 0.88220048 0.44489354
0.1560666 0.81934965 0.39072502
0.15196057 0.75980294 0.33939976
0.14806557 0.70331144 0.29071224
0.14436525 0.64964366 0.24445827
0.14084491 0.59859085 0.20045395
0.13749261 0.54997039 0.15855023
0.13429576 0.50360918 0.11858968
0.13124458 0.45935613 0.080450058
0.12832898 0.4170692 0.044005007
0.12553975 0.37661928 0.0091393888
0.12286951 0.33789119 -0.024238303
0.12031018 0.3007755 -0.056230113
0.11785562 0.26517519 -0.08691214
0.11549921 0.23099841 -0.11636733
0.11323487 0.19816111 -0.14467144
0.11105791 0.16658688 -0.1718836
0.10896278 0.13620348 -0.1980726
0.10694553 0.10694554 -0.22328834
0.10500159 0.078751266 -0.24758738
0.10312682 0.051563464 -0.27102211
0.10131806 0.025329545 -0.29363161
0.099571422 2.9802322e-08 -0.31546453
0.097884215 -0.02447103 -0.33655471
0.096253224 -0.048126563 -0.35694206
0.094675496 -0.071006611 -0.37666366
0.095431656 -0.095431626 -0.36721158
0.097937733 -0.12242212 -0.33588573
0.10057873 -0.15086809 -0.30287313
0.10336637 -0.18089113 -0.26802769
0.10631267 -0.21262531 -0.23119901
0.10943186 -0.24622159 -0.19220911
0.11273992 -0.28184974 -0.15085845
0.11625388 -0.31969815 -0.10693374
0.1199943 -0.35998282 -0.060178652
0.12398303 -0.4029448 -0.010319427
0.12824607 -0.44886124 0.042968571
0.13281313 -0.49804914 0.10005672
0.13771702 -0.55086797 0.16135533
0.14299741 -0.60773903 0.22736037
0.14869837 -0.6691426 0.29862231
0.15487275 -0.73564541 0.37580204
0.16158274 -0.80791354 0.45967683
0.16889979 -0.88672382 0.55114001
0.17691098 -0.9730103 0.65127993
0.18572079 -1.0678945 0.76140237
0.21872044 1.0936022 0.62709701
0.21229015 1.0189927 0.56279409
0.20622633 0.94864118 0.50215608
0.2005001 0.88220048 0.44489354
0.19508325 0.81934965 0.39072502
0.1899507 0.75980294 0.33939976
0.18508196 0.70331144 0.29071224
0.18045656 0.64964366 0.24445827
0.17605613 0.59859085 0.20045395
0.17186576 0.54997039 0.15855023
0.1678697 0.50360918 0.11858968
0.16405573 0.45935613 0.080450058
0.16041124 0.4170692 0.044005007
0.15692468 0.37661928 0.0091393888
0.15358689 0.33789119 -0.024238303
0.15038772 0.3007755 -0.056230113
0.14731951 0.26517519 -0.08691214
0.144374 0.23099841 -0.11636733
0.1415436 0.19816111 -0.14467144
0.13882238 0.16658688 -0.1718836
0.13620348 0.13620348 -0.1980726
0.13368191 0.10694554 -0.22328834
0.13125199 0.078751266 -0.24758738
0.12890853 0.051563464 -0.27102211
0.12664758 0.025329545 -0.29363161
0.12446428 2.9802322e-08 -0.31546453
0.12235526 -0.02447103 -0.33655471
0.12031654 -0.048126563 -0.35694206
0.11834436 -0.071006611 -0.37666366
0.11928958 -0.095431626 -0.36721158
0.12242217 -0.12242212 -0.33588573
0.12572342 -0.15086809 -0.30287313
0.12920797 -0.18089113 -0.26802769
0.13289084 -0.21262531 -0.23119901
0.13678983 -0.24622159 -0.19220911
0.14092489 -0.28184974 -0.15085845
0.14531735 -0.31969815 -0.10693374
0.14999287 -0.35998282 -0.060178652
0.15497878 -0.4029448 -0.010319427
0.16030759 -0.44886124 0.042968571
0.1660164 -0.49804914 0.10005672
0.17214628 -0.55086797 0.16135533
0.17874677 -0.60773903 0.22736037
0.18587296 -0.6691426 0.29862231
0.19359094 -0.73564541 0.37580204
0.2019784 -0.80791354 0.45967683
0.21112473 -0.88672382 0.55114001
0.22113872 -0.9730103 0.65127993
0.23215099 -1.0678945 0.76140237
0.26246452 1.0936022 0.62709701
0.2547482 1.0189927 0.56279409
0.2474716 0.94864118 0.50215608
0.24060011 0.88220048 0.44489354
0.23409989 0.81934965 0.39072502
0.22794086 0.75980294 0.33939976
0.22209835 0.70331144 0.29071224
0.21654788 0.64964366 0.24445827
0.21126737 0.59859085 0.20045395
0.20623893 0.54997039 0.15855023
0.20144363 0.50360918 0.11858968
0.19686688 0.45935613 0.080450058
0.19249348 0.4170692 0.044005007
0.18830961 0.37661928 0.0091393888
0.18430428 0.33789119 -0.024238303
0.18046527 0.3007755 -0.056230113
0.17678341 0.26517519 -0.08691214
0.1732488 0.23099841 -0.11636733
0.1698523 0.19816111 -0.14467144
0.16658686 0.16658688 -0.1718836
0.16344418 0.13620348 -0.1980726
0.16041829 0.10694554 -0.22328834
0.15750238 0.078751266 -0.24758738
0.15469024 0.051563464 -0.27102211
0.15197709 0.025329545 -0.29363161
0.14935714 2.9802322e-08 -0.31546453
0.14682633 -0.02447103 -0.33655471
0.14437984 -0.048126563 -0.35694206
0.14201324 -0.071006611 -0.37666366
0.14314748 -0.095431626 -0.36721158
0.14690658 -0.12242212 -0.33588573
0.1508681 -0.15086809 -0.30287313
0.15504956 -0.18089113 -0.26802769
0.15946901 -0.21262531 -0.23119901
0.16414779 -0.24622159 -0.19220911
0.16910987 -0.28184974 -0.15085845
0.17438082 -0.31969815 -0.10693374
0.17999144 -0.35998282 -0.060178652
0.18597455 -0.4029448 -0.010319427
0.1923691 -0.44886124 0.042968571
0.19921967 -0.49804914 0.10005672
0.20657553 -0.55086797 0.16135533
0.21449614 -0.60773903 0.22736037
0.22304754 -0.6691426 0.29862231
0.23230912 -0.73564541 0.37580204
0.24237409 -0.80791354 0.45967683
0.25334969 -0.88672382 0.55114001
0.26536646 -0.9730103 0.65127993
0.27858117 -1.0678945 0.76140237
0.30620861 1.0936022 0.62709701
0.29720619 1.0189927 0.56279409
0.28871685 0.94864118 0.50215608
0.28070012 0.88220048 0.44489354
0.27311653 0.81934965 0.39072502
0.26593098 0.75980294 0.33939976
0.25911474 0.70331144 0.29071224
0.25263917 0.64964366 0.24445827
0.2464786 0.59859085 0.20045395
0.24061207 0.54997039 0.15855023
0.23501757 0.50360918 0.11858968
0.22967805 0.45935613 0.080450058
0.22457573 0.4170692 0.044005007
0.21969455 0.37661928 0.0091393888
0.21502167 0.33789119 -0.024238303
0.21054281 0.3007755 -0.056230113
0.20624731 0.26517519 -0.08691214
0.20212361 0.23099841 -0.11636733
0.19816104 0.19816111 -0.14467144
0.19435133 0.16658688 -0.1718836
0.19068487 0.13620348 -0.1980726
0.18715467 0.10694554 -0.22328834
0.18375279 0.078751266 -0.24758738
0.18047194 0.051563464 -0.27102211
0.17730661 0.025329545 -0.29363161
0.17424999 2.9802322e-08 -0.31546453
0.17129737 -0.02447103 -0.33655471
0.16844314 -0.048126563 -0.35694206
0.16568211 -0.071006611 -0.37666366
0.1670054 -0.095431626 -0.36721158
0.17139103 -0.12242212 -0.33588573
0.17601278 -0.15086809 -0.30287313
0.18089116 -0.18089113 -0.26802769
0.18604718 -0.21262531 -0.23119901
0.19150576 -0.24622159 -0.19220911
0.19729485 -0.28184974 -0.15085845
0.2034443 -0.31969815 -0.10693374
0.20999002 -0.35998282 -0.060178652
0.21697031 -0.4029448 -0.010319427
0.22443061 -0.44886124 0.042968571
0.23242296 -0.49804914 0.10005672
0.24100478 -0.55086797 0.16135533
0.25024548 -0.60773903 0.22736037
0.26022214 -0.6691426 0.29862231
0.27102733 -0.73564541 0.37580204
0.28276977 -0.80791354 0.45967683
0.29557464 -0.88672382 0.55114001
0.30959421 -0.9730103 0.65127993
0.32501137 -1.0678945 0.76140237
0.3499527 1.0936022 0.62709701
0.33966422 1.0189927 0.56279409
0.32996213 0.94864118 0.50215608
0.32080013 0.88220048 0.44489354
0.31213319 0.81934965 0.39072502
0.30392113 0.75980294 0.33939976
0.29613113 0.70331144 0.29071224
0.2887305 0.64964366 0.24445827
0.28168982 0.59859085 0.20045395
0.27498522 0.54997039 0.15855023
0.26859152 0.50360918 0.11858968
0.26248917 0.45935613 0.080450058
0.25665796 0.4170692 0.044005007
0.2510795 0.37661928 0.0091393888
0.24573903 0.33789119 -0.024238303
0.24062036 0.3007755 -0.056230113
0.23571123 0.26517519 -0.08691214
0.23099841 0.23099841 -0.11636733
0.22646974 0.19816111 -0.14467144
0.22211581 0.16658688 -0.1718836
0.21792556 0.13620348 -0.1980726
0.21389106 0.10694554 -0.22328834
0.21000318 0.078751266 -0.24758738
0.20625363 0.051563464 -0.27102211
0.20263612 0.025329545 -0.29363161
0.19914284 2.9802322e-08 -0.31546453
0.19576843 -0.02447103 -0.33655471
0.19250645 -0.048126563 -0.35694206
0.18935099 -0.071006611 -0.37666366
0.19086331 -0.095431626 -0.36721158
0.19587547 -0.12242212 -0.33588573
0.20115747 -0.15086809 -0.30287313
0.20673275 -0.18089113 -0.26802769
0.21262534 -0.21262531 -0.23119901
0.21886373 -0.24622159 -0.19220911
0.22547984 -0.28184974 -0.15085845
0.23250777 -0.31969815 -0.10693374
0.2399886 -0.35998282 -0.060178652
0.24796607 -0.4029448 -0.010319427
0.25649214 -0.44886124 0.042968571
0.26562625 -0.49804914 0.10005672
0.27543405 -0.55086797 0.16135533
0.28599483 -0.60773903 0.22736037
0.29739675 -0.6691426 0.29862231
0.30974549 -0.73564541 0.37580204
0.32316548 -0.80791354 0.45967683
0.33779958 -0.88672382 0.55114001
0.35382196 -0.9730103 0.65127993
0.37144157 -1.0678945 0.76140237
0.39369678 1.0936022 0.62709701
0.38212225 1.0189927 0.56279409
0.37120742 0.94864118 0.50215608
0.36090016 0.88220048 0.44489354
0.35114983 0.81934965 0.39072502
0.34191126 0.75980294 0.33939976
0.33314753 0.70331144 0.29071224
0.32482183 0.64964366 0.24445827
0.31690103 0.59859085 0.20045395
0.30935839 0.54997039 0.15855023
0.30216545 0.50360918 0.11858968
0.29530033 0.45935613 0.080450058
0.28874025 0.4170692 0.044005007
0.28246441 0.37661928 0.0091393888
0.27645642 0.33789119 -0.024238303
0.27069792 0.3007755 -0.056230113
0.26517513 0.26517519 -0.08691214
0.25987321 0.23099841 -0.11636733
0.25477844 0.19816111 -0.14467144
0.24988028 0.16658688 -0.1718836
0.24516627 0.13620348 -0.1980726
0.24062742 0.10694554 -0.22328834
0.23625359 0.078751266 -0.24758738
0.23203534 0.051563464 -0.27102211
0.22796564 0.025329545 -0.29363161
0.2240357 2.9802322e-08 -0.31546453
0.22023949 -0.02447103 -0.33655471
0.21656977 -0.048126563 -0.35694206
0.21301986 -0.071006611 -0.37666366
0.21472122 -0.095431626 -0.36721158
0.22035989 -0.12242212 -0.33588573
0.22630215 -0.15086809 -0.30287313
0.23257434 -0.18089113 -0.26802769
0.23920353 -0.21262531 -0.23119901
0.24622169 -0.24622159 -0.19220911
0.25366482 -0.28184974 -0.15085845
0.26157126 -0.31969815 -0.10693374
0.26998717 -0.35998282 -0.060178652
0.27896181 -0.4029448 -0.010319427
0.28855366 -0.44886124 0.042968571
0.29882953 -0.49804914 0.10005672
0.30986327 -0.55086797 0.16135533
0.3217442 -0.60773903 0.22736037
0.33457133 -0.6691426 0.29862231
0.34846368 -0.73564541 0.37580204
0.36356115 -0.80791354 0.45967683
0.38002455 -0.88672382 0.55114001
0.39804971 -0.9730103 0.65127993
0.41787177 -1.0678945 0.76140237
0.43744087 1.0936022 0.62709701
0.42458031 1.0189927 0.56279409
0.41245267 0.94864118 0.50215608
0.4010002 0.88220048 0.44489354
0.39016649 0.81934965 0.39072502
0.37990141 0.75980294 0.33939976
0.37016392 0.70331144 0.29071224
0.36091313 0.64964366 0.24445827
0.35211226 0.59859085 0.20045395
0.34373152 0.54997039 0.15855023
0.3357394 0.50360918 0.11858968
0.32811147 0.45935613 0.080450058
0.32082248 0.4170692 0.044005007
0.31384936 0.37661928 0.0091393888
0.30717379 0.33789119 -0.024238303
0.30077544 0.3007755 -0.056230113
0.29463902 0.26517519 -0.08691214
0.288748 0.23099841 -0.11636733
0.28308719 0.19816111 -0.14467144
0.27764475 0.16658688 -0.1718836
0.27240697 0.13620348 -0.1980726
0.26736382 0.10694554 -0.22328834
0.26250398 0.078751266 -0.24758738
0.25781706 0.051563464 -0.27102211
0.25329515 0.025329545 -0.29363161
0.24892856 2.9802322e-08 -0.31546453
0.24471052 -0.02447103 -0.33655471
0.24063307 -0.048126563 -0.35694206
0.23668872 -0.071006611 -0.37666366
0.23857915 -0.095431626 -0.36721158
0.24484433 -0.12242212 -0.33588573
0.25144684 -0.15086809 -0.30287313
0.25841594 -0.18089113 -0.26802769
0.26578167 -0.21262531 -0.23119901
0.27357966 -0.24622159 -0.19220911
0.28184977 -0.28184974 -0.15085845
0.29063469 -0.31969815 -0.10693374
0.29998574 -0.35998282 -0.060178652
0.30995756 -0.4029448 -0.010319427
0.32061517 -0.44886124 0.042968571
0.3320328 -0.49804914 0.10005672
0.34429255 -0.55086797 0.16135533
0.35749355 -0.60773903 0.22736037
0.37174591 -0.6691426 0.29862231
0.38718188 -0.73564541 0.37580204
0.4039568 -0.80791354 0.45967683
0.42224947 -0.88672382 0.55114001
0.44227743 -0.9730103 0.65127993
0.46430197 -1.0678945 0.76140237
0.48118496 1.0936022 0.62709701
0.46703833 1.0189927 0.56279409
0.45369792 0.94864118 0.50215608
0.44110018 0.88220048 0.44489354
0.42918316 0.81934965 0.39072502
0.41789153 0.75980294 0.33939976
0.40718031 0.70331144 0.29071224
0.39700443 0.64964366 0.24445827
0.3873235 0.59859085 0.20045395
0.37810469 0.54997039 0.15855023
0.36931333 0.50360918 0.11858968
0.36092263 0.45935613 0.080450058
0.35290474 0.4170692 0.044005007
0.3452343 0.37661928 0.0091393888
0.33789119 0.33789119 -0.024238303
0.33085302 0.3007755 -0.056230113
0.32410294 0.26517519 -0.08691214
0.31762281 0.23099841 -0.11636733
0.31139588 0.19816111 -0.14467144
0.30540925 0.16658688 -0.1718836
0.29964766 0.13620348 -0.1980726
0.29410017 0.10694554 -0.22328834
0.28875437 0.078751266 -0.24758738
0.28359875 0.051563464 -0.27102211
0.27862468 0.025329545 -0.29363161
