# .PCD v0.7 - Point Cloud Data file format
VERSION 0.7
FIELDS x y z
SIZE 4 4 4
TYPE F F F
COUNT 1 1 1
WIDTH 1372
HEIGHT 1
VIEWPOINT 0 0 0 1 0 0 0
POINTS 1372
DATA ascii
-0.5629161 0.37527743 0.0035485625
-0.55822492 0.34113747 -0.0094826967
-0.55360955 0.30756095 -0.022302911
-0.54906994 0.27453494 -0.03491307
-0.54460418 0.24204636 -0.04731793
-0.54021198 0.21008249 -0.059518456
-0.53588861 0.17862958 -0.071527883
-0.53163379 0.14767614 -0.083346792
-0.52744609 0.11721029 -0.094979286
-0.52332526 0.087220944 -0.10642605
-0.5192669 0.057696261 -0.11769933
-0.51527095 0.028626196 -0.12879901
-0.51133615 -7.4505806e-09 -0.13972932
-0.50746089 -0.028192192 -0.15049376
-0.5036453 -0.055960517 -0.16109267
-0.49988532 -0.083314151 -0.17153697
-0.4961811 -0.11026245 -0.18182653
-0.49253133 -0.13681419 -0.19196464
-0.48893619 -0.16297866 -0.20195135
-0.48539183 -0.18876348 -0.21179666
-0.48189852 -0.21417707 -0.22150023
-0.47845516 -0.23922749 -0.2310652
-0.47506183 -0.26392323 -0.24049117
-0.47171512 -0.28827024 -0.24978761
-0.46841526 -0.31227681 -0.2589539
-0.4651612 -0.33594969 -0.26799291
-0.46195203 -0.35929596 -0.27690727
-0.45878798 -0.38232335 -0.28569618
-0.45566592 -0.40503621 -0.29436877
-0.452586 -0.42744225 -0.30292407
-0.44954747 -0.44954744 -0.31136438
-0.61426133 1.0117247 0.24654371
-0.60835224 0.96620655 0.22916409
-0.60255575 0.92155594 0.21211565
-0.59686875 0.87774807 0.19538885
-0.59128994 0.83476228 0.17898068
-0.58581263 0.79256999 0.16287082
-0.58043581 0.75115222 0.1470567
-0.57515681 0.71048784 0.13153023
-0.56997478 0.67055851 0.11628893
-0.56488347 0.63134032 0.10131454
-0.55988234 0.59281665 0.086605489
-0.55496895 0.55496907 0.072154462
-0.55014116 0.51777995 0.057954863
-0.54539824 0.48123372 0.044004977
-0.54073471 0.44531095 0.03028892
-0.53615034 0.40999734 0.016805425
-0.53164303 0.37527743 0.0035485625
-0.52721238 0.34113747 -0.0094826967
-0.52285349 0.30756095 -0.022302911
-0.51856607 0.27453494 -0.03491307
-0.51434839 0.24204636 -0.04731793
-0.5102002 0.21008249 -0.059518456
-0.50611699 0.17862958 -0.071527883
-0.50209856 0.14767614 -0.083346792
-0.49814349 0.11721029 -0.094979286
-0.49425161 0.087220944 -0.10642605
-0.49041873 0.057696261 -0.11769933
-0.48664483 0.028626196 -0.12879901
-0.48292854 -7.4505806e-09 -0.13972932
-0.47926864 -0.028192192 -0.15049376
-0.475665 -0.055960517 -0.16109267
-0.47211394 -0.083314151 -0.17153697
-0.46861547 -0.11026245 -0.18182653
-0.46516848 -0.13681419 -0.19196464
-0.46177304 -0.16297866 -0.20195135
-0.45842564 -0.18876348 -0.21179666
-0.4551264 -0.21417707 -0.22150023
-0.45187429 -0.23922749 -0.2310652
-0.44866949 -0.26392323 -0.24049117
-0.44550872 -0.28827024 -0.24978761
-0.44239214 -0.31227681 -0.2589539
-0.4393189 -0.33594969 -0.26799291
-0.43628806 -0.35929596 -0.27690727
-0.43329975 -0.38232335 -0.28569618
-0.43035111 -0.40503621 -0.29436877
-0.42744231 -0.42744225 -0.30292407
-0.42457262 -0.44954744 -0.31136438
-0.57812834 1.0117247 0.24654371
-0.57256687 0.96620655 0.22916409
-0.56711131 0.92155594 0.21211565
-0.56175882 0.87774807 0.19538885
-0.55650818 0.83476228 0.17898068
-0.55135304 0.79256999 0.16287082
-0.54629254 0.75115222 0.1470567
-0.54132402 0.71048784 0.13153023
-0.53644681 0.67055851 0.11628893
-0.53165501 0.63134032 0.10131454
-0.52694809 0.59281665 0.086605489
-0.52232373 0.55496907 0.072154462
-0.51777989 0.51777995 0.057954863
-0.51331592 0.48123372 0.044004977
-0.50892681 0.44531095 0.03028892
-0.50461209 0.40999734 0.016805425
-0.50036991 0.37527743 0.0035485625
-0.49619988 0.34113747 -0.0094826967
-0.49209738 0.30756095 -0.022302911
-0.48806214 0.27453494 -0.03491307
-0.48409259 0.24204636 -0.04731793
-0.48018843 0.21008249 -0.059518456
-0.47634539 0.17862958 -0.071527883
-0.47256339 0.14767614 -0.083346792
-0.46884099 0.11721029 -0.094979286
-0.46517801 0.087220944 -0.10642605
-0.46157056 0.057696261 -0.11769933
-0.45801866 0.028626196 -0.12879901
-0.45452097 -7.4505806e-09 -0.13972932
-0.45107636 -0.028192192 -0.15049376
-0.44768471 -0.055960517 -0.16109267
-0.44434252 -0.083314151 -0.17153697
-0.44104987 -0.11026245 -0.18182653
-0.43780562 -0.13681419 -0.19196464
-0.43460992 -0.16297866 -0.20195135
-0.43145943 -0.18876348 -0.21179666
-0.42835426 -0.21417707 -0.22150023
-0.42529351 -0.23922749 -0.2310652
-0.42227718 -0.26392323 -0.24049117
-0.41930234 -0.28827024 -0.24978761
-0.41636908 -0.31227681 -0.2589539
-0.41347662 -0.33594969 -0.26799291
-0.41062403 -0.35929596 -0.27690727
-0.40781155 -0.38232335 -0.28569618
-0.40503636 -0.40503621 -0.29436877
-0.40229869 -0.42744225 -0.30292407
-0.39959773 -0.44954744 -0.31136438
-0.54199529 1.0117247 0.24654371
-0.53678137 0.96620655 0.22916409
-0.53166687 0.92155594 0.21211565
-0.52664888 0.87774807 0.19538885
-0.52172643 0.83476228 0.17898068
-0.51689351 0.79256999 0.16287082
-0.51214921 0.75115222 0.1470567
-0.50749129 0.71048784 0.13153023
-0.5029189 0.67055851 0.11628893
-0.49842662 0.63134032 0.10131454
-0.49401385 0.59281665 0.086605489
-0.48967853 0.55496907 0.072154462
-0.48541868 0.51777995 0.057954863
-0.48123372 0.48123372 0.044004977
-0.47711888 0.44531095 0.03028892
-0.47307384 0.40999734 0.016805425
-0.46909675 0.37527743 0.0035485625
-0.4651874 0.34113747 -0.0094826967
-0.46134129 0.30756095 -0.022302911
-0.45755827 0.27453494 -0.03491307
-0.4538368 0.24204636 -0.04731793
-0.45017666 0.21008249 -0.059518456
-0.44657379 0.17862958 -0.071527883
-0.44302818 0.14767614 -0.083346792
-0.43953839 0.11721029 -0.094979286
-0.43610436 0.087220944 -0.10642605
-0.43272239 0.057696261 -0.11769933
-0.42939252 0.028626196 -0.12879901
-0.42611346 -7.4505806e-09 -0.13972932
-0.42288405 -0.028192192 -0.15049376
-0.41970441 -0.055960517 -0.16109267
-0.41657114 -0.083314151 -0.17153697
-0.41348428 -0.11026245 -0.18182653
-0.41044277 -0.13681419 -0.19196464
-0.40744677 -0.16297866 -0.20195135
-0.40449321 -0.18876348 -0.21179666
-0.40158212 -0.21417707 -0.22150023
-0.39871264 -0.23922749 -0.2310652
-0.39588484 -0.26392323 -0.24049117
-0.39309594 -0.28827024 -0.24978761
-0.39034602 -0.31227681 -0.2589539
-0.38763431 -0.33594969 -0.26799291
-0.38496003 -0.35929596 -0.27690727
-0.38232332 -0.38232335 -0.28569618
-0.37972158 -0.40503621 -0.29436877
-0.37715501 -0.42744225 -0.30292407
-0.37462288 -0.44954744 -0.31136438
-0.50586224 1.0117247 0.24654371
-0.50099599 0.96620655 0.22916409
-0.49622241 0.92155594 0.21211565
-0.49153894 0.87774807 0.19538885
-0.48694468 0.83476228 0.17898068
-0.48243389 0.79256999 0.16287082
-0.47800598 0.75115222 0.1470567
-0.47365853 0.71048784 0.13153023
-0.46939099 0.67055851 0.11628893
-0.46519813 0.63134032 0.10131454
-0.46107957 0.59281665 0.086605489
-0.45703331 0.55496907 0.072154462
-0.45305744 0.51777995 0.057954863
-0.44915146 0.48123372 0.044004977
-0.44531095 0.44531095 0.03028892
-0.44153556 0.40999734 0.016805425
-0.43782365 0.37527743 0.0035485625
-0.43417493 0.34113747 -0.0094826967
-0.43058521 0.30756095 -0.022302911
-0.42705441 0.27453494 -0.03491307
-0.423581 0.24204636 -0.04731793
-0.42016485 0.21008249 -0.059518456
-0.41680223 0.17862958 -0.071527883
-0.41349295 0.14767614 -0.083346792
-0.41023585 0.11721029 -0.094979286
-0.40703076 0.087220944 -0.10642605
-0.40387425 0.057696261 -0.11769933
-0.40076631 0.028626196 -0.12879901
-0.39770588 -7.4505806e-09 -0.13972932
-0.39469182 -0.028192192 -0.15049376
-0.39172411 -0.055960517 -0.16109267
-0.3887997 -0.083314151 -0.17153697
-0.38591862 -0.11026245 -0.18182653
-0.38307995 -0.13681419 -0.19196464
-0.38028368 -0.16297866 -0.20195135
-0.377527 -0.18876348 -0.21179666
-0.37480998 -0.21417707 -0.22150023
-0.37213179 -0.23922749 -0.2310652
-0.36949253 -0.26392323 -0.24049117
-0.36688954 -0.28827024 -0.24978761
-0.36432296 -0.31227681 -0.2589539
-0.36179203 -0.33594969 -0.26799291
-0.35929605 -0.35929596 -0.27690727
-0.3568351 -0.38232335 -0.28569618
-0.3544068 -0.40503621 -0.29436877
-0.35201135 -0.42744225 -0.30292407
-0.34964803 -0.44954744 -0.31136438
-0.46972927 1.0117247 0.24654371
-0.46521053 0.96620655 0.22916409
-0.46077797 0.92155594 0.21211565
-0.45642903 0.87774807 0.19538885
-0.45216289 0.83476228 0.17898068
-0.44797432 0.79256999 0.16287082
-0.44386265 0.75115222 0.1470567
-0.43982577 0.71048784 0.13153023
-0.43586305 0.67055851 0.11628893
-0.43196973 0.63134032 0.10131454
-0.42814532 0.59281665 0.086605489
-0.42438805 0.55496907 0.072154462
-0.42069614 0.51777995 0.057954863
-0.41706923 0.48123372 0.044004977
-0.41350305 0.44531095 0.03028892
-0.40999728 0.40999734 0.016805425
-0.40655056 0.37527743 0.0035485625
-0.40316242 0.34113747 -0.0094826967
-0.39982912 0.30756095 -0.022302911
-0.39655054 0.27453494 -0.03491307
-0.39332524 0.24204636 -0.04731793
-0.39015311 0.21008249 -0.059518456
-0.38703063 0.17862958 -0.071527883
-0.38395777 0.14767614 -0.083346792
-0.38093328 0.11721029 -0.094979286
-0.37795714 0.087220944 -0.10642605
-0.37502608 0.057696261 -0.11769933
-0.37214017 0.028626196 -0.12879901
-0.36929831 -7.4505806e-09 -0.13972932
-0.36649954 -0.028192192 -0.15049376
-0.36374381 -0.055960517 -0.16109267
-0.36102831 -0.083314151 -0.17153697
-0.35835302 -0.11026245 -0.18182653
-0.35571709 -0.13681419 -0.19196464
-0.35312057 -0.16297866 -0.20195135
-0.35056075 -0.18876348 -0.21179666
-0.34803784 -0.21417707 -0.22150023
-0.34555095 -0.23922749 -0.2310652
-0.34310022 -0.26392323 -0.24049117
-0.34068313 -0.28827024 -0.24978761
-0.33829987 -0.31227681 -0.2589539
-0.33594975 -0.33594969 -0.26799291
-0.33363205 -0.35929596 -0.27690727
-0.33134687 -0.38232335 -0.28569618
-0.32909206 -0.40503621 -0.29436877
-0.32686767 -0.42744225 -0.30292407
-0.32467315 -0.44954744 -0.31136438
-0.43359622 1.0117247 0.24654371
-0.42942512 0.96620655 0.22916409
-0.42533347 0.92155594 0.21211565
-0.4213191 0.87774807 0.19538885
-0.41738114 0.83476228 0.17898068
-0.41351476 0.79256999 0.16287082
-0.40971935 0.75115222 0.1470567
-0.40599304 0.71048784 0.13153023
-0.40233511 0.67055851 0.11628893
-0.39874128 0.63134032 0.10131454
-0.39521107 0.59281665 0.086605489
-0.39174283 0.55496907 0.072154462
-0.38833493 0.51777995 0.057954863
-0.38498697 0.48123372 0.044004977
-0.38169512 0.44531095 0.03028892
-0.37845904 0.40999734 0.016805425
-0.37527743 0.37527743 0.0035485625
-0.37214991 0.34113747 -0.0094826967
-0.36907306 0.30756095 -0.022302911
-0.36604664 0.27453494 -0.03491307
-0.36306944 0.24204636 -0.04731793
-0.36014134 0.21008249 -0.059518456
-0.35725906 0.17862958 -0.071527883
-0.35442254 0.14767614 -0.083346792
-0.35163072 0.11721029 -0.094979286
-0.34888351 0.087220944 -0.10642605
-0.34617794 0.057696261 -0.11769933
-0.343514 0.028626196 -0.12879901
-0.34089074 -7.4505806e-09 -0.13972932
-0.33830726 -0.028192192 -0.15049376
-0.33576354 -0.055960517 -0.16109267
-0.33325687 -0.083314151 -0.17153697
-0.33078739 -0.11026245 -0.18182653
-0.32835424 -0.13681419 -0.19196464
-0.32595745 -0.16297866 -0.20195135
-0.32359457 -0.18876348 -0.21179666
-0.3212657 -0.21417707 -0.22150023
-0.31897008 -0.23922749 -0.2310652
-0.31670788 -0.26392323 -0.24049117
-0.31447676 -0.28827024 -0.24978761
-0.31227681 -0.31227681 -0.2589539
-0.31010744 -0.33594969 -0.26799291
-0.30796805 -0.35929596 -0.27690727
-0.30585867 -0.38232335 -0.28569618
-0.30377728 -0.40503621 -0.29436877
-0.30172402 -0.42744225 -0.30292407
-0.29969829 -0.44954744 -0.31136438
-0.39746323 1.0117247 0.24654371
-0.39363968 0.96620655 0.22916409
-0.38988903 0.92155594 0.21211565
-0.38620919 0.87774807 0.19538885
-0.38259938 0.83476228 0.17898068
-0.3790552 0.79256999 0.16287082
-0.37557611 0.75115222 0.1470567
-0.37216026 0.71048784 0.13153023
-0.36880717 0.67055851 0.11628893
-0.36551282 0.63134032 0.10131454
-0.36227682 0.59281665 0.086605489
-0.35909757 0.55496907 0.072154462
-0.35597369 0.51777995 0.057954863
-0.35290474 0.48123372 0.044004977
-0.34988719 0.44531095 0.03028892
-0.34692079 0.40999734 0.016805425
-0.3440043 0.37527743 0.0035485625
-0.34113744 0.34113747 -0.0094826967
-0.33831698 0.30756095 -0.022302911
-0.33554274 0.27453494 -0.03491307
-0.33281368 0.24204636 -0.04731793
-0.33012953 0.21008249 -0.059518456
-0.32748747 0.17862958 -0.071527883
-0.32488734 0.14767614 -0.083346792
-0.32232815 0.11721029 -0.094979286
-0.31980985 0.087220944 -0.10642605
-0.31732976 0.057696261 -0.11769933
-0.31488782 0.028626196 -0.12879901
-0.31248319 -7.4505806e-09 -0.13972932
-0.31011498 -0.028192192 -0.15049376
-0.30778325 -0.055960517 -0.16109267
-0.30548549 -0.083314151 -0.17153697
-0.30322176 -0.11026245 -0.18182653
-0.30099139 -0.13681419 -0.19196464
-0.29879433 -0.16297866 -0.20195135
-0.29662836 -0.18876348 -0.21179666
-0.29449356 -0.21417707 -0.22150023
-0.29238927 -0.23922749 -0.2310652
-0.29031557 -0.26392323 -0.24049117
-0.28827035 -0.28827024 -0.24978761
-0.28625375 -0.31227681 -0.2589539
-0.28426516 -0.33594969 -0.26799291
-0.28230405 -0.35929596 -0.27690727
-0.28037044 -0.38232335 -0.28569618
-0.2784625 -0.40503621 -0.29436877
-0.27658033 -0.42744225 -0.30292407
-0.27472347 -0.44954744 -0.31136438
-0.36133021 1.0117247 0.24654371
-0.35785428 0.96620655 0.22916409
-0.35444456 0.92155594 0.21211565
-0.35109925 0.87774807 0.19538885
-0.34781763 0.83476228 0.17898068
-0.34459567 0.79256999 0.16287082
-0.34143281 0.75115222 0.1470567
-0.33832753 0.71048784 0.13153023
-0.33527926 0.67055851 0.11628893
-0.33228439 0.63134032 0.10131454
-0.32934254 0.59281665 0.086605489
-0.32645234 0.55496907 0.072154462
-0.32361242 0.51777995 0.057954863
-0.32082248 0.48123372 0.044004977
-0.31807926 0.44531095 0.03028892
-0.31538254 0.40999734 0.016805425
-0.31273118 0.37527743 0.0035485625
-0.31012493 0.34113747 -0.0094826967
-0.30756086 0.30756095 -0.022302911
-0.30503887 0.27453494 -0.03491307
-0.30255789 0.24204636 -0.04731793
-0.30011779 0.21008249 -0.059518456
-0.29771587 0.17862958 -0.071527883
-0.2953521 0.14767614 -0.083346792
-0.29302561 0.11721029 -0.094979286
-0.29073626 0.087220944 -0.10642605
-0.28848162 0.057696261 -0.11769933
-0.28626168 0.028626196 -0.12879901
-0.28407562 -7.4505806e-09 -0.13972932
-0.2819227 -0.028192192 -0.15049376
-0.27980295 -0.055960517 -0.16109267
-0.27771407 -0.083314151 -0.17153697
-0.27565616 -0.11026245 -0.18182653
-0.27362853 -0.13681419 -0.19196464
-0.27163121 -0.16297866 -0.20195135
-0.26966214 -0.18876348 -0.21179666
-0.26772141 -0.21417707 -0.22150023
-0.26580843 -0.23922749 -0.2310652
-0.26392323 -0.26392323 -0.24049117
-0.26206395 -0.28827024 -0.24978761
-0.26023069 -0.31227681 -0.2589539
-0.25842288 -0.33594969 -0.26799291
-0.25664002 -0.35929596 -0.27690727
-0.25488222 -0.38232335 -0.28569618
-0.25314772 -0.40503621 -0.29436877
-0.25143668 -0.42744225 -0.30292407
-0.2497486 -0.44954744 -0.31136438
-0.32519719 1.0117247 0.24654371
-0.32206884 0.96620655 0.22916409
-0.3190001 0.92155594 0.21211565
-0.31598932 0.87774807 0.19538885
-0.31303588 0.83476228 0.17898068
-0.31013608 0.79256999 0.16287082
-0.30728954 0.75115222 0.1470567
-0.30449477 0.71048784 0.13153023
-0.30175132 0.67055851 0.11628893
-0.29905596 0.63134032 0.10131454
-0.2964083 0.59281665 0.086605489
-0.29380712 0.55496907 0.072154462
-0.29125118 0.51777995 0.057954863
-0.28874025 0.48123372 0.044004977
-0.28627133 0.44531095 0.03028892
-0.28384429 0.40999734 0.016805425
-0.28145805 0.37527743 0.0035485625
-0.27911246 0.34113747 -0.0094826967
-0.27680477 0.30756095 -0.022302911
-0.27453497 0.27453494 -0.03491307
-0.27230209 0.24204636 -0.04731793
-0.27010599 0.21008249 -0.059518456
-0.26794431 0.17862958 -0.071527883
-0.2658169 0.14767614 -0.083346792
-0.26372305 0.11721029 -0.094979286
-0.26166263 0.087220944 -0.10642605
-0.25963345 0.057696261 -0.11769933
-0.25763547 0.028626196 -0.12879901
-0.25566807 -7.4505806e-09 -0.13972932
-0.25373045 -0.028192192 -0.15049376
-0.25182265 -0.055960517 -0.16109267
-0.24994266 -0.083314151 -0.17153697
-0.24809055 -0.11026245 -0.18182653
-0.24626566 -0.13681419 -0.19196464
-0.24446809 -0.16297866 -0.20195135
-0.24269591 -0.18876348 -0.21179666
-0.24094926 -0.21417707 -0.22150023
-0.23922758 -0.23922749 -0.2310652
-0.23753092 -0.26392323 -0.24049117
-0.23585756 -0.28827024 -0.24978761
-0.23420763 -0.31227681 -0.2589539
-0.2325806 -0.33594969 -0.26799291
-0.23097602 -0.35929596 -0.27690727
-0.22939399 -0.38232335 -0.28569618
-0.22783296 -0.40503621 -0.29436877
-0.226293 -0.42744225 -0.30292407
-0.22477373 -0.44954744 -0.31136438
-0.28906417 1.0117247 0.24654371
-0.28628343 0.96620655 0.22916409
-0.28355566 0.92155594 0.21211565
-0.28087941 0.87774807 0.19538885
-0.27825409 0.83476228 0.17898068
-0.27567652 0.79256999 0.16287082
-0.27314627 0.75115222 0.1470567
-0.27066201 0.71048784 0.13153023
-0.2682234 0.67055851 0.11628893
-0.26582751 0.63134032 0.10131454
-0.26347405 0.59281665 0.086605489
-0.26116186 0.55496907 0.072154462
-0.25888994 0.51777995 0.057954863
-0.25665796 0.48123372 0.044004977
-0.2544634 0.44531095 0.03028892
-0.25230604 0.40999734 0.016805425
-0.25018495 0.37527743 0.0035485625
-0.24809994 0.34113747 -0.0094826967
-0.24604869 0.30756095 -0.022302911
-0.24403107 0.27453494 -0.03491307
-0.2420463 0.24204636 -0.04731793
-0.24009421 0.21008249 -0.059518456
-0.2381727 0.17862958 -0.071527883
-0.23628169 0.14767614 -0.083346792
-0.23442049 0.11721029 -0.094979286
-0.23258901 0.087220944 -0.10642605
-0.23078528 0.057696261 -0.11769933
-0.22900933 0.028626196 -0.12879901
-0.22726049 -7.4505806e-09 -0.13972932
-0.22553818 -0.028192192 -0.15049376
-0.22384235 -0.055960517 -0.16109267
-0.22217126 -0.083314151 -0.17153697
-0.22052494 -0.11026245 -0.18182653
-0.21890281 -0.13681419 -0.19196464
-0.21730496 -0.16297866 -0.20195135
-0.21572971 -0.18876348 -0.21179666
-0.21417713 -0.21417707 -0.22150023
-0.21264675 -0.23922749 -0.2310652
-0.21113859 -0.26392323 -0.24049117
-0.20965117 -0.28827024 -0.24978761
-0.20818454 -0.31227681 -0.2589539
-0.20673831 -0.33594969 -0.26799291
-0.20531201 -0.35929596 -0.27690727
-0.20390578 -0.38232335 -0.28569618
-0.20251818 -0.40503621 -0.29436877
-0.20114934 -0.42744225 -0.30292407
-0.19979887 -0.44954744 -0.31136438
-0.25293112 1.0117247 0.24654371
-0.250498 0.96620655 0.22916409
-0.2481112 0.92155594 0.21211565
-0.24576947 0.87774807 0.19538885
-0.24347234 0.83476228 0.17898068
-0.24121694 0.79256999 0.16287082
-0.23900299 0.75115222 0.1470567
-0.23682927 0.71048784 0.13153023
-0.23469549 0.67055851 0.11628893
-0.23259906 0.63134032 0.10131454
-0.23053978 0.59281665 0.086605489
-0.22851665 0.55496907 0.072154462
-0.22652872 0.51777995 0.057954863
-0.22457573 0.48123372 0.044004977
-0.22265548 0.44531095 0.03028892
-0.22076778 0.40999734 0.016805425
-0.21891183 0.37527743 0.0035485625
-0.21708746 0.34113747 -0.0094826967
-0.2152926 0.30756095 -0.022302911
-0.2135272 0.27453494 -0.03491307
-0.2117905 0.24204636 -0.04731793
-0.21008243 0.21008249 -0.059518456
-0.20840111 0.17862958 -0.071527883
-0.20674647 0.14767614 -0.083346792
-0.20511793 0.11721029 -0.094979286
-0.20351538 0.087220944 -0.10642605
-0.20193712 0.057696261 -0.11769933
-0.20038316 0.028626196 -0.12879901
-0.19885294 -7.4505806e-09 -0.13972932
-0.19734591 -0.028192192 -0.15049376
-0.19586205 -0.055960517 -0.16109267
-0.19439985 -0.083314151 -0.17153697
-0.19295931 -0.11026245 -0.18182653
-0.19153997 -0.13681419 -0.19196464
-0.19014184 -0.16297866 -0.20195135
-0.1887635 -0.18876348 -0.21179666
-0.18740499 -0.21417707 -0.22150023
-0.1860659 -0.23922749 -0.2310652
-0.18474627 -0.26392323 -0.24049117
-0.18344477 -0.28827024 -0.24978761
-0.18216148 -0.31227681 -0.2589539
-0.18089601 -0.33594969 -0.26799291
-0.17964803 -0.35929596 -0.27690727
-0.17841755 -0.38232335 -0.28569618
-0.1772034 -0.40503621 -0.29436877
-0.17600568 -0.42744225 -0.30292407
-0.17482401 -0.44954744 -0.31136438
-0.21679811 1.0117247 0.24654371
-0.21471256 0.96620655 0.22916409
-0.21266674 0.92155594 0.21211565
-0.21065955 0.87774807 0.19538885
-0.20869057 0.83476228 0.17898068
-0.20675738 0.79256999 0.16287082
-0.20485967 0.75115222 0.1470567
-0.20299652 0.71048784 0.13153023
-0.20116755 0.67055851 0.11628893
-0.19937064 0.63134032 0.10131454
-0.19760554 0.59281665 0.086605489
-0.19587141 0.55496907 0.072154462
-0.19416746 0.51777995 0.057954863
-0.19249348 0.48123372 0.044004977
-0.19084756 0.44531095 0.03028892
-0.18922952 0.40999734 0.016805425
-0.18763871 0.37527743 0.0035485625
-0.18607496 0.34113747 -0.0094826967
-0.18453653 0.30756095 -0.022302911
-0.18302332 0.27453494 -0.03491307
-0.18153472 0.24204636 -0.04731793
-0.18007067 0.21008249 -0.059518456
-0.17862953 0.17862958 -0.071527883
-0.17721127 0.14767614 -0.083346792
-0.17581536 0.11721029 -0.094979286
-0.17444175 0.087220944 -0.10642605
-0.17308897 0.057696261 -0.11769933
-0.171757 0.028626196 -0.12879901
-0.17044537 -7.4505806e-09 -0.13972932
-0.16915363 -0.028192192 -0.15049376
-0.16788177 -0.055960517 -0.16109267
-0.16662844 -0.083314151 -0.17153697
-0.1653937 -0.11026245 -0.18182653
-0.16417712 -0.13681419 -0.19196464
-0.16297872 -0.16297866 -0.20195135
-0.16179729 -0.18876348 -0.21179666
-0.16063285 -0.21417707 -0.22150023
-0.15948504 -0.23922749 -0.2310652
-0.15835394 -0.26392323 -0.24049117
-0.15723838 -0.28827024 -0.24978761
-0.15613841 -0.31227681 -0.2589539
-0.15505372 -0.33594969 -0.26799291
-0.15398403 -0.35929596 -0.27690727
-0.15292934 -0.38232335 -0.28569618
-0.15188864 -0.40503621 -0.29436877
-0.15086201 -0.42744225 -0.30292407
-0.14984915 -0.44954744 -0.31136438
-0.18066511 1.0117247 0.24654371
-0.17892714 0.96620655 0.22916409
-0.17722228 0.92155594 0.21211565
-0.17554963 0.87774807 0.19538885
-0.17390881 0.83476228 0.17898068
-0.17229784 0.79256999 0.16287082
-0.1707164 0.75115222 0.1470567
-0.16916376 0.71048784 0.13153023
-0.16763963 0.67055851 0.11628893
-0.1661422 0.63134032 0.10131454
-0.16467127 0.59281665 0.086605489
-0.16322617 0.55496907 0.072154462
-0.16180621 0.51777995 0.057954863
-0.16041124 0.48123372 0.044004977
-0.15903963 0.44531095 0.03028892
-0.15769127 0.40999734 0.016805425
-0.15636559 0.37527743 0.0035485625
-0.15506247 0.34113747 -0.0094826967
-0.15378043 0.30756095 -0.022302911
-0.15251943 0.27453494 -0.03491307
-0.15127894 0.24204636 -0.04731793
-0.1500589 0.21008249 -0.059518456
-0.14885794 0.17862958 -0.071527883
-0.14767605 0.14767614 -0.083346792
-0.14651281 0.11721029 -0.094979286
-0.14536813 0.087220944 -0.10642605
-0.14424081 0.057696261 -0.11769933
-0.14313084 0.028626196 -0.12879901
-0.14203781 -7.4505806e-09 -0.13972932
-0.14096135 -0.028192192 -0.15049376
-0.13990147 -0.055960517 -0.16109267
-0.13885704 -0.083314151 -0.17153697
-0.13782808 -0.11026245 -0.18182653
-0.13681427 -0.13681419 -0.19196464
-0.13581561 -0.16297866 -0.20195135
-0.13483107 -0.18876348 -0.21179666
-0.13386071 -0.21417707 -0.22150023
-0.13290422 -0.23922749 -0.2310652
-0.13196161 -0.26392323 -0.24049117
-0.13103198 -0.28827024 -0.24978761
-0.13011535 -0.31227681 -0.2589539
-0.12921144 -0.33594969 -0.26799291
-0.12832001 -0.35929596 -0.27690727
-0.12744111 -0.38232335 -0.28569618
-0.12657386 -0.40503621 -0.29436877
-0.12571834 -0.42744225 -0.30292407
-0.1248743 -0.44954744 -0.31136438
-0.14453208 1.0117247 0.24654371
-0.14314172 0.96620655 0.22916409
-0.14177783 0.92155594 0.21211565
-0.1404397 0.87774807 0.19538885
-0.13912705 0.83476228 0.17898068
-0.13783826 0.79256999 0.16287082
-0.13657314 0.75115222 0.1470567
-0.135331 0.71048784 0.13153023
-0.1341117 0.67055851 0.11628893
-0.13291375 0.63134032 0.10131454
-0.13173702 0.59281665 0.086605489
-0.13058093 0.55496907 0.072154462
-0.12944497 0.51777995 0.057954863
-0.12832898 0.48123372 0.044004977
-0.1272317 0.44531095 0.03028892
-0.12615302 0.40999734 0.016805425
-0.12509248 0.37527743 0.0035485625
-0.12404997 0.34113747 -0.0094826967
-0.12302434 0.30756095 -0.022302911
-0.12201554 0.27453494 -0.03491307
-0.12102315 0.24204636 -0.04731793
-0.12004711 0.21008249 -0.059518456
-0.11908635 0.17862958 -0.071527883
-0.11814085 0.14767614 -0.083346792
-0.11721025 0.11721029 -0.094979286
-0.1162945 0.087220944 -0.10642605
-0.11539264 0.057696261 -0.11769933
-0.11450467 0.028626196 -0.12879901
-0.11363024 -7.4505806e-09 -0.13972932
-0.11276909 -0.028192192 -0.15049376
-0.11192118 -0.055960517 -0.16109267
-0.11108563 -0.083314151 -0.17153697
-0.11026247 -0.11026245 -0.18182653
-0.10945141 -0.13681419 -0.19196464
-0.10865248 -0.16297866 -0.20195135
-0.10786486 -0.18876348 -0.21179666
-0.10708857 -0.21417707 -0.22150023
-0.10632338 -0.23922749 -0.2310652
-0.1055693 -0.26392323 -0.24049117
-0.10482559 -0.28827024 -0.24978761
-0.10409227 -0.31227681 -0.2589539
-0.10336915 -0.33594969 -0.26799291
-0.10265601 -0.35929596 -0.27690727
-0.10195289 -0.38232335 -0.28569618
-0.10125909 -0.40503621 -0.29436877
-0.10057467 -0.42744225 -0.30292407
-0.099899434 -0.44954744 -0.31136438
-0.10839906 1.0117247 0.24654371
-0.10735628 0.96620655 0.22916409
-0.10633337 0.92155594 0.21211565
-0.10532977 0.87774807 0.19538885
-0.10434528 0.83476228 0.17898068
-0.10337869 0.79256999 0.16287082
-0.10242984 0.75115222 0.1470567
-0.10149826 0.71048784 0.13153023
-0.10058378 0.67055851 0.11628893
-0.099685319 0.63134032 0.10131454
-0.098802768 0.59281665 0.086605489
-0.097935706 0.55496907 0.072154462
-0.097083732 0.51777995 0.057954863
-0.096246742 0.48123372 0.044004977
-0.09542378 0.44531095 0.03028892
-0.094614759 0.40999734 0.016805425
-0.093819357 0.37527743 0.0035485625
-0.093037479 0.34113747 -0.0094826967
-0.092268266 0.30756095 -0.022302911
-0.091511659 0.27453494 -0.03491307
-0.090767361 0.24204636 -0.04731793
-0.090035334 0.21008249 -0.059518456
-0.089314766 0.17862958 -0.071527883
-0.088605635 0.14767614 -0.083346792
-0.087907679 0.11721029 -0.094979286
-0.087220877 0.087220944 -0.10642605
-0.086544484 0.057696261 -0.11769933
-0.085878499 0.028626196 -0.12879901
-0.085222684 -7.4505806e-09 -0.13972932
-0.084576815 -0.028192192 -0.15049376
-0.083940886 -0.055960517 -0.16109267
-0.083314218 -0.083314151 -0.17153697
-0.082696848 -0.11026245 -0.18182653
-0.08208856 -0.13681419 -0.19196464
-0.081489362 -0.16297866 -0.20195135
-0.080898643 -0.18876348 -0.21179666
-0.080316424 -0.21417707 -0.22150023
-0.079742521 -0.23922749 -0.2310652
-0.07917697 -0.26392323 -0.24049117
-0.07861919 -0.28827024 -0.24978761
-0.078069203 -0.31227681 -0.2589539
-0.07752686 -0.33594969 -0.26799291
-0.076992013 -0.35929596 -0.27690727
-0.076464668 -0.38232335 -0.28569618
-0.075944319 -0.40503621 -0.29436877
-0.075431004 -0.42744225 -0.30292407
-0.074924573 -0.44954744 -0.31136438
-0.072266042 1.0117247 0.24654371
-0.071570858 0.96620655 0.22916409
-0.070888914 0.92155594 0.21211565
-0.070219852 0.87774807 0.19538885
-0.069563523 0.83476228 0.17898068
-0.06891913 0.79256999 0.16287082
-0.068286568 0.75115222 0.1470567
-0.067665502 0.71048784 0.13153023
-0.067055851 0.67055851 0.11628893
-0.066456877 0.63134032 0.10131454
-0.065868512 0.59281665 0.086605489
-0.065290466 0.55496907 0.072154462
-0.064722486 0.51777995 0.057954863
-0.06416449 0.48123372 0.044004977
-0.063615851 0.44531095 0.03028892
-0.063076511 0.40999734 0.016805425
-0.062546238 0.37527743 0.0035485625
-0.062024985 0.34113747 -0.0094826967
-0.061512172 0.30756095 -0.022302911
-0.061007768 0.27453494 -0.03491307
-0.060511574 0.24204636 -0.04731793
-0.060023554 0.21008249 -0.059518456
-0.059543174 0.17862958 -0.071527883
-0.059070423 0.14767614 -0.083346792
-0.058605123 0.11721029 -0.094979286
-0.058147252 0.087220944 -0.10642605
-0.05769632 0.057696261 -0.11769933
-0.057252333 0.028626196 -0.12879901
-0.056815121 -7.4505806e-09 -0.13972932
-0.056384545 -0.028192192 -0.15049376
-0.055960588 -0.055960517 -0.16109267
-0.055542815 -0.083314151 -0.17153697
-0.055131234 -0.11026245 -0.18182653
-0.054725703 -0.13681419 -0.19196464
-0.05432624 -0.16297866 -0.20195135
-0.053932428 -0.18876348 -0.21179666
-0.053544283 -0.21417707 -0.22150023
-0.053161688 -0.23922749 -0.2310652
-0.052784648 -0.26392323 -0.24049117
-0.052412793 -0.28827024 -0.24978761
-0.052046135 -0.31227681 -0.2589539
-0.051684577 -0.33594969 -0.26799291
-0.051328003 -0.35929596 -0.27690727
-0.050976444 -0.38232335 -0.28569618
-0.050629545 -0.40503621 -0.29436877
-0.050287336 -0.42744225 -0.30292407
-0.049949717 -0.44954744 -0.31136438
-0.036133021 1.0117247 0.24654371
-0.035785429 0.96620655 0.22916409
-0.035444457 0.92155594 0.21211565
-0.035109926 0.87774807 0.19538885
-0.034781761 0.83476228 0.17898068
-0.034459565 0.79256999 0.16287082
-0.034143284 0.75115222 0.1470567
-0.033832751 0.71048784 0.13153023
-0.033527926 0.67055851 0.11628893
-0.033228438 0.63134032 0.10131454
-0.032934256 0.59281665 0.086605489
-0.032645233 0.55496907 0.072154462
-0.032361243 0.51777995 0.057954863
-0.032082245 0.48123372 0.044004977
-0.031807926 0.44531095 0.03028892
-0.031538256 0.40999734 0.016805425
-0.031273119 0.37527743 0.0035485625
-0.031012492 0.34113747 -0.0094826967
-0.030756086 0.30756095 -0.022302911
-0.030503884 0.27453494 -0.03491307
-0.030255787 0.24204636 -0.04731793
-0.030011777 0.21008249 -0.059518456
-0.029771587 0.17862958 -0.071527883
-0.029535212 0.14767614 -0.083346792
-0.029302562 0.11721029 -0.094979286
-0.029073626 0.087220944 -0.10642605
-0.02884816 0.057696261 -0.11769933
-0.028626166 0.028626196 -0.12879901
-0.028407561 -7.4505806e-09 -0.13972932
-0.028192272 -0.028192192 -0.15049376
-0.027980294 -0.055960517 -0.16109267
-0.027771408 -0.083314151 -0.17153697
-0.027565617 -0.11026245 -0.18182653
-0.027362851 -0.13681419 -0.19196464
-0.02716312 -0.16297866 -0.20195135
-0.026966214 -0.18876348 -0.21179666
-0.026772141 -0.21417707 -0.22150023
-0.026580844 -0.23922749 -0.2310652
-0.026392324 -0.26392323 -0.24049117
-0.026206397 -0.28827024 -0.24978761
-0.026023068 -0.31227681 -0.2589539
-0.025842289 -0.33594969 -0.26799291
-0.025664002 -0.35929596 -0.27690727
-0.025488222 -0.38232335 -0.28569618
-0.025314773 -0.40503621 -0.29436877
-0.025143668 -0.42744225 -0.30292407
-0.024974858 -0.44954744 -0.31136438
0 1.0117247 0.24654371
0 0.96620655 0.22916409
0 0.92155594 0.21211565
0 0.87774807 0.19538885
0 0.83476228 0.17898068
0 0.79256999 0.16287082
0 0.75115222 0.1470567
0 0.71048784 0.13153023
0 0.67055851 0.11628893
0 0.63134032 0.10131454
0 0.59281665 0.086605489
0 0.55496907 0.072154462
0 0.51777995 0.057954863
0 0.48123372 0.044004977
0 0.44531095 0.03028892
0 0.40999734 0.016805425
0 0.37527743 0.0035485625
0 0.34113747 -0.0094826967
0 0.30756095 -0.022302911
0 0.27453494 -0.03491307
0 0.24204636 -0.04731793
0 0.21008249 -0.059518456
0 0.17862958 -0.071527883
0 0.14767614 -0.083346792
0 0.11721029 -0.094979286
0 0.087220944 -0.10642605
0 0.057696261 -0.11769933
0 0.028626196 -0.12879901
0 -7.4505806e-09 -0.13972932
0 -0.028192192 -0.15049376
0 -0.055960517 -0.16109267
0 -0.083314151 -0.17153697
0 -0.11026245 -0.18182653
0 -0.13681419 -0.19196464
0 -0.16297866 -0.20195135
0 -0.18876348 -0.21179666
0 -0.21417707 -0.22150023
0 -0.23922749 -0.2310652
0 -0.26392323 -0.24049117
0 -0.28827024 -0.24978761
0 -0.31227681 -0.2589539
0 -0.33594969 -0.26799291
0 -0.35929596 -0.27690727
0 -0.38232335 -0.28569618
0 -0.40503621 -0.29436877
0 -0.42744225 -0.30292407
0 -0.44954744 -0.31136438
0.036133021 1.0117247 0.24654371
0.035785429 0.96620655 0.22916409
0.035444457 0.92155594 0.21211565
0.035109926 0.87774807 0.19538885
0.034781761 0.83476228 0.17898068
0.034459565 0.79256999 0.16287082
0.034143284 0.75115222 0.1470567
0.033832751 0.71048784 0.13153023
0.033527926 0.67055851 0.11628893
0.033228438 0.63134032 0.10131454
0.032934256 0.59281665 0.086605489
0.032645233 0.55496907 0.072154462
0.032361243 0.51777995 0.057954863
0.032082245 0.48123372 0.044004977
0.031807926 0.44531095 0.03028892
0.031538256 0.40999734 0.016805425
0.031273119 0.37527743 0.0035485625
0.031012492 0.34113747 -0.0094826967
0.030756086 0.30756095 -0.022302911
0.030503884 0.27453494 -0.03491307
0.030255787 0.24204636 -0.04731793
0.030011777 0.21008249 -0.059518456
0.029771587 0.17862958 -0.071527883
0.029535212 0.14767614 -0.083346792
0.029302562 0.11721029 -0.094979286
0.029073626 0.087220944 -0.10642605
0.02884816 0.057696261 -0.11769933
0.028626166 0.028626196 -0.12879901
0.028407561 -7.4505806e-09 -0.13972932
0.028192272 -0.028192192 -0.15049376
0.027980294 -0.055960517 -0.16109267
0.027771408 -0.083314151 -0.17153697
0.027565617 -0.11026245 -0.18182653
0.027362851 -0.13681419 -0.19196464
0.02716312 -0.16297866 -0.20195135
0.026966214 -0.18876348 -0.21179666
0.026772141 -0.21417707 -0.22150023
0.026580844 -0.23922749 -0.2310652
0.026392324 -0.26392323 -0.24049117
0.026206397 -0.28827024 -0.24978761
0.026023068 -0.31227681 -0.2589539
0.025842289 -0.33594969 -0.26799291
0.025664002 -0.35929596 -0.27690727
0.025488222 -0.38232335 -0.28569618
0.025314773 -0.40503621 -0.29436877
0.025143668 -0.42744225 -0.30292407
0.024974858 -0.44954744 -0.31136438
0.072266042 1.0117247 0.24654371
0.071570858 0.96620655 0.22916409
0.070888914 0.92155594 0.21211565
0.070219852 0.87774807 0.19538885
0.069563523 0.83476228 0.17898068
0.06891913 0.79256999 0.16287082
0.068286568 0.75115222 0.1470567
0.067665502 0.71048784 0.13153023
0.067055851 0.67055851 0.11628893
0.066456877 0.63134032 0.10131454
0.065868512 0.59281665 0.086605489
0.065290466 0.55496907 0.072154462
0.064722486 0.51777995 0.057954863
0.06416449 0.48123372 0.044004977
0.063615851 0.44531095 0.03028892
0.063076511 0.40999734 0.016805425
0.062546238 0.37527743 0.0035485625
0.062024985 0.34113747 -0.0094826967
0.061512172 0.30756095 -0.022302911
0.061007768 0.27453494 -0.03491307
0.060511574 0.24204636 -0.04731793
0.060023554 0.21008249 -0.059518456
0.059543174 0.17862958 -0.071527883
0.059070423 0.14767614 -0.083346792
0.058605123 0.11721029 -0.094979286
0.058147252 0.087220944 -0.10642605
0.05769632 0.057696261 -0.11769933
0.057252333 0.028626196 -0.12879901
0.056815121 -7.4505806e-09 -0.13972932
0.056384545 -0.028192192 -0.15049376
0.055960588 -0.055960517 -0.16109267
0.055542815 -0.083314151 -0.17153697
0.055131234 -0.11026245 -0.18182653
0.054725703 -0.13681419 -0.19196464
0.05432624 -0.16297866 -0.20195135
0.053932428 -0.18876348 -0.21179666
0.053544283 -0.21417707 -0.22150023
0.053161688 -0.23922749 -0.2310652
0.052784648 -0.26392323 -0.24049117
0.052412793 -0.28827024 -0.24978761
0.052046135 -0.31227681 -0.2589539
0.051684577 -0.33594969 -0.26799291
0.051328003 -0.35929596 -0.27690727
0.050976444 -0.38232335 -0.28569618
0.050629545 -0.40503621 -0.29436877
0.050287336 -0.42744225 -0.30292407
0.049949717 -0.44954744 -0.31136438
0.10839906 1.0117247 0.24654371
0.10735628 0.96620655 0.22916409
0.10633337 0.92155594 0.21211565
0.10532977 0.87774807 0.19538885
0.10434528 0.83476228 0.17898068
0.10337869 0.79256999 0.16287082
0.10242984 0.75115222 0.1470567
0.10149826 0.71048784 0.13153023
0.10058378 0.67055851 0.11628893
0.099685319 0.63134032 0.10131454
0.098802768 0.59281665 0.086605489
0.097935706 0.55496907 0.072154462
0.097083732 0.51777995 0.057954863
0.096246742 0.48123372 0.044004977
0.09542378 0.44531095 0.03028892
0.094614759 0.40999734 0.016805425
0.093819357 0.37527743 0.0035485625
0.093037479 0.34113747 -0.0094826967
0.092268266 0.30756095 -0.022302911
0.091511659 0.27453494 -0.03491307
0.090767361 0.24204636 -0.04731793
0.090035334 0.21008249 -0.059518456
0.089314766 0.17862958 -0.071527883
0.088605635 0.14767614 -0.083346792
0.087907679 0.11721029 -0.094979286
0.087220877 0.087220944 -0.10642605
0.086544484 0.057696261 -0.11769933
0.085878499 0.028626196 -0.12879901
0.085222684 -7.4505806e-09 -0.13972932
0.084576815 -0.028192192 -0.15049376
0.083940886 -0.055960517 -0.16109267
0.083314218 -0.083314151 -0.17153697
0.082696848 -0.11026245 -0.18182653
0.08208856 -0.13681419 -0.19196464
0.081489362 -0.16297866 -0.20195135
0.080898643 -0.18876348 -0.21179666
0.080316424 -0.21417707 -0.22150023
0.079742521 -0.23922749 -0.2310652
0.07917697 -0.26392323 -0.24049117
0.07861919 -0.28827024 -0.24978761
0.078069203 -0.31227681 -0.2589539
0.07752686 -0.33594969 -0.26799291
0.076992013 -0.35929596 -0.27690727
0.076464668 -0.38232335 -0.28569618
0.075944319 -0.40503621 -0.29436877
0.075431004 -0.42744225 -0.30292407
0.074924573 -0.44954744 -0.31136438
0.14453208 1.0117247 0.24654371
0.14314172 0.96620655 0.22916409
0.14177783 0.92155594 0.21211565
0.1404397 0.87774807 0.19538885
0.13912705 0.83476228 0.17898068
0.13783826 0.79256999 0.16287082
0.13657314 0.75115222 0.1470567
0.135331 0.71048784 0.13153023
0.1341117 0.67055851 0.11628893
0.13291375 0.63134032 0.10131454
0.13173702 0.59281665 0.086605489
0.13058093 0.55496907 0.072154462
0.12944497 0.51777995 0.057954863
0.12832898 0.48123372 0.044004977
0.1272317 0.44531095 0.03028892
0.12615302 0.40999734 0.016805425
0.12509248 0.37527743 0.0035485625
0.12404997 0.34113747 -0.0094826967
0.12302434 0.30756095 -0.022302911
0.12201554 0.27453494 -0.03491307
0.12102315 0.24204636 -0.04731793
0.12004711 0.21008249 -0.059518456
0.11908635 0.17862958 -0.071527883
0.11814085 0.14767614 -0.083346792
0.11721025 0.11721029 -0.094979286
0.1162945 0.087220944 -0.10642605
0.11539264 0.057696261 -0.11769933
0.11450467 0.028626196 -0.12879901
0.11363024 -7.4505806e-09 -0.13972932
0.11276909 -0.028192192 -0.15049376
0.11192118 -0.055960517 -0.16109267
0.11108563 -0.083314151 -0.17153697
0.11026247 -0.11026245 -0.18182653
0.10945141 -0.13681419 -0.19196464
0.10865248 -0.16297866 -0.20195135
0.10786486 -0.18876348 -0.21179666
0.10708857 -0.21417707 -0.22150023
0.10632338 -0.23922749 -0.2310652
0.1055693 -0.26392323 -0.24049117
0.10482559 -0.28827024 -0.24978761
0.10409227 -0.31227681 -0.2589539
0.10336915 -0.33594969 -0.26799291
0.10265601 -0.35929596 -0.27690727
0.10195289 -0.38232335 -0.28569618
0.10125909 -0.40503621 -0.29436877
0.10057467 -0.42744225 -0.30292407
0.099899434 -0.44954744 -0.31136438
0.18066511 1.0117247 0.24654371
0.17892714 0.96620655 0.22916409
0.17722228 0.92155594 0.21211565
0.17554963 0.87774807 0.19538885
0.17390881 0.83476228 0.17898068
0.17229784 0.79256999 0.16287082
0.1707164 0.75115222 0.1470567
0.16916376 0.71048784 0.13153023
0.16763963 0.67055851 0.11628893
0.1661422 0.63134032 0.10131454
0.16467127 0.59281665 0.086605489
0.16322617 0.55496907 0.072154462
0.16180621 0.51777995 0.057954863
0.16041124 0.48123372 0.044004977
0.15903963 0.44531095 0.03028892
0.15769127 0.40999734 0.016805425
0.15636559 0.37527743 0.0035485625
0.15506247 0.34113747 -0.0094826967
0.15378043 0.30756095 -0.022302911
0.15251943 0.27453494 -0.03491307
0.15127894 0.24204636 -0.04731793
0.1500589 0.21008249 -0.059518456
0.14885794 0.17862958 -0.071527883
0.14767605 0.14767614 -0.083346792
0.14651281 0.11721029 -0.094979286
0.14536813 0.087220944 -0.10642605
0.14424081 0.057696261 -0.11769933
0.14313084 0.028626196 -0.12879901
0.14203781 -7.4505806e-09 -0.13972932
0.14096135 -0.028192192 -0.15049376
0.13990147 -0.055960517 -0.16109267
0.13885704 -0.083314151 -0.17153697
0.13782808 -0.11026245 -0.18182653
0.13681427 -0.13681419 -0.19196464
0.13581561 -0.16297866 -0.20195135
0.13483107 -0.18876348 -0.21179666
0.13386071 -0.21417707 -0.22150023
0.13290422 -0.23922749 -0.2310652
0.13196161 -0.26392323 -0.24049117
0.13103198 -0.28827024 -0.24978761
0.13011535 -0.31227681 -0.2589539
0.12921144 -0.33594969 -0.26799291
0.12832001 -0.35929596 -0.27690727
0.12744111 -0.38232335 -0.28569618
0.12657386 -0.40503621 -0.29436877
0.12571834 -0.42744225 -0.30292407
0.1248743 -0.44954744 -0.31136438
0.21679811 1.0117247 0.24654371
0.21471256 0.96620655 0.22916409
0.21266674 0.92155594 0.21211565
0.21065955 0.87774807 0.19538885
0.20869057 0.83476228 0.17898068
0.20675738 0.79256999 0.16287082
0.20485967 0.75115222 0.1470567
0.20299652 0.71048784 0.13153023
0.20116755 0.67055851 0.11628893
0.19937064 0.63134032 0.10131454
0.19760554 0.59281665 0.086605489
0.19587141 0.55496907 0.072154462
0.19416746 0.51777995 0.057954863
0.19249348 0.48123372 0.044004977
0.19084756 0.44531095 0.03028892
0.18922952 0.40999734 0.016805425
0.18763871 0.37527743 0.0035485625
0.18607496 0.34113747 -0.0094826967
0.18453653 0.30756095 -0.022302911
0.18302332 0.27453494 -0.03491307
0.18153472 0.24204636 -0.04731793
0.18007067 0.21008249 -0.059518456
0.17862953 0.17862958 -0.071527883
0.17721127 0.14767614 -0.083346792
0.17581536 0.11721029 -0.094979286
0.17444175 0.087220944 -0.10642605
0.17308897 0.057696261 -0.11769933
0.171757 0.028626196 -0.12879901
0.17044537 -7.4505806e-09 -0.13972932
0.16915363 -0.028192192 -0.15049376
0.16788177 -0.055960517 -0.16109267
0.16662844 -0.083314151 -0.17153697
0.1653937 -0.11026245 -0.18182653
0.16417712 -0.13681419 -0.19196464
0.16297872 -0.16297866 -0.20195135
0.16179729 -0.18876348 -0.21179666
0.16063285 -0.21417707 -0.22150023
0.15948504 -0.23922749 -0.2310652
0.15835394 -0.26392323 -0.24049117
0.15723838 -0.28827024 -0.24978761
0.15613841 -0.31227681 -0.2589539
0.15505372 -0.33594969 -0.26799291
0.15398403 -0.35929596 -0.27690727
0.15292934 -0.38232335 -0.28569618
0.15188864 -0.40503621 -0.29436877
0.15086201 -0.42744225 -0.30292407
0.14984915 -0.44954744 -0.31136438
0.25293112 1.0117247 0.24654371
0.250498 0.96620655 0.22916409
0.2481112 0.92155594 0.21211565
0.24576947 0.87774807 0.19538885
0.24347234 0.83476228 0.17898068
0.24121694 0.79256999 0.16287082
0.23900299 0.75115222 0.1470567
0.23682927 0.71048784 0.13153023
0.23469549 0.67055851 0.11628893
0.23259906 0.63134032 0.10131454
0.23053978 0.59281665 0.086605489
0.22851665 0.55496907 0.072154462
0.22652872 0.51777995 0.057954863
0.22457573 0.48123372 0.044004977
0.22265548 0.44531095 0.03028892
0.22076778 0.40999734 0.016805425
0.21891183 0.37527743 0.0035485625
0.21708746 0.34113747 -0.0094826967
0.2152926 0.30756095 -0.022302911
0.2135272 0.27453494 -0.03491307
0.2117905 0.24204636 -0.04731793
0.21008243 0.21008249 -0.059518456
0.20840111 0.17862958 -0.071527883
0.20674647 0.14767614 -0.083346792
0.20511793 0.11721029 -0.094979286
0.20351538 0.087220944 -0.10642605
0.20193712 0.057696261 -0.11769933
0.20038316 0.028626196 -0.12879901
0.19885294 -7.4505806e-09 -0.13972932
0.19734591 -0.028192192 -0.15049376
0.19586205 -0.055960517 -0.16109267
0.19439985 -0.083314151 -0.17153697
0.19295931 -0.11026245 -0.18182653
0.19153997 -0.13681419 -0.19196464
0.19014184 -0.16297866 -0.20195135
0.1887635 -0.18876348 -0.21179666
0.18740499 -0.21417707 -0.22150023
0.1860659 -0.23922749 -0.2310652
0.18474627 -0.26392323 -0.24049117
0.18344477 -0.28827024 -0.24978761
0.18216148 -0.31227681 -0.2589539
0.18089601 -0.33594969 -0.26799291
0.17964803 -0.35929596 -0.27690727
0.17841755 -0.38232335 -0.28569618
0.1772034 -0.40503621 -0.29436877
0.17600568 -0.42744225 -0.30292407
0.17482401 -0.44954744 -0.31136438
0.28906417 1.0117247 0.24654371
0.28628343 0.96620655 0.22916409
0.28355566 0.92155594 0.21211565
0.28087941 0.87774807 0.19538885
0.27825409 0.83476228 0.17898068
0.27567652 0.79256999 0.16287082
0.27314627 0.75115222 0.1470567
0.27066201 0.71048784 0.13153023
0.2682234 0.67055851 0.11628893
0.26582751 0.63134032 0.10131454
0.26347405 0.59281665 0.086605489
0.26116186 0.55496907 0.072154462
0.25888994 0.51777995 0.057954863
0.25665796 0.48123372 0.044004977
0.2544634 0.44531095 0.03028892
0.25230604 0.40999734 0.016805425
0.25018495 0.37527743 0.0035485625
0.24809994 0.34113747 -0.0094826967
0.24604869 0.30756095 -0.022302911
0.24403107 0.27453494 -0.03491307
0.2420463 0.24204636 -0.04731793
0.24009421 0.21008249 -0.059518456
0.2381727 0.17862958 -0.071527883
0.23628169 0.14767614 -0.083346792
0.23442049 0.11721029 -0.094979286
0.23258901 0.087220944 -0.10642605
0.23078528 0.057696261 -0.11769933
0.22900933 0.028626196 -0.12879901
0.22726049 -7.4505806e-09 -0.13972932
0.22553818 -0.028192192 -0.15049376
0.22384235 -0.055960517 -0.16109267
0.22217126 -0.083314151 -0.17153697
0.22052494 -0.11026245 -0.18182653
0.21890281 -0.13681419 -0.19196464
0.21730496 -0.16297866 -0.20195135
0.21572971 -0.18876348 -0.21179666
0.21417713 -0.21417707 -0.22150023
0.21264675 -0.23922749 -0.2310652
0.21113859 -0.26392323 -0.24049117
0.20965117 -0.28827024 -0.24978761
0.20818454 -0.31227681 -0.2589539
0.20673831 -0.33594969 -0.26799291
0.20531201 -0.35929596 -0.27690727
0.20390578 -0.38232335 -0.28569618
0.20251818 -0.40503621 -0.29436877
0.20114934 -0.42744225 -0.30292407
0.19979887 -0.44954744 -0.31136438
0.32519719 1.0117247 0.24654371
0.32206884 0.96620655 0.22916409
0.3190001 0.92155594 0.21211565
0.31598932 0.87774807 0.19538885
0.31303588 0.83476228 0.17898068
0.31013608 0.79256999 0.16287082
0.30728954 0.75115222 0.1470567
0.30449477 0.71048784 0.13153023
0.30175132 0.67055851 0.11628893
0.29905596 0.63134032 0.10131454
0.2964083 0.59281665 0.086605489
0.29380712 0.55496907 0.072154462
0.29125118 0.51777995 0.057954863
0.28874025 0.48123372 0.044004977
0.28627133 0.44531095 0.03028892
0.28384429 0.40999734 0.016805425
0.28145805 0.37527743 0.0035485625
0.27911246 0.34113747 -0.0094826967
0.27680477 0.30756095 -0.022302911
0.27453497 0.27453494 -0.03491307
0.27230209 0.24204636 -0.04731793
0.27010599 0.21008249 -0.059518456
0.26794431 0.17862958 -0.071527883
0.2658169 0.14767614 -0.083346792
0.26372305 0.11721029 -0.094979286
0.26166263 0.087220944 -0.10642605
0.25963345 0.057696261 -0.11769933
0.25763547 0.028626196 -0.12879901
0.25566807 -7.4505806e-09 -0.13972932
0.25373045 -0.028192192 -0.15049376
0.25182265 -0.055960517 -0.16109267
0.24994266 -0.083314151 -0.17153697
0.24809055 -0.11026245 -0.18182653
0.24626566 -0.13681419 -0.19196464
0.24446809 -0.16297866 -0.20195135
0.24269591 -0.18876348 -0.21179666
0.24094926 -0.21417707 -0.22150023
0.23922758 -0.23922749 -0.2310652
0.23753092 -0.26392323 -0.24049117
0.23585756 -0.28827024 -0.24978761
0.23420763 -0.31227681 -0.2589539
0.2325806 -0.33594969 -0.26799291
0.23097602 -0.35929596 -0.27690727
0.22939399 -0.38232335 -0.28569618
0.22783296 -0.40503621 -0.29436877
0.226293 -0.42744225 -0.30292407
0.22477373 -0.44954744 -0.31136438
0.36133021 1.0117247 0.24654371
0.35785428 0.96620655 0.22916409
0.35444456 0.92155594 0.21211565
0.35109925 0.87774807 0.19538885
0.34781763 0.83476228 0.17898068
0.34459567 0.79256999 0.16287082
0.34143281 0.75115222 0.1470567
0.33832753 0.71048784 0.13153023
0.33527926 0.67055851 0.11628893
0.33228439 0.63134032 0.10131454
0.32934254 0.59281665 0.086605489
0.32645234 0.55496907 0.072154462
0.32361242 0.51777995 0.057954863
0.32082248 0.48123372 0.044004977
0.31807926 0.44531095 0.03028892
0.31538254 0.40999734 0.016805425
0.31273118 0.37527743 0.0035485625
0.31012493 0.34113747 -0.0094826967
0.30756086 0.30756095 -0.022302911
0.30503887 0.27453494 -0.03491307
0.30255789 0.24204636 -0.04731793
0.30011779 0.21008249 -0.059518456
0.29771587 0.17862958 -0.071527883
0.2953521 0.14767614 -0.083346792
0.29302561 0.11721029 -0.094979286
0.29073626 0.087220944 -0.10642605
0.28848162 0.057696261 -0.11769933
0.28626168 0.028626196 -0.12879901
0.28407562 -7.4505806e-09 -0.13972932
0.2819227 -0.028192192 -0.15049376
0.27980295 -0.055960517 -0.16109267
0.27771407 -0.083314151 -0.17153697
0.27565616 -0.11026245 -0.18182653
0.27362853 -0.13681419 -0.19196464
0.27163121 -0.16297866 -0.20195135
0.26966214 -0.18876348 -0.21179666
0.26772141 -0.21417707 -0.22150023
0.26580843 -0.23922749 -0.2310652
0.26392323 -0.26392323 -0.24049117
0.26206395 -0.28827024 -0.24978761
0.26023069 -0.31227681 -0.2589539
0.25842288 -0.33594969 -0.26799291
0.25664002 -0.35929596 -0.27690727
0.25488222 -0.38232335 -0.28569618
0.25314772 -0.40503621 -0.29436877
0.25143668 -0.42744225 -0.30292407
0.2497486 -0.44954744 -0.31136438
0.39746323 1.0117247 0.24654371
0.39363968 0.96620655 0.22916409
0.38988903 0.92155594 0.21211565
0.38620919 0.87774807 0.19538885
0.38259938 0.83476228 0.17898068
0.3790552 0.79256999 0.16287082
0.37557611 0.75115222 0.1470567
0.37216026 0.71048784 0.13153023
0.36880717 0.67055851 0.11628893
0.36551282 0.63134032 0.10131454
0.36227682 0.59281665 0.086605489
0.35909757 0.55496907 0.072154462
0.35597369 0.51777995 0.057954863
0.35290474 0.48123372 0.044004977
0.34988719 0.44531095 0.03028892
0.34692079 0.40999734 0.016805425
0.3440043 0.37527743 0.0035485625
0.34113744 0.34113747 -0.0094826967
0.33831698 0.30756095 -0.022302911
0.33554274 0.27453494 -0.03491307
0.33281368 0.24204636 -0.04731793
0.33012953 0.21008249 -0.059518456
0.32748747 0.17862958 -0.071527883
0.32488734 0.14767614 -0.083346792
0.32232815 0.11721029 -0.094979286
