# .PCD v0.7 - Point Cloud Data file format
VERSION 0.7
FIELDS x y z
SIZE 4 4 4
TYPE F F F
COUNT 1 1 1
WIDTH 1368
HEIGHT 1
VIEWPOINT 0 0 0 1 0 0 0
POINTS 1368
DATA ascii
-0.24049965 0.74822116 -0.2239981
-0.24049965 0.72149903 -0.22399814
-0.24049965 0.69477677 -0.22399825
-0.24049965 0.66805464 -0.22399819
-0.24049965 0.64133245 -0.2239982
-0.24049965 0.61461025 -0.22399817
-0.24049965 0.58788806 -0.22399819
-0.24049965 0.56116587 -0.22399819
-0.24049965 0.53444368 -0.22399817
-0.24049965 0.50772148 -0.22399817
-0.24049965 0.48099929 -0.22399819
-0.24049965 0.45427719 -0.22399813
-0.24049965 0.42755497 -0.22399813
-0.24049965 0.4008328 -0.22399811
-0.24049965 0.37411061 -0.22399813
-0.24049965 0.34738842 -0.22399813
-0.24049965 0.32066622 -0.22399817
-0.24049965 0.29394403 -0.22399816
-0.24049965 0.26722187 -0.22399816
-0.24049965 0.24049965 -0.22399816
-0.24049965 0.21377757 -0.22399811
-0.24049965 0.1870553 -0.22399819
-0.24049965 0.1603331 -0.2239982
-0.24049965 0.1336109 -0.22399819
-0.24049965 0.10688877 -0.22399811
-0.24049965 0.08016663 -0.22399816
-0.24049965 0.05344443 -0.22399816
-0.24049965 0.026722148 -0.22399823
-0.24049965 2.9802322e-08 -0.22399814
-0.24049965 -0.02672217 -0.22399816
-0.24049965 -0.053444326 -0.22399819
-0.24049965 -0.080166489 -0.22399814
-0.24049965 -0.10688868 -0.22399813
-0.24049965 -0.1336109 -0.22399819
-0.24049965 -0.16033311 -0.22399819
-0.24049965 -0.18705523 -0.22399819
-0.24049965 -0.21377744 -0.22399817
-0.24049965 -0.2404996 -0.22399813
-0.24049965 -0.26722178 -0.22399813
-0.24049965 -0.293944 -0.22399811
-0.24049965 -0.32066622 -0.22399817
-0.24049965 -0.34738839 -0.22399813
-0.24049965 -0.37411049 -0.2239982
-0.24049965 -0.40083271 -0.22399819
-0.24049965 -0.42755491 -0.22399822
-0.24049965 -0.45427704 -0.22399814
-0.24049965 -0.48099923 -0.22399817
-0.24049965 -0.50772148 -0.22399816
-0.24049965 -0.53444362 -0.22399816
-0.24049965 -0.56116581 -0.22399817
-0.24049965 -0.587888 -0.2239981
-0.24049965 -0.6146102 -0.22399823
-0.24049965 -0.64133233 -0.2239982
-0.24049965 -0.66805452 -0.22399819
-0.24049965 -0.69477671 -0.22399817
-0.24049965 -0.72149891 -0.22399819
-0.24049965 -0.74822104 -0.22399813
-0.24049965 -0.77494329 -0.22399819
-0.21532424 0.78055042 -0.21433082
-0.21532424 0.75363481 -0.21433087
-0.21532424 0.72671926 -0.21433091
-0.21532424 0.69980371 -0.21433087
-0.21532424 0.67288828 -0.21433081
-0.21532424 0.64597273 -0.21433088
-0.21532424 0.61905724 -0.21433084
-0.21532424 0.59214175 -0.21433082
-0.21532424 0.5652262 -0.21433087
-0.21532424 0.53831059 -0.21433091
-0.21532424 0.5113951 -0.21433087
-0.21532424 0.48447952 -0.21433088
-0.21532424 0.45756403 -0.21433084
-0.21532424 0.43064854 -0.21433082
-0.21532424 0.40373296 -0.21433087
-0.21532424 0.37681741 -0.21433091
-0.21532424 0.34990197 -0.21433076
-0.21532424 0.32298642 -0.21433085
-0.21532424 0.29607084 -0.21433088
-0.21532424 0.26915535 -0.21433084
-0.21532424 0.24223976 -0.21433088
-0.21532424 0.21532425 -0.21433082
-0.21532424 0.18840879 -0.21433082
-0.21532424 0.16149321 -0.21433087
-0.21532424 0.13457763 -0.2143309
-0.21532424 0.10766213 -0.21433085
-0.21532424 0.080746658 -0.21433084
-0.21532424 0.053831048 -0.21433085
-0.21532424 0.02691558 -0.21433082
-0.21532424 -0 -0.21433087
-0.21532424 -0.026915453 -0.21433087
-0.21532424 -0.053831048 -0.21433081
-0.21532424 -0.080746502 -0.21433088
-0.21532424 -0.10766213 -0.21433088
-0.21532424 -0.13457754 -0.21433082
-0.21532424 -0.16149314 -0.21433087
-0.21532424 -0.18840866 -0.21433087
-0.21532424 -0.21532421 -0.21433087
-0.21532424 -0.24223971 -0.21433081
-0.21532424 -0.26915526 -0.21433081
-0.21532424 -0.29607081 -0.21433081
-0.21532424 -0.3229863 -0.21433091
-0.21532424 -0.34990183 -0.21433091
-0.21532424 -0.37681735 -0.21433088
-0.21532424 -0.4037329 -0.21433087
-0.21532424 -0.43064845 -0.21433087
-0.21532424 -0.457564 -0.21433087
-0.21532424 -0.48447949 -0.21433085
-0.21532424 -0.51139504 -0.21433079
-0.21532424 -0.53831059 -0.21433085
-0.21532424 -0.56522608 -0.21433093
-0.21532424 -0.59214151 -0.21433085
-0.21532424 -0.61905718 -0.21433088
-0.21532424 -0.64597261 -0.21433085
-0.21532424 -0.67288816 -0.21433085
-0.21532424 -0.69980371 -0.21433085
-0.21532424 -0.72671926 -0.21433085
-0.21532424 -0.75363481 -0.21433082
-0.21532424 -0.78055036 -0.21433079
-0.18978186 0.78623915 -0.20452264
-0.18978186 0.7591275 -0.20452267
-0.18978186 0.73201573 -0.2045227
-0.18978186 0.70490408 -0.20452264
-0.18978186 0.67779231 -0.20452267
-0.18978186 0.65068066 -0.20452264
-0.18978186 0.62356895 -0.20452273
-0.18978186 0.59645724 -0.20452268
-0.18978186 0.56934559 -0.20452262
-0.18978186 0.54223388 -0.20452268
-0.18978186 0.51512223 -0.20452265
-0.18978186 0.48801044 -0.20452267
-0.18978186 0.46089882 -0.20452264
-0.18978186 0.43378708 -0.2045227
-0.18978186 0.4066754 -0.20452264
-0.18978186 0.37956378 -0.20452264
-0.18978186 0.35245204 -0.20452267
-0.18978186 0.32534033 -0.20452261
-0.18978186 0.29822862 -0.20452268
-0.18978186 0.27111694 -0.20452262
-0.18978186 0.24400523 -0.20452268
-0.18978186 0.21689355 -0.20452264
-0.18978186 0.18978186 -0.20452271
-0.18978186 0.16267022 -0.20452268
-0.18978186 0.13555853 -0.20452262
-0.18978186 0.10844678 -0.20452267
-0.18978186 0.08133509 -0.20452261
-0.18978186 0.054223329 -0.20452264
-0.18978186 0.027111746 -0.20452267
-0.18978186 -7.4505806e-09 -0.2045227
-0.18978186 -0.027111687 -0.20452264
-0.18978186 -0.054223366 -0.20452267
-0.18978186 -0.081335083 -0.20452265
-0.18978186 -0.10844671 -0.20452271
-0.18978186 -0.13555843 -0.2045227
-0.18978186 -0.16267015 -0.20452259
-0.18978186 -0.18978179 -0.20452267
-0.18978186 -0.21689351 -0.20452267
-0.18978186 -0.24400523 -0.20452264
-0.18978186 -0.27111685 -0.20452273
-0.18978186 -0.29822856 -0.2045227
-0.18978186 -0.32534027 -0.2045227
-0.18978186 -0.35245201 -0.20452267
-0.18978186 -0.37956369 -0.20452264
-0.18978186 -0.4066754 -0.20452261
-0.18978186 -0.43378702 -0.20452268
-0.18978186 -0.46089876 -0.20452265
-0.18978186 -0.48801047 -0.20452264
-0.18978186 -0.51512218 -0.20452264
-0.18978186 -0.54223394 -0.20452261
-0.18978186 -0.56934565 -0.20452261
-0.18978186 -0.59645724 -0.20452264
-0.18978186 -0.62356889 -0.20452262
-0.18978186 -0.65068066 -0.20452259
-0.18978186 -0.67779231 -0.20452268
-0.18978186 -0.70490396 -0.20452264
-0.18978186 -0.73201561 -0.20452273
-0.18978186 -0.75912738 -0.20452273
-0.16386443 0.76470077 -0.19457033
-0.16386443 0.73738992 -0.19457039
-0.16386443 0.71007919 -0.19457038
-0.16386443 0.68276852 -0.19457039
-0.16386443 0.65545768 -0.19457042
-0.16386443 0.62814701 -0.1945705
-0.16386443 0.60083628 -0.19457041
-0.16386443 0.57352555 -0.19457038
-0.16386443 0.54621488 -0.19457042
-0.16386443 0.51890409 -0.19457039
-0.16386443 0.49159336 -0.1945703
-0.16386443 0.46428263 -0.19457032
-0.16386443 0.43697187 -0.19457042
-0.16386443 0.40966111 -0.19457039
-0.16386443 0.38235039 -0.19457033
-0.16386443 0.35503963 -0.19457042
-0.16386443 0.32772887 -0.19457041
-0.16386443 0.30041817 -0.19457038
-0.16386443 0.27310744 -0.19457036
-0.16386443 0.24579664 -0.19457044
-0.16386443 0.21848591 -0.19457041
-0.16386443 0.19117522 -0.19457042
-0.16386443 0.16386445 -0.19457036
-0.16386443 0.13655376 -0.19457039
-0.16386443 0.10924299 -0.19457032
-0.16386443 0.081932306 -0.19457033
-0.16386443 0.054621503 -0.19457041
-0.16386443 0.027310744 -0.19457033
-0.16386443 5.9604645e-08 -0.19457036
-0.16386443 -0.027310707 -0.19457047
-0.16386443 -0.05462148 -0.19457039
-0.16386443 -0.081932202 -0.19457039
-0.16386443 -0.10924289 -0.19457039
-0.16386443 -0.13655369 -0.19457039
-0.16386443 -0.16386437 -0.19457039
-0.16386443 -0.1911751 -0.19457036
-0.16386443 -0.21848583 -0.19457036
-0.16386443 -0.24579662 -0.19457042
-0.16386443 -0.27310735 -0.19457041
-0.16386443 -0.30041808 -0.19457036
-0.16386443 -0.32772887 -0.19457039
-0.16386443 -0.3550396 -0.19457036
-0.16386443 -0.38235033 -0.19457036
-0.16386443 -0.40966108 -0.19457036
-0.16386443 -0.43697172 -0.19457042
-0.16386443 -0.46428257 -0.19457038
-0.16386443 -0.49159336 -0.19457041
-0.16386443 -0.51890397 -0.19457045
-0.16386443 -0.54621476 -0.19457035
-0.16386443 -0.57352543 -0.19457039
-0.16386443 -0.60083616 -0.19457042
-0.16386443 -0.62814701 -0.19457032
-0.16386443 -0.65545768 -0.19457042
-0.16386443 -0.68276834 -0.19457039
-0.16386443 -0.71007919 -0.19457042
-0.16386443 -0.73738992 -0.19457039
-0.16386443 -0.76470065 -0.19457036
-0.13756365 0.77035648 -0.18447092
-0.13756365 0.74284369 -0.18447092
-0.13756365 0.71533096 -0.18447089
-0.13756365 0.68781829 -0.18447088
-0.13756365 0.66030556 -0.18447091
-0.13756365 0.63279283 -0.18447098
-0.13756365 0.60528004 -0.18447098
-0.13756365 0.57776731 -0.18447094
-0.13756365 0.55025458 -0.18447094
-0.13756365 0.52274191 -0.18447095
-0.13756365 0.4952291 -0.18447101
-0.13756365 0.4677164 -0.18447103
-0.13756365 0.44020361 -0.18447095
-0.13756365 0.41269094 -0.18447098
-0.13756365 0.38517818 -0.18447095
-0.13756365 0.35766551 -0.18447097
-0.13756365 0.33015278 -0.18447095
-0.13756365 0.30264005 -0.18447092
-0.13756365 0.27512732 -0.18447091
-0.13756365 0.24761462 -0.18447091
-0.13756365 0.22010189 -0.18447089
-0.13756365 0.1925891 -0.184471
-0.13756365 0.16507638 -0.18447098
-0.13756365 0.13756369 -0.184471
-0.13756365 0.11005091 -0.18447094
-0.13756365 0.082538262 -0.18447098
-0.13756365 0.055025496 -0.18447092
-0.13756365 0.027512759 -0.18447089
-0.13756365 7.4505806e-08 -0.18447092
-0.13756365 -0.02751267 -0.18447089
-0.13756365 -0.05502535 -0.18447092
-0.13756365 -0.082538128 -0.18447092
-0.13756365 -0.1100509 -0.18447095
-0.13756365 -0.13756363 -0.18447092
-0.13756365 -0.1650764 -0.18447095
-0.13756365 -0.19258904 -0.18447101
-0.13756365 -0.22010179 -0.18447098
-0.13756365 -0.24761452 -0.18447095
-0.13756365 -0.27512723 -0.18447095
-0.13756365 -0.30263999 -0.18447092
-0.13756365 -0.33015266 -0.18447101
-0.13756365 -0.35766542 -0.18447098
-0.13756365 -0.38517824 -0.18447089
-0.13756365 -0.41269088 -0.18447095
-0.13756365 -0.44020361 -0.18447091
-0.13756365 -0.46771625 -0.18447098
-0.13756365 -0.49522907 -0.18447088
-0.13756365 -0.52274185 -0.18447089
-0.13756365 -0.55025452 -0.18447098
-0.13756365 -0.57776725 -0.18447097
-0.13756365 -0.60527998 -0.18447095
-0.13756365 -0.63279271 -0.18447094
-0.13756365 -0.6603055 -0.18447089
-0.13756365 -0.68781811 -0.18447095
-0.13756365 -0.71533084 -0.18447095
-0.13756365 -0.74284363 -0.18447095
-0.13756365 -0.7703563 -0.18447095
-0.11087091 0.77609646 -0.17422098
-0.11087091 0.74837863 -0.17422101
-0.11087091 0.72066092 -0.17422098
-0.11087091 0.69294322 -0.1742209
-0.11087091 0.66522551 -0.17422095
-0.11087091 0.6375078 -0.17422104
-0.11087091 0.60979009 -0.17422096
-0.11087091 0.58207238 -0.17422093
-0.11087091 0.55435461 -0.17422095
-0.11087091 0.52663684 -0.17422101
-0.11087091 0.49891913 -0.17422096
-0.11087091 0.47120136 -0.17422099
-0.11087091 0.44348371 -0.17422095
-0.11087091 0.41576594 -0.17422101
-0.11087091 0.38804826 -0.17422098
-0.11087091 0.36033046 -0.17422096
-0.11087091 0.33261278 -0.17422095
-0.11087091 0.30489504 -0.17422102
-0.11087091 0.27717736 -0.17422096
-0.11087091 0.24945956 -0.17422099
-0.11087091 0.22174186 -0.17422093
-0.11087091 0.19402413 -0.17422101
-0.11087091 0.16630644 -0.17422095
-0.11087091 0.13858868 -0.17422101
-0.11087091 0.11087094 -0.17422092
-0.11087091 0.083153211 -0.17422099
-0.11087091 0.055435508 -0.17422092
-0.11087091 0.027717769 -0.17422101
-0.11087091 6.7055225e-08 -0.17422095
-0.11087091 -0.027717672 -0.17422101
-0.11087091 -0.055435367 -0.17422095
-0.11087091 -0.083153099 -0.17422102
-0.11087091 -0.11087093 -0.17422102
-0.11087091 -0.13858862 -0.17422095
-0.11087091 -0.16630638 -0.17422095
-0.11087091 -0.19402403 -0.17422101
-0.11087091 -0.22174181 -0.17422104
-0.11087091 -0.24945951 -0.17422098
-0.11087091 -0.27717716 -0.17422104
-0.11087091 -0.30489492 -0.17422102
-0.11087091 -0.33261275 -0.17422098
-0.11087091 -0.36033037 -0.17422101
-0.11087091 -0.38804814 -0.17422098
-0.11087091 -0.41576585 -0.17422096
-0.11087091 -0.44348359 -0.17422098
-0.11087091 -0.47120124 -0.17422102
-0.11087091 -0.49891901 -0.17422101
-0.11087091 -0.52663684 -0.1742209
-0.11087091 -0.55435449 -0.17422099
-0.11087091 -0.5820722 -0.17422096
-0.11087091 -0.60978997 -0.17422095
-0.11087091 -0.63750768 -0.17422092
-0.11087091 -0.66522539 -0.17422101
-0.11087091 -0.6929431 -0.17422098
-0.11087091 -0.72066087 -0.17422104
-0.11087091 -0.74837863 -0.17422098
-0.11087091 -0.77609634 -0.17422098
-0.083777413 0.78192258 -0.16381711
-0.083777413 0.75399673 -0.16381714
-0.083777413 0.72607094 -0.16381714
-0.083777413 0.69814515 -0.16381717
-0.083777413 0.67021924 -0.16381715
-0.083777413 0.64229345 -0.16381718
-0.083777413 0.61436772 -0.16381711
-0.083777413 0.58644187 -0.16381712
-0.083777413 0.55851614 -0.16381709
-0.083777413 0.53059036 -0.16381711
-0.083777413 0.50266451 -0.16381711
-0.083777413 0.47473869 -0.16381712
-0.083777413 0.4468129 -0.16381715
-0.083777413 0.41888708 -0.1638172
-0.083777413 0.39096123 -0.1638172
-0.083777413 0.36303547 -0.16381711
-0.083777413 0.33510968 -0.16381717
-0.083777413 0.30718392 -0.16381708
-0.083777413 0.2792581 -0.16381709
-0.083777413 0.25133225 -0.16381711
-0.083777413 0.22340646 -0.16381715
-0.083777413 0.19548064 -0.16381717
-0.083777413 0.16755481 -0.16381718
-0.083777413 0.13962911 -0.16381712
-0.083777413 0.11170322 -0.16381711
-0.083777413 0.083777428 -0.16381717
-0.083777413 0.055851609 -0.16381717
-0.083777413 0.027925894 -0.16381712
-0.083777413 1.4901161e-08 -0.16381711
-0.083777413 -0.027925767 -0.16381715
-0.083777413 -0.055851601 -0.16381717
-0.083777413 -0.083777308 -0.16381712
-0.083777413 -0.11170323 -0.16381714
-0.083777413 -0.13962892 -0.16381718
-0.083777413 -0.16755481 -0.16381715
-0.083777413 -0.1954806 -0.1638172
-0.083777413 -0.22340639 -0.16381709
-0.083777413 -0.25133216 -0.16381714
-0.083777413 -0.27925801 -0.16381706
-0.083777413 -0.3071838 -0.16381711
-0.083777413 -0.33510959 -0.16381717
-0.083777413 -0.36303532 -0.16381717
-0.083777413 -0.39096123 -0.16381714
-0.083777413 -0.41888699 -0.16381718
-0.083777413 -0.44681284 -0.16381711
-0.083777413 -0.47473863 -0.16381715
-0.083777413 -0.50266445 -0.16381709
-0.083777413 -0.53059024 -0.16381712
-0.083777413 -0.55851603 -0.16381714
-0.083777413 -0.58644176 -0.16381718
-0.083777413 -0.6143676 -0.16381711
-0.083777413 -0.64229345 -0.16381715
-0.083777413 -0.6702193 -0.16381714
-0.083777413 -0.69814503 -0.16381717
-0.083777413 -0.72607088 -0.16381708
-0.083777413 -0.75399667 -0.16381714
-0.083777413 -0.78192246 -0.16381717
-0.056274056 0.78783679 -0.15325594
-0.056274056 0.75969982 -0.15325585
-0.056274056 0.73156279 -0.15325594
-0.056274056 0.70342577 -0.15325588
-0.056274056 0.67528874 -0.15325586
-0.056274056 0.64715165 -0.15325594
-0.056274056 0.61901468 -0.15325594
-0.056274056 0.59087765 -0.15325589
-0.056274056 0.56274056 -0.15325595
-0.056274056 0.5346036 -0.15325594
-0.056274056 0.50646657 -0.15325588
-0.056274056 0.47832948 -0.15325595
-0.056274056 0.45019248 -0.15325595
-0.056274056 0.42205542 -0.15325588
-0.056274056 0.39391845 -0.15325588
-0.056274056 0.36578143 -0.15325585
-0.056274056 0.33764434 -0.15325591
-0.056274056 0.30950734 -0.15325588
-0.056274056 0.28137037 -0.15325589
-0.056274056 0.25323322 -0.15325591
-0.056274056 0.22509627 -0.15325591
-0.056274056 0.19695926 -0.15325588
-0.056274056 0.16882212 -0.15325589
-0.056274056 0.14068514 -0.15325589
-0.056274056 0.11254817 -0.15325591
-0.056274056 0.084411085 -0.15325597
-0.056274056 0.056274123 -0.15325597
-0.056274056 0.028137058 -0.15325591
-0.056274056 -2.9802322e-08 -0.15325597
-0.056274056 -0.028136998 -0.15325597
-0.056274056 -0.056274012 -0.15325594
-0.056274056 -0.08441107 -0.15325586
-0.056274056 -0.11254804 -0.15325586
-0.056274056 -0.14068508 -0.15325588
-0.056274056 -0.16882214 -0.15325589
-0.056274056 -0.19695917 -0.15325586
-0.056274056 -0.22509623 -0.15325586
-0.056274056 -0.25323316 -0.15325597
-0.056274056 -0.28137019 -0.15325594
-0.056274056 -0.30950734 -0.15325586
-0.056274056 -0.33764428 -0.15325594
-0.056274056 -0.36578131 -0.15325594
-0.056274056 -0.39391837 -0.15325592
-0.056274056 -0.42205542 -0.15325594
-0.056274056 -0.45019239 -0.15325588
-0.056274056 -0.47832942 -0.15325589
-0.056274056 -0.50646651 -0.15325588
-0.056274056 -0.53460348 -0.15325588
-0.056274056 -0.56274056 -0.15325589
-0.056274056 -0.59087753 -0.15325595
-0.056274056 -0.6190145 -0.15325595
-0.056274056 -0.64715171 -0.15325585
-0.056274056 -0.67528856 -0.15325594
-0.056274056 -0.70342565 -0.15325591
-0.056274056 -0.73156267 -0.15325591
-0.056274056 -0.7596997 -0.15325591
-0.028351475 0.76548982 -0.14253369
-0.028351475 0.73713833 -0.14253366
-0.028351475 0.70878685 -0.14253369
-0.028351475 0.68043542 -0.14253366
-0.028351475 0.65208387 -0.14253372
-0.028351475 0.62373245 -0.14253372
-0.028351475 0.59538102 -0.14253365
-0.028351475 0.56702948 -0.1425337
-0.028351475 0.53867805 -0.14253366
-0.028351475 0.51032656 -0.14253369
-0.028351475 0.48197508 -0.14253366
-0.028351475 0.45362356 -0.1425337
-0.028351475 0.42527205 -0.14253373
-0.028351475 0.39692065 -0.14253372
-0.028351475 0.3685692 -0.14253369
-0.028351475 0.34021768 -0.14253372
-0.028351475 0.31186622 -0.14253367
-0.028351475 0.28351471 -0.1425337
-0.028351475 0.25516325 -0.14253367
-0.028351475 0.22681181 -0.14253362
-0.028351475 0.19846033 -0.1425337
-0.028351475 0.17010888 -0.14253365
-0.028351475 0.14175735 -0.14253369
-0.028351475 0.11340591 -0.14253365
-0.028351475 0.085054457 -0.1425336
-0.028351475 0.056702934 -0.14253365
-0.028351475 0.028351534 -0.14253363
-0.028351475 7.4505806e-09 -0.14253367
-0.028351475 -0.028351389 -0.14253367
-0.028351475 -0.056702871 -0.14253375
-0.028351475 -0.085054398 -0.14253379
-0.028351475 -0.11340585 -0.14253366
-0.028351475 -0.14175723 -0.14253373
-0.028351475 -0.17010874 -0.14253373
-0.028351475 -0.19846022 -0.14253373
-0.028351475 -0.22681174 -0.14253378
-0.028351475 -0.25516319 -0.14253372
-0.028351475 -0.28351462 -0.14253367
-0.028351475 -0.31186616 -0.14253372
-0.028351475 -0.34021762 -0.14253366
-0.028351475 -0.36856914 -0.14253372
-0.028351475 -0.39692056 -0.14253367
-0.028351475 -0.42527208 -0.14253366
-0.028351475 -0.45362353 -0.14253366
-0.028351475 -0.48197502 -0.14253365
-0.028351475 -0.5103265 -0.14253366
-0.028351475 -0.53867793 -0.14253373
-0.028351475 -0.56702936 -0.14253372
-0.028351475 -0.59538084 -0.14253367
-0.028351475 -0.62373233 -0.14253366
-0.028351475 -0.65208381 -0.14253369
-0.028351475 -0.6804353 -0.14253366
-0.028351475 -0.70878685 -0.14253366
-0.028351475 -0.73713827 -0.14253366
-0.028351475 -0.76548976 -0.14253366
0 0.77136874 -0.13164678
0 0.74279946 -0.13164678
0 0.7142303 -0.13164675
0 0.68566108 -0.13164681
0 0.65709192 -0.13164675
0 0.62852269 -0.13164674
0 0.59995347 -0.1316468
0 0.57138419 -0.13164681
0 0.54281503 -0.13164675
0 0.51424587 -0.13164681
0 0.48567659 -0.13164683
0 0.45710745 -0.1316468
0 0.42853826 -0.13164672
0 0.39996901 -0.13164672
0 0.37139976 -0.13164675
0 0.34283054 -0.1316468
0 0.31426138 -0.13164672
0 0.28569216 -0.13164678
0 0.2571229 -0.1316468
0 0.2285537 -0.13164686
0 0.19998452 -0.13164678
0 0.17141533 -0.13164671
0 0.14284614 -0.13164677
0 0.11427687 -0.13164678
0 0.085707664 -0.13164684
0 0.057138439 -0.13164672
0 0.028569229 -0.13164678
0 2.2351742e-08 -0.13164683
0 -0.028569199 -0.13164672
0 -0.057138409 -0.13164677
0 -0.085707545 -0.13164674
0 -0.1142768 -0.13164675
0 -0.14284606 -0.13164678
0 -0.1714153 -0.13164678
0 -0.1999844 -0.1316468
0 -0.22855365 -0.1316468
0 -0.25712287 -0.13164678
0 -0.28569213 -0.13164678
0 -0.3142612 -0.1316468
0 -0.34283048 -0.13164681
0 -0.37139967 -0.13164678
0 -0.39996892 -0.13164681
0 -0.42853811 -0.13164674
0 -0.45710728 -0.13164681
0 -0.48567665 -0.13164675
0 -0.51424569 -0.13164677
0 -0.54281497 -0.13164678
0 -0.57138407 -0.13164683
0 -0.59995341 -0.13164677
0 -0.62852257 -0.13164681
0 -0.65709174 -0.13164678
0 -0.68566102 -0.13164681
0 -0.7142303 -0.13164675
0 -0.74279946 -0.13164675
0 -0.77136862 -0.13164678
0.028790319 0.77733868 -0.12059137
0.028790319 0.74854827 -0.1205914
0.028790319 0.71975791 -0.12059134
0.028790319 0.69096768 -0.12059134
0.028790319 0.66217738 -0.12059131
0.028790319 0.63338703 -0.12059137
0.028790319 0.60459673 -0.12059136
0.028790319 0.5758065 -0.12059134
0.028790319 0.54701614 -0.1205914
0.028790319 0.51822579 -0.12059133
0.028790319 0.48943549 -0.12059131
0.028790319 0.46064514 -0.12059137
0.028790319 0.43185484 -0.12059136
0.028790319 0.40306443 -0.1205914
0.028790319 0.37427425 -0.12059128
0.028790319 0.34548387 -0.12059136
0.028790319 0.31669351 -0.12059142
0.028790319 0.28790319 -0.12059137
0.028790319 0.25911292 -0.12059136
0.028790319 0.23032263 -0.12059133
0.028790319 0.20153221 -0.12059136
0.028790319 0.17274198 -0.12059139
0.028790319 0.14395165 -0.12059132
0.028790319 0.1151613 -0.12059139
0.028790319 0.086370967 -0.12059133
0.028790319 0.057580732 -0.12059134
0.028790319 0.028790399 -0.12059129
0.028790319 -7.4505806e-09 -0.12059131
0.028790319 -0.028790362 -0.12059139
0.028790319 -0.057580527 -0.12059132
0.028790319 -0.08637093 -0.12059135
0.028790319 -0.11516122 -0.12059133
0.028790319 -0.14395154 -0.12059136
0.028790319 -0.17274186 -0.12059139
0.028790319 -0.20153214 -0.12059136
0.028790319 -0.23032255 -0.12059131
0.028790319 -0.25911275 -0.12059136
0.028790319 -0.28790319 -0.12059135
0.028790319 -0.31669351 -0.12059138
0.028790319 -0.34548381 -0.12059135
0.028790319 -0.37427413 -0.12059139
0.028790319 -0.4030644 -0.12059136
0.028790319 -0.43185472 -0.12059139
0.028790319 -0.46064514 -0.12059133
0.028790319 -0.48943534 -0.12059139
0.028790319 -0.51822573 -0.12059133
0.028790319 -0.54701602 -0.12059136
0.028790319 -0.57580638 -0.12059133
0.028790319 -0.60459667 -0.12059136
0.028790319 -0.63338697 -0.12059134
0.028790319 -0.66217744 -0.12059134
0.028790319 -0.69096756 -0.1205914
0.028790319 -0.71975791 -0.12059143
0.028790319 -0.74854827 -0.12059131
0.028790319 -0.77733862 -0.12059134
0.058029756 0.78340173 -0.10936347
0.058029756 0.7543869 -0.10936344
0.058029756 0.72537196 -0.10936347
0.058029756 0.69635713 -0.1093635
0.058029756 0.66734219 -0.10936347
0.058029756 0.63832736 -0.10936347
0.058029756 0.60931242 -0.10936347
0.058029756 0.58029753 -0.10936345
0.058029756 0.5512827 -0.1093635
0.058029756 0.52226788 -0.10936342
0.058029756 0.49325287 -0.1093635
0.058029756 0.46423811 -0.10936344
0.058029756 0.43522316 -0.10936351
0.058029756 0.40620837 -0.10936347
0.058029756 0.37719339 -0.10936356
0.058029756 0.34817857 -0.10936346
0.058029756 0.31916371 -0.10936349
0.058029756 0.29014882 -0.10936348
0.058029756 0.26113391 -0.10936348
0.058029756 0.23211902 -0.10936348
0.058029756 0.20310417 -0.1093635
0.058029756 0.17408931 -0.10936355
0.058029756 0.14507449 -0.10936344
0.058029756 0.11605959 -0.10936344
0.058029756 0.087044731 -0.10936348
0.058029756 0.058029834 -0.10936347
0.058029756 0.029014889 -0.10936344
0.058029756 -3.7252903e-09 -0.10936342
0.058029756 -0.029014859 -0.10936347
0.058029756 -0.058029756 -0.10936346
0.058029756 -0.087044574 -0.10936336
0.058029756 -0.11605951 -0.10936349
0.058029756 -0.14507428 -0.10936343
0.058029756 -0.17408928 -0.10936344
0.058029756 -0.20310408 -0.10936342
0.058029756 -0.23211896 -0.10936351
0.058029756 -0.26113388 -0.10936341
0.058029756 -0.29014868 -0.1093634
0.058029756 -0.31916359 -0.10936348
0.058029756 -0.34817851 -0.10936339
0.058029756 -0.37719339 -0.10936348
0.058029756 -0.40620822 -0.10936347
0.058029756 -0.43522316 -0.10936348
0.058029756 -0.46423799 -0.10936347
0.058029756 -0.49325284 -0.1093635
0.058029756 -0.5222677 -0.10936351
0.058029756 -0.55128264 -0.1093635
0.058029756 -0.58029747 -0.10936351
0.058029756 -0.6093123 -0.1093635
0.058029756 -0.63832724 -0.10936344
0.058029756 -0.66734213 -0.1093635
0.058029756 -0.69635701 -0.10936353
0.058029756 -0.72537196 -0.1093635
0.058029756 -0.7543869 -0.10936344
0.058029756 -0.78340173 -0.10936347
0.087728903 0.76031721 -0.097959071
0.087728903 0.73107421 -0.097959071
0.087728903 0.70183116 -0.097959042
0.087728903 0.67258823 -0.097959101
0.087728903 0.64334524 -0.097959101
0.087728903 0.61410236 -0.097959042
0.087728903 0.58485937 -0.097959056
0.087728903 0.55561638 -0.097959086
0.087728903 0.52637339 -0.097959056
0.087728903 0.49713045 -0.097959086
0.087728903 0.46788746 -0.097959116
0.087728903 0.43864456 -0.097959027
0.087728903 0.4094016 -0.097959042
0.087728903 0.3801586 -0.097959056
0.087728903 0.35091561 -0.097959071
0.087728903 0.32167262 -0.097959086
0.087728903 0.29242966 -0.097959101
0.087728903 0.26318675 -0.097959012
0.087728903 0.23394379 -0.097959027
0.087728903 0.2047008 -0.097959042
0.087728903 0.17545781 -0.097959064
0.087728903 0.14621484 -0.097959079
0.087728903 0.11697186 -0.097959086
0.087728903 0.087729 -0.097959049
0.087728903 0.058486022 -0.097959064
0.087728903 0.029242996 -0.097959042
0.087728903 1.4901161e-08 -0.097959056
0.087728903 -0.029242963 -0.097959071
0.087728903 -0.058485944 -0.097959079
0.087728903 -0.087728851 -0.097959004
0.087728903 -0.11697183 -0.097959012
0.087728903 -0.1462148 -0.097959027
0.087728903 -0.17545775 -0.097958997
0.087728903 -0.20470074 -0.097959012
0.087728903 -0.23394361 -0.097959094
0.087728903 -0.26318669 -0.097959034
0.087728903 -0.29242969 -0.097959042
0.087728903 -0.32167265 -0.097959056
0.087728903 -0.35091555 -0.097958997
0.087728903 -0.38015842 -0.097959086
0.087728903 -0.40940142 -0.097959101
0.087728903 -0.43864447 -0.097959027
0.087728903 -0.46788746 -0.097959042
0.087728903 -0.49713039 -0.097958997
0.087728903 -0.52637339 -0.097959012
0.087728903 -0.55561626 -0.097959101
0.087728903 -0.58485925 -0.097959086
0.087728903 -0.61410224 -0.097959012
0.087728903 -0.64334524 -0.097959042
0.087728903 -0.67258823 -0.097959012
0.087728903 -0.7018311 -0.097959101
0.087728903 -0.73107409 -0.097959101
0.087728903 -0.76031703 -0.097959071
0.11789868 0.76634139 -0.086373925
0.11789868 0.73686683 -0.086373866
0.11789868 0.70739198 -0.086373985
0.11789868 0.67791736 -0.086373925
0.11789868 0.64844275 -0.086373866
0.11789868 0.61896801 -0.086373925
0.11789868 0.58949339 -0.086373955
0.11789868 0.56001872 -0.086373895
0.11789868 0.53054404 -0.08637397
0.11789868 0.50106937 -0.086373881
0.11789868 0.47159481 -0.086373866
0.11789868 0.44212002 -0.086373955
0.11789868 0.4126454 -0.086373925
0.11789868 0.38317066 -0.086373955
0.11789868 0.35369608 -0.086373925
0.11789868 0.32422143 -0.086373836
0.11789868 0.29474676 -0.086373918
0.11789868 0.26527202 -0.086373925
0.11789868 0.23579732 -0.086373962
0.11789868 0.20632271 -0.086373925
0.11789868 0.17684804 -0.086373836
0.11789868 0.14737339 -0.086373925
0.11789868 0.11789878 -0.086373873
0.11789868 0.08842396 -0.08637397
0.11789868 0.058949299 -0.086373888
0.11789868 0.029474732 -0.086373881
0.11789868 4.0978193e-08 -0.086373925
0.11789868 -0.029474625 -0.086373843
0.11789868 -0.058949225 -0.08637397
0.11789868 -0.088423967 -0.08637397
0.11789868 -0.11789863 -0.086373881
0.11789868 -0.14737336 -0.086373888
0.11789868 -0.17684793 -0.086373895
0.11789868 -0.20632258 -0.08637397
0.11789868 -0.23579729 -0.08637394
0.11789868 -0.26527196 -0.086373851
0.11789868 -0.29474664 -0.08637397
0.11789868 -0.32422131 -0.086373895
0.11789868 -0.35369605 -0.086373895
0.11789868 -0.38317066 -0.08637394
0.11789868 -0.41264522 -0.086373925
0.11789868 -0.44211996 -0.086373925
0.11789868 -0.47159466 -0.086373895
0.11789868 -0.50106943 -0.086373895
0.11789868 -0.53054392 -0.08637391
0.11789868 -0.56001872 -0.08637391
0.11789868 -0.58949333 -0.086373925
0.11789868 -0.61896801 -0.086373895
0.11789868 -0.64844263 -0.086373955
0.11789868 -0.6779173 -0.086373925
0.11789868 -0.70739204 -0.086373866
0.11789868 -0.73686671 -0.086373955
0.11789868 -0.76634133 -0.086373985
0.14855036 0.77246195 -0.074603707
0.14855036 0.74275184 -0.074603766
0.14855036 0.71304178 -0.074603677
0.14855036 0.68333167 -0.074603677
0.14855036 0.65362161 -0.074603766
0.14855036 0.6239115 -0.074603796
0.14855036 0.59420151 -0.074603766
0.14855036 0.56449133 -0.074603751
0.14855036 0.53478134 -0.074603721
0.14855036 0.50507128 -0.074603662
0.14855036 0.47536123 -0.074603692
0.14855036 0.44565111 -0.074603751
0.14855036 0.41594103 -0.074603796
0.14855036 0.38623095 -0.074603707
0.14855036 0.35652089 -0.074603766
0.14855036 0.32681087 -0.074603721
0.14855036 0.29710072 -0.074603736
0.14855036 0.2673907 -0.074603662
0.14855036 0.2376806 -0.074603721
0.14855036 0.2079705 -0.074603766
0.14855036 0.17826046 -0.074603692
0.14855036 0.14855042 -0.074603781
0.14855036 0.11884028 -0.074603789
0.14855036 0.089130275 -0.074603751
0.14855036 0.059420221 -0.074603677
0.14855036 0.029710131 -0.074603729
0.14855036 -0 -0.074603744
0.14855036 -0.029710054 -0.074603662
0.14855036 -0.059420142 -0.074603714
0.14855036 -0.089130275 -0.074603729
0.14855036 -0.11884024 -0.074603729
0.14855036 -0.14855029 -0.074603654
0.14855036 -0.17826034 -0.074603744
0.14855036 -0.20797047 -0.074603759
0.14855036 -0.23768052 -0.074603677
0.14855036 -0.26739067 -0.074603692
0.14855036 -0.29710066 -0.074603736
0.14855036 -0.32681078 -0.074603751
0.14855036 -0.35652077 -0.074603751
0.14855036 -0.38623089 -0.074603766
0.14855036 -0.415941 -0.074603736
0.14855036 -0.44565102 -0.074603662
0.14855036 -0.47536108 -0.074603766
0.14855036 -0.50507116 -0.074603707
0.14855036 -0.53478116 -0.074603736
0.14855036 -0.56449127 -0.074603781
0.14855036 -0.59420145 -0.074603736
0.14855036 -0.6239115 -0.074603677
0.14855036 -0.65362155 -0.074603677
0.14855036 -0.68333161 -0.074603766
0.14855036 -0.71304172 -0.074603707
0.14855036 -0.74275172 -0.074603707
0.14855036 -0.77246183 -0.074603736
0.17969559 0.77868104 -0.062643945
0.17969559 0.74873173 -0.062643975
0.17969559 0.71878242 -0.062644035
0.17969559 0.68883312 -0.062644094
0.17969559 0.65888381 -0.062644035
0.17969559 0.62893462 -0.062644035
0.17969559 0.59898537 -0.062643975
0.17969559 0.56903607 -0.062644079
0.17969559 0.53908682 -0.062644035
0.17969559 0.50913751 -0.062644064
0.17969559 0.47918826 -0.06264402
0.17969559 0.44923899 -0.062644124
0.17969559 0.41928974 -0.062644079
0.17969559 0.38934049 -0.06264402
0.17969559 0.35939121 -0.062643975
0.17969559 0.32944199 -0.062643945
0.17969559 0.29949272 -0.062644027
0.17969559 0.26954347 -0.062643975
0.17969559 0.23959419 -0.06264393
0.17969559 0.20964488 -0.062643982
0.17969559 0.17969564 -0.06264393
0.17969559 0.14974634 -0.06264402
0.17969559 0.11979715 -0.06264402
0.17969559 0.089847818 -0.062644064
0.17969559 0.059898566 -0.062644012
0.17969559 0.02994932 -0.062643975
0.17969559 3.7252903e-08 -0.062644057
0.17969559 -0.029949257 -0.062643975
0.17969559 -0.059898585 -0.06264402
0.17969559 -0.089847833 -0.062643975
0.17969559 -0.11979716 -0.06264402
0.17969559 -0.14974631 -0.062644057
0.17969559 -0.17969558 -0.062644012
0.17969559 -0.20964485 -0.062644012
0.17969559 -0.2395941 -0.06264396
0.17969559 -0.26954344 -0.062644012
0.17969559 -0.2994926 -0.06264405
0.17969559 -0.32944185 -0.062644005
0.17969559 -0.35939115 -0.06264405
0.17969559 -0.3893404 -0.062644005
0.17969559 -0.41928971 -0.062644005
0.17969559 -0.4492389 -0.062644079
0.17969559 -0.4791882 -0.062644079
0.17969559 -0.50913745 -0.06264402
0.17969559 -0.5390867 -0.062644035
0.17969559 -0.56903601 -0.062644035
0.17969559 -0.59898525 -0.062644005
0.17969559 -0.6289345 -0.062643975
0.17969559 -0.65888375 -0.062644064
0.17969559 -0.68883306 -0.062644064
0.17969559 -0.71878231 -0.062644064
0.17969559 -0.74873161 -0.062644094
0.17969559 -0.77868086 -0.062644035
0.2113464 0.78500098 -0.050490141
0.2113464 0.75480866 -0.05049023
0.2113464 0.72461629 -0.050490141
0.2113464 0.69442391 -0.050490201
0.2113464 0.66423166 -0.050490081
0.2113464 0.63403916 -0.050490171
0.2113464 0.60384691 -0.050490141
0.2113464 0.57365459 -0.050490141
0.2113464 0.54346228 -0.050490201
0.2113464 0.51326984 -0.050490245
0.2113464 0.48307753 -0.050490215
0.2113464 0.45288521 -0.050490186
0.2113464 0.42269278 -0.050490171
0.2113464 0.39250049 -0.050490141
0.2113464 0.3623082 -0.050490126
0.2113464 0.33211583 -0.050490201
0.2113464 0.30192342 -0.050490223
0.2113464 0.27173114 -0.050490201
0.2113464 0.24153879 -0.050490133
0.2113464 0.21134642 -0.050490201
0.2113464 0.18115409 -0.050490133
0.2113464 0.15096185 -0.050490148
0.2113464 0.12076943 -0.050490182
0.2113464 0.090577058 -0.050490245
0.2113464 0.060384724 -0.050490182
0.2113464 0.030192388 -0.050490119
0.2113464 1.8626451e-08 -0.050490186
0.2113464 -0.030192319 -0.050490122
0.2113464 -0.060384564 -0.050490141
0.2113464 -0.090576977 -0.050490167
0.2113464 -0.1207693 -0.050490271
0.2113464 -0.15096173 -0.050490126
0.2113464 -0.18115404 -0.050490238
0.2113464 -0.21134639 -0.050490178
0.2113464 -0.24153872 -0.050490111
0.2113464 -0.27173099 -0.050490171
0.2113464 -0.30192339 -0.050490156
0.2113464 -0.33211571 -0.05049026
0.2113464 -0.36230814 -0.050490171
0.2113464 -0.3925004 -0.050490186
0.2113464 -0.42269278 -0.050490156
0.2113464 -0.45288506 -0.050490215
0.2113464 -0.48307741 -0.050490171
0.2113464 -0.51326978 -0.050490156
0.2113464 -0.54346216 -0.050490245
0.2113464 -0.57365453 -0.050490171
0.2113464 -0.60384679 -0.050490171
0.2113464 -0.63403916 -0.050490141
0.2113464 -0.66423148 -0.05049023
0.2113464 -0.69442379 -0.050490201
0.2113464 -0.72461617 -0.050490171
0.2113464 -0.75480849 -0.050490201
0.2113464 -0.78500098 -0.050490141
0.24351519 0.76098502 -0.038137406
0.24351519 0.73054558 -0.038137376
0.24351519 0.70010614 -0.038137466
0.24351519 0.66966677 -0.038137406
0.24351519 0.63922745 -0.038137406
0.24351519 0.60878795 -0.038137466
0.24351519 0.57834864 -0.038137347
0.24351519 0.54790926 -0.038137436
0.24351519 0.51746976 -0.038137466
0.24351519 0.48703036 -0.038137436
0.24351519 0.45659101 -0.038137421
0.24351519 0.42615163 -0.038137376
0.24351519 0.39571217 -0.038137436
0.24351519 0.36527282 -0.038137436
0.24351519 0.33483341 -0.038137391
0.24351519 0.30439401 -0.038137347
0.24351519 0.2739546 -0.038137428
0.24351519 0.24351513 -0.038137473
0.24351519 0.21307586 -0.038137384
0.24351519 0.1826364 -0.038137428
0.24351519 0.15219705 -0.038137425
0.24351519 0.12175758 -0.038137477
0.24351519 0.091318257 -0.038137343
0.24351519 0.060878836 -0.038137428
0.24351519 0.030439492 -0.038137428
0.24351519 -2.4214387e-08 -0.038137436
0.24351519 -0.030439371 -0.038137432
0.24351519 -0.060878761 -0.038137391
0.24351519 -0.091318145 -0.038137514
0.24351519 -0.12175763 -0.038137395
0.24351519 -0.15219693 -0.038137432
0.24351519 -0.18263632 -0.038137384
0.24351519 -0.21307579 -0.038137436
0.24351519 -0.24351518 -0.038137399
0.24351519 -0.27395451 -0.038137481
0.24351519 -0.30439392 -0.038137436
0.24351519 -0.33483332 -0.038137436
0.24351519 -0.36527276 -0.038137436
0.24351519 -0.39571217 -0.038137391
0.24351519 -0.42615151 -0.038137481
0.24351519 -0.45659089 -0.038137436
0.24351519 -0.48703033 -0.038137436
0.24351519 -0.5174697 -0.038137406
0.24351519 -0.54790902 -0.038137466
0.24351519 -0.57834858 -0.038137406
0.24351519 -0.60878789 -0.038137436
0.24351519 -0.63922727 -0.038137436
0.24351519 -0.66966677 -0.038137436
0.24351519 -0.70010614 -0.038137376
0.24351519 -0.73054546 -0.038137496
0.24351519 -0.76098496 -0.038137376
0.27621478 0.76726317 -0.025580913
0.27621478 0.73657274 -0.025580913
0.27621478 0.70588219 -0.025580823
0.27621478 0.67519176 -0.025580823
0.27621478 0.64450121 -0.025580823
0.27621478 0.61381066 -0.025580883
0.27621478 0.58312011 -0.025580823
0.27621478 0.55242956 -0.025580853
0.27621478 0.52173907 -0.025580838
0.27621478 0.49104857 -0.025580794
0.27621478 0.46035799 -0.025580823
0.27621478 0.42966744 -0.025580883
0.27621478 0.39897692 -0.025580823
0.27621478 0.36828634 -0.025580853
0.27621478 0.33759588 -0.025580823
0.27621478 0.30690539 -0.025580764
0.27621478 0.27621478 -0.025580801
0.27621478 0.24552424 -0.025580868
0.27621478 0.21483374 -0.025580809
0.27621478 0.18414316 -0.025580831
0.27621478 0.15345269 -0.025580816
0.27621478 0.12276219 -0.025580753
0.27621478 0.092071518 -0.02558087
0.27621478 0.061381057 -0.025580848
0.27621478 0.03069064 -0.025580864
0.27621478 5.6810677e-08 -0.025580894
0.27621478 -0.030690452 -0.025580833
0.27621478 -0.061381035 -0.025580864
0.27621478 -0.092071533 -0.025580969
0.27621478 -0.12276204 -0.025580913
0.27621478 -0.15345255 -0.025580846
0.27621478 -0.18414313 -0.025580876
0.27621478 -0.21483365 -0.025580816
0.27621478 -0.24552423 -0.025580846
0.27621478 -0.27621466 -0.025580898
0.27621478 -0.30690524 -0.025580898
0.27621478 -0.33759573 -0.025580838
0.27621478 -0.36828631 -0.025580853
0.27621478 -0.39897686 -0.025580853
0.27621478 -0.42966738 -0.025580779
0.27621478 -0.46035787 -0.025580883
0.27621478 -0.4910484 -0.025580883
0.27621478 -0.52173895 -0.025580823
0.27621478 -0.55242956 -0.025580913
0.27621478 -0.58312005 -0.025580823
0.27621478 -0.6138106 -0.025580794
0.27621478 -0.64450109 -0.025580883
0.27621478 -0.67519158 -0.025580853
0.27621478 -0.70588219 -0.025580823
0.27621478 -0.73657268 -0.025580823
0.27621478 -0.76726323 -0.025580823
0.3094584 0.77364612 -0.012815267
0.3094584 0.7427001 -0.012815386
0.3094584 0.71175432 -0.012815446
0.3094584 0.68080848 -0.012815356
0.3094584 0.64986259 -0.012815386
0.3094584 0.61891687 -0.012815356
0.3094584 0.58797097 -0.012815386
0.3094584 0.55702519 -0.012815356
0.3094584 0.5260793 -0.012815416
0.3094584 0.49513352 -0.012815312
0.3094584 0.46418765 -0.012815386
0.3094584 0.43324178 -0.012815401
0.3094584 0.40229595 -0.012815341
0.3094584 0.37135008 -0.012815356
0.3094584 0.34040427 -0.012815282
0.3094584 0.30945837 -0.012815446
0.3094584 0.27851257 -0.012815386
0.3094584 0.24756676 -0.012815304
0.3094584 0.21662092 -0.012815379
0.3094584 0.18567514 -0.012815349
0.3094584 0.15472922 -0.012815326
0.3094584 0.12378338 -0.012815386
0.3094584 0.092837542 -0.012815449
0.3094584 0.06189169 -0.012815343
0.3094584 0.030945927 -0.012815316
0.3094584 8.8941306e-08 -0.012815377
0.3094584 -0.030945841 -0.012815361
0.3094584 -0.061891682 -0.012815423
0.3094584 -0.092837438 -0.012815394
0.3094584 -0.12378336 -0.012815375
0.3094584 -0.15472913 -0.012815349
0.3094584 -0.18567497 -0.012815408
0.3094584 -0.21662089 -0.012815394
0.3094584 -0.24756667 -0.012815364
0.3094584 -0.27851248 -0.012815386
0.3094584 -0.30945826 -0.012815401
0.3094584 -0.34040415 -0.012815341
0.3094584 -0.37135005 -0.012815446
0.3094584 -0.40229583 -0.012815461
0.3094584 -0.43324167 -0.012815341
0.3094584 -0.4641875 -0.012815371
0.3094584 -0.49513337 -0.012815297
0.3094584 -0.5260793 -0.012815416
0.3094584 -0.55702507 -0.012815416
0.3094584 -0.58797097 -0.012815386
0.3094584 -0.61891675 -0.012815386
0.3094584 -0.64986265 -0.012815326
0.3094584 -0.68080842 -0.012815326
0.3094584 -0.7117542 -0.012815356
0.3094584 -0.74270022 -0.012815326
0.3094584 -0.773646 -0.012815356
0.34325975 0.78013587 0.0001642406
0.34325975 0.74893034 0.0001642108
0.34325975 0.71772504 0.00016438961
0.34325975 0.68651962 0.0001643002
0.34325975 0.65531421 0.00016433001
0.34325975 0.62410879 0.00016435981
0.34325975 0.59290326 0.0001643002
0.34325975 0.56169784 0.0001642704
0.34325975 0.53049242 0.0001643002
0.34325975 0.49928689 0.0001642406
0.34325975 0.4680815 0.0001642555
0.34325975 0.43687606 0.0001642704
0.34325975 0.40567064 0.0001642853
0.34325975 0.37446523 0.00016433001
0.34325975 0.34325981 0.00016433001
0.34325975 0.31205434 0.0001642108
0.34325975 0.28084892 0.0001642704
0.34325975 0.24964349 0.0001642853
0.34325975 0.21843809 0.0001642853
0.34325975 0.18723261 0.00016433746
0.34325975 0.1560272 0.00016435236
0.34325975 0.1248218 0.00016436353
0.34325975 0.093616351 0.00016424432
0.34325975 0.062410939 0.0001642555
0.34325975 0.031205438 0.00016434398
0.34325975 -6.519258e-09 0.00016422561
0.34325975 -0.031205339 0.00016432721
0.34325975 -0.062410749 0.00016433746
0.34325975 -0.093616247 0.00016425923
0.34325975 -0.12482174 0.00016434491
0.34325975 -0.15602715 0.00016435236
0.34325975 -0.18723255 0.00016420335
0.34325975 -0.21843797 0.0001642108
0.34325975 -0.2496433 0.00016430765
0.34325975 -0.28084886 0.0001643151
0.34325975 -0.31205428 0.00016433001
0.34325975 -0.34325975 0.0001642853
0.34325975 -0.37446517 0.0001642853
0.34325975 -0.40567058 0.0001642555
0.34325975 -0.436876 0.0001642704
0.34325975 -0.46808138 0.00016433001
0.34325975 -0.49928683 0.0001643002
0.34325975 -0.53049231 0.0001642406
0.34325975 -0.56169778 0.00016435981
0.34325975 -0.59290326 0.00016433001
0.34325975 -0.62410867 0.00016433001
0.34325975 -0.65531397 0.0001642406
0.34325975 -0.68651938 0.0001642108
0.34325975 -0.71772492 0.00016433001
0.34325975 -0.74893034 0.00016433001
0.34325975 -0.78013587 0.00016435981
0.37763301 0.78673542 0.0133636
0.37763301 0.75526595 0.013363481
0.37763301 0.72379661 0.01336351
0.37763301 0.69232714 0.01336354
0.37763301 0.6608578 0.0133636
0.37763301 0.62938833 0.013363481
0.37763301 0.59791899 0.01336357
0.37763301 0.56644952 0.01336354
0.37763301 0.53498012 0.01336351
0.37763301 0.50351065 0.013363525
0.37763301 0.47204131 0.013363585
0.37763301 0.44057193 0.01336354
0.37763301 0.40910247 0.01336354
0.37763301 0.37763304 0.013363525
0.37763301 0.34616369 0.013363615
0.37763301 0.31469426 0.013363585
0.37763301 0.2832247 0.01336351
0.37763301 0.25175542 0.013363563
0.37763301 0.22028594 0.01336357
0.37763301 0.18881656 0.013363495
0.37763301 0.15734711 0.013363503
0.37763301 0.12587778 0.013363563
0.37763301 0.094408318 0.013363566
0.37763301 0.062938862 0.013363574
0.37763301 0.03146949 0.013363503
0.37763301 2.1420419e-08 0.013363679
0.37763301 -0.031469345 0.013363608
0.37763301 -0.062938884 0.013363525
0.37763301 -0.094408169 0.013363544
0.37763301 -0.12587763 0.013363551
0.37763301 -0.15734708 0.013363555
0.37763301 -0.18881655 0.01336357
0.37763301 -0.22028583 0.013363585
0.37763301 -0.2517553 0.013363592
0.37763301 -0.28322464 0.013363525
0.37763301 -0.31469408 0.01336357
0.37763301 -0.34616354 0.013363585
0.37763301 -0.37763295 0.01336363
0.37763301 -0.4091025 0.01336354
0.37763301 -0.44057178 0.013363525
0.37763301 -0.47204128 0.013363525
0.37763301 -0.50351059 0.01336351
0.37763301 -0.53498006 0.01336351
0.37763301 -0.56644952 0.01336357
0.37763301 -0.59791893 0.01336357
0.37763301 -0.62938827 0.01336354
0.37763301 -0.66085774 0.01336354
0.37763301 -0.69232714 0.01336354
0.37763301 -0.72379649 0.01336354
0.37763301 -0.75526607 0.01336363
0.41259283 0.76170981 0.026788056
0.41259283 0.72997189 0.026788056
0.41259283 0.69823396 0.026787966
0.41259283 0.66649604 0.026788026
0.41259283 0.63475823 0.026788086
0.41259283 0.60302031 0.026788086
0.41259283 0.57128239 0.026788056
0.41259283 0.53954446 0.026788056
0.41259283 0.50780654 0.026788056
0.41259283 0.47606865 0.026788071
0.41259283 0.44433081 0.026788056
0.41259283 0.41259277 0.026788041
0.41259283 0.38085502 0.026788101
0.41259283 0.34911698 0.026788056
0.41259283 0.31737912 0.026788041
0.41259283 0.28564122 0.026788056
0.41259283 0.25390336 0.026788041
0.41259283 0.22216532 0.026788041
0.41259283 0.19042753 0.026788116
0.41259283 0.15868956 0.026788041
0.41259283 0.12695169 0.026788022
0.41259283 0.095213793 0.026788037
0.41259283 0.063475847 0.026788095
0.41259283 0.031737871 0.026788021
0.41259283 -3.0733645e-08 0.026788039
0.41259283 -0.031737842 0.02678798
0.41259283 -0.063475743 0.026787998
0.41259283 -0.095213644 0.026788015
0.41259283 -0.12695163 0.026788108
0.41259283 -0.15868944 0.026788048
0.41259283 -0.19042742 0.026787981
0.41259283 -0.22216526 0.026788086
0.41259283 -0.25390321 0.026788019
0.41259283 -0.2856411 0.026788026
0.41259283 -0.317379 0.026788041
0.41259283 -0.34911695 0.026788026
0.41259283 -0.38085485 0.026788041
0.41259283 -0.41259277 0.026788056
0.41259283 -0.44433066 0.026788071
0.41259283 -0.47606862 0.026788056
0.41259283 -0.50780648 0.026788116
0.41259283 -0.5395444 0.026788086
0.41259283 -0.57128227 0.026787996
0.41259283 -0.60302019 0.026788116
0.41259283 -0.63475811 0.026788086
0.41259283 -0.6664961 0.026788056
0.41259283 -0.6982339 0.026787996
0.41259283 -0.72997177 0.026788026
0.41259283 -0.76170975 0.026787996
0.44815427 0.76826447 0.04044354
0.44815427 0.7362535 0.040443659
0.44815427 0.70424247 0.040443569
0.44815427 0.67223138 0.04044348
0.44815427 0.6402204 0.040443599
0.44815427 0.60820937 0.040443569
0.44815427 0.5761984 0.040443659
0.44815427 0.54418731 0.04044351
0.44815427 0.51217633 0.040443599
0.44815427 0.4801653 0.040443569
0.44815427 0.44815427 0.040443555
0.44815427 0.41614324 0.04044354
0.44815427 0.38413221 0.04044351
0.44815427 0.35212123 0.040443629
0.44815427 0.32011026 0.040443569
0.44815427 0.28809923 0.040443555
0.44815427 0.2560882 0.040443525
0.44815427 0.22407722 0.040443592
0.44815427 0.19206612 0.04044348
0.44815427 0.16005513 0.040443592
0.44815427 0.1280441 0.040443569
0.44815427 0.096033067 0.040443547
0.44815427 0.064022109 0.040443622
0.44815427 0.032010961 0.040443547
0.44815427 5.2154064e-08 0.040443577
0.44815427 -0.032010932 0.040443517
0.44815427 -0.064022005 0.040443536
0.44815427 -0.096033007 0.040443644
0.44815427 -0.12804416 0.040443573
0.44815427 -0.16005507 0.040443607
0.44815427 -0.19206604 0.04044354
0.44815427 -0.22407712 0.040443555
0.44815427 -0.25608802 0.040443592
0.44815427 -0.28809911 0.040443607
0.44815427 -0.32011008 0.040443555
0.44815427 -0.35212117 0.040443569
0.44815427 -0.38413221 0.040443629
0.44815427 -0.41614324 0.040443525
0.44815427 -0.44815427 0.040443584
0.44815427 -0.48016521 0.040443555
0.44815427 -0.51217628 0.040443599
0.44815427 -0.54418725 0.040443584
0.44815427 -0.57619834 0.04044354
0.44815427 -0.60820925 0.04044351
0.44815427 -0.6402204 0.04044354
0.44815427 -0.67223144 0.040443599
0.44815427 -0.70424241 0.040443569
0.44815427 -0.73625332 0.04044354
0.44815427 -0.76826435 0.040443599
0.48433307 0.77493286 0.054336131
0.48433307 0.74264407 0.054336131
0.48433307 0.7103551 0.054336101
0.48433307 0.67806631 0.05433616
0.48433307 0.64577746 0.05433622
0.48433307 0.61348855 0.054336131
0.48433307 0.58119965 0.05433619
0.48433307 0.54891086 0.054336205
0.48433307 0.51662195 0.05433616
0.48433307 0.48433304 0.054336116
0.48433307 0.45204425 0.054336131
0.48433307 0.4197554 0.05433619
0.48433307 0.38746649 0.054336116
0.48433307 0.35517755 0.054336101
0.48433307 0.32288873 0.054336116
0.48433307 0.29059982 0.054336205
0.48433307 0.258311 0.054336235
0.48433307 0.22602212 0.05433616
0.48433307 0.19373323 0.054336086
0.48433307 0.16144437 0.054336153
0.48433307 0.12915555 0.054336168
0.48433307 0.09686666 0.054336101
0.48433307 0.064577803 0.054336164
0.48433307 0.032288987 0.054336183
0.48433307 9.4994903e-08 0.054336108
0.48433307 -0.032288887 0.054336119
0.48433307 -0.064577699 0.054336142
0.48433307 -0.096866518 0.05433616
0.48433307 -0.12915541 0.05433609
0.48433307 -0.16144431 0.054336186
0.48433307 -0.19373313 0.054336205
0.48433307 -0.22602203 0.054336146
0.48433307 -0.258311 0.054336146
0.48433307 -0.29059982 0.054336168
0.48433307 -0.32288864 0.05433619
0.48433307 -0.35517746 0.05433616
0.48433307 -0.38746643 0.05433622
0.48433307 -0.41975534 0.054336146
0.48433307 -0.45204413 0.05433616
0.48433307 -0.48433307 0.054336235
0.48433307 -0.51662195 0.05433619
0.48433307 -0.54891074 0.05433622
0.48433307 -0.58119965 0.05433619
0.48433307 -0.6134885 0.054336131
0.48433307 -0.64577734 0.054336101
0.48433307 -0.67806613 0.054336131
0.48433307 -0.71035504 0.054336071
0.48433307 -0.74264383 0.054336071
0.48433307 -0.77493286 0.05433619
0.5211454 0.78171813 0.068472028
0.5211454 0.74914658 0.068472028
0.5211454 0.71657491 0.068471998
0.5211454 0.68400335 0.068471968
0.5211454 0.65143168 0.068471938
0.5211454 0.61886024 0.068472117
0.5211454 0.58628869 0.068472058
0.5211454 0.55371702 0.068472058
0.5211454 0.52114546 0.068472043
0.5211454 0.48857379 0.068472028
0.5211454 0.45600224 0.068471968
0.5211454 0.42343062 0.068471983
0.5211454 0.39085907 0.068472058
0.5211454 0.35828745 0.068472043
0.5211454 0.3257159 0.068471953
0.5211454 0.29314435 0.068472028
0.5211454 0.2605727 0.068472058
0.5211454 0.22800109 0.068472043
0.5211454 0.19542962 0.068472043
0.5211454 0.16285799 0.068472028
0.5211454 0.13028634 0.068472058
0.5211454 0.097714879 0.068472058
0.5211454 0.065143205 0.06847208
