# .PCD v0.7 - Point Cloud Data file format
VERSION 0.7
FIELDS x y z
SIZE 4 4 4
TYPE F F F
COUNT 1 1 1
WIDTH 1390
HEIGHT 1
VIEWPOINT 0 0 0 1 0 0 0
POINTS 1390
DATA ascii
0 -0.46552628 -0.10533758
0 -0.49462169 -0.10533753
0 -0.52371854 -0.10533351
0 -0.55281401 -0.10533357
0 -0.58190942 -0.1053336
0 -0.61100495 -0.1053336
0 -0.64010042 -0.10533354
0 -0.66919589 -0.10533354
0 -0.69829136 -0.1053336
0 -0.72738683 -0.10533348
0 -0.75648236 -0.10533354
0 -0.78557777 -0.10533357
0 -0.8146733 -0.10533354
0 -0.84376872 -0.10533357
0 -0.87286419 -0.10533363
0 -0.90195966 -0.10533366
0 -0.93105775 -0.10532942
0 -0.96015328 -0.10532951
0 -0.98924899 -0.10532945
0 -1.0183444 -0.10532954
0 -1.0474399 -0.10532963
0.029310687 0.76207787 -0.094573051
0.029310687 0.73276722 -0.094572961
0.029310687 0.70345652 -0.094573051
0.029310687 0.67414582 -0.094573081
0.029310687 0.64483511 -0.094572932
0.029310687 0.61552447 -0.094572961
0.029310687 0.58621377 -0.094572976
0.029310687 0.55690312 -0.094573006
0.029310687 0.5275923 -0.094573051
0.029310687 0.49828172 -0.094572976
0.029310768 0.46897233 -0.094568908
0.029310768 0.4396615 -0.094568998
0.029310768 0.41035074 -0.094568923
0.029310768 0.38104004 -0.094568893
0.029310768 0.35172921 -0.09456896
0.029310768 0.32241848 -0.094568931
0.029310768 0.29310775 -0.094568908
0.029310768 0.26379693 -0.094568923
0.029310768 0.23448612 -0.094568983
0.029310768 0.20517546 -0.094568871
0.029310768 0.17586462 -0.094568893
0.029310768 0.14655386 -0.094568998
0.029310768 0.11724308 -0.094568938
0.029310768 0.087932356 -0.094568901
0.02931085 0.058621753 -0.0945649
0.02931085 0.02931086 -0.094564885
0.02931085 1.1175871e-08 -0.0945649
0.02931085 -0.029310841 -0.09456493
0.02931085 -0.058621611 -0.09456487
0.02931085 -0.087932542 -0.094564974
0.02931085 -0.1172434 -0.09456484
0.02931085 -0.14655425 -0.094564855
0.02931085 -0.17586507 -0.094564833
0.02931085 -0.20517595 -0.094564915
0.02931085 -0.23448676 -0.094564885
0.02931085 -0.26379758 -0.094564863
0.02931085 -0.2931084 -0.09456484
0.02931085 -0.32241929 -0.094564915
0.02931085 -0.35173008 -0.0945649
0.02931085 -0.38104105 -0.09456484
0.029310929 -0.41035306 -0.094560772
0.029310929 -0.43966395 -0.094560847
0.029310929 -0.46897486 -0.094560742
0.029310929 -0.49828577 -0.094560862
0.029310929 -0.52759671 -0.094560787
0.029310929 -0.55690771 -0.094560772
0.029310929 -0.58621854 -0.094560817
0.029310929 -0.61552954 -0.094560772
0.029310929 -0.64484048 -0.094560742
0.029310929 -0.67415136 -0.094560832
0.029310929 -0.7034623 -0.094560772
0.029310929 -0.73277318 -0.094560832
0.029310929 -0.76208419 -0.094560832
0.029310929 -0.79139507 -0.094560802
0.029311012 -0.82070827 -0.094556749
0.029311012 -0.85001922 -0.094556749
0.029311012 -0.87933028 -0.094556779
0.029311012 -0.90864134 -0.094556719
0.029311012 -0.93795228 -0.094556779
0.029311012 -0.96726346 -0.09455663
0.029311012 -0.9965744 -0.094556749
0.029311012 -1.0258853 -0.094556719
0.029311012 -1.0551964 -0.09455663
0.059058703 0.79729253 -0.083639711
0.059058703 0.76776314 -0.083639801
0.059058703 0.7382338 -0.083639652
0.059058703 0.70870447 -0.083639741
0.059058703 0.67917514 -0.083639741
0.059058703 0.64964581 -0.083639711
0.059058703 0.62011647 -0.083639681
0.059058867 0.59058875 -0.083635539
0.059058867 0.56105924 -0.083635569
0.059058867 0.5315299 -0.083635494
0.059058867 0.50200039 -0.083635643
0.059058867 0.472471 -0.083635569
0.059058867 0.44294155 -0.083635598
0.059058867 0.41341203 -0.083635628
0.059058867 0.38388267 -0.083635554
0.059058867 0.35435319 -0.083635584
0.059058867 0.32482386 -0.083635539
0.059058867 0.2952944 -0.083635569
0.059058867 0.26576495 -0.083635591
0.059058867 0.2362355 -0.083635643
0.059058867 0.20670612 -0.083635576
0.059059039 0.17717721 -0.083631501
0.059059039 0.14764759 -0.083631404
0.059059039 0.11811806 -0.083631516
0.059059039 0.088588543 -0.083631493
0.059059039 0.059059031 -0.083631486
0.059059039 0.02952957 -0.083631501
0.059059039 5.5879354e-08 -0.083631486
0.059059039 -0.029529501 -0.083631426
0.059059039 -0.059058964 -0.083631448
0.059059039 -0.088588476 -0.083631426
0.059059039 -0.11811806 -0.083631508
0.059059039 -0.14764757 -0.083631486
0.059059039 -0.17717709 -0.083631456
0.059059039 -0.2067066 -0.083631448
0.059059039 -0.23623611 -0.083631441
0.059059039 -0.26576561 -0.083631411
0.059059203 -0.29529592 -0.083627403
0.059059203 -0.32482553 -0.083627298
0.059059203 -0.35435513 -0.083627373
0.059059203 -0.38388476 -0.083627313
0.059059203 -0.41341445 -0.083627313
0.059059203 -0.44294387 -0.083627388
0.059059203 -0.47247356 -0.083627388
0.059059203 -0.50200319 -0.083627328
0.059059203 -0.53153276 -0.083627343
0.059059203 -0.5610624 -0.083627313
0.059059203 -0.59059197 -0.083627373
0.059059203 -0.62012148 -0.083627403
0.059059203 -0.64965117 -0.083627343
0.059059203 -0.67918074 -0.083627373
0.059059367 -0.70871228 -0.083623201
0.059059367 -0.73824203 -0.08362323
0.059059367 -0.76777166 -0.083623171
0.059059367 -0.79730141 -0.08362323
0.059059367 -0.82683104 -0.083623201
0.059059367 -0.85636073 -0.083623201
0.059059367 -0.88589036 -0.083623201
0.059059367 -0.91542017 -0.083623141
0.059059367 -0.94494981 -0.08362326
0.059059367 -0.97447944 -0.08362323
0.059059367 -1.0040091 -0.08362323
0.05905953 -1.0335417 -0.083619148
0.089253917 0.80328536 -0.072541982
0.089253917 0.773534 -0.072542042
0.089253917 0.74378264 -0.072542071
0.089254171 0.71403337 -0.072537869
0.089254171 0.68428195 -0.072537869
0.089254171 0.65453058 -0.072537899
0.089254171 0.62477922 -0.072537899
0.089254171 0.5950278 -0.072537929
0.089254171 0.56527638 -0.072537869
0.089254171 0.53552508 -0.072537914
0.089254171 0.50577366 -0.072537899
0.089254171 0.47602227 -0.072537914
0.089254171 0.44627088 -0.072537899
0.089254171 0.41651946 -0.072537869
0.089254171 0.38676807 -0.072537869
0.089254171 0.35701671 -0.072537884
0.089254171 0.32726526 -0.072537854
0.089254171 0.29751393 -0.072537899
0.089254171 0.26776251 -0.072537869
0.089254424 0.23801181 -0.072533727
0.089254424 0.20826039 -0.072533697
0.089254424 0.17850883 -0.072533719
0.089254424 0.1487574 -0.072533682
0.089254424 0.11900594 -0.072533615
0.089254424 0.089254484 -0.072533712
0.089254424 0.059502929 -0.072533727
0.089254424 0.029751508 -0.072533697
0.089254424 -3.7252903e-08 -0.072533719
0.089254424 -0.02975142 -0.072533727
0.089254424 -0.059502933 -0.072533622
0.089254424 -0.089254387 -0.072533719
0.089254424 -0.11900577 -0.072533727
0.089254424 -0.14875731 -0.072533742
0.08925467 -0.17850934 -0.072529569
0.08925467 -0.20826085 -0.072529547
0.08925467 -0.23801236 -0.072529525
0.08925467 -0.26776403 -0.07252951
0.08925467 -0.29751554 -0.072529487
0.08925467 -0.32726714 -0.072529554
0.08925467 -0.35701865 -0.072529525
0.08925467 -0.38677028 -0.07252945
0.08925467 -0.41652185 -0.07252948
0.08925467 -0.44627333 -0.072529465
0.08925467 -0.47602487 -0.072529465
0.08925467 -0.50577641 -0.07252951
0.08925467 -0.53552794 -0.07252951
0.08925467 -0.56527948 -0.072529495
0.089254923 -0.59503281 -0.072525322
0.089254923 -0.62478447 -0.072525322
0.089254923 -0.65453601 -0.072525352
0.089254923 -0.68428767 -0.072525322
0.089254923 -0.71403933 -0.072525322
0.089254923 -0.74379092 -0.072525322
0.089254923 -0.77354258 -0.072525322
0.089254923 -0.80329418 -0.072525382
0.089254923 -0.83304596 -0.072525293
0.089254923 -0.8627975 -0.072525293
0.089254923 -0.89254916 -0.072525293
0.089254923 -0.92230076 -0.072525352
0.089255176 -0.9520551 -0.07252115
0.089255176 -0.98180687 -0.072521061
0.089255176 -1.0115585 -0.07252124
0.11990683 0.80937099 -0.061272144
0.11990683 0.77939439 -0.061272055
0.11990683 0.74941766 -0.061272115
0.11990683 0.719441 -0.061272025
0.11990683 0.68946427 -0.061272055
0.11990683 0.65948755 -0.061272085
0.11990683 0.62951076 -0.061272055
0.11990683 0.59953415 -0.061272055
0.11990683 0.56955743 -0.061272189
0.11990683 0.5395807 -0.0612721
0.11990683 0.50960404 -0.061272115
0.11990683 0.47962725 -0.0612721
0.11990683 0.44965062 -0.061272055
0.11990683 0.41967392 -0.0612721
0.11990683 0.38969719 -0.061272129
0.11990716 0.35972151 -0.061267853
0.11990716 0.3297447 -0.061267823
0.11990716 0.29976788 -0.061267897
0.11990716 0.26979113 -0.06126789
0.11990716 0.23981431 -0.061267853
0.11990716 0.2098376 -0.061267883
0.11990716 0.1798608 -0.061267845
0.11990716 0.14988396 -0.061267931
0.11990716 0.11990716 -0.061267883
0.11990716 0.0899304 -0.061267883
0.11990716 0.059953593 -0.061267834
0.11990716 0.029976837 -0.06126783
0.11990716 3.5390258e-08 -0.061267786
0.11990716 -0.029976726 -0.061267786
0.11990751 -0.059953667 -0.061263524
0.11990751 -0.089930549 -0.061263569
0.11990751 -0.11990753 -0.061263535
0.11990751 -0.14988431 -0.061263662
0.11990751 -0.17986128 -0.061263628
0.11990751 -0.20983809 -0.061263584
0.11990751 -0.23981497 -0.061263636
0.11990751 -0.26979178 -0.061263591
0.11990751 -0.29976875 -0.061263554
0.11990751 -0.32974559 -0.061263561
0.11990751 -0.35972247 -0.061263606
0.11990751 -0.38969934 -0.061263651
0.11990751 -0.41967615 -0.061263606
0.11990751 -0.44965312 -0.061263576
0.11990751 -0.47962996 -0.061263576
0.11990751 -0.50960684 -0.061263621
0.11990785 -0.53958523 -0.061259285
0.11990785 -0.5695622 -0.061259359
0.11990785 -0.59953916 -0.0612593
0.11990785 -0.62951607 -0.061259359
0.11990785 -0.65949315 -0.0612593
0.11990785 -0.68947005 -0.061259359
0.11990785 -0.71944702 -0.061259329
0.11990785 -0.74942392 -0.061259419
0.11990785 -0.779401 -0.061259329
0.11990785 -0.80937779 -0.061259419
0.11990818 -0.83935714 -0.061255068
0.11990818 -0.86933422 -0.061255157
0.11990818 -0.8993113 -0.061255068
0.11990818 -0.92928833 -0.061255127
0.11990818 -0.95926547 -0.061255038
0.11990818 -0.98924232 -0.061255127
0.15102731 0.84575289 -0.0498344
0.15102731 0.81554747 -0.049834371
0.15102731 0.78534198 -0.04983443
0.15102731 0.75513649 -0.049834371
0.15102731 0.724931 -0.049834341
0.15102731 0.69472563 -0.049834341
0.15102731 0.66452014 -0.049834281
0.15102731 0.63431466 -0.049834341
0.15102731 0.60410917 -0.04983446
0.15102731 0.57390374 -0.0498344
0.15102731 0.54369837 -0.049834296
0.15102731 0.51349282 -0.049834296
0.15102774 0.48328874 -0.049830079
0.15102774 0.45308328 -0.049830019
0.15102774 0.4228777 -0.049830049
0.15102774 0.39267215 -0.049830079
0.15102774 0.36246654 -0.049830049
0.15102774 0.33226109 -0.04982999
0.15102774 0.30205551 -0.049830005
0.15102774 0.27184993 -0.049830027
0.15102774 0.24164438 -0.049830057
0.15102774 0.21143891 -0.049829997
0.15102774 0.18123335 -0.049830012
0.15102774 0.1510278 -0.049830042
0.15102774 0.12082224 -0.04983006
0.15102774 0.090616688 -0.049830087
0.15102816 0.060411312 -0.049825702
0.15102816 0.030205585 -0.049825735
0.15102816 2.9802322e-08 -0.049825758
0.15102816 -0.03020557 -0.049825743
0.15102816 -0.060411178 -0.049825728
0.15102816 -0.090616867 -0.049825631
0.15102816 -0.12082246 -0.049825784
0.15102816 -0.15102816 -0.049825694
0.15102816 -0.18123375 -0.049825676
0.15102816 -0.21143943 -0.04982575
0.15102816 -0.24164504 -0.049825735
0.15102816 -0.27185065 -0.049825728
0.15102816 -0.30205625 -0.049825743
0.15102816 -0.33226198 -0.049825653
0.15102816 -0.36246753 -0.049825758
0.15102816 -0.39267316 -0.049825802
0.15102859 -0.42288002 -0.049821392
0.15102859 -0.45308566 -0.049821422
0.15102859 -0.48329151 -0.049821347
0.15102859 -0.51349717 -0.049821407
0.15102859 -0.54370296 -0.049821362
0.15102859 -0.57390857 -0.049821407
0.15102859 -0.60411435 -0.049821377
0.15102859 -0.63432002 -0.049821347
0.15102859 -0.66452575 -0.049821436
0.15102859 -0.69473147 -0.049821377
0.15102902 -0.72493923 -0.049817145
0.15102902 -0.75514507 -0.049817115
0.15102902 -0.78535092 -0.049817085
0.15102902 -0.8155567 -0.049817055
0.15102902 -0.84576255 -0.049816996
0.15102902 -0.87596834 -0.049817055
0.15102902 -0.90617418 -0.049817085
0.15102902 -0.93637991 -0.049817085
0.15102902 -0.9665857 -0.049817055
0.1826264 0.85225666 -0.038220674
0.1826264 0.82181877 -0.038220704
0.1826264 0.79138112 -0.038220584
0.1826264 0.76094341 -0.038220704
0.1826264 0.73050565 -0.038220704
0.1826264 0.70006788 -0.038220733
0.1826264 0.66963017 -0.038220614
0.1826264 0.6391924 -0.038220733
0.18262693 0.60875642 -0.038216352
0.18262693 0.57831854 -0.038216382
0.18262693 0.54788083 -0.038216338
0.18262693 0.51744294 -0.038216367
0.18262693 0.48700517 -0.038216293
0.18262693 0.45656735 -0.038216338
0.18262693 0.42612958 -0.038216308
0.18262693 0.39569172 -0.038216308
0.18262693 0.36525387 -0.038216323
0.18262693 0.33481604 -0.038216263
0.18262693 0.30437824 -0.038216308
0.18262693 0.27394041 -0.03821636
0.18262693 0.24350251 -0.038216338
0.18262693 0.21306482 -0.038216338
0.18262693 0.18262695 -0.038216352
0.18262693 0.15218914 -0.038216405
0.18262745 0.12175169 -0.038211912
0.18262745 0.091313779 -0.038211882
0.18262745 0.060875833 -0.038211986
0.18262745 0.030437876 -0.038211927
0.18262745 9.3132257e-09 -0.038211942
0.18262745 -0.030437857 -0.038211953
0.18262745 -0.060875721 -0.038211968
0.18262745 -0.091313757 -0.038211998
0.18262745 -0.12175162 -0.038212009
0.18262745 -0.15218949 -0.038212024
0.18262745 -0.18262744 -0.038211964
0.18262745 -0.21306531 -0.038211979
0.18262745 -0.24350314 -0.038211942
0.18262745 -0.27394116 -0.038211979
0.18262798 -0.30437988 -0.03820765
0.18262798 -0.33481783 -0.038207591
0.18262798 -0.36525583 -0.038207605
0.18262798 -0.39569384 -0.038207605
0.18262798 -0.42613187 -0.03820762
0.18262798 -0.45656994 -0.038207486
0.18262798 -0.48700795 -0.038207456
0.18262798 -0.51744586 -0.038207576
0.18262798 -0.54788387 -0.038207591
0.18262798 -0.57832181 -0.038207531
0.1826285 -0.60876161 -0.03820318
0.1826285 -0.63919961 -0.03820321
0.1826285 -0.6696378 -0.03820318
0.1826285 -0.70007586 -0.03820321
0.1826285 -0.73051399 -0.03820315
0.1826285 -0.760952 -0.03820318
0.1826285 -0.79139006 -0.03820321
0.1826285 -0.82182819 -0.03820321
0.1826285 -0.85226631 -0.03820318
0.1826285 -0.88270438 -0.03820318
0.1826285 -0.9131425 -0.03820312
0.18262902 -0.94358325 -0.038198709
0.21471524 0.88953453 -0.02642715
0.21471524 0.85886097 -0.02642706
0.21471524 0.82818747 -0.026427031
0.21471524 0.79751372 -0.02642709
0.21471524 0.76684022 -0.026427031
0.21471587 0.73616868 -0.02642259
0.21471587 0.70549506 -0.02642262
0.21471587 0.67482126 -0.02642265
0.21471587 0.64414752 -0.026422739
0.21471587 0.61347389 -0.02642259
0.21471587 0.58280027 -0.02642259
0.21471587 0.55212653 -0.02642265
0.21471587 0.52145284 -0.026422635
0.21471587 0.49077916 -0.026422605
0.21471587 0.46010545 -0.026422575
0.21471587 0.42943183 -0.02642259
0.21471587 0.39875805 -0.026422635
0.21471587 0.36808437 -0.026422605
0.21471587 0.33741063 -0.026422709
0.21471587 0.30673692 -0.026422635
0.21471587 0.27606323 -0.026422605
0.21471648 0.24539027 -0.026418164
0.21471648 0.21471646 -0.026418179
0.21471648 0.18404266 -0.026418202
0.21471648 0.15336892 -0.026418123
0.21471648 0.12269512 -0.026418149
0.21471648 0.09202148 -0.026418151
0.21471648 0.061347626 -0.026418135
0.21471648 0.030673819 -0.026418153
0.21471648 1.0244548e-08 -0.026418172
0.21471648 -0.030673675 -0.02641814
0.21471648 -0.061347529 -0.02641812
0.21471648 -0.092021294 -0.026418179
0.21471648 -0.12269515 -0.026418161
0.21471648 -0.15336883 -0.026418127
0.21471712 -0.18404326 -0.026413672
0.21471712 -0.21471703 -0.026413731
0.21471712 -0.24539089 -0.026413709
0.21471712 -0.27606487 -0.026413664
0.21471712 -0.30673867 -0.026413754
0.21471712 -0.3374126 -0.026413664
0.21471712 -0.3680864 -0.026413724
0.21471712 -0.39876026 -0.026413739
0.21471712 -0.42943421 -0.026413649
0.21471712 -0.46010804 -0.026413754
0.21471773 -0.49078333 -0.026409239
0.21471773 -0.52145737 -0.026409224
0.21471773 -0.5521313 -0.026409239
0.21471773 -0.58280516 -0.026409268
0.21471773 -0.61347926 -0.026409179
0.21471773 -0.64415312 -0.026409209
0.21471773 -0.6748271 -0.026409298
0.21471773 -0.70550096 -0.026409328
0.21471773 -0.73617506 -0.026409179
0.21471773 -0.76684904 -0.026409179
0.21471773 -0.79752302 -0.026409239
0.21471836 -0.82819939 -0.026404828
0.21471836 -0.85887349 -0.026404768
0.21471836 -0.88954747 -0.026404828
0.21471836 -0.92022157 -0.026404768
0.2473053 0.89648163 -0.014449239
0.2473053 0.86556858 -0.014449209
0.2473053 0.8346554 -0.014449239
0.24730602 0.80374467 -0.014444649
0.24730602 0.77283144 -0.014444649
0.24730602 0.74191809 -0.014444679
0.24730602 0.71100485 -0.014444709
0.24730602 0.68009156 -0.014444709
0.24730602 0.64917839 -0.014444619
0.24730602 0.61826509 -0.014444739
0.24730602 0.5873518 -0.014444709
0.24730602 0.55643857 -0.014444709
0.24730602 0.52552533 -0.014444679
0.24730602 0.49461204 -0.014444679
0.24730602 0.4636988 -0.014444709
0.24730602 0.43278557 -0.014444694
0.24730602 0.40187231 -0.014444679
0.24730675 0.37096018 -0.014440149
0.24730675 0.34004682 -0.014440179
0.24730675 0.30913341 -0.014440209
0.24730675 0.27822009 -0.014440119
0.24730675 0.24730673 -0.014440216
0.24730675 0.21639343 -0.014440149
0.24730675 0.18548009 -0.014440231
0.24730675 0.15456678 -0.014440179
0.24730675 0.12365335 -0.014440179
0.24730675 0.092740044 -0.014440127
0.24730675 0.061826698 -0.014440205
0.24730675 0.030913396 -0.014440151
0.24730675 5.5879354e-08 -0.014440229
0.24730675 -0.030913342 -0.014440099
0.24730748 -0.061826892 -0.014435584
0.24730748 -0.092740282 -0.014435623
0.24730748 -0.12365367 -0.01443566
0.24730748 -0.15456705 -0.014435694
0.24730748 -0.18548052 -0.014435656
0.24730748 -0.21639399 -0.014435619
0.24730748 -0.24730739 -0.014435664
0.24730748 -0.27822089 -0.014435679
0.24730748 -0.30913424 -0.014435649
0.24730748 -0.34004775 -0.014435664
0.24730821 -0.37096226 -0.014431179
0.24730821 -0.40187573 -0.014431134
0.24730821 -0.43278927 -0.014431149
0.24730821 -0.4637028 -0.014431193
0.24730821 -0.49461642 -0.014431104
0.24730821 -0.5255298 -0.014431149
0.24730821 -0.55644339 -0.014431089
0.24730821 -0.58735693 -0.014431089
0.24730821 -0.6182704 -0.014431089
0.24730821 -0.64918399 -0.014431149
0.24730821 -0.68009746 -0.014431119
0.24730891 -0.71101308 -0.014426619
0.24730891 -0.74192673 -0.014426589
0.24730891 -0.77284026 -0.014426649
0.24730891 -0.80375391 -0.014426619
0.24730891 -0.83466768 -0.014426529
0.24730891 -0.86558115 -0.014426649
0.24730891 -0.89649475 -0.014426619
0.28040925 0.93469751 -0.0022781193
0.28040925 0.90354097 -0.0022782087
0.28040925 0.87238443 -0.0022781789
0.28040925 0.84122777 -0.0022782087
0.28040925 0.81007111 -0.0022782385
0.28040925 0.77891457 -0.0022781789
0.28040925 0.74775803 -0.0022782683
0.28040925 0.71660143 -0.0022781789
0.28040925 0.68544483 -0.0022782385
0.28040925 0.65428829 -0.0022781789
0.28040925 0.62313163 -0.0022782385
0.28040925 0.59197509 -0.0022782087
0.28040925 0.56081855 -0.0022781491
0.28040925 0.52966195 -0.0022781789
0.28041008 0.49850678 -0.0022736788
0.28041008 0.46735018 -0.0022735745
0.28041008 0.43619338 -0.0022736639
0.28041008 0.40503681 -0.0022736043
0.28041008 0.37388015 -0.0022736043
0.28041008 0.34272346 -0.0022735894
0.28041008 0.31156683 -0.0022736192
0.28041008 0.28041008 -0.0022735745
0.28041008 0.24925341 -0.002273567
0.28041008 0.21809682 -0.0022736415
0.28041008 0.18694013 -0.0022736341
0.28041008 0.15578344 -0.0022736266
0.28041008 0.12462676 -0.0022736192
0.28041008 0.093470082 -0.0022736154
0.28041089 0.062313519 -0.0022689942
0.28041089 0.031156756 -0.0022690762
0.28041089 -1.7113052e-08 -0.0022689924
0.28041089 -0.031156747 -0.0022689467
0.28041089 -0.062313464 -0.0022690687
0.28041089 -0.093470283 -0.0022689477
0.28041089 -0.12462701 -0.002268903
0.28041089 -0.1557838 -0.0022691116
0.28041089 -0.18694063 -0.0022689924
0.28041089 -0.21809736 -0.0022689477
0.28041172 -0.24925484 -0.0022644773
0.28041172 -0.2804116 -0.0022644699
0.28041172 -0.31156856 -0.0022644848
0.28041172 -0.34272543 -0.002264455
0.28041172 -0.37388229 -0.0022643805
0.28041172 -0.4050391 -0.0022644252
0.28041172 -0.436196 -0.0022643805
0.28041172 -0.46735287 -0.0022644699
0.28041172 -0.49850965 -0.0022645146
0.28041172 -0.5296666 -0.0022643507
0.28041172 -0.56082344 -0.0022643805
0.28041255 -0.59198201 -0.0022597909
0.28041255 -0.62313902 -0.0022598207
0.28041255 -0.65429592 -0.0022598207
0.28041255 -0.68545282 -0.0022598505
0.28041255 -0.71660978 -0.0022598505
0.28041255 -0.74776685 -0.0022597909
0.28041255 -0.77892375 -0.0022597909
0.28041255 -0.81008065 -0.0022598207
0.28041255 -0.8412376 -0.0022598207
0.28041255 -0.87239456 -0.0022598505
0.31403774 0.94211334 0.01008141
0.31403774 0.91070938 0.010081291
0.31403774 0.8793056 0.010081291
0.31403774 0.84790182 0.010081291
0.31403774 0.81649816 0.010081351
0.31403774 0.78509438 0.010081381
0.31403774 0.7536906 0.01008141
0.31403774 0.72228688 0.010081381
0.31403774 0.69088316 0.010081381
0.31403774 0.65947914 0.010081261
0.31403869 0.62807739 0.010086
0.31403869 0.59667349 0.01008597
0.31403869 0.56526965 0.01008606
0.31403869 0.53386581 0.01008597
0.31403869 0.50246191 0.01008606
0.31403869 0.47105804 0.010086015
0.31403869 0.43965414 0.010085985
0.31403869 0.40825033 0.010086045
0.31403869 0.37684646 0.010085985
0.31403869 0.34544253 0.010085955
0.31403869 0.31403863 0.01008594
0.31403869 0.28263488 0.010086089
0.31403869 0.25123098 0.010086052
0.31403869 0.21982706 0.01008603
0.31403959 0.18842383 0.010090627
0.31403959 0.15701982 0.010090671
0.31403959 0.12561592 0.010090649
0.31403959 0.094211921 0.010090701
0.31403959 0.062807932 0.010090584
0.31403959 0.031404015 0.010090727
0.31403959 -1.7695129e-08 0.010090649
0.31403959 -0.031403892 0.010090753
0.31403959 -0.062807925 0.010090677
0.31403959 -0.094211876 0.01009069
0.31404054 -0.12561616 0.010095239
0.31404054 -0.1570203 0.01009541
0.31404054 -0.18842432 0.010095328
0.31404054 -0.21982828 0.010095343
0.31404054 -0.25123233 0.010095261
0.31404054 -0.28263652 0.010095343
0.31404054 -0.31404051 0.010095313
0.31404054 -0.3454445 0.010095283
0.31404054 -0.37684858 0.010095328
0.31404054 -0.40825266 0.010095358
0.31404054 -0.4396567 0.010095298
0.31404147 -0.47106215 0.010099962
0.31404147 -0.50246626 0.010099977
0.31404147 -0.53387046 0.010099947
0.31404147 -0.56527448 0.010099977
0.31404147 -0.59667873 0.010100007
0.31404147 -0.62808287 0.010100007
0.31404147 -0.65948701 0.010099977
0.31404147 -0.69089121 0.010100096
0.31404147 -0.7222954 0.010100067
0.31404147 -0.75369942 0.010099977
0.31404147 -0.78510356 0.010099947
0.31404242 -0.81651008 0.010104597
0.31404242 -0.84791446 0.010104686
0.34820411 0.98130238 0.02263853
0.34820411 0.94964755 0.022638559
0.34820411 0.91799259 0.0226385
0.34820411 0.88633776 0.0226385
0.34820411 0.8546828 0.022638559
0.34820411 0.82302797 0.022638589
0.34820411 0.79137295 0.022638559
0.34820411 0.75971806 0.022638559
0.34820411 0.72806323 0.022638589
0.34820515 0.69641018 0.022643268
0.34820515 0.66475534 0.022643328
0.34820515 0.63310039 0.022643387
0.34820515 0.60144526 0.022643298
0.34820515 0.56979024 0.022643298
0.34820515 0.53813529 0.022643358
0.34820515 0.50648022 0.022643253
0.34820515 0.4748252 0.022643268
0.34820515 0.44317013 0.022643268
0.34820515 0.41151524 0.022643343
0.34820515 0.37986019 0.022643328
0.34820515 0.34820515 0.022643328
0.34820619 0.31655106 0.022648036
0.34820619 0.28489602 0.022648036
0.34820619 0.25324082 0.022648014
0.34820619 0.22158578 0.022648036
0.34820619 0.18993071 0.022648074
0.34820619 0.15827551 0.022648051
0.34820619 0.12662047 0.02264804
0.34820619 0.094965339 0.022647988
0.34820619 0.063310266 0.02264802
0.34820619 0.031655118 0.02264796
0.34820724 3.632158e-08 0.022652725
0.34820724 -0.031655204 0.022652743
0.34820724 -0.063310273 0.022652775
0.34820724 -0.09496551 0.022652794
0.34820724 -0.12662074 0.022652812
0.34820724 -0.15827599 0.022652835
0.34820724 -0.18993121 0.02265285
0.34820724 -0.22158638 0.02265279
0.34820724 -0.2532416 0.02265282
0.34820724 -0.28489676 0.022652745
0.34820724 -0.31655198 0.02265276
0.34820828 -0.34820822 0.022657499
0.34820828 -0.37986344 0.022657514
0.34820828 -0.41151881 0.022657573
0.34820828 -0.44317412 0.022657499
0.34820828 -0.47482949 0.022657543
0.34820828 -0.50648475 0.022657573
0.34820828 -0.53814 0.022657543
0.34820828 -0.56979525 0.022657514
0.34820828 -0.60145056 0.022657514
0.34820828 -0.63310593 0.022657543
0.34820828 -0.66476119 0.022657514
0.34820932 -0.69641864 0.022662312
0.34820932 -0.72807395 0.022662252
0.34820932 -0.75972939 0.022662252
0.34820932 -0.79138482 0.022662342
0.34820932 -0.82304013 0.022662282
0.38292134 0.98921347 0.035398155
0.38292134 0.95730329 0.035398185
0.38292134 0.92539322 0.035398245
0.38292134 0.89348316 0.035398215
0.38292134 0.86157298 0.035398245
0.3829225 0.82966542 0.035403073
0.3829225 0.79775524 0.035403132
0.3829225 0.76584494 0.035403103
0.3829225 0.73393482 0.035403103
0.3829225 0.7020247 0.035403103
0.3829225 0.6701144 0.035403073
0.3829225 0.63820422 0.035403073
0.3829225 0.60629398 0.035403043
0.3829225 0.5743838 0.035403073
0.3829225 0.54247361 0.035403103
0.3829225 0.51056337 0.035403013
0.3829225 0.47865316 0.035403088
0.38292366 0.44674435 0.035407916
0.38292366 0.41483393 0.035407841
0.38292366 0.38292369 0.035407916
0.38292366 0.35101336 0.035407916
0.38292366 0.31910309 0.035407886
0.38292366 0.28719276 0.035407871
0.38292366 0.25528246 0.035407878
0.38292366 0.22337218 0.035407834
0.38292366 0.19146192 0.035407923
0.38292366 0.15955153 0.035407834
0.38292482 0.1276416 0.03541268
0.38292482 0.095731229 0.035412725
0.38292482 0.063820913 0.035412721
0.38292482 0.031910375 0.035412747
0.38292482 5.0291419e-08 0.035412747
0.38292482 -0.031910364 0.035412826
0.38292482 -0.063820764 0.035412733
0.38292482 -0.095731162 0.035412643
0.38292482 -0.12764157 0.035412718
0.38292482 -0.1595519 0.035412721
0.38292482 -0.1914624 0.035412706
0.38292596 -0.22337341 0.035417557
0.38292596 -0.25528389 0.035417534
0.38292596 -0.28719449 0.035417601
0.38292596 -0.31910491 0.035417467
0.38292596 -0.35101542 0.035417452
0.38292596 -0.38292593 0.035417616
0.38292596 -0.41483641 0.035417587
0.38292596 -0.44674695 0.035417542
0.38292596 -0.47865745 0.035417542
0.38292596 -0.5105679 0.035417512
0.38292596 -0.54247844 0.035417497
0.38292712 -0.57439071 0.035422355
0.38292712 -0.60630119 0.035422325
0.38292712 -0.63821185 0.035422295
0.38292712 -0.67012244 0.035422355
0.38292712 -0.70203292 0.035422295
0.38292712 -0.73394358 0.035422325
0.38292712 -0.76585424 0.035422355
0.38292712 -0.79776478 0.035422295
0.38292712 -0.82967544 0.035422385
0.41820288 0.99725294 0.048365295
0.41820419 0.96508658 0.048370242
0.41820419 0.93291706 0.048370302
0.41820419 0.90074742 0.048370302
0.41820419 0.8685779 0.048370212
0.41820419 0.83640826 0.048370183
0.41820419 0.80423892 0.048370332
0.41820419 0.77206933 0.048370272
0.41820419 0.73989975 0.048370361
0.41820419 0.70773017 0.048370272
0.41820419 0.67556059 0.048370242
0.41820419 0.64339101 0.048370212
0.41820419 0.61122155 0.048370272
0.41820419 0.57905191 0.048370242
0.41820547 0.54688406 0.04837516
0.41820547 0.51471448 0.048375145
0.41820547 0.48254481 0.04837516
0.41820547 0.45037511 0.048375219
0.41820547 0.41820544 0.048375085
0.41820547 0.38603589 0.048375189
0.41820547 0.35386616 0.0483751
0.41820547 0.32169652 0.0483751
0.41820547 0.28952694 0.048375241
0.41820672 0.25735801 0.04837998
0.41820672 0.22518827 0.048380077
0.41820672 0.19301853 0.048380025
0.41820672 0.1608488 0.04838011
0.41820672 0.12867907 0.048380025
0.41820672 0.096509218 0.048380055
0.41820672 0.064339459 0.048380017
0.41820672 0.032169733 0.048380099
0.41820672 1.8626451e-08 0.048380017
0.41820672 -0.032169618 0.048380021
0.41820672 -0.064339519 0.048380092
0.418208 -0.096509516 0.048384976
0.418208 -0.12867939 0.048384879
0.418208 -0.16084912 0.048384961
0.418208 -0.19301893 0.048384957
0.418208 -0.22518891 0.048384942
0.418208 -0.2573587 0.048384935
0.418208 -0.28952852 0.048384927
0.418208 -0.32169831 0.04838492
0.418208 -0.35386825 0.048384935
0.418208 -0.38603806 0.048384935
0.418208 -0.418208 0.04838495
0.41820925 -0.45037913 0.048389748
0.41820925 -0.48254907 0.048389822
0.41820925 -0.51471901 0.048389807
0.41820925 -0.54688907 0.048389912
0.41820925 -0.57905895 0.048389822
0.41820925 -0.61122888 0.048389852
0.41820925 -0.64339882 0.048389822
0.41820925 -0.67556882 0.048389852
0.41820925 -0.70773864 0.048389792
0.41820925 -0.7399087 0.048389852
0.41821054 -0.77208102 0.048394799
0.41821054 -0.80425102 0.04839474
0.45406404 1.0378608 0.061549991
0.45406404 1.0054276 0.061549991
0.45406404 0.97299445 0.061549991
0.45406404 0.94056129 0.061549991
0.45406404 0.90812814 0.061549902
0.45406404 0.87569499 0.061549932
0.45406404 0.84326184 0.061549902
0.45406404 0.81082869 0.061549932
0.45406404 0.77839553 0.061549932
0.45406404 0.74596238 0.061549932
0.45406404 0.71352923 0.061549962
0.45406544 0.68109822 0.061554939
0.45406544 0.64866495 0.061554909
0.45406544 0.61623174 0.061554909
0.45406544 0.58379835 0.061554819
0.45406544 0.55136526 0.061554968
0.45406544 0.51893198 0.061554909
0.45406544 0.48649868 0.061554909
0.45406544 0.45406547 0.061554998
0.45406544 0.42163226 0.061554879
0.45406544 0.38919896 0.061554864
0.45406544 0.35676575 0.061554953
0.45406681 0.32433349 0.061559841
0.45406681 0.2919001 0.061559901
0.45406681 0.25946677 0.061559923
0.45406681 0.22703347 0.061559923
0.45406681 0.19460012 0.061559953
0.45406681 0.16216677 0.061559808
0.45406681 0.12973338 0.061559875
0.45406681 0.097300038 0.061559901
0.45406681 0.064866737 0.061559886
0.45406821 0.03243345 0.061564907
0.45406821 2.4214387e-08 0.061564844
0.45406821 -0.032433487 0.061564855
0.45406821 -0.064866841 0.061564885
0.45406821 -0.097300358 0.0615649
0.45406821 -0.12973377 0.061564833
0.45406821 -0.16216713 0.061564866
0.45406821 -0.19460064 0.061564878
0.45406821 -0.22703406 0.061564818
0.45406821 -0.25946751 0.06156493
0.45406821 -0.29190093 0.061564855
0.45406961 -0.32433534 0.06156987
0.45406961 -0.35676897 0.061569929
0.45406961 -0.38920256 0.06156984
0.45406961 -0.4216361 0.06156987
0.45406961 -0.45406953 0.06156975
0.45406961 -0.48650306 0.061569765
0.45406961 -0.51893669 0.061569825
0.45406961 -0.5513702 0.06156984
0.45406961 -0.58380377 0.06156981
0.45406961 -0.61623728 0.06156984
0.45407099 -0.64867282 0.061574757
0.45407099 -0.68110651 0.061574817
0.45407099 -0.71354014 0.061574847
0.45407099 -0.74597383 0.061574906
0.45407099 -0.77840739 0.061574847
0.49051642 1.046435 0.074947357
0.49051642 1.0137339 0.074947417
0.49051642 0.98103285 0.074947298
0.49051642 0.94833171 0.074947387
0.49051642 0.91563058 0.074947327
0.49051642 0.88292962 0.074947476
0.49051642 0.85022855 0.074947387
0.49051797 0.81752998 0.074952483
0.49051797 0.78482872 0.074952513
0.49051797 0.75212747 0.074952424
0.49051797 0.71942627 0.074952394
0.49051797 0.68672508 0.074952424
0.49051797 0.65402389 0.074952394
0.49051797 0.62132275 0.074952483
0.49051797 0.58862162 0.074952453
0.49051797 0.55592036 0.074952498
0.49051797 0.52321917 0.074952498
0.49051797 0.49051797 0.074952483
0.49051946 0.45781821 0.074957535
0.49051946 0.4251169 0.07495752
0.49051946 0.39241564 0.07495755
0.49051946 0.35971433 0.074957505
0.49051946 0.32701308 0.074957535
0.49051946 0.29431176 0.074957483
0.49051946 0.26161048 0.07495755
0.49051946 0.22890915 0.074957505
0.49051946 0.19620779 0.074957483
0.49052095 0.16350706 0.074962594
0.49052095 0.13080558 0.074962527
0.49052095 0.098104164 0.074962541
0.49052095 0.065402806 0.074962534
0.49052095 0.03270144 0.074962519
0.49052095 6.7055225e-08 0.074962668
0.49052095 -0.032701373 0.074962564
0.49052095 -0.065402739 0.074962549
0.49052095 -0.098104097 0.074962534
0.49052095 -0.13080555 0.074962601
0.49052095 -0.16350693 0.074962586
0.4905225 -0.19620898 0.074967586
0.4905225 -0.22891045 0.074967653
0.4905225 -0.26161197 0.07496763
0.4905225 -0.29431349 0.074967586
0.4905225 -0.32701495 0.074967653
0.4905225 -0.35971648 0.074967638
0.4905225 -0.39241794 0.074967518
0.4905225 -0.42511946 0.074967653
0.4905225 -0.45782095 0.074967682
0.4905225 -0.49052238 0.074967623
0.49052402 -0.52322555 0.074972615
0.49052402 -0.55592716 0.074972659
0.49052402 -0.58862883 0.074972674
0.49052402 -0.62133032 0.074972719
0.49052402 -0.65403199 0.074972719
0.49052402 -0.68673348 0.07497263
0.49052402 -0.71943516 0.074972689
0.49052402 -0.75213671 0.0749726
0.52757615 1.0221789 0.088568032
0.52757615 0.98920518 0.088568032
0.52757776 0.95623469 0.088573188
0.52757776 0.92326105 0.088573188
0.52757776 0.89028746 0.088573128
0.52757776 0.85731387 0.088573098
0.52757776 0.8243404 0.088573277
0.52757776 0.79136676 0.088573277
0.52757776 0.75839305 0.088573188
0.52757776 0.7254194 0.088573158
0.52757776 0.69244576 0.088573128
0.52757776 0.65947223 0.088573068
0.52757776 0.6264987 0.088573277
0.52757943 0.59352684 0.088578314
0.52757943 0.56055319 0.088578358
0.52757943 0.52757943 0.088578299
0.52757943 0.49460575 0.088578343
0.52757943 0.46163195 0.088578299
0.52757943 0.42865825 0.088578343
0.52757943 0.3956846 0.088578358
0.52757943 0.3627108 0.088578343
0.52757943 0.32973713 0.088578343
0.52757943 0.29676348 0.088578366
0.5275811 0.26379055 0.088583574
0.5275811 0.23081678 0.088583544
0.5275811 0.19784296 0.088583529
0.5275811 0.16486907 0.088583432
0.5275811 0.13189524 0.088583432
0.5275811 0.098921426 0.088583425
0.5275811 0.065947726 0.088583477
0.5275811 0.032973863 0.088583507
0.5275811 8.5681677e-08 0.088583469
0.5275811 -0.032973774 0.088583499
0.52758271 -0.065947764 0.088588677
0.52758271 -0.098921709 0.088588625
0.52758271 -0.13189565 0.088588566
0.52758271 -0.16486952 0.088588603
0.52758271 -0.19784355 0.088588625
0.52758271 -0.23081742 0.088588655
0.52758271 -0.26379126 0.088588692
0.52758271 -0.29676524 0.08858864
0.52758271 -0.32973915 0.08858858
0.52758271 -0.36271304 0.08858861
0.52758437 -0.39568821 0.088593706
0.52758437 -0.42866224 0.088593721
0.52758437 -0.46163628 0.088593766
0.52758437 -0.49461034 0.088593721
0.52758437 -0.52758425 0.088593706
0.52758437 -0.56055832 0.088593706
0.52758437 -0.59353232 0.088593781
0.52758437 -0.62650639 0.088593751
0.52758437 -0.65948039 0.088593811
0.52758437 -0.69245434 0.088593721
0.52758437 -0.72542846 0.088593811
0.56526023 0.96426737 0.10242271
0.56526023 0.93101692 0.10242286
0.56526023 0.89776635 0.1024228
0.56526023 0.86451566 0.10242271
0.56526023 0.83126503 0.10242268
0.56526023 0.79801452 0.10242286
0.56526023 0.76476383 0.10242271
0.56526202 0.73151553 0.10242796
0.56526202 0.69826484 0.10242802
0.56526202 0.66501415 0.10242805
0.56526202 0.6317634 0.10242796
0.56526202 0.59851277 0.10242799
0.56526202 0.56526208 0.102428
0.56526202 0.53201139 0.10242802
0.56526202 0.4987607 0.10242805
0.56526202 0.46550995 0.10242797
0.56526202 0.43225923 0.10242803
0.56526381 0.39900982 0.10243326
0.56526381 0.36575902 0.10243323
0.56526381 0.33250815 0.10243329
0.56526381 0.29925734 0.10243326
0.56526381 0.26600653 0.10243322
0.56526381 0.23275571 0.10243323
0.56526381 0.19950491 0.1024332
0.56526381 0.16625401 0.10243325
0.56526381 0.13300329 0.10243331
0.56526381 0.099752501 0.10243328
0.56526381 0.066501662 0.10243329
0.56526554 0.033250943 0.10243855
0.56526554 2.2351742e-08 0.10243846
0.56526554 -0.033250898 0.10243838
0.56526554 -0.066501833 0.10243846
0.56526554 -0.099752761 0.10243855
0.56526554 -0.13300361 0.10243856
0.56526554 -0.16625454 0.10243847
0.56526554 -0.19950545 0.1024384
0.56526554 -0.23275638 0.10243848
0.56526732 -0.26600811 0.10244367
0.56526732 -0.29925913 0.10244367
0.56526732 -0.3325102 0.10244374
0.56526732 -0.36576125 0.10244374
0.56526732 -0.39901221 0.10244374
0.56526732 -0.4322632 0.10244377
0.56526732 -0.4655143 0.10244368
0.56526732 -0.49876526 0.10244372
0.56526732 -0.53201634 0.10244368
0.56526732 -0.56526732 0.10244367
0.56526732 -0.59851831 0.10244371
0.56526911 -0.63177133 0.10244903
0.56526911 -0.66502243 0.10244891
0.56526911 -0.69827348 0.10244888
0.6035831 0.87184232 0.11651239
0.6035831 0.83830988 0.11651236
0.6035831 0.80477738 0.1165123
0.6035831 0.77124512 0.11651239
0.6035831 0.73771274 0.11651236
0.6035831 0.70418024 0.11651227
0.6035831 0.67064786 0.11651236
0.6035831 0.63711554 0.11651233
0.6035831 0.6035831 0.11651224
0.6035831 0.57005072 0.11651236
0.603585 0.53652006 0.11651762
0.603585 0.50298756 0.11651768
0.603585 0.46945506 0.11651766
0.603585 0.43592253 0.11651759
0.603585 0.40239 0.11651769
0.603585 0.36885759 0.11651772
0.603585 0.33532494 0.11651761
0.603585 0.3017925 0.11651762
0.603585 0.26826006 0.11651769
0.603585 0.23472753 0.11651762
0.603585 0.20119503 0.11651772
0.60358691 0.16766307 0.11652303
0.60358691 0.13413051 0.116523
0.60358691 0.10059787 0.11652304
0.60358691 0.067065239 0.11652292
0.60358691 0.033532683 0.11652289
0.60358691 4.4703484e-08 0.11652295
0.60358691 -0.033532601 0.116523
0.60358691 -0.06706515 0.11652297
0.60358691 -0.10059787 0.11652293
0.60358691 -0.13413042 0.11652289
0.60358691 -0.16766298 0.11652287
0.60358882 -0.20119616 0.11652829
0.60358882 -0.23472889 0.11652826
0.60358882 -0.26826161 0.11652821
0.60358882 -0.30179441 0.11652824
0.60358882 -0.33532706 0.1165283
0.60358882 -0.36885971 0.11652834
0.60358882 -0.40239245 0.1165283
0.60358882 -0.43592513 0.11652827
0.60358882 -0.46945792 0.1165283
0.60359073 -0.50299227 0.11653367
0.60359073 -0.53652501 0.11653359
0.60359073 -0.57005787 0.11653364
0.60359073 -0.60359073 0.11653362
0.60359073 -0.63712353 0.11653365
0.60359073 -0.67065638 0.11653367
0.64255899 0.81165349 0.13083732
0.64255899 0.77783453 0.13083729
0.64255899 0.74401563 0.13083729
0.64255899 0.71019685 0.13083735
0.64256108 0.67638004 0.13084275
0.64256108 0.64256102 0.13084272
0.64256108 0.60874206 0.13084279
0.64256108 0.57492304 0.13084276
0.64256108 0.54110402 0.13084272
0.64256108 0.50728506 0.13084273
0.64256108 0.47346604 0.13084269
0.64256108 0.43964708 0.13084273
0.64256108 0.40582806 0.13084285
0.64256108 0.3720091 0.13084278
0.64256108 0.33819005 0.13084273
0.6425631 0.30437195 0.13084817
0.6425631 0.27055293 0.13084814
0.6425631 0.23673384 0.13084814
0.6425631 0.20291466 0.13084821
0.6425631 0.16909562 0.13084818
0.6425631 0.1352765 0.13084823
0.6425631 0.10145734 0.13084814
0.6425631 0.067638256 0.13084814
0.6425631 0.033819176 0.13084814
0.6425631 8.9406967e-08 0.13084814
0.6425631 -0.033819083 0.13084823
0.64256513 -0.06763839 0.13085362
0.64256513 -0.10145765 0.13085361
0.64256513 -0.13527688 0.13085361
0.64256513 -0.16909605 0.13085352
0.64256513 -0.20291522 0.13085359
0.64256513 -0.23673448 0.13085359
0.64256513 -0.27055371 0.13085358
0.64256513 -0.30437297 0.13085356
0.64256513 -0.33819222 0.13085356
0.64256722 -0.37201247 0.13085896
0.64256722 -0.4058319 0.13085894
0.64256722 -0.43965125 0.13085903
0.64256722 -0.47347051 0.13085896
0.64256722 -0.50728989 0.13085902
0.64256722 -0.54110914 0.13085899
0.64256722 -0.57492852 0.13085905
0.64256722 -0.60874784 0.13085896
0.64256722 -0.64256716 0.13085897
0.68220884 0.75042975 0.14541471
0.68220884 0.7163192 0.14541471
0.68220884 0.68220878 0.14541465
0.68220884 0.64809847 0.1454148
0.68220884 0.61398804 0.14541477
0.68220884 0.57987756 0.14541475
0.68220884 0.54576707 0.14541474
0.68220884 0.51165658 0.1454147
0.68220884 0.47754627 0.14541486
0.68221104 0.44343719 0.14542025
0.68221104 0.40932667 0.14542025
0.68221104 0.37521607 0.14542019
0.68221104 0.34110546 0.14542025
0.68221104 0.30699497 0.14542028
0.68221104 0.27288443 0.14542028
0.68221104 0.23877393 0.14542031
0.68221104 0.20466334 0.14542022
0.68221104 0.17055282 0.14542024
0.68221104 0.13644226 0.14542028
0.68221104 0.10233168 0.14542019
0.68221325 0.068221346 0.14542572
0.68221325 0.034110744 0.14542581
0.68221325 5.2154064e-08 0.14542581
0.68221325 -0.034110706 0.14542571
0.68221325 -0.068221308 0.14542581
0.68221325 -0.10233199 0.14542581
0.68221325 -0.13644259 0.14542574
0.68221325 -0.17055327 0.14542574
0.68221325 -0.20466395 0.14542572
0.68221325 -0.23877455 0.14542581
0.68221545 -0.27288607 0.14543125
0.68221545 -0.30699691 0.14543124
0.68221545 -0.34110767 0.14543131
0.68221545 -0.37521845 0.14543122
0.68221545 -0.40932921 0.14543128
0.68221545 -0.44344008 0.14543128
0.68221545 -0.47755077 0.14543125
0.68221545 -0.51166153 0.14543119
0.68221545 -0.54577231 0.14543127
0.68221545 -0.5798831 0.1454313
0.68221766 -0.61399585 0.14543673
0.72254592 0.68813896 0.16023999
0.72254592 0.65373206 0.16024008
0.72254592 0.6193251 0.16024002
0.72254831 0.58492005 0.1602457
0.72254831 0.55051303 0.16024569
0.72254831 0.51610601 0.1602457
0.72254831 0.48169893 0.16024575
0.72254831 0.44729188 0.16024576
0.72254831 0.41288471 0.16024569
0.72254831 0.37847775 0.16024563
0.72254831 0.34407067 0.1602457
0.72254831 0.30966359 0.16024572
0.72254831 0.27525654 0.16024573
0.72254831 0.24084939 0.16024567
0.72255063 0.2064431 0.16025133
0.72255063 0.17203587 0.16025133
0.72255063 0.13762878 0.16025124
0.72255063 0.10322151 0.16025127
0.72255063 0.068814397 0.16025135
0.72255063 0.034407217 0.16025132
0.72255063 2.9802322e-08 0.16025129
0.72255063 -0.034407072 0.16025135
0.72255063 -0.068814263 0.16025133
0.72255063 -0.10322145 0.1602513
0.72255296 -0.13762912 0.16025689
0.72255296 -0.17203641 0.16025695
0.72255296 -0.20644365 0.16025683
0.72255296 -0.24085094 0.16025688
0.72255296 -0.27525827 0.16025683
0.72255296 -0.30966556 0.16025689
0.72255296 -0.34407282 0.16025694
0.72255296 -0.37848002 0.16025689
0.72255296 -0.41288736 0.16025688
0.72255296 -0.44729465 0.16025692
0.72255534 -0.48170352 0.16026244
0.72255534 -0.5161109 0.16026247
0.72255534 -0.55051827 0.16026247
0.72255534 -0.58492571 0.1602625
0.7635929 0.59004909 0.17533109
0.7635929 0.55534035 0.17533113
0.7635929 0.52063155 0.17533107
0.7635929 0.48592278 0.17533101
0.7635929 0.45121393 0.17533103
0.7635929 0.41650528 0.17533103
0.7635929 0.38179642 0.17533113
0.7635954 0.34708893 0.17533675
0.7635954 0.31237999 0.17533681
0.7635954 0.27767107 0.17533672
0.7635954 0.24296226 0.17533682
0.7635954 0.20825329 0.17533678
0.7635954 0.17354444 0.17533676
0.7635954 0.13883559 0.17533675
0.7635954 0.10412676 0.17533673
0.7635954 0.069417819 0.17533681
0.7635954 0.034708977 0.17533678
0.76359797 4.4703484e-08 0.17534252
0.76359797 -0.034708962 0.17534249
0.76359797 -0.069417983 0.17534247
0.76359797 -0.10412698 0.17534244
0.76359797 -0.13883592 0.1753425
0.76359797 -0.17354493 0.17534249
0.76359797 -0.20825395 0.17534246
0.76359797 -0.24296287 0.17534252
0.76359797 -0.27767199 0.17534259
0.76359797 -0.31238091 0.17534249
0.76359797 -0.34708992 0.17534246
0.76360041 -0.3818002 0.17534825
0.76360041 -0.41650921 0.17534822
0.76360041 -0.45121837 0.17534819
0.76360041 -0.48592749 0.17534822
0.76360041 -0.52063656 0.17534812
0.76360041 -0.55534583 0.17534822
0.80536377 0.52523732 0.19068344
0.8053664 0.49022305 0.19068922
0.8053664 0.45520711 0.19068919
0.8053664 0.42019123 0.19068927
0.8053664 0.38517523 0.19068924
0.8053664 0.35015932 0.19068922
0.8053664 0.31514335 0.19068924
0.8053664 0.28012747 0.1906893
0.8053664 0.24511153 0.19068927
0.8053664 0.21009557 0.19068925
0.8053664 0.17507966 0.19068921
0.80536914 0.14006425 0.190695
0.80536914 0.10504825 0.19069502
0.80536914 0.07003209 0.19069505
0.80536914 0.035016082 0.19069505
0.80536914 8.1956387e-08 0.19069508
0.80536914 -0.035016075 0.19069508
0.80536914 -0.070032164 0.19069502
0.80536914 -0.10504806 0.19069496
0.80536914 -0.14006415 0.19069506
0.80536914 -0.17508022 0.190695
0.80536914 -0.21009623 0.19069502
0.80537176 -0.24511307 0.1907008
0.80537176 -0.28012925 0.19070081
0.80537176 -0.3151454 0.19070083
0.80537176 -0.35016158 0.19070086
0.80537176 -0.38517773 0.19070086
0.80537176 -0.42019391 0.19070086
0.80537176 -0.45521015 0.19070077
0.80537176 -0.49022633 0.19070077
0.80537176 -0.52524245 0.19070083
0.84788311 0.45927003 0.20631577
0.84788311 0.42394143 0.20631562
0.84788311 0.38861316 0.2063157
0.84788311 0.35328469 0.20631577
0.84788311 0.31795618 0.20631573
0.84788591 0.28262869 0.2063216
0.84788591 0.24730012 0.20632158
0.84788591 0.21197152 0.20632161
0.84788591 0.17664295 0.2063216
0.84788591 0.1413143 0.20632169
0.84788591 0.10598584 0.2063216
0.84788591 0.070657268 0.2063216
0.84788591 0.035328545 0.20632157
0.84788591 6.7055225e-08 0.20632166
0.84788591 -0.035328567 0.20632157
0.84788591 -0.070657127 0.20632157
0.84788871 -0.10598604 0.20632753
0.84788871 -0.14131477 0.20632751
0.84788871 -0.17664349 0.2063275
0.84788871 -0.21197213 0.20632741
0.84788871 -0.24730086 0.20632756
0.84788871 -0.28262961 0.20632754
0.84788871 -0.31795827 0.20632762
0.84788871 -0.35328698 0.20632742
0.84788871 -0.38861561 0.2063275
0.84788871 -0.42394435 0.20632747
0.84788871 -0.45927298 0.20632754
0.84789157 -0.4946034 0.20633341
0.84789157 -0.52993214 0.2063334
0.89116853 0.35646737 0.22222966
0.89116853 0.32082072 0.22222969
0.89116853 0.28517392 0.22222966
0.89116853 0.24952726 0.22222969
0.89116853 0.21388049 0.22222966
0.89116853 0.17823371 0.22222963
0.89116853 0.14258699 0.2222297
0.89116853 0.1069403 0.2222296
0.89116853 0.071293607 0.22222966
0.89117157 0.035646968 0.22223565
0.89117157 9.6857548e-08 0.22223571
0.89117157 -0.035646856 0.22223566
0.89117157 -0.071293727 0.22223571
0.89117157 -0.1069406 0.22223559
0.89117157 -0.14258739 0.22223575
0.89117157 -0.17823425 0.22223563
0.89117157 -0.21388111 0.22223568
0.89117157 -0.24952807 0.22223565
0.89117157 -0.28517488 0.22223562
0.89117157 -0.3208217 0.22223568
0.89117455 -0.35646978 0.22224163
0.89117455 -0.39211676 0.22224176
0.89117455 -0.42776376 0.22224164
0.89117455 -0.46341065 0.2222417
0.89117455 -0.49905771 0.22224173
0.93523777 0.28776556 0.23842679
0.93523777 0.25179484 0.23842682
0.93523777 0.21582413 0.2384268
0.93524098 0.17985402 0.2384329
0.93524098 0.14388326 0.23843293
0.93524098 0.10791242 0.23843288
0.93524098 0.071941659 0.23843291
0.93524098 0.035970904 0.23843294
0.93524098 6.7055225e-08 0.2384329
0.93524098 -0.035970703 0.23843294
0.93524098 -0.071941532 0.23843288
0.93524098 -0.10791238 0.238433
0.93524098 -0.14388321 0.23843294
0.93524098 -0.17985398 0.23843297
0.93524414 -0.21582553 0.23843905
0.93524414 -0.25179645 0.23843907
0.93524414 -0.28776744 0.23843901
0.93524414 -0.32373831 0.23843911
0.93524414 -0.35970914 0.23843908
0.93524414 -0.39568016 0.23843899
0.93524414 -0.43165106 0.23843902
0.93524414 -0.46762201 0.23843905
0.98011875 0.21780416 0.25492725
0.98011875 0.18150361 0.25492734
0.98011875 0.14520279 0.25492734
0.98011875 0.10890214 0.25492734
0.98011875 0.072601497 0.25492734
0.98011875 0.036300689 0.25492734
0.98011875 4.4703484e-08 0.25492734
0.98011875 -0.036300607 0.25492734
0.98012215 -0.072601542 0.2549336
0.98012215 -0.10890236 0.2549336
0.98012215 -0.14520317 0.25493357
0.98012215 -0.18150407 0.25493348
0.98012215 -0.21780479 0.25493354
0.98012215 -0.25410569 0.25493363
0.98012215 -0.29040653 0.25493363
0.98012215 -0.32670733 0.2549336
0.98012215 -0.36300817 0.2549336
0.98012215 -0.39930898 0.25493357
0.98012543 -0.43561119 0.25493982
1.0258273 0.14654683 0.271727
1.0258273 0.10991012 0.27172711
1.0258309 0.073273644 0.27173331
1.0258309 0.036636755 0.2717334
1.0258309 -4.4703484e-08 0.2717334
1.0258309 -0.036636822 0.27173343
1.0258309 -0.073273689 0.27173337
1.0258309 -0.1099104 0.27173331
1.0258309 -0.1465472 0.27173331
1.0258309 -0.18318397 0.27173334
1.0258309 -0.21982078 0.27173334
1.0258309 -0.25645763 0.27173328
1.0258344 -0.2930955 0.27173972
1.0258344 -0.32973245 0.27173972
1.0258344 -0.3663694 0.27173972
1.0258344 -0.40300629 0.27173963
1.0723937 0.036979161 0.28884718
1.0723937 -1.4901161e-08 0.28884709
1.0723937 -0.036979049 0.28884718
1.0723937 -0.073958151 0.28884715
1.0723937 -0.11093716 0.28884709
1.0723974 -0.14791691 0.28885365
1.0723974 -0.18489602 0.28885362
1.0723974 -0.2218753 0.28885362
1.0723974 -0.25885457 0.28885362
1.0723974 -0.29583368 0.28885359
1.0723974 -0.33281294 0.28885359
1.0723974 -0.36979204 0.28885356
1.1198385 -0.03732793 0.30629021
1.1198385 -0.074655943 0.30629021
1.1198385 -0.11198378 0.30629021
1.1198385 -0.1493118 0.30629021
1.1198385 -0.1866397 0.30629015
1.1198385 -0.22396764 0.30629024
1.1198385 -0.26129565 0.30629024
1.1198385 -0.29862347 0.30629024
1.1198385 -0.33595151 0.30629024
1.1681831 -0.11304998 0.32405886
1.1681831 -0.15073323 0.32405883
1.1681831 -0.18841659 0.32405886
1.1681831 -0.22609991 0.32405889
1.1681871 -0.26378426 0.32406563
