# .PCD v0.7 - Point Cloud Data file format
VERSION 0.7
FIELDS x y z
SIZE 4 4 4
TYPE F F F
COUNT 1 1 1
WIDTH 1384
HEIGHT 1
VIEWPOINT 0 0 0 1 0 0 0
POINTS 1384
DATA ascii
-0.20901346 0.38816792 -0.06715405
-0.20901346 0.35830885 -0.067154035
-0.20901346 0.32844976 -0.067154013
-0.20901346 0.29859075 -0.06715405
-0.20901346 0.26873165 -0.067154005
-0.20901346 0.23887254 -0.067154132
-0.20901346 0.20901352 -0.06715399
-0.20901346 0.17915438 -0.067154072
-0.20901346 0.14929536 -0.067154102
-0.20901346 0.11943633 -0.067153968
-0.20901346 0.089577198 -0.067154042
-0.20901346 0.05971818 -0.06715408
-0.20901346 0.029859072 -0.067154028
-0.20901346 1.1175871e-08 -0.06715402
-0.20901346 -0.029859005 -0.06715405
-0.20901346 -0.059718113 -0.067154005
-0.20901346 -0.089577168 -0.067154005
-0.20901346 -0.11943622 -0.067154162
-0.20901346 -0.1492953 -0.067153983
-0.20901346 -0.17915437 -0.067153975
-0.20901346 -0.2090134 -0.067154124
-0.20901346 -0.23887244 -0.06715408
-0.20901346 -0.26873159 -0.067153998
-0.20901346 -0.2985906 -0.067154109
-0.20901346 -0.32844961 -0.067154065
-0.20901346 -0.35830879 -0.067154005
-0.20901346 -0.3881678 -0.067154124
-0.20901346 -0.41802683 -0.067154065
-0.20901346 -0.44788599 -0.06715399
-0.20901346 -0.477745 -0.067154109
-0.20901346 -0.507604 -0.067154035
-0.20901346 -0.53746319 -0.067154005
-0.20901346 -0.56732213 -0.06715405
-0.20901346 -0.59718126 -0.06715408
-0.20901346 -0.62704039 -0.06715399
-0.20901346 -0.65689939 -0.06715405
-0.20901346 -0.6867584 -0.06715405
-0.20901346 -0.71661758 -0.06715399
-0.20901346 -0.74647659 -0.06715408
-0.20901346 -0.77633566 -0.06715408
-0.17772782 0.770154 -0.079042107
-0.17772782 0.7405327 -0.079042107
-0.17772782 0.71091133 -0.079042166
-0.17772782 0.68129003 -0.079042137
-0.17772782 0.65166873 -0.079042137
-0.17772782 0.62204742 -0.079042107
-0.17772782 0.59242612 -0.079042092
-0.17772782 0.56280488 -0.079042122
-0.17772782 0.53318357 -0.079042092
-0.17772782 0.50356227 -0.079042077
-0.17772782 0.47394091 -0.079042137
-0.17772782 0.44431964 -0.079042166
-0.17772782 0.41469827 -0.079042107
-0.17772782 0.385077 -0.079042077
-0.17772782 0.3554557 -0.079042062
-0.17772782 0.32583433 -0.079042174
-0.17772782 0.29621303 -0.079042144
-0.17772782 0.26659173 -0.079042137
-0.17772782 0.23697047 -0.079042152
-0.17772782 0.20734918 -0.079042122
-0.17772782 0.17772791 -0.079042144
-0.17772782 0.14810658 -0.079042085
-0.17772782 0.11848532 -0.079042099
-0.17772782 0.088864014 -0.079042085
-0.17772782 0.059242588 -0.079042122
-0.17772782 0.029621327 -0.079042137
-0.17772782 -1.8626451e-08 -0.079042077
-0.17772782 -0.029621277 -0.079042092
-0.17772782 -0.05924258 -0.07904207
-0.17772782 -0.088863961 -0.079042144
-0.17772782 -0.11848526 -0.079042129
-0.17772782 -0.14810647 -0.079042181
-0.17772782 -0.17772786 -0.079042092
-0.17772782 -0.20734912 -0.079042189
-0.17772782 -0.23697034 -0.07904207
-0.17772782 -0.26659167 -0.079042107
-0.17772782 -0.29621297 -0.079042085
-0.17772782 -0.32583433 -0.079042107
-0.17772782 -0.35545564 -0.079042077
-0.17772782 -0.38507682 -0.079042152
-0.17772782 -0.41469827 -0.079042092
-0.17772782 -0.44431949 -0.079042152
-0.17772782 -0.47394079 -0.079042122
-0.17772782 -0.50356209 -0.079042152
-0.17772782 -0.53318346 -0.079042137
-0.17772782 -0.5628047 -0.079042107
-0.17772782 -0.59242606 -0.079042077
-0.17772782 -0.62204731 -0.079042196
-0.17772782 -0.65166867 -0.079042107
-0.17772782 -0.68128997 -0.079042077
-0.17772782 -0.71091127 -0.079042107
-0.17772782 -0.74053264 -0.079042077
-0.17772782 -0.77015388 -0.079042137
-0.14693651 0.7640698 -0.09074229
-0.14693651 0.73468256 -0.09074232
-0.14693651 0.70529521 -0.090742379
-0.14693651 0.67590791 -0.09074235
-0.14693651 0.64652067 -0.09074232
-0.14693651 0.61713326 -0.090742409
-0.14693651 0.58774602 -0.09074232
-0.14693651 0.55835873 -0.090742365
-0.14693651 0.52897143 -0.090742409
-0.14693651 0.49958417 -0.090742305
-0.14693651 0.47019684 -0.09074232
-0.14693651 0.44080955 -0.090742365
-0.14693651 0.41142219 -0.090742365
-0.14693651 0.38203496 -0.090742305
-0.14693651 0.3526476 -0.090742424
-0.14693651 0.32326034 -0.090742335
-0.14693651 0.29387304 -0.090742365
-0.14693651 0.26448575 -0.090742402
-0.14693651 0.23509848 -0.090742297
-0.14693651 0.20571119 -0.090742327
-0.14693651 0.17632388 -0.090742365
-0.14693651 0.14693654 -0.090742365
-0.14693651 0.11754924 -0.090742394
-0.14693651 0.088161938 -0.090742424
-0.14693651 0.058774669 -0.090742335
-0.14693651 0.029387373 -0.090742365
-0.14693651 7.4505806e-08 -0.090742394
-0.14693651 -0.029387193 -0.090742305
-0.14693651 -0.05877462 -0.090742387
-0.14693651 -0.088161789 -0.090742365
-0.14693651 -0.11754914 -0.090742365
-0.14693651 -0.14693648 -0.090742357
-0.14693651 -0.17632379 -0.090742305
-0.14693651 -0.2057111 -0.09074226
-0.14693651 -0.23509839 -0.090742372
-0.14693651 -0.26448569 -0.09074232
-0.14693651 -0.29387301 -0.090742268
-0.14693651 -0.32326031 -0.090742379
-0.14693651 -0.3526476 -0.090742335
-0.14693651 -0.3820349 -0.09074229
-0.14693651 -0.41142213 -0.09074235
-0.14693651 -0.44080946 -0.09074232
-0.14693651 -0.47019678 -0.09074226
-0.14693651 -0.49958405 -0.090742379
-0.14693651 -0.52897131 -0.090742335
-0.14693651 -0.55835873 -0.090742305
-0.14693651 -0.58774596 -0.090742379
-0.14693651 -0.61713326 -0.09074235
-0.14693651 -0.64652061 -0.09074229
-0.14693651 -0.67590785 -0.090742379
-0.14693651 -0.70529521 -0.09074235
-0.14693651 -0.73468244 -0.09074229
-0.14693651 -0.76406968 -0.090742379
-0.11662786 0.78723794 -0.10225919
-0.11662786 0.7580812 -0.10225913
-0.11662786 0.72892416 -0.10225913
-0.11662786 0.69976711 -0.10225916
-0.11662786 0.67061013 -0.10225925
-0.11662786 0.64145321 -0.10225916
-0.11662786 0.61229628 -0.10225913
-0.11662786 0.5831393 -0.10225914
-0.11662786 0.55398232 -0.10225922
-0.11662786 0.52482539 -0.10225914
-0.11662786 0.49566844 -0.10225908
-0.11662786 0.46651146 -0.10225916
-0.11662786 0.43735451 -0.1022592
-0.11662786 0.40819755 -0.10225914
-0.11662786 0.37904051 -0.10225916
-0.11662786 0.34988356 -0.10225923
-0.11662786 0.3207266 -0.10225915
-0.11662786 0.29156971 -0.10225913
-0.11662786 0.26241273 -0.10225919
-0.11662786 0.23325571 -0.1022592
-0.11662786 0.20409876 -0.10225915
-0.11662786 0.17494179 -0.1022592
-0.11662786 0.14578491 -0.10225918
-0.11662786 0.11662789 -0.1022592
-0.11662786 0.087470904 -0.10225926
-0.11662786 0.058314011 -0.10225923
-0.11662786 0.02915702 -0.10225913
-0.11662786 3.7252903e-09 -0.10225914
-0.11662786 -0.029156972 -0.10225921
-0.11662786 -0.058313869 -0.10225918
-0.11662786 -0.08747077 -0.10225915
-0.11662786 -0.11662779 -0.10225917
-0.11662786 -0.14578481 -0.1022592
-0.11662786 -0.17494166 -0.1022592
-0.11662786 -0.20409864 -0.10225918
-0.11662786 -0.23325574 -0.10225912
-0.11662786 -0.26241267 -0.10225919
-0.11662786 -0.29156959 -0.10225912
-0.11662786 -0.32072663 -0.10225914
-0.11662786 -0.3498835 -0.10225919
-0.11662786 -0.37904048 -0.10225917
-0.11662786 -0.40819752 -0.1022592
-0.11662786 -0.43735433 -0.10225919
-0.11662786 -0.46651131 -0.10225917
-0.11662786 -0.49566835 -0.1022592
-0.11662786 -0.52482533 -0.10225914
-0.11662786 -0.55398232 -0.10225916
-0.11662786 -0.58313918 -0.1022592
-0.11662786 -0.61229622 -0.10225919
-0.11662786 -0.64145315 -0.10225919
-0.11662786 -0.67061007 -0.10225925
-0.11662786 -0.69976705 -0.10225922
-0.11662786 -0.72892404 -0.10225919
-0.11662786 -0.75808096 -0.10225916
-0.086790629 0.78111559 -0.11359692
-0.086790629 0.75218546 -0.11359683
-0.086790629 0.72325528 -0.11359689
-0.086790629 0.69432509 -0.11359689
-0.086790629 0.66539484 -0.11359686
-0.086790629 0.63646466 -0.11359689
-0.086790629 0.60753441 -0.11359687
-0.086790629 0.57860422 -0.1135969
-0.086790629 0.54967397 -0.11359687
-0.086790629 0.52074373 -0.11359689
-0.086790629 0.4918136 -0.1135968
-0.086790629 0.46288341 -0.11359683
-0.086790629 0.43395323 -0.11359684
-0.086790629 0.40502286 -0.1135969
-0.086790629 0.37609273 -0.11359682
-0.086790629 0.34716254 -0.11359684
-0.086790629 0.31823233 -0.11359684
-0.086790629 0.28930214 -0.11359686
-0.086790629 0.26037192 -0.11359687
-0.086790629 0.23144168 -0.11359684
-0.086790629 0.20251147 -0.11359686
-0.086790629 0.17358127 -0.11359687
-0.086790629 0.14465106 -0.11359689
-0.086790629 0.11572093 -0.11359681
-0.086790629 0.086790636 -0.11359692
-0.086790629 0.057860393 -0.11359689
-0.086790629 0.028930262 -0.11359681
-0.086790629 5.5879354e-08 -0.11359683
-0.086790629 -0.02893015 -0.11359684
-0.086790629 -0.057860356 -0.11359686
-0.086790629 -0.086790562 -0.11359687
-0.086790629 -0.11572082 -0.11359685
-0.086790629 -0.14465097 -0.1135969
-0.086790629 -0.17358123 -0.11359687
-0.086790629 -0.20251134 -0.11359687
-0.086790629 -0.23144168 -0.11359678
-0.086790629 -0.26037189 -0.11359687
-0.086790629 -0.28930214 -0.11359686
-0.086790629 -0.31823224 -0.11359686
-0.086790629 -0.34716251 -0.11359683
-0.086790629 -0.37609264 -0.11359683
-0.086790629 -0.40502289 -0.1135968
-0.086790629 -0.43395308 -0.1135969
-0.086790629 -0.46288335 -0.11359687
-0.086790629 -0.49181345 -0.1135969
-0.086790629 -0.52074379 -0.11359678
-0.086790629 -0.54967391 -0.11359684
-0.086790629 -0.57860422 -0.11359683
-0.086790629 -0.60753435 -0.11359683
-0.086790629 -0.6364646 -0.11359686
-0.086790629 -0.66539478 -0.11359686
-0.086790629 -0.69432503 -0.11359683
-0.086790629 -0.72325516 -0.11359689
-0.086790629 -0.75218546 -0.11359686
-0.086790629 -0.78111553 -0.11359689
-0.05741391 0.77508783 -0.12475958
-0.05741391 0.74638081 -0.12475961
-0.05741391 0.7176739 -0.12475958
-0.05741391 0.68896699 -0.12475953
-0.05741391 0.66025996 -0.12475955
-0.05741391 0.63155311 -0.12475957
-0.05741391 0.60284609 -0.12475957
-0.05741391 0.57413912 -0.1247595
-0.05741391 0.54543221 -0.1247596
-0.05741391 0.51672518 -0.1247596
-0.05741391 0.48801827 -0.12475958
-0.05741391 0.45931128 -0.12475964
-0.05741391 0.43060434 -0.12475957
-0.05741391 0.40189743 -0.12475955
-0.05741391 0.37319046 -0.12475958
-0.05741391 0.34448349 -0.12475952
-0.05741391 0.31577653 -0.12475958
-0.05741391 0.28706962 -0.12475955
-0.05741391 0.25836271 -0.12475952
-0.05741391 0.2296557 -0.12475953
-0.05741391 0.20094872 -0.1247596
-0.05741391 0.17224169 -0.12475961
-0.05741391 0.14353479 -0.12475958
-0.05741391 0.11482781 -0.12475964
-0.05741391 0.086120859 -0.12475956
-0.05741391 0.057413958 -0.12475953
-0.05741391 0.028706975 -0.12475958
-0.05741391 2.9802322e-08 -0.12475952
-0.05741391 -0.028706949 -0.12475957
-0.05741391 -0.057413854 -0.12475954
-0.05741391 -0.086120799 -0.12475947
-0.05741391 -0.11482774 -0.12475956
-0.05741391 -0.14353472 -0.12475954
-0.05741391 -0.17224166 -0.12475964
-0.05741391 -0.20094861 -0.12475956
-0.05741391 -0.22965559 -0.12475954
-0.05741391 -0.25836253 -0.12475963
-0.05741391 -0.28706947 -0.12475956
-0.05741391 -0.3157765 -0.12475959
-0.05741391 -0.34448338 -0.12475958
-0.05741391 -0.3731904 -0.12475961
-0.05741391 -0.40189731 -0.12475953
-0.05741391 -0.43060422 -0.12475958
-0.05741391 -0.45931125 -0.1247596
-0.05741391 -0.48801818 -0.12475955
-0.05741391 -0.51672512 -0.12475957
-0.05741391 -0.54543209 -0.12475955
-0.05741391 -0.57413912 -0.12475954
-0.05741391 -0.60284603 -0.12475963
-0.05741391 -0.63155299 -0.12475961
-0.05741391 -0.66025996 -0.12475953
-0.05741391 -0.68896687 -0.12475958
-0.05741391 -0.71767384 -0.12475955
-0.05741391 -0.74638081 -0.12475953
-0.05741391 -0.77508771 -0.12475961
-0.028487122 0.76915228 -0.13575134
-0.028487122 0.74066514 -0.13575134
-0.028487122 0.71217811 -0.13575128
-0.028487122 0.68369085 -0.13575137
-0.028487122 0.65520382 -0.13575128
-0.028487122 0.62671661 -0.13575131
-0.028487122 0.59822953 -0.13575131
-0.028487122 0.5697425 -0.13575126
-0.028487122 0.54125535 -0.13575129
-0.028487122 0.51276821 -0.13575129
-0.028487122 0.48428106 -0.13575132
-0.028487122 0.45579392 -0.13575132
-0.028487122 0.4273068 -0.13575135
-0.028487122 0.39881977 -0.13575129
-0.028487122 0.3703326 -0.13575128
-0.028487122 0.34184548 -0.13575134
-0.028487122 0.31335843 -0.13575126
-0.028487122 0.28487119 -0.13575134
-0.028487122 0.25638413 -0.13575128
-0.028487122 0.22789699 -0.13575128
-0.028487122 0.19940984 -0.13575131
-0.028487122 0.1709227 -0.13575131
-0.028487122 0.14243565 -0.13575123
-0.028487122 0.11394847 -0.13575138
-0.028487122 0.085461408 -0.13575131
-0.028487122 0.056974337 -0.13575122
-0.028487122 0.028487161 -0.13575137
-0.028487122 9.6857548e-08 -0.13575129
-0.028487122 -0.028487042 -0.13575131
-0.028487122 -0.056974232 -0.13575128
-0.028487122 -0.085461378 -0.13575129
-0.028487122 -0.11394852 -0.13575131
-0.028487122 -0.14243558 -0.13575132
-0.028487122 -0.17092264 -0.13575131
-0.028487122 -0.19940978 -0.13575125
-0.028487122 -0.22789693 -0.13575134
-0.028487122 -0.25638399 -0.13575135
-0.028487122 -0.28487116 -0.13575132
-0.028487122 -0.31335831 -0.13575125
-0.028487122 -0.34184539 -0.13575131
-0.028487122 -0.37033257 -0.13575123
-0.028487122 -0.39881968 -0.13575132
-0.028487122 -0.42730674 -0.13575135
-0.028487122 -0.45579389 -0.13575126
-0.028487122 -0.484281 -0.13575131
-0.028487122 -0.51276809 -0.13575137
-0.028487122 -0.54125524 -0.13575131
-0.028487122 -0.56974244 -0.13575129
-0.028487122 -0.59822947 -0.13575128
-0.028487122 -0.62671661 -0.13575134
-0.028487122 -0.6552037 -0.13575128
-0.028487122 -0.68369085 -0.13575134
-0.028487122 -0.71217799 -0.13575128
-0.028487122 -0.74066508 -0.13575131
-0.028487122 -0.76915216 -0.13575137
0 0.76330698 -0.14657593
0 0.73503637 -0.14657602
0 0.70676559 -0.14657602
0 0.67849517 -0.14657593
0 0.65022445 -0.14657594
0 0.62195379 -0.14657603
0 0.5936833 -0.14657591
0 0.56541258 -0.14657596
0 0.53714192 -0.14657599
0 0.50887132 -0.14657599
0 0.48060071 -0.14657594
0 0.45233008 -0.146576
0 0.42405945 -0.14657594
0 0.39578879 -0.14657602
0 0.36751819 -0.14657596
0 0.33924758 -0.14657591
0 0.31097695 -0.14657602
0 0.28270626 -0.14657605
0 0.25443566 -0.146576
0 0.22616507 -0.14657596
0 0.19789438 -0.146576
0 0.16962379 -0.14657597
0 0.14135322 -0.14657597
0 0.11308255 -0.14657602
0 0.084811956 -0.14657597
0 0.05654135 -0.14657593
0 0.028270669 -0.14657597
0 -7.4505806e-09 -0.14657602
0 -0.028270606 -0.14657599
0 -0.056541163 -0.14657599
0 -0.084811851 -0.14657602
0 -0.11308245 -0.14657599
0 -0.14135316 -0.14657599
0 -0.16962369 -0.14657594
0 -0.19789441 -0.14657594
0 -0.226165 -0.146576
0 -0.2544356 -0.14657605
0 -0.28270626 -0.14657596
0 -0.31097686 -0.146576
0 -0.33924752 -0.14657596
0 -0.36751807 -0.14657596
0 -0.39578876 -0.14657593
0 -0.42405936 -0.14657596
0 -0.45232996 -0.146576
0 -0.48060054 -0.14657606
0 -0.5088712 -0.14657597
0 -0.53714192 -0.14657597
0 -0.56541252 -0.14657597
0 -0.59368312 -0.14657594
0 -0.62195373 -0.14657597
0 -0.65022445 -0.14657593
0 -0.67849493 -0.14657608
0 -0.70676565 -0.14657602
0 -0.73503625 -0.14657593
0 -0.76330686 -0.14657599
0.028057398 0.78560722 -0.15723741
0.028057398 0.75754976 -0.15723741
0.028057398 0.72949237 -0.15723741
0.028057398 0.70143497 -0.15723738
0.028057398 0.67337763 -0.15723732
0.028057398 0.64532024 -0.15723734
0.028057398 0.61726284 -0.15723737
0.028057398 0.58920544 -0.15723737
0.028057398 0.56114805 -0.15723735
0.028057398 0.53309059 -0.15723738
0.028057398 0.5050332 -0.15723735
0.028057398 0.47697583 -0.15723737
0.028057398 0.44891843 -0.15723728
0.028057398 0.42086101 -0.1572374
0.028057398 0.39280358 -0.15723741
0.028057398 0.36474621 -0.15723743
0.028057398 0.33668882 -0.15723732
0.028057398 0.30863145 -0.15723735
0.028057398 0.28057405 -0.15723735
0.028057398 0.25251663 -0.15723734
0.028057398 0.22445925 -0.15723735
0.028057398 0.19640182 -0.15723734
0.028057398 0.16834441 -0.15723737
0.028057398 0.14028703 -0.15723738
0.028057398 0.11222968 -0.15723728
0.028057398 0.084172204 -0.15723738
0.028057398 0.056114767 -0.15723737
0.028057398 0.028057374 -0.15723738
0.028057398 2.2351742e-08 -0.15723728
0.028057398 -0.02805737 -0.15723731
0.028057398 -0.056114711 -0.15723735
0.028057398 -0.0841721 -0.15723738
0.028057398 -0.1122295 -0.1572374
0.028057398 -0.14028697 -0.15723734
0.028057398 -0.16834438 -0.15723737
0.028057398 -0.19640176 -0.15723738
0.028057398 -0.22445911 -0.15723735
0.028057398 -0.25251651 -0.15723738
0.028057398 -0.28057396 -0.15723732
0.028057398 -0.30863142 -0.15723738
0.028057398 -0.3366887 -0.15723732
0.028057398 -0.36474615 -0.15723738
0.028057398 -0.39280355 -0.15723741
0.028057398 -0.42086101 -0.15723729
0.028057398 -0.44891837 -0.15723732
0.028057398 -0.47697574 -0.15723735
0.028057398 -0.50503314 -0.15723737
0.028057398 -0.53309053 -0.1572374
0.028057398 -0.56114799 -0.15723734
0.028057398 -0.58920538 -0.15723731
0.028057398 -0.61726278 -0.15723734
0.028057398 -0.64532018 -0.15723735
0.028057398 -0.67337751 -0.15723735
0.028057398 -0.70143497 -0.15723738
0.028057398 -0.72949231 -0.15723741
0.028057398 -0.75754964 -0.15723738
0.028057398 -0.78560716 -0.15723732
0.055694733 0.77972621 -0.16773912
0.055694733 0.75187886 -0.16773918
0.055694733 0.72403151 -0.16773918
0.055694733 0.6961841 -0.16773917
0.055694733 0.66833669 -0.16773914
0.055694733 0.64048934 -0.16773917
0.055694733 0.61264199 -0.1677392
0.055694733 0.58479464 -0.1677392
0.055694733 0.55694735 -0.16773911
0.055694733 0.52909994 -0.16773911
0.055694733 0.50125265 -0.16773914
0.055694733 0.47340524 -0.16773912
0.055694733 0.44555786 -0.16773915
0.055694733 0.41771045 -0.16773912
0.055694733 0.3898631 -0.16773915
0.055694733 0.36201575 -0.16773918
0.055694733 0.33416837 -0.16773917
0.055694733 0.306321 -0.16773918
0.055694733 0.27847368 -0.16773908
0.055694733 0.25062633 -0.16773909
0.055694733 0.22277899 -0.16773912
0.055694733 0.19493163 -0.16773914
0.055694733 0.16708423 -0.16773912
0.055694733 0.13923687 -0.16773914
0.055694733 0.11138948 -0.16773912
0.055694733 0.083542131 -0.16773915
0.055694733 0.055694807 -0.16773903
0.055694733 0.027847402 -0.16773902
0.055694733 9.6857548e-08 -0.16773909
0.055694733 -0.02784726 -0.16773911
0.055694733 -0.055694655 -0.16773909
0.055694733 -0.083542049 -0.16773906
0.055694733 -0.11138937 -0.16773914
0.055694733 -0.13923676 -0.16773912
0.055694733 -0.16708411 -0.16773914
0.055694733 -0.19493157 -0.16773908
0.055694733 -0.22277892 -0.16773909
0.055694733 -0.25062618 -0.1677392
0.055694733 -0.27847356 -0.16773909
0.055694733 -0.30632094 -0.16773912
0.055694733 -0.33416837 -0.16773906
0.055694733 -0.36201572 -0.16773909
0.055694878 -0.38986406 -0.1677355
0.055694878 -0.4177115 -0.16773544
0.055694878 -0.445559 -0.16773544
0.055694878 -0.47340631 -0.16773547
0.055694878 -0.50125384 -0.16773544
0.055694878 -0.52910131 -0.16773544
0.055694878 -0.55694872 -0.16773538
0.055694878 -0.58479613 -0.16773543
0.055694878 -0.61264354 -0.16773552
0.055694878 -0.64049107 -0.16773538
0.055694878 -0.66833842 -0.16773543
0.055694878 -0.69618583 -0.16773552
0.055694878 -0.7240333 -0.16773546
0.055694878 -0.75188076 -0.16773543
0.055694878 -0.77972823 -0.16773543
0.082921349 0.77393258 -0.17808485
0.082921349 0.74629217 -0.17808482
0.082921349 0.71865171 -0.17808482
0.082921349 0.69101125 -0.17808484
0.082921349 0.66337085 -0.17808484
0.082921349 0.63573039 -0.17808482
0.082921349 0.60808992 -0.17808484
0.082921349 0.58044946 -0.17808484
0.082921349 0.552809 -0.17808482
0.082921349 0.5251686 -0.17808482
0.082921349 0.49752814 -0.17808484
0.082921349 0.4698877 -0.17808482
0.082921349 0.44224727 -0.17808482
0.082921349 0.41460681 -0.17808482
0.082921349 0.38696632 -0.17808476
0.082921349 0.35932592 -0.17808482
0.082921349 0.33168548 -0.17808482
0.082921349 0.30404499 -0.17808479
0.082921349 0.27640459 -0.17808482
0.082921349 0.2487641 -0.17808479
0.082921349 0.2211237 -0.17808482
0.082921349 0.1934832 -0.17808479
0.082921349 0.16584268 -0.17808487
0.082921349 0.13820225 -0.17808488
0.082921349 0.11056179 -0.17808487
0.082921349 0.082921349 -0.17808487
0.082921349 0.055280857 -0.17808482
0.082921349 0.027640499 -0.17808491
0.082921349 7.4505806e-09 -0.17808487
0.082921349 -0.02764035 -0.17808478
0.082921349 -0.055280849 -0.17808473
0.082921349 -0.082921326 -0.17808479
0.082921349 -0.11056173 -0.17808482
0.082921349 -0.13820222 -0.17808478
0.082921349 -0.16584267 -0.17808478
0.082921349 -0.19348314 -0.17808482
0.082921349 -0.22112359 -0.17808482
0.082921349 -0.24876395 -0.1780849
0.082921349 -0.27640447 -0.17808482
0.082921349 -0.30404493 -0.17808482
0.082921349 -0.33168536 -0.17808482
0.082921349 -0.35932583 -0.17808482
0.082921349 -0.38696629 -0.17808488
0.082921572 -0.41460776 -0.17808126
0.082921572 -0.44224828 -0.17808121
0.082921572 -0.46988887 -0.1780812
0.082921572 -0.49752933 -0.17808124
0.082921572 -0.52516997 -0.1780812
0.082921572 -0.55281043 -0.17808124
0.082921572 -0.58045095 -0.17808117
0.082921572 -0.60809147 -0.1780812
0.082921572 -0.63573194 -0.17808124
0.082921572 -0.66337252 -0.17808124
0.082921572 -0.69101298 -0.17808127
0.082921572 -0.71865356 -0.17808124
0.082921572 -0.74629414 -0.17808118
0.082921572 -0.7739346 -0.17808121
0.10974636 0.76822454 -0.18827793
0.10974636 0.74078798 -0.18827793
0.10974636 0.71335125 -0.18827792
0.10974636 0.68591475 -0.18827793
0.10974636 0.6584782 -0.18827787
0.10974636 0.63104159 -0.18827787
0.10974636 0.60360491 -0.18827796
0.10974636 0.57616842 -0.18827789
0.10974636 0.5487318 -0.18827794
0.10974636 0.52129519 -0.18827794
0.10974636 0.49385861 -0.18827796
0.10974636 0.46642208 -0.18827787
0.10974636 0.43898553 -0.1882779
0.10974636 0.41154882 -0.18827799
0.10974636 0.38411227 -0.18827789
0.10974636 0.35667568 -0.18827792
0.10974636 0.32923907 -0.1882779
0.10974636 0.30180249 -0.18827793
0.10974636 0.27436599 -0.18827787
0.10974636 0.24692938 -0.18827787
0.10974636 0.21949272 -0.18827799
0.10974636 0.1920561 -0.18827797
0.10974636 0.16461955 -0.18827789
0.10974636 0.13718298 -0.18827793
0.10974636 0.1097464 -0.18827794
0.10974636 0.082309783 -0.18827794
0.10974636 0.054873288 -0.18827787
0.10974636 0.027436584 -0.18827796
0.10974636 7.4505806e-09 -0.18827799
0.10974636 -0.027436577 -0.18827787
0.10974636 -0.054873105 -0.18827794
0.10974636 -0.082309693 -0.18827796
0.10974636 -0.10974631 -0.18827787
0.10974636 -0.13718285 -0.18827794
0.10974636 -0.16461955 -0.18827793
0.10974636 -0.19205609 -0.18827793
0.10974636 -0.21949266 -0.18827796
0.10974636 -0.2469292 -0.18827796
0.10974636 -0.27436584 -0.1882779
0.10974636 -0.3018024 -0.1882779
0.10974636 -0.32923907 -0.18827784
0.10974636 -0.35667568 -0.18827793
0.10974636 -0.38411212 -0.18827799
0.10974636 -0.41154879 -0.18827794
0.10974664 -0.43898648 -0.18827432
0.10974664 -0.46642318 -0.18827434
0.10974664 -0.4938598 -0.18827441
0.10974664 -0.52129644 -0.18827437
0.10974664 -0.54873317 -0.18827435
0.10974664 -0.57616973 -0.18827438
0.10974664 -0.60360646 -0.18827441
0.10974664 -0.63104308 -0.18827434
0.10974664 -0.65847975 -0.18827443
0.10974664 -0.68591642 -0.18827438
0.10974664 -0.7133531 -0.18827438
0.10974664 -0.74078965 -0.18827441
0.10974664 -0.7682265 -0.18827432
0.13617857 0.76259989 -0.19832179
0.13617857 0.73536426 -0.19832179
0.13617857 0.70812845 -0.1983218
0.13617857 0.68089277 -0.19832179
0.13617857 0.65365714 -0.1983218
0.13617857 0.62642139 -0.19832176
0.13617857 0.59918565 -0.19832174
0.13617857 0.57194996 -0.19832176
0.13617857 0.54471427 -0.19832177
0.13617857 0.51747853 -0.19832173
0.13617857 0.49024284 -0.19832174
0.13617857 0.46300715 -0.19832176
0.13617857 0.43577144 -0.19832173
0.13617857 0.40853572 -0.19832173
0.13617857 0.38130003 -0.19832173
0.13617857 0.35406429 -0.1983217
0.13617857 0.32682854 -0.19832182
0.13617857 0.29959282 -0.19832182
0.13617857 0.27235711 -0.19832179
0.13617857 0.2451214 -0.19832179
0.13617857 0.21788569 -0.19832177
0.13617857 0.19064999 -0.19832176
0.13617857 0.16341427 -0.19832176
0.13617857 0.1361786 -0.19832179
0.13617857 0.10894288 -0.19832177
0.13617857 0.08170718 -0.19832177
0.13617857 0.054471418 -0.19832173
0.13617857 0.027235746 -0.19832176
0.13617857 3.7252903e-08 -0.19832173
0.13617857 -0.027235672 -0.19832173
0.13617857 -0.054471344 -0.19832176
0.13617857 -0.08170706 -0.19832174
0.13617857 -0.10894281 -0.1983217
0.13617857 -0.1361786 -0.19832179
0.13617857 -0.16341427 -0.19832173
0.13617857 -0.19064994 -0.19832176
0.13617857 -0.2178856 -0.19832179
0.13617857 -0.24512136 -0.19832173
0.13617857 -0.27235711 -0.19832167
0.13617857 -0.29959279 -0.19832173
0.13617857 -0.32682845 -0.19832173
0.13617857 -0.35406429 -0.19832179
0.13617857 -0.38129991 -0.19832177
0.13617857 -0.40853557 -0.19832179
0.13617857 -0.43577135 -0.19832176
0.13617857 -0.46300709 -0.19832169
0.13617891 -0.49024397 -0.19831823
0.13617891 -0.51747978 -0.19831823
0.13617891 -0.54471564 -0.19831826
0.13617891 -0.57195139 -0.19831823
0.13617891 -0.59918714 -0.1983183
0.13617891 -0.62642288 -0.19831829
0.13617891 -0.65365875 -0.19831821
0.13617891 -0.68089461 -0.19831821
0.13617891 -0.7081303 -0.19831827
0.13617891 -0.73536611 -0.19831827
0.13617891 -0.76260185 -0.19831821
0.16222695 0.7840969 -0.20821619
0.16222695 0.7570591 -0.20821613
0.16222695 0.73002136 -0.2082161
0.16222695 0.7029835 -0.20821609
0.16222695 0.67594564 -0.20821613
0.16222695 0.64890784 -0.20821609
0.16222695 0.62187004 -0.20821615
0.16222695 0.59483218 -0.20821619
0.16222695 0.56779432 -0.20821609
0.16222695 0.54075658 -0.20821616
0.16222695 0.51371866 -0.20821618
0.16222695 0.48668084 -0.20821622
0.16222695 0.45964307 -0.20821616
0.16222695 0.43260527 -0.20821607
0.16222695 0.40556741 -0.20821613
0.16222695 0.37852958 -0.20821616
0.16222695 0.35149178 -0.2082161
0.16222695 0.32445389 -0.20821612
0.16222695 0.29741609 -0.20821615
0.16222695 0.27037823 -0.20821619
0.16222695 0.24334045 -0.20821615
0.16222695 0.21630257 -0.20821616
0.16222695 0.1892648 -0.2082161
0.16222695 0.16222696 -0.20821615
0.16222695 0.13518921 -0.2082161
0.16222695 0.10815136 -0.20821613
0.16222695 0.081113473 -0.20821613
0.16222695 0.05407571 -0.2082161
0.16222695 0.027037866 -0.20821613
0.16222695 1.4901161e-08 -0.20821616
0.16222695 -0.027037874 -0.20821618
0.16222695 -0.054075591 -0.20821609
0.16222695 -0.081113406 -0.20821607
0.16222695 -0.10815123 -0.20821612
0.16222695 -0.1351891 -0.20821607
0.16222695 -0.16222689 -0.20821615
0.16222695 -0.18926474 -0.20821612
0.16222695 -0.21630263 -0.20821612
0.16222695 -0.24334039 -0.20821616
0.16222695 -0.27037823 -0.20821612
0.16222695 -0.29741612 -0.20821613
0.16222695 -0.32445383 -0.2082161
0.16222695 -0.35149169 -0.20821606
0.16222695 -0.37852949 -0.20821615
0.16222695 -0.40556732 -0.2082161
0.16222695 -0.43260521 -0.20821606
0.16222695 -0.45964301 -0.20821613
0.16222695 -0.48668087 -0.20821609
0.16222695 -0.51371861 -0.20821615
0.16222695 -0.54075646 -0.2082161
0.16222695 -0.56779432 -0.20821609
0.16222695 -0.59483206 -0.20821612
0.16222695 -0.62186998 -0.20821613
0.16222695 -0.64890778 -0.20821603
0.16222695 -0.67594558 -0.20821612
0.16222695 -0.70298344 -0.20821607
0.16222695 -0.73002124 -0.20821616
0.16222695 -0.75705898 -0.20821619
0.16222695 -0.78409684 -0.20821613
0.18789907 0.77843904 -0.21797115
0.18789907 0.75159627 -0.21797121
0.18789907 0.7247535 -0.21797124
0.18789907 0.69791079 -0.21797118
0.18789907 0.67106813 -0.21797115
0.18789907 0.64422536 -0.21797118
0.18789907 0.61738271 -0.21797116
0.18789907 0.59053993 -0.21797122
0.18789907 0.56369722 -0.21797113
0.18789907 0.53685451 -0.21797122
0.18789907 0.51001179 -0.21797113
0.18789907 0.48316908 -0.21797112
0.18789907 0.45632637 -0.21797118
0.18789907 0.42948362 -0.21797112
0.18789907 0.40264088 -0.21797118
0.18789907 0.37579814 -0.21797124
0.18789907 0.34895539 -0.21797115
0.18789907 0.32211268 -0.21797125
0.18789907 0.29526997 -0.21797115
0.18789907 0.26842722 -0.21797124
0.18789907 0.24158454 -0.21797119
0.18789907 0.21474186 -0.21797113
0.18789907 0.18789908 -0.21797118
0.18789907 0.1610564 -0.21797115
0.18789907 0.13421364 -0.21797119
0.18789907 0.10737099 -0.21797118
0.18789907 0.080528185 -0.21797118
0.18789907 0.053685494 -0.21797115
0.18789907 0.026842855 -0.21797115
0.18789907 -3.7252903e-08 -0.21797124
0.18789907 -0.026842721 -0.21797119
0.18789907 -0.053685404 -0.21797124
0.18789907 -0.08052814 -0.21797122
0.18789907 -0.1073709 -0.21797118
0.18789907 -0.1342136 -0.21797115
0.18789907 -0.16105628 -0.21797119
0.18789907 -0.1878991 -0.2179711
0.18789907 -0.21474177 -0.21797115
0.18789907 -0.24158445 -0.21797118
0.18789907 -0.26842713 -0.21797121
0.18789907 -0.29526988 -0.21797113
0.18789907 -0.32211265 -0.2179711
0.18789907 -0.34895533 -0.21797115
0.18789907 -0.37579814 -0.21797115
0.18789907 -0.40264082 -0.21797118
0.18789907 -0.42948344 -0.21797118
0.18789907 -0.45632625 -0.21797115
0.18789907 -0.48316902 -0.21797115
0.18789907 -0.51001173 -0.21797119
0.18789907 -0.53685439 -0.21797122
0.18789907 -0.56369716 -0.21797113
0.18789907 -0.59053981 -0.21797118
0.18789907 -0.61738259 -0.21797113
0.18789907 -0.64422524 -0.21797118
0.18789907 -0.67106807 -0.21797118
0.18789907 -0.69791073 -0.21797118
0.18789907 -0.72475338 -0.21797124
0.18789907 -0.75159621 -0.21797118
0.18789907 -0.77843893 -0.21797115
0.21320334 0.77286214 -0.22758651
0.21320334 0.74621177 -0.22758645
0.21320334 0.71956122 -0.22758645
0.21320334 0.69291091 -0.22758651
0.21320334 0.66626048 -0.22758642
0.21320334 0.63961011 -0.22758636
0.21320334 0.61295962 -0.22758639
0.21320334 0.58630919 -0.22758645
0.21320334 0.55965889 -0.22758639
0.21320334 0.5330084 -0.22758642
0.21320334 0.50635797 -0.22758645
0.21320334 0.47970757 -0.22758636
0.21320334 0.45305714 -0.22758642
0.21320334 0.42640668 -0.22758645
0.21320334 0.39975634 -0.2275864
0.21320334 0.37310588 -0.22758646
0.21320334 0.34645545 -0.22758649
0.21320334 0.319805 -0.22758649
0.21320334 0.29315463 -0.22758643
0.21320334 0.2665042 -0.22758648
0.21320334 0.23985374 -0.22758651
0.21320334 0.21320336 -0.22758642
0.21320334 0.186553 -0.22758639
0.21320334 0.15990256 -0.22758642
0.21320334 0.13325219 -0.22758637
0.21320334 0.10660177 -0.2275864
0.21320334 0.079951279 -0.2275864
0.21320334 0.053300843 -0.22758645
0.21320334 0.026650481 -0.22758639
0.21320334 4.4703484e-08 -0.22758643
0.21320334 -0.026650392 -0.22758648
0.21320334 -0.053300738 -0.22758645
0.21320334 -0.079951182 -0.22758648
0.21320334 -0.10660172 -0.22758643
0.21320334 -0.13325207 -0.22758639
0.21320334 -0.15990251 -0.22758642
0.21320334 -0.1865529 -0.22758642
0.21320334 -0.21320334 -0.22758645
0.21320334 -0.23985371 -0.2275864
0.21320334 -0.26650414 -0.22758645
0.21320334 -0.29315457 -0.22758648
0.21320334 -0.31980503 -0.22758636
0.21320334 -0.34645545 -0.22758639
0.21320334 -0.37310588 -0.22758639
0.21320334 -0.39975625 -0.22758637
0.21320334 -0.42640665 -0.22758639
0.21320334 -0.45305699 -0.22758651
0.21320334 -0.47970739 -0.22758651
0.21320334 -0.50635791 -0.22758642
0.21320334 -0.53300834 -0.22758645
0.21320334 -0.55965871 -0.22758646
0.21320334 -0.58630913 -0.22758649
0.21320334 -0.61295956 -0.22758648
0.21320334 -0.63960993 -0.22758648
0.21320334 -0.66626036 -0.22758646
0.21320334 -0.69291079 -0.22758639
0.21320334 -0.71956128 -0.22758642
0.21320334 -0.74621165 -0.22758645
0.21320334 -0.77286208 -0.22758642
0.23814763 0.76736462 -0.23706491
0.23814763 0.74090379 -0.23706496
0.23814763 0.71444297 -0.23706488
0.23814763 0.68798208 -0.23706493
0.23814763 0.66152126 -0.2370649
0.23814763 0.63506037 -0.23706491
0.23814763 0.60859948 -0.2370649
0.23814763 0.58213866 -0.23706494
0.23814763 0.55567789 -0.23706487
0.23814763 0.529217 -0.23706491
0.23814763 0.50275618 -0.23706493
0.23814763 0.47629535 -0.23706481
0.23814763 0.44983441 -0.23706496
0.23814763 0.42337364 -0.23706487
0.23814763 0.39691275 -0.23706488
0.23814763 0.3704519 -0.23706493
0.23814763 0.34399104 -0.23706494
0.23814763 0.31753018 -0.23706499
0.23814763 0.29106942 -0.23706491
0.23814763 0.26460853 -0.2370649
0.23814763 0.23814766 -0.23706493
0.23814763 0.2116868 -0.23706494
0.23814763 0.18522604 -0.23706488
0.23814763 0.15876514 -0.23706487
0.23814763 0.13230427 -0.2370649
0.23814763 0.10584342 -0.23706493
0.23814763 0.079382561 -0.23706496
0.23814763 0.052921787 -0.2370649
0.23814763 0.026460856 -0.237065
0.23814763 7.4505806e-08 -0.23706493
0.23814763 -0.02646073 -0.23706491
0.23814763 -0.05292172 -0.23706491
0.23814763 -0.079382539 -0.2370649
0.23814763 -0.10584335 -0.23706487
0.23814763 -0.13230421 -0.2370649
0.23814763 -0.15876502 -0.23706488
0.23814763 -0.18522596 -0.23706491
0.23814763 -0.21168679 -0.23706488
0.23814763 -0.2381476 -0.23706487
0.23814763 -0.2646085 -0.23706494
0.23814763 -0.2910693 -0.23706493
0.23814763 -0.31753013 -0.23706491
0.23814763 -0.34399098 -0.23706493
0.23814763 -0.37045178 -0.2370649
0.23814763 -0.39691266 -0.23706496
0.23814763 -0.42337352 -0.23706496
0.23814763 -0.44983435 -0.237065
0.23814763 -0.47629517 -0.23706499
0.23814763 -0.50275606 -0.23706485
0.23814763 -0.52921695 -0.2370649
0.23814763 -0.55567777 -0.23706488
0.23814763 -0.5821386 -0.2370649
0.23814763 -0.60859948 -0.23706494
0.23814763 -0.63506031 -0.23706496
0.23814763 -0.66152114 -0.23706494
0.23814763 -0.68798208 -0.2370649
0.23814763 -0.71444291 -0.23706487
0.23814763 -0.74090374 -0.2370649
0.23814763 -0.76736456 -0.23706487
0.26273957 0.78821874 -0.24640952
0.26273957 0.76194471 -0.24640954
0.26273957 0.7356708 -0.24640948
0.26273957 0.7093969 -0.24640952
0.26273957 0.68312281 -0.24640952
0.26273957 0.65684891 -0.24640948
0.26273957 0.63057494 -0.24640954
0.26273957 0.60430098 -0.24640958
0.26273957 0.57802707 -0.24640952
0.26273957 0.5517531 -0.24640957
0.26273957 0.5254792 -0.24640951
0.26273957 0.49920523 -0.24640954
0.26273957 0.47293127 -0.24640946
0.26273957 0.44665727 -0.24640948
0.26273957 0.42038336 -0.24640942
0.26273957 0.3941094 -0.24640946
0.26273957 0.36783543 -0.24640949
0.26273957 0.34156153 -0.24640945
0.26273957 0.31528753 -0.24640951
0.26273957 0.2890135 -0.24640951
0.26273957 0.2627396 -0.24640945
0.26273957 0.23646566 -0.24640951
0.26273957 0.21019168 -0.24640954
0.26273957 0.18391778 -0.24640948
0.26273957 0.1576438 -0.24640952
0.26273957 0.13136977 -0.24640954
0.26273957 0.10509589 -0.24640948
0.26273957 0.078821912 -0.24640954
0.26273957 0.052547932 -0.24640957
0.26273957 0.026273996 -0.24640948
0.26273957 5.2154064e-08 -0.24640948
0.26273957 -0.026273929 -0.24640951
0.26273957 -0.052547872 -0.24640943
0.26273957 -0.078821801 -0.24640951
0.26273957 -0.10509582 -0.24640951
0.26273957 -0.13136977 -0.24640942
0.26273957 -0.15764369 -0.24640951
0.26273957 -0.1839177 -0.24640951
0.26273957 -0.21019156 -0.24640951
0.26273957 -0.23646563 -0.24640948
0.26273957 -0.26273948 -0.24640952
0.26273957 -0.2890135 -0.24640945
0.26273957 -0.31528744 -0.24640945
0.26273957 -0.34156141 -0.24640949
0.26273957 -0.36783537 -0.24640949
0.26273957 -0.39410931 -0.24640951
0.26273957 -0.42038324 -0.24640954
0.26273957 -0.44665721 -0.24640954
0.26273957 -0.47293115 -0.24640951
0.26273957 -0.49920523 -0.24640949
0.26273957 -0.52547908 -0.24640955
0.26273957 -0.55175304 -0.24640948
0.26273957 -0.57802689 -0.24640955
0.26273957 -0.60430098 -0.24640948
0.26273957 -0.63057488 -0.24640946
0.26273957 -0.65684891 -0.24640952
0.26273957 -0.68312281 -0.24640949
0.26273957 -0.70939684 -0.24640957
0.26273957 -0.7356708 -0.24640948
0.26273957 -0.76194465 -0.24640954
0.28698656 0.78269064 -0.25562298
0.28698656 0.75660098 -0.25562304
0.28698656 0.73051119 -0.25562301
0.28698656 0.70442152 -0.25562304
0.28698656 0.67833197 -0.25562295
0.28698656 0.65224224 -0.25562298
0.28698656 0.62615252 -0.25562301
0.28698656 0.60006279 -0.25562298
0.28698656 0.57397306 -0.25562298
0.28698656 0.54788351 -0.25562298
0.28698656 0.52179378 -0.25562298
0.28698656 0.49570408 -0.25562295
0.28698656 0.46961436 -0.25562298
0.28698656 0.44352469 -0.25562301
0.28698656 0.41743502 -0.25562292
0.28698656 0.39134529 -0.25562304
0.28698656 0.36525556 -0.25562304
0.28698656 0.33916596 -0.25562298
0.28698656 0.31307626 -0.25562298
0.28698656 0.28698665 -0.25562292
0.28698656 0.26089689 -0.25562304
0.28698656 0.23480718 -0.25562304
0.28698656 0.20871757 -0.25562298
0.28698656 0.18262786 -0.25562298
0.28698656 0.15653817 -0.25562304
0.28698656 0.13044845 -0.25562301
0.28698656 0.10435878 -0.25562307
0.28698656 0.078269176 -0.25562301
0.28698656 0.052179411 -0.25562298
0.28698656 0.026089728 -0.25562298
0.28698656 5.9604645e-08 -0.25562304
0.28698656 -0.026089579 -0.25562304
0.28698656 -0.052179351 -0.25562298
0.28698656 -0.07826902 -0.25562304
0.28698656 -0.1043587 -0.25562307
0.28698656 -0.13044837 -0.25562301
0.28698656 -0.15653807 -0.25562298
0.28698656 -0.18262774 -0.25562298
0.28698656 -0.20871747 -0.25562307
0.28698656 -0.23480713 -0.25562304
0.28698656 -0.26089683 -0.25562298
0.28698656 -0.2869865 -0.25562295
0.28698656 -0.31307617 -0.25562307
0.28698656 -0.3391659 -0.25562304
0.28698656 -0.36525559 -0.25562301
0.28698656 -0.39134526 -0.25562295
0.28698656 -0.41743487 -0.25562301
0.28698656 -0.4435246 -0.25562304
0.28698656 -0.46961433 -0.25562301
0.28698656 -0.495704 -0.25562298
0.28698656 -0.52179372 -0.25562298
0.28698656 -0.54788333 -0.25562301
0.28698656 -0.57397306 -0.25562298
0.28698656 -0.60006273 -0.25562301
0.28698656 -0.62615252 -0.25562298
0.28698656 -0.65224206 -0.25562304
0.28698656 -0.67833173 -0.25562298
0.28698656 -0.70442152 -0.25562304
0.28698656 -0.73051119 -0.25562295
0.28698656 -0.75660086 -0.25562304
0.28698656 -0.78269058 -0.25562304
0.3108958 0.7772395 -0.26470816
0.3108958 0.75133157 -0.26470816
0.3108958 0.72542351 -0.26470825
0.3108958 0.69951558 -0.26470813
0.3108958 0.67360759 -0.26470819
0.3108958 0.64769959 -0.26470822
0.3108958 0.62179166 -0.26470819
0.3108958 0.59588361 -0.26470816
0.3108958 0.56997561 -0.26470813
0.3108958 0.54406774 -0.26470819
0.3108958 0.51815975 -0.26470816
0.3108958 0.49225169 -0.26470816
0.3108958 0.46634376 -0.26470816
0.3108958 0.44043571 -0.26470822
0.3108958 0.4145278 -0.26470813
0.3108958 0.38861978 -0.26470822
0.3108958 0.36271176 -0.26470819
0.3108958 0.33680379 -0.26470819
0.3108958 0.3108958 -0.26470816
0.3108958 0.28498787 -0.26470819
0.3108958 0.2590799 -0.26470819
0.3108958 0.23317188 -0.26470816
0.3108958 0.20726395 -0.26470816
0.3108958 0.18135594 -0.26470813
0.3108958 0.1554479 -0.26470822
0.3108958 0.12953998 -0.2647081
0.3108958 0.10363195 -0.26470822
0.3108958 0.07772395 -0.26470819
0.3108958 0.051815942 -0.26470816
0.3108958 0.025908031 -0.26470822
0.3108958 -0 -0.26470822
0.3108958 -0.025907919 -0.26470819
0.3108958 -0.051815972 -0.26470819
0.3108958 -0.07772392 -0.26470813
0.3108958 -0.10363188 -0.26470822
0.3108958 -0.12953988 -0.26470819
0.3108958 -0.1554478 -0.26470816
0.3108958 -0.18135583 -0.26470816
0.3108958 -0.20726383 -0.26470822
0.3108958 -0.23317179 -0.26470816
0.3108958 -0.25907981 -0.26470816
0.3108958 -0.28498787 -0.26470816
0.3108958 -0.31089574 -0.26470819
0.3108958 -0.33680376 -0.26470819
0.3108958 -0.3627117 -0.26470822
0.3108958 -0.38861969 -0.26470819
0.3108958 -0.41452765 -0.26470813
0.3108958 -0.44043568 -0.26470816
0.3108958 -0.4663437 -0.26470813
0.3108958 -0.49225163 -0.26470816
0.3108958 -0.51815963 -0.26470816
0.3108958 -0.54406768 -0.26470816
0.3108958 -0.56997555 -0.26470819
0.3108958 -0.59588355 -0.26470819
0.3108958 -0.62179148 -0.26470828
0.3108958 -0.64769948 -0.26470822
0.3108958 -0.67360747 -0.26470816
0.3108958 -0.69951546 -0.26470816
0.3108958 -0.72542357 -0.26470816
0.3108958 -0.75133145 -0.26470819
0.3108958 -0.77723944 -0.26470819
0.33447433 0.77186382 -0.27366769
0.33447433 0.746135 -0.27366763
0.33447433 0.72040629 -0.27366769
0.33447433 0.69467741 -0.27366769
0.33447433 0.66894865 -0.27366757
0.33447433 0.64321983 -0.27366772
0.33447433 0.61749107 -0.27366769
0.33447433 0.59176224 -0.27366769
0.33447433 0.56603354 -0.27366766
0.33447433 0.54030466 -0.27366763
0.33447433 0.51457584 -0.27366775
0.33447433 0.48884714 -0.27366763
0.33447433 0.46311831 -0.27366775
0.33447433 0.43738949 -0.27366769
0.33447433 0.4116607 -0.27366769
0.33447433 0.38593194 -0.27366769
0.33447433 0.36020318 -0.27366769
0.33447433 0.33447435 -0.27366766
0.33447433 0.30874559 -0.27366766
0.33447433 0.28301671 -0.27366769
0.33447433 0.25728795 -0.27366775
0.33447433 0.23155914 -0.27366769
0.33447433 0.20583038 -0.27366769
0.33447433 0.18010157 -0.27366766
0.33447433 0.15437281 -0.27366766
0.33447433 0.12864402 -0.27366766
0.33447433 0.10291525 -0.27366766
0.33447433 0.077186361 -0.27366772
0.33447433 0.051457666 -0.27366763
0.33447433 0.025728822 -0.27366769
0.33447433 8.9406967e-08 -0.27366766
0.33447433 -0.025728717 -0.27366769
0.33447433 -0.051457614 -0.27366766
0.33447433 -0.077186354 -0.27366763
0.33447433 -0.10291512 -0.27366769
0.33447433 -0.12864387 -0.27366772
0.33447433 -0.15437278 -0.27366769
0.33447433 -0.18010151 -0.27366763
0.33447433 -0.20583032 -0.27366769
0.33447433 -0.23155905 -0.27366763
0.33447433 -0.25728789 -0.27366766
0.33447433 -0.28301662 -0.27366769
0.33447433 -0.30874547 -0.27366766
0.33447433 -0.33447421 -0.27366772
0.33447433 -0.36020312 -0.27366763
0.33447433 -0.38593185 -0.27366766
0.33447433 -0.41166061 -0.27366772
0.33447433 -0.4373894 -0.27366769
0.33447433 -0.46311826 -0.27366769
0.33447433 -0.48884708 -0.27366766
0.33447433 -0.51457584 -0.27366769
0.33447433 -0.54030454 -0.27366775
0.33447433 -0.56603342 -0.27366763
0.33447433 -0.59176219 -0.27366769
0.33447433 -0.61749101 -0.27366766
0.33447433 -0.64321977 -0.27366769
0.33447433 -0.66894859 -0.27366766
0.33447433 -0.69467735 -0.27366763
0.33447433 -0.72040612 -0.27366769
0.33447433 -0.74613494 -0.2736676
0.33447433 -0.77186382 -0.27366766
0.3577289 0.76656199 -0.28250402
0.3577289 0.74100989 -0.28250408
0.3577289 0.71545786 -0.28250414
0.3577289 0.68990576 -0.28250417
0.3577289 0.66435373 -0.28250408
0.3577289 0.63880163 -0.28250408
0.3577289 0.61324954 -0.28250414
0.3577289 0.58769751 -0.28250408
0.3577289 0.56214547 -0.28250414
0.3577289 0.53659338 -0.28250405
0.3577289 0.51104134 -0.28250411
0.3577289 0.48548922 -0.28250411
0.3577289 0.45993724 -0.28250405
0.3577289 0.43438509 -0.28250408
0.3577289 0.40883312 -0.28250402
0.3577289 0.38328102 -0.28250408
0.3577289 0.35772896 -0.28250411
0.3577289 0.33217683 -0.28250411
0.3577289 0.30662477 -0.28250417
0.3577289 0.28107274 -0.28250408
0.3577289 0.25552067 -0.28250414
0.3577289 0.22996861 -0.28250405
0.3577289 0.20441653 -0.28250411
0.3577289 0.17886442 -0.28250411
0.3577289 0.15331241 -0.28250408
0.3577289 0.12776035 -0.28250411
0.3577289 0.10220835 -0.28250408
0.3577289 0.076656237 -0.28250408
0.3577289 0.051104195 -0.28250399
0.3577289 0.025552139 -0.28250414
0.3577289 1.4901161e-08 -0.28250414
0.3577289 -0.025552019 -0.28250405
0.3577289 -0.051104151 -0.28250408
0.3577289 -0.076656096 -0.28250405
0.3577289 -0.10220822 -0.28250408
0.3577289 -0.12776029 -0.28250411
0.3577289 -0.15331237 -0.28250408
0.3577289 -0.1788644 -0.28250417
0.3577289 -0.20441644 -0.28250408
0.3577289 -0.22996861 -0.28250405
0.3577289 -0.25552061 -0.28250399
0.3577289 -0.28107268 -0.28250405
0.3577289 -0.30662477 -0.28250408
0.3577289 -0.3321768 -0.28250408
0.3577289 -0.35772896 -0.28250408
0.3577289 -0.3832809 -0.28250414
0.3577289 -0.40883303 -0.28250408
0.3577289 -0.43438506 -0.28250408
0.3577289 -0.45993719 -0.28250402
0.3577289 -0.48548916 -0.28250411
0.3577289 -0.51104128 -0.28250411
0.3577289 -0.53659332 -0.28250411
0.3577289 -0.56214535 -0.28250411
0.3577289 -0.58769745 -0.28250411
0.3577289 -0.61324948 -0.28250411
0.3577289 -0.63880157 -0.28250402
0.3577289 -0.66435355 -0.28250414
0.3577289 -0.68990576 -0.28250411
0.3577289 -0.71545774 -0.28250411
0.3577289 -0.74100995 -0.28250402
0.3577289 -0.76656187 -0.28250411
0.38066623 0.78671026 -0.29121989
0.38066623 0.76133239 -0.29121998
0.38066623 0.73595476 -0.29121995
0.38066623 0.71057695 -0.29121989
0.38066623 0.68519926 -0.29121998
0.38066623 0.65982151 -0.29121989
0.38066623 0.63444376 -0.29121989
0.38066623 0.60906595 -0.29121995
0.38066623 0.58368826 -0.29121992
0.38066623 0.55831057 -0.29121986
0.38066623 0.53293276 -0.29121995
0.38066623 0.50755507 -0.29121992
0.38066623 0.48217729 -0.29121998
0.38066623 0.45679957 -0.29121992
0.38066623 0.43142179 -0.29121986
0.38066623 0.40604401 -0.29121995
0.38066623 0.38066629 -0.29121989
0.38066623 0.35528854 -0.29121995
0.38066623 0.32991078 -0.29121992
0.38066623 0.30453303 -0.29121986
0.38066623 0.27915525 -0.29121992
0.38066623 0.25377753 -0.29121989
0.38066623 0.22839977 -0.29121995
0.38066623 0.20302203 -0.29121992
0.38066623 0.17764427 -0.29121998
0.38066623 0.15226656 -0.29121995
0.38066623 0.12688884 -0.29121992
0.38066623 0.10151101 -0.29121995
0.38066623 0.076133296 -0.29121992
0.38066623 0.050755508 -0.29121995
0.38066623 0.02537784 -0.29121998
0.38066623 8.9406967e-08 -0.29121989
0.38066623 -0.02537775 -0.29121995
0.38066623 -0.050755419 -0.29121995
0.38066623 -0.076133206 -0.29122001
0.38066623 -0.10151096 -0.29121992
0.38066623 -0.12688871 -0.29121986
0.38066623 -0.15226646 -0.29121995
0.38066623 -0.17764416 -0.29121992
0.38066623 -0.203022 -0.29121998
0.38066623 -0.22839966 -0.29121998
0.38066623 -0.25377738 -0.29121992
0.38066623 -0.27915522 -0.29121989
0.38066623 -0.30453289 -0.29121998
0.38066623 -0.32991064 -0.29121998
0.38066623 -0.35528845 -0.29121992
0.38066623 -0.38066614 -0.29122001
0.38066623 -0.40604395 -0.29121989
0.38066623 -0.43142167 -0.29121992
0.38066623 -0.45679945 -0.29121995
0.38066623 -0.48217717 -0.29121995
0.38066623 -0.50755495 -0.29121995
0.38066623 -0.53293264 -0.29121998
0.38066623 -0.55831039 -0.29121995
0.38066623 -0.58368814 -0.29121995
0.38066623 -0.60906589 -0.29122001
0.38066623 -0.63444364 -0.29121998
0.38066623 -0.65982139 -0.29122001
0.38066623 -0.6851992 -0.29121992
0.38066623 -0.71057689 -0.29121995
0.38066623 -0.73595464 -0.29121998
0.38066623 -0.76133239 -0.29121992
0.40329272 0.78137958 -0.29981774
0.40329272 0.75617385 -0.29981762
0.40329272 0.73096806 -0.29981765
0.40329272 0.70576215 -0.29981774
0.40329272 0.68055648 -0.29981762
0.40329272 0.65535069 -0.29981774
0.40329272 0.63014483 -0.29981774
0.40329272 0.6049391 -0.29981771
0.40329272 0.57973331 -0.29981768
0.40329272 0.55452746 -0.29981771
0.40329272 0.52932167 -0.29981768
0.40329272 0.50411594 -0.29981768
0.40329272 0.47891003 -0.29981774
0.40329272 0.45370433 -0.29981762
0.40329272 0.42849851 -0.29981765
0.40329272 0.40329266 -0.29981771
0.40329272 0.37808698 -0.29981762
0.40329272 0.35288113 -0.29981774
0.40329272 0.32767534 -0.29981771
0.40329272 0.30246952 -0.29981771
0.40329272 0.27726376 -0.29981768
0.40329272 0.25205794 -0.29981768
0.40329272 0.22685216 -0.29981768
0.40329272 0.20164639 -0.29981765
0.40329272 0.17644051 -0.29981774
0.40329272 0.15123484 -0.29981768
0.40329272 0.12602904 -0.29981765
0.40329272 0.10082318 -0.29981774
0.40329272 0.075617462 -0.29981762
0.40329272 0.050411627 -0.29981768
0.40329272 0.025205851 -0.29981774
0.40329272 4.4703484e-08 -0.29981765
0.40329272 -0.025205791 -0.29981768
0.40329272 -0.050411575 -0.29981768
0.40329272 -0.075617321 -0.29981771
0.40329272 -0.10082312 -0.29981768
0.40329272 -0.126029 -0.29981768
0.40329272 -0.15123469 -0.29981768
0.40329272 -0.17644052 -0.29981768
0.40329272 -0.20164631 -0.29981771
0.40329272 -0.22685207 -0.29981771
0.40329272 -0.25205785 -0.29981771
0.40329272 -0.27726367 -0.29981771
0.40329272 -0.30246943 -0.29981768
0.40329272 -0.32767525 -0.29981771
0.40329272 -0.35288107 -0.29981771
0.40329272 -0.37808686 -0.29981768
0.40329272 -0.40329263 -0.29981768
0.40329272 -0.42849845 -0.29981768
0.40329272 -0.45370424 -0.29981765
0.40329272 -0.47891009 -0.29981768
0.40329272 -0.50411582 -0.29981768
0.40329272 -0.52932161 -0.29981762
0.40329272 -0.55452734 -0.29981774
0.40329272 -0.57973325 -0.29981768
0.40329272 -0.60493898 -0.29981762
0.40329272 -0.63014477 -0.29981774
0.40329272 -0.65535057 -0.29981774
0.40329272 -0.6805563 -0.29981771
0.40329272 -0.70576227 -0.29981762
0.40329272 -0.73096794 -0.29981774
0.40329272 -0.75617373 -0.29981768
0.40329272 -0.78137952 -0.29981768
0.4256146 0.77612078 -0.30829972
0.4256146 0.75108457 -0.30829972
0.4256146 0.72604847 -0.30829972
0.4256146 0.70101225 -0.30829972
0.4256146 0.67597616 -0.30829972
0.4256146 0.65094 -0.30829966
0.4256146 0.62590384 -0.30829972
0.4256146 0.60086769 -0.30829966
0.4256146 0.57583153 -0.30829972
0.4256146 0.55079544 -0.30829966
0.4256146 0.52575922 -0.30829972
0.4256146 0.50072306 -0.30829969
0.4256146 0.47568703 -0.30829969
0.4256146 0.45065078 -0.30829969
