# .PCD v0.7 - Point Cloud Data file format
VERSION 0.7
FIELDS x y z
SIZE 4 4 4
TYPE F F F
COUNT 1 1 1
WIDTH 1362
HEIGHT 1
VIEWPOINT 0 0 0 1 0 0 0
POINTS 1362
DATA ascii
-0.50731862 -0.12682964 -0.29181081
-0.50731862 -0.15219553 -0.29181084
-0.50731862 -0.17756149 -0.29181078
-0.50731862 -0.2029274 -0.29181078
-0.50731862 -0.22829331 -0.29181078
-0.50731742 -0.25365871 -0.29181382
-0.50731742 -0.27902451 -0.29181382
-0.50731742 -0.30439043 -0.29181382
-0.50731742 -0.3297562 -0.29181382
-0.50731742 -0.35512215 -0.29181382
-0.50731742 -0.38048798 -0.29181388
-0.50731742 -0.40585387 -0.29181388
-0.48506117 0.20423633 -0.28363058
-0.48506117 0.17870682 -0.28363055
-0.48506117 0.15317731 -0.28363055
-0.48506117 0.12764767 -0.28363061
-0.48506117 0.10211816 -0.28363058
-0.48506117 0.076588646 -0.28363058
-0.48506117 0.051059149 -0.28363055
-0.48506117 0.025529608 -0.28363061
-0.48506117 4.4703484e-08 -0.28363055
-0.48506117 -0.025529504 -0.28363061
-0.48506117 -0.051058978 -0.28363055
-0.48506117 -0.076588526 -0.28363058
-0.48506117 -0.10211807 -0.28363061
-0.48506117 -0.12764759 -0.28363061
-0.48506117 -0.15317719 -0.28363061
-0.48506117 -0.17870666 -0.28363055
-0.48506117 -0.20423621 -0.28363058
-0.48506117 -0.22976576 -0.28363064
-0.48506117 -0.25529525 -0.28363064
-0.48506117 -0.28082478 -0.28363061
-0.48506001 -0.30635363 -0.28363368
-0.48506001 -0.33188313 -0.28363368
-0.48506001 -0.35741261 -0.28363359
-0.48506001 -0.38294211 -0.28363359
-0.48506001 -0.40847155 -0.28363368
-0.48506001 -0.43400106 -0.28363365
-0.46251589 0.2569533 -0.27534109
-0.46251589 0.23125798 -0.275341
-0.46251589 0.20556264 -0.27534103
-0.46251589 0.17986739 -0.27534097
-0.46251589 0.154172 -0.27534097
-0.46251589 0.12847666 -0.275341
-0.46251589 0.10278133 -0.27534103
-0.46251589 0.077085987 -0.27534106
-0.46251589 0.051390603 -0.27534106
-0.46251589 0.025695384 -0.27534103
-0.46251589 4.4703484e-08 -0.27534109
-0.46251589 -0.025695264 -0.27534097
-0.46251476 -0.051390454 -0.27534413
-0.46251476 -0.077085793 -0.27534416
-0.46251476 -0.10278106 -0.27534419
-0.46251476 -0.12847632 -0.27534413
-0.46251476 -0.1541715 -0.27534413
-0.46251476 -0.17986679 -0.27534413
-0.46251476 -0.20556208 -0.27534419
-0.46251476 -0.23125739 -0.2753441
-0.46251476 -0.25695258 -0.27534416
-0.46251476 -0.28264776 -0.27534419
-0.46251476 -0.30834311 -0.27534422
-0.46251476 -0.33403838 -0.27534416
-0.46251363 -0.35973275 -0.27534729
-0.46251363 -0.38542795 -0.27534732
-0.46251363 -0.41112322 -0.27534723
-0.46251363 -0.43681836 -0.27534726
-0.43967476 0.28449547 -0.26694629
-0.43967476 0.25863221 -0.26694629
-0.43967476 0.23276904 -0.26694623
-0.43967476 0.20690586 -0.26694626
-0.43967476 0.1810426 -0.26694629
-0.43967476 0.15517937 -0.26694629
-0.43967476 0.12931612 -0.26694632
-0.43967476 0.10345288 -0.26694632
-0.43967476 0.077589706 -0.26694623
-0.43967476 0.051726513 -0.26694632
-0.43967476 0.025863267 -0.26694632
-0.43967476 1.0430813e-07 -0.26694632
-0.43967476 -0.025863133 -0.26694623
-0.43967476 -0.051726438 -0.2669462
-0.43967476 -0.077589616 -0.26694635
-0.43967476 -0.10345288 -0.26694629
-0.43967476 -0.12931608 -0.26694632
-0.43967476 -0.15517932 -0.26694626
-0.43967476 -0.18104252 -0.26694632
-0.43967476 -0.20690572 -0.26694629
-0.43967369 -0.23276845 -0.26694942
-0.43967369 -0.25863156 -0.26694939
-0.43967369 -0.28449473 -0.26694939
-0.43967369 -0.3103579 -0.26694945
-0.43967369 -0.33622104 -0.26694942
-0.43967369 -0.36208421 -0.26694942
-0.43967369 -0.38794738 -0.26694942
-0.43967262 -0.41380948 -0.2669526
-0.43967262 -0.43967259 -0.26695257
-0.43967262 -0.46553567 -0.26695263
-0.4165332 0.33843327 -0.25844115
-0.4165332 0.31239992 -0.25844112
-0.4165332 0.28636655 -0.25844112
-0.4165332 0.26033327 -0.25844115
-0.4165332 0.23429994 -0.25844112
-0.4165332 0.20826663 -0.25844115
-0.4165332 0.18223327 -0.25844115
-0.4165332 0.15620001 -0.25844103
-0.4165332 0.13016671 -0.25844109
-0.4165332 0.1041334 -0.25844109
-0.4165332 0.078100063 -0.25844109
-0.4165332 0.052066721 -0.25844109
-0.4165332 0.026033364 -0.25844106
-0.4165332 2.9802322e-08 -0.25844112
-0.4165332 -0.02603332 -0.25844112
-0.4165332 -0.052066617 -0.25844115
-0.4165332 -0.078099966 -0.25844112
-0.4165332 -0.10413332 -0.25844112
-0.4165332 -0.13016656 -0.25844118
-0.4165332 -0.15619995 -0.25844112
-0.4165332 -0.1822333 -0.25844112
-0.4165332 -0.20826656 -0.25844118
-0.4165332 -0.2342999 -0.25844118
-0.4165332 -0.26033324 -0.25844115
-0.41653216 -0.2863659 -0.25844434
-0.41653216 -0.31239909 -0.25844434
-0.41653216 -0.33843231 -0.25844437
-0.41653216 -0.36446559 -0.25844431
-0.41653216 -0.39049885 -0.25844434
-0.41653216 -0.41653216 -0.25844431
-0.41653216 -0.44256538 -0.25844431
-0.41653115 -0.46859747 -0.25844759
-0.39308617 0.36688045 -0.24982011
-0.39308617 0.34067467 -0.24982014
-0.39308617 0.31446898 -0.24982007
-0.39308617 0.28826326 -0.2498201
-0.39308617 0.26205748 -0.2498201
-0.39308617 0.23585171 -0.2498201
-0.39308617 0.20964603 -0.24982002
-0.39308617 0.1834403 -0.24982008
-0.39308617 0.15723453 -0.24982008
-0.39308617 0.13102877 -0.24982008
-0.39308617 0.104823 -0.24982008
-0.39308617 0.078617349 -0.24982005
-0.39308617 0.052411534 -0.24982002
-0.39308521 0.026205704 -0.24982327
-0.39308521 2.2351742e-08 -0.24982327
-0.39308521 -0.026205704 -0.24982332
-0.39308521 -0.052411258 -0.24982335
-0.39308521 -0.078617029 -0.24982336
-0.39308521 -0.10482267 -0.24982332
-0.39308521 -0.1310284 -0.24982336
-0.39308521 -0.15723404 -0.24982332
-0.39308521 -0.18343978 -0.24982335
-0.39308521 -0.20964547 -0.24982327
-0.39308521 -0.23585105 -0.24982344
-0.39308521 -0.26205674 -0.24982333
-0.39308521 -0.28826246 -0.2498233
-0.39308521 -0.31446812 -0.24982333
-0.39308423 -0.34067291 -0.24982662
-0.39308423 -0.3668786 -0.24982655
-0.39308423 -0.3930842 -0.24982652
-0.39308423 -0.41928971 -0.24982661
-0.39308423 -0.44549543 -0.24982652
-0.39308423 -0.47170109 -0.24982655
-0.39308423 -0.49790668 -0.24982658
-0.36932561 0.42208639 -0.24108739
-0.36932561 0.39570609 -0.24108733
-0.36932561 0.36932561 -0.24108741
-0.36932561 0.34294525 -0.24108732
-0.36932561 0.31656477 -0.24108744
-0.36932561 0.29018447 -0.24108736
-0.36932561 0.26380399 -0.24108747
-0.36932561 0.23742364 -0.24108735
-0.36932561 0.21104325 -0.24108736
-0.36932561 0.18466286 -0.24108739
-0.36932561 0.15828247 -0.24108741
-0.36932561 0.13190202 -0.24108738
-0.36932561 0.10552163 -0.24108739
-0.36932561 0.079141244 -0.24108741
-0.36932561 0.052760854 -0.24108744
-0.36932561 0.02638042 -0.24108741
-0.36932561 2.9802322e-08 -0.24108735
-0.36932561 -0.026380353 -0.24108736
-0.36932561 -0.052760713 -0.24108732
-0.36932561 -0.07914114 -0.24108739
-0.36932561 -0.1055215 -0.24108736
-0.36932561 -0.13190193 -0.24108744
-0.36932561 -0.15828228 -0.24108739
-0.36932465 -0.18466231 -0.24109064
-0.36932465 -0.21104266 -0.24109063
-0.36932465 -0.23742293 -0.24109066
-0.36932465 -0.26380327 -0.24109066
-0.36932465 -0.29018357 -0.24109071
-0.36932465 -0.3165639 -0.24109071
-0.36932465 -0.34294426 -0.24109067
-0.36932465 -0.36932462 -0.24109066
-0.36932376 -0.39570397 -0.24109399
-0.36932376 -0.42208421 -0.24109401
-0.36932376 -0.44846451 -0.24109393
-0.36932376 -0.47484475 -0.24109398
-0.36932376 -0.50122499 -0.24109399
-0.34524617 0.45147574 -0.23223747
-0.34524617 0.42491835 -0.23223752
-0.34524617 0.39836097 -0.23223753
-0.34524617 0.37180364 -0.23223743
-0.34524617 0.34524617 -0.23223756
-0.34524617 0.31868884 -0.23223746
-0.34524617 0.29213139 -0.23223746
-0.34524617 0.26557404 -0.2322375
-0.34524617 0.23901662 -0.23223749
-0.34524617 0.21245918 -0.23223749
-0.34524617 0.18590181 -0.23223752
-0.34524617 0.15934438 -0.23223752
-0.34524617 0.13278703 -0.23223741
-0.34524617 0.10622966 -0.23223746
-0.34524617 0.079672165 -0.23223755
-0.34524617 0.053114817 -0.23223746
-0.34524617 0.026557393 -0.23223744
-0.34524617 5.9604645e-08 -0.2322375
-0.34524617 -0.026557364 -0.2322375
-0.34524617 -0.053114757 -0.23223746
-0.34524617 -0.079672173 -0.23223755
-0.34524617 -0.10622956 -0.23223749
-0.34524617 -0.13278693 -0.23223744
-0.34524617 -0.15934435 -0.23223752
-0.34524617 -0.18590173 -0.23223755
-0.34524617 -0.21245918 -0.23223746
-0.3452453 -0.23901591 -0.2322408
-0.3452453 -0.26557329 -0.23224081
-0.3452453 -0.29213056 -0.23224087
-0.3452453 -0.31868798 -0.23224078
-0.3452453 -0.34524521 -0.23224086
-0.3452453 -0.37180257 -0.23224084
-0.3452453 -0.39836001 -0.23224075
-0.3452453 -0.42491722 -0.23224083
-0.34524444 -0.4514735 -0.23224412
-0.34524444 -0.47803065 -0.23224427
-0.34524444 -0.50458789 -0.23224416
-0.34524444 -0.53114522 -0.23224415
-0.32084224 0.50800031 -0.2232646
-0.32084224 0.48126334 -0.22326466
-0.32084224 0.45452657 -0.22326466
-0.32084224 0.42778969 -0.2232646
-0.32084224 0.4010528 -0.22326468
-0.32084224 0.37431598 -0.22326466
-0.32084224 0.34757909 -0.22326471
-0.32084224 0.32084227 -0.22326469
-0.32084224 0.29410544 -0.22326466
-0.32084224 0.2673685 -0.22326469
-0.32084224 0.24063167 -0.22326469
-0.32084224 0.21389484 -0.22326466
-0.32084224 0.18715803 -0.22326463
-0.32084143 0.16042078 -0.22326802
-0.32084143 0.13368389 -0.22326809
-0.32084143 0.10694723 -0.22326806
-0.32084143 0.080210395 -0.22326803
-0.32084143 0.053473569 -0.22326802
-0.32084143 0.026736841 -0.22326806
-0.32084143 6.7055225e-08 -0.22326809
-0.32084143 -0.026736721 -0.22326803
-0.32084143 -0.053473532 -0.223268
-0.32084143 -0.080210358 -0.22326806
-0.32084143 -0.10694709 -0.22326812
-0.32084143 -0.13368388 -0.22326805
-0.32084143 -0.16042064 -0.22326806
-0.32084143 -0.18715751 -0.223268
-0.32084143 -0.21389425 -0.22326805
-0.32084143 -0.24063097 -0.22326811
-0.32084143 -0.26736775 -0.22326806
-0.32084063 -0.2941038 -0.22327146
-0.32084063 -0.3208406 -0.22327146
-0.32084063 -0.3475773 -0.22327146
-0.32084063 -0.37431395 -0.22327141
-0.32084063 -0.40105069 -0.22327149
-0.32084063 -0.42778745 -0.22327141
-0.32084063 -0.45452416 -0.22327143
-0.32084063 -0.48126084 -0.22327143
-0.32083979 -0.5079962 -0.22327486
-0.32083979 -0.53473294 -0.22327487
-0.29610553 0.53837371 -0.21417309
-0.29610553 0.511455 -0.21417312
-0.29610553 0.48453632 -0.21417318
-0.29610553 0.45761767 -0.21417309
-0.29610553 0.43069899 -0.21417312
-0.29610553 0.40378025 -0.21417315
-0.29610553 0.37686157 -0.21417315
-0.29610553 0.34994298 -0.21417312
-0.29610553 0.3230243 -0.21417317
-0.29610553 0.29610559 -0.2141732
-0.29610553 0.26918688 -0.2141732
-0.29610553 0.24226825 -0.21417314
-0.29610553 0.21534953 -0.21417315
-0.29610553 0.18843082 -0.21417317
-0.29610553 0.16151211 -0.21417318
-0.29610553 0.13459346 -0.21417324
-0.29610553 0.10767482 -0.21417317
-0.29610553 0.080756113 -0.2141732
-0.29610553 0.053837396 -0.2141732
-0.29610553 0.026918679 -0.21417323
-0.29610553 -2.2351742e-08 -0.21417323
-0.29610553 -0.026918657 -0.21417317
-0.29610553 -0.053837284 -0.21417317
-0.29610553 -0.080755994 -0.2141732
-0.29610553 -0.10767472 -0.21417321
-0.29610553 -0.13459335 -0.21417314
-0.29610476 -0.16151167 -0.21417663
-0.29610476 -0.1884302 -0.21417664
-0.29610476 -0.21534884 -0.21417657
-0.29610476 -0.24226746 -0.21417665
-0.29610476 -0.26918614 -0.21417664
-0.29610476 -0.29610467 -0.21417664
-0.29610476 -0.32302332 -0.21417657
-0.29610401 -0.34994107 -0.21418002
-0.29610401 -0.37685961 -0.21418002
-0.29610401 -0.40377814 -0.21418004
-0.29610401 -0.43069673 -0.21418008
-0.29610401 -0.4576152 -0.21418002
-0.29610401 -0.48453376 -0.21418002
-0.29610401 -0.51145232 -0.21418004
-0.29610401 -0.53837085 -0.21418004
-0.29610324 -0.56528795 -0.21418345
-0.27103072 0.59626758 -0.2049537
-0.27103072 0.56916463 -0.20495372
-0.27103072 0.54206145 -0.20495377
-0.27103072 0.51495844 -0.20495379
-0.27103004 0.48785406 -0.20495722
-0.27103004 0.46075112 -0.20495714
-0.27103004 0.43364802 -0.20495725
-0.27103004 0.4065451 -0.20495719
-0.27103004 0.3794421 -0.20495722
-0.27103004 0.35233906 -0.20495723
-0.27103004 0.32523605 -0.20495725
-0.27103004 0.29813308 -0.20495714
-0.27103004 0.27103007 -0.20495717
-0.27103004 0.24392706 -0.20495719
-0.27103004 0.21682405 -0.20495722
-0.27103004 0.18972106 -0.2049571
-0.27103004 0.16261804 -0.20495725
-0.27103004 0.13551509 -0.20495719
-0.27103004 0.10841204 -0.20495716
-0.27103004 0.081309035 -0.20495719
-0.27103004 0.054206066 -0.20495725
-0.27103004 0.027103081 -0.20495716
-0.27103004 2.9802322e-08 -0.20495713
-0.27103004 -0.027102977 -0.20495716
-0.27103004 -0.054205947 -0.20495722
-0.27103004 -0.081308968 -0.20495716
-0.27103004 -0.10841197 -0.20495719
-0.27103004 -0.1355149 -0.20495719
-0.27103004 -0.16261798 -0.20495723
-0.27103004 -0.18972097 -0.20495711
-0.27102932 -0.21682347 -0.20496066
-0.27102932 -0.24392635 -0.20496061
-0.27102932 -0.27102926 -0.20496064
-0.27102932 -0.29813221 -0.20496066
-0.27102932 -0.32523522 -0.20496058
-0.27102932 -0.35233817 -0.20496058
-0.27102932 -0.37944108 -0.20496064
-0.27102864 -0.4065429 -0.2049641
-0.27102864 -0.43364578 -0.20496407
-0.27102864 -0.46074873 -0.20496409
-0.27102864 -0.4878515 -0.20496415
-0.27102864 -0.51495439 -0.20496413
-0.27102864 -0.54205728 -0.2049641
-0.27102864 -0.5691601 -0.20496413
-0.2456094 0.62766856 -0.1956106
-0.2456094 0.60037851 -0.19561066
-0.2456094 0.57308871 -0.19561052
-0.2456094 0.54579866 -0.19561058
-0.2456094 0.51850879 -0.19561058
-0.2456094 0.49121886 -0.19561055
-0.2456094 0.46392897 -0.19561055
-0.2456094 0.43663895 -0.19561061
-0.2456094 0.40934908 -0.19561064
-0.2456094 0.38205913 -0.19561061
-0.2456094 0.3547692 -0.19561058
-0.2456094 0.32747921 -0.19561067
-0.2456094 0.30018932 -0.19561064
-0.2456094 0.27289936 -0.1956106
-0.24560878 0.24560881 -0.19561413
-0.24560878 0.21831891 -0.19561413
-0.24560878 0.19102903 -0.19561413
-0.24560878 0.16373926 -0.19561408
-0.24560878 0.13644941 -0.19561413
-0.24560878 0.10915952 -0.19561414
-0.24560878 0.081869639 -0.19561416
-0.24560878 0.054579742 -0.19561416
-0.24560878 0.027289934 -0.19561407
-0.24560878 3.7252903e-08 -0.19561407
-0.24560878 -0.0272898 -0.19561411
-0.24560878 -0.05457969 -0.19561413
-0.24560878 -0.08186955 -0.19561408
-0.24560878 -0.10915944 -0.1956141
-0.24560878 -0.13644932 -0.1956141
-0.24560878 -0.16373913 -0.19561411
-0.24560878 -0.19102907 -0.19561408
-0.24560878 -0.21831891 -0.19561413
-0.24560878 -0.24560872 -0.19561411
-0.24560814 -0.27289787 -0.19561775
-0.24560814 -0.30018774 -0.19561762
-0.24560814 -0.32747746 -0.19561772
-0.24560814 -0.35476729 -0.19561757
-0.24560814 -0.38205701 -0.19561768
-0.24560814 -0.40934682 -0.19561765
-0.24560814 -0.43663663 -0.19561768
-0.24560751 -0.46392521 -0.19562116
-0.24560751 -0.49121499 -0.19562112
-0.24560751 -0.51850474 -0.19562107
-0.24560751 -0.54579437 -0.19562119
-0.24560751 -0.57308412 -0.19562118
-0.21983513 0.68698478 -0.18613775
-0.21983513 0.65950543 -0.18613771
-0.21983513 0.63202602 -0.18613775
-0.21983513 0.60454667 -0.18613774
-0.21983513 0.57706726 -0.18613778
-0.21983513 0.54958791 -0.18613778
-0.21983513 0.5221085 -0.18613771
-0.21983513 0.49462909 -0.18613775
-0.21983513 0.46714973 -0.18613774
-0.21983513 0.43967032 -0.18613778
-0.21983513 0.41219091 -0.18613771
-0.21983513 0.38471156 -0.18613769
-0.21983513 0.35723212 -0.18613774
-0.21983513 0.32975277 -0.18613772
-0.21983513 0.30227333 -0.18613777
-0.21983513 0.27479389 -0.1861378
-0.21983513 0.24731454 -0.18613777
-0.21983513 0.21983512 -0.18613784
-0.21983513 0.19235577 -0.1861378
-0.21983513 0.16487642 -0.18613777
-0.21983513 0.13739699 -0.18613783
-0.21983513 0.1099176 -0.18613777
-0.21983513 0.082438245 -0.18613774
-0.21983513 0.054958776 -0.18613775
-0.21983513 0.02747947 -0.18613777
-0.21983513 -0 -0.18613778
-0.21983513 -0.027479395 -0.18613771
-0.21983513 -0.054958694 -0.18613771
-0.21983513 -0.082438126 -0.18613778
-0.21983513 -0.10991755 -0.18613777
-0.21983457 -0.13739651 -0.18614128
-0.21983457 -0.16487589 -0.1861413
-0.21983457 -0.19235519 -0.1861414
-0.21983457 -0.21983451 -0.18614131
-0.21983457 -0.24731389 -0.18614133
-0.21983457 -0.27479309 -0.18614134
-0.21983457 -0.3022725 -0.18614137
-0.21983398 -0.32975096 -0.18614484
-0.21983398 -0.35723022 -0.1861449
-0.21983398 -0.38470942 -0.1861449
-0.21983398 -0.41218865 -0.18614492
-0.21983398 -0.43966788 -0.18614493
-0.21983398 -0.46714723 -0.18614486
-0.21983398 -0.49462646 -0.18614486
-0.21983342 -0.52210432 -0.18614845
-0.21983342 -0.54958355 -0.18614845
-0.21983342 -0.57706273 -0.18614842
-0.21983342 -0.6045419 -0.18614851
-0.19370098 0.71946084 -0.17652878
-0.19370048 0.69178748 -0.17653249
-0.19370048 0.66411597 -0.17653245
-0.19370048 0.63644445 -0.17653252
-0.19370048 0.60877293 -0.17653251
-0.19370048 0.58110142 -0.17653249
-0.19370048 0.55342996 -0.17653245
-0.19370048 0.5257585 -0.17653246
-0.19370048 0.49808699 -0.17653245
-0.19370048 0.47041541 -0.17653254
-0.19370048 0.44274396 -0.17653251
-0.19370048 0.41507244 -0.17653248
-0.19370048 0.38740098 -0.17653249
-0.19370048 0.35972947 -0.17653245
-0.19370048 0.33205801 -0.17653245
-0.19370048 0.30438653 -0.17653245
-0.19370048 0.27671498 -0.17653254
-0.19370048 0.24904349 -0.17653249
-0.19370048 0.22137202 -0.17653249
-0.19370048 0.19370052 -0.17653248
-0.19370048 0.16602905 -0.17653248
-0.19370048 0.13835755 -0.17653243
-0.19370048 0.110686 -0.17653252
-0.19370048 0.08301454 -0.17653252
-0.19370048 0.05534298 -0.17653245
-0.19370048 0.027671516 -0.17653245
-0.19370048 5.2154064e-08 -0.17653245
-0.19370048 -0.027671412 -0.17653245
-0.19370048 -0.055342965 -0.17653237
-0.19370048 -0.083014466 -0.17653243
-0.19370048 -0.11068597 -0.17653248
-0.19370048 -0.13835739 -0.17653251
-0.19370048 -0.16602895 -0.17653243
-0.19369999 -0.19369993 -0.17653607
-0.19369999 -0.22137137 -0.17653602
-0.19369999 -0.24904282 -0.17653602
-0.19369999 -0.27671415 -0.17653605
-0.19369999 -0.30438566 -0.17653611
-0.19369999 -0.33205703 -0.17653602
-0.19369999 -0.35972846 -0.17653614
-0.19369948 -0.38739893 -0.17653975
-0.19369948 -0.4150703 -0.17653963
-0.19369948 -0.44274163 -0.17653966
-0.19369948 -0.47041297 -0.17653969
-0.19369948 -0.49808428 -0.17653972
-0.19369948 -0.52575558 -0.17653972
-0.19369948 -0.55342704 -0.17653969
-0.19369896 -0.58109689 -0.17654331
-0.19369896 -0.60876811 -0.1765434
-0.16719829 0.78025866 -0.16678828
-0.16719829 0.75239241 -0.16678816
-0.16719829 0.72452593 -0.16678828
-0.16719829 0.69665956 -0.16678825
-0.16719829 0.6687932 -0.16678825
-0.16719829 0.64092684 -0.16678825
-0.16719829 0.61306041 -0.16678819
-0.16719829 0.58519411 -0.16678822
-0.16719829 0.55732769 -0.16678831
-0.16719829 0.52946126 -0.16678828
-0.16719829 0.5015949 -0.16678825
-0.16719829 0.47372851 -0.16678825
-0.16719829 0.44586214 -0.16678822
-0.16719829 0.41799581 -0.16678825
-0.16719829 0.39012933 -0.16678828
-0.16719829 0.36226296 -0.16678831
-0.16719829 0.33439666 -0.16678816
-0.16719829 0.30653021 -0.16678824
-0.16719785 0.27866313 -0.16679187
-0.16719785 0.25079685 -0.16679195
-0.16719785 0.22293051 -0.16679196
-0.16719785 0.19506422 -0.16679186
-0.16719785 0.16719788 -0.16679189
-0.16719785 0.13933159 -0.16679195
-0.16719785 0.11146528 -0.16679198
-0.16719785 0.083598897 -0.16679195
-0.16719785 0.055732697 -0.16679193
-0.16719785 0.027866326 -0.16679192
-0.16719785 4.4703484e-08 -0.16679198
-0.16719785 -0.027866252 -0.16679187
-0.16719785 -0.055732582 -0.1667919
-0.16719785 -0.083598867 -0.16679195
-0.16719785 -0.1114652 -0.16679189
-0.16719785 -0.13933143 -0.16679192
-0.16719785 -0.16719781 -0.1667919
-0.16719785 -0.19506419 -0.16679189
-0.16719785 -0.22293046 -0.16679195
-0.16719741 -0.25079611 -0.16679564
-0.16719741 -0.27866232 -0.16679561
-0.16719741 -0.30652851 -0.16679558
-0.16719741 -0.33439481 -0.16679567
-0.16719741 -0.362261 -0.16679561
-0.16719741 -0.39012718 -0.16679558
-0.16719741 -0.41799346 -0.16679561
-0.16719697 -0.4458586 -0.16679928
-0.16719697 -0.47372466 -0.16679926
-0.16719697 -0.50159085 -0.16679923
-0.16719697 -0.52945697 -0.16679929
-0.16719697 -0.55732316 -0.16679926
-0.16719697 -0.58518934 -0.16679923
-0.16719697 -0.61305547 -0.16679926
-0.16719653 -0.64092004 -0.16680296
-0.14031978 0.81385469 -0.15690956
-0.14031978 0.78579068 -0.15690956
-0.14031978 0.75772679 -0.15690958
-0.14031978 0.72966295 -0.15690953
-0.14031978 0.70159894 -0.15690953
-0.14031978 0.67353499 -0.15690953
-0.14031978 0.64547098 -0.15690953
-0.14031978 0.61740702 -0.15690957
-0.14031978 0.58934319 -0.15690951
-0.14031978 0.56127912 -0.1569096
-0.14031978 0.53321522 -0.1569095
-0.14031978 0.50515121 -0.15690953
-0.14031978 0.47708729 -0.15690956
-0.14031978 0.44902331 -0.15690956
-0.14031978 0.42095944 -0.1569095
-0.14031978 0.39289537 -0.1569096
-0.14031978 0.36483151 -0.15690953
-0.14031978 0.33676746 -0.15690961
-0.14031978 0.30870354 -0.15690953
-0.14031978 0.28063962 -0.15690957
-0.14031978 0.25257564 -0.15690958
-0.14031978 0.22451165 -0.15690957
-0.14031978 0.19644777 -0.15690953
-0.14031978 0.16838379 -0.15690953
-0.14031978 0.14031981 -0.15690953
-0.14031978 0.11225583 -0.15690951
-0.14031978 0.084191836 -0.15690953
-0.14031978 0.056128029 -0.1569095
-0.14031941 0.028063983 -0.15691322
-0.14031941 3.7252903e-08 -0.15691327
-0.14031941 -0.028063778 -0.15691325
-0.14031941 -0.056127764 -0.15691325
-0.14031941 -0.084191658 -0.15691334
-0.14031941 -0.11225548 -0.15691331
-0.14031941 -0.14031932 -0.15691334
-0.14031941 -0.16838324 -0.15691327
-0.14031941 -0.19644719 -0.15691321
-0.14031941 -0.22451103 -0.15691324
-0.14031941 -0.25257489 -0.15691328
-0.14031941 -0.28063875 -0.1569133
-0.14031903 -0.30870181 -0.15691701
-0.14031903 -0.33676565 -0.15691698
-0.14031903 -0.36482939 -0.1569171
-0.14031903 -0.39289325 -0.15691698
-0.14031903 -0.42095709 -0.15691693
-0.14031903 -0.44902086 -0.15691707
-0.14031903 -0.47708464 -0.15691699
-0.14031866 -0.5051471 -0.15692073
-0.14031866 -0.53321087 -0.15692067
-0.14031866 -0.56127465 -0.15692073
-0.14031866 -0.5893383 -0.15692075
-0.14031866 -0.61740208 -0.1569207
-0.14031866 -0.64546579 -0.15692079
-0.11305771 0.87619722 -0.14688596
-0.11305771 0.84793293 -0.14688596
-0.11305771 0.81966841 -0.14688602
-0.11305771 0.79140407 -0.14688587
-0.11305771 0.76313955 -0.14688602
-0.1130574 0.73487318 -0.14688978
-0.1130574 0.70660877 -0.14688972
-0.1130574 0.67834449 -0.14688981
-0.1130574 0.65008008 -0.14688975
-0.1130574 0.62181586 -0.14688972
-0.1130574 0.5935514 -0.14688975
-0.1130574 0.56528705 -0.14688976
-0.1130574 0.53702271 -0.14688976
-0.1130574 0.50875837 -0.14688976
-0.1130574 0.48049399 -0.14688975
-0.1130574 0.45222971 -0.14688978
-0.1130574 0.42396528 -0.14688975
-0.1130574 0.39570096 -0.14688975
-0.1130574 0.36743659 -0.14688975
-0.1130574 0.33917227 -0.14688975
-0.1130574 0.3109079 -0.14688972
-0.1130574 0.28264359 -0.14688976
-0.1130574 0.25437921 -0.14688972
-0.1130574 0.22611485 -0.14688972
-0.1130574 0.1978505 -0.14688973
-0.1130574 0.16958612 -0.1468897
-0.1130574 0.1413217 -0.14688979
-0.1130574 0.1130574 -0.14688984
-0.1130574 0.084793061 -0.14688984
-0.1130574 0.056528714 -0.14688984
-0.1130574 0.028264407 -0.14688972
-0.1130574 5.9604645e-08 -0.14688972
-0.1130574 -0.028264284 -0.14688973
-0.1130574 -0.056528624 -0.14688973
-0.1130574 -0.084793016 -0.1468897
-0.1130574 -0.11305735 -0.14688978
-0.1130574 -0.14132175 -0.14688975
-0.1130571 -0.1695855 -0.14689356
-0.1130571 -0.1978499 -0.14689352
-0.1130571 -0.2261142 -0.14689356
-0.1130571 -0.25437841 -0.14689352
-0.1130571 -0.28264272 -0.14689356
-0.1130571 -0.31090707 -0.14689349
-0.1130571 -0.33917126 -0.14689359
-0.11305681 -0.36743462 -0.1468973
-0.11305681 -0.39569873 -0.14689733
-0.11305681 -0.42396301 -0.1468973
-0.11305681 -0.45222723 -0.14689729
-0.11305681 -0.48049134 -0.14689732
-0.11305681 -0.50875562 -0.14689729
-0.11305681 -0.53701973 -0.14689735
-0.1130565 -0.56528246 -0.14690115
-0.1130565 -0.59354663 -0.14690106
-0.1130565 -0.62181073 -0.14690109
-0.1130565 -0.65007484 -0.1469011
-0.1130565 -0.67833894 -0.1469011
-0.085403122 0.91096663 -0.13672209
-0.085403122 0.88249898 -0.13672203
-0.085403122 0.85403126 -0.13672197
-0.085403122 0.82556361 -0.13672197
-0.085403122 0.79709578 -0.13672197
-0.085403122 0.76862806 -0.13672206
-0.085403122 0.74016041 -0.13672203
-0.085403122 0.71169269 -0.13672209
-0.085403122 0.68322498 -0.13672203
-0.085403122 0.65475732 -0.13672201
-0.085403122 0.62628955 -0.13672204
-0.085403122 0.59782189 -0.136722
-0.085403122 0.56935424 -0.136722
-0.085403122 0.54088646 -0.136722
-0.085403122 0.51241875 -0.136722
-0.085402891 0.48394975 -0.13672584
-0.085402891 0.45548213 -0.13672583
-0.085402891 0.42701447 -0.1367258
-0.085403122 0.39854795 -0.13672203
-0.085402891 0.37007925 -0.13672583
-0.085402891 0.34161162 -0.13672584
-0.085402891 0.31314394 -0.13672581
-0.085402891 0.28467634 -0.13672584
-0.085402891 0.25620872 -0.13672584
-0.085402891 0.22774109 -0.13672586
-0.085402891 0.19927342 -0.13672583
-0.085402891 0.17080577 -0.1367258
-0.085402891 0.1423382 -0.13672586
-0.085402891 0.11387058 -0.13672587
-0.085402891 0.085402913 -0.13672584
-0.085402891 0.056935299 -0.13672586
-0.085402891 0.028467678 -0.13672587
-0.085402891 2.2351742e-08 -0.13672584
-0.085402891 -0.028467603 -0.13672584
-0.085402891 -0.056935262 -0.13672583
-0.085402891 -0.085402884 -0.13672584
-0.085402891 -0.1138705 -0.13672584
-0.085402891 -0.14233807 -0.1367259
-0.085402891 -0.17080574 -0.13672587
-0.08540266 -0.19927281 -0.13672973
-0.08540266 -0.22774044 -0.13672966
-0.08540266 -0.25620794 -0.13672961
-0.08540266 -0.28467554 -0.13672972
-0.08540266 -0.31314304 -0.13672969
-0.08540266 -0.34161067 -0.1367296
-0.08540266 -0.37007812 -0.13672969
-0.08540266 -0.39854568 -0.13672973
-0.085402429 -0.42701218 -0.13673347
-0.085402429 -0.45547959 -0.13673352
-0.085402429 -0.4839471 -0.13673347
-0.085402429 -0.51241463 -0.13673347
-0.085402429 -0.54088199 -0.13673349
-0.085402429 -0.56934953 -0.13673347
-0.085402429 -0.597817 -0.13673344
-0.085402206 -0.62628269 -0.13673738
-0.085402206 -0.65475023 -0.13673735
-0.085402206 -0.68321759 -0.13673732
-0.057347864 0.97491366 -0.12641078
-0.057347864 0.94623977 -0.12641072
-0.057347864 0.91756588 -0.12641066
-0.057347864 0.88889194 -0.12641072
-0.057347864 0.86021793 -0.12641078
-0.057347864 0.83154392 -0.12641081
-0.057347864 0.80287015 -0.12641069
-0.057347864 0.77419615 -0.12641072
-0.057347864 0.74552226 -0.12641081
-0.057347864 0.71684831 -0.12641069
-0.057347864 0.68817437 -0.12641081
-0.057347864 0.65950042 -0.12641084
-0.057347864 0.63082653 -0.12641078
-0.057347864 0.60215259 -0.12641081
-0.057347864 0.57347864 -0.12641075
-0.057347864 0.54480469 -0.12641078
-0.057347864 0.51613081 -0.12641074
-0.057347864 0.48745683 -0.12641083
-0.057347864 0.45878294 -0.12641077
-0.057347864 0.43010908 -0.12641075
-0.057347864 0.40143511 -0.12641078
-0.057347864 0.37276122 -0.12641072
-0.057347864 0.34408724 -0.12641075
-0.057347864 0.31541327 -0.12641078
-0.057347864 0.28673935 -0.12641075
-0.057347864 0.2580654 -0.12641078
-0.057347864 0.22939149 -0.12641072
-0.057347864 0.20071752 -0.12641077
-0.057347864 0.17204365 -0.12641075
-0.057347864 0.14336969 -0.12641078
-0.057347864 0.11469571 -0.12641083
-0.057347864 0.086021811 -0.12641077
-0.057347711 0.057347737 -0.12641466
-0.057347711 0.028673928 -0.12641469
-0.057347711 2.9802322e-08 -0.12641463
-0.057347711 -0.028673775 -0.12641466
-0.057347711 -0.057347633 -0.12641463
-0.057347711 -0.086021483 -0.12641463
-0.057347711 -0.1146953 -0.12641464
-0.057347711 -0.14336923 -0.12641464
-0.057347711 -0.17204314 -0.12641458
-0.057347711 -0.20071699 -0.12641466
-0.057347711 -0.22939083 -0.12641472
-0.057347711 -0.25806475 -0.12641467
-0.057347551 -0.2867378 -0.12641856
-0.057347551 -0.31541142 -0.12641856
-0.057347551 -0.34408534 -0.12641852
-0.057347551 -0.3727591 -0.12641849
-0.057347551 -0.40143281 -0.12641859
-0.057347551 -0.43010658 -0.12641858
-0.057347551 -0.45878035 -0.12641856
-0.057347398 -0.48745286 -0.12642236
-0.057347398 -0.51612651 -0.12642244
-0.057347398 -0.54480016 -0.12642244
-0.057347398 -0.57347393 -0.12642244
-0.057347398 -0.60214758 -0.12642244
-0.057347398 -0.63082135 -0.12642241
-0.057347398 -0.659495 -0.12642241
-0.057347242 -0.68816686 -0.12642637
-0.057347242 -0.71684045 -0.12642634
-0.028883245 1.0109136 -0.11594525
-0.028883245 0.98203027 -0.11594519
-0.028883167 0.95314443 -0.11594909
-0.028883167 0.92426133 -0.11594906
-0.028883167 0.89537817 -0.11594909
-0.028883245 0.8664974 -0.11594501
-0.028883167 0.83761191 -0.11594898
-0.028883167 0.80872864 -0.11594903
-0.028883167 0.77984554 -0.11594906
-0.028883167 0.75096238 -0.115949
-0.028883167 0.72207916 -0.11594912
-0.028883167 0.69319594 -0.11594909
-0.028883167 0.66431284 -0.11594898
-0.028883167 0.63542962 -0.11594905
-0.028883167 0.60654652 -0.11594905
-0.028883167 0.57766336 -0.11594908
-0.028883167 0.5487802 -0.11594903
-0.028883167 0.51989704 -0.115949
-0.028883167 0.49101382 -0.11594912
-0.028883167 0.46213067 -0.11594908
-0.028883167 0.43324757 -0.11594899
-0.028883167 0.40436435 -0.11594908
-0.028883167 0.37548119 -0.11594906
-0.028883167 0.34659803 -0.11594906
-0.028883167 0.31771478 -0.11594913
-0.028883167 0.28883171 -0.115949
-0.028883167 0.25994858 -0.11594902
-0.028883167 0.23106533 -0.11594909
-0.028883167 0.20218214 -0.11594905
-0.028883167 0.17329898 -0.11594903
-0.028883167 0.1444159 -0.11594909
-0.028883167 0.11553267 -0.11594902
-0.028883167 0.086649522 -0.11594916
-0.028883167 0.057766419 -0.11594904
-0.028883167 0.028883208 -0.11594898
-0.028883167 4.4703484e-08 -0.11594912
-0.028883167 -0.028883129 -0.11594909
-0.028883167 -0.057766348 -0.11594903
-0.028883167 -0.08664947 -0.11594903
-0.028883087 -0.11553235 -0.11595304
-0.028883087 -0.14441539 -0.11595305
-0.028883087 -0.17329854 -0.11595298
-0.028883087 -0.20218158 -0.115953
-0.028883087 -0.23106465 -0.11595304
-0.028883087 -0.25994778 -0.11595297
-0.028883087 -0.28883085 -0.11595297
-0.028883008 -0.31771302 -0.11595693
-0.028883008 -0.34659606 -0.11595694
-0.028883008 -0.37547898 -0.11595699
-0.028883008 -0.40436214 -0.1159569
-0.028883008 -0.43324506 -0.11595698
-0.028883008 -0.46212804 -0.11595692
-0.028883008 -0.49101108 -0.11595692
-0.028883008 -0.51989412 -0.11595692
-0.028882928 -0.54877555 -0.11596096
-0.028882928 -0.57765853 -0.11596085
-0.028882928 -0.60654151 -0.1159609
-0.028882928 -0.63542438 -0.1159609
-0.028882928 -0.66430736 -0.11596087
-0.028882928 -0.69319022 -0.11596099
-0.028882928 -0.7220732 -0.1159609
0 1.0765355 -0.10532957
0 1.0474401 -0.10532951
0 1.0183445 -0.10532948
0 0.98924899 -0.10532951
0 0.96015346 -0.10532948
0 0.93105787 -0.10532945
0 0.9019624 -0.10532951
0 0.87286675 -0.10532948
0 0.84377122 -0.10532945
0 0.81467569 -0.10532948
0 0.78558004 -0.10532957
0 0.75648451 -0.10532954
0 0.72738886 -0.10532954
0 0.69829339 -0.10532954
0 0.6691978 -0.10532951
0 0.64010227 -0.10532954
0 0.61100668 -0.10532951
0 0.58191115 -0.10532954
0 0.55281556 -0.10532951
0 0.52371866 -0.10533354
0 0.49462312 -0.10533354
0 0.46552759 -0.10533357
0 0.43643218 -0.10533354
0 0.40733677 -0.10533349
0 0.37824118 -0.1053336
0 0.34914574 -0.10533357
0 0.3200503 -0.10533349
0 0.29095477 -0.10533351
0 0.26185927 -0.10533357
0 0.2327638 -0.10533361
0 0.20366839 -0.10533358
0 0.17457294 -0.10533351
0 0.14547741 -0.10533352
0 0.11638188 -0.10533354
0 0.087286465 -0.10533351
0 0.058190983 -0.10533357
0 0.029095575 -0.10533353
0 4.4703484e-08 -0.10533354
0 -0.029095441 -0.1053336
0 -0.058190942 -0.10533349
0 -0.087286383 -0.10533358
0 -0.11638188 -0.10533347
0 -0.14547737 -0.10533353
0 -0.17457235 -0.10533756
0 -0.20366772 -0.10533748
0 -0.23276308 -0.10533757
0 -0.26185852 -0.10533758
0 -0.29095393 -0.10533755
0 -0.32004938 -0.10533755
0 -0.3491447 -0.1053376
0 -0.37824005 -0.10533752
0 -0.40733439 -0.10534155
0 -0.43642968 -0.10534152
0 -0.46552497 -0.10534154
0 -0.49462026 -0.10534158
0 -0.52371567 -0.10534149
0 -0.55281097 -0.10534154
0 -0.5819062 -0.10534155
0 -0.61099994 -0.10534552
0 -0.64009506 -0.10534555
0 -0.66919041 -0.10534549
0 -0.69828558 -0.10534555
0 -0.72738087 -0.10534552
0.029311012 1.0551964 -0.094556779
0.029311012 1.0258855 -0.094556689
0.029311012 0.9965744 -0.094556719
0.029311012 0.9672634 -0.094556779
0.029311012 0.93795246 -0.094556689
0.029311012 0.90864134 -0.094556659
0.029311012 0.8793304 -0.094556719
0.029311012 0.85001928 -0.094556838
0.029311012 0.82070839 -0.094556689
0.029311012 0.79139739 -0.094556749
0.029311012 0.76208627 -0.094556838
0.029311012 0.73277539 -0.094556659
0.029311012 0.70346433 -0.094556689
0.029311012 0.67415321 -0.094556808
0.029311012 0.64484227 -0.094556749
0.029311012 0.61553133 -0.094556689
0.029311012 0.5862202 -0.094556794
0.029311012 0.55690926 -0.094556734
0.029311012 0.52759826 -0.094556779
0.029311012 0.49828723 -0.094556794
0.029311012 0.46897617 -0.094556823
0.029311012 0.4396652 -0.094556749
0.029311012 0.4103542 -0.094556779
0.029311012 0.38104314 -0.094556794
0.029311012 0.35173219 -0.094556734
0.029311012 0.32242119 -0.094556771
0.029311012 0.29311013 -0.094556771
0.029311012 0.26379919 -0.094556719
0.029311012 0.23448817 -0.094556749
0.029311012 0.20517711 -0.094556741
0.029311012 0.17586604 -0.094556749
0.029310929 0.14655465 -0.094560869
0.029310929 0.11724375 -0.094560847
0.029310929 0.087932855 -0.094560839
0.029310929 0.058621965 -0.094560817
0.029310929 0.029310949 -0.094560862
0.029310929 5.2154064e-08 -0.094560847
0.029310929 -0.029310845 -0.094560832
0.029310929 -0.058621816 -0.094560906
0.029310929 -0.087932684 -0.094560757
0.029310929 -0.11724361 -0.094560876
0.029310929 -0.14655454 -0.094560832
0.029310929 -0.17586553 -0.094560817
0.029310929 -0.2051765 -0.094560802
0.02931085 -0.23448676 -0.094564885
0.02931085 -0.26379758 -0.094564863
0.02931085 -0.2931084 -0.09456484
0.02931085 -0.32241929 -0.094564915
0.02931085 -0.35173008 -0.0945649
0.02931085 -0.38104105 -0.09456484
0.02931085 -0.41035187 -0.09456487
0.029310768 -0.43966144 -0.094568878
0.029310768 -0.46897221 -0.094568998
0.029310768 -0.49828297 -0.094568938
0.029310768 -0.52759379 -0.094568908
0.029310768 -0.55690455 -0.094568968
0.029310768 -0.58621532 -0.094568938
0.029310768 -0.61552614 -0.094568908
0.029310768 -0.64483678 -0.094568938
0.029310687 -0.67414582 -0.094572961
0.029310687 -0.7034564 -0.094572961
0.029310687 -0.73276711 -0.094572991
0.029310687 -0.76207781 -0.094573021
0.05905953 1.0335418 -0.083619118
0.059059367 1.0040092 -0.083623201
0.059059367 0.97447956 -0.083623171
0.059059367 0.94494987 -0.083623171
0.059059367 0.91542017 -0.083623201
0.059059367 0.88589042 -0.08362329
0.059059367 0.85636079 -0.083623201
0.059059367 0.8268311 -0.083623201
0.059059367 0.79730135 -0.08362326
0.059059367 0.76777178 -0.083623171
0.059059367 0.73824203 -0.08362326
0.059059367 0.70871246 -0.083623171
0.059059367 0.67918277 -0.083623171
0.059059367 0.64965308 -0.083623141
0.059059367 0.62012327 -0.08362323
0.059059367 0.5905937 -0.08362326
0.059059367 0.56106406 -0.083623171
0.059059367 0.53153431 -0.08362326
0.059059367 0.50200462 -0.083623245
0.059059367 0.47247493 -0.083623245
0.059059367 0.44294527 -0.08362323
0.059059367 0.41341561 -0.08362323
0.059059367 0.38388592 -0.08362323
0.059059367 0.35435623 -0.083623216
0.059059367 0.32482654 -0.083623216
0.059059367 0.29529688 -0.083623208
0.059059367 0.26576719 -0.083623201
0.059059367 0.23623751 -0.083623201
0.059059367 0.20670781 -0.083623327
0.059059367 0.17717816 -0.083623186
0.059059367 0.14764851 -0.083623216
0.059059367 0.1181188 -0.083623178
0.059059367 0.08858908 -0.083623298
0.059059367 0.059059355 -0.08362326
0.059059367 0.029529804 -0.083623201
0.059059367 7.8231096e-08 -0.083623156
0.059059367 -0.029529637 -0.083623275
0.059059367 -0.059059408 -0.083623201
0.059059203 -0.088588864 -0.083627321
0.059059203 -0.11811836 -0.08362747
0.059059203 -0.14764796 -0.083627373
0.059059203 -0.17717756 -0.083627276
0.059059203 -0.20670715 -0.083627351
0.059059203 -0.2362368 -0.083627291
0.059059203 -0.26576635 -0.083627328
0.059059039 -0.29529512 -0.083631404
0.059059039 -0.32482457 -0.083631448
0.059059039 -0.35435414 -0.08363153
0.059059039 -0.38388366 -0.083631516
0.059059039 -0.41341326 -0.083631411
0.059059039 -0.44294268 -0.083631486
0.059059039 -0.47247219 -0.083631471
0.059059039 -0.50200176 -0.083631486
0.059058867 -0.53152978 -0.083635643
0.059058867 -0.56105924 -0.083635643
0.059058867 -0.59058869 -0.083635569
0.059058867 -0.62011808 -0.083635628
0.059058867 -0.64964753 -0.083635569
0.059058867 -0.67917693 -0.083635598
0.059058867 -0.70870638 -0.083635539
0.059058703 -0.7382338 -0.083639681
0.059058703 -0.7677632 -0.083639652
0.089255176 1.0115588 -0.072521061
0.089255176 0.98180687 -0.07252115
0.089255176 0.95205516 -0.07252112
0.089255176 0.92230356 -0.072521091
0.089255176 0.89255172 -0.07252118
0.089255176 0.8628 -0.072521091
0.089255176 0.83304828 -0.072521091
0.089255176 0.80329651 -0.07252121
0.089255176 0.77354485 -0.07252115
0.089255176 0.74379325 -0.072521091
0.089255176 0.71404147 -0.07252112
0.089255176 0.68428969 -0.07252121
0.089255176 0.65453798 -0.072521091
0.089254923 0.62478453 -0.072525322
0.089254923 0.59503281 -0.072525352
0.089254923 0.56528115 -0.072525322
0.089254923 0.53552949 -0.072525367
0.089254923 0.5057779 -0.072525352
0.089254923 0.4760263 -0.072525308
0.089254923 0.44627461 -0.072525382
0.089254923 0.41652298 -0.072525322
0.089254923 0.38677138 -0.072525293
0.089254923 0.35701972 -0.072525367
0.089254923 0.32726806 -0.0725253
0.089254923 0.29751641 -0.072525382
0.089254923 0.26776481 -0.07252536
0.089254923 0.23801321 -0.072525345
0.089254923 0.20826149 -0.072525382
0.089254923 0.17850986 -0.072525322
0.089254923 0.14875828 -0.072525293
0.089254923 0.11900655 -0.072525322
0.089254923 0.089255005 -0.072525345
0.089254923 0.059503365 -0.072525293
0.089254923 0.029751653 -0.072525322
0.089254923 5.9604645e-08 -0.0725253
0.089254923 -0.029751657 -0.072525337
0.089254923 -0.059503295 -0.072525278
0.089254923 -0.089254841 -0.072525293
0.089254923 -0.11900656 -0.07252533
0.08925467 -0.14875771 -0.072529465
0.08925467 -0.17850934 -0.072529569
0.08925467 -0.20826085 -0.072529547
0.08925467 -0.23801236 -0.072529525
0.08925467 -0.26776403 -0.07252951
0.08925467 -0.29751554 -0.072529487
0.08925467 -0.32726714 -0.072529554
0.089254424 -0.35701767 -0.072533682
0.089254424 -0.38676918 -0.072533652
0.089254424 -0.4165206 -0.072533712
0.089254424 -0.44627208 -0.072533637
0.089254424 -0.4760235 -0.072533697
0.089254424 -0.50577497 -0.072533667
0.089254424 -0.53552639 -0.072533756
0.089254171 -0.56527632 -0.072537884
0.089254171 -0.59502774 -0.072537929
0.089254171 -0.62477911 -0.072537899
0.089254171 -0.65453047 -0.072537899
0.089254171 -0.68428195 -0.072537839
0.089254171 -0.71403325 -0.072537899
0.089254171 -0.74378461 -0.072537929
0.089254171 -0.77353609 -0.072537839
0.089253917 -0.80328524 -0.072542071
0.11990818 0.98924243 -0.061255127
0.11990818 0.95926547 -0.061255068
0.11990818 0.92928839 -0.061255097
0.11990818 0.89931142 -0.061255097
0.11990818 0.8693344 -0.061255038
0.11990818 0.83935726 -0.061255127
0.11990818 0.80938029 -0.061255097
0.11990818 0.77940315 -0.061255127
0.11990818 0.74942619 -0.061255068
0.11990818 0.71944916 -0.061255008
0.11990818 0.68947208 -0.061255157
0.11990818 0.65949506 -0.061255068
0.11990818 0.62951791 -0.061255097
0.11990818 0.59954089 -0.061255157
0.11990818 0.56956387 -0.061255082
0.11990818 0.5395869 -0.061255008
0.11990818 0.50960982 -0.061255097
0.11990818 0.47963274 -0.061255112
0.11990818 0.44965577 -0.061255082
0.11990818 0.41967866 -0.061255097
0.11990818 0.3897016 -0.061255157
0.11990818 0.35972458 -0.061255082
0.11990818 0.32974756 -0.061255008
0.11990785 0.29976967 -0.061259367
0.11990785 0.26979268 -0.061259329
0.11990785 0.23981562 -0.061259396
0.11990785 0.20983872 -0.061259396
0.11990785 0.17986177 -0.061259404
0.11990785 0.14988476 -0.061259337
0.11990785 0.11990784 -0.06125934
0.11990785 0.089930914 -0.061259344
0.11990785 0.05995398 -0.061259355
0.11990785 0.029976971 -0.061259285
0.11990785 4.2840838e-08 -0.061259292
0.11990785 -0.029976841 -0.061259337
0.11990785 -0.059953809 -0.061259307
0.11990785 -0.089930788 -0.061259277
0.11990785 -0.11990783 -0.061259337
0.11990785 -0.14988472 -0.061259378
0.11990785 -0.17986168 -0.061259352
0.11990751 -0.20983809 -0.061263584
0.11990751 -0.23981497 -0.061263636
0.11990751 -0.26979178 -0.061263591
0.11990751 -0.29976875 -0.061263554
0.11990751 -0.32974559 -0.061263561
0.11990751 -0.35972247 -0.061263606
0.11990751 -0.38969934 -0.061263651
0.11990716 -0.41967505 -0.061267793
0.11990716 -0.44965178 -0.061267883
0.11990716 -0.47962859 -0.061267823
0.11990716 -0.50960541 -0.061267823
0.11990716 -0.53958225 -0.061267778
0.11990716 -0.56955898 -0.061267823
0.11990716 -0.5995357 -0.061267912
0.11990716 -0.62951255 -0.061267883
0.11990683 -0.65948749 -0.061272085
0.11990683 -0.68946421 -0.061272085
0.11990683 -0.71944082 -0.061272085
0.11990683 -0.74941754 -0.061272115
0.11990683 -0.77939427 -0.061272115
0.11990683 -0.80937093 -0.061272085
0.15102902 0.96658581 -0.049817055
0.15102902 0.93637991 -0.049817175
0.15102902 0.90617412 -0.049817115
0.15102902 0.87596834 -0.049816966
0.15102902 0.84576255 -0.049817085
0.15102902 0.81555676 -0.049817055
0.15102902 0.78535092 -0.049817175
0.15102902 0.75514513 -0.049817115
0.15102902 0.72493941 -0.049817026
0.15102902 0.6947335 -0.049817055
0.15102902 0.66452777 -0.049817055
0.15102902 0.63432199 -0.049817055
0.15102902 0.6041162 -0.049816996
0.15102902 0.5739103 -0.049817085
0.15102902 0.54370451 -0.049817055
0.15102902 0.51349866 -0.04981713
0.15102902 0.48329288 -0.049817115
0.15102902 0.45308715 -0.049817011
0.15102902 0.42288131 -0.0498171
0.15102902 0.39267555 -0.0498171
0.15102902 0.36246973 -0.049817055
0.15102902 0.33226383 -0.049817115
0.15102902 0.30205804 -0.049817108
0.15102902 0.27185228 -0.049817108
0.15102902 0.24164653 -0.049817085
0.15102902 0.21144065 -0.049817011
0.15102902 0.18123482 -0.0498171
0.15102902 0.15102905 -0.049817096
0.15102902 0.12082327 -0.049817093
0.15102902 0.090617463 -0.049817055
0.15102902 0.060411692 -0.049817052
0.15102902 0.03020584 -0.049817137
0.15102902 -2.0489097e-08 -0.049817055
0.15102902 -0.030205792 -0.049817052
0.15102859 -0.060411405 -0.049821436
0.15102859 -0.090617105 -0.049821336
0.15102859 -0.12082286 -0.049821503
0.15102859 -0.15102854 -0.049821414
0.15102859 -0.18123432 -0.049821414
0.15102859 -0.21144001 -0.049821317
0.15102859 -0.24164574 -0.049821429
0.15102816 -0.27185065 -0.049825728
0.15102816 -0.30205625 -0.049825743
0.15102816 -0.33226198 -0.049825653
0.15102816 -0.36246753 -0.049825758
0.15102816 -0.39267316 -0.049825802
0.15102816 -0.4228788 -0.049825653
0.15102816 -0.45308447 -0.049825683
0.15102774 -0.48328871 -0.049830094
0.15102774 -0.51349425 -0.049830034
0.15102774 -0.54369974 -0.049830094
0.15102774 -0.57390535 -0.049830019
0.15102774 -0.60411084 -0.049830079
0.15102774 -0.6343165 -0.049830019
0.15102774 -0.66452199 -0.049830019
0.15102731 -0.69472551 -0.049834371
0.15102731 -0.724931 -0.049834341
0.15102731 -0.75513643 -0.049834341
0.15102731 -0.78534192 -0.049834371
0.15102731 -0.81554735 -0.049834371
0.15102731 -0.84575295 -0.049834281
0.18262902 0.94358337 -0.038198739
0.18262902 0.91314518 -0.038198799
0.18262902 0.88270706 -0.038198739
0.18262902 0.85226882 -0.038198769
0.18262902 0.82183069 -0.038198739
0.1826285 0.79139018 -0.03820321
0.1826285 0.76095212 -0.03820318
0.1826285 0.73051405 -0.03820309
0.1826285 0.70007592 -0.03820318
0.1826285 0.66963786 -0.03820318
0.1826285 0.63919979 -0.03820312
0.1826285 0.60876173 -0.03820318
0.1826285 0.57832354 -0.03820321
0.1826285 0.5478856 -0.038203135
0.1826285 0.51744735 -0.03820318
0.1826285 0.48700935 -0.03820321
0.1826285 0.45657125 -0.038203195
0.1826285 0.42613319 -0.038203195
0.1826285 0.39569509 -0.03820318
0.1826285 0.36525702 -0.038203165
0.1826285 0.33481893 -0.03820315
0.1826285 0.30438086 -0.03820315
0.1826285 0.27394271 -0.038203225
0.1826285 0.24350476 -0.038203157
0.1826285 0.21306667 -0.038203143
0.1826285 0.18262847 -0.038203187
0.1826285 0.15219052 -0.038203117
0.1826285 0.12175235 -0.038203198
0.1826285 0.091314271 -0.038203187
0.1826285 0.060876243 -0.03820321
0.1826285 0.030438164 -0.038203198
0.1826285 3.9115548e-08 -0.038203146
0.1826285 -0.030438164 -0.038203187
0.1826285 -0.060876116 -0.038203124
0.1826285 -0.091314152 -0.038203146
0.18262798 -0.12175195 -0.038207635
0.18262798 -0.15218991 -0.038207576
0.18262798 -0.18262786 -0.038207509
0.18262798 -0.21306589 -0.038207531
0.18262798 -0.24350393 -0.038207568
0.18262798 -0.27394193 -0.038207591
0.18262798 -0.30437988 -0.03820765
0.18262745 -0.3348169 -0.038212001
0.18262745 -0.36525485 -0.038211942
0.18262745 -0.39569271 -0.038211957
0.18262745 -0.42613068 -0.038211882
0.18262745 -0.4565686 -0.038211942
0.18262745 -0.48700655 -0.038211882
0.18262745 -0.51744437 -0.038211897
0.18262693 -0.54788077 -0.038216352
0.18262693 -0.57831854 -0.038216293
0.18262693 -0.6087563 -0.038216352
0.18262693 -0.63919413 -0.038216352
0.18262693 -0.66963202 -0.038216352
0.18262693 -0.70006984 -0.038216323
0.18262693 -0.73050767 -0.038216323
0.18262693 -0.76094544 -0.038216352
0.1826264 -0.79138088 -0.038220763
0.1826264 -0.82181877 -0.038220733
0.1826264 -0.85225648 -0.038220733
0.21471836 0.92022157 -0.026404709
0.21471836 0.88954747 -0.026404798
0.21471836 0.85887349 -0.026404768
0.21471836 0.82819939 -0.026404887
0.21471836 0.79752529 -0.026404828
0.21471836 0.76685137 -0.026404738
0.21471836 0.73617721 -0.026404798
0.21471836 0.70550323 -0.026404768
0.21471836 0.67482913 -0.026404858
0.21471836 0.64415509 -0.026404828
0.21471836 0.61348104 -0.026404828
0.21471836 0.582807 -0.026404828
0.21471836 0.55213296 -0.026404768
0.21471836 0.52145886 -0.026404813
0.21471836 0.49078479 -0.026404798
0.21471836 0.46011078 -0.026404798
0.21471836 0.42943677 -0.026404813
0.21471773 0.39876151 -0.026409239
0.21471773 0.36808765 -0.026409224
0.21471773 0.33741355 -0.026409298
0.21471773 0.30673957 -0.026409328
0.21471773 0.27606568 -0.026409276
0.21471773 0.24539174 -0.02640935
0.21471773 0.21471767 -0.026409298
0.21471773 0.18404382 -0.026409276
0.21471773 0.15336984 -0.026409309
0.21471773 0.12269582 -0.026409306
0.21471773 0.092021927 -0.026409248
0.21471773 0.061347995 -0.026409317
0.21471773 0.030673925 -0.02640927
0.21471773 2.6077032e-08 -0.026409212
0.21471773 -0.030673904 -0.026409283
0.21471773 -0.061347924 -0.026409276
0.21471773 -0.09202186 -0.026409347
0.21471773 -0.1226958 -0.02640925
0.21471773 -0.15336981 -0.026409239
0.21471712 -0.18404326 -0.026413672
0.21471712 -0.21471703 -0.026413731
0.21471712 -0.24539089 -0.026413709
0.21471712 -0.27606487 -0.026413664
0.21471712 -0.30673867 -0.026413754
0.21471712 -0.3374126 -0.026413664
0.21471712 -0.3680864 -0.026413724
0.21471648 -0.39875919 -0.026418149
0.21471648 -0.42943293 -0.026418164
0.21471648 -0.46010664 -0.026418179
0.21471648 -0.49078047 -0.026418149
0.21471648 -0.52145422 -0.026418194
0.21471648 -0.55212808 -0.026418179
0.21471648 -0.58280182 -0.026418209
0.21471587 -0.61347383 -0.02642262
0.21471587 -0.64414757 -0.02642262
0.21471587 -0.67482126 -0.02642259
0.21471587 -0.70549488 -0.02642256
0.21471587 -0.73616856 -0.02642265
0.21471587 -0.76684231 -0.02642265
0.21471587 -0.79751599 -0.02642265
0.21471524 -0.82818723 -0.02642712
0.21471524 -0.85886091 -0.026427031
0.21471524 -0.88953459 -0.026427001
0.24730891 0.89649487 -0.014426619
0.24730891 0.86558115 -0.014426678
0.24730891 0.83466756 -0.014426589
0.24730891 0.80375397 -0.014426708
0.24730891 0.77284038 -0.014426589
0.24730891 0.74192679 -0.014426559
0.24730891 0.7110132 -0.014426589
0.24730891 0.68009961 -0.014426589
0.24730891 0.6491859 -0.014426708
0.24730891 0.6182723 -0.014426678
0.24730891 0.58735871 -0.014426589
0.24730891 0.55644512 -0.014426559
0.24730891 0.52553147 -0.014426589
0.24730891 0.49461788 -0.014426589
0.24730891 0.46370423 -0.014426559
0.24730891 0.43279064 -0.014426574
0.24730891 0.40187705 -0.014426589
0.24730891 0.37096339 -0.014426678
0.24730891 0.34004974 -0.014426664
0.24730891 0.30913615 -0.014426664
0.24730891 0.27822253 -0.014426678
0.24730891 0.24730898 -0.014426552
0.24730891 0.21639538 -0.014426567
0.24730891 0.18548179 -0.014426582
0.24730891 0.15456814 -0.014426552
0.24730891 0.12365454 -0.01442657
0.24730891 0.092740819 -0.01442663
