# .PCD v0.7 - Point Cloud Data file format
VERSION 0.7
FIELDS x y z
SIZE 4 4 4
TYPE F F F
COUNT 1 1 1
WIDTH 1378
HEIGHT 1
VIEWPOINT 0 0 0 1 0 0 0
POINTS 1378
DATA ascii
-0.20816454 0.44234973 -0.25907892
-0.20816454 0.41632915 -0.25907889
-0.20816454 0.39030856 -0.25907886
-0.20816454 0.36428797 -0.25907883
-0.20816454 0.33826745 -0.25907886
-0.20816454 0.31224686 -0.25907883
-0.20816454 0.28622633 -0.25907883
-0.20816454 0.26020575 -0.25907883
-0.20816454 0.23418519 -0.25907886
-0.20816454 0.20816457 -0.25907895
-0.20816454 0.18214399 -0.25907895
-0.20816454 0.15612346 -0.25907895
-0.20816454 0.13010295 -0.25907883
-0.20816454 0.10408236 -0.2590788
-0.20816454 0.078061745 -0.25907892
-0.20816454 0.052041166 -0.25907889
-0.20816454 0.026020579 -0.25907886
-0.20816454 -0 -0.25907886
-0.20816454 -0.02602046 -0.25907886
-0.20816454 -0.052041121 -0.25907892
-0.20816454 -0.0780617 -0.25907889
-0.20816454 -0.10408226 -0.25907883
-0.20816454 -0.13010275 -0.25907889
-0.20816454 -0.15612333 -0.25907886
-0.20816454 -0.18214399 -0.25907895
-0.20816454 -0.20816459 -0.2590788
-0.20816454 -0.23418507 -0.25907889
-0.20816454 -0.26020566 -0.25907886
-0.20816454 -0.28622624 -0.25907883
-0.20816454 -0.31224674 -0.25907889
-0.20816454 -0.33826733 -0.25907889
-0.20816454 -0.36428791 -0.25907889
-0.20816454 -0.3903085 -0.25907889
-0.20816454 -0.416329 -0.25907892
-0.20816454 -0.44234958 -0.25907892
-0.20816454 -0.46837017 -0.25907889
-0.20816454 -0.49439082 -0.25907892
-0.20816454 -0.52041125 -0.25907892
-0.20816454 -0.54643184 -0.25907892
-0.20816454 -0.57245249 -0.25907892
-0.20816454 -0.59847307 -0.25907886
-0.20816454 -0.62449366 -0.25907886
-0.20816454 -0.65051425 -0.25907886
-0.20816454 -0.67653477 -0.2590788
-0.20816454 -0.70255542 -0.2590788
-0.20816454 -0.72857589 -0.25907883
-0.20816454 -0.75459647 -0.25907889
-0.20816454 -0.78061712 -0.25907886
-0.17719831 0.78473538 -0.29440513
-0.17719831 0.75942135 -0.29440522
-0.17719831 0.73410732 -0.29440516
-0.17719831 0.70879328 -0.29440513
-0.17719831 0.68347919 -0.2944051
-0.17719831 0.65816516 -0.29440516
-0.17719831 0.63285112 -0.29440513
-0.17719831 0.60753709 -0.2944051
-0.17719831 0.58222306 -0.29440504
-0.17719831 0.55690902 -0.29440516
-0.17719831 0.53159493 -0.2944051
-0.17719831 0.50628096 -0.29440507
-0.17719831 0.4809669 -0.29440519
-0.17719831 0.45565283 -0.29440513
-0.17719831 0.43033877 -0.29440507
-0.17719831 0.40502471 -0.29440519
-0.17719831 0.3797107 -0.29440516
-0.17719831 0.35439658 -0.29440519
-0.17719831 0.32908258 -0.29440516
-0.17719831 0.30376855 -0.29440516
-0.17719831 0.27845454 -0.29440513
-0.17719831 0.25314042 -0.29440516
-0.17719831 0.2278264 -0.29440516
-0.17719831 0.2025124 -0.29440513
-0.17719831 0.17719835 -0.2944051
-0.17719831 0.15188426 -0.29440516
-0.17719831 0.12657022 -0.29440513
-0.17719831 0.10125621 -0.2944051
-0.17719831 0.075942196 -0.29440507
-0.17719831 0.050628133 -0.2944051
-0.17719831 0.025314063 -0.2944051
-0.17719831 8.9406967e-08 -0.29440513
-0.17719831 -0.025313973 -0.29440513
-0.17719831 -0.050627992 -0.2944051
-0.17719831 -0.075942069 -0.2944051
-0.17719831 -0.10125613 -0.29440504
-0.17719831 -0.12657024 -0.29440513
-0.17719831 -0.1518843 -0.29440513
-0.17719831 -0.17719826 -0.29440522
-0.17719831 -0.20251232 -0.29440516
-0.17719831 -0.22782639 -0.29440516
-0.17719831 -0.25314039 -0.29440519
-0.17719831 -0.27845448 -0.29440519
-0.17719831 -0.30376858 -0.2944051
-0.17719831 -0.32908249 -0.29440525
-0.17719831 -0.35439652 -0.29440516
-0.17719831 -0.37971067 -0.29440516
-0.17719831 -0.40502465 -0.29440516
-0.17719831 -0.43033874 -0.29440513
-0.17719831 -0.45565271 -0.29440513
-0.17719831 -0.48096681 -0.2944051
-0.17719831 -0.50628078 -0.2944051
-0.17719831 -0.53159481 -0.29440516
-0.17719831 -0.55690897 -0.29440516
-0.17719831 -0.58222306 -0.29440516
-0.17719831 -0.60753703 -0.29440516
-0.17719831 -0.63285112 -0.29440513
-0.17719831 -0.6581651 -0.29440513
-0.17719831 -0.68347913 -0.29440516
-0.17719831 -0.70879316 -0.2944051
-0.17719831 -0.7341072 -0.29440516
-0.17719831 -0.75942123 -0.2944051
-0.17719831 -0.78473532 -0.29440519
-0.14786924 0.78863585 -0.32786375
-0.14786924 0.763991 -0.32786369
-0.14786924 0.73934621 -0.32786375
-0.14786924 0.71470135 -0.32786369
-0.14786924 0.6900565 -0.32786369
-0.14786924 0.66541159 -0.32786378
-0.14786924 0.64076668 -0.32786372
-0.14786924 0.61612189 -0.32786372
-0.14786924 0.59147692 -0.32786375
-0.14786924 0.56683213 -0.32786366
-0.14786924 0.54218733 -0.32786366
-0.14786924 0.5175423 -0.32786369
-0.14786924 0.49289751 -0.32786369
-0.14786924 0.4682526 -0.32786363
-0.14786924 0.44360772 -0.32786375
-0.14786924 0.41896287 -0.32786372
-0.14786924 0.39431801 -0.32786375
-0.14786924 0.36967316 -0.32786369
-0.14786924 0.34502828 -0.32786366
-0.14786924 0.32038337 -0.32786375
-0.14786924 0.29573852 -0.32786372
-0.14786924 0.27109361 -0.32786366
-0.14786924 0.2464487 -0.32786372
-0.14786924 0.22180387 -0.32786375
-0.14786924 0.19715902 -0.32786372
-0.14786924 0.17251416 -0.32786369
-0.14786924 0.14786929 -0.32786366
-0.14786924 0.12322447 -0.32786369
-0.14786924 0.098579518 -0.32786375
-0.14786924 0.073934659 -0.32786372
-0.14786924 0.049289763 -0.32786372
-0.14786924 0.024644911 -0.32786378
-0.14786924 -0 -0.32786372
-0.14786924 -0.024644837 -0.32786363
-0.14786924 -0.049289688 -0.32786372
-0.14786924 -0.07393454 -0.32786375
-0.14786924 -0.098579444 -0.32786369
-0.14786924 -0.12322435 -0.32786369
-0.14786924 -0.14786921 -0.32786378
-0.14786924 -0.17251408 -0.32786375
-0.14786924 -0.19715895 -0.32786363
-0.14786924 -0.22180381 -0.32786369
-0.14786924 -0.24644865 -0.32786372
-0.14786924 -0.27109346 -0.32786375
-0.14786924 -0.29573843 -0.32786372
-0.14786924 -0.32038337 -0.32786372
-0.14786924 -0.34502816 -0.32786369
-0.14786924 -0.3696731 -0.32786363
-0.14786924 -0.39431792 -0.32786372
-0.14786924 -0.41896278 -0.32786372
-0.14786924 -0.4436076 -0.32786372
-0.14786924 -0.46825254 -0.32786369
-0.14786924 -0.49289739 -0.32786378
-0.14786924 -0.5175423 -0.32786369
-0.14786924 -0.54218715 -0.32786369
-0.14786924 -0.56683207 -0.32786369
-0.14786924 -0.59147692 -0.32786369
-0.14786924 -0.61612171 -0.32786375
-0.14786924 -0.64076662 -0.32786369
-0.14786924 -0.66541153 -0.32786375
-0.14786924 -0.69005644 -0.32786369
-0.14786924 -0.71470124 -0.32786366
-0.14786924 -0.73934615 -0.32786366
-0.14786924 -0.76399106 -0.32786375
-0.12005084 0.76832545 -0.35959893
-0.12005084 0.74431527 -0.35959888
-0.12005084 0.72030503 -0.35959899
-0.12005084 0.6962949 -0.35959888
-0.12005084 0.67228472 -0.35959896
-0.12005084 0.64827466 -0.35959888
-0.12005084 0.62426442 -0.35959888
-0.12005084 0.60025424 -0.35959885
-0.12005084 0.57624412 -0.35959888
-0.12005084 0.55223387 -0.35959896
-0.12005084 0.52822375 -0.35959888
-0.12005084 0.50421351 -0.3595989
-0.12005084 0.48020345 -0.35959885
-0.12005084 0.45619324 -0.35959893
-0.12005084 0.43218312 -0.35959885
-0.12005084 0.40817285 -0.3595989
-0.12005084 0.38416269 -0.3595989
-0.12005084 0.36015257 -0.35959893
-0.12005084 0.33614239 -0.35959893
-0.12005084 0.31213224 -0.35959893
-0.12005084 0.28812206 -0.3595989
-0.12005084 0.26411191 -0.35959893
-0.12005084 0.24010171 -0.3595989
-0.12005084 0.21609154 -0.3595989
-0.12005084 0.19208139 -0.3595989
-0.12005084 0.16807121 -0.35959888
-0.12005084 0.14406106 -0.35959888
-0.12005084 0.12005088 -0.35959893
-0.12005084 0.096040696 -0.35959893
-0.12005084 0.072030589 -0.3595989
-0.12005084 0.048020363 -0.35959893
-0.12005084 0.024010256 -0.35959888
-0.12005084 2.9802322e-08 -0.3595989
-0.12005084 -0.024010077 -0.35959888
-0.12005084 -0.048020303 -0.3595989
-0.12005084 -0.072030529 -0.35959893
-0.12005084 -0.096040674 -0.35959885
-0.12005084 -0.12005081 -0.35959893
-0.12005084 -0.14406095 -0.35959888
-0.12005084 -0.16807118 -0.35959893
-0.12005084 -0.19208127 -0.35959896
-0.12005084 -0.21609145 -0.35959896
-0.12005084 -0.24010167 -0.3595989
-0.12005084 -0.26411182 -0.35959893
-0.12005084 -0.28812194 -0.35959888
-0.12005084 -0.31213215 -0.35959893
-0.12005084 -0.33614236 -0.35959888
-0.12005084 -0.36015251 -0.3595989
-0.12005084 -0.38416266 -0.3595989
-0.12005084 -0.40817291 -0.35959885
-0.12005084 -0.43218294 -0.35959893
-0.12005084 -0.45619315 -0.35959888
-0.12005084 -0.48020333 -0.35959893
-0.12005084 -0.50421357 -0.35959888
-0.12005084 -0.52822363 -0.35959896
-0.12005084 -0.55223387 -0.3595989
-0.12005084 -0.576244 -0.35959893
-0.12005084 -0.60025412 -0.35959893
-0.12005057 -0.62426293 -0.35960162
-0.12005057 -0.64827311 -0.35960162
-0.12005057 -0.67228317 -0.35960168
-0.12005057 -0.69629323 -0.35960162
-0.12005057 -0.72030336 -0.35960168
-0.12005057 -0.74431348 -0.35960168
-0.12005057 -0.7683236 -0.35960162
-0.094283797 0.77784139 -0.38155988
-0.094283797 0.75427043 -0.38155991
-0.094283797 0.73069948 -0.38155988
-0.094283797 0.70712852 -0.38155979
-0.094283797 0.68355763 -0.38155988
-0.094283797 0.65998656 -0.38155991
-0.094283797 0.6364156 -0.38155988
-0.094283797 0.61284471 -0.38155991
-0.094283797 0.58927375 -0.38155988
-0.094283797 0.5657028 -0.38155985
-0.094283797 0.5421319 -0.38155988
-0.094283797 0.51856095 -0.38155985
-0.094283797 0.49498996 -0.38155982
-0.094283797 0.4714191 -0.38155985
-0.094283797 0.44784805 -0.38155991
-0.094283797 0.42427713 -0.38155991
-0.094283797 0.40070617 -0.38155991
-0.094283797 0.37713519 -0.38155988
-0.094283797 0.35356429 -0.38155988
-0.094283797 0.32999331 -0.38155985
-0.094283797 0.30642238 -0.38155985
-0.094283797 0.28285146 -0.38155985
-0.094283797 0.25928044 -0.38155994
-0.094283588 0.23570898 -0.38156247
-0.094283588 0.21213812 -0.38156253
-0.094283588 0.18856728 -0.38156241
-0.094283588 0.16499627 -0.38156253
-0.094283588 0.14142543 -0.38156253
-0.094283588 0.11785451 -0.38156253
-0.094283588 0.094283611 -0.38156247
-0.094283588 0.0707127 -0.38156256
-0.094283588 0.04714182 -0.38156253
-0.094283588 0.023570925 -0.38156247
-0.094283588 4.4703484e-08 -0.38156253
-0.094283588 -0.023570836 -0.38156247
-0.094283588 -0.047141761 -0.38156256
-0.094283588 -0.070712641 -0.38156253
-0.094283588 -0.094283581 -0.38156244
-0.094283588 -0.11785445 -0.38156247
-0.094283588 -0.14142534 -0.38156247
-0.094283588 -0.16499622 -0.3815625
-0.094283588 -0.18856713 -0.3815625
-0.094283588 -0.21213801 -0.38156253
-0.094283588 -0.23570901 -0.3815625
-0.094283588 -0.25927982 -0.3815625
-0.094283588 -0.28285071 -0.38156247
-0.094283588 -0.30642155 -0.38156253
-0.094283588 -0.3299925 -0.3815625
-0.094283588 -0.35356343 -0.38156256
-0.094283588 -0.37713438 -0.3815625
-0.094283588 -0.40070525 -0.3815625
-0.094283588 -0.42427605 -0.3815625
-0.094283588 -0.44784695 -0.38156256
-0.094283588 -0.47141793 -0.38156253
-0.094283588 -0.4949888 -0.38156256
-0.094283588 -0.51855975 -0.38156247
-0.094283588 -0.54213053 -0.38156247
-0.094283588 -0.56570148 -0.3815625
-0.094283588 -0.58927232 -0.38156253
-0.094283588 -0.61284328 -0.38156247
-0.094283588 -0.63641417 -0.38156256
-0.094283588 -0.65998507 -0.38156241
-0.094283588 -0.68355596 -0.38156244
-0.094283588 -0.70712686 -0.38156253
-0.094283588 -0.73069775 -0.38156253
-0.094283588 -0.75426865 -0.38156253
-0.094283588 -0.77783954 -0.38156253
-0.071886301 0.76678717 -0.36200243
-0.071886301 0.74282503 -0.36200243
-0.071886301 0.71886301 -0.3620024
-0.071886301 0.69490087 -0.36200243
-0.071886301 0.67093885 -0.36200237
-0.071886301 0.64697671 -0.36200243
-0.071886301 0.62301457 -0.36200243
-0.071886301 0.59905255 -0.3620024
-0.071886301 0.57509041 -0.36200243
-0.071886301 0.55112833 -0.36200237
-0.071886301 0.52716619 -0.3620024
-0.071886301 0.50320405 -0.36200243
-0.071886301 0.479242 -0.36200237
-0.071886301 0.45527989 -0.3620024
-0.071886301 0.43131784 -0.36200231
-0.071886301 0.4073557 -0.36200237
-0.071886301 0.38339356 -0.3620024
-0.071886301 0.35943151 -0.36200234
-0.071886301 0.33546939 -0.3620024
-0.071886301 0.31150734 -0.36200234
-0.071886301 0.28754523 -0.36200237
-0.071886301 0.26358309 -0.3620024
-0.07188613 0.23962045 -0.36200514
-0.07188613 0.21565852 -0.36200503
-0.07188613 0.19169638 -0.36200505
-0.07188613 0.1677343 -0.36200514
-0.07188613 0.14377235 -0.362005
-0.07188613 0.11981027 -0.36200511
-0.07188613 0.095848218 -0.36200511
-0.07188613 0.071886152 -0.36200505
-0.07188613 0.047924116 -0.36200505
-0.07188613 0.023962066 -0.36200511
-0.07188613 4.4703484e-08 -0.36200508
-0.07188613 -0.023961991 -0.36200511
-0.07188613 -0.047924086 -0.36200508
-0.07188613 -0.071886048 -0.36200511
-0.07188613 -0.095848143 -0.36200508
-0.07188613 -0.11981019 -0.36200511
-0.07188613 -0.14377224 -0.36200505
-0.07188613 -0.16773427 -0.36200514
-0.07188613 -0.19169635 -0.36200511
-0.07188613 -0.21565831 -0.36200511
-0.07188613 -0.23962039 -0.36200511
-0.07188613 -0.26358247 -0.36200511
-0.07188613 -0.28754449 -0.36200514
-0.07188613 -0.31150657 -0.36200508
-0.07188613 -0.33546856 -0.36200517
-0.07188613 -0.35943061 -0.36200511
-0.07188613 -0.38339266 -0.36200505
-0.07188613 -0.40735483 -0.36200508
-0.07188613 -0.43131679 -0.36200508
-0.07188613 -0.45527884 -0.36200503
-0.07188613 -0.47924086 -0.36200511
-0.07188613 -0.50320292 -0.36200505
-0.07188613 -0.52716488 -0.36200511
-0.07188613 -0.55112702 -0.36200514
-0.07188613 -0.57508898 -0.36200517
-0.07188613 -0.599051 -0.36200505
-0.07188613 -0.62301308 -0.36200517
-0.07188613 -0.64697516 -0.36200514
-0.07188613 -0.67093724 -0.36200511
-0.07188613 -0.69489926 -0.36200505
-0.07188613 -0.71886134 -0.36200505
-0.07188613 -0.74282336 -0.36200508
-0.07188613 -0.76678544 -0.36200505
-0.048732899 0.77972639 -0.34178478
-0.048732899 0.75536001 -0.34178478
-0.048732899 0.73099351 -0.34178483
-0.048732899 0.70662707 -0.34178486
-0.048732899 0.68226063 -0.34178483
-0.048732899 0.65789419 -0.34178483
-0.048732899 0.63352776 -0.34178486
-0.048732899 0.60916126 -0.34178478
-0.048732899 0.58479482 -0.34178483
-0.048732899 0.56042832 -0.34178489
-0.048732899 0.53606188 -0.34178483
-0.048732899 0.51169544 -0.34178478
-0.048732899 0.48732898 -0.34178486
-0.048732899 0.4629626 -0.34178481
-0.048732899 0.4385961 -0.34178486
-0.048732899 0.41422969 -0.34178481
-0.048732899 0.38986319 -0.34178489
-0.048732899 0.36549678 -0.34178483
-0.048732899 0.34113035 -0.34178478
-0.048732899 0.31676388 -0.34178483
-0.048732899 0.29239744 -0.34178481
-0.048732899 0.26803097 -0.34178483
-0.048732899 0.2436645 -0.34178489
-0.048732899 0.21929808 -0.34178486
-0.048732899 0.19493163 -0.34178478
-0.048732899 0.17056516 -0.34178483
-0.048732787 0.14619839 -0.34178767
-0.048732787 0.121832 -0.34178764
-0.048732787 0.09746559 -0.34178767
-0.048732787 0.073099226 -0.3417877
-0.048732787 0.048732832 -0.34178764
-0.048732787 0.024366468 -0.34178764
-0.048732787 7.4505806e-08 -0.3417877
-0.048732787 -0.024366379 -0.3417877
-0.048732787 -0.048732713 -0.34178764
-0.048732787 -0.073099107 -0.34178764
-0.048732787 -0.0974655 -0.34178767
-0.048732787 -0.12183191 -0.34178773
-0.048732787 -0.1461983 -0.34178767
-0.048732787 -0.17056477 -0.34178758
-0.048732787 -0.19493113 -0.34178761
-0.048732787 -0.21929751 -0.34178764
-0.048732787 -0.24366394 -0.34178764
-0.048732787 -0.26803035 -0.3417877
-0.048732787 -0.29239669 -0.34178758
-0.048732787 -0.31676307 -0.34178767
-0.048732787 -0.34112945 -0.34178764
-0.048732787 -0.36549589 -0.34178764
-0.048732787 -0.38986233 -0.34178761
-0.048732787 -0.41422862 -0.34178767
-0.048732787 -0.43859506 -0.34178764
-0.048732787 -0.46296147 -0.34178764
-0.048732787 -0.48732781 -0.3417877
-0.048732787 -0.51169419 -0.34178764
-0.048732787 -0.53606063 -0.34178764
-0.048732787 -0.56042695 -0.3417877
-0.048732787 -0.58479345 -0.3417877
-0.048732787 -0.60915983 -0.34178764
-0.048732787 -0.63352615 -0.3417877
-0.048732787 -0.65789253 -0.34178767
-0.048732787 -0.68225896 -0.3417877
-0.048732787 -0.7066254 -0.34178764
-0.048732787 -0.73099172 -0.34178776
-0.048732787 -0.75535822 -0.34178764
-0.048732787 -0.77972454 -0.34178764
-0.024784682 0.76832521 -0.32087326
-0.024784682 0.74354053 -0.32087326
-0.024784682 0.71875584 -0.3208732
-0.024784682 0.69397104 -0.32087326
-0.024784682 0.66918647 -0.32087323
-0.024784682 0.64440179 -0.32087326
-0.024784682 0.6196171 -0.32087323
-0.024784682 0.59483236 -0.32087332
-0.024784682 0.57004774 -0.32087326
-0.024784682 0.54526293 -0.32087332
-0.024784682 0.52047837 -0.3208732
-0.024784682 0.49569365 -0.32087323
-0.024784682 0.47090903 -0.32087323
-0.024784682 0.44612426 -0.32087323
-0.024784682 0.4213396 -0.32087323
-0.024784682 0.39655492 -0.32087332
-0.024784682 0.37177026 -0.32087326
-0.024784682 0.34698552 -0.32087332
-0.024784682 0.32220098 -0.3208732
-0.024784682 0.29741621 -0.32087326
-0.024784682 0.27263159 -0.3208732
-0.024784682 0.24784683 -0.32087326
-0.024784682 0.22306222 -0.32087326
-0.024784682 0.19827746 -0.32087329
-0.024784682 0.17349282 -0.32087326
-0.024784623 0.14870778 -0.32087621
-0.024784623 0.12392315 -0.32087618
-0.024784623 0.099138536 -0.32087618
-0.024784623 0.074353918 -0.32087618
-0.024784623 0.049569249 -0.32087624
-0.024784623 0.024784639 -0.32087612
-0.024784623 5.9604645e-08 -0.32087615
-0.024784623 -0.024784639 -0.32087618
-0.024784623 -0.04956919 -0.32087615
-0.024784623 -0.074353889 -0.32087615
-0.024784623 -0.099138409 -0.32087612
-0.024784623 -0.12392311 -0.32087612
-0.024784623 -0.14870766 -0.32087612
-0.024784623 -0.17349236 -0.32087612
-0.024784623 -0.19827692 -0.32087615
-0.024784623 -0.22306164 -0.32087615
-0.024784623 -0.24784619 -0.32087621
-0.024784623 -0.27263081 -0.32087618
-0.024784623 -0.29741544 -0.32087618
-0.024784623 -0.32220006 -0.32087615
-0.024784623 -0.34698468 -0.32087618
-0.024784623 -0.37176931 -0.32087618
-0.024784623 -0.39655393 -0.32087615
-0.024784623 -0.42133853 -0.32087615
-0.024784623 -0.44612315 -0.32087612
-0.024784623 -0.47090778 -0.32087615
-0.024784623 -0.49569243 -0.32087618
-0.024784623 -0.52047706 -0.32087618
-0.024784623 -0.54526168 -0.32087618
-0.024784623 -0.57004631 -0.32087618
-0.024784623 -0.59483087 -0.32087612
-0.024784623 -0.61961555 -0.32087615
-0.024784623 -0.64440018 -0.32087618
-0.024784623 -0.6691848 -0.32087618
-0.024784623 -0.69396937 -0.32087618
-0.024784623 -0.71875405 -0.32087615
-0.024784623 -0.74353862 -0.32087615
-0.024784623 -0.76832324 -0.32087615
0 0.78174323 -0.29923123
0 0.75652564 -0.29923129
0 0.73130816 -0.29923123
0 0.70609069 -0.29923126
0 0.6808731 -0.29923126
0 0.65565562 -0.29923129
0 0.63043797 -0.29923129
0 0.60522056 -0.29923129
0 0.58000296 -0.29923132
0 0.55478543 -0.29923129
0 0.52956802 -0.29923129
0 0.50435036 -0.29923132
0 0.47913292 -0.29923132
0 0.45391542 -0.29923126
0 0.42869794 -0.29923123
0 0.40348035 -0.29923132
0 0.37826285 -0.29923126
0 0.3530454 -0.29923126
0 0.32782778 -0.29923126
0 0.30261034 -0.29923126
0 0.27739283 -0.29923126
0 0.25217524 -0.29923129
0 0.22695775 -0.29923126
0 0.20174018 -0.29923132
0 0.1765227 -0.29923132
0 0.15130508 -0.29923132
0 0.12608758 -0.29923129
0 0.10087012 -0.29923129
0 0.075652622 -0.29923126
0 0.050434977 -0.29923433
0 0.025217474 -0.29923427
0 4.4703484e-08 -0.29923436
0 -0.025217384 -0.29923424
0 -0.05043488 -0.29923427
0 -0.075652339 -0.29923427
0 -0.10086984 -0.29923427
0 -0.12608725 -0.2992343
0 -0.15130474 -0.29923436
0 -0.17652224 -0.2992343
0 -0.2017397 -0.2992343
0 -0.22695711 -0.29923427
0 -0.2521745 -0.2992343
0 -0.27739197 -0.2992343
0 -0.30260941 -0.29923433
0 -0.32782701 -0.29923427
0 -0.35304442 -0.29923424
0 -0.3782618 -0.2992343
0 -0.40347928 -0.29923436
0 -0.42869684 -0.29923427
0 -0.45391425 -0.29923427
0 -0.47913176 -0.2992343
0 -0.50434923 -0.2992343
0 -0.52956665 -0.2992343
0 -0.55478406 -0.2992343
0 -0.58000153 -0.2992343
0 -0.60521901 -0.29923433
0 -0.63043654 -0.29923418
0 -0.65565395 -0.29923433
0 -0.68087137 -0.29923433
0 -0.70608884 -0.2992343
0 -0.73130637 -0.29923427
0 -0.75652385 -0.29923421
0 -0.7817412 -0.29923433
0.025665747 0.76997238 -0.27682
0.025665747 0.74430668 -0.27682003
0.025665747 0.71864104 -0.27682
0.025665747 0.69297528 -0.27681991
0.025665747 0.66730952 -0.27681994
0.025665747 0.64164376 -0.27681994
0.025665747 0.61597806 -0.27681994
0.025665747 0.59031224 -0.27681994
0.025665747 0.56464642 -0.27681994
0.025665747 0.53898066 -0.27682003
0.025665747 0.51331502 -0.27681997
0.025665747 0.48764926 -0.27681988
0.025665747 0.46198347 -0.27681988
0.025665747 0.43631774 -0.27681997
0.025665747 0.41065198 -0.27682
0.025665747 0.38498628 -0.27681997
0.025665747 0.35932049 -0.27681997
0.025665747 0.33365476 -0.27682003
0.025665747 0.30798903 -0.27681994
0.025665747 0.28232333 -0.27681991
0.025665747 0.25665754 -0.27681991
0.025665747 0.23099178 -0.27681997
0.025665747 0.20532599 -0.27681997
0.025665747 0.17966023 -0.27682003
0.025665747 0.15399455 -0.27682
0.025665747 0.12832883 -0.27681991
0.025665747 0.10266308 -0.27681997
0.025665747 0.07699728 -0.27681997
0.025665686 0.051331446 -0.2768231
0.025665686 0.025665686 -0.2768231
0.025665686 1.4901161e-08 -0.27682304
0.025665686 -0.025665618 -0.27682304
0.025665686 -0.051331334 -0.27682313
0.025665686 -0.076997012 -0.2768231
0.025665686 -0.10266268 -0.27682304
0.025665686 -0.12832841 -0.27682307
0.025665686 -0.15399402 -0.27682304
0.025665686 -0.17965968 -0.27682304
0.025665686 -0.20532547 -0.27682307
0.025665686 -0.2309911 -0.27682307
0.025665686 -0.25665677 -0.27682301
0.025665686 -0.28232253 -0.2768231
0.025665686 -0.30798814 -0.2768231
0.025665686 -0.33365393 -0.27682304
0.025665686 -0.35931954 -0.2768231
0.025665686 -0.38498524 -0.2768231
0.025665686 -0.41065091 -0.27682304
0.025665686 -0.43631661 -0.27682304
0.025665686 -0.46198231 -0.27682301
0.025665686 -0.48764795 -0.27682307
0.025665686 -0.51331365 -0.2768231
0.025665686 -0.53897935 -0.27682304
0.025665686 -0.56464505 -0.27682304
0.025665686 -0.59031075 -0.27682307
0.025665686 -0.61597645 -0.27682304
0.025665686 -0.64164209 -0.2768231
0.025665686 -0.66730785 -0.27682304
0.025665686 -0.69297343 -0.2768231
0.025665686 -0.71863914 -0.27682301
0.025665686 -0.7443049 -0.27682304
0.025665686 -0.76997042 -0.27682304
0.052260395 0.78390586 -0.2535975
0.052260395 0.75777566 -0.2535975
0.052260395 0.73164546 -0.25359756
0.052260395 0.70551533 -0.25359747
0.052260395 0.67938513 -0.25359747
0.052260395 0.65325493 -0.2535975
0.052260395 0.62712473 -0.2535975
0.052260395 0.60099453 -0.25359753
0.052260395 0.57486433 -0.25359756
0.052260395 0.54873419 -0.2535975
0.052260395 0.52260399 -0.2535975
0.052260395 0.49647376 -0.25359756
0.052260395 0.47034356 -0.25359753
0.052260395 0.44421339 -0.25359744
0.052260395 0.4180831 -0.25359756
0.052260395 0.39195299 -0.2535975
0.052260395 0.36582276 -0.2535975
0.052260395 0.33969256 -0.25359753
0.052260395 0.31356242 -0.25359744
0.052260395 0.28743225 -0.25359747
0.052260395 0.26130193 -0.25359756
0.052260395 0.23517181 -0.2535975
0.052260395 0.20904157 -0.2535975
0.052260395 0.18291137 -0.2535975
0.052260395 0.15678123 -0.25359744
0.052260395 0.13065103 -0.25359747
0.052260395 0.10452074 -0.25359756
0.052260395 0.078390621 -0.2535975
0.052260265 0.052260317 -0.25360075
0.052260265 0.026130185 -0.25360066
0.052260265 7.4505806e-08 -0.25360078
0.052260265 -0.026130088 -0.25360075
0.052260265 -0.05226025 -0.25360081
0.052260265 -0.078390352 -0.25360069
0.052260265 -0.10452047 -0.25360078
0.052260265 -0.13065062 -0.25360078
0.052260265 -0.15678072 -0.25360072
0.052260265 -0.18291087 -0.25360072
0.052260265 -0.209041 -0.25360081
0.052260265 -0.23517115 -0.25360078
0.052260265 -0.26130128 -0.25360069
0.052260265 -0.28743145 -0.25360066
0.052260265 -0.31356153 -0.25360075
0.052260265 -0.3396917 -0.25360072
0.052260265 -0.36582178 -0.25360075
0.052260265 -0.39195195 -0.25360075
0.052260265 -0.41808212 -0.25360072
0.052260265 -0.44421217 -0.25360078
0.052260265 -0.47034237 -0.25360072
0.052260265 -0.49647242 -0.25360081
0.052260265 -0.52260256 -0.25360078
0.052260265 -0.54873264 -0.25360081
0.052260265 -0.5748629 -0.25360066
0.052260265 -0.60099304 -0.25360078
0.052260265 -0.62712312 -0.25360072
0.052260265 -0.65325326 -0.25360078
0.052260265 -0.6793834 -0.25360072
0.052260265 -0.70551348 -0.25360084
0.052260265 -0.73164362 -0.25360078
0.052260265 -0.75777376 -0.25360072
0.052260265 -0.78390396 -0.25360069
0.079835296 0.77174121 -0.2295191
0.079835296 0.74512947 -0.22951911
0.079835296 0.71851766 -0.22951911
0.079835296 0.69190598 -0.22951905
0.079835296 0.66529417 -0.22951907
0.079835296 0.63868231 -0.22951916
0.079835296 0.61207062 -0.22951913
0.079835296 0.58545882 -0.2295191
0.079835296 0.55884707 -0.22951916
0.079835296 0.53223538 -0.22951907
0.079835296 0.50562358 -0.2295191
0.079835296 0.47901177 -0.22951907
0.079835296 0.45240006 -0.22951913
0.079835296 0.42578822 -0.22951913
0.079835296 0.39917648 -0.22951916
0.079835296 0.37256476 -0.22951907
0.079835296 0.34595302 -0.2295191
0.079835296 0.31934118 -0.2295191
0.079835296 0.29272944 -0.22951911
0.079835296 0.26611766 -0.22951914
0.079835296 0.23950589 -0.22951916
0.079835296 0.21289408 -0.22951914
0.079835296 0.18628243 -0.22951911
0.079835296 0.15967061 -0.2295191
0.079835296 0.13305885 -0.22951913
0.079835296 0.10644715 -0.22951907
0.079835296 0.079835385 -0.22951908
0.079835095 0.053223401 -0.22952256
0.079835095 0.026611708 -0.2295225
0.079835095 5.9604645e-08 -0.22952245
0.079835095 -0.026611663 -0.22952244
0.079835095 -0.053223439 -0.22952245
0.079835095 -0.079835072 -0.22952251
0.079835095 -0.10644673 -0.22952248
0.079835095 -0.13305846 -0.22952247
0.079835095 -0.15967014 -0.22952239
0.079835095 -0.18628186 -0.22952247
0.079835095 -0.21289355 -0.22952248
0.079835095 -0.2395052 -0.22952247
0.079835095 -0.26611689 -0.22952247
0.079835095 -0.29272869 -0.22952245
0.079835095 -0.31934038 -0.22952248
0.079835095 -0.34595203 -0.22952247
0.079835095 -0.37256372 -0.22952247
0.079835095 -0.39917541 -0.2295225
0.079835095 -0.42578709 -0.2295225
0.079835095 -0.45239884 -0.22952245
0.079835095 -0.47901052 -0.22952245
0.079835095 -0.50562221 -0.2295225
0.079835095 -0.53223389 -0.2295225
0.079835095 -0.55884552 -0.22952247
0.079835095 -0.58545732 -0.22952242
0.079835095 -0.61206901 -0.22952242
0.079835095 -0.6386807 -0.22952245
0.079835095 -0.66529238 -0.22952247
0.079835095 -0.69190407 -0.2295225
0.079835095 -0.71851575 -0.2295225
0.079835095 -0.7451275 -0.22952238
0.079835095 -0.77173924 -0.22952247
0.10844566 0.7862311 -0.2045365
0.10844566 0.75911975 -0.20453653
0.10844566 0.73200822 -0.20453651
0.10844566 0.70489681 -0.20453651
0.10844566 0.6777854 -0.20453657
0.10844566 0.65067399 -0.20453654
0.10844566 0.62356263 -0.20453645
0.10844566 0.59645122 -0.20453651
0.10844566 0.56933981 -0.20453653
0.10844566 0.54222834 -0.20453662
0.10844566 0.51511681 -0.20453659
0.10844566 0.48800552 -0.2045365
0.10844566 0.46089411 -0.20453656
0.10844566 0.4337827 -0.20453656
0.10844566 0.40667129 -0.20453656
0.10844566 0.37955987 -0.20453656
0.10844566 0.3524484 -0.20453654
0.10844566 0.32533699 -0.20453656
0.10844566 0.29822558 -0.20453656
0.10844566 0.27111426 -0.20453651
0.10844566 0.24400283 -0.20453651
0.10844566 0.21689141 -0.20453653
0.10844566 0.18977994 -0.2045365
0.10844566 0.16266844 -0.20453659
0.10844566 0.13555712 -0.2045365
0.10844566 0.10844573 -0.20453656
0.10844566 0.081334256 -0.20453653
0.10844566 0.054222889 -0.20453659
0.10844566 0.027111419 -0.20453654
0.10844566 3.7252903e-08 -0.20453659
0.10844566 -0.027111426 -0.20453656
0.10844538 -0.054222628 -0.20454007
0.10844538 -0.081333965 -0.20454007
0.10844538 -0.10844531 -0.20453998
0.10844538 -0.13555668 -0.20454003
0.10844538 -0.16266799 -0.20453998
0.10844538 -0.18977933 -0.20454007
0.10844538 -0.21689074 -0.20454007
0.10844538 -0.24400209 -0.20453998
0.10844538 -0.27111343 -0.20454009
0.10844538 -0.29822475 -0.20454001
0.10844538 -0.3253361 -0.20454009
0.10844538 -0.35244745 -0.20454004
0.10844538 -0.37955874 -0.20454003
0.10844538 -0.40667009 -0.20454001
0.10844538 -0.43378145 -0.20454009
0.10844538 -0.46089292 -0.20453998
0.10844538 -0.48800421 -0.20454001
0.10844538 -0.51511556 -0.20453998
0.10844538 -0.54222691 -0.20454001
0.10844538 -0.56933826 -0.20453998
0.10844538 -0.59644955 -0.20454001
0.10844538 -0.62356091 -0.20454
0.10844538 -0.65067232 -0.20453994
0.10844538 -0.67778361 -0.20454
0.10844538 -0.70489502 -0.20453995
0.10844538 -0.73200631 -0.20453998
0.10844538 -0.75911772 -0.20454001
0.13815095 0.77364528 -0.1785979
0.13815095 0.74601507 -0.1785979
0.13815095 0.71838498 -0.17859787
0.13815095 0.69075477 -0.17859782
0.13815095 0.66312456 -0.17859788
0.13815095 0.63549435 -0.17859793
0.13815095 0.60786426 -0.17859784
0.13815095 0.58023393 -0.17859796
0.13815095 0.55260378 -0.17859787
0.13815095 0.52497363 -0.1785979
0.13815095 0.49734342 -0.17859791
0.13815095 0.46971327 -0.17859797
0.13815095 0.442083 -0.17859791
0.13815095 0.41445285 -0.17859785
0.13815095 0.3868227 -0.1785979
0.13815095 0.35919243 -0.1785979
0.13815095 0.33156231 -0.17859794
0.13815095 0.30393213 -0.17859785
0.13815095 0.27630186 -0.17859796
0.13815095 0.24867176 -0.1785979
0.13815095 0.22104155 -0.17859793
0.13815095 0.19341139 -0.17859784
0.13815095 0.16578116 -0.17859797
0.13815095 0.138151 -0.17859788
0.13815095 0.11052079 -0.17859788
0.13815095 0.082890622 -0.17859793
0.13815095 0.055260405 -0.17859796
0.13815095 0.02763027 -0.17859787
0.13815095 9.6857548e-08 -0.1785979
0.13815095 -0.027630121 -0.17859793
0.13815059 -0.055260204 -0.1786015
0.13815059 -0.082890332 -0.1786015
0.13815059 -0.11052039 -0.1786015
0.13815059 -0.13815051 -0.1786015
0.13815059 -0.16578062 -0.17860155
0.13815059 -0.19341078 -0.1786015
0.13815059 -0.22104084 -0.1786015
0.13815059 -0.24867092 -0.17860153
0.13815059 -0.27630109 -0.1786015
0.13815059 -0.30393118 -0.17860153
0.13815059 -0.33156133 -0.17860144
0.13815059 -0.35919142 -0.1786015
0.13815059 -0.38682157 -0.17860144
0.13815059 -0.41445169 -0.17860149
0.13815059 -0.44208187 -0.17860147
0.13815059 -0.46971196 -0.17860149
0.13815059 -0.49734211 -0.17860146
0.13815059 -0.5249722 -0.17860149
0.13815059 -0.55260229 -0.17860147
0.13815059 -0.58023244 -0.17860146
0.13815059 -0.60786253 -0.1786015
0.13815059 -0.63549262 -0.17860153
0.13815059 -0.66312265 -0.1786015
0.13815059 -0.69075286 -0.1786015
0.13815059 -0.71838295 -0.17860156
0.13815059 -0.7460131 -0.17860147
0.13815059 -0.7736432 -0.17860153
0.16901521 0.78873771 -0.15164715
0.16901521 0.7605685 -0.15164724
0.16901521 0.73239928 -0.15164727
0.16901521 0.70423001 -0.1516473
0.16901521 0.67606091 -0.15164714
0.16901521 0.64789176 -0.15164721
0.16901521 0.61972249 -0.15164725
0.16901521 0.59155321 -0.15164723
0.16901521 0.56338406 -0.15164721
0.16901521 0.53521484 -0.15164724
0.16901521 0.50704563 -0.15164728
0.16901521 0.47887647 -0.15164723
0.16901521 0.45070732 -0.15164715
0.16901521 0.4225381 -0.15164721
0.16901521 0.39436883 -0.15164724
0.16901521 0.36619964 -0.1516473
0.16901521 0.33803046 -0.15164721
0.16901521 0.30986124 -0.15164727
0.16901521 0.28169206 -0.15164721
0.16901521 0.25352284 -0.15164725
0.16901521 0.22535367 -0.1516472
0.16901521 0.19718447 -0.15164724
0.16901521 0.16901521 -0.15164725
0.16901521 0.14084607 -0.15164723
0.16901521 0.11267681 -0.15164724
0.16901521 0.084507644 -0.15164717
0.16901521 0.056338433 -0.15164723
0.16901521 0.028169304 -0.15164718
0.16901521 4.4703484e-08 -0.15164721
0.16901521 -0.028169211 -0.15164723
0.16901521 -0.056338377 -0.15164733
0.16901521 -0.084507547 -0.15164724
0.16901521 -0.11267677 -0.15164723
0.16901521 -0.14084603 -0.15164717
0.16901477 -0.16901469 -0.15165097
0.16901477 -0.19718388 -0.15165098
0.16901477 -0.22535302 -0.15165097
0.16901477 -0.25352204 -0.151651
0.16901477 -0.28169122 -0.15165101
0.16901477 -0.30986035 -0.15165097
0.16901477 -0.3380295 -0.15165094
0.16901477 -0.36619872 -0.151651
0.16901477 -0.39436769 -0.151651
0.16901477 -0.42253685 -0.15165095
0.16901477 -0.45070601 -0.15165097
0.16901477 -0.47887507 -0.15165105
0.16901477 -0.5070442 -0.151651
0.16901477 -0.53521347 -0.15165091
0.16901477 -0.56338251 -0.151651
0.16901477 -0.59155166 -0.15165098
0.16901477 -0.6197207 -0.15165101
0.16901477 -0.64788985 -0.15165102
0.16901477 -0.67605901 -0.151651
0.16901477 -0.70422816 -0.15165094
0.16901477 -0.73239732 -0.15165097
0.16901477 -0.76056647 -0.15165094
0.20110767 0.77570105 -0.12362409
0.20110767 0.74697125 -0.12362418
0.20110767 0.71824169 -0.12362409
0.20110767 0.68951195 -0.12362421
0.20110767 0.66078234 -0.12362412
0.20110767 0.63205266 -0.1236241
0.20110767 0.60332298 -0.12362413
0.20110767 0.57459337 -0.12362413
0.20110767 0.54586369 -0.12362413
0.20110767 0.51713395 -0.12362412
0.20110767 0.4884043 -0.12362412
0.20110767 0.45967466 -0.12362412
0.20110767 0.43094498 -0.12362416
0.20110767 0.40221536 -0.12362407
0.20110767 0.37348562 -0.12362416
0.20110767 0.34475604 -0.12362406
0.20110767 0.31602639 -0.1236241
0.20110767 0.28729671 -0.1236241
0.20110767 0.25856704 -0.12362409
0.20110767 0.22983736 -0.12362409
0.20110767 0.20110768 -0.12362409
0.20110767 0.17237805 -0.12362411
0.20110767 0.14364842 -0.12362415
0.20110767 0.11491869 -0.12362411
0.20110767 0.086189054 -0.12362415
0.20110767 0.057459332 -0.1236241
0.20110767 0.028729692 -0.12362414
0.20110767 1.4901161e-08 -0.12362414
0.20110767 -0.028729618 -0.12362417
0.20110767 -0.057459261 -0.12362403
0.20110767 -0.086188935 -0.12362421
0.20110767 -0.11491862 -0.12362403
0.20110767 -0.14364825 -0.12362415
0.2011071 -0.17237751 -0.12362804
0.2011071 -0.20110711 -0.12362795
0.2011071 -0.22983667 -0.12362799
0.2011071 -0.2585662 -0.12362801
0.2011071 -0.28729576 -0.12362804
0.2011071 -0.31602541 -0.123628
0.2011071 -0.34475496 -0.12362802
0.2011071 -0.37348464 -0.12362801
0.2011071 -0.40221417 -0.12362805
0.2011071 -0.43094385 -0.12362799
0.2011071 -0.45967326 -0.12362806
0.2011071 -0.4884029 -0.12362801
0.2011071 -0.51713252 -0.12362808
0.2011071 -0.54586208 -0.12362805
0.2011071 -0.5745917 -0.12362806
0.2011071 -0.60332131 -0.12362798
0.2011071 -0.63205081 -0.12362799
0.2011071 -0.66078043 -0.12362808
0.2011071 -0.68951005 -0.12362802
0.2011071 -0.71823961 -0.12362808
0.2011071 -0.74696922 -0.12362802
0.2011071 -0.77569878 -0.12362799
0.23450306 0.76213503 -0.09446317
0.23450306 0.73282206 -0.094463259
0.23450306 0.70350921 -0.094463259
0.23450306 0.6741963 -0.094463289
0.23450306 0.64488339 -0.094463289
0.23450306 0.61557055 -0.094463289
0.23450306 0.58625776 -0.094463199
0.23450306 0.55694473 -0.094463259
0.23450306 0.527632 -0.094463229
0.23450306 0.49831897 -0.094463289
0.23450306 0.46900624 -0.094463229
0.23450306 0.43969321 -0.094463274
0.23450306 0.4103803 -0.094463274
0.23450306 0.38106754 -0.094463199
0.23450306 0.35175458 -0.094463289
0.23450306 0.32244176 -0.094463214
0.23450306 0.29312882 -0.094463304
0.23450306 0.263816 -0.094463214
0.23450306 0.23450306 -0.094463319
0.23450306 0.20519024 -0.094463229
0.23450306 0.17587732 -0.094463192
0.23450306 0.14656444 -0.094463199
0.23450306 0.11725161 -0.094463244
0.23450306 0.087938607 -0.094463304
0.23450306 0.05862581 -0.094463214
0.23450306 0.029312849 -0.094463311
0.23450306 9.3132257e-08 -0.094463259
0.23450306 -0.029312834 -0.094463229
0.23450306 -0.058625713 -0.094463237
0.23450306 -0.087938599 -0.094463237
0.23450306 -0.11725147 -0.094463244
0.23450306 -0.14656435 -0.094463259
0.23450306 -0.17587727 -0.094463289
0.23450306 -0.20519012 -0.094463252
0.23450306 -0.23450294 -0.094463214
0.23450306 -0.26381588 -0.094463266
0.2345024 -0.29312795 -0.094467267
0.2345024 -0.32244071 -0.094467305
0.2345024 -0.35175359 -0.094467312
0.2345024 -0.38106632 -0.094467357
0.2345024 -0.41037908 -0.094467372
0.2345024 -0.43969205 -0.094467297
0.2345024 -0.46900481 -0.094467357
0.2345024 -0.49831763 -0.094467267
0.2345024 -0.52763045 -0.094467357
0.2345024 -0.55694312 -0.094467357
0.2345024 -0.58625591 -0.094467297
0.2345024 -0.61556876 -0.094467372
0.2345024 -0.64488155 -0.094467312
0.2345024 -0.67419428 -0.094467312
0.2345024 -0.70350718 -0.094467342
0.2345024 -0.73282003 -0.094467312
0.2345024 -0.76213276 -0.094467342
0.26928243 0.77792698 -0.064094007
0.26928243 0.74800682 -0.064093828
0.26928243 0.71808648 -0.064093918
0.26928243 0.6881662 -0.064093977
0.26928243 0.65824592 -0.064094007
0.26928243 0.62832564 -0.064093947
0.26928243 0.59840536 -0.064093888
0.26928243 0.5684852 -0.064093888
0.26928243 0.53856486 -0.064093888
0.26928243 0.50864458 -0.064093962
0.26928243 0.47872433 -0.064093933
0.26928243 0.44880399 -0.064093962
0.26928243 0.4188838 -0.064093933
0.26928243 0.38896352 -0.064093873
0.26928243 0.35904324 -0.064093933
0.26928243 0.32912302 -0.064093903
0.26928243 0.29920268 -0.064093933
0.26928243 0.26928246 -0.064093895
0.26928243 0.23936218 -0.06409397
0.26928243 0.20944189 -0.064094022
0.26928243 0.17952171 -0.064093865
0.26928243 0.14960141 -0.064093933
0.26928243 0.11968119 -0.064093903
0.26928243 0.089760855 -0.064093925
0.26928243 0.05984056 -0.064093992
0.26928243 0.029920306 -0.064093933
0.26928243 1.4901161e-08 -0.064093992
0.26928243 -0.029920202 -0.064093962
0.26928243 -0.059840415 -0.06409394
0.26928243 -0.089760751 -0.064093962
0.26928243 -0.11968102 -0.064093903
0.26928243 -0.14960136 -0.064093918
0.26928243 -0.17952153 -0.064093933
0.26928243 -0.20944181 -0.064093903
0.26928243 -0.23936215 -0.064093933
0.26928243 -0.26928234 -0.064093955
0.26928166 -0.29920182 -0.064098097
0.26928166 -0.32912198 -0.064098105
0.26928166 -0.35904214 -0.06409812
0.26928166 -0.38896233 -0.06409812
0.26928166 -0.41888249 -0.064098135
0.26928166 -0.44880265 -0.06409815
0.26928166 -0.47872293 -0.06409809
0.26928166 -0.50864309 -0.064098075
0.26928166 -0.53856331 -0.064098164
0.26928166 -0.56848347 -0.064098179
0.26928166 -0.59840363 -0.06409815
0.26928166 -0.62832379 -0.064098179
0.26928166 -0.65824395 -0.064098209
0.26928166 -0.68816423 -0.06409815
0.26928166 -0.71808439 -0.06409815
0.26928166 -0.74800456 -0.064098179
0.26928166 -0.77792478 -0.06409815
0.30553359 0.763834 -0.03243944
0.30553359 0.7332806 -0.03243944
0.30553359 0.70272732 -0.032439321
0.30553359 0.67217392 -0.032439351
0.30553359 0.64162058 -0.032439381
0.30553359 0.61106718 -0.032439381
0.30553359 0.58051389 -0.032439321
0.30553359 0.54996055 -0.032439381
0.30553359 0.51940715 -0.032439336
0.30553359 0.48885369 -0.032439455
0.30553359 0.45830041 -0.032439396
0.30553359 0.42774701 -0.032439426
0.30553359 0.39719367 -0.032439455
0.30553359 0.36664039 -0.032439381
0.30553359 0.33608705 -0.032439411
0.30553359 0.30553362 -0.032439396
0.30553359 0.27498025 -0.032439426
0.30553359 0.24442689 -0.032439448
0.30553359 0.21387348 -0.032439433
0.30553359 0.18332024 -0.032439403
0.30553359 0.15276682 -0.032439392
0.30553359 0.12221351 -0.032439455
0.30553359 0.091660172 -0.032439351
0.30553359 0.061106734 -0.032439463
0.30553359 0.030553324 -0.032439452
0.30553359 -9.3132257e-09 -0.032439347
0.30553359 -0.030553326 -0.032439411
0.30553359 -0.061106734 -0.032439396
0.30553359 -0.091659978 -0.032439366
0.30553359 -0.12221339 -0.032439355
0.30553359 -0.1527667 -0.032439418
0.30553359 -0.18332012 -0.032439403
0.30553359 -0.21387345 -0.03243947
0.30553359 -0.24442685 -0.032439463
0.30553359 -0.27498007 -0.032439433
0.30553359 -0.3055335 -0.032439411
0.30553359 -0.33608693 -0.032439455
0.30553359 -0.36664027 -0.032439336
0.30553359 -0.39719367 -0.032439336
0.30553359 -0.42774701 -0.032439396
0.30553359 -0.45830035 -0.032439336
0.30553359 -0.48885369 -0.032439411
0.30553359 -0.51940709 -0.032439381
0.30553359 -0.54996037 -0.032439411
0.30553359 -0.58051378 -0.032439381
0.30553359 -0.61106706 -0.032439381
0.30553359 -0.64162052 -0.032439381
0.30553359 -0.67217386 -0.03243947
0.30553359 -0.7027272 -0.032439381
0.30553359 -0.73328054 -0.03243947
0.30553359 -0.76383388 -0.03243947
0.34335202 0.78034544 0.00058361888
0.34335202 0.74913168 0.00058358908
0.34335202 0.71791792 0.00058358908
0.34335202 0.68670404 0.00058364868
0.34335202 0.65549022 0.00058364868
0.34335202 0.62427646 0.00058364868
0.34335202 0.59306264 0.00058364868
0.34335202 0.56184882 0.00058367848
0.34335202 0.530635 0.00058367848
0.34335202 0.49942124 0.00058369339
0.34335202 0.4682073 0.00058361888
0.34335202 0.43699348 0.00058364868
0.34335202 0.40577972 0.00058363378
0.34335202 0.3745659 0.00058366358
0.34335202 0.34335199 0.00058358908
0.34335202 0.3121382 0.00058357418
0.34335202 0.28092435 0.00058363378
0.34335202 0.24971062 0.00058358908
0.34335202 0.2184968 0.00058361888
0.34335202 0.18728296 0.00058364123
0.34335202 0.15606914 0.00058367103
0.34335202 0.12485532 0.00058369339
0.34335202 0.093641497 0.00058371946
0.34335202 0.062427603 0.00058365427
0.34335202 0.031213868 0.00058360212
0.34335202 4.4849003e-08 0.0005836272
0.34335202 -0.031213734 0.00058361422
0.34335202 -0.062427603 0.00058367662
0.34335202 -0.09364146 0.00058357418
0.34335202 -0.12485532 0.00058364123
0.34335202 -0.1560691 0.00058362633
0.34335202 -0.1872828 0.00058370084
0.34335202 -0.21849665 0.00058359653
0.34335202 -0.24971053 0.00058366358
0.34335202 -0.28092432 0.00058364868
0.34335202 -0.31213817 0.00058370829
0.34335202 -0.34335202 0.00058361888
0.34335202 -0.3745659 0.00058367848
0.34335202 -0.40577957 0.00058357418
0.34335202 -0.43699342 0.00058363378
0.34335202 -0.46820718 0.00058366358
0.34335202 -0.49942112 0.00058364868
0.34335202 -0.53063488 0.00058364868
0.34335202 -0.5618487 0.00058361888
0.34335202 -0.59306252 0.00058367848
0.34335202 -0.62427634 0.00058367848
0.34335202 -0.65549016 0.00058361888
0.34335202 -0.68670392 0.00058358908
0.34335202 -0.7179178 0.00058361888
0.34335202 -0.74913162 0.00058361888
0.34335202 -0.78034538 0.00058358908
0.38284159 0.76568311 0.03506583
0.38284159 0.73377973 0.035065979
0.38284159 0.70187628 0.035066009
0.38284159 0.66997278 0.035065979
0.38284159 0.63806939 0.035065979
0.38284159 0.60616589 0.035065919
0.38284159 0.57426244 0.035065979
0.38284159 0.54235893 0.035065919
0.38284159 0.51045549 0.035065964
0.38284159 0.47855195 0.035065904
0.38284159 0.44664854 0.035065949
0.38284159 0.41474506 0.03506586
0.38284159 0.38284162 0.035065904
0.38284159 0.35093808 0.035065904
0.38284159 0.31903467 0.035065889
0.38284159 0.28713119 0.035065979
0.38284159 0.2552278 0.035065979
0.38284159 0.22332428 0.035065934
0.38284159 0.19142088 0.035065934
0.38284159 0.15951732 0.035065919
0.38284159 0.12761393 0.035065923
0.38284159 0.095710412 0.035065871
0.38284159 0.063806936 0.035065956
0.38284159 0.031903461 0.035065867
0.38284159 -2.2351742e-08 0.035065949
0.38284159 -0.031903412 0.035065949
0.38284159 -0.063806809 0.035065953
0.38284159 -0.095710367 0.035065945
0.38284159 -0.12761375 0.035065949
0.38284159 -0.15951732 0.035065938
0.38284159 -0.1914207 0.035065942
0.38284159 -0.22332427 0.035065919
0.38284159 -0.25522768 0.035065934
0.38284159 -0.28713113 0.035065837
0.38284159 -0.31903458 0.035065964
0.38284159 -0.35093802 0.035065919
0.38284159 -0.38284153 0.035065964
0.38284159 -0.41474497 0.035065919
0.38284159 -0.44664851 0.035065949
0.38284159 -0.47855192 0.035065919
0.38284159 -0.51045537 0.03506586
0.38284159 -0.54235888 0.035065919
0.38284159 -0.57426232 0.03506586
0.38284159 -0.60616583 0.035065919
0.38284159 -0.63806927 0.035066009
0.38284159 -0.66997278 0.035065949
0.38284159 -0.70187616 0.035065919
0.38284159 -0.73377967 0.035065979
0.38284159 -0.765683 0.03506586
0.42411557 0.78298259 0.071106315
0.42411557 0.75035834 0.071106374
0.42411557 0.71773398 0.071106344
0.42411557 0.68510979 0.071106344
0.42411557 0.65248549 0.071106434
0.42411557 0.61986125 0.071106344
0.42411557 0.58723688 0.071106285
0.42411557 0.55461264 0.07110633
0.42411557 0.52198839 0.071106389
0.42411557 0.48936412 0.071106344
0.42411557 0.45673978 0.07110627
0.42411557 0.42411554 0.07110633
0.42411557 0.39149129 0.071106374
0.42411557 0.35886699 0.07110633
0.42411557 0.32624274 0.071106359
0.42411557 0.2936185 0.071106285
0.42411557 0.2609942 0.071106359
0.42411557 0.22836988 0.071106322
0.42411557 0.19574568 0.071106315
0.42411557 0.16312136 0.071106277
0.42411557 0.13049708 0.071106359
0.42411557 0.097872801 0.07110627
0.42411557 0.065248519 0.071106352
0.42411557 0.032624319 0.071106359
0.42411557 4.8428774e-08 0.07110627
0.42411557 -0.032624237 0.071106352
0.42411557 -0.065248601 0.071106344
0.42411557 -0.097872794 0.071106352
0.42411557 -0.13049707 0.071106263
0.42411557 -0.16312136 0.071106344
0.42411557 -0.19574572 0.07110633
0.42411557 -0.22836992 0.071106337
0.42411557 -0.26099411 0.071106344
0.42411557 -0.2936185 0.071106337
0.42411557 -0.32624269 0.071106337
0.42411557 -0.35886705 0.07110633
0.42411557 -0.39149129 0.071106449
0.42411557 -0.42411548 0.0711063
0.42411557 -0.45673978 0.071106374
0.42411557 -0.48936412 0.071106359
0.42411557 -0.52198827 0.071106389
0.42411557 -0.55461264 0.071106419
0.42411557 -0.58723688 0.071106374
0.42411557 -0.61986113 0.071106315
0.42411557 -0.65248543 0.071106344
0.42411557 -0.68510973 0.071106404
0.42411557 -0.71773398 0.071106374
0.42411557 -0.75035828 0.071106464
0.42411557 -0.78298247 0.071106315
0.46729767 0.76770341 0.10881302
0.46729767 0.73432493 0.10881293
0.46729767 0.70094669 0.10881302
0.46729767 0.66756809 0.10881293
0.46729767 0.63418972 0.10881299
0.46729767 0.60081136 0.10881308
0.46729767 0.56743294 0.10881297
0.46729767 0.53405464 0.10881306
0.46729767 0.50067616 0.10881297
0.46729767 0.46729767 0.10881293
0.46729767 0.43391928 0.10881293
0.46729767 0.40054092 0.10881305
0.46729767 0.36716253 0.10881306
0.46729767 0.33378419 0.10881301
0.46729767 0.30040568 0.10881296
0.46729767 0.26702726 0.108813
0.46729767 0.23364887 0.108813
0.46729767 0.20027044 0.10881303
0.46729767 0.16689211 0.108813
0.46729767 0.13351367 0.10881303
0.46729767 0.10013521 0.10881294
0.46729767 0.066756822 0.10881294
0.46729767 0.033378351 0.10881302
0.46729767 5.5879354e-08 0.10881294
0.46729767 -0.033378415 0.10881302
0.46729767 -0.06675671 0.10881294
0.46729767 -0.10013519 0.10881302
0.46729767 -0.13351357 0.10881301
0.46729767 -0.16689196 0.10881301
0.46729767 -0.20027044 0.10881308
0.46729767 -0.23364881 0.10881292
0.46729767 -0.26702729 0.108813
0.46729767 -0.30040568 0.108813
0.46729767 -0.33378404 0.108813
0.46729767 -0.36716244 0.108813
0.46729767 -0.40054083 0.10881299
0.46729767 -0.43391931 0.10881302
0.46729767 -0.46729758 0.10881297
0.46729767 -0.50067604 0.10881306
0.46729767 -0.53405452 0.10881302
0.46729767 -0.56743288 0.10881302
0.46729767 -0.60081124 0.10881302
0.46729767 -0.63418967 0.10881296
0.46729767 -0.66756815 0.10881302
0.46729767 -0.70094645 0.10881296
0.46729767 -0.73432487 0.10881293
0.46729767 -0.76770335 0.10881299
0.51252341 0.7858693 0.14830416
0.51252341 0.751701 0.14830408
0.51252341 0.71753287 0.14830408
0.51252341 0.68336451 0.14830408
0.51252341 0.64919639 0.1483041
0.51252341 0.61502814 0.14830402
0.51252341 0.5808599 0.14830406
0.51252341 0.54669178 0.14830419
0.51252341 0.51252353 0.1483041
0.51252341 0.47835529 0.14830416
0.51252341 0.44418699 0.14830412
0.51252341 0.41001883 0.14830409
0.51252341 0.37585056 0.14830405
0.51252341 0.34168231 0.14830413
0.51252341 0.30751413 0.1483041
0.51252341 0.27334586 0.14830405
0.51252341 0.23917761 0.14830412
0.51252341 0.20500937 0.14830402
0.51252341 0.17084119 0.14830405
0.51252341 0.13667297 0.14830408
0.51252341 0.10250472 0.14830416
0.51252341 0.068336487 0.14830406
0.51252341 0.03416824 0.14830413
0.51252341 8.9406967e-08 0.14830412
0.51252341 -0.03416815 0.14830403
0.51252341 -0.068336397 0.1483041
0.51252341 -0.10250472 0.14830408
0.51252341 -0.13667288 0.14830408
0.51252341 -0.17084113 0.14830413
0.51252341 -0.20500928 0.14830412
0.51252341 -0.23917751 0.14830405
0.51252341 -0.27334577 0.1483041
0.51252341 -0.30751407 0.14830409
0.51252341 -0.34168226 0.14830408
0.51252341 -0.3758505 0.14830416
0.51252341 -0.41001874 0.14830405
0.51252341 -0.4441869 0.14830406
0.51252341 -0.47835514 0.1483041
0.51252341 -0.51252341 0.14830413
0.51252341 -0.54669166 0.14830408
0.51252341 -0.5808599 0.1483041
0.51252341 -0.6150282 0.14830415
0.51252341 -0.64919627 0.14830409
0.51252341 -0.68336451 0.14830413
0.51252341 -0.71753281 0.14830416
0.51252341 -0.751701 0.1483041
0.55994135 0.76991934 0.18970934
0.55994135 0.73492312 0.18970945
0.55994135 0.69992673 0.1897094
0.55994135 0.6649304 0.18970942
0.55994135 0.62993407 0.18970937
0.55994135 0.5949378 0.18970951
0.55994135 0.55994141 0.18970945
0.55994135 0.52494514 0.18970948
0.55994135 0.48994875 0.18970942
