# .PCD v0.7 - Point Cloud Data file format
VERSION 0.7
FIELDS x y z
SIZE 4 4 4
TYPE F F F
COUNT 1 1 1
WIDTH 1369
HEIGHT 1
VIEWPOINT 0 0 0 1 0 0 0
POINTS 1369
DATA ascii
-0.53509933 0.16897877 -0.15195118
-0.53180301 0.13994822 -0.16062576
-0.52854562 0.11127274 -0.16919778
-0.52532935 0.08294674 -0.17766182
-0.52215052 0.054963216 -0.18602696
-0.51901132 0.027316406 -0.19428805
-0.5159083 3.7252903e-08 -0.20245385
-0.51284349 -0.02699177 -0.21051913
-0.50981492 -0.05366464 -0.21848913
-0.50682056 -0.080024287 -0.2263689
-0.5038625 -0.1060763 -0.23415338
-0.50093752 -0.13182564 -0.24185075
-0.49804747 -0.15727812 -0.24945614
-0.49518943 -0.18243821 -0.25697732
-0.49236515 -0.20731163 -0.2644096
-0.48957169 -0.23190236 -0.27176079
-0.48681101 -0.25621629 -0.27902582
-0.48408011 -0.28025678 -0.28621241
-0.48138076 -0.30402997 -0.29331574
-0.47871029 -0.32753849 -0.30034351
-0.47607037 -0.35078859 -0.30729073
-0.47345826 -0.37378287 -0.31416443
-0.47087583 -0.39652699 -0.32096046
-0.46832031 -0.41902339 -0.32768545
-0.46579343 -0.44127792 -0.33433521
-0.46329263 -0.4632926 -0.34091628
-0.46081954 -0.48507321 -0.34742424
-0.45837173 -0.50662136 -0.35386592
-0.59366208 0.95645559 0.088954002
-0.58938378 0.91681939 0.077069968
-0.58516502 0.87774754 0.065351039
-0.58100796 0.8392337 0.053803593
-0.57690781 0.80126083 0.042414278
-0.5728668 0.76382244 0.031189322
-0.56888032 0.72690266 0.020115733
-0.56495064 0.69049525 0.0092000365
-0.56107324 0.65458542 -0.0015706718
-0.55725026 0.61916709 -0.012189865
-0.55347753 0.58422625 -0.022669852
-0.54975706 0.54975712 -0.033004463
-0.5460847 0.51574671 -0.043205425
-0.54246259 0.482189 -0.053266793
-0.53888828 0.44907361 -0.063195452
-0.53535926 0.41639051 -0.072998464
-0.53187615 0.3841328 -0.082673788
-0.52843946 0.35229301 -0.092219897
-0.525047 0.32086208 -0.10164358
-0.52169633 0.28983131 -0.1109509
-0.51838958 0.25919482 -0.1201363
-0.51512307 0.22894366 -0.12920985
-0.51189888 0.19907178 -0.13816601
-0.50871342 0.16957115 -0.14701454
-0.50556874 0.14043581 -0.15574969
-0.50246131 0.1116581 -0.16438136
-0.49939322 0.083232284 -0.17290398
-0.49636105 0.055151232 -0.18132666
-0.49336675 0.027409226 -0.18964416
-0.49040711 -7.4505806e-09 -0.1978654
-0.48748398 -0.027082436 -0.20598507
-0.48459429 -0.053843796 -0.214012
-0.48173988 -0.080289952 -0.22194096
-0.47891769 -0.10642613 -0.22978036
-0.47612959 -0.13225815 -0.23752519
-0.47337252 -0.15779079 -0.24518365
-0.47064841 -0.18302986 -0.25275064
-0.46795431 -0.20797963 -0.26023418
-0.46529201 -0.23264602 -0.26762941
-0.46265876 -0.25703263 -0.27494422
-0.46005619 -0.28114545 -0.28217342
-0.45748165 -0.3049877 -0.28932503
-0.45493686 -0.32856545 -0.29639378
-0.45241913 -0.35188147 -0.30338746
-0.44993025 -0.37494186 -0.31030113
-0.44746751 -0.39774889 -0.3171421
-0.44503257 -0.4203085 -0.32390571
-0.44262299 -0.44262302 -0.33059892
-0.44024041 -0.46469817 -0.33721724
-0.43788233 -0.48653594 -0.34376752
-0.43555036 -0.50814193 -0.35024524
-0.56298417 0.96038485 0.095728487
-0.5589087 0.92055547 0.083741754
-0.55489361 0.88130158 0.071932584
-0.55093402 0.84260505 0.06028688
-0.5470323 0.80445915 0.048810989
-0.54318368 0.76684761 0.037491769
-0.5393905 0.72976369 0.026335418
-0.53565001 0.69319415 0.015333742
-0.53195941 0.65712631 0.0044791102
-0.52832085 0.62155402 -0.0062224269
-0.52473021 0.58646321 -0.016783059
-0.52118963 0.55184793 -0.027196735
-0.51769489 0.51769495 -0.037475258
-0.51424825 0.48399842 -0.047612429
-0.51084578 0.4507463 -0.05761978
-0.50748944 0.41793251 -0.067491397
-0.50417542 0.38554603 -0.077238247
-0.50090593 0.35358065 -0.086854681
-0.49767715 0.32202643 -0.096351035
-0.49449107 0.29087713 -0.10572186
-0.49134415 0.2601234 -0.11497741
-0.48823839 0.22975931 -0.12411207
-0.48517033 0.19977599 -0.13313581
-0.48214191 0.17016776 -0.14204298
-0.47914976 0.14092647 -0.15084338
-0.47619575 0.11204608 -0.15953162
-0.47327673 0.083519474 -0.16811685
-0.47039455 0.055340506 -0.17659408
-0.46754596 0.027502723 -0.18497223
-0.46473289 -2.9802322e-08 -0.19324583
-0.46195233 -0.027173616 -0.20142397
-0.45920601 -0.05402416 -0.20950155
-0.45649093 -0.080557212 -0.21748695
-0.45380896 -0.1067785 -0.22537509
-0.45115715 -0.13269326 -0.23317449
-0.44853732 -0.15830724 -0.24087992
-0.44594771 -0.18362547 -0.24849635
-0.44338673 -0.2086526 -0.25602856
-0.44085613 -0.23339435 -0.26347175
-0.43835315 -0.2578547 -0.27083349
-0.43587947 -0.28203961 -0.27810887
-0.43343252 -0.30595228 -0.28530577
-0.43101394 -0.32959887 -0.29241925
-0.42862117 -0.35298207 -0.29945689
-0.42625579 -0.37610799 -0.30641383
-0.42391545 -0.39897919 -0.31329724
-0.42160162 -0.42160159 -0.32010257
-0.41931191 -0.44397724 -0.32683706
-0.41704792 -0.46611243 -0.33349574
-0.41480729 -0.4880085 -0.34008592
-0.41259155 -0.50967187 -0.34660271
-0.53205317 0.96434629 0.1025587
-0.52818584 0.92432523 0.090473473
-0.52437603 0.88488448 0.078567594
-0.52061909 0.8460061 0.066827357
-0.51691723 0.80768323 0.055259049
-0.51326609 0.76989919 0.043849289
-0.50966769 0.7326473 0.032604188
-0.50611788 0.69591212 0.021511018
-0.50261867 0.65968704 0.010576069
-0.49916607 0.62395763 -0.00021332502
-0.49576199 0.58871734 -0.010851115
-0.49240264 0.55395299 -0.021349162
-0.48908988 0.51965803 -0.031701505
-0.48582 0.48582 -0.041919872
-0.48259497 0.45243278 -0.051998153
-0.4794111 0.4194847 -0.061947733
-0.47627026 0.38696969 -0.071762726
-0.47316903 0.35487676 -0.081454128
-0.47010922 0.32320008 -0.091016099
-0.46708742 0.29192966 -0.10045909
-0.46410555 0.26105943 -0.10977754
-0.46116018 0.23058009 -0.1189817
-0.45825326 0.20048584 -0.12806594
-0.45538148 0.1707681 -0.13704015
-0.45254675 0.14142086 -0.14589888
-0.44974586 0.11243644 -0.15465166
-0.44698057 0.083808914 -0.16329309
-0.44424912 0.05553123 -0.17182888
-0.44154969 0.027596846 -0.18026461
-0.43888402 7.4505806e-09 -0.18859479
-0.4362492 -0.027265497 -0.19682857
-0.43364692 -0.054205857 -0.20496067
-0.43107444 -0.080826432 -0.21299972
-0.42853335 -0.10713333 -0.22094053
-0.42602101 -0.13313159 -0.22879162
-0.42353901 -0.1588271 -0.23654795
-0.4210847 -0.18422453 -0.24421768
-0.41865972 -0.20932984 -0.2517958
-0.41626146 -0.23414703 -0.25929025
-0.41389155 -0.25868216 -0.26669616
-0.41154748 -0.28293887 -0.27402151
-0.4092308 -0.30692306 -0.28126115
-0.40693906 -0.33063796 -0.28842279
-0.40467381 -0.35408965 -0.29550162
-0.40243271 -0.37728059 -0.30250517
-0.40021721 -0.40021721 -0.30942848
-0.39802507 -0.4229016 -0.31627899
-0.39585772 -0.44533983 -0.32305205
-0.39371294 -0.46753407 -0.32975438
-0.39159214 -0.48949018 -0.33638179
-0.38949323 -0.51120979 -0.34294102
-0.50086433 0.96833777 0.10944048
-0.49721035 0.92812604 0.097260475
-0.49360773 0.88849396 0.085251808
-0.49005848 0.84943473 0.073420912
-0.48655844 0.81093073 0.061753958
-0.48310944 0.77297509 0.050257474
-0.4797076 0.73555171 0.038917929
-0.47635472 0.6986537 0.02774179
-0.47304699 0.6622659 0.016716033
-0.46978629 0.62638175 0.0058469772
-0.46656886 0.59098732 -0.0048778057
-0.46339655 0.55607581 -0.015452236
-0.46026707 0.52163601 -0.025883809
-0.45717826 0.48765683 -0.036179885
-0.45413196 0.4541319 -0.046334282
-0.45112464 0.42104971 -0.056358486
-0.4481582 0.38840383 -0.066246644
-0.44522926 0.3561835 -0.076009661
-0.44233963 0.32438236 -0.085642017
-0.43948603 0.29299068 -0.095154054
-0.43667018 0.26200217 -0.10454002
-0.433889 0.23140751 -0.11381063
-0.43114424 0.20120068 -0.1229599
-0.42843279 0.17137313 -0.13199809
-0.42575639 0.14191888 -0.14091939
-0.42311206 0.11282992 -0.14973377
-0.4205015 0.084100351 -0.15843561
-0.4179219 0.055723 -0.16703437
-0.41537482 0.027691752 -0.17552459
-0.41285753 8.9406967e-08 -0.18391562
-0.4103716 -0.027358025 -0.19220205
-0.40791443 -0.054388575 -0.20039271
-0.40548748 -0.081097461 -0.20848237
-0.40308827 -0.10749014 -0.21647984
-0.40071827 -0.13357267 -0.22437978
-0.39837494 -0.15934999 -0.23219077
-0.3960599 -0.18482789 -0.23990756
-0.39377066 -0.21001089 -0.24753858
-0.39150864 -0.23490509 -0.25507852
-0.38927248 -0.25951493 -0.2625325
-0.38706076 -0.28384453 -0.26990473
-0.38487405 -0.30789915 -0.27719393
-0.38271284 -0.33168447 -0.2843979
-0.38057482 -0.35520321 -0.29152453
-0.37846148 -0.37846145 -0.29856899
-0.37637058 -0.40146196 -0.30553865
-0.37430358 -0.42421067 -0.31242886
-0.37225825 -0.44670981 -0.31924659
-0.37023601 -0.46896553 -0.32598734
-0.36823475 -0.49097961 -0.33265805
-0.36625588 -0.51275814 -0.33925435
-0.46941778 0.97236538 0.11638457
-0.46597907 0.93195808 0.10410345
-0.46258891 0.89213568 0.091995746
-0.45924914 0.85289127 0.080068141
-0.45595586 0.81420696 0.068306416
-0.45271084 0.77607584 0.056717187
-0.44951034 0.73848128 0.045286775
-0.44635612 0.70141679 0.034021676
-0.44324455 0.66486686 0.022908896
-0.44017732 0.62882471 0.011954546
-0.43715101 0.59327638 0.0011461973
-0.43416727 0.55821508 -0.0095099509
-0.43122274 0.52362758 -0.020026207
-0.4283191 0.48950756 -0.030396268
-0.4254531 0.45584267 -0.040631905
-0.42262641 0.42262641 -0.050727323
-0.41983581 0.38984758 -0.060693666
-0.41708302 0.35749978 -0.070525095
-0.41436496 0.32557249 -0.080232501
-0.41168323 0.29405946 -0.089810185
-0.40903479 0.26295099 -0.099268675
-0.40642139 0.23224089 -0.10860234
-0.40384009 0.20192002 -0.11782138
-0.40129238 0.17198245 -0.12692019
-0.39877561 0.14241993 -0.13590868
-0.39629129 0.11322603 -0.14478144
-0.39383769 0.08439377 -0.15354428
-0.39141324 0.055916198 -0.16220298
-0.38901845 0.027787067 -0.17075565
-0.38665381 1.1920929e-07 -0.1792008
-0.38431776 -0.027451202 -0.18754381
-0.38200879 -0.054572642 -0.19579026
-0.37972835 -0.081370354 -0.2039347
-0.37747401 -0.10784961 -0.21198586
-0.37524724 -0.13401683 -0.21993861
-0.37304565 -0.15987666 -0.22780144
-0.37087068 -0.18543534 -0.23556924
-0.36871997 -0.21069717 -0.24325024
-0.366595 -0.23566821 -0.25083944
-0.36449346 -0.26035246 -0.25834498
-0.3624168 -0.28475609 -0.26576161
-0.36036277 -0.30888233 -0.27309746
-0.35833275 -0.33273754 -0.28034744
-0.35632464 -0.35632461 -0.28751937
-0.35433975 -0.3796497 -0.29460818
-0.35237601 -0.40271547 -0.30162156
-0.35043475 -0.42552784 -0.30855471
-0.34851393 -0.44808927 -0.3154147
-0.34661487 -0.47040582 -0.32219711
-0.34473559 -0.49247941 -0.32890868
-0.4377085 0.97642666 0.12338683
-0.4344874 0.93581903 0.110998
-0.43131474 0.89580745 0.098795325
-0.42818671 0.85637337 0.086764485
-0.42510501 0.81750965 0.074911922
-0.42206612 0.77919906 0.063223898
-0.41907161 0.74143434 0.051706433
-0.41611803 0.70419979 0.040346622
-0.41320702 0.66748834 0.029150546
-0.41033527 0.63128513 0.018105328
-0.40750438 0.59558332 0.0072171092
-0.40471107 0.56036925 -0.0035263598
-0.40195695 0.52563608 -0.014119089
-0.39923888 0.49137098 -0.024573088
-0.39655852 0.45756757 -0.034882247
-0.39391389 0.42421502 -0.045053884
-0.39130318 0.39130324 -0.055095077
-0.38872799 0.35882586 -0.0649997
-0.38618535 0.32677218 -0.074779138
-0.38367683 0.29513606 -0.084427282
-0.38119963 0.26390752 -0.093954876
-0.37875527 0.23308019 -0.10335634
-0.37634099 0.20264518 -0.11264189
-0.37395835 0.1725962 -0.12180597
-0.37160468 0.14292492 -0.13085854
-0.36928144 0.11362514 -0.13979408
-0.36698607 0.084689096 -0.14862245
-0.36472008 0.056110844 -0.1573379
-0.36248088 0.027883194 -0.1659501
-0.36026999 4.4703484e-08 -0.17445363
-0.35808498 -0.02754496 -0.18285751
-0.3559272 -0.054757997 -0.19115657
-0.35379437 -0.081644773 -0.19935969
-0.35168785 -0.10821161 -0.20746173
-0.34960541 -0.13446356 -0.21547127
-0.34754831 -0.16040693 -0.22338302
-0.34551445 -0.18604623 -0.23120557
-0.34350511 -0.21138775 -0.23893385
-0.34151813 -0.23643556 -0.24657609
-0.33955488 -0.26119602 -0.25412706
-0.3376132 -0.28567269 -0.26159495
-0.33569446 -0.30987182 -0.26897475
-0.33379659 -0.33379647 -0.27627438
-0.33192083 -0.35745311 -0.28348878
-0.33006528 -0.3808445 -0.29062548
-0.32823113 -0.40397677 -0.29767993
-0.32641646 -0.42685226 -0.30465943
-0.32462254 -0.44947729 -0.3115592
-0.32284746 -0.47185391 -0.31838641
-0.32109243 -0.49398828 -0.32513648
-0.40573195 0.98051888 0.13044244
-0.40273502 0.93971503 0.11795521
-0.39978206 0.89950949 0.10565108
-0.39687082 0.85988677 0.09352091
-0.39400288 0.82083935 0.081571281
-0.39117491 0.78234982 0.069788069
-0.38838843 0.74441111 0.058177799
-0.3856402 0.70700711 0.046726912
-0.38293174 0.67013061 0.035441667
-0.38025993 0.63376665 0.024309039
-0.37762627 0.59790826 0.013335437
-0.37502772 0.5625416 0.0025081038
-0.37246579 0.52765995 -0.0081665218
-0.36993757 0.49325007 -0.018700913
-0.36744446 0.45930561 -0.02908881
-0.36498368 0.42581433 -0.039341986
-0.3625567 0.39276978 -0.049454406
-0.36016074 0.36016077 -0.059437528
-0.35779729 0.32798088 -0.069285333
-0.35546362 0.29621965 -0.079008959
-0.35316119 0.26487088 -0.088602424
-0.35088745 0.23392498 -0.098076344
-0.34864372 0.20337555 -0.10742517
-0.34642756 0.17321379 -0.11665916
-0.34424037 0.1434335 -0.1257726
-0.34207967 0.11402655 -0.13477549
-0.33994684 0.084986702 -0.1436623
-0.33783951 0.056306574 -0.15244272
-0.33575907 0.02798003 -0.16111115
-0.33370325 1.4901161e-08 -0.16967721
-0.33167326 -0.027639456 -0.17813547
-0.329667 -0.0549444 -0.18649486
-0.32768568 -0.081921399 -0.19475031
-0.32572722 -0.10857578 -0.20291063
-0.32379285 -0.13491365 -0.21097049
-0.32188132 -0.16094062 -0.21893522
-0.31999141 -0.18666157 -0.2268098
-0.31812438 -0.21208289 -0.23458913
-0.31627822 -0.23720858 -0.24228148
-0.31445414 -0.26204512 -0.2498818
-0.3126502 -0.28659594 -0.25739822
-0.31086761 -0.31086752 -0.26482564
-0.30910447 -0.3348631 -0.27217209
-0.30736196 -0.35858887 -0.27943248
-0.30563828 -0.38204777 -0.2866146
-0.30393451 -0.40524602 -0.29371354
-0.30224892 -0.428186 -0.30073673
-0.30058265 -0.45087391 -0.30767965
-0.29893395 -0.47331205 -0.31454921
-0.29730392 -0.49550653 -0.32134104
-0.37348744 0.9846487 0.13756281
-0.37071717 0.94364369 0.12497064
-0.3679865 0.90323961 0.11255854
-0.3652969 0.86342907 0.10033315
-0.36264524 0.8241936 0.088279963
-0.36003289 0.78552639 0.076405793
-0.3574568 0.7474097 0.064696342
-0.35491842 0.70983684 0.053158104
-0.35241476 0.67279184 0.041777939
-0.34994721 0.63626766 0.030561864
-0.34751296 0.60024965 0.019496888
-0.34511334 0.56473088 0.0085896552
-0.34274566 0.5296979 -0.0021725297
-0.34041122 0.49514368 -0.012783647
-0.33810738 0.46105552 -0.023255691
-0.33583549 0.42742702 -0.033582389
-0.33359298 0.39424628 -0.043775693
-0.33138114 0.36150676 -0.053829476
-0.32919753 0.32919753 -0.063755095
-0.32704341 0.2973122 -0.073546447
-0.32491732 0.26584145 -0.083210506
-0.32281777 0.23477663 -0.09275391
-0.32074606 0.20411119 -0.10217067
-0.31869993 0.17383637 -0.1114713
-0.31668058 0.14394575 -0.12065016
-0.31468582 0.11443124 -0.12971723
-0.31271687 0.085286461 -0.13866702
-0.31077158 0.056504007 -0.14750935
-0.30885115 0.028077431 -0.15623851
-0.30695349 3.7252903e-08 -0.16486415
-0.30507982 -0.027734488 -0.17338084
-0.30322811 -0.055132348 -0.18179783
-0.30139953 -0.082199827 -0.19010967
-0.29959208 -0.10894258 -0.19832528
-0.29780692 -0.13536669 -0.20643952
-0.29604217 -0.16147758 -0.21446103
-0.29429895 -0.18728118 -0.22238468
-0.29257545 -0.21278211 -0.23021907
-0.29087269 -0.23798673 -0.23795871
-0.28918895 -0.26289898 -0.2456121
-0.2875253 -0.2875253 -0.25317419
-0.28587997 -0.31186903 -0.26065299
-0.28425404 -0.33593661 -0.26804349
-0.28264585 -0.35973102 -0.27535352
-0.2810564 -0.3832587 -0.28257826
-0.27948409 -0.40652227 -0.28972518
-0.2779299 -0.429528 -0.29678959
-0.27639228 -0.45227826 -0.30377886
-0.27487218 -0.47477919 -0.31068826
-0.27336812 -0.49703288 -0.317525
-0.34097016 0.9888134 0.14474341
-0.33842936 0.94760221 0.1320394
-0.33592722 0.90700352 0.11952868
-0.33346075 0.86699796 0.10719642
-0.33103126 0.82757819 0.095048994
-0.3286359 0.78872633 0.083072245
-0.32627597 0.75043476 0.071272552
-0.32394871 0.71268713 0.059636116
-0.32165539 0.67547631 0.048169523
-0.31939334 0.63878667 0.036859363
-0.31716383 0.60261136 0.025711834
-0.31496522 0.56693745 0.014718771
-0.31279597 0.53175312 0.0038724542
-0.31065732 0.49705178 -0.0068207532
-0.30854678 0.46282023 -0.017373309
-0.30646566 0.42905197 -0.027779058
-0.30441153 0.39573503 -0.038049787
-0.3023856 0.36286271 -0.048179373
-0.30038562 0.33042425 -0.058179259
-0.29841277 0.29841286 -0.068043515
-0.2964648 0.2668184 -0.077783167
-0.29454297 0.23563442 -0.087392539
-0.29264504 0.20485164 -0.09688203
-0.29077223 0.17446344 -0.10624608
-0.28892246 0.14446124 -0.11549508
-0.28709683 0.11483876 -0.12462313
-0.2852934 0.085588001 -0.13364035
-0.28351322 0.0567027 -0.14254132
-0.28175437 0.028175473 -0.15133557
-0.28001794 7.4505806e-09 -0.16001767
-0.27830207 -0.027830057 -0.16859709
-0.27660778 -0.055321541 -0.1770684
-0.27493331 -0.082479939 -0.18544072
-0.2732797 -0.10931182 -0.19370887
-0.27164587 -0.13582291 -0.20187804
-0.27003077 -0.16201839 -0.20995353
-0.26843542 -0.18790467 -0.21793032
-0.26685816 -0.21348649 -0.22581662
-0.26529998 -0.23876993 -0.23360752
-0.26375923 -0.26375917 -0.24131124
-0.26223692 -0.28846049 -0.24892274
-0.26073146 -0.31287768 -0.25645012
-0.25924382 -0.33701688 -0.26388839
-0.25777239 -0.3608813 -0.27124539
-0.25631821 -0.38447726 -0.27851626
-0.25487974 -0.40780759 -0.28570849
-0.25345796 -0.4308784 -0.29281765
-0.25205132 -0.45369235 -0.29985076
-0.25066081 -0.47625554 -0.30680335
-0.24928497 -0.49856988 -0.31368247
-0.30587053 0.95159709 0.13917324
-0.30359963 0.91079891 0.12655723
-0.30136126 0.87059927 0.11412194
-0.29915661 0.83099061 0.10187379
-0.29698303 0.79195476 0.089798301
-0.29484174 0.75348449 0.077902287
-0.29273018 0.7155627 0.066171408
-0.29064956 0.67818236 0.054612458
-0.28859743 0.64132762 0.043211609
-0.28657493 0.60499156 0.031975567
-0.28457975 0.56915951 0.020891219
-0.28261298 0.53382444 0.0099646449
-0.28067237 0.49897313 -0.00081640482
-0.27875906 0.46459842 -0.01144588
-0.27687088 0.43068802 -0.02193591
-0.27500886 0.39723504 -0.032280385
-0.27317095 0.36422798 -0.042490974
-0.27135822 0.33166003 -0.05256179
-0.26956862 0.29952073 -0.062503979
-0.26780322 0.26780331 -0.072311692
-0.26606002 0.23649779 -0.081996001
-0.26434016 0.20559797 -0.091550931
-0.26264238 0.17509493 -0.1009831
-0.26096553 0.14498088 -0.11029886
-0.25931069 0.11524933 -0.11949246
-0.25767598 0.08589197 -0.12857419
-0.25606245 0.056902815 -0.13753814
-0.25446832 0.028274287 -0.1463944
-0.25289458 2.2351742e-08 -0.15513737
-0.25133955 -0.02792652 -0.16377652
-0.24980417 -0.055511944 -0.17230642
-0.24828678 -0.082762167 -0.18073642
-0.24678835 -0.10968374 -0.18906102
-0.24530728 -0.1362818 -0.1972892
-0.24384448 -0.16256301 -0.20541576
-0.24239843 -0.18853207 -0.21344943
-0.24097003 -0.21419558 -0.221385
-0.23955774 -0.23955773 -0.22923096
-0.23816256 -0.26462501 -0.23698211
-0.23678289 -0.28940123 -0.24464677
-0.23541974 -0.31389296 -0.25221992
-0.23407158 -0.33810335 -0.25970963
-0.23273937 -0.36203897 -0.26711085
-0.23142166 -0.38570279 -0.27443141
-0.23011935 -0.4091011 -0.28166643
-0.22883107 -0.43223649 -0.2888236
-0.22755769 -0.45511532 -0.29589799
-0.22629786 -0.47773975 -0.30289713
-0.22505242 -0.50011647 -0.30981618
-0.273036 0.95562601 0.14636767
-0.27099949 0.91462332 0.13363951
-0.268994 0.87423062 0.12110522
-0.26701713 0.83442855 0.10874975
-0.26506993 0.79520977 0.09657976
-0.26315013 0.75655675 0.084581017
-0.26125872 0.71846151 0.072759598
-0.25939351 0.68090796 0.061102152
-0.25755557 0.64388883 0.049614817
-0.25574344 0.60739064 0.03828913
-0.25395587 0.5714007 0.027116895
-0.25219315 0.53591043 0.016099811
-0.25045544 0.50091088 0.0052392334
-0.24874155 0.46639046 -0.0054726154
-0.24705021 0.43233788 -0.016043559
-0.24538244 0.39874649 -0.02646713
-0.24373631 0.36560455 -0.036755323
-0.24211285 0.3329052 -0.046902046
-0.24051015 0.30063778 -0.056918837
-0.23892923 0.2687954 -0.066799648
-0.23736829 0.23736829 -0.076555543
-0.23582827 0.2063498 -0.086180642
-0.23430745 0.17573065 -0.095685825
-0.23280674 0.1455043 -0.10506513
-0.23132454 0.11566231 -0.11432908
-0.22986169 0.086198203 -0.12347175
-0.22841661 0.057104204 -0.13250345
-0.22699021 0.028373852 -0.14141864
-0.2255809 3.7252903e-08 -0.1502267
-0.22418958 -0.02802363 -0.15892246
-0.22281474 -0.055703651 -0.16751529
-0.22145723 -0.083046384 -0.1759997
-0.22011559 -0.11005774 -0.184385
-0.21879067 -0.13674411 -0.19266571
-0.21748103 -0.16311067 -0.20085087
-0.21618754 -0.18916413 -0.20893508
-0.21490881 -0.21490875 -0.21692725
-0.21364567 -0.24035136 -0.22482195
-0.21239674 -0.2654959 -0.23262778
-0.21116285 -0.29034886 -0.24033958
-0.20994268 -0.31491402 -0.24796551
-0.20873708 -0.3391977 -0.25550058
-0.2075447 -0.36320317 -0.26295286
-0.2063664 -0.3869369 -0.27031738
-0.20520091 -0.4104017 -0.27760175
-0.20404899 -0.433604 -0.28480121
-0.20290944 -0.45654613 -0.29192343
-0.20178303 -0.47923464 -0.29896343
-0.20066859 -0.50167137 -0.30592874
-0.23992226 0.95968902 0.15362304
-0.23812519 0.91848278 0.14078677
-0.2363556 0.87789226 0.12814698
-0.23461139 0.83789778 0.11568817
-0.23289344 0.79849172 0.10341716
-0.23119974 0.75965637 0.091319531
-0.22953124 0.72138381 0.079401404
-0.22788595 0.68365782 0.067649335
-0.22626474 0.64647067 0.056069285
-0.22466576 0.60980713 0.04464817
-0.2230899 0.57365966 0.033391833
-0.22153533 0.53801441 0.022287786
-0.22000292 0.50286388 0.011342108
-0.21849093 0.46819487 0.00054208934
-0.2170002 0.43400046 -0.010105804
-0.21552907 0.40026838 -0.020613924
-0.21407837 0.36699155 -0.030976102
-0.21264644 0.33415872 -0.041204125
-0.21123417 0.30176306 -0.05129201
-0.20983991 0.26979417 -0.061250858
-0.20846455 0.23824517 -0.071074933
-0.2071065 0.20710656 -0.080775246
-0.2057666 0.17637135 -0.090345927
-0.20444337 0.14603107 -0.099797606
-0.20313761 0.11607866 -0.10912436
-0.20184787 0.086506233 -0.11833685
-0.20057495 0.057307154 -0.1274292
-0.19931744 0.028473973 -0.13641135
-0.19807613 3.7252903e-08 -0.14527789
-0.19684967 -0.02812136 -0.1540383
-0.19563882 -0.055896774 -0.16268721
-0.19444278 -0.083332546 -0.17123038
-0.19326076 -0.1104347 -0.17967334
-0.19209352 -0.13720958 -0.18801075
-0.19093981 -0.16366266 -0.19625157
-0.18980035 -0.18980026 -0.20439045
-0.18867394 -0.2156274 -0.21243627
-0.1875613 -0.2411502 -0.22038375
-0.18646124 -0.26637313 -0.22824135
-0.18537447 -0.29130268 -0.23600402
-0.18429983 -0.31594253 -0.24368002
-0.18323803 -0.34029907 -0.2512643
-0.18218794 -0.36437583 -0.25876489
-0.18115027 -0.38817912 -0.26617682
-0.18012393 -0.41171169 -0.27350798
-0.17910956 -0.4349803 -0.28075328
-0.17810614 -0.45798722 -0.28792065
-0.17711431 -0.48073882 -0.29500508
-0.17613305 -0.50323719 -0.30201411
-0.20652507 0.96378368 0.16093493
-0.20497227 0.9223752 0.14799488
-0.20344198 0.8815819 0.13524255
-0.20193504 0.84139609 0.12268463
-0.2004496 0.8017984 0.11030596
-0.19898649 0.7627815 0.098113388
-0.19754398 0.72432792 0.086092442
-0.19612283 0.68642986 0.074249506
-0.19472137 0.64907116 0.062570721
-0.19334041 0.61224467 0.051062673
-0.19197831 0.57593489 0.039711833
-0.19063583 0.54013491 0.028524607
-0.18931144 0.5048306 0.017488033
-0.18800589 0.47001469 0.0066083521
-0.18671766 0.43567455 -0.0041268021
-0.18544751 0.40180299 -0.014711425
-0.184194 0.36838806 -0.025157392
-0.18295784 0.33542269 -0.035458729
-0.18173815 0.30289698 -0.045622669
-0.18053412 0.27080125 -0.055656314
-0.17934644 0.23912862 -0.065553695
-0.17817378 0.20786943 -0.075325847
-0.17701685 0.1770169 -0.084966913
-0.17587437 0.14656202 -0.094487719
-0.17474702 0.11649802 -0.10388225
-0.17363355 0.086816788 -0.11316114
-0.17253464 0.057511616 -0.12231862
-0.17144911 0.028574802 -0.13136487
-0.1703776 3.7252903e-08 -0.14029413
-0.16931894 -0.028219726 -0.1491161
-0.16827381 -0.056091223 -0.15782554
-0.16724107 -0.083620481 -0.1664318
-0.16622137 -0.11081415 -0.1749294
-0.16521357 -0.137678 -0.18332757
-0.16421837 -0.16421826 -0.19162108
-0.16323465 -0.19044036 -0.19981863
-0.16226307 -0.21635073 -0.20791513
-0.16130257 -0.24195379 -0.21591932
-0.16035378 -0.26725623 -0.22382584
-0.15941569 -0.29226202 -0.23164329
-0.15848891 -0.31697786 -0.23936641
-0.15757245 -0.34140694 -0.24700364
-0.1566669 -0.36555612 -0.25454977
-0.15577134 -0.38942841 -0.26201281
-0.15488632 -0.41303024 -0.26938796
-0.15401095 -0.43636429 -0.27668282
-0.15314576 -0.45943722 -0.28389263
-0.15228988 -0.48225126 -0.29102495
-0.15144388 -0.50481296 -0.2980749
-0.17284223 0.96791655 0.16831502
-0.17153659 0.92629761 0.15525857
-0.17025109 0.88530564 0.14240354
-0.1689847 0.8449235 0.12973964
-0.16773647 0.80513513 0.11725748
-0.16650708 0.76593262 0.10496351
-0.16529506 0.72729838 0.092843413
-0.16410109 0.68922466 0.08090359
-0.16292372 0.65169495 0.069129884
-0.16176362 0.61470175 0.057528824
-0.16061944 0.57823002 0.046087056
-0.15949181 0.54227221 0.034810722
-0.15837944 0.50681424 0.02368696
-0.15728293 0.47184885 0.012721956
-0.15620105 0.43736297 0.0019031167
-0.15513439 0.40334949 -0.0087634176
-0.15408178 0.36979628 -0.019289717
-0.15304376 0.3366963 -0.029669687
-0.15201923 0.30403844 -0.039915159
-0.15100874 0.27181572 -0.050019979
-0.15001117 0.24001789 -0.059995599
-0.14902712 0.2086381 -0.069836088
-0.14805548 0.17766657 -0.079552568
-0.14709684 0.14709684 -0.08913897
-0.14615013 0.11692018 -0.09860602
-0.14521591 0.087129548 -0.10794812
-0.14429319 0.057717353 -0.11717543
-0.1433825 0.028676488 -0.12628242
-0.14248285 4.4703484e-08 -0.13527891
-0.1415948 -0.028318983 -0.14415944
-0.14071736 -0.056286924 -0.15293367
-0.13985111 -0.083910629 -0.16159619
-0.1389951 -0.11119606 -0.17015633
-0.13814986 -0.13814983 -0.17860872
-0.13731448 -0.16477735 -0.18696249
-0.13648951 -0.19108532 -0.1952123
-0.13567403 -0.21707842 -0.20336708
-0.13486858 -0.24276346 -0.21142159
-0.1340723 -0.26814452 -0.21938436
-0.1332857 -0.29322854 -0.22725029
-0.13250795 -0.31801912 -0.2350278
-0.13173954 -0.34252283 -0.24271187
-0.13097969 -0.36674309 -0.25031051
-0.13022886 -0.39068654 -0.25781882
-0.12948626 -0.41435605 -0.26524463
-0.12875243 -0.43775821 -0.2725831
-0.12802653 -0.46089548 -0.27984202
-0.12730908 -0.48377454 -0.28701651
-0.12659934 -0.50639725 -0.29411402
-0.13886929 0.97208494 0.17575863
-0.13781579 0.93025666 0.16259012
-0.13677859 0.88906097 0.14962524
-0.13575648 0.84847808 0.13684866
-0.13474995 0.80849969 0.12426698
-0.1337578 0.7691074 0.11186519
-0.13278058 0.73029327 0.099649936
-0.13181712 0.69203997 0.087606698
-0.13086796 0.65433979 0.075742006
-0.12993196 0.61717689 0.064042091
-0.12900963 0.5805434 0.052513182
-0.12809995 0.54442477 0.041141927
-0.12720338 0.5088135 0.029934838
-0.12631887 0.47369581 0.018878624
-0.12544699 0.43906444 0.0079798996
-0.12458667 0.40490675 -0.0027740002
-0.12373843 0.37121534 -0.013376921
-0.12290166 0.33797961 -0.023836449
-0.1220758 0.30518952 -0.034159914
-0.12126096 0.2728371 -0.044345535
-0.12045725 0.24091446 -0.054391704
-0.11966413 0.20941222 -0.064305693
-0.11888106 0.17832161 -0.074094042
-0.1181085 0.14763558 -0.083751082
-0.11734559 0.1173457 -0.093287498
-0.11659279 0.087444648 -0.10269745
-0.11584927 0.057924651 -0.1119914
-0.11511549 0.028778963 -0.12116367
-0.11439064 2.9802322e-08 -0.13022429
-0.11367516 -0.028418794 -0.13916782
-0.11296828 -0.056484073 -0.14800388
-0.11227044 -0.084202766 -0.15672694
-0.11158086 -0.1115808 -0.16534659
-0.11089999 -0.138625 -0.17385745
-0.1102271 -0.16534057 -0.18226853
-0.10956261 -0.19173452 -0.19057475
-0.1089058 -0.21781157 -0.19878487
-0.1082571 -0.24357837 -0.20689362
-0.1076158 -0.26903948 -0.21490975
-0.10698234 -0.29420128 -0.22282828
-0.106356 -0.31906801 -0.23065734
-0.10573723 -0.34364599 -0.23839191
-0.10512535 -0.36793873 -0.24604027
-0.10452079 -0.39195293 -0.2535975
-0.10392287 -0.41569149 -0.26107138
-0.10333201 -0.43916097 -0.2684572
-0.10274757 -0.46236408 -0.27576256
-0.10216998 -0.48530728 -0.28298271
-0.10159858 -0.50799286 -0.29012516
-0.1046021 0.97628629 0.18326101
-0.1038055 0.93424952 0.16998437
-0.10302062 0.89284533 0.15690282
-0.10224783 0.85206527 0.14402318
-0.10148624 0.81188995 0.13132992
-0.10073622 0.77231109 0.11882967
-0.099996895 0.73331046 0.10650745
-0.099268645 0.6948806 0.094370157
-0.098550625 0.65700424 0.082403064
-0.097843222 0.61967373 0.070612967
-0.0971459 0.58287543 0.058991045
-0.096458152 0.54659629 0.047528565
-0.095780365 0.51082873 0.036232159
-0.095111758 0.47555882 0.025088549
-0.094452694 0.44077924 0.014104173
-0.093802422 0.40647721 0.0032663792
-0.093161322 0.37264529 -0.0074187368
-0.092528656 0.33927172 -0.017963201
-0.091904789 0.30634934 -0.028360993
-0.091289014 0.27386707 -0.03862384
-0.090681694 0.24181792 -0.048745841
-0.090082146 0.21019171 -0.058738224
-0.089490727 0.17898154 -0.068595171
-0.088906772 0.14817801 -0.078327812
-0.088330641 0.11777426 -0.087930046
-0.087761685 0.08776167 -0.097412705
-0.087200247 0.058133461 -0.10676993
-0.086645707 0.028882034 -0.1160122
-0.086098418 3.7252903e-08 -0.12513378
-0.085557759 -0.028519183 -0.13414466
-0.085024081 -0.056682721 -0.14303923
-0.084496796 -0.084496781 -0.15182737
-0.083976232 -0.11196832 -0.16050349
-0.083461821 -0.139103 -0.16907696
-0.082953893 -0.1659078 -0.17754239
-0.082451895 -0.19238773 -0.18590903
-0.081956148 -0.21854964 -0.1941715
-0.081466116 -0.24439834 -0.20233868
-0.080982119 -0.26994038 -0.21040536
-0.080503635 -0.29517999 -0.21838011
-0.08003097 -0.32012385 -0.22625786
-0.079563625 -0.34477571 -0.23404689
-0.079101905 -0.36914212 -0.24174228
-0.078645319 -0.39322653 -0.24935207
-0.078194164 -0.41703549 -0.25687125
-0.077747963 -0.44057173 -0.26430795
-0.077307016 -0.46384203 -0.27165708
-0.076870859 -0.48684874 -0.27892637
-0.076439776 -0.50959843 -0.28611103
-0.070037663 0.98052728 0.19083431
-0.069501996 0.93827689 0.17744249
-0.068974227 0.89666498 0.16424835
-0.068454646 0.85568309 0.15125865
-0.067942604 0.81531131 0.1384578
-0.067438386 0.77554148 0.12585229
-0.066941381 0.73635519 0.11342728
-0.066451862 0.69774461 0.10118929
-0.065969244 0.65969241 0.089123726
-0.065493785 0.62219107 0.077237397
-0.065024935 0.58522445 0.065516114
-0.064562947 0.54878509 0.053966299
-0.064107284 0.51285827 0.042574659
-0.063658193 0.47743642 0.031347454
-0.063215166 0.44250619 0.020271838
-0.062778443 0.4080599 0.0093538165
-0.062347535 0.37408525 -0.0014189333
-0.061922684 0.3405748 -0.012040228
-0.061503403 0.30751708 -0.022522181
-0.061089937 0.27490467 -0.032858856
-0.06068182 0.24272735 -0.043061711
-0.060279295 0.21097752 -0.053125031
-0.059881903 0.17964575 -0.063059695
-0.05948988 0.14872473 -0.072860226
-0.059102796 0.11820564 -0.08253739
-0.058720883 0.088081472 -0.092085317
-0.058343865 0.058343917 -0.1015107
-0.057971507 0.028985798 -0.11081977
-0.057604022 5.5879354e-08 -0.12000676
-0.057241015 -0.028620459 -0.12908204
-0.056882706 -0.056882713 -0.13803974
-0.056528702 -0.084793016 -0.1468897
-0.056179229 -0.11235842 -0.1556266
-0.055833906 -0.13958472 -0.16425973
-0.055492945 -0.16647875 -0.17278387
-0.055155978 -0.19304593 -0.18120782
-0.05482322 -0.21929285 -0.18952686
-0.054494314 -0.24522436 -0.1977495
-0.054169469 -0.27084732 -0.20587055
-0.053848337 -0.29616588 -0.21389884
-0.053531129 -0.32118681 -0.22182909
-0.0532175 -0.34591371 -0.22966981
-0.052907657 -0.37035352 -0.23741597
-0.052601267 -0.39450949 -0.24507564
-0.052298538 -0.41838828 -0.25264388
-0.051999144 -0.44199276 -0.26012865
-0.051703285 -0.46532959 -0.26752511
-0.051410653 -0.48840111 -0.27484107
-0.051121436 -0.51121426 -0.28207147
-0.035171621 0.98480535 0.19847372
-0.034901336 0.94233608 0.18495938
-0.034635287 0.90051758 0.17165712
-0.034373153 0.85932887 0.15855029
-0.034115065 0.81876159 0.14564592
-0.033860717 0.77879655 0.13292855
-0.033610243 0.73942542 0.12040478
-0.033363339 0.70063007 0.10805956
-0.03312014 0.66240275 0.095899612
-0.032880358 0.62472689 0.083910614
-0.032644127 0.58759427 0.072098941
-0.032411162 0.55098975 0.060450837
-0.032181598 0.51490563 0.048972726
-0.031955171 0.47932762 0.037651151
-0.031732 0.44424802 0.02649264
-0.031511925 0.40965497 0.015488833
-0.031294789 0.37553748 0.0046319515
-0.031080715 0.34188786 -0.0060715824
-0.03086946 0.30869463 -0.016634345
-0.030661147 0.2759504 -0.027049996
-0.030455539 0.24364434 -0.037330411
-0.030252757 0.21176936 -0.047469474
-0.030052571 0.18031541 -0.057478845
-0.0298551 0.14927548 -0.067352332
-0.029660126 0.11864057 -0.077101037
-0.029467763 0.088403314 -0.086719073
-0.029277802 0.05855567 -0.096217304
-0.02909035 0.029090397 -0.10558981
-0.028905207 7.4505806e-08 -0.11484699
-0.02872248 -0.028722402 -0.12398324
-0.028541975 -0.057083987 -0.1330086
-0.0283638 -0.085091375 -0.14191744
-0.028187761 -0.11275101 -0.15071939
-0.028013965 -0.14006983 -0.15940905
-0.027842229 -0.16705328 -0.16799593
-0.027672658 -0.19370861 -0.17647442
-0.027505068 -0.22004053 -0.184854
-0.027339565 -0.24605605 -0.19312911
-0.027175972 -0.27175975 -0.20130868
-0.027014397 -0.2971583 -0.20938759
-0.02685466 -0.32225585 -0.21737432
-0.02669687 -0.34705931 -0.2252638
-0.026540857 -0.3715719 -0.23306456
-0.026386723 -0.39580083 -0.24077123
-0.026234303 -0.41974878 -0.24839221
-0.026083698 -0.44342285 -0.25592244
-0.025934748 -0.46682543 -0.26336992
-0.025787557 -0.48996347 -0.2707296
-0.025641959 -0.5128392 -0.27800936
0 0.9464336 0.19254741
0 0.90440315 0.17912951
0 0.86300868 0.16590995
0 0.82224131 0.15289539
0 0.7820816 0.14006996
0 0.74252123 0.12744069
0 0.70354176 0.11499223
0 0.66513556 0.10273141
0 0.62728542 0.090643674
0 0.58998334 0.078735322
0 0.55321395 0.066992655
0 0.51696944 0.055422053
0 0.48123524 0.044009939
0 0.44600362 0.032762647
0 0.41126144 0.021667272
0 0.37700102 0.010730103
0 0.34321016 -6.1437488e-05
0 0.30988121 -0.010701224
0 0.2770032 -0.02120126
0 0.24456826 -0.031555623
0 0.21256647 -0.041775823
0 0.18099019 -0.051855993
0 0.14983004 -0.061807595
0 0.11907867 -0.071624428
0 0.088727385 -0.081317589
0 0.058769096 -0.090881273
0 0.029195637 -0.10032605
0 -1.8626451e-08 -0.1096462
0 -0.028825052 -0.11885203
0 -0.057286769 -0.12793788
0 -0.085391536 -0.1369137
0 -0.11314663 -0.1457739
0 -0.14055784 -0.15452829
0 -0.1676323 -0.1631712
0 -0.19437532 -0.1717121
0 -0.22079389 -0.18014558
0 -0.24689271 -0.18848091
0 -0.27267891 -0.19671254
0 -0.29815668 -0.20484941
0 -0.32333297 -0.21288636
0 -0.34821159 -0.22083195
0 -0.37279937 -0.228681
0 -0.39709964 -0.23644188
0 -0.42111927 -0.24410944
0 -0.44486105 -0.25169206
0 -0.46833211 -0.2591846
0 -0.49153468 -0.26659495
0.035206184 0.95056695 0.20020172
0.03493537 0.90831971 0.18666121
0.034668803 0.86672014 0.17333287
0.034406163 0.82574797 0.1602008
0.034147587 0.78539443 0.14727184
0.033892751 0.74564052 0.13453019
0.033641804 0.70647788 0.12198284
0.033394437 0.66788876 0.10961452
0.033150788 0.62986505 0.097432077
0.032910567 0.59239018 0.085420847
0.032673899 0.55545622 0.073587477
0.032440513 0.51904821 0.061918333
0.032210536 0.48315811 0.05041948
0.0319837 0.44777182 0.039077669
0.03176013 0.41288173 0.027899221
0.031539571 0.37847492 0.016871259
0.031322148 0.34454367 0.0060001165
0.031107701 0.311077 -0.0047222376
0.030896081 0.27806476 -0.015303239
0.03068741 0.2454993 -0.025736786
0.03048145 0.21337023 -0.036034822
0.030278325 0.18166998 -0.046191141
0.030077802 0.15038905 -0.056217235
0.029880002 0.11952002 -0.066107169
0.029684702 0.089054137 -0.075872287
0.029492022 0.058984078 -0.085506119
0.029301748 0.029301774 -0.095019937
0.029113991 8.1956387e-08 -0.10440777
0.028928548 -0.028928507 -0.11367998
0.028745526 -0.057491042 -0.12283094
0.028564733 -0.085694134 -0.1318707
0.028386274 -0.11354501 -0.14079367
0.028209956 -0.14104976 -0.14960954
0.028035888 -0.16821526 -0.15831292
0.027863882 -0.19504714 -0.1669132
0.027694048 -0.22155234 -0.17540494
0.027526198 -0.2477358 -0.18379728
0.027360443 -0.27360439 -0.19208516
0.027196601 -0.29916257 -0.20027727
0.02703478 -0.32441735 -0.20836835
0.026874807 -0.34937236 -0.21636707
0.026716778 -0.37403485 -0.22426841
0.026560534 -0.39840797 -0.23208067
0.026406171 -0.42249864 -0.23979878
0.026253529 -0.44630992 -0.24743092
0.026102703 -0.46984863 -0.25497213
0.025953537 -0.49311715 -0.26243049
0.070720993 0.95473337 0.20791739
0.070174858 0.91227317 0.19426405
0.069636859 0.87046075 0.18081418
0.069107287 0.82928735 0.1675747
0.068585694 0.78873551 0.15453497
0.068071708 0.74878871 0.14168516
0.067565575 0.7094385 0.12903202
0.067066707 0.67066705 0.11656022
0.066575356 0.63246578 0.10427642
0.066090949 0.59481847 0.092166245
0.065613739 0.55771679 0.080236137
0.065143175 0.52114546 0.068472043
0.064679511 0.48509634 0.05688037
0.064222202 0.44955546 0.045447707
0.063771509 0.4145149 0.034180418
0.06332691 0.37996146 0.023065284
0.062888645 0.3458876 0.012108877
0.062456232 0.31228119 0.0012984723
0.062029902 0.27913457 -0.0093597919
0.061609171 0.24643679 -0.019878
0.061194293 0.21418005 -0.030250095
0.060784779 0.18235439 -0.040487789
0.060380895 0.15095225 -0.050585013
0.059982166 0.11996437 -0.060553305
0.059588835 0.08938323 -0.070386499
0.059200466 0.059200525 -0.080095693
0.058817286 0.029408734 -0.089675181
0.058438879 4.4703484e-08 -0.099135384
0.058065467 -0.029032715 -0.10847075
0.057696637 -0.057696652 -0.11769151
0.05733262 -0.085998945 -0.12679195
0.05697301 -0.11394592 -0.13578205
0.056618039 -0.14154507 -0.14465627
0.056267317 -0.16880193 -0.15342443
0.055921059 -0.19572361 -0.16208097
0.055578891 -0.22231555 -0.1706351
0.055241026 -0.24858455 -0.17908172
0.054907106 -0.27453548 -0.18742979
0.054577332 -0.30017525 -0.19567397
0.054251362 -0.32550818 -0.20382327
0.0539294 -0.35054109 -0.21187234
0.053611096 -0.37527767 -0.21982977
0.05329667 -0.39972493 -0.22769064
0.052985776 -0.42388618 -0.23546299
0.052678615 -0.44776815 -0.24314199
0.05237487 -0.47137374 -0.2507357
0.05207473 -0.49470991 -0.25823903
0.10654885 0.95893967 0.2157068
0.10572244 0.91626114 0.20193323
0.10490841 0.8742367 0.18836606
0.10410716 0.83285737 0.17501205
0.10331772 0.79210252 0.16185459
0.10254049 0.75196362 0.14890087
0.10177454 0.71242177 0.13613498
0.10102028 0.67346859 0.123564
0.10027679 0.6350863 0.11117244
0.099544473 0.59726679 0.098967165
0.098822482 0.5599941 0.086933941
0.098111182 0.52325964 0.075078964
0.097409748 0.48704875 0.063388377
0.096718565 0.45135337 0.051868722
0.096036837 0.41615969 0.040506661
0.095364936 0.38145977 0.02930823
0.094702095 0.34724107 0.018260911
0.094048679 0.31349558 0.0073705316
0.093403935 0.28021187 -0.0033750534
0.092768252 0.24738201 -0.013969831
0.092140891 0.21499544 -0.024425782
0.091522224 0.18304454 -0.034736931
0.090911545 0.15151931 -0.044914857
0.090309225 0.12041229 -0.054953538
0.089714579 0.089714684 -0.064864323
0.089127958 0.059418686 -0.074641407
0.08854872 0.029516287 -0.084295347
0.087977201 6.3329935e-08 -0.093820684
0.087412775 -0.0291375 -0.10322779
0.086855777 -0.057903796 -0.11251108
0.086305596 -0.086305588 -0.12168076
0.085762583 -0.11435007 -0.13073094
0.085226119 -0.14204341 -0.13967198
0.084696561 -0.16939312 -0.14849794
0.084173314 -0.1964044 -0.15721874
0.083656721 -0.22308452 -0.1658287
0.0831462 -0.24943861 -0.17433727
0.082642093 -0.27547356 -0.18273911
0.082143858 -0.30119413 -0.19104317
0.081651799 -0.32660717 -0.1992441
0.081165388 -0.35171667 -0.20735091
0.080684945 -0.37652963 -0.21535835
0.080209948 -0.40104973 -0.22327475
0.079740725 -0.42528388 -0.2310953
0.079276748 -0.44923484 -0.23882817
0.078818344 -0.47291005 -0.24646826
0.07836502 -0.49631178 -0.2540237
0.1426938 0.96318322 0.22356519
0.14158173 0.92028123 0.2096642
0.1404873 0.87804568 0.19598389
0.13940921 0.83645529 0.18250778
0.138348 0.79550099 0.16924262
0.13730237 0.75516307 0.15617231
0.13627288 0.71543258 0.14330357
0.13525826 0.67629135 0.13062096
0.13425907 0.63773066 0.11813113
0.13327412 0.59973359 0.10581923
0.13230394 0.56229168 0.093691722
0.13134734 0.52538943 0.081734583
0.13040492 0.48901844 0.069954023
0.12947589 0.45316571 0.058341369
0.12855963 0.41781878 0.046888098
0.12765664 0.38296992 0.035600618
0.12676585 0.34860611 0.02446577
0.1258878 0.3147195 0.013490111
0.12502144 0.28129831 0.0026606619
0.1241673 0.24833465 -0.0080161095
0.12332439 0.21581776 -0.018552482
0.1224932 0.18373978 -0.028942481
0.12167279 0.15209103 -0.039197531
0.12086363 0.12086367 -0.049311895
0.12006484 0.090048708 -0.05929682
0.11927687 0.059638504 -0.069146506
0.11849884 0.029624766 -0.078871906
0.11773122 1.1175871e-08 -0.088467196
0.11697316 -0.029243268 -0.097942904
0.11622512 -0.058112547 -0.10729335
0.11548627 -0.086614616 -0.11652908
0.11475707 -0.11475702 -0.12564404
0.11403671 -0.14254576 -0.13464856
0.11332563 -0.16998836 -0.14353694
0.11262308 -0.19709037 -0.15231888
0.11192947 -0.22385886 -0.16098896
0.11124407 -0.25029913 -0.16955651
0.11056729 -0.27641821 -0.17801623
0.10989842 -0.30222052 -0.18637711
0.10923788 -0.32771361 -0.19463393
0.10858495 -0.35290104 -0.20279549
0.10794004 -0.37779012 -0.21085684
0.10730249 -0.40238428 -0.21882625
0.1066727 -0.4266907 -0.22669879
0.10604998 -0.45071232 -0.23448272
0.10543475 -0.47445631 -0.24217296
0.10482636 -0.49792522 -0.24977779
0.17916009 0.96746445 0.2314935
0.17775765 0.92433971 0.21746904
0.17637758 0.88188791 0.20366836
0.17501819 0.84008729 0.19007456
0.17368017 0.7989288 0.17669436
0.1723619 0.75839233 0.16351151
0.17106402 0.7184689 0.15053284
0.16978502 0.67914015 0.13774294
0.16852552 0.64039707 0.125148
0.16728406 0.60222268 0.11273319
0.16606127 0.56460828 0.10050534
0.1648557 0.52753836 0.088449836
0.16366804 0.49100414 0.076572955
0.16249685 0.45499116 0.064861149
0.16134281 0.41949126 0.053320691
0.16020454 0.384491 0.041938171
0.15908271 0.34998202 0.030719817
0.15797602 0.31595206 0.019652814
0.15688507 0.28239322 0.0087434053
0.15580864 0.24929385 -0.0020209551
0.15474732 0.21664628 -0.012634143
0.15369992 0.1844399 -0.023108102
0.15266705 0.15266711 -0.033436909
0.15164752 0.12131806 -0.043632068
0.15064196 0.090385176 -0.053687807
0.14964922 0.059859693 -0.063615158
0.14866988 0.029734015 -0.07340835
0.14770289 1.1175871e-07 -0.083078414
0.1467488 -0.029349757 -0.092619441
0.14580655 -0.058322601 -0.10204193
0.14487672 -0.086925961 -0.11134031
0.14395826 -0.11516654 -0.1205247
0.14305179 -0.14305168 -0.12958948
0.14215626 -0.17058745 -0.13854477
0.14127226 -0.19778106 -0.14738473
0.14039882 -0.2246381 -0.15611908
0.13953647 -0.25116566 -0.16474256
0.13868429 -0.27736855 -0.1732644
0.13784282 -0.30325416 -0.1816791
0.13701114 -0.3288267 -0.1899959
0.13618979 -0.35409334 -0.19820948
0.13537788 -0.379058 -0.20632851
0.13457593 -0.40372771 -0.21434803
0.13378309 -0.42810589 -0.22227639
0.13299988 -0.45219964 -0.23010851
0.13222545 -0.47601157 -0.23785289
0.13146032 -0.49954909 -0.2455042
0.21595126 0.97178066 0.23948634
0.21425405 0.92843425 0.2253432
0.21258262 0.88576096 0.21141446
0.21093775 0.84375107 0.19770733
0.20931745 0.8023836 0.18420482
0.20772253 0.76164937 0.17091388
0.20615108 0.72152877 0.15781826
0.20460388 0.68201292 0.14492491
0.20307907 0.64308381 0.13221827
0.20157748 0.60473239 0.11970493
0.20009726 0.56694227 0.10736993
0.1986393 0.52970481 0.095220119
0.19720238 0.49300599 0.083245948
0.19578554 0.45683295 0.07143876
0.1943889 0.42117596 0.059800029
0.19301261 0.38602531 0.048331097
0.1916557 0.35136878 0.037023395
0.19031714 0.3171953 0.025868773
0.18899773 0.28349656 0.014873639
0.18769592 0.25026131 0.0040253103
0.18641247 0.21748132 -0.0066701174
0.18514591 0.18514597 -0.017224729
0.18389699 0.15324751 -0.027632475
0.18266428 0.12177622 -0.037905108
0.18144849 0.090724312 -0.048036546
0.18024828 0.060082778 -0.058038376
0.17906433 0.029844135 -0.067904457
0.17789537 4.0978193e-08 -0.077646025
0.17674203 -0.029457003 -0.087257065
0.17560308 -0.058534354 -0.096748397
0.1744792 -0.087239556 -0.10611416
0.17336911 -0.1155794 -0.11536469
0.17227355 -0.1435613 -0.12449437
0.17119128 -0.17119128 -0.13351323
0.17012298 -0.19847681 -0.14241573
0.16906749 -0.22542328 -0.15121157
0.16802545 -0.25203806 -0.15989527
0.16699573 -0.27832621 -0.16847613
0.16597901 -0.30429482 -0.1769489
0.16497415 -0.32994825 -0.18532276
0.16398183 -0.35529387 -0.19359231
0.16300093 -0.38033542 -0.2017663
0.16203211 -0.40508026 -0.20983975
0.16107434 -0.42953151 -0.21782124
0.16012822 -0.45369667 -0.2257054
0.15919277 -0.47757822 -0.23350093
0.15826857 -0.50118375 -0.24120258
0.25307304 0.97613883 0.24755713
0.25107524 0.93256533 0.2332873
0.24910791 0.88967109 0.21923479
0.24717198 0.8474468 0.20540681
0.24526511 0.80587113 0.19178623
0.24338822 0.76493454 0.17838004
0.24153906 0.72461724 0.16517177
0.23971857 0.68491018 0.15216804
0.23792453 0.64579523 0.1393536
0.23615791 0.60726333 0.12673503
0.23441659 0.56929743 0.11429688
0.23270151 0.53188914 0.10204621
0.2310106 0.49502277 0.089968428
0.2293448 0.45868963 0.078069821
0.22770216 0.42287549 0.066336647
0.22608356 0.38757193 0.054775283
0.22448714 0.35276562 0.043372303
0.22291379 0.31844831 0.032133937
0.22136165 0.28460783 0.021047309
0.21983165 0.2512362 0.010118693
0.21832199 0.21832204 -0.00066453218
0.21683358 0.18585746 -0.011296123
0.21536469 0.153832 -0.021788105
0.21391618 0.12223788 -0.032134563
0.21248643 0.091065601 -0.042347137
0.21107626 0.06030748 -0.052419845
0.20968409 0.029954903 -0.062363964
0.20831074 -2.6077032e-08 -0.072173491
0.20695469 -0.029564848 -0.081859536
0.20561676 -0.058747567 -0.091416143
0.20429546 -0.087555215 -0.10085411
0.20299158 -0.11599515 -0.11016754
0.20170368 -0.14407408 -0.11936678
0.20043255 -0.17179927 -0.12844619
0.19917685 -0.19917683 -0.13741557
0.19793728 -0.22621402 -0.14626966
0.19671254 -0.2529161 -0.15501785
0.19550335 -0.27929056 -0.16365476
0.19430844 -0.30534184 -0.17218974
0.19312857 -0.33107758 -0.1806176
0.19196244 -0.35650164 -0.1889472
0.19081078 -0.38162154 -0.19717315
0.18967238 -0.40644073 -0.20530465
0.18854797 -0.43096679 -0.21333614
0.18743633 -0.4552024 -0.22127648
0.18633819 -0.4791553 -0.22912031
0.18525238 -0.50282788 -0.23687603
0.29052928 0.9805364 0.25570071
0.28822458 0.93672979 0.2412962
0.2859571 0.89361596 0.22712457
0.2837241 0.85117233 0.2131682
0.2815266 0.809389 0.19943389
0.27936199 0.76824546 0.18590501
0.27723131 0.72773218 0.17258829
0.27513197 0.68782997 0.15946749
0.27306509 0.64852965 0.14654955
0.27102816 0.60981345 0.13381872
0.26902226 0.57167232 0.12128174
0.26704496 0.53408992 0.10892366
0.26509738 0.49705762 0.096751183
0.26317716 0.46056008 0.084749877
0.26128536 0.4245888 0.072926253
0.25942057 0.38913092 0.061271295
0.25758144 0.35417449 0.049776599
0.25576895 0.31971127 0.038448751
0.25398105 0.28572878 0.027274296
0.25221875 0.25221872 0.01625967
0.25047994 0.21917 0.0053922459
0.24876498 0.18657373 -0.0053262934
0.24707404 0.15442128 -0.015894651
0.24540523 0.12270264 -0.026324663
0.2437595 0.091409855 -0.036610387
0.24213505 0.060533796 -0.046763491
0.24053273 0.03006665 -0.056777708
0.23895083 1.0430813e-07 -0.066664591
0.23739028 -0.02967377 -0.076418087
0.23584931 -0.058962241 -0.086049095
0.23432888 -0.087873295 -0.095551975
0.23282726 -0.11641361 -0.10493703
0.23134543 -0.14459087 -0.11419842
0.22988169 -0.1724112 -0.12334683
0.22843698 -0.19988234 -0.13237613
0.2270097 -0.22700964 -0.1412967
0.22560076 -0.25380072 -0.15010263
0.22420859 -0.28026068 -0.15880361
0.22283413 -0.3063969 -0.16739416
0.22147579 -0.33221361 -0.17588373
0.2201345 -0.35771853 -0.18426685
0.21880879 -0.38291529 -0.19255254
0.21749951 -0.40781149 -0.20073551
0.21620524 -0.43241051 -0.20882457
0.21492684 -0.45671952 -0.21681453
0.21366294 -0.48074162 -0.224714
0.21241434 -0.504484 -0.2325177
0.32832339 0.98497021 0.26391152
0.3257083 0.94093513 0.2493833
0.32313347 0.89759296 0.23507842
0.32060006 0.85493356 0.22100422
0.31810504 0.81293511 0.2071428
0.31564957 0.77158785 0.19350129
0.31323171 0.73087394 0.18006888
0.31084961 0.69077694 0.16683507
0.30850449 0.65128732 0.15380645
0.3061935 0.612387 0.14096755
0.30391783 0.574067 0.12832497
0.30167478 0.53631073 0.11586361
0.29946554 0.49910924 0.10359003
0.29728746 0.46244723 0.091489747
0.29514182 0.42631596 0.079569384
0.29302597 0.39070132 0.067814767
0.29094118 0.35559475 0.056232393
0.28888494 0.32098323 0.044808879
0.28685841 0.2868585 0.033550575
0.28485927 0.25320828 0.022444196
0.28288865 0.22002462 0.011496373
0.28094432 0.18729621 0.0006942451
0.27902728 0.15501522 -0.0099557638
