# .PCD v0.7 - Point Cloud Data file format
VERSION 0.7
FIELDS x y z
SIZE 4 4 4
TYPE F F F
COUNT 1 1 1
WIDTH 1370
HEIGHT 1
VIEWPOINT 0 0 0 1 0 0 0
POINTS 1370
DATA ascii
-0.46379104 -0.55654919 -0.014137208
-0.46696877 -0.59149384 -0.0035446882
-0.47019175 -0.62692237 0.0071985424
-0.47345814 -0.66284132 0.018086433
-0.47677162 -0.699265 0.029131413
-0.48013037 -0.73619986 0.040327191
-0.48353827 -0.77366126 0.051686883
-0.48699334 -0.81165564 0.063203931
-0.49049971 -0.85019946 0.074891716
-0.49405542 -0.88929963 0.086743951
-0.49766457 -0.92897373 0.098774433
-0.50132525 -0.9692288 0.11097685
-0.34310874 0.51466316 -0.33471894
-0.34496951 0.49281362 -0.32807344
-0.34685135 0.47072685 -0.3213526
-0.34875298 0.44839674 -0.31456095
-0.35067645 0.42582145 -0.30769145
-0.35262039 0.40299478 -0.3007488
-0.35458687 0.37991458 -0.29372564
-0.35657454 0.35657454 -0.28662694
-0.35858548 0.33297229 -0.2794449
-0.36061838 0.30910155 -0.27218458
-0.36267531 0.28495917 -0.26483837
-0.36475495 0.26053926 -0.25741106
-0.3668586 0.23583768 -0.24989806
-0.36898756 0.2108501 -0.24229461
-0.37114045 0.18557024 -0.23460573
-0.37331957 0.15999414 -0.22682326
-0.37552342 0.13411555 -0.21895219
-0.37775448 0.10792984 -0.21098426
-0.3800112 0.081431009 -0.20292459
-0.38229603 0.054613784 -0.19476449
-0.38460749 0.027472004 -0.18650919
-0.38694808 7.4505806e-08 -0.17814994
-0.38931635 -0.027808309 -0.16969186
-0.39171478 -0.055959206 -0.16112593
-0.39414191 -0.084458992 -0.15245767
-0.39660037 -0.11331435 -0.14367743
-0.39908862 -0.14253157 -0.13479087
-0.40160936 -0.17211834 -0.12578806
-0.40416107 -0.20208052 -0.11667492
-0.40674654 -0.23242657 -0.10744118
-0.40936413 -0.26316252 -0.098092534
-0.41201681 -0.29429764 -0.088618733
-0.41470292 -0.32583797 -0.079025507
-0.41742545 -0.35779315 -0.069302201
-0.42018279 -0.39016968 -0.05945456
-0.42297798 -0.42297804 -0.049471676
-0.42580941 -0.45622435 -0.03935951
-0.42868021 -0.4899202 -0.029106498
-0.43158877 -0.52407199 -0.018718958
-0.4345383 -0.55869198 -0.0081848204
-0.43752718 -0.59378684 0.0024897158
-0.44055876 -0.62936962 0.013316721
-0.44363126 -0.66544688 0.024290085
-0.44674698 -0.7020309 0.035417557
-0.44990811 -0.73913467 0.046707213
-0.4531129 -0.77676499 0.058153123
-0.45636511 -0.81493765 0.069767982
-0.45966288 -0.85365957 0.08154586
-0.46301013 -0.89294803 0.093500316
-0.46640503 -0.93281007 0.10562494
-0.46985158 -0.97326398 0.11793402
-0.31957179 0.51623142 -0.33098501
-0.32131094 0.49432451 -0.32429606
-0.32306835 0.47217685 -0.31753668
-0.32484588 0.44978666 -0.31070009
-0.3266423 0.42714766 -0.30379075
-0.32845947 0.40425786 -0.29680163
-0.33029619 0.38111097 -0.28973746
-0.33215436 0.35770473 -0.2825906
-0.33403274 0.33403274 -0.27536604
-0.33593333 0.3100923 -0.26805615
-0.33785483 0.2858772 -0.26066574
-0.33979926 0.2613841 -0.25318712
-0.34176534 0.23660687 -0.2456252
-0.34375522 0.21154167 -0.23797195
-0.3457675 0.18618251 -0.23023245
-0.34780437 0.16052514 -0.22239827
-0.34986448 0.13456325 -0.21447484
-0.35195002 0.10829236 -0.20645344
-0.3540597 0.081706099 -0.19833925
-0.35619572 0.0547994 -0.19012383
-0.35835674 0.027565934 -0.18181211
-0.3605451 -0 -0.17339538
-0.36275941 -0.027904548 -0.16487888
-0.36500201 -0.056154165 -0.15625343
-0.36727157 -0.084754854 -0.14752439
-0.36957049 -0.11371392 -0.13868234
-0.3718974 -0.14303736 -0.12973274
-0.37425378 -0.17273241 -0.12066984
-0.37664121 -0.20280674 -0.11148725
-0.3790583 -0.23326662 -0.10219071
-0.38150766 -0.26412052 -0.092770196
-0.38398781 -0.29537523 -0.083231166
-0.38650149 -0.32703969 -0.073563203
-0.38904721 -0.35912049 -0.063771918
-0.39162779 -0.39162773 -0.053846642
-0.39424172 -0.42456791 -0.043793157
-0.39689189 -0.45795214 -0.033600122
-0.39957681 -0.49178678 -0.023273498
-0.40229943 -0.52608383 -0.012801766
-0.40505826 -0.56084985 -0.0021908581
-0.4078564 -0.59609783 0.0085711479
-0.41069224 -0.63183415 0.019478083
-0.41356903 -0.66807294 0.030542612
-0.4164851 -0.70482087 0.041758448
-0.41944394 -0.74209303 0.053138524
-0.42244375 -0.77989608 0.064676285
-0.42548811 -0.8182463 0.076385468
-0.42857537 -0.85715079 0.088259488
-0.43170911 -0.89662659 0.10031229
-0.43488765 -0.93668097 0.11253729
-0.43811327 -0.97732961 0.12494379
-0.2975069 0.49584481 -0.3204954
-0.29913914 0.47363701 -0.31369421
-0.30079013 0.4511852 -0.30681521
-0.3024587 0.42848319 -0.2998628
-0.30414662 0.40552881 -0.29282981
-0.30585277 0.38231596 -0.28572085
-0.30757815 0.35884124 -0.2785317
-0.30932385 0.33510089 -0.27125794
-0.31108874 0.31108874 -0.26390427
-0.31287464 0.28680173 -0.25646305
-0.3146804 0.26223373 -0.24893899
-0.31650791 0.237381 -0.24132435
-0.31835595 0.21223733 -0.23362419
-0.32022652 0.18679886 -0.22583008
-0.32211843 0.16105922 -0.21794726
-0.32403362 0.13501401 -0.2099674
-0.32597086 0.10865699 -0.20189545
-0.32793227 0.081983045 -0.19372293
-0.32991657 0.054986089 -0.18545499
-0.33192587 0.027660534 -0.17708287
-0.33395895 3.7252903e-08 -0.16861178
-0.33601797 -0.02800148 -0.16003254
-0.33810163 -0.056350335 -0.1513506
-0.3402122 -0.085053064 -0.14255652
-0.34234837 -0.1141161 -0.13365576
-0.34451246 -0.14354679 -0.12463868
-0.34670317 -0.17335159 -0.11551082
-0.34892285 -0.20353827 -0.10626207
-0.35117015 -0.23411344 -0.096898258
-0.35344762 -0.2650857 -0.087408885
-0.35575378 -0.29646137 -0.077799857
-0.35809126 -0.32825026 -0.068060413
-0.36045867 -0.36045855 -0.058196276
-0.36285856 -0.39309675 -0.048196629
-0.36528963 -0.42617124 -0.038067296
-0.36775345 -0.4596917 -0.027801335
-0.37025183 -0.49366909 -0.017391384
-0.3727833 -0.52810967 -0.0068436265
-0.37535074 -0.56302613 0.0038540363
-0.37795264 -0.59842497 0.014695346
-0.38059202 -0.63432002 0.025692731
-0.38326737 -0.67071784 0.036839962
-0.38598177 -0.7076332 0.048149973
-0.38873369 -0.74507284 0.059616327
-0.39152634 -0.78305256 0.071252376
-0.39435816 -0.82157952 0.083051711
-0.39723256 -0.86067045 0.095028162
-0.40014786 -0.90033257 0.10717529
-0.40310752 -0.94058424 0.11950737
-0.40611005 -0.98143256 0.1320177
-0.27355531 0.49737331 -0.31667417
-0.27506143 0.47510612 -0.30982801
-0.27658361 0.45259145 -0.30290908
-0.27812338 0.42982706 -0.29591012
-0.27967975 0.40680695 -0.28883579
-0.28125426 0.38352859 -0.28167883
-0.28284594 0.3599858 -0.27444386
-0.28445646 0.33617577 -0.26712355
-0.28608468 0.31209242 -0.25972241
-0.28773239 0.28773242 -0.25223285
-0.28939846 0.26308948 -0.2446599
-0.29108465 0.23816025 -0.23699532
-0.29278985 0.21293816 -0.22924434
-0.29451594 0.1874193 -0.2213985
-0.2962617 0.16159734 -0.2134631
-0.29802909 0.13546781 -0.20542969
-0.29981691 0.10902439 -0.19730334
-0.30162707 0.082261913 -0.1890752
-0.30345842 0.055174284 -0.18075076
-0.30531299 0.027755745 -0.17232107
-0.30718952 2.2351742e-08 -0.16379128
-0.30909011 -0.028099041 -0.15515229
-0.31101352 -0.056547884 -0.14640959
-0.31296101 -0.085352898 -0.13755731
-0.3149339 -0.11452135 -0.12858967
-0.31693095 -0.14405949 -0.1195121
-0.31895438 -0.17397501 -0.11031477
-0.32100293 -0.20427459 -0.10100325
-0.32307884 -0.23496635 -0.091567256
-0.32518089 -0.26605707 -0.082012475
-0.32731134 -0.29755571 -0.072328396
-0.329469 -0.329469 -0.062520906
-0.33165625 -0.36180675 -0.052578926
-0.33387175 -0.39457566 -0.042508528
-0.33611804 -0.42778659 -0.032298014
-0.33839378 -0.46144602 -0.021953881
-0.34070152 -0.49556577 -0.011464089
-0.34303996 -0.53015268 -0.00083482265
-0.34541175 -0.56521916 0.0099461079
-0.34781551 -0.60077214 0.020872265
-0.35025403 -0.6368255 0.031956434
-0.35272592 -0.67338574 0.043192208
-0.355234 -0.71046793 0.054592639
-0.35777694 -0.748079 0.06615141
-0.36035764 -0.78623486 0.077882022
-0.36297473 -0.82494253 0.089777768
-0.36563125 -0.86421931 0.10185286
-0.36832577 -0.9040724 0.11410075
-0.37106147 -0.94452012 0.12653571
-0.2494562 0.49891245 -0.31282628
-0.25083393 0.47658449 -0.30593765
-0.25222635 0.45400751 -0.2989755
-0.25363436 0.43117845 -0.29193556
-0.25505877 0.40809405 -0.28481352
-0.25649863 0.38474801 -0.27761418
-0.25795549 0.36113769 -0.27032995
-0.25942835 0.33725691 -0.26296556
-0.26091877 0.3131026 -0.25551346
-0.26242575 0.28866836 -0.24797858
-0.26395091 0.26395094 -0.24035284
-0.26549324 0.23894393 -0.23264116
-0.26705438 0.21364354 -0.2248355
-0.26863331 0.18804333 -0.21694088
-0.27023169 0.16213906 -0.20894894
-0.2718485 0.13592428 -0.20086482
-0.27348548 0.10939428 -0.19267982
-0.2751416 0.082542509 -0.18439938
-0.27681863 0.055363737 -0.17601424
-0.27851549 0.027851664 -0.16752997
-0.28023401 3.7252903e-08 -0.15893744
-0.28197312 -0.028197274 -0.1502417
-0.28373471 -0.056746971 -0.14143386
-0.28551766 -0.085655279 -0.13251892
-0.28732398 -0.11492953 -0.12348741
-0.2891525 -0.14457619 -0.1143449
-0.29100525 -0.17460309 -0.10508123
-0.29288104 -0.2050167 -0.095702052
-0.29478204 -0.23582555 -0.086197197
-0.29670703 -0.26703629 -0.076572187
-0.29865733 -0.29865724 -0.066820756
-0.30063426 -0.33069766 -0.056935996
-0.30263671 -0.36316407 -0.046923727
-0.30466688 -0.39606696 -0.036772892
-0.30672359 -0.42941296 -0.026489377
-0.30880916 -0.46321374 -0.016061619
-0.31092235 -0.49747571 -0.0054955631
-0.31306562 -0.53221148 0.0052206218
-0.31523767 -0.56742775 0.016081065
-0.31744105 -0.60313791 0.027097851
-0.31967446 -0.63934886 0.03826499
-0.32194051 -0.6760751 0.049595207
-0.32423791 -0.71332335 0.061082274
-0.32656935 -0.75110948 0.072739512
-0.32893354 -0.78944045 0.084560394
-0.33133328 -0.82833314 0.096558988
-0.33376721 -0.86779463 0.10872862
-0.33623821 -0.90784311 0.12108371
-0.33874503 -0.94848597 0.1336177
-0.22520746 0.5004611 -0.30895472
-0.22645463 0.47807088 -0.30202606
-0.22771621 0.45543247 -0.29501721
-0.22899139 0.43253934 -0.28793296
-0.23028149 0.40938938 -0.28076568
-0.23158562 0.38597614 -0.2735205
-0.23290521 0.36229703 -0.26618952
-0.23423932 0.33834577 -0.25877768
-0.23558941 0.31411931 -0.25127724
-0.23695455 0.28961113 -0.24369316
-0.23833621 0.26481807 -0.23601729
-0.23973347 0.23973353 -0.22825477
-0.24114782 0.21435358 -0.22039732
-0.24257833 0.18867202 -0.21245001
-0.24402592 0.16268399 -0.20440783
-0.2454915 0.13638425 -0.19626567
-0.24697419 0.10976633 -0.18802859
-0.24847552 0.082825214 -0.17968789
-0.24999458 0.055554386 -0.17124867
-0.25153294 0.027948208 -0.16270195
-0.25308973 5.9604645e-08 -0.15405321
-0.2546666 -0.028296284 -0.14529297
-0.25626251 -0.056947231 -0.13642673
-0.25787929 -0.085959665 -0.12744477
-0.25951585 -0.11534035 -0.1183526
-0.26117405 -0.14509663 -0.10914041
-0.26285288 -0.17523521 -0.09981367
-0.26455411 -0.20576426 -0.090362273
-0.26627681 -0.23669037 -0.080791853
-0.26802281 -0.26802278 -0.071091786
-0.2697911 -0.29976785 -0.061267808
-0.27158368 -0.33193552 -0.051309183
-0.27339944 -0.36453247 -0.041221604
-0.27524042 -0.39756948 -0.030993879
-0.27710557 -0.4310531 -0.020631924
-0.278997 -0.46499503 -0.010123938
-0.28091359 -0.4994019 0.00052365661
-0.28285754 -0.53428638 0.011323482
-0.28482771 -0.56965542 0.022268921
-0.2868264 -0.60552239 0.03337276
-0.28885245 -0.64189434 0.04462862
-0.29090735 -0.67878377 0.056044608
-0.29299259 -0.71620417 0.067629278
-0.29510793 -0.7541647 0.079381168
-0.29725313 -0.7926749 0.091298789
-0.29942968 -0.83174908 0.10339099
-0.30163938 -0.87140256 0.11566696
-0.30388093 -0.91164279 0.12812001
-0.30615702 -0.95248842 0.14076495
-0.20080727 0.50201815 -0.30506194
-0.20192327 0.4795678 -0.298087
-0.20305124 0.45686537 -0.29103708
-0.20419239 0.43390888 -0.28390494
-0.20534593 0.41069192 -0.27669528
-0.20651311 0.3872121 -0.26940054
-0.20769309 0.3634629 -0.26202559
-0.20888714 0.33944166 -0.25456268
-0.21009451 0.31514177 -0.24701667
-0.21131644 0.29056019 -0.23937964
-0.2125521 0.26569021 -0.2316566
-0.21380289 0.24052832 -0.22383931
-0.21506789 0.21506792 -0.21593292
-0.21634854 0.18930495 -0.20792906
-0.21764396 0.16323303 -0.19983262
-0.21895555 0.13684721 -0.19163522
-0.22028248 0.11014129 -0.18334192
-0.22162613 0.083109878 -0.17494392
-0.22298573 0.055746436 -0.16644654
-0.2243627 0.028045371 -0.15784045
-0.22575618 7.4505806e-09 -0.14913128
-0.22716768 -0.028395921 -0.14030938
-0.22859634 -0.057149027 -0.13138033
-0.23004369 -0.086266331 -0.12233435
-0.23150885 -0.11575443 -0.11317705
-0.23299345 -0.14562082 -0.10389835
-0.23449653 -0.17587239 -0.094503805
-0.23601918 -0.20651677 -0.084987536
-0.23756237 -0.2375623 -0.075342573
-0.23912519 -0.26901582 -0.065574847
-0.24070941 -0.30088672 -0.055673525
-0.24231407 -0.3331818 -0.045644477
-0.24394096 -0.36591142 -0.035476342
-0.24558914 -0.39908236 -0.025175184
-0.24726045 -0.43270576 -0.01472944
-0.24895395 -0.46678859 -0.0041451752
-0.25067157 -0.50134307 0.0065897405
-0.25241223 -0.536376 0.017469168
-0.25417808 -0.57190061 0.028505445
-0.25596797 -0.60792392 0.039692521
-0.25778407 -0.64446008 0.051043063
-0.25962532 -0.68151641 0.062550873
-0.26149386 -0.7191081 0.0742293
-0.26338866 -0.75724244 0.086071938
-0.26531199 -0.79593593 0.098092616
-0.26726276 -0.83519602 0.11028489
-0.26924327 -0.87504065 0.1226632
-0.27125248 -0.91547722 0.1352208
-0.27329284 -0.95652485 0.14797282
-0.17625517 0.50358617 -0.30114183
-0.17723779 0.48107398 -0.29412317
-0.178231 0.45830834 -0.28702879
-0.17923583 0.435287 -0.27985144
-0.18025163 0.4120037 -0.2725957
-0.18127945 0.38845599 -0.26525417
-0.1823186 0.36463729 -0.25783157
-0.1833702 0.34054464 -0.25032029
-0.18443353 0.31617182 -0.24272498
-0.18550974 0.29151529 -0.23503782
-0.18659809 0.26656872 -0.22726379
-0.18769932 0.24132773 -0.21939793
-0.18881407 0.2157876 -0.21143535
-0.18994169 0.18994172 -0.20338106
-0.19108333 0.16378576 -0.19522642
-0.19223829 0.1373131 -0.18697676
-0.19340779 0.11051873 -0.17862318
-0.19459109 0.083396286 -0.17017093
-0.19578949 0.055939846 -0.16161108
-0.19700222 0.02814322 -0.15294868
-0.19823059 6.7055225e-08 -0.14417467
-0.19947384 -0.028496269 -0.13529429
-0.20073333 -0.057352256 -0.12629792
-0.20200826 -0.086574905 -0.11719126
-0.20330006 -0.11617151 -0.10796411
-0.2046079 -0.1461484 -0.098622188
-0.20593329 -0.17651418 -0.089155301
-0.20727536 -0.20727527 -0.079569198
-0.20863561 -0.23844062 -0.069852889
-0.21001326 -0.27001703 -0.060012594
-0.21140984 -0.30201399 -0.050037161
-0.21282446 -0.33443838 -0.039932594
-0.21425879 -0.36730069 -0.02968742
-0.21571195 -0.40060782 -0.019307628
-0.21718559 -0.43437111 -0.0087816715
-0.21867888 -0.46859747 0.0018845946
-0.22019348 -0.50329936 0.012703225
-0.22172855 -0.53848356 0.023667932
-0.22328585 -0.57416356 0.03479147
-0.22486448 -0.61034644 0.046067566
-0.2264663 -0.64704645 0.057509005
-0.22809038 -0.6842711 0.069109768
-0.22973795 -0.72203344 0.08087793
-0.23141022 -0.76034772 0.092822611
-0.23310626 -0.79922134 0.10493726
-0.2348281 -0.83867168 0.11723617
-0.2365748 -0.87870628 0.12971255
-0.23834845 -0.91934401 0.14238158
-0.24014811 -0.96059233 0.15523627
-0.15154922 0.50516409 -0.29719719
-0.1523964 0.48258862 -0.29013738
-0.15325348 0.45976046 -0.28299505
-0.15411986 0.43667299 -0.2757751
-0.1549965 0.41332406 -0.26846984
-0.15588278 0.38970691 -0.26108429
-0.15677963 0.36581916 -0.25361043
-0.15768647 0.34165403 -0.24605346
-0.15860426 0.31720853 -0.23840523
-0.1595324 0.29247609 -0.23067066
-0.16047187 0.26745316 -0.22284178
-0.16142206 0.24213308 -0.21492359
-0.16238397 0.21651201 -0.20690754
-0.16335702 0.19058321 -0.19879887
-0.16434221 0.16434224 -0.19058897
-0.16533893 0.1377825 -0.18228292
-0.16634823 0.11089888 -0.17387202
-0.16736951 0.08368478 -0.16536132
-0.16840386 0.05613466 -0.15674187
-0.16945061 0.028241824 -0.14801899
-0.1705109 3.7252903e-08 -0.13918301
-0.17158411 -0.028597314 -0.13023989
-0.1726709 -0.057556931 -0.12118322
-0.17377201 -0.086885974 -0.11200728
-0.17488678 -0.11659116 -0.10271762
-0.17601644 -0.14668041 -0.093303785
-0.17716028 -0.17716026 -0.083771631
-0.17831959 -0.20803952 -0.074110791
-0.17949365 -0.23932485 -0.0643268
-0.18068382 -0.27102572 -0.054408856
-0.18188934 -0.30314887 -0.044362888
-0.18311158 -0.33570445 -0.034177542
-0.18434983 -0.36869955 -0.023858905
-0.18560547 -0.40214518 -0.013395041
-0.18687779 -0.43604821 -0.0027923733
-0.18816823 -0.47042054 0.0079612583
-0.18947606 -0.50526941 0.018859759
-0.19080275 -0.54060775 0.02991569
-0.1921476 -0.57644278 0.041122645
-0.19351211 -0.61278832 0.052493572
-0.19489554 -0.64965171 0.064022183
-0.19629951 -0.6870482 0.0757218
-0.19772322 -0.72498512 0.087586164
-0.19916837 -0.7634787 0.099629045
-0.20063415 -0.80253661 0.11184397
-0.20212235 -0.84217638 0.12424549
-0.2036321 -0.88240576 0.13682681
-0.20516527 -0.92324358 0.14960307
-0.20672099 -0.96469784 0.16256747
-0.12668796 0.50675184 -0.29322779
-0.1273984 0.48411399 -0.28612337
-0.12811716 0.46122181 -0.27893573
-0.12884378 0.43806884 -0.27166966
-0.12957899 0.41465276 -0.26431745
-0.13032231 0.39096701 -0.25688422
-0.13107422 0.36700782 -0.24936512
-0.13183519 0.34277144 -0.24175546
-0.13260472 0.31825134 -0.23406021
-0.1333836 0.29344395 -0.22627132
-0.13417137 0.26834276 -0.21839367
-0.13496883 0.24294391 -0.21041916
-0.13577548 0.21724077 -0.20235261
-0.13659216 0.19122908 -0.19418564
-0.1374184 0.16490217 -0.18592334
-0.13825504 0.13825512 -0.1775569
-0.13910158 0.11128128 -0.16909163
-0.1399589 0.083975479 -0.1605183
-0.14082649 0.056330655 -0.15184236
-0.14170529 0.028341118 -0.14305446
-0.14259474 2.2351742e-08 -0.13416004
-0.1434958 -0.02869904 -0.12514931
-0.14440794 -0.057763152 -0.11602799
-0.14533214 -0.087199301 -0.10678593
-0.14626785 -0.11701415 -0.097428888
-0.1472161 -0.14721599 -0.087946415
-0.1481763 -0.17781153 -0.078344345
-0.14914954 -0.20880932 -0.068612114
-0.1501352 -0.24021634 -0.058755293
-0.15113443 -0.27204192 -0.048763089
-0.15214661 -0.3042931 -0.038641423
-0.15317287 -0.33698019 -0.02837874
-0.15421262 -0.3701103 -0.017981157
-0.15526704 -0.40369421 -0.007436946
-0.15633552 -0.43773931 0.0032478422
-0.15741928 -0.47225779 0.014085427
-0.15851769 -0.50725663 0.025069535
-0.15963154 -0.54274714 0.036208034
-0.16076162 -0.57874197 0.047509044
-0.16190736 -0.61524796 0.058966279
-0.16307002 -0.65228009 0.07059294
-0.164249 -0.6898458 0.082382709
-0.16544567 -0.72796094 0.094349384
-0.16665938 -0.76663321 0.1064865
-0.16789156 -0.80587947 0.1188083
-0.16914156 -0.84570765 0.1313082
-0.17041086 -0.88613653 0.14400128
-0.17169879 -0.92717344 0.1568805
-0.17300691 -0.96883857 0.16996169
-0.10166968 0.50834846 -0.28923634
-0.10224187 0.48564893 -0.28208387
-0.10282031 0.4626914 -0.27485356
-0.10340557 0.43947372 -0.2675378
-0.10399727 0.41598913 -0.26014149
-0.10459605 0.39223519 -0.25265679
-0.10520149 0.36820531 -0.24508865
-0.10581426 0.3438963 -0.23742923
-0.10643392 0.31930184 -0.22968322
-0.10706117 0.29441831 -0.22184268
-0.10769558 0.26923898 -0.21391256
-0.10833783 0.24376017 -0.20588447
-0.1089875 0.21797501 -0.19776353
-0.1096453 0.1918793 -0.18954109
-0.11031081 0.16546629 -0.18122227
-0.11098473 0.13873097 -0.17279826
-0.11166663 0.11166667 -0.16427444
-0.11235727 0.084267944 -0.15564159
-0.1130562 0.056528132 -0.14690493
-0.11376388 0.028440997 -0.1380588
-0.11448079 9.6857548e-08 -0.12909748
-0.11520647 -0.028801624 -0.12002651
-0.11594173 -0.057970844 -0.11083559
-0.11668612 -0.087514684 -0.10153085
-0.11744046 -0.11744042 -0.092101753
-0.11820427 -0.14775532 -0.082553819
-0.11897843 -0.17846762 -0.07287702
-0.11976245 -0.2095843 -0.063076735
-0.12055722 -0.24111442 -0.053142145
-0.12136226 -0.27306503 -0.043079175
-0.12217847 -0.30544612 -0.032876462
-0.12300538 -0.3382647 -0.022540092
-0.12384392 -0.37153172 -0.012058318
-0.12469361 -0.4052541 -0.0014373213
-0.1255554 -0.43944392 0.0093351752
-0.12642881 -0.47410801 0.020252869
-0.12731485 -0.50925934 0.031328291
-0.128213 -0.54490519 0.042555228
-0.12912431 -0.58105934 0.053946525
-0.13004827 -0.61772925 0.065496087
-0.13098596 -0.65492976 0.077217042
-0.13193683 -0.69266844 0.089103252
-0.13290206 -0.73096132 0.10116836
-0.13388108 -0.76981616 0.11340606
-0.13487506 -0.80925035 0.12583086
-0.13588347 -0.84927142 0.13843587
-0.13690707 -0.88989592 0.15123102
-0.13794667 -0.93113983 0.16422585
-0.1390017 -0.97301179 0.17741388
-0.076493442 0.5099563 -0.28521666
-0.076925315 0.48719364 -0.27801874
-0.077361912 0.46417147 -0.27074221
-0.077803485 0.44088641 -0.26338261
-0.078250326 0.41733506 -0.25593531
-0.078702129 0.39351064 -0.24840525
-0.079159379 0.3694104 -0.24078444
-0.079621769 0.34502769 -0.23307782
-0.0800898 0.32035923 -0.22527736
-0.080563158 0.29539829 -0.217388
-0.081042357 0.27014124 -0.20940135
-0.081527077 0.24458131 -0.20132266
-0.082017846 0.21871427 -0.19314334
-0.082514338 0.19253349 -0.18486843
-0.083017103 0.16603419 -0.17648903
-0.083525807 0.1392097 -0.16801059
-0.084041007 0.11205476 -0.15942386
-0.084562384 0.084562436 -0.15073432
-0.085090488 0.05672697 -0.14193261
-0.085625 0.02854171 -0.13302401
-0.086166508 1.1175871e-08 -0.12399887
-0.08671467 -0.028904881 -0.11486281
-0.087270088 -0.058180057 -0.10560582
-0.087832429 -0.087832324 -0.096233502
-0.088402309 -0.11786972 -0.086735457
-0.088979386 -0.1482989 -0.077117592
-0.089564294 -0.17912854 -0.067369133
-0.090156689 -0.21036553 -0.057495899
-0.090757228 -0.24201918 -0.047486931
-0.091365561 -0.27409661 -0.03734798
-0.091982111 -0.30660695 -0.027072251
-0.092607297 -0.33956003 -0.016652346
-0.093240775 -0.37296304 -0.0060944259
-0.093883254 -0.40682739 0.0046135187
-0.09453436 -0.44116032 0.015465394
-0.095194861 -0.47597423 0.026473507
-0.095864356 -0.51127648 0.037631899
-0.096543632 -0.54708052 0.048953071
-0.097232297 -0.58339381 0.060430914
-0.097931169 -0.62023067 0.072078884
-0.098639853 -0.65759891 0.08389011
-0.099359177 -0.69551408 0.095878869
-0.10008875 -0.73398411 0.10803851
-0.10082944 -0.77302575 0.12038341
-0.10158085 -0.81264675 0.13290688
-0.10234388 -0.85286558 0.14562395
-0.10311812 -0.89369029 0.15852791
-0.1039045 -0.93514049 0.17163435
-0.10470262 -0.97722435 0.18493634
-0.051157441 0.51157445 -0.28117138
-0.051447067 0.48874721 -0.27393061
-0.051740117 0.46566102 -0.26660442
-0.052036397 0.44230944 -0.25919732
-0.05233622 0.41868982 -0.2517018
-0.052639388 0.39479548 -0.24412262
-0.052946225 0.37062359 -0.23645177
-0.053256519 0.34616733 -0.22869444
-0.053570613 0.32142371 -0.22084209
-0.053888287 0.29638559 -0.21290013
-0.054209761 0.27104884 -0.20486332
-0.054535229 0.24540859 -0.19672664
-0.054864489 0.21945804 -0.1884951
-0.055197891 0.19319266 -0.18016011
-0.055535223 0.16660568 -0.17172676
-0.055876855 0.1396922 -0.16318588
-0.056222565 0.11244518 -0.15454316
-0.056572732 0.084859118 -0.14578912
-0.056927133 0.056927141 -0.13692901
-0.057286158 0.028643042 -0.1279534
-0.057649583 7.0780516e-08 -0.11886778
-0.058017809 -0.029008884 -0.10966211
-0.05839061 -0.058390584 -0.10034217
-0.058768388 -0.088152565 -0.090897545
-0.059150927 -0.11830186 -0.081334129
-0.059538644 -0.14884654 -0.071641169
-0.059931312 -0.17979386 -0.061824538
-0.060329363 -0.21115266 -0.051873311
-0.060732562 -0.24293019 -0.041793339
-0.061141364 -0.27513611 -0.031573199
-0.061555527 -0.30777761 -0.021219179
-0.061975516 -0.34086531 -0.010719344
-0.062401097 -0.37440658 -7.9840422e-05
-0.06283275 -0.40841281 0.010711402
-0.063270226 -0.44289163 0.021648452
-0.063714035 -0.47785524 0.032743454
-0.064163908 -0.51331127 0.043990403
-0.064620383 -0.54927325 0.055402234
-0.065083198 -0.58574879 0.066972643
-0.06555289 -0.62275243 0.078715056
-0.066029213 -0.66029215 0.090623021
-0.066512719 -0.69838351 0.10271057
-0.067003131 -0.73703444 0.11497101
-0.067500845 -0.77625966 0.12741378
-0.068006217 -0.81607461 0.14004809
-0.068518996 -0.85648727 0.15286747
-0.069039792 -0.89751732 0.16588745
-0.069568336 -0.93917239 0.17910087
-0.070105262 -0.98147357 0.19252422
-0.025660077 0.51320159 -0.27710345
-0.025805878 0.49031171 -0.26981342
-0.025953284 0.46715909 -0.26244321
-0.026102446 0.44374156 -0.25498509
-0.026253266 0.42005229 -0.24744397
-0.026405906 0.39608863 -0.23981188
-0.026560266 0.37184376 -0.23209397
-0.026716508 0.3473146 -0.22428194
-0.026874531 0.32249439 -0.21638077
-0.027034504 0.29737958 -0.2083821
-0.027196323 0.27196324 -0.20029126
-0.027360162 0.24624152 -0.19209926
-0.027525915 0.22020733 -0.18381163
-0.027693758 0.19385639 -0.17541933
-0.02786359 0.16718157 -0.16692786
-0.028035592 0.14017794 -0.15832776
-0.028209655 0.11283866 -0.14962463
-0.028385969 0.085157901 -0.14080888
-0.028564425 0.057128899 -0.13188615
-0.028745217 0.028745297 -0.12284657
-0.028928231 3.7252903e-08 -0.11369585
-0.029113671 -0.029113661 -0.10442388
-0.029301424 -0.058602784 -0.095036291
-0.029491695 -0.088475078 -0.085522622
-0.02968437 -0.11873749 -0.075888842
-0.029879663 -0.14939836 -0.066124141
-0.030077459 -0.18046474 -0.056234382
-0.030277891 -0.21194518 -0.04621283
-0.030481098 -0.24384871 -0.036052413
-0.030686967 -0.27618265 -0.025759086
-0.030895721 -0.30895716 -0.015321299
-0.031107243 -0.34217972 -0.004745096
-0.031321775 -0.37586123 0.0059815049
-0.031539194 -0.4100095 0.016852468
-0.03175975 -0.44463637 0.027880102
-0.031983312 -0.47974962 0.039058268
-0.032210145 -0.51536226 0.050399736
-0.032440115 -0.55148184 0.061898306
-0.032673493 -0.5881229 0.073567435
-0.032910157 -0.6252929 0.085400343
-0.033150371 -0.66300738 0.097411156
-0.033394016 -0.70127428 0.10959342
-0.033641376 -0.74011022 0.12196141
-0.033892319 -0.77952337 0.13450858
-0.034147143 -0.81953144 0.14724988
-0.034405716 -0.86014289 0.16017848
-0.034668349 -0.90137702 0.1733101
-0.034934908 -0.94324243 0.18663803
0 0.51484036 -0.2730065
0 0.49188638 -0.2656697
0 0.46866798 -0.25825191
0 0.4451831 -0.25074539
0 0.42142478 -0.24315509
0 0.39739037 -0.23547298
0 0.37307298 -0.22770399
0 0.3484686 -0.21984345
0 0.32357311 -0.21188612
0 0.29837945 -0.20383722
0 0.27288389 -0.1956881
0 0.2470794 -0.18744405
0 0.22096176 -0.17909622
0 0.19452405 -0.17064983
0 0.16776145 -0.16209568
0 0.1406668 -0.1534394
0 0.11323488 -0.14467147
0 0.085458577 -0.13579737
0 0.057332035 -0.12680748
0 0.028848112 -0.11770716
0 4.4703484e-08 -0.10848664
0 -0.029219091 -0.099151559
0 -0.058816671 -0.08969149
0 -0.088799611 -0.080112271
0 -0.11917626 -0.070403218
0 -0.14995363 -0.060570274
0 -0.18114065 -0.050602257
0 -0.2127443 -0.040505253
0 -0.24477428 -0.03026785
0 -0.27723795 -0.019896045
0 -0.31014585 -0.009378016
0 -0.3435052 0.0012799948
0 -0.37732741 0.012090191
0 -0.41161993 0.023046404
0 -0.44639519 0.034161165
0 -0.48166063 0.045428261
0 -0.51742971 0.056860611
0 -0.55371016 0.06845203
0 -0.59051436 0.080210686
0 -0.62785602 0.092145562
0 -0.66574299 0.10425028
0 -0.70419139 0.116539
0 -0.74320936 0.12900496
0 -0.78281444 0.14166328
0 -0.82301486 0.15450713
0 -0.86382961 0.16755202
0 -0.90526712 0.18079126
0 -0.947348 0.19424081
0.02582448 0.51648962 -0.26888338
0.025972098 0.49346986 -0.26150253
0.026121477 0.47018659 -0.25403351
0.02627252 0.44663289 -0.24648133
0.026425384 0.42280614 -0.23883814
0.026579972 0.39869967 -0.23110861
0.026736449 0.37431034 -0.22328497
0.026894705 0.34963131 -0.21537194
0.027054921 0.32465902 -0.20736134
0.027216986 0.29938692 -0.1992581
0.02738107 0.27381074 -0.19105378
0.027547078 0.24792373 -0.18275346
0.027715182 0.22172147 -0.17434821
0.027885279 0.19519693 -0.16584343
0.028057549 0.16834536 -0.15722999
0.028231885 0.14115949 -0.14851311
0.028408479 0.11363393 -0.13968343
0.028587217 0.085761681 -0.13074654
0.028768299 0.057536636 -0.12169245
0.02895161 0.028951637 -0.11252697
0.029137349 4.4703484e-08 -0.10323994
0.029325409 -0.029325353 -0.093836956
0.029515911 -0.05903177 -0.084311791
0.029708987 -0.08912687 -0.074657992
0.02990452 -0.11961804 -0.06488131
0.030102734 -0.15051362 -0.054970771
0.030303502 -0.18182103 -0.044932254
0.030507056 -0.2135493 -0.034754492
0.030713273 -0.24570611 -0.024443641
0.030922387 -0.27830142 -0.013987929
0.031134279 -0.31134272 -0.0033934712
0.031349186 -0.344841 0.0073518902
0.031566985 -0.37880382 0.018242031
0.031787932 -0.413243 0.029289141
0.032011893 -0.44816637 0.0404872
0.032239128 -0.48358685 0.051849082
0.032469515 -0.51951224 0.063368455
0.032703321 -0.55595636 0.075058669
0.032940414 -0.59292746 0.086913422
0.033181075 -0.63044035 0.098946363
0.033425171 -0.66850346 0.11115128
0.033672996 -0.707133 0.12354249
0.033924412 -0.74633706 0.13611323
0.034179721 -0.78613353 0.14887872
0.034438793 -0.82653093 0.16183221
0.034701932 -0.86754823 0.17498919
0.034969009 -0.90919411 0.18834296
0.035240345 -0.95148933 0.20190987
0.052112095 0.49506488 -0.25730506
0.052412663 0.47171396 -0.24979085
0.052716848 0.44809324 -0.24218607
0.053024456 0.42419565 -0.23449603
0.053335808 0.40001857 -0.22671223
0.053650696 0.37555498 -0.21883981
0.053969469 0.35080165 -0.21087053
0.054291911 0.32575148 -0.20280954
0.054618374 0.30040106 -0.19464806
0.054948639 0.27474326 -0.18639137
0.055283073 0.2487738 -0.17803065
0.055621453 0.22248583 -0.16957112
0.055964142 0.1958745 -0.16100377
0.056310937 0.16893286 -0.15233384
0.056662209 0.14165556 -0.14355212
0.057017736 0.11403552 -0.13466389
0.057377912 0.086066909 -0.1256596
0.057742503 0.057742584 -0.11654473
0.058111921 0.029055968 -0.10730936
0.058485929 1.4901161e-08 -0.097959056
0.058864955 -0.029432399 -0.088483572
0.059248753 -0.059248723 -0.07888861
0.059637759 -0.089456603 -0.06916333
0.060031738 -0.12006342 -0.059313942
0.06043113 -0.15107782 -0.049329065
0.060835689 -0.1825071 -0.039214998
0.061245888 -0.21436056 -0.028960072
0.061661474 -0.2466459 -0.018570445
0.062082916 -0.27937305 -0.0080343485
0.062509984 -0.31254983 0.0026421845
0.062943146 -0.34618723 0.013471335
0.063382171 -0.38029289 0.02444683
0.063827552 -0.41487902 0.035581395
0.064279035 -0.4499532 0.046868503
0.064736955 -0.4855271 0.058316603
0.065201655 -0.52161324 0.069933981
0.06567286 -0.55821925 0.081714138
0.066151142 -0.59536016 0.093671083
0.06663622 -0.63304412 0.10579816
0.067128688 -0.67128664 0.11810973
0.067628264 -0.71009666 0.13059923
0.06813556 -0.7494911 0.14328158
0.06865029 -0.78947836 0.15615004
0.069173098 -0.83007705 0.16921997
0.069703691 -0.87129611 0.18248489
0.070242718 -0.91315532 0.19596061
0.070789911 -0.9556638 0.20964044
0.078421615 0.49667025 -0.2530804
0.078875408 0.47325242 -0.24551731
0.079334669 0.44956326 -0.23786275
0.079799123 0.42559534 -0.23012197
0.080269247 0.40134624 -0.22228657
0.080744736 0.37680879 -0.21436176
0.081226103 0.35197979 -0.20633903
0.081713036 0.32685217 -0.19822347
0.082206041 0.30142221 -0.19000655
0.082704827 0.27568281 -0.18169352
0.083209924 0.24962975 -0.17327531
0.083720997 0.22325601 -0.16475734
0.084238619 0.19655684 -0.1561304
0.084762454 0.16952495 -0.14739981
0.085293069 0.14215517 -0.13855623
0.085830145 0.11444017 -0.12960497
0.086374253 0.086374238 -0.12053654
0.086925074 0.057950102 -0.11135616
0.087482959 0.029161017 -0.10205805
0.088048294 7.4505806e-08 -0.092635728
0.088620745 -0.029540185 -0.08309491
0.089200929 -0.05946729 -0.073425151
0.089788511 -0.089788504 -0.063632146
0.090384148 -0.12051212 -0.05370497
0.090987474 -0.15164573 -0.04364951
0.091599174 -0.18319827 -0.033454582
0.092218876 -0.21517736 -0.023126081
0.09284731 -0.24759281 -0.012652218
0.093484081 -0.28045222 -0.0020392984
0.094129927 -0.31376633 0.0087247938
0.094784476 -0.34754306 0.019633889
0.095448479 -0.38179383 0.030700684
0.096121565 -0.41652673 0.041918755
0.0968045 -0.45175424 0.053300992
0.097496912 -0.48748451 0.064841196
0.098199606 -0.52373123 0.076552749
0.098912194 -0.56050241 0.088429138
0.099635512 -0.59781301 0.10048443
0.10036916 -0.63567132 0.11271201
0.10111403 -0.67409348 0.12512639
0.10186969 -0.7130878 0.13772097
0.10263708 -0.75267208 0.15051082
0.10341578 -0.79285437 0.16348913
0.10420673 -0.83365381 0.17667153
0.10500953 -0.87507939 0.19005141
0.10582478 -0.91714811 0.203639
0.10665315 -0.95987833 0.21744511
0.10490206 0.49828479 -0.24883163
0.10551133 0.47480106 -0.24121571
0.10612746 0.45104167 -0.23351425
0.10675107 0.42700431 -0.22571895
0.1073818 0.40268177 -0.2178348
0.10802031 0.37807116 -0.20985346
0.10866617 0.35316509 -0.2017803
0.10932008 0.32796028 -0.19360635
0.10998162 0.30244949 -0.18533702
0.11065152 0.27662882 -0.17696343
0.11132932 0.25049102 -0.16849081
0.11201578 0.22403157 -0.15991013
0.11271045 0.19724335 -0.15122664
0.11341411 0.17012122 -0.14243093
0.11412629 0.14265795 -0.13352872
0.11484779 0.11484779 -0.12451001
0.11557814 0.086683668 -0.11538048
0.11631818 0.05815912 -0.10613016
0.11706743 0.029266819 -0.09676455
0.11782671 1.0058284e-07 -0.087273493
0.11859559 -0.029648855 -0.077662654
0.11937488 -0.059687391 -0.067921318
0.12016416 -0.090123005 -0.058055431
0.12096428 -0.12096417 -0.048053913
0.12177479 -0.1522184 -0.03792255
0.12259621 -0.18389425 -0.027654633
0.12342916 -0.216001 -0.01724273
0.12427352 -0.24854703 -0.0066883042
0.12512913 -0.28154057 0.0040067881
0.1259966 -0.31499147 0.014850259
0.12687656 -0.34891048 0.025849789
0.12776853 -0.38330561 0.036999285
0.12867351 -0.41818884 0.048311532
0.129591 -0.45356852 0.059780166
0.13052207 -0.4894577 0.071418539
0.13146622 -0.52586478 0.083220363
0.13242453 -0.56280416 0.095199347
0.13339651 -0.60028428 0.10734898
0.13438326 -0.63832051 0.11968359
0.13538432 -0.67692161 0.13219658
0.13640083 -0.71610427 0.14490288
0.13743226 -0.75587744 0.15779594
0.13847987 -0.79625928 0.17089123
0.13954313 -0.83725876 0.18418181
0.1406233 -0.87889552 0.19768381
0.14171985 -0.92117894 0.2113907
0.14283411 -0.96413028 0.22531903
0.13155556 0.49991113 -0.24455187
0.13232213 0.47635972 -0.23688596
0.13309737 0.45253107 -0.22913371
0.13388208 0.42842263 -0.22128662
0.13467574 0.40402722 -0.21334988
0.13547923 0.37934187 -0.20531505
0.13629201 0.35435927 -0.19718733
0.13711496 0.3290759 -0.1889579
0.13794754 0.30348459 -0.180632
0.13879065 0.27758133 -0.17220084
0.13964377 0.25135884 -0.16366953
0.14050783 0.2248126 -0.15502901
0.14138226 0.19793515 -0.14628479
0.14226763 0.17072119 -0.13743095
0.14316458 0.14316465 -0.12846163
0.14407249 0.11525801 -0.11938249
0.1449924 0.086995497 -0.1101835
0.14592372 0.058369484 -0.10087021
0.14686748 0.029373575 -0.091432527
0.14782313 7.0780516e-08 -0.081876084
0.14879172 -0.029758286 -0.072190225
0.14977264 -0.059908997 -0.062380906
0.15076703 -0.090460151 -0.052437067
0.15177427 -0.12141939 -0.042364534
0.15279551 -0.15279546 -0.032152299
0.15383013 -0.18459615 -0.021806099
0.15487932 -0.21683101 -0.011314206
0.15594244 -0.24950787 -0.00068294257
0.15702073 -0.2826373 0.010099947
0.15811358 -0.31622714 0.021028399
0.15922222 -0.35028881 0.032114714
0.16034602 -0.38483036 0.043352723
0.16148628 -0.4198643 0.054755464
0.16264239 -0.45539874 0.066316634
0.16381569 -0.49144697 0.078049496
0.16500552 -0.52801764 0.089947835
0.16621275 -0.56512326 0.10202013
0.16743831 -0.60277784 0.11427572
0.16868208 -0.64099181 0.12671345
0.16994391 -0.67977566 0.13933179
0.17122477 -0.71914399 0.15214029
0.17252566 -0.75911289 0.16514921
0.17384587 -0.79969096 0.17835137
0.17518704 -0.8408978 0.1917631
0.17654847 -0.88274229 0.20537731
0.17793183 -0.9252454 0.21921092
0.17933643 -0.96841657 0.23325682
0.15838361 0.50154805 -0.24024397
0.15930915 0.47792745 -0.23253106
0.160246 0.45403039 -0.22472405
0.16119349 0.42984933 -0.2168282
0.16215268 0.40538171 -0.20883498
0.16312295 0.38062024 -0.20074943
0.16410531 0.35556149 -0.19256309
0.16509914 0.33019829 -0.18428114
0.16610552 0.30452684 -0.17589457
0.16712382 0.27853972 -0.16740888
0.16815512 0.2522327 -0.15881467
0.16919877 0.22559844 -0.15011761
0.17025591 0.1986319 -0.14130814
0.17132589 0.17132583 -0.13239168
0.17240986 0.14367488 -0.12335854
0.17350717 0.11567144 -0.1142143
0.174619 0.087309584 -0.10494896
0.1757447 0.058581568 -0.095568128
0.17688552 0.029480977 -0.086061537
0.17804071 1.8626451e-08 -0.076434739
0.17921162 -0.029868502 -0.066677287
0.1803975 -0.060132451 -0.05679483
0.18159918 -0.090799496 -0.046780743
0.18281753 -0.12187833 -0.036628015
0.18405178 -0.15337652 -0.026342541
0.18530336 -0.18530329 -0.015912727
0.18657154 -0.21766667 -0.005344592
0.18785773 -0.2504769 0.0053737164
0.18916123 -0.28374183 0.016236216
0.19048351 -0.31747252 0.027255237
0.19182383 -0.351677 0.038424581
0.19318374 -0.38636738 0.049757078
0.19456245 -0.42155191 0.061246425
0.19596159 -0.45724362 0.072905973
0.19738041 -0.49345103 0.084729344
0.19882053 -0.53018796 0.096730396
0.2002812 -0.56746328 0.1089026
0.20176411 -0.60529232 0.12126021
0.20326851 -0.64368355 0.13379686
0.20479618 -0.68265384 0.14652741
0.2063463 -0.72221202 0.1594452
0.20792076 -0.76237595 0.17256552
0.20951872 -0.803155 0.185882
0.21114215 -0.84456855 0.19941056
0.21279022 -0.88662589 0.21314442
0.21446492 -0.92934799 0.2271004
0.21616548 -0.97274452 0.24127159
0.18538794 0.50319582 -0.23590791
0.18647486 0.47950685 -0.22814403
0.1875751 0.45553958 -0.22028515
0.18868791 0.43128663 -0.21233654
0.18981448 0.40674537 -0.20428956
0.1909541 0.38190827 -0.19614941
0.19210799 0.35677201 -0.1879074
0.19327541 0.33132929 -0.1795688
0.19445759 0.30557621 -0.17112456
0.19565383 0.27950543 -0.16258007
0.19686487 0.25311202 -0.15392977
0.19809151 0.22639036 -0.14516798
0.19933301 0.19933304 -0.13630018
0.20059071 0.17193495 -0.12731659
0.20186384 0.14418848 -0.11822278
0.20315379 0.11608791 -0.10900891
0.20445977 0.087625615 -0.099680513
0.2057832 0.058795247 -0.090227433
0.20712332 0.029589105 -0.080655113
0.20848158 1.1175871e-08 -0.07095328
0.20985718 -0.029979615 -0.061127521
0.21125165 -0.06035763 -0.051166952
0.21266419 -0.091141798 -0.041077472
0.21409634 -0.12234074 -0.030847717
0.21554729 -0.15396227 -0.020483844
0.21701868 -0.1860159 -0.0099738687
0.21850964 -0.21850961 0.00067586452
0.2200219 -0.25145364 0.011477634
0.22155456 -0.28485584 0.02242519
0.22310941 -0.31872761 0.033531219
0.22468555 -0.35307729 0.044789433
0.2262848 -0.38791674 0.056212649
0.22790629 -0.42325449 0.067794695
0.2295519 -0.45910373 0.079549029
0.23122071 -0.49547285 0.091469094
0.2329147 -0.53237635 0.10356912
0.23463295 -0.56982285 0.11584236
0.23637673 -0.60782593 0.12829803
0.23814742 -0.64640015 0.14094561
0.23994406 -0.68555433 0.15377873
0.24176878 -0.72530627 0.16681245
0.24362068 -0.76566494 0.1800403
0.24550195 -0.80664921 0.19347805
0.24741171 -0.84826863 0.20711908
0.24935225 -0.8905437 0.22098005
0.2513226 -0.9334839 0.23505408
0.25332522 -0.97711146 0.24935853
0.21256976 0.50485313 -0.2315464
0.21382073 0.48109668 -0.22372782
0.21508595 0.45705763 -0.21582016
0.2163668 0.43273363 -0.20781483
0.21766245 0.40811712 -0.19971707
0.21897425 0.38320494 -0.19151819
0.22030142 0.35798985 -0.18322355
0.22164531 0.33246803 -0.17482412
0.22300515 0.30663204 -0.16632521
0.22438236 0.28047797 -0.15771763
0.22577608 0.25399813 -0.14900692
0.22718784 0.22718784 -0.14018348
0.22861673 0.20003961 -0.13125283
0.23006435 0.17254829 -0.12220518
0.23152977 0.14470614 -0.11304627
0.23301464 0.11650737 -0.10376593
0.23451801 0.087944306 -0.09436965
0.23604091 0.059010301 -0.084851548
0.2375844 0.029698063 -0.075204849
0.23914753 2.2351742e-08 -0.065435305
0.24073203 -0.030091424 -0.05553212
0.24233699 -0.060584251 -0.045501143
0.2439642 -0.091486499 -0.03533119
0.2456127 -0.1228063 -0.025028016
0.24728432 -0.15455267 -0.014580354
0.24897815 -0.18673356 -0.0039939657
0.25069606 -0.21935906 0.0067430139
0.25243711 -0.252437 0.017624609
0.25420326 -0.28597859 0.028663144
0.25599355 -0.31999195 0.039852396
0.25781 -0.35448873 0.051205218
0.25965163 -0.38947728 0.062715307
0.26152056 -0.42497087 0.074396119
0.26341575 -0.46097755 0.086241171
0.26533949 -0.49751145 0.098264396
0.26729065 -0.53458118 0.11045913
0.26927158 -0.57220203 0.12283999
0.27128121 -0.61038274 0.13540025
0.27332199 -0.6491397 0.14815502
0.27539277 -0.68848199 0.16109751
0.27749607 -0.72842717 0.17424321
0.27963087 -0.76898479 0.18758547
0.28179964 -0.81017411 0.20114058
0.28400144 -0.85200417 0.21490148
0.28623885 -0.89449632 0.22888529
0.2885108 -0.93766004 0.24308509
0.29081911 -0.98151439 0.25751197
0.23993181 0.50652272 -0.22715282
0.24134788 0.48269579 -0.2192857
0.2427814 0.45858711 -0.21132174
0.24423143 0.4341892 -0.20326604
0.24569951 0.4094992 -0.19511008
0.24718471 0.3845095 -0.1868591
0.24868859 0.35921687 -0.17850402
0.25021029 0.33361372 -0.17005031
0.25175133 0.30769607 -0.16148895
0.25331083 0.28145647 -0.15282509
0.25489044 0.25489047 -0.14404945
0.25648919 0.22799034 -0.13516755
0.25810879 0.2007513 -0.12616959
0.25974831 0.17316556 -0.11706123
0.26140949 0.14522757 -0.10783239
0.26309133 0.11692959 -0.098488815
0.26479569 0.088265233 -0.089020252
0.26652154 0.059227068 -0.079432264
0.26827076 0.029807849 -0.069714211
0.27004236 2.9802322e-08 -0.059871994
0.27183828 -0.030204207 -0.04989478
0.27365744 -0.06081273 -0.039788231
0.27550194 -0.091833919 -0.029541161
0.27737063 -0.12327582 -0.019159406
0.27926567 -0.15514754 -0.0086313039
0.28118598 -0.18745726 0.0020369738
0.28313372 -0.22021511 0.012857772
0.28510776 -0.25342906 0.023824595
0.28710952 -0.28710952 0.034945637
0.28914049 -0.32126713 0.046228647
0.29120037 -0.35591152 0.057672456
0.29328892 -0.3910518 0.069275498
0.29540762 -0.42669994 0.081046149
0.2975581 -0.46286815 0.092993408
0.29973921 -0.4995653 0.10511047
0.30195346 -0.53680611 0.11741182
0.3041997 -0.57459939 0.12989098
0.30648059 -0.61296117 0.1425626
0.30879495 -0.65190041 0.15542002
0.31114554 -0.6914345 0.16847897
0.31353116 -0.73157269 0.18173239
0.31595469 -0.77233368 0.19519645
0.3184149 -0.8137269 0.2088643
0.32091483 -0.85577285 0.22275284
0.32345322 -0.89848113 0.23685503
0.3260332 -0.94187355 0.25118813
0.26747546 0.50820339 -0.22273007
0.26905936 0.4843069 -0.21481052
0.27066284 0.46012685 -0.20679314
0.27228487 0.43565577 -0.19868314
0.27392709 0.41089064 -0.19047177
0.2755886 0.38582408 -0.18216437
0.27727109 0.36045241 -0.17375198
0.27897349 0.33476821 -0.16523984
0.2806977 0.30876756 -0.15661885
0.2824426 0.2824426 -0.1478944
0.28421009 0.2557891 -0.13905695
0.28599903 0.22879927 -0.13011216
0.28781146 0.20146817 -0.12105
0.28964621 0.17378776 -0.11187636
0.29150447 0.14575222 -0.10258492
0.29338759 0.11735506 -0.093169451
0.29529434 0.088588379 -0.083635613
0.29722688 0.059445441 -0.073972814
0.29918405 0.029918419 -0.06418708
0.30116802 -4.4703484e-08 -0.054267347
0.3031776 -0.030317772 -0.0442193
0.30521506 -0.061042957 -0.034032077
0.3072792 -0.092183761 -0.023711409
0.30937234 -0.1237489 -0.013245672
0.31149328 -0.15574662 -0.0026409775
0.31364444 -0.18818662 0.0081148222
0.31582457 -0.22107713 0.019015446
0.31803617 -0.2544288 0.030073553
0.32027802 -0.28825021 0.041282684
0.32255265 -0.32255256 0.052655965
0.32485884 -0.35734463 0.064186841
0.32719928 -0.39263907 0.075888976
0.32957262 -0.42844439 0.087755725
0.33198169 -0.46477431 0.099801168
0.33442521 -0.50163782 0.11201863
0.33690602 -0.53904963 0.12442264
0.33942279 -0.57701868 0.13700664
0.34197858 -0.61556137 0.14978562
0.34457204 -0.65468681 0.16275296
0.34720626 -0.69441247 0.17592405
0.34987995 -0.73474789 0.18929237
0.35259509 -0.77570915 0.20286813
0.35535392 -0.81731391 0.21666226
0.35815504 -0.85957199 0.23066789
0.36100188 -0.90250468 0.2449021
0.36389312 -0.94612205 0.25935823
0.29520175 0.50989389 -0.21828136
0.29695642 0.48592877 -0.21030536
0.29873136 0.46167576 -0.20223752
0.30052841 0.43713227 -0.19406909
0.30234644 0.41229063 -0.18580541
0.30418736 0.38714755 -0.17743754
0.30605003 0.36169556 -0.16897079
0.30793649 0.33593071 -0.16039598
0.30984554 0.30984554 -0.15171859
0.31177923 0.28343567 -0.14292905
0.31373635 0.25669345 -0.13403304
0.31571907 0.2296139 -0.12502074
0.31772611 0.20218933 -0.11589778
0.31975973 0.17441446 -0.10665396
0.32181865 0.14628124 -0.097295254
0.32390517 0.11778373 -0.08781115
0.32601801 0.088914022 -0.078207299
0.32815954 0.059665371 -0.068473123
0.3303284 0.030029902 -0.058614455
0.33252713 -2.0489097e-08 -0.048620436
0.33475432 -0.03043218 -0.038496796
0.33701253 -0.061274968 -0.028232196
0.33930045 -0.092536524 -0.017832685
0.34162062 -0.12422559 -0.0072863102
0.34397173 -0.15635073 0.0034004599
0.34635645 -0.18892157 0.014240183
0.34877345 -0.22194669 0.025226407
0.35122547 -0.25543669 0.036372043
0.3537111 -0.28939998 0.047670379
0.3562322 -0.32384741 0.059129909
0.35879061 -0.35879058 0.070758998
0.36138487 -0.39423808 0.082551226
0.36401808 -0.43020317 0.09452042
0.36668879 -0.46669483 0.10665998
0.36940017 -0.50372744 0.11898434
0.37215075 -0.54131019 0.13148695
0.37494379 -0.57945848 0.14418252
0.37777784 -0.61818188 0.15706474
0.38065633 -0.65749723 0.17014863
0.38357773 -0.69741404 0.18342778
0.38654563 -0.73795074 0.19691822
0.38955849 -0.77911693 0.21061304
0.39262 -0.82093281 0.22452918
0.39572871 -0.86340797 0.23865944
0.39888835 -0.90656447 0.25302163
0.40209752 -0.95041227 0.26760867
0.32311392 0.51159704 -0.21379939
0.325041 0.48756146 -0.20576993
0.32699034 0.46323639 -0.19764757
0.32896405 0.43861878 -0.18942373
0.3309609 0.41370124 -0.18110353
0.33298302 0.38848019 -0.17267814
0.3350291 0.36294812 -0.16415285
0.33710137 0.33710143 -0.15551826
0.33919853 0.31093201 -0.14678018
0.34132195 0.28443497 -0.13793258
0.34347305 0.25760481 -0.12896967
0.34565049 0.23043369 -0.11989692
0.3478567 0.20291646 -0.11070441
0.35009027 0.17504513 -0.10139801
0.35235366 0.14681406 -0.091966972
0.35464555 0.11821524 -0.08241751
0.35696843 0.089242078 -0.072738871
0.35932094 0.059886828 -0.06293682
0.36170569 0.030142177 -0.053000312
0.36412126 2.9802322e-08 -0.042935446
0.36657035 -0.030547503 -0.032730836
0.36905155 -0.061508484 -0.022392446
0.37156767 -0.092891783 -0.011908673
0.37411723 -0.12470576 -0.0012855418
0.37670314 -0.15695968 0.0094890296
0.37932387 -0.18966195 0.020408936
0.38198254 -0.22282302 0.031486481
0.38467753 -0.25645161 0.042715646
0.38741198 -0.29055902 0.05410935
0.39018443 -0.32515359 0.065661088
0.39299804 -0.36024809 0.077384531
0.39585128 -0.39585119 0.08927305
0.39874756 -0.43197644 0.10134074
0.40168521 -0.4686327 0.11358094
0.40466776 -0.5058347 0.12600832
0.40769365 -0.54359144 0.13861614
0.41076642 -0.58191907 0.15141946
0.41388455 -0.62082678 0.16441159
0.41705036 -0.66032964 0.1776024
0.42026639 -0.70044386 0.19100253
0.42353097 -0.74117905 0.20460489
0.42684808 -0.78255481 0.21842641
0.43021613 -0.82458079 0.2324599
0.43363923 -0.8672784 0.24672279
0.43711576 -0.91065776 0.26120824
0.44064999 -0.95474154 0.27593419
0.35121319 0.51331156 -0.20928746
0.35331398 0.48920393 -0.20120746
0.355441 0.46480745 -0.19302654
0.35759285 0.44011429 -0.1847502
0.35977188 0.41512144 -0.17636943
0.36197662 0.38982102 -0.1678896
0.36420956 0.36420962 -0.15930136
0.36646923 0.33827931 -0.15061036
0.36875808 0.31202605 -0.14180702
0.37107474 0.28544214 -0.13289677
0.37342167 0.25852272 -0.12387005
0.37579748 0.23126006 -0.11473234
0.37820473 0.20364872 -0.10547373
0.380642 0.17568091 -0.096099682
0.38311192 0.14735077 -0.086599864
0.38561302 0.11865018 -0.076980226
0.3881481 0.089572683 -0.067229986
0.39071563 0.06011017 -0.057354901
0.39331847 0.030255355 -0.047343969
0.39595512 2.2351742e-08 -0.03720317
0.39862731 -0.030663617 -0.026925461
0.40133697 -0.061744083 -0.016503654
0.40408376 -0.093250066 -0.0059390664
0.40686718 -0.12518978 0.0047664233
0.40968922 -0.15757278 0.015620403
0.41255191 -0.19040848 0.026630722
0.41545364 -0.22370577 0.037791312
0.41839775 -0.25747544 0.049114801
0.42138264 -0.29172632 0.060594976
0.42441168 -0.32647038 0.072245158
0.42748323 -0.36171657 0.084059015
0.43060094 -0.39747787 0.096050173
0.43376312 -0.43376303 0.10821226
0.43697348 -0.47058678 0.1205598
0.44023022 -0.50795788 0.13308589
0.44353738 -0.545892 0.14580563
0.44689313 -0.58439869 0.15871234
0.45030153 -0.62349439 0.17182161
0.4537608 -0.66318887 0.18512651
0.45727518 -0.70350033 0.19864337
0.46084288 -0.74443841 0.21236515
0.46446824 -0.78602302 0.22630891
0.46814945 -0.82826447 0.24046755
0.47189119 -0.87118375 0.25485876
0.47569153 -0.91479141 0.26947558
0.47955525 -0.9591105 0.28433597
0.3795014 0.51503766 -0.20474517
0.38177913 0.49085894 -0.19661047
0.38408533 0.46638939 -0.18837406
0.38641855 0.44162121 -0.18004116
0.38878131 0.41655141 -0.1716027
0.39117211 0.39117217 -0.16306409
0.39359251 0.36547875 -0.15441978
0.39604408 0.33946639 -0.14566413
0.39852539 0.3131271 -0.13680246
0.401039 0.28645638 -0.12782532
0.40358341 0.2594465 -0.11873803
0.40616143 0.23209228 -0.10953078
0.40877151 0.20438576 -0.10020911
