# .PCD v0.7 - Point Cloud Data file format
VERSION 0.7
FIELDS x y z
SIZE 4 4 4
TYPE F F F
COUNT 1 1 1
WIDTH 1361
HEIGHT 1
VIEWPOINT 0 0 0 1 0 0 0
POINTS 1361
DATA ascii
-0.45179057 -0.55218846 -0.30513343
-0.45179057 -0.57728803 -0.30513346
-0.45179057 -0.60238737 -0.30513346
-0.45179057 -0.62748694 -0.30513352
-0.45179057 -0.65258634 -0.3051334
-0.45179057 -0.6776858 -0.30513352
-0.45179057 -0.70278525 -0.30513346
-0.45179057 -0.72788471 -0.30513352
-0.45179057 -0.75298429 -0.30513346
-0.45179057 -0.77808374 -0.30513346
-0.42958966 0.78336942 -0.29660833
-0.42958966 0.75809938 -0.29660833
-0.42958966 0.73282939 -0.29660836
-0.42958966 0.70755947 -0.29660839
-0.42958966 0.68228948 -0.29660833
-0.42958966 0.6570195 -0.29660833
-0.42958966 0.63174951 -0.29660836
-0.42958966 0.60647953 -0.29660839
-0.42958966 0.58120954 -0.29660839
-0.42958966 0.55593961 -0.29660827
-0.42958966 0.53066951 -0.29660839
-0.42958966 0.50539964 -0.29660833
-0.42958966 0.48012969 -0.29660839
-0.42958966 0.45485967 -0.29660839
-0.42958966 0.42958975 -0.2966083
-0.42958966 0.40431964 -0.29660842
-0.42958966 0.37904975 -0.29660833
-0.42958966 0.35377973 -0.29660833
-0.42958966 0.32850972 -0.29660836
-0.42958966 0.30323976 -0.29660839
-0.42958966 0.27796984 -0.2966083
-0.42958966 0.25269985 -0.29660833
-0.42958966 0.22742987 -0.29660833
-0.42958966 0.20215982 -0.29660833
-0.42958966 0.17688987 -0.29660836
-0.42958966 0.15161996 -0.2966083
-0.42958966 0.1263499 -0.29660842
-0.42958966 0.10107999 -0.29660833
-0.42958966 0.07581 -0.29660839
-0.42958966 0.05053997 -0.29660836
-0.42958966 0.025270075 -0.29660839
-0.42958966 -0 -0.29660839
-0.42958966 -0.02526994 -0.29660839
-0.42958966 -0.050539926 -0.29660833
-0.42958966 -0.075809903 -0.29660836
-0.42958966 -0.10107993 -0.29660833
-0.42958966 -0.12634984 -0.29660833
-0.42958966 -0.15161982 -0.29660836
-0.42958966 -0.17688981 -0.29660833
-0.42958966 -0.20215979 -0.29660842
-0.42958966 -0.22742984 -0.29660833
-0.42958966 -0.25269973 -0.29660836
-0.42958966 -0.27796975 -0.29660833
-0.42958966 -0.3032397 -0.29660842
-0.42958966 -0.32850969 -0.29660836
-0.42958966 -0.35377973 -0.29660833
-0.42958966 -0.3790496 -0.29660833
-0.42958966 -0.40431964 -0.29660833
-0.42958966 -0.42958957 -0.29660839
-0.42958966 -0.45485961 -0.29660839
-0.42958966 -0.48012966 -0.29660839
-0.42958966 -0.50539953 -0.29660836
-0.42958966 -0.53066957 -0.29660839
-0.42958966 -0.55593944 -0.29660839
-0.42958966 -0.58120948 -0.29660836
-0.42958966 -0.60647947 -0.2966083
-0.42958966 -0.63174951 -0.29660827
-0.42958966 -0.65701944 -0.29660836
-0.42958966 -0.68228936 -0.29660842
-0.42958966 -0.70755935 -0.29660836
-0.42958966 -0.73282933 -0.2966083
-0.42958966 -0.75809938 -0.2966083
-0.42958966 -0.7833693 -0.29660833
-0.40708503 0.78872728 -0.28796661
-0.40708503 0.76328444 -0.28796667
-0.40708503 0.73784167 -0.28796661
-0.40708503 0.71239877 -0.28796661
-0.40708503 0.68695605 -0.28796661
-0.40708503 0.66151321 -0.28796664
-0.40708503 0.63607037 -0.28796661
-0.40708503 0.61062759 -0.28796664
-0.40708503 0.58518475 -0.28796664
-0.40708503 0.55974191 -0.28796661
-0.40708503 0.53429914 -0.28796664
-0.40708503 0.5088563 -0.28796667
-0.40708503 0.48341346 -0.28796664
-0.40708503 0.45797074 -0.28796655
-0.40708503 0.43252784 -0.28796667
-0.40708503 0.40708503 -0.28796667
-0.40708503 0.38164228 -0.28796658
-0.40708503 0.3561995 -0.28796661
-0.40708503 0.33075657 -0.28796667
-0.40708503 0.30531383 -0.28796661
-0.40708503 0.27987105 -0.28796661
-0.40708503 0.25442821 -0.28796661
-0.40708503 0.22898531 -0.28796667
-0.40708503 0.20354255 -0.28796658
-0.40708503 0.17809975 -0.28796661
-0.40708503 0.15265693 -0.28796661
-0.40708503 0.12721409 -0.28796661
-0.40708503 0.1017713 -0.28796661
-0.40708503 0.076328471 -0.28796661
-0.40708503 0.05088567 -0.28796655
-0.40708503 0.025442854 -0.28796673
-0.40708503 1.4901161e-08 -0.28796661
-0.40708503 -0.025442809 -0.28796661
-0.40708503 -0.050885573 -0.28796661
-0.40708503 -0.076328404 -0.28796661
-0.40708503 -0.10177124 -0.28796667
-0.40708503 -0.12721407 -0.28796655
-0.40708503 -0.15265681 -0.28796664
-0.40708503 -0.17809966 -0.28796652
-0.40708503 -0.20354252 -0.28796667
-0.40708503 -0.22898532 -0.28796661
-0.40708503 -0.25442812 -0.28796664
-0.40708503 -0.27987099 -0.28796661
-0.40708503 -0.30531374 -0.28796658
-0.40708503 -0.33075655 -0.28796664
-0.40708503 -0.35619932 -0.28796661
-0.40708503 -0.38164222 -0.28796661
-0.40708503 -0.40708497 -0.28796661
-0.40708503 -0.43252778 -0.28796667
-0.40708503 -0.45797056 -0.28796667
-0.40708503 -0.48341343 -0.28796661
-0.40708503 -0.50885618 -0.28796667
-0.40708503 -0.53429908 -0.28796661
-0.40708503 -0.55974185 -0.28796664
-0.40708503 -0.58518469 -0.28796667
-0.40708503 -0.61062753 -0.28796661
-0.40708503 -0.63607031 -0.28796664
-0.40708503 -0.66151321 -0.28796655
-0.40708503 -0.68695587 -0.28796664
-0.40708503 -0.71239877 -0.28796667
-0.40708503 -0.73784155 -0.28796667
-0.40708503 -0.76328444 -0.28796658
-0.38427046 0.76854098 -0.27920589
-0.38427046 0.7429229 -0.27920583
-0.38427046 0.71730489 -0.27920586
-0.38427046 0.69168675 -0.27920592
-0.38427046 0.66606879 -0.2792058
-0.38427046 0.64045072 -0.27920589
-0.38427046 0.61483276 -0.27920589
-0.38427046 0.58921474 -0.27920586
-0.38427046 0.56359673 -0.27920583
-0.38427046 0.53797871 -0.27920586
-0.38427046 0.51236057 -0.27920589
-0.38427046 0.48674262 -0.27920583
-0.38427046 0.46112454 -0.27920592
-0.38427046 0.43550649 -0.27920586
-0.38427046 0.40988851 -0.27920586
-0.38427046 0.38427049 -0.27920586
-0.38427046 0.35865238 -0.27920592
-0.38427046 0.33303446 -0.2792058
-0.38427046 0.30741638 -0.27920592
-0.38427046 0.2817983 -0.27920586
-0.38427046 0.25618029 -0.27920586
-0.38427046 0.2305623 -0.27920586
-0.38427046 0.2049443 -0.27920586
-0.38427046 0.1793263 -0.27920586
-0.38427046 0.15370825 -0.27920583
-0.38427046 0.12809016 -0.27920592
-0.38427046 0.10247215 -0.27920592
-0.38427046 0.076854102 -0.27920589
-0.38427046 0.0512361 -0.27920586
-0.38427046 0.025618047 -0.27920586
-0.38427046 4.4703484e-08 -0.27920592
-0.38427046 -0.025617994 -0.27920589
-0.38427046 -0.051235996 -0.27920589
-0.38427046 -0.076854043 -0.27920586
-0.38427046 -0.10247209 -0.27920589
-0.38427046 -0.12809011 -0.2792058
-0.38427046 -0.1537081 -0.27920589
-0.38427046 -0.17932618 -0.27920589
-0.38427046 -0.20494416 -0.27920586
-0.38427046 -0.23056221 -0.27920589
-0.38427046 -0.25618032 -0.27920586
-0.38427046 -0.28179833 -0.27920586
-0.38427046 -0.30741632 -0.27920586
-0.38427046 -0.33303434 -0.27920586
-0.38427046 -0.35865238 -0.27920592
-0.38427046 -0.3842704 -0.27920592
-0.38427046 -0.40988848 -0.27920583
-0.38427046 -0.43550643 -0.27920595
-0.38427046 -0.46112445 -0.27920598
-0.38427046 -0.48674253 -0.27920586
-0.38427046 -0.51236057 -0.27920586
-0.38427046 -0.53797853 -0.27920586
-0.38427046 -0.56359661 -0.2792058
-0.38427046 -0.58921456 -0.27920592
-0.38427046 -0.61483258 -0.27920592
-0.38427046 -0.64045072 -0.27920586
-0.38427046 -0.66606873 -0.27920589
-0.38427046 -0.69168675 -0.27920589
-0.38427046 -0.71730483 -0.2792058
-0.38427046 -0.74292278 -0.27920592
-0.38427046 -0.7685408 -0.27920595
-0.36113858 0.77386832 -0.27032673
-0.36113858 0.74807268 -0.27032679
-0.36113858 0.7222771 -0.27032679
-0.36113858 0.69648153 -0.27032676
-0.36113858 0.67068595 -0.27032673
-0.36113858 0.64489031 -0.27032679
-0.36113858 0.61909473 -0.27032679
-0.36113858 0.59329915 -0.27032673
-0.36113858 0.56750345 -0.27032679
-0.36113858 0.54170787 -0.27032679
-0.36113858 0.51591229 -0.27032673
-0.36113858 0.49011669 -0.27032673
-0.36113858 0.46432102 -0.27032682
-0.36113858 0.43852544 -0.27032676
-0.36113858 0.4127298 -0.27032673
-0.36113858 0.38693419 -0.27032682
-0.36113858 0.36113861 -0.27032679
-0.36113858 0.33534297 -0.27032673
-0.36113858 0.30954742 -0.27032676
-0.36113858 0.28375173 -0.27032676
-0.36113858 0.25795615 -0.27032673
-0.36113858 0.23216054 -0.2703267
-0.36113858 0.20636487 -0.27032679
-0.36113858 0.18056934 -0.27032679
-0.36113858 0.15477371 -0.27032673
-0.36113858 0.12897804 -0.27032679
-0.36113858 0.10318245 -0.27032679
-0.36113858 0.077386871 -0.27032673
-0.36113858 0.051591292 -0.27032673
-0.36113858 0.025795676 -0.27032685
-0.36113858 2.9802322e-08 -0.27032667
-0.36113858 -0.025795549 -0.27032673
-0.36113858 -0.051591225 -0.27032679
-0.36113858 -0.077386759 -0.27032673
-0.36113858 -0.10318248 -0.27032676
-0.36113858 -0.12897801 -0.2703267
-0.36113858 -0.15477365 -0.27032679
-0.36113858 -0.18056919 -0.27032673
-0.36113858 -0.20636486 -0.27032679
-0.36113858 -0.23216052 -0.27032679
-0.36113858 -0.25795606 -0.27032673
-0.36113858 -0.28375173 -0.27032676
-0.36113858 -0.30954733 -0.27032676
-0.36113858 -0.33534285 -0.27032685
-0.36113858 -0.36113852 -0.27032673
-0.36113858 -0.38693416 -0.27032676
-0.36113858 -0.41272977 -0.27032673
-0.36113858 -0.43852538 -0.27032676
-0.36113858 -0.46432096 -0.27032673
-0.36113858 -0.4901166 -0.27032673
-0.36113858 -0.51591218 -0.27032676
-0.36113858 -0.54170781 -0.27032676
-0.36113858 -0.56750345 -0.27032679
-0.36113858 -0.59329903 -0.27032676
-0.36113858 -0.61909461 -0.27032679
-0.36113858 -0.64489019 -0.27032673
-0.36113858 -0.67068589 -0.27032676
-0.36113858 -0.69648147 -0.27032679
-0.36113858 -0.72227705 -0.27032673
-0.36113945 -0.74807453 -0.27032363
-0.36113945 -0.77387011 -0.27032363
-0.33768457 0.77927208 -0.26132053
-0.33768457 0.75329638 -0.26132047
-0.33768457 0.72732067 -0.26132044
-0.33768457 0.70134491 -0.26132053
-0.33768457 0.6753692 -0.26132047
-0.33768457 0.64939338 -0.26132053
-0.33768457 0.62341774 -0.26132053
-0.33768457 0.59744203 -0.26132047
-0.33768457 0.57146627 -0.26132044
-0.33768457 0.5454905 -0.2613205
-0.33768457 0.51951474 -0.26132056
-0.33768457 0.49353904 -0.26132053
-0.33768457 0.46756333 -0.2613205
-0.33768457 0.44158757 -0.26132041
-0.33768457 0.4156118 -0.2613205
-0.33768457 0.38963604 -0.26132056
-0.33768457 0.36366034 -0.2613205
-0.33768457 0.3376846 -0.2613205
-0.33768457 0.3117089 -0.26132047
-0.33768457 0.28573313 -0.2613205
-0.33768457 0.25975734 -0.26132056
-0.33768457 0.23378162 -0.2613205
-0.33768457 0.2078059 -0.26132047
-0.33768457 0.18183024 -0.26132047
-0.33768457 0.15585446 -0.26132053
-0.33768457 0.12987876 -0.2613205
-0.33768457 0.10390294 -0.26132053
-0.33768457 0.077927269 -0.26132053
-0.33768457 0.051951528 -0.26132047
-0.33768457 0.025975741 -0.26132053
-0.33768457 4.4703484e-08 -0.2613205
-0.33768457 -0.025975674 -0.26132047
-0.33768457 -0.051951446 -0.26132053
-0.33768457 -0.077927187 -0.26132053
-0.33768457 -0.1039029 -0.2613205
-0.33768457 -0.12987864 -0.26132053
-0.33768457 -0.15585434 -0.2613205
-0.33768457 -0.18183012 -0.26132047
-0.33768457 -0.20780596 -0.26132047
-0.33768457 -0.23378156 -0.26132053
-0.33768457 -0.25975731 -0.26132053
-0.33768457 -0.28573298 -0.26132053
-0.33768457 -0.31170875 -0.26132053
-0.33768457 -0.33768448 -0.26132053
-0.33768457 -0.36366022 -0.26132053
-0.33768457 -0.3896361 -0.26132047
-0.33768457 -0.41561177 -0.26132047
-0.33768457 -0.44158751 -0.26132047
-0.33768457 -0.46756327 -0.26132047
-0.33768457 -0.49353898 -0.26132047
-0.33768457 -0.51951474 -0.26132053
-0.33768457 -0.54549044 -0.26132047
-0.33768457 -0.57146621 -0.26132053
-0.33768457 -0.59744191 -0.26132053
-0.33768457 -0.62341762 -0.26132047
-0.33768457 -0.64939338 -0.26132047
-0.33768457 -0.67536914 -0.26132053
-0.33768457 -0.70134485 -0.26132053
-0.33768457 -0.72732055 -0.26132047
-0.33768457 -0.75329632 -0.2613205
-0.33768457 -0.77927208 -0.2613205
-0.31390074 0.78475189 -0.25218755
-0.31390074 0.75859344 -0.25218761
-0.31390074 0.73243517 -0.25218761
-0.31390074 0.70627671 -0.25218755
-0.31390074 0.6801182 -0.25218758
-0.31390074 0.65395987 -0.25218755
-0.31390074 0.62780148 -0.25218767
-0.31390074 0.60164309 -0.25218761
-0.31390074 0.57548475 -0.25218761
-0.31390074 0.54932636 -0.25218755
-0.31390074 0.52316797 -0.25218749
-0.31390074 0.49700952 -0.25218755
-0.31390074 0.47085118 -0.25218755
-0.31390074 0.44469273 -0.25218761
-0.31390074 0.41853437 -0.25218758
-0.31390074 0.39237601 -0.25218755
-0.31390074 0.36621755 -0.25218758
-0.31390074 0.34005919 -0.25218758
-0.31390074 0.31390074 -0.25218764
-0.31390074 0.28774235 -0.25218758
-0.31390074 0.26158398 -0.25218758
-0.31390074 0.23542553 -0.25218758
-0.31390074 0.20926717 -0.25218758
-0.31390074 0.18310875 -0.25218764
-0.31390074 0.15695038 -0.25218761
-0.31390074 0.13079202 -0.25218761
-0.31390074 0.10463364 -0.25218755
-0.31390074 0.078475274 -0.25218752
-0.31390074 0.052316807 -0.25218755
-0.31390074 0.026158445 -0.25218755
-0.31390074 9.6857548e-08 -0.25218761
-0.31390074 -0.02615834 -0.25218758
-0.31390074 -0.052316695 -0.25218755
-0.31390074 -0.07847517 -0.25218761
-0.31390074 -0.10463353 -0.25218758
-0.31390074 -0.13079201 -0.25218761
-0.31390074 -0.15695037 -0.25218758
-0.31390074 -0.18310876 -0.25218752
-0.31390074 -0.20926715 -0.25218755
-0.31390074 -0.23542541 -0.25218761
-0.31390074 -0.26158395 -0.25218758
-0.31390074 -0.28774229 -0.25218761
-0.31390074 -0.31390071 -0.25218761
-0.31390074 -0.3400591 -0.25218764
-0.31390074 -0.36621755 -0.25218752
-0.31390074 -0.39237592 -0.25218755
-0.31390074 -0.41853431 -0.25218761
-0.31390074 -0.44469267 -0.25218758
-0.31390074 -0.47085106 -0.25218761
-0.31390074 -0.4970094 -0.25218758
-0.31390074 -0.52316779 -0.25218758
-0.31390074 -0.5493263 -0.25218755
-0.31390074 -0.57548463 -0.25218767
-0.31390074 -0.60164309 -0.25218758
-0.31390074 -0.62780148 -0.25218761
-0.31390074 -0.65395981 -0.25218758
-0.31390074 -0.6801182 -0.25218761
-0.31390074 -0.70627666 -0.25218752
-0.31390074 -0.73243505 -0.25218755
-0.31390074 -0.75859338 -0.25218767
-0.31390074 -0.78475183 -0.25218755
-0.28978005 0.76396555 -0.24292536
-0.28978005 0.7376219 -0.2429253
-0.28978005 0.71127838 -0.24292527
-0.28978005 0.68493468 -0.24292532
-0.28978005 0.65859103 -0.24292526
-0.28978005 0.63224739 -0.24292532
-0.28978005 0.6059038 -0.24292529
-0.28978005 0.5795601 -0.2429253
-0.28978005 0.55321646 -0.24292536
-0.28978005 0.52687281 -0.24292533
-0.28978005 0.50052923 -0.24292529
-0.28978005 0.47418556 -0.24292532
-0.28978005 0.44784197 -0.24292529
-0.28978005 0.42149827 -0.24292532
-0.28978005 0.3951546 -0.24292538
-0.28978005 0.36881101 -0.24292536
-0.28978005 0.3424674 -0.24292527
-0.28978005 0.31612372 -0.24292533
-0.28978005 0.28978011 -0.24292526
-0.28978005 0.26343644 -0.24292533
-0.28978005 0.2370927 -0.24292535
-0.28978005 0.21074913 -0.24292532
-0.28978005 0.18440557 -0.24292529
-0.28978005 0.15806192 -0.24292521
-0.28978005 0.13171825 -0.24292527
-0.28978005 0.10537459 -0.24292535
-0.28978005 0.079031013 -0.24292532
-0.28978005 0.052687302 -0.24292533
-0.28978005 0.026343592 -0.24292535
-0.28978005 9.6857548e-08 -0.2429253
-0.28978005 -0.026343614 -0.24292533
-0.28978005 -0.052687287 -0.24292532
-0.28978005 -0.079030819 -0.24292532
-0.28978005 -0.10537453 -0.24292533
-0.28978005 -0.1317182 -0.24292532
-0.28978005 -0.15806179 -0.24292529
-0.28978005 -0.18440551 -0.2429253
-0.28978005 -0.21074912 -0.24292523
-0.28978005 -0.2370927 -0.24292527
-0.28978005 -0.26343641 -0.24292529
-0.28978005 -0.28978005 -0.24292524
-0.28978005 -0.3161236 -0.24292529
-0.28978005 -0.34246731 -0.24292526
-0.28978005 -0.36881092 -0.24292536
-0.28978005 -0.39515457 -0.24292535
-0.28978005 -0.42149818 -0.24292529
-0.28978005 -0.44784182 -0.24292538
-0.28978005 -0.4741855 -0.24292533
-0.28978005 -0.50052911 -0.24292529
-0.28978005 -0.52687275 -0.24292538
-0.28978005 -0.5532164 -0.24292533
-0.28978005 -0.57956004 -0.24292526
-0.28978005 -0.60590363 -0.24292533
-0.28978005 -0.63224733 -0.24292535
-0.28978005 -0.65859103 -0.24292533
-0.28978005 -0.6849345 -0.24292533
-0.28978005 -0.7112782 -0.24292535
-0.28978005 -0.7376219 -0.24292535
-0.28978005 -0.76396555 -0.24292526
-0.26531529 0.76941437 -0.23353092
-0.26531529 0.74288285 -0.23353091
-0.26531529 0.71635133 -0.23353089
-0.26531529 0.68981981 -0.23353088
-0.26531529 0.66328824 -0.23353095
-0.26531529 0.63675672 -0.23353094
-0.26531529 0.6102252 -0.23353092
-0.26531529 0.58369368 -0.23353094
-0.26531529 0.55716217 -0.23353092
-0.26531529 0.53063065 -0.23353091
-0.26531529 0.50409913 -0.23353088
-0.26531529 0.47756755 -0.23353097
-0.26531529 0.45103598 -0.23353091
-0.26531529 0.42450449 -0.23353097
-0.26531529 0.39797297 -0.23353094
-0.26531529 0.37144142 -0.23353089
-0.26531529 0.34490994 -0.23353091
-0.26531529 0.31837842 -0.23353089
-0.26531529 0.29184684 -0.23353085
-0.26531529 0.26531526 -0.23353092
-0.26531529 0.23878378 -0.23353095
-0.26531529 0.21225223 -0.23353091
-0.26531529 0.18572071 -0.23353089
-0.26531529 0.15918922 -0.23353092
-0.26531529 0.13265766 -0.23353088
-0.26531529 0.10612616 -0.23353086
-0.26531529 0.079594605 -0.23353098
-0.26531529 0.05306308 -0.23353098
-0.26531529 0.026531592 -0.23353083
-0.26531529 8.1956387e-08 -0.23353082
-0.26531529 -0.026531518 -0.23353091
-0.26531529 -0.053063035 -0.23353089
-0.26531529 -0.0795945 -0.23353092
-0.26531529 -0.10612606 -0.23353097
-0.26531529 -0.13265762 -0.23353091
-0.26531529 -0.15918915 -0.23353088
-0.26531529 -0.18572062 -0.23353091
-0.26531529 -0.21225217 -0.23353095
-0.26531529 -0.23878369 -0.23353095
-0.26531529 -0.26531523 -0.23353092
-0.26531529 -0.29184681 -0.23353085
-0.26531529 -0.31837839 -0.23353089
-0.26531529 -0.34490982 -0.23353094
-0.26531529 -0.3714413 -0.23353094
-0.26531529 -0.39797285 -0.23353092
-0.26531529 -0.4245044 -0.23353095
-0.26531529 -0.45103598 -0.23353088
-0.26531529 -0.47756752 -0.23353086
-0.26531529 -0.50409895 -0.23353091
-0.26531529 -0.53063053 -0.23353094
-0.26531529 -0.55716199 -0.23353089
-0.26531529 -0.58369356 -0.23353092
-0.26531529 -0.6102252 -0.23353088
-0.26531529 -0.63675672 -0.23353088
-0.26531529 -0.66328812 -0.23353094
-0.26531529 -0.68981969 -0.23353094
-0.26531529 -0.71635121 -0.23353097
-0.26531529 -0.74288273 -0.23353091
-0.26531529 -0.76941431 -0.23353085
-0.24049903 0.77494133 -0.22400156
-0.24049903 0.74821925 -0.22400153
-0.24049903 0.72149718 -0.22400145
-0.24049903 0.6947751 -0.22400151
-0.24049903 0.66805285 -0.22400153
-0.24049903 0.64133084 -0.2240015
-0.24049903 0.61460865 -0.22400151
-0.24049903 0.58788657 -0.22400157
-0.24049903 0.5611645 -0.22400159
-0.24049903 0.53444242 -0.2240015
-0.24049903 0.50772029 -0.22400157
-0.24049903 0.4809981 -0.22400159
-0.24049903 0.45427603 -0.22400153
-0.24049903 0.42755383 -0.22400156
-0.24049903 0.4008317 -0.2240016
-0.24049903 0.37410963 -0.22400154
-0.24049903 0.34738755 -0.2240015
-0.24049903 0.32066539 -0.22400153
-0.24049903 0.29394332 -0.22400148
-0.24049903 0.26722115 -0.22400151
-0.24049903 0.240499 -0.22400156
-0.24049903 0.21377698 -0.22400153
-0.24049903 0.18705483 -0.22400157
-0.24049903 0.16033275 -0.22400153
-0.24049903 0.13361059 -0.22400157
-0.24049903 0.10688847 -0.22400147
-0.24049903 0.080166377 -0.22400156
-0.24049903 0.053444259 -0.22400163
-0.24049903 0.026722141 -0.22400154
-0.24049903 2.9802322e-08 -0.22400162
-0.24049903 -0.026722133 -0.22400157
-0.24049903 -0.053444162 -0.22400156
-0.24049903 -0.080166325 -0.22400151
-0.24049903 -0.10688843 -0.22400159
-0.24049903 -0.13361055 -0.2240015
-0.24049903 -0.16033262 -0.22400153
-0.24049903 -0.18705481 -0.22400153
-0.24049903 -0.21377686 -0.22400151
-0.24049903 -0.24049905 -0.22400151
-0.24049903 -0.26722112 -0.22400156
-0.24049903 -0.29394323 -0.22400163
-0.24049903 -0.32066533 -0.22400153
-0.24049903 -0.3473874 -0.22400157
-0.24049903 -0.37410957 -0.22400153
-0.24049903 -0.40083167 -0.2240016
-0.24049903 -0.42755383 -0.22400156
-0.24049903 -0.45427588 -0.22400154
-0.24049903 -0.48099804 -0.22400154
-0.24049903 -0.50772011 -0.22400157
-0.24049903 -0.53444231 -0.22400154
-0.24049903 -0.56116438 -0.22400154
-0.24049903 -0.58788651 -0.22400151
-0.24049903 -0.61460865 -0.22400157
-0.24049903 -0.64133066 -0.22400159
-0.24049903 -0.66805279 -0.22400153
-0.24049903 -0.69477499 -0.22400162
-0.24049903 -0.72149712 -0.22400156
-0.24049903 -0.74821913 -0.22400156
-0.24049903 -0.77494133 -0.22400156
-0.2153237 0.78054839 -0.21433428
-0.2153237 0.7536329 -0.21433426
-0.2153237 0.72671747 -0.21433423
-0.2153237 0.69980204 -0.21433422
-0.2153237 0.67288649 -0.21433432
-0.2153237 0.64597106 -0.21433434
-0.2153237 0.61905563 -0.2143342
-0.2153237 0.5921402 -0.21433431
-0.2153237 0.56522465 -0.21433426
-0.2153237 0.53830928 -0.21433431
-0.2153237 0.51139379 -0.21433429
-0.2153237 0.48447832 -0.21433428
-0.2153237 0.45756286 -0.21433425
-0.2153237 0.4306474 -0.21433428
-0.2153237 0.40373188 -0.21433434
-0.2153237 0.37681648 -0.21433423
-0.2153237 0.34990102 -0.21433422
-0.2153237 0.32298553 -0.21433435
-0.2153237 0.2960701 -0.21433432
-0.2153237 0.26915461 -0.21433432
-0.2153237 0.24223924 -0.21433422
-0.2153237 0.2153237 -0.21433429
-0.2153237 0.18840826 -0.21433428
-0.2153237 0.16149279 -0.21433428
-0.2153237 0.13457733 -0.21433425
-0.2153237 0.10766187 -0.21433425
-0.2153237 0.080746405 -0.21433423
-0.2153237 0.053830877 -0.21433431
-0.2153237 0.026915461 -0.21433434
-0.2153237 7.4505806e-08 -0.21433425
-0.2153237 -0.026915379 -0.21433423
-0.2153237 -0.053830914 -0.21433431
-0.2153237 -0.080746338 -0.21433426
-0.2153237 -0.1076618 -0.21433423
-0.2153237 -0.1345773 -0.21433428
-0.2153237 -0.16149276 -0.21433426
-0.2153237 -0.18840817 -0.21433429
-0.2153237 -0.2153237 -0.21433429
-0.2153237 -0.24223913 -0.21433432
-0.2153237 -0.26915458 -0.2143342
-0.2153237 -0.29607001 -0.21433425
-0.2153237 -0.32298553 -0.21433425
-0.2153237 -0.34990096 -0.21433426
-0.2153237 -0.37681648 -0.21433426
-0.2153237 -0.40373188 -0.21433425
-0.2153237 -0.43064731 -0.21433431
-0.2153237 -0.4575628 -0.21433422
-0.2153237 -0.48447827 -0.21433429
-0.2153237 -0.51139373 -0.21433426
-0.2153237 -0.53830916 -0.21433428
-0.2153237 -0.56522471 -0.21433428
-0.2153237 -0.59214008 -0.21433426
-0.2153237 -0.61905563 -0.21433426
-0.2153237 -0.64597106 -0.21433426
-0.2153237 -0.67288649 -0.21433431
-0.2153237 -0.69980192 -0.21433425
-0.2153237 -0.72671735 -0.21433431
-0.2153237 -0.7536329 -0.21433428
-0.2153237 -0.78054833 -0.21433431
-0.18978089 0.78623509 -0.20452958
-0.18978089 0.7591235 -0.20452964
-0.18978089 0.73201203 -0.20452957
-0.18978089 0.70490044 -0.20452957
-0.18978089 0.67778885 -0.20452961
-0.18978089 0.65067732 -0.20452952
-0.18978089 0.62356579 -0.20452958
-0.18978089 0.5964542 -0.20452961
-0.18978089 0.56934273 -0.20452958
-0.18978089 0.54223114 -0.20452958
-0.18978089 0.51511955 -0.20452963
-0.18978089 0.48800802 -0.20452955
-0.18978089 0.46089643 -0.20452957
-0.18978089 0.4337849 -0.20452963
-0.18978089 0.4066734 -0.20452957
-0.18978089 0.37956178 -0.20452958
-0.18978089 0.35245028 -0.20452952
-0.18978089 0.32533872 -0.20452954
-0.18978089 0.29822716 -0.2045296
-0.18978089 0.27111563 -0.20452952
-0.18978089 0.24400406 -0.20452954
-0.18978089 0.21689244 -0.20452969
-0.18978089 0.18978088 -0.20452958
-0.18978089 0.16266933 -0.20452964
-0.18978089 0.13555783 -0.20452957
-0.18978089 0.10844623 -0.2045296
-0.18978089 0.081334636 -0.20452961
-0.18978089 0.05422318 -0.20452958
-0.18978089 0.027111582 -0.20452961
-0.18978089 -7.4505806e-09 -0.20452961
-0.18978089 -0.027111478 -0.20452958
-0.18978089 -0.054223061 -0.20452961
-0.18978089 -0.081334606 -0.20452958
-0.18978089 -0.10844624 -0.20452957
-0.18978089 -0.13555771 -0.20452963
-0.18978089 -0.16266927 -0.2045296
-0.18978089 -0.18978085 -0.20452961
-0.18978089 -0.21689239 -0.2045296
-0.18978089 -0.24400395 -0.20452957
-0.18978089 -0.27111551 -0.20452955
-0.18978089 -0.2982271 -0.20452957
-0.18978089 -0.32533854 -0.20452961
-0.18978089 -0.35245019 -0.20452952
-0.18978089 -0.37956178 -0.20452952
-0.18978089 -0.40667331 -0.20452963
-0.18978089 -0.43378484 -0.20452961
-0.18978089 -0.46089637 -0.20452958
-0.18978089 -0.48800796 -0.2045296
-0.18978089 -0.51511955 -0.20452958
-0.18978089 -0.54223108 -0.20452957
-0.18978137 -0.56934404 -0.2045261
-0.18978089 -0.59645414 -0.20452963
-0.18978089 -0.62356567 -0.20452961
-0.18978089 -0.65067732 -0.20452949
-0.18978137 -0.67779064 -0.20452607
-0.18978137 -0.70490223 -0.2045261
-0.18978137 -0.73201382 -0.2045261
-0.18978137 -0.75912547 -0.20452616
-0.16386358 0.76469678 -0.19457746
-0.16386358 0.73738623 -0.19457743
-0.16386358 0.71007556 -0.1945775
-0.16386358 0.68276489 -0.1945775
-0.16386358 0.6554544 -0.19457752
-0.16386358 0.62814379 -0.19457743
-0.16386358 0.60083318 -0.19457749
-0.16386358 0.57352257 -0.19457747
-0.16386358 0.54621196 -0.19457738
-0.16386358 0.51890135 -0.19457747
-0.16386358 0.49159077 -0.1945774
-0.16386358 0.46428016 -0.19457746
-0.16386358 0.43696964 -0.19457746
-0.16386358 0.40965897 -0.19457747
-0.16386358 0.38234842 -0.19457744
-0.16386358 0.35503784 -0.19457743
-0.16386358 0.3277272 -0.19457747
-0.16386358 0.30041665 -0.19457743
-0.16386358 0.27310598 -0.19457746
-0.16386358 0.24579544 -0.19457746
-0.16386358 0.21848476 -0.19457746
-0.16386358 0.19117422 -0.19457744
-0.16386358 0.16386366 -0.1945774
-0.16386358 0.13655302 -0.19457746
-0.16386358 0.10924246 -0.19457743
-0.16386358 0.081931822 -0.19457747
-0.16386358 0.054621182 -0.19457752
-0.16386358 0.027310587 -0.19457746
-0.16386358 2.2351742e-08 -0.19457743
-0.16386358 -0.027310528 -0.19457737
-0.16386358 -0.054621123 -0.19457749
-0.16386358 -0.081931725 -0.19457749
-0.16386358 -0.10924238 -0.19457738
-0.16386358 -0.13655296 -0.19457747
-0.16386358 -0.16386355 -0.19457747
-0.16386358 -0.1911741 -0.19457746
-0.16386358 -0.21848474 -0.1945775
-0.16386358 -0.2457954 -0.19457738
-0.16386358 -0.27310589 -0.19457749
-0.16386358 -0.30041647 -0.19457746
-0.16386358 -0.32772711 -0.19457752
-0.16386358 -0.35503769 -0.19457749
-0.16386358 -0.38234839 -0.19457743
-0.16386358 -0.40965897 -0.1945774
-0.16386358 -0.43696955 -0.19457741
-0.16386358 -0.46428013 -0.19457744
-0.16386358 -0.49159062 -0.1945775
-0.16386358 -0.51890135 -0.19457744
-0.16386358 -0.54621196 -0.19457747
-0.16386358 -0.57352257 -0.19457746
-0.16386358 -0.60083312 -0.19457741
-0.16386358 -0.62814367 -0.19457744
-0.16386358 -0.65545428 -0.19457749
-0.16386358 -0.68276489 -0.19457746
-0.16386358 -0.7100755 -0.19457746
-0.16386358 -0.73738611 -0.19457749
-0.16386358 -0.76469672 -0.19457752
-0.13756293 0.77035236 -0.18447813
-0.13756293 0.74283981 -0.18447813
-0.13756293 0.71532726 -0.18447809
-0.13756293 0.68781465 -0.18447815
-0.13756293 0.66030204 -0.1844781
-0.13756293 0.63278949 -0.18447807
-0.13756293 0.60527688 -0.18447812
-0.13756293 0.57776427 -0.18447812
-0.13756293 0.55025172 -0.18447807
-0.13756293 0.52273923 -0.18447807
-0.13756293 0.49522659 -0.18447812
-0.13756293 0.46771401 -0.18447809
-0.13756293 0.44020146 -0.18447804
-0.13756293 0.41268879 -0.1844781
-0.13756293 0.38517624 -0.18447806
-0.13756293 0.35766369 -0.18447807
-0.13756293 0.33015105 -0.18447813
-0.13756293 0.30263841 -0.18447818
-0.13756293 0.27512586 -0.18447815
-0.13756293 0.24761328 -0.1844781
-0.13756293 0.22010072 -0.18447809
-0.13756293 0.19258808 -0.18447813
-0.13756293 0.16507551 -0.1844781
-0.13756293 0.13756299 -0.1844781
-0.13756293 0.1100503 -0.1844781
-0.13756293 0.08253777 -0.18447812
-0.13756293 0.055025175 -0.18447804
-0.13756293 0.027512647 -0.18447804
-0.13756293 5.2154064e-08 -0.18447815
-0.13756293 -0.027512558 -0.18447807
-0.13756293 -0.055025078 -0.18447807
-0.13756293 -0.082537733 -0.18447804
-0.13756293 -0.1100503 -0.18447809
-0.13756293 -0.13756286 -0.18447806
-0.13756293 -0.16507545 -0.18447807
-0.13756293 -0.19258797 -0.18447816
-0.13756293 -0.2201007 -0.18447813
-0.13756293 -0.24761318 -0.18447816
-0.13756293 -0.27512589 -0.1844781
-0.13756293 -0.30263835 -0.18447813
-0.13756293 -0.33015105 -0.18447807
-0.13756293 -0.35766357 -0.18447818
-0.13756293 -0.38517624 -0.18447804
-0.13756293 -0.41268873 -0.18447815
-0.13756293 -0.44020128 -0.1844781
-0.13756293 -0.46771389 -0.18447813
-0.13756293 -0.49522644 -0.18447807
-0.13756293 -0.52273905 -0.1844781
-0.13756293 -0.55025166 -0.1844781
-0.13756293 -0.57776427 -0.18447806
-0.13756293 -0.60527682 -0.18447809
-0.13756293 -0.63278937 -0.1844781
-0.13756293 -0.66030204 -0.18447809
-0.13756293 -0.68781453 -0.18447813
-0.13756293 -0.71532714 -0.18447813
-0.13756293 -0.74283969 -0.1844781
-0.13756293 -0.7703523 -0.18447813
-0.11087032 0.77609229 -0.17422831
-0.11087032 0.74837476 -0.17422825
-0.11087032 0.72065717 -0.17422822
-0.11087032 0.69293952 -0.17422825
-0.11087032 0.66522205 -0.17422819
-0.11087032 0.6375044 -0.17422821
-0.11087032 0.60978675 -0.17422824
-0.11087032 0.58206928 -0.17422816
-0.11087032 0.55435169 -0.17422822
-0.11087032 0.5266341 -0.17422824
-0.11087032 0.49891651 -0.1742283
-0.11087032 0.47119898 -0.17422822
-0.11087032 0.44348139 -0.17422825
-0.11087032 0.41576377 -0.17422828
-0.11087032 0.38804615 -0.1742283
-0.11087032 0.36032858 -0.17422819
-0.11087032 0.33261099 -0.17422824
-0.11087032 0.30489343 -0.17422828
-0.11087032 0.27717581 -0.17422831
-0.11087032 0.24945828 -0.17422822
-0.11087032 0.22174066 -0.17422825
-0.11087032 0.1940231 -0.1742283
-0.11087032 0.1663055 -0.17422833
-0.11087032 0.13858791 -0.17422822
-0.11087032 0.1108703 -0.17422824
-0.11087032 0.083152734 -0.1742283
-0.11087032 0.055435196 -0.17422822
-0.11087032 0.027717628 -0.17422828
-0.11087032 2.2351742e-08 -0.17422831
-0.11087032 -0.027717471 -0.17422827
-0.11087032 -0.055435088 -0.17422828
-0.11087032 -0.083152652 -0.17422825
-0.11087032 -0.11087026 -0.17422828
-0.11087032 -0.13858788 -0.1742283
-0.11087032 -0.16630545 -0.17422827
-0.11087032 -0.19402303 -0.17422824
-0.11087032 -0.2217406 -0.17422822
-0.11087032 -0.24945822 -0.17422822
-0.11087032 -0.27717584 -0.17422825
-0.11087032 -0.30489337 -0.17422818
-0.11087032 -0.33261096 -0.17422821
-0.11087032 -0.3603285 -0.17422831
-0.11087032 -0.38804609 -0.17422834
-0.11087032 -0.41576368 -0.1742283
-0.11087032 -0.44348127 -0.17422827
-0.11087032 -0.47119886 -0.1742283
-0.11087032 -0.49891645 -0.17422825
-0.11087032 -0.52663404 -0.17422828
-0.11087032 -0.55435163 -0.17422825
-0.11087032 -0.58206916 -0.17422822
-0.11087032 -0.60978675 -0.17422821
-0.11087032 -0.63750428 -0.17422828
-0.11087032 -0.66522181 -0.17422828
-0.11087032 -0.69293946 -0.17422828
-0.11087032 -0.72065705 -0.17422828
-0.11087032 -0.7483747 -0.17422828
-0.11087032 -0.77609223 -0.17422828
-0.083776973 0.78191841 -0.1638245
-0.083776973 0.7539928 -0.16382456
-0.083776973 0.72606707 -0.16382453
-0.083776973 0.69814146 -0.16382456
-0.083776973 0.67021579 -0.16382454
-0.083776973 0.64229012 -0.16382454
-0.083776973 0.61436439 -0.1638245
-0.083776973 0.58643878 -0.16382453
-0.083776973 0.55851322 -0.16382445
-0.083776973 0.53058755 -0.16382448
-0.083776973 0.50266182 -0.16382453
-0.083776973 0.47473615 -0.16382453
-0.083776973 0.44681051 -0.16382457
-0.083776973 0.41888484 -0.16382459
-0.083776973 0.3909592 -0.16382456
-0.083776973 0.36303353 -0.16382456
-0.083776973 0.33510792 -0.16382448
-0.083776973 0.30718228 -0.16382447
-0.083776973 0.27925661 -0.16382447
-0.083776973 0.25133094 -0.16382447
-0.083776973 0.22340533 -0.16382451
-0.083776973 0.19547962 -0.16382447
-0.083776973 0.16755392 -0.1638246
-0.083776973 0.13962834 -0.1638245
-0.083776973 0.11170267 -0.1638245
-0.083776973 0.083776966 -0.16382445
-0.083776973 0.055851344 -0.1638245
-0.083776973 0.027925722 -0.16382453
-0.083776973 5.9604645e-08 -0.16382453
-0.083776973 -0.027925648 -0.1638245
-0.083776973 -0.05585127 -0.16382453
-0.083776973 -0.083776891 -0.16382456
-0.083776973 -0.11170256 -0.16382448
-0.083776973 -0.13962819 -0.16382451
-0.083776973 -0.16755392 -0.16382453
-0.083776973 -0.19547963 -0.16382448
-0.083776973 -0.22340524 -0.16382453
-0.083776973 -0.25133085 -0.16382456
-0.083776973 -0.27925658 -0.16382453
-0.083776973 -0.30718216 -0.1638245
-0.083776973 -0.33510777 -0.16382456
-0.083776973 -0.36303347 -0.1638245
-0.083776973 -0.3909592 -0.16382448
-0.083776973 -0.41888481 -0.16382451
-0.083776973 -0.44681042 -0.16382454
-0.083776973 -0.47473615 -0.1638245
-0.083776973 -0.50266176 -0.16382456
-0.083776973 -0.53058738 -0.16382459
-0.083776973 -0.55851305 -0.16382451
-0.083776973 -0.58643878 -0.16382445
-0.083776973 -0.61436439 -0.16382454
-0.083776973 -0.64229006 -0.16382457
-0.083776973 -0.67021573 -0.1638245
-0.083776973 -0.69814134 -0.16382453
-0.083776973 -0.72606695 -0.16382456
-0.083776973 -0.75399268 -0.1638245
-0.083776973 -0.78191841 -0.1638245
-0.056273758 0.78783274 -0.15326333
-0.056273758 0.75969577 -0.15326342
-0.056273758 0.73155892 -0.15326345
-0.056273758 0.70342207 -0.15326339
-0.056273758 0.6752851 -0.15326343
-0.056273758 0.64714825 -0.1532634
-0.056273758 0.6190114 -0.15326336
-0.056273758 0.59087449 -0.15326339
-0.056273758 0.5627377 -0.15326335
-0.056273758 0.53460073 -0.1532634
-0.056273758 0.50646389 -0.15326336
-0.056273758 0.47832695 -0.15326339
-0.056273758 0.45019007 -0.15326349
-0.056273758 0.42205319 -0.15326342
-0.056273758 0.39391625 -0.15326345
-0.056273758 0.36577949 -0.1532633
-0.056273758 0.33764255 -0.15326336
-0.056273758 0.30950564 -0.15326339
-0.056273758 0.28136885 -0.1532634
-0.056273758 0.25323194 -0.15326343
-0.056273758 0.22509509 -0.1532634
-0.056273758 0.19695817 -0.15326343
-0.056273758 0.16882128 -0.15326336
-0.056273758 0.14068435 -0.15326339
-0.056273758 0.11254755 -0.15326339
-0.056273758 0.084410697 -0.15326335
-0.056273758 0.056273777 -0.15326339
-0.056273758 0.028136931 -0.15326336
-0.056273758 7.4505806e-09 -0.15326339
-0.056273758 -0.028136835 -0.15326336
-0.056273758 -0.056273762 -0.1532634
-0.056273758 -0.084410556 -0.15326339
-0.056273758 -0.11254748 -0.15326343
-0.056273758 -0.14068437 -0.15326343
-0.056273758 -0.16882122 -0.15326339
-0.056273758 -0.19695809 -0.15326339
-0.056273758 -0.22509499 -0.15326339
-0.056273758 -0.25323188 -0.15326339
-0.056273758 -0.28136873 -0.15326339
-0.056273758 -0.30950564 -0.15326339
-0.056273758 -0.33764252 -0.15326339
-0.056273758 -0.3657794 -0.1532634
-0.056273758 -0.39391631 -0.15326338
-0.056273758 -0.4220531 -0.15326346
-0.056273758 -0.45018998 -0.15326348
-0.056273758 -0.47832695 -0.1532634
-0.056273758 -0.50646377 -0.15326335
-0.056273758 -0.53460068 -0.15326336
-0.056273758 -0.56273758 -0.15326333
-0.056273758 -0.59087443 -0.15326335
-0.056273758 -0.6190114 -0.15326338
-0.056273758 -0.64714819 -0.15326336
-0.056273758 -0.6752851 -0.15326333
-0.056273758 -0.70342195 -0.15326333
-0.056273758 -0.7315588 -0.15326342
-0.056273758 -0.75969565 -0.15326345
-0.028351322 0.7654857 -0.14254135
-0.028351322 0.7371344 -0.14254129
-0.028351322 0.70878303 -0.14254132
-0.028351322 0.68043172 -0.14254135
-0.028351322 0.65208042 -0.14254129
-0.028351322 0.62372911 -0.14254132
-0.028351322 0.5953778 -0.14254124
-0.028351322 0.56702644 -0.1425413
-0.028351322 0.53867507 -0.14254132
-0.028351322 0.51032388 -0.14254129
-0.028351322 0.48197249 -0.14254133
-0.028351322 0.45362112 -0.14254136
-0.028351322 0.42526984 -0.14254129
-0.028351322 0.39691851 -0.14254132
-0.028351322 0.36856717 -0.14254135
-0.028351322 0.34021589 -0.14254132
-0.028351322 0.31186458 -0.14254123
-0.028351322 0.28351328 -0.14254129
-0.028351322 0.25516188 -0.14254129
-0.028351322 0.22681063 -0.14254126
-0.028351322 0.19845927 -0.1425413
-0.028351322 0.17010793 -0.14254133
-0.028351322 0.14175664 -0.14254127
-0.028351322 0.11340529 -0.1425413
-0.028351322 0.085053973 -0.14254138
-0.028351322 0.0567027 -0.14254132
-0.028351322 0.028351299 -0.1425413
-0.028351322 1.4901161e-08 -0.14254124
-0.028351322 -0.028351292 -0.1425413
-0.028351322 -0.056702647 -0.14254133
-0.028351322 -0.085053928 -0.14254127
-0.028351322 -0.11340529 -0.14254121
-0.028351322 -0.14175652 -0.14254129
-0.028351322 -0.17010787 -0.14254132
-0.028351322 -0.19845919 -0.1425413
-0.028351322 -0.22681047 -0.14254123
-0.028351322 -0.25516188 -0.14254132
-0.028351322 -0.28351313 -0.14254126
-0.028351245 -0.31186369 -0.14254507
-0.028351245 -0.34021485 -0.1425451
-0.028351322 -0.36856714 -0.14254126
-0.028351322 -0.39691848 -0.14254123
-0.028351322 -0.42526984 -0.14254127
-0.028351322 -0.45362103 -0.14254133
-0.028351322 -0.48197237 -0.1425413
-0.028351322 -0.51032376 -0.14254135
-0.028351322 -0.53867507 -0.14254121
-0.028351322 -0.56702638 -0.14254133
-0.028351322 -0.59537768 -0.1425413
-0.028351322 -0.62372899 -0.14254129
-0.028351322 -0.65208036 -0.14254132
-0.028351322 -0.68043166 -0.14254129
-0.028351322 -0.70878303 -0.14254129
-0.028351322 -0.73713428 -0.14254129
-0.028351322 -0.76548564 -0.14254129
0 0.77136248 -0.13165841
0 0.7427935 -0.13165835
0 0.71422446 -0.13165838
0 0.68565553 -0.13165838
0 0.65708655 -0.13165835
0 0.62851757 -0.13165836
0 0.59994859 -0.13165836
0 0.57137966 -0.13165832
0 0.54281068 -0.13165841
0 0.51424164 -0.13165845
0 0.48567265 -0.13165839
0 0.45710367 -0.13165835
0 0.42853478 -0.13165833
0 0.3999657 -0.13165839
0 0.37139675 -0.13165835
0 0.34282777 -0.13165842
0 0.31425881 -0.13165838
0 0.28568989 -0.13165836
0 0.25712085 -0.13165841
0 0.22855189 -0.13165836
0 0.19998291 -0.1316583
0 0.17141393 -0.13165839
0 0.14284483 -0.13165839
0 0.11427592 -0.13165838
0 0.085706994 -0.13165838
0 0.057138026 -0.13165833
0 0.028569032 -0.13165841
0 2.2351742e-08 -0.13165833
0 -0.028568976 -0.13165841
0 -0.057137895 -0.13165841
0 -0.085706905 -0.13165832
0 -0.11427586 -0.13165843
0 -0.14284487 -0.13165835
0 -0.17141381 -0.13165839
0 -0.19998275 -0.13165838
0 -0.22855183 -0.13165838
0 -0.25712079 -0.13165841
0 -0.2856898 -0.13165833
0 -0.31425875 -0.13165836
0 -0.34282768 -0.13165836
0 -0.37139672 -0.13165833
0 -0.39996564 -0.1316583
0 -0.42853475 -0.1316583
0 -0.45710367 -0.13165833
0 -0.48567396 -0.13165447
0 -0.51424295 -0.1316545
0 -0.54281199 -0.13165452
0 -0.57138109 -0.1316545
0 -0.59995019 -0.13165449
0 -0.6285193 -0.13165447
0 -0.65708828 -0.13165444
0 -0.68565726 -0.1316545
0 -0.71422637 -0.1316545
0 -0.74279547 -0.1316545
0 -0.77136451 -0.13165447
0.028790085 0.77733231 -0.12060317
0.028790085 0.74854219 -0.12060314
0.028790085 0.71975213 -0.12060314
0.028790085 0.69096202 -0.12060317
0.028790085 0.66217196 -0.12060311
0.028790085 0.63338184 -0.12060311
0.028790085 0.60459179 -0.12060313
0.028790085 0.57580173 -0.12060313
0.028790085 0.54701161 -0.12060311
0.028790085 0.5182215 -0.1206031
0.028790085 0.48943147 -0.1206031
0.028790085 0.46064138 -0.12060311
0.028790085 0.43185127 -0.12060308
0.028790085 0.40306124 -0.12060313
0.028790085 0.37427106 -0.1206032
0.028790085 0.34548107 -0.1206031
0.028790085 0.31669101 -0.12060311
0.028790085 0.28790087 -0.12060307
0.028790085 0.25911081 -0.12060308
0.028790085 0.23032075 -0.12060308
0.028790085 0.20153068 -0.1206031
0.028790085 0.17274056 -0.12060306
0.028790085 0.14395048 -0.12060307
0.028790085 0.11516038 -0.12060303
0.028790085 0.086370356 -0.12060308
0.028790085 0.057580207 -0.12060317
0.028790085 0.028790094 -0.12060314
0.028790085 2.2351742e-08 -0.12060315
0.028790085 -0.02879009 -0.12060311
0.028790085 -0.057580166 -0.12060312
0.028790085 -0.086370237 -0.12060313
0.028790085 -0.11516026 -0.12060317
0.028790085 -0.14395037 -0.12060314
0.028790085 -0.17274049 -0.1206031
0.028790085 -0.20153061 -0.12060308
0.028790085 -0.23032066 -0.12060317
0.028790085 -0.25911069 -0.12060321
0.028790085 -0.28790081 -0.12060318
0.028790085 -0.31669089 -0.1206031
0.028790085 -0.34548098 -0.12060307
0.028790085 -0.37427101 -0.12060311
0.028790085 -0.40306115 -0.12060307
0.028790085 -0.43185127 -0.12060305
0.028790085 -0.46064126 -0.12060308
0.028790085 -0.48943138 -0.12060305
0.028790085 -0.51822144 -0.12060314
0.028790085 -0.54701155 -0.1206031
0.028790085 -0.57580167 -0.1206031
0.028790163 -0.6045934 -0.12059924
0.028790163 -0.63338363 -0.12059912
0.028790163 -0.66217363 -0.12059921
0.028790163 -0.69096386 -0.12059915
0.028790163 -0.71975404 -0.12059918
0.028790163 -0.7485441 -0.12059927
0.028790163 -0.77733433 -0.12059918
0.058029279 0.78339523 -0.10937545
0.058029279 0.75438064 -0.10937536
0.058029279 0.725366 -0.10937548
0.058029279 0.69635135 -0.10937536
0.058029279 0.6673367 -0.10937542
0.058029279 0.63832206 -0.10937545
0.058029279 0.60930741 -0.10937536
0.058029279 0.58029282 -0.10937543
0.058029279 0.55127811 -0.10937545
0.058029279 0.52226353 -0.10937539
0.058029279 0.49324894 -0.10937534
0.058029279 0.46423423 -0.10937539
0.058029279 0.43521956 -0.1093754
0.058029279 0.40620494 -0.10937546
0.058029279 0.37719032 -0.1093754
0.058029279 0.34817576 -0.10937537
0.058029279 0.31916106 -0.10937539
0.058029279 0.29014641 -0.10937541
0.058029279 0.26113176 -0.10937548
0.058029279 0.23211715 -0.1093754
0.058029279 0.20310247 -0.10937542
0.058029279 0.17408785 -0.10937536
0.058029279 0.14507321 -0.10937542
0.058029279 0.11605861 -0.10937535
0.058029279 0.087043963 -0.10937542
0.058029279 0.058029279 -0.10937543
0.058029279 0.029014722 -0.1093754
0.058029279 7.8231096e-08 -0.10937546
0.058029279 -0.029014617 -0.10937531
0.058029279 -0.05802926 -0.10937538
0.058029279 -0.087043941 -0.1093754
0.058029279 -0.11605854 -0.10937551
0.058029279 -0.14507315 -0.10937543
0.058029279 -0.17408779 -0.10937542
0.058029279 -0.20310244 -0.10937539
0.058029279 -0.23211704 -0.10937548
0.058029279 -0.26113164 -0.10937542
0.058029279 -0.29014629 -0.1093754
0.058029279 -0.31916097 -0.10937542
0.058029279 -0.34817564 -0.10937543
0.058029279 -0.37719029 -0.10937542
0.058029279 -0.40620491 -0.10937536
0.058029279 -0.43521953 -0.10937545
0.058029279 -0.46423417 -0.10937543
0.058029279 -0.49324882 -0.1093754
0.058029279 -0.52226347 -0.10937542
0.058029279 -0.551278 -0.10937545
0.058029279 -0.58029282 -0.10937539
0.058029279 -0.60930741 -0.10937536
0.058029279 -0.638322 -0.10937542
0.058029279 -0.66733664 -0.10937542
0.058029279 -0.69635129 -0.10937542
0.058029439 -0.7253679 -0.10937142
0.058029279 -0.75438052 -0.10937545
0.058029279 -0.78339517 -0.10937548
0.087728165 0.76031077 -0.097971201
0.087728165 0.73106813 -0.097971261
0.087728165 0.70182532 -0.097971171
0.087728165 0.67258269 -0.097971141
0.087728165 0.64333993 -0.097971201
0.087728165 0.61409724 -0.097971171
0.087728165 0.58485448 -0.097971201
0.087728165 0.55561179 -0.097971141
0.087728165 0.52636904 -0.097971201
0.087728165 0.49712628 -0.097971231
0.087728165 0.46788365 -0.097971231
0.087728165 0.43864095 -0.097971171
0.087728165 0.40939814 -0.097971216
0.087728165 0.38015544 -0.097971126
0.087728165 0.35091269 -0.097971208
0.087728165 0.32166994 -0.097971253
0.087728165 0.29242724 -0.097971193
0.087728165 0.26318461 -0.097971179
0.087728165 0.23394179 -0.097971186
0.087728165 0.20469914 -0.097971171
0.087728165 0.17545639 -0.097971201
0.087728165 0.14621362 -0.097971246
0.087728165 0.11697093 -0.097971201
0.087728165 0.087728165 -0.097971246
0.087728165 0.058485478 -0.097971186
0.087728165 0.029242788 -0.097971141
0.087728165 6.3329935e-08 -0.097971216
0.087728165 -0.02924262 -0.097971171
0.087728165 -0.058485385 -0.097971208
0.087728165 -0.087728202 -0.097971208
0.087728165 -0.11697084 -0.097971201
0.087728165 -0.14621365 -0.097971201
0.087728165 -0.1754563 -0.097971186
0.087728165 -0.20469898 -0.097971216
0.087728165 -0.2339417 -0.097971134
0.087728165 -0.26318449 -0.097971253
0.087728165 -0.29242721 -0.097971164
0.087728165 -0.32166988 -0.097971201
0.087728165 -0.35091266 -0.097971156
0.087728165 -0.38015535 -0.097971186
0.087728165 -0.40939802 -0.097971231
0.087728165 -0.43864077 -0.097971141
0.087728165 -0.46788353 -0.097971246
0.087728165 -0.49712628 -0.097971216
0.087728165 -0.52636898 -0.097971201
0.087728165 -0.55561173 -0.097971141
0.087728165 -0.58485448 -0.097971112
0.087728165 -0.61409712 -0.097971201
0.087728165 -0.64333987 -0.097971171
0.087728165 -0.67258251 -0.097971201
0.087728165 -0.70182532 -0.097971201
0.087728165 -0.73106813 -0.097971112
0.087728165 -0.76031077 -0.097971171
0.11789769 0.76633501 -0.086386204
0.11789769 0.73686051 -0.086386234
0.11789769 0.70738614 -0.086386263
0.11789769 0.67791164 -0.086386263
0.11789769 0.64843738 -0.086386234
0.11789769 0.61896282 -0.086386263
0.11789769 0.58948845 -0.086386263
0.11789769 0.56001401 -0.086386204
0.11789769 0.53053969 -0.086386248
0.11789769 0.50106514 -0.086386278
0.11789769 0.47159088 -0.086386189
0.11789769 0.44211632 -0.086386234
0.11789769 0.41264197 -0.086386248
0.11789769 0.38316754 -0.086386204
0.11789769 0.3536931 -0.086386308
0.11789769 0.32421863 -0.086386256
0.11789769 0.29474428 -0.086386271
0.11789769 0.26526985 -0.086386204
0.11789769 0.23579539 -0.086386316
0.11789769 0.20632096 -0.086386263
0.11789769 0.17684656 -0.086386248
0.11789769 0.14737219 -0.086386263
0.11789769 0.11789767 -0.086386301
0.11789769 0.088423342 -0.086386189
0.11789769 0.058948863 -0.086386256
0.11789769 0.029474502 -0.086386278
0.11789769 5.5879354e-08 -0.086386219
0.11789769 -0.029474346 -0.086386204
0.11789769 -0.05894883 -0.086386271
0.11789769 -0.088423237 -0.086386256
0.11789769 -0.11789763 -0.086386241
0.11789769 -0.14737211 -0.086386308
0.11789769 -0.17684644 -0.086386204
0.11789769 -0.20632088 -0.086386226
0.11789769 -0.23579532 -0.086386248
0.11789769 -0.26526973 -0.086386241
0.11789769 -0.29474419 -0.086386256
0.11789769 -0.32421863 -0.086386293
0.11789769 -0.35369307 -0.086386308
0.11789769 -0.38316742 -0.086386248
0.11789769 -0.41264185 -0.086386278
0.11789769 -0.44211629 -0.086386323
0.11789769 -0.47159067 -0.086386234
0.11789769 -0.50106514 -0.086386263
0.11789769 -0.53053951 -0.086386248
0.11789769 -0.56001395 -0.086386278
0.11789769 -0.58948839 -0.086386263
0.11789769 -0.61896276 -0.086386293
0.11789769 -0.6484372 -0.086386263
0.11789769 -0.67791176 -0.086386234
0.11789769 -0.70738602 -0.086386293
0.11789769 -0.73686051 -0.086386293
0.11789769 -0.76633501 -0.086386204
0.14854911 0.77245539 -0.074616313
0.14854911 0.74274558 -0.074616283
0.14854911 0.7130357 -0.074616373
0.14854911 0.68332601 -0.074616283
0.14854911 0.65361619 -0.074616224
0.14854911 0.62390625 -0.074616313
0.14854911 0.5941965 -0.074616283
0.14854911 0.56448668 -0.074616268
0.14854911 0.53477687 -0.074616209
0.14854911 0.50506699 -0.074616298
0.14854911 0.47535717 -0.074616298
0.14854911 0.44564742 -0.074616268
0.14854911 0.4159376 -0.074616268
0.14854911 0.38622776 -0.074616209
0.14854911 0.35651785 -0.074616298
0.14854911 0.32680809 -0.074616276
0.14854911 0.29709828 -0.074616261
0.14854911 0.26738849 -0.074616261
0.14854911 0.23767856 -0.074616291
0.14854911 0.20796877 -0.074616268
0.14854911 0.17825893 -0.074616224
0.14854911 0.14854918 -0.074616253
0.14854911 0.11883926 -0.074616298
0.14854911 0.089129515 -0.07461632
0.14854911 0.059419665 -0.074616268
0.14854911 0.029709874 -0.074616261
0.14854911 2.9802322e-08 -0.074616209
0.14854911 -0.029709797 -0.074616328
0.14854911 -0.059419639 -0.074616276
0.14854911 -0.089129433 -0.074616261
0.14854911 -0.11883923 -0.074616253
0.14854911 -0.14854911 -0.074616328
0.14854911 -0.1782589 -0.074616313
0.14854911 -0.20796871 -0.074616306
0.14854911 -0.23767862 -0.074616261
0.14854911 -0.26738831 -0.074616328
0.14854911 -0.29709825 -0.074616283
0.14854911 -0.32680792 -0.074616313
0.14854911 -0.35651779 -0.074616224
0.14854911 -0.38622761 -0.074616209
0.14854911 -0.41593742 -0.074616224
0.14854911 -0.44564724 -0.074616224
0.14854911 -0.47535706 -0.074616268
0.14854911 -0.50506687 -0.074616253
0.14854911 -0.53477669 -0.074616328
0.14854911 -0.5644865 -0.074616328
0.14854911 -0.59419644 -0.074616194
0.14854911 -0.62390614 -0.074616283
0.14854911 -0.65361607 -0.074616253
0.14854911 -0.68332583 -0.074616224
0.14854911 -0.7130357 -0.074616253
0.14854911 -0.74274552 -0.074616253
0.14854911 -0.77245528 -0.074616224
0.17969356 0.7786721 -0.062661082
0.17969356 0.74872327 -0.062660933
0.17969356 0.7187742 -0.062661052
0.17969356 0.68882537 -0.062660903
0.17969356 0.65887642 -0.062661082
0.17969356 0.62892747 -0.062660992
0.17969356 0.59897852 -0.062661052
0.17969356 0.56902969 -0.062661037
0.17969356 0.53908068 -0.062661082
0.17969356 0.50913179 -0.062661022
0.17969356 0.4791829 -0.062660947
0.17969356 0.44923392 -0.062661022
0.17969356 0.419285 -0.062660933
0.17969356 0.38933608 -0.062661007
0.17969356 0.35938719 -0.062660962
0.17969356 0.32943821 -0.062660992
0.17969356 0.29948935 -0.062660955
0.17969356 0.26954037 -0.062660977
0.17969356 0.23959145 -0.062660918
0.17969356 0.2096425 -0.06266097
0.17969356 0.17969362 -0.062660947
0.17969356 0.14974469 -0.062661007
0.17969356 0.11979574 -0.062661067
0.17969356 0.089846872 -0.062661037
0.17969356 0.059897836 -0.062661014
