# .PCD v0.7 - Point Cloud Data file format
VERSION 0.7
FIELDS x y z
SIZE 4 4 4
TYPE F F F
COUNT 1 1 1
WIDTH 1359
HEIGHT 1
VIEWPOINT 0 0 0 1 0 0 0
POINTS 1359
DATA ascii
-0.9487673 0.41508573 -0.07765846
-0.95499903 0.38796833 -0.067921355
-0.96131599 0.36049354 -0.058051124
-0.89822572 0.49257547 -0.11135612
-0.90399301 0.46657708 -0.10205407
-0.90983242 0.44024155 -0.092635721
-0.91575027 0.41356462 -0.083090842
-0.92174304 0.38653743 -0.073425099
-0.92781723 0.35915509 -0.063627884
-0.9339695 0.33140862 -0.053704917
-0.94020653 0.30329245 -0.043645144
-0.94652474 0.27479756 -0.033454455
-0.95293123 0.24591783 -0.023121454
-0.8606686 0.51640117 -0.12565967
-0.86613995 0.49081263 -0.11654089
-0.87167877 0.46489537 -0.10730933
-0.87729138 0.43864572 -0.097955003
-0.88297427 0.41205475 -0.088483468
-0.88873374 0.38511801 -0.078884304
-0.89456642 0.35782659 -0.069163293
-0.9004786 0.33017543 -0.059309676
-0.90646696 0.30215567 -0.049329154
-0.91253799 0.27376142 -0.03921067
-0.91868836 0.24498357 -0.028960221
-0.92492217 0.21581513 -0.01857052
-0.93124378 0.18624881 -0.008034341
-0.93764973 0.156275 0.0026421472
-0.94414723 0.12588632 0.013471279
-0.82902932 0.51456988 -0.13074648
-0.83428067 0.48906112 -0.12169243
-0.83959663 0.46322578 -0.11252695
-0.8449831 0.43706024 -0.10323989
-0.85043681 0.41055572 -0.093836963
-0.85596377 0.38370791 -0.08430773
-0.86156064 0.35650784 -0.074658021
-0.86723357 0.3289507 -0.064877018
-0.87297928 0.30102736 -0.054970704
-0.87880409 0.27273232 -0.04492791
-0.88470459 0.24405643 -0.034754567
-0.89068747 0.2149936 -0.024439141
-0.89674926 0.18553442 -0.013987847
-0.90289676 0.15567192 -0.0033888221
-0.90912646 0.1253968 0.0073519349
-0.91544539 0.094701365 0.018246721
-0.92185003 0.063575923 0.029289113
-0.92834765 0.032012038 0.040492054
-0.93493479 7.6368451e-08 0.051849052
-0.79761571 0.51275301 -0.13579358
-0.80264795 0.487322 -0.12680744
-0.80774629 0.46156931 -0.11770323
-0.81290758 0.43548626 -0.10848667
-0.81813747 0.40906876 -0.099147499
-0.82343286 0.38230816 -0.08969149
-0.82879955 0.35519978 -0.080108255
-0.8342343 0.32773495 -0.070403285
-0.83974314 0.29990828 -0.060566038
-0.84532279 0.27171087 -0.050602332
-0.85097963 0.24313711 -0.040500864
-0.85671014 0.2141775 -0.030267902
-0.86252087 0.18482596 -0.019891508
-0.86840838 0.15507296 -0.0093779936
-0.87437946 0.12491138 0.0012846254
-0.88043058 0.094331942 0.012090199
-0.8865661 0.063326269 0.02304641
-0.89279038 0.031885389 0.034161169
-0.89909989 -5.5879354e-09 0.045428168
-0.90550202 -0.032339379 0.056860618
-0.91199321 -0.065142311 0.068451986
-0.91858095 -0.098419346 0.080215767
-0.92526168 -0.13218015 0.092145681
-0.93204325 -0.16643625 0.10425559
-0.76642114 0.51094741 -0.1408089
-0.77124155 0.48559654 -0.13188227
-0.77612078 0.45992348 -0.12284657
-0.78106439 0.43392467 -0.11369187
-0.7860691 0.4075914 -0.10442379
-0.79113841 0.3809185 -0.095036194
-0.79627579 0.35390034 -0.085522667
-0.80147803 0.32652816 -0.075888783
-0.80675089 0.29879662 -0.066124201
-0.81209141 0.27069718 -0.056234419
-0.81750536 0.24222386 -0.046208471
-0.82298964 0.2133677 -0.036052331
-0.82855046 0.18412235 -0.02575466
-0.83418447 0.15447855 -0.015321352
-0.83989805 0.12442939 -0.0047406033
-0.84568793 0.093965292 0.0059815124
-0.85156083 0.063078605 0.016857099
-0.85751325 0.03175972 0.027880134
-0.86355209 2.9802322e-08 0.039063077
-0.86967391 -0.032210164 0.05039981
-0.87588584 -0.064880431 0.061903324
-0.88218439 -0.09802039 0.073567413
-0.88857692 -0.13164106 0.085405536
-0.89506 -0.1657518 0.097411282
-0.90164131 -0.20036463 0.1095988
-0.90831715 -0.23548955 0.12196143
-0.91509557 -0.27113938 0.13451403
-0.92197287 -0.30732429 0.14724979
-0.7354455 0.50915456 -0.14578907
-0.74005473 0.48388192 -0.13692521
-0.7447201 0.4582893 -0.12795341
-0.74944663 0.43237308 -0.11886382
-0.75423151 0.40612474 -0.1096621
-0.75907999 0.37954003 -0.10033818
-0.76398909 0.35261044 -0.090897553
-0.76896417 0.32533103 -0.081330046
-0.77400237 0.29769328 -0.071641184
-0.77910924 0.26969171 -0.061820261
-0.78428167 0.24131751 -0.051873229
-0.78952557 0.21256471 -0.041788928
-0.79483765 0.18342412 -0.031573303
-0.80022418 0.15388934 -0.021214709
-0.80568177 0.12395106 -0.010719407
-0.81121665 0.093601957 -7.5250864e-05
-0.81682581 0.062832788 0.010711538
-0.82251543 0.031635314 0.021653116
-0.82828248 1.8626451e-08 0.032743372
-0.83413082 -0.032081943 0.043990403
-0.840065 -0.064620376 0.055402368
-0.84608161 -0.097624779 0.066972643
-0.85218769 -0.13110588 0.078715056
-0.85837978 -0.16507299 0.090623021
-0.86466533 -0.19953816 0.10271052
-0.87104076 -0.23451094 0.11497101
-0.87751371 -0.27000415 0.12741917
-0.88408083 -0.30602795 0.14004806
-0.89074981 -0.34259605 0.15287307
-0.89751726 -0.37971881 0.16588739
-0.90439129 -0.41741136 0.17910667
-0.91136843 -0.45568413 0.19252425
-0.70468837 0.5073756 -0.15073067
-0.70908737 0.4821794 -0.14193261
-0.71354359 0.45666793 -0.13302012
-0.71805423 0.43083256 -0.12399888
-0.72262424 0.40466955 -0.11485897
-0.72725075 0.37817037 -0.10560586
-0.73193896 0.35133076 -0.096229479
-0.73668593 0.32414186 -0.086735487
-0.74149483 0.29659796 -0.077117689
-0.74636912 0.26869297 -0.067369081
-0.75130576 0.24041787 -0.057495914
-0.75631022 0.21176687 -0.047486849
-0.76137966 0.1827312 -0.037347905
-0.76651978 0.15330401 -0.027067807
-0.7717275 0.12347639 -0.016652387
-0.77700871 0.093241096 -0.0060899071
-0.78236043 0.062588833 0.0046134889
-0.78778875 0.031511556 0.015470099
-0.7932905 5.4016709e-08 0.026473539
-0.79887205 -0.03195487 0.037636783
-0.80453026 -0.064362355 0.048953075
-0.81027162 -0.097232513 0.060435865
-0.81609309 -0.13057478 0.072078802
-0.82200134 -0.16440019 0.083895341
-0.82799315 -0.19871831 0.095878974
-0.83407557 -0.2335411 0.10804376
-0.84024537 -0.26887843 0.12038339
-0.84650981 -0.30474347 0.13291228
-0.85286564 -0.3411462 0.14562389
-0.8593204 -0.37810087 0.15853353
-0.86587083 -0.41561794 0.17163429
-0.8725248 -0.45371276 0.18494208
-0.87927878 -0.49239603 0.19845016
-0.88614118 -0.5316847 0.21217503
-0.89310849 -0.57158935 0.22610964
-0.90018934 -0.61212862 0.24027124
-0.90738016 -0.65331376 0.2546531
-0.67414355 0.50560772 -0.1556415
-0.67833722 0.48048884 -0.14690496
-0.68258512 0.45505676 -0.13805503
-0.6868847 0.42930296 -0.12909752
-0.69124073 0.40322375 -0.12002254
-0.69565046 0.37681067 -0.11083566
-0.70011866 0.35005936 -0.10152683
-0.70464271 0.32296121 -0.092101701
-0.70922762 0.29551154 -0.082549781
-0.71387053 0.26770154 -0.07287699
-0.71857673 0.23952556 -0.06307248
-0.72334325 0.21097516 -0.053142197
-0.72817564 0.1820439 -0.043074921
-0.73307079 0.15272312 -0.032876544
-0.73803443 0.12300578 -0.022535659
-0.74306351 0.092882968 -0.012058422
-0.74816382 0.062347025 -0.0014327187
-0.75333244 0.031388901 0.0093352543
-0.75857514 9.778887e-08 0.020257547
-0.76388913 -0.031828672 0.031328317
-0.76928037 -0.064106613 0.042560071
-0.77474588 -0.096843228 0.053946536
-0.78029203 -0.13004865 0.065500997
-0.78591573 -0.16373244 0.077217072
-0.79162353 -0.19790593 0.089108326
-0.79741234 -0.23257867 0.10116836
-0.80328894 -0.2677629 0.11341133
-0.8092503 -0.30346885 0.12583083
-0.81530076 -0.33970854 0.13843593
-0.82144511 -0.37649563 0.15123653
-0.82767993 -0.41383994 0.16422585
-0.83401293 -0.45175695 0.17741963
-0.84044087 -0.49025711 0.19081111
-0.84697139 -0.52935719 0.20441639
-0.8536014 -0.5690676 0.21822885
-0.86033887 -0.60940671 0.23226529
-0.86718065 -0.65038544 0.246519
-0.87413502 -0.69202352 0.26100737
-0.88119888 -0.73433238 0.27572373
-0.88838094 -0.77733332 0.29068631
-0.89567786 -0.82103789 0.30588818
-0.64381099 0.50385213 -0.16051824
-0.6478036 0.47881144 -0.15183862
-0.65184432 0.45345694 -0.14305454
-0.65593749 0.4277854 -0.1341562
-0.66008067 0.40178823 -0.12514932
-0.66427833 0.37546167 -0.11602402
-0.66852784 0.3487972 -0.10678588
-0.67283398 0.32179016 -0.09742488
-0.677194 0.29443222 -0.0879464
-0.68161291 0.26671809 -0.078340299
-0.68608785 0.23863928 -0.068612069
-0.69062388 0.21018995 -0.058751039
-0.69521838 0.18136135 -0.048763048
-0.69987434 0.15214664 -0.038641386
-0.70459515 0.12253834 -0.028378684
-0.70937806 0.092527643 -0.017981175
-0.71422839 0.0621069 -0.0074369181
-0.71914339 0.031267103 0.0032478506
-0.72412872 3.9115548e-08 0.014085413
-0.72918141 -0.031703513 0.025069555
-0.73430729 -0.063852802 0.036212824
-0.73950356 -0.09645693 0.047509059
-0.74477613 -0.12952621 0.058971096
-0.75012213 -0.16306993 0.07059294
-0.75554776 -0.19709933 0.082387879
-0.76105011 -0.23162392 0.094349369
-0.7666356 -0.26665586 0.10649166
-0.7723012 -0.30220482 0.11880826
-0.7780537 -0.33828419 0.13131359
-0.78388995 -0.37490386 0.14400129
-0.78981698 -0.41207832 0.15688613
-0.7958318 -0.44981787 0.16996171
-0.80194151 -0.48813814 0.18324377
-0.80814314 -0.52704984 0.19672543
-0.81444407 -0.56656969 0.21042322
-0.82084125 -0.60670882 0.22433032
-0.82734257 -0.64748549 0.2384636
-0.83394492 -0.68891096 0.25281632
-0.84065628 -0.73100537 0.26740634
-0.84747362 -0.77378029 0.28222677
-0.85440254 -0.81725442 0.29728943
-0.86144865 -0.86144853 0.31260705
-0.86860877 -0.90637439 0.32817274
-0.87589222 -0.95205665 0.34400615
-0.6136899 0.50210989 -0.16535769
-0.61748081 0.4771443 -0.15674178
-0.62132061 0.45186955 -0.14801511
-0.62520665 0.42627728 -0.13918312
-0.62914169 0.40036291 -0.13023984
-0.63312829 0.37412131 -0.12117937
-0.637164 0.34754404 -0.11200732
-0.64125329 0.32062668 -0.10271359
-0.64539361 0.29336077 -0.093303703
-0.64958948 0.26574126 -0.083767571
-0.65383852 0.23775952 -0.074110806
-0.65814525 0.20940989 -0.064322606
-0.66250736 0.18068394 -0.054408837
-0.66692948 0.15157492 -0.04435854
-0.67140913 0.12207445 -0.034177534
-0.67595136 0.092175208 -0.023854312
-0.68055338 0.061868541 -0.013395093
-0.6852206 0.031146407 -0.002787916
-0.68995023 -4.6566129e-09 0.007961289
-0.69474763 -0.031579435 0.018864471
-0.69961011 -0.063600823 0.029915649
-0.70454329 -0.09607406 0.041127443
-0.70954436 -0.12900797 0.052493464
-0.71461916 -0.16241334 0.064027116
-0.71976483 -0.19629952 0.075721785
-0.72498745 -0.2306778 0.087591358
-0.73028404 -0.26555777 0.099629119
-0.73565865 -0.30095115 0.1118441
-0.74111527 -0.33687049 0.12424551
-0.74665344 -0.37332672 0.13683231
-0.75227261 -0.41033041 0.14960301
-0.75797695 -0.44789541 0.16256754
-0.763771 -0.48603609 0.17573591
-0.76965177 -0.52476251 0.18910128
-0.77562642 -0.56409186 0.20267989
-0.78169185 -0.60403472 0.21646513
-0.78785557 -0.64460909 0.23047361
-0.79411465 -0.6858263 0.24469873
-0.80047667 -0.72770596 0.25915784
-0.80693865 -0.77025962 0.27384412
-0.81350869 -0.81350863 0.28877601
-0.82018363 -0.85746467 0.30394638
-0.82697201 -0.90215117 0.31937438
-0.83387065 -0.94758028 0.33505332
-0.58377481 0.50037849 -0.1701673
-0.58736849 0.47548878 -0.16161102
-0.59100819 0.45029199 -0.15294489
-0.59469175 0.42477983 -0.14417465
-0.59842312 0.39894873 -0.13529041
-0.60219991 0.37279052 -0.12629792
-0.60602641 0.34630084 -0.11718731
-0.60990018 0.31947148 -0.10796418
-0.61382544 0.2922979 -0.09861818
-0.61779982 0.26477137 -0.089155339
-0.62182778 0.23688686 -0.079564981
-0.62590688 0.2086357 -0.069852918
-0.6300416 0.18001185 -0.060008373
-0.63422942 0.15100713 -0.050037201
-0.63847524 0.12161437 -0.039928179
-0.64277637 0.091825232 -0.029687375
-0.64713585 0.06163206 -0.019307658
-0.65155679 0.031026538 -0.0087815719
-0.65603662 2.7357601e-09 0.00188467
-0.66058046 -0.031456128 0.012703198
-0.66518563 -0.063350968 0.023668015
-0.66985756 -0.095693961 0.034791525
-0.67459345 -0.12849396 0.046067499
-0.67939889 -0.16176155 0.057509027
-0.68427116 -0.19550598 0.069109753
-0.68921602 -0.22973865 0.080883116
-0.69423062 -0.26446879 0.092822626
-0.69932097 -0.29970896 0.10494257
-0.70448428 -0.33546862 0.11723614
-0.70972669 -0.3717615 0.12971807
-0.71504533 -0.40859732 0.14238153
-0.72044665 -0.4459908 0.15524198
-0.72592789 -0.48395187 0.16829231
-0.73149556 -0.5224967 0.18154866
-0.73714679 -0.56163555 0.19500405
-0.74288851 -0.60138583 0.20867491
-0.7487179 -0.6417582 0.2225544
-0.75464207 -0.68277133 0.2366595
-0.76065809 -0.72443622 0.25098336
-0.76677346 -0.7667734 0.2655437
-0.77298528 -0.80979407 0.28033388
-0.77930129 -0.85352033 0.29537186
-0.78571862 -0.897964 0.31065118
-0.79224533 -0.94314903 0.32619095
-0.55406541 0.4986589 -0.17494394
-0.55746579 0.47384599 -0.16644275
-0.56090677 0.4487254 -0.15784049
-0.56439048 0.42329288 -0.14913121
-0.56791919 0.3975434 -0.14030939
-0.57149237 0.37147003 -0.13137642
-0.57510918 0.34506556 -0.12233428
-0.57877213 0.31832466 -0.11317708
-0.58248359 0.29124188 -0.10389827
-0.58624136 0.26380867 -0.094503954
-0.59004962 0.23601991 -0.084983341
-0.59390593 0.20786707 -0.075342536
-0.59781474 0.17934446 -0.065570548
-0.60177356 0.15044342 -0.055673558
-0.60578692 0.12115738 -0.0456401
-0.60985243 0.091477931 -0.03547629
-0.61397463 0.06139756 -0.025170758
-0.61815119 0.030907651 -0.01472947
-0.62238669 -5.4482371e-08 -0.0041405642
-0.62667888 -0.03133399 0.0065898448
-0.63103247 -0.063103192 0.017473811
-0.63544518 -0.095316783 0.028505512
-0.6399219 -0.12798432 0.039697427
-0.6444602 -0.16111501 0.051043037
-0.64906526 -0.19471958 0.062555842
-0.65373468 -0.22880705 0.07422927
-0.65847373 -0.26338944 0.086077042
-0.66328001 -0.29847589 0.098092683
-0.66815901 -0.33407944 0.11029015
-0.67310822 -0.37020957 0.12266312
-0.67813343 -0.40687996 0.13522619
-0.68323201 -0.4441008 0.14797282
-0.68841016 -0.48188704 0.160918
-0.69366509 -0.52024877 0.17405528
-0.69900316 -0.55920243 0.18740049
-0.70442164 -0.59875834 0.20094682
-0.70992488 -0.63893229 0.21470478
-0.71551716 -0.6797412 0.22868556
-0.72119576 -0.72119558 0.24288198
-0.72696775 -0.76331609 0.257312
-0.73283029 -0.8061133 0.27196831
-0.73879075 -0.84960926 0.28686953
-0.7448464 -0.89381552 0.30200851
-0.75100476 -0.93875581 0.31740448
-0.75726306 -0.98444194 0.33305025
-0.52455944 0.4969511 -0.1796878
-0.52776766 0.47221321 -0.17124502
-0.53101403 0.44716972 -0.16270202
-0.534302 0.42181736 -0.15404949
-0.53762949 0.39614803 -0.14529303
-0.54100007 0.37015799 -0.13642284
-0.54441178 0.34383905 -0.12744474
-0.54786831 0.31718692 -0.1183487
-0.55136746 0.29019338 -0.1091404
-0.5549131 0.26285362 -0.099809609
-0.55850309 0.23515928 -0.090362251
-0.56214148 0.20710471 -0.080787674
-0.56582594 0.17868191 -0.071091712
-0.56956065 0.14988445 -0.061263621
-0.57334334 0.12070392 -0.051309075
-0.57717824 0.091133438 -0.041217238
-0.58106315 0.06116451 -0.030993856
-0.58500242 0.030789657 -0.020627435
-0.58899367 2.4680048e-08 -0.010124034
-0.59304154 -0.031212699 0.00052824337
-0.59714365 -0.062857196 0.011323348
-0.60130298 -0.09494248 0.022268903
-0.60552239 -0.12747833 0.033372719
-0.60979968 -0.16047345 0.044628575
-0.61413962 -0.19393875 0.056049541
-0.61853993 -0.22788304 0.067629211
-0.62300563 -0.26231816 0.079381071
-0.62753433 -0.29725319 0.091298826
-0.63213134 -0.33270064 0.10339623
-0.63679421 -0.36867034 0.11566699
-0.64152843 -0.40517578 0.1281254
-0.64633149 -0.44222671 0.14076491
-0.65120912 -0.47983819 0.1536008
-0.65615875 -0.51801997 0.16662619
-0.6611864 -0.55678856 0.17985691
-0.66628945 -0.59615374 0.19328602
-0.67147416 -0.63613343 0.20693006
-0.67673796 -0.6767379 0.22078207
-0.68208718 -0.71798646 0.23485899
-0.68751931 -0.7598896 0.24915406
-0.69304109 -0.8024686 0.26368505
-0.69864982 -0.84573394 0.27844477
-0.70435256 -0.88970846 0.29345191
-0.71014661 -0.9344033 0.3086994
-0.7160393 -0.97984326 0.32420665
-0.49525622 0.49525625 -0.18439573
-0.49827352 0.47059172 -0.17601423
-0.50132918 0.44562596 -0.16752629
-0.50442117 0.42035097 -0.15893739
-0.50755298 0.39476344 -0.15023798
-0.51072246 0.36885521 -0.14143378
-0.51393318 0.3426221 -0.1325151
-0.51718318 0.31605637 -0.12348747
-0.52047592 0.28915331 -0.11434088
-0.52380943 0.26190472 -0.10508118
-0.52718735 0.23430553 -0.095697977
-0.53060764 0.20634748 -0.086197212
-0.5340727 0.17802426 -0.076572224
-0.53758472 0.14932913 -0.066816524
-0.54114169 0.12025382 -0.056935925
-0.54474765 0.09079133 -0.046919473
-0.5484004 0.060933374 -0.036772948
-0.55210406 0.030672442 -0.026484985
-0.55585647 2.0489097e-08 -0.016061615
-0.55966187 -0.031092331 -0.0054909978
-0.56351811 -0.062613115 0.0052206665
-0.56742948 -0.094571516 0.016085714
-0.57139385 -0.12697646 0.027097829
-0.57541579 -0.15983769 0.038269814
-0.57949293 -0.19316426 0.04959517
-0.58363003 -0.2269672 0.061087206
-0.58782482 -0.26125544 0.072739422
-0.59208226 -0.29604104 0.084565558
-0.5963999 -0.33133334 0.096559018
-0.60078287 -0.36714503 0.10873389
-0.60522878 -0.40348577 0.12108374
-0.609743 -0.4403699 0.13362315
-0.61432302 -0.47780687 0.1463456
-0.61897439 -0.51581198 0.15926611
-0.62369478 -0.5543952 0.17237805
-0.62848765 -0.59357154 0.18569167
-0.63335681 -0.63335687 0.1992172
-0.63830209 -0.67376328 0.2129541
-0.643323 -0.71480322 0.22690088
-0.64842349 -0.75649405 0.24106903
-0.65360779 -0.79885381 0.25546986
-0.65887338 -0.84189379 0.27009654
-0.66422683 -0.88563585 0.28496709
-0.66966558 -0.93009096 0.30007473
-0.67519659 -0.97528386 0.31543866
-0.46615094 0.49357155 -0.18907528
-0.46898121 0.46898121 -0.18075083
-0.47184736 0.44409162 -0.17232108
-0.47474748 0.41889489 -0.16379133
-0.47768471 0.39338744 -0.15515237
-0.48065725 0.36756146 -0.14640956
-0.4836683 0.34141296 -0.13755348
-0.48671603 0.31493396 -0.12858966
-0.4898037 0.28811985 -0.11950815
-0.49292946 0.26096269 -0.11031474
-0.49609676 0.2334574 -0.10099918
-0.49930364 0.20559564 -0.091567196
-0.50255364 0.17737198 -0.082008407
-0.50584483 0.14877796 -0.072328478
-0.50918084 0.1198073 -0.062516741
-0.51255965 0.090451732 -0.052579008
-0.51598513 0.060704205 -0.042504139
-0.51945519 0.030556222 -0.032298043
-0.52297372 6.4261258e-08 -0.021949325
-0.52653873 -0.03097282 -0.011464151
-0.53015423 -0.062371075 -0.00083018467
-0.53381813 -0.094203174 0.0099460371
-0.53753465 -0.12647875 0.020877071
-0.54130167 -0.15920636 0.031956449
-0.54512185 -0.19239591 0.043192245
-0.548998 -0.22605792 0.054592721
-0.55292797 -0.26020139 0.066151388
-0.55691636 -0.29483804 0.077881902
-0.56096095 -0.32997701 0.089777701
-0.56506646 -0.36563116 0.10185287
-0.56923074 -0.40180981 0.11410062
-0.57345867 -0.43852717 0.12653571
-0.577748 -0.47579247 0.13915141
-0.58210385 -0.51362097 0.15196291
-0.58652401 -0.55202258 0.16496332
-0.59101373 -0.59101367 0.17816843
-0.59557074 -0.63060427 0.19157144
-0.60020065 -0.67081249 0.20518863
-0.60490096 -0.71164817 0.21901318
-0.60967761 -0.75313115 0.23306218
-0.61452818 -0.79527164 0.2473284
-0.61945868 -0.83809114 0.26183006
-0.62446678 -0.88160002 0.27655953
-0.62955868 -0.9258216 0.29153585
-0.63473213 -0.97076678 0.30675179
-0.4346289 0.51612186 -0.20189199
-0.43724301 0.49189836 -0.19372299
-0.43988988 0.46738303 -0.18545148
-0.4425678 0.44256788 -0.17708282
-0.44527978 0.41744983 -0.16860807
-0.44802395 0.392021 -0.1600325
-0.4508034 0.36627781 -0.1513468
-0.45361626 0.34021223 -0.14255656
-0.45646572 0.31382021 -0.13365191
-0.45934999 0.28709379 -0.12463867
-0.46227217 0.26002809 -0.11550687
-0.46523049 0.23261529 -0.10626213
-0.46822691 0.20484927 -0.096898273
-0.4712635 0.17672384 -0.087408945
-0.47433972 0.14823121 -0.077795714
-0.47745502 0.1193637 -0.068060406
-0.48061153 0.090114698 -0.058196343
-0.48381147 0.060476493 -0.048196599
-0.48705283 0.030440833 -0.038067263
-0.49033937 1.8626451e-08 -0.027796809
-0.49366912 -0.030854326 -0.017391402
-0.49704584 -0.062130693 -0.0068389829
-0.5004676 -0.093837649 0.0038539842
-0.50393832 -0.12598458 0.014699999
-0.507456 -0.15857996 0.025692679
-0.51102465 -0.19163419 0.03684479
-0.51464236 -0.22515595 0.048149936
-0.51831317 -0.25915658 0.059621237
-0.52203512 -0.2936447 0.071252398
-0.52581257 -0.32863277 0.083056882
-0.52964342 -0.36412975 0.095028251
-0.53353214 -0.40014905 0.10718057
-0.53747672 -0.43669969 0.11950737
-0.54148173 -0.47379646 0.13202319
-0.54554522 -0.51144856 0.14472142
-0.54967189 -0.54967177 0.15761726
-0.55385965 -0.58847582 0.17070414
-0.55811357 -0.62787771 0.1839976
-0.56243145 -0.66788721 0.19749086
-0.56681859 -0.70852315 0.21120074
-0.57127273 -0.74979544 0.22511993
-0.57579947 -0.79172421 0.23926592
-0.58039647 -0.83431977 0.25363147
-0.58506948 -0.87760425 0.26823476
-0.58981627 -0.921588 0.28306866
-0.59464073 -0.96629119 0.29814512
-0.40609619 0.51438856 -0.20645337
-0.40853146 0.4902378 -0.19833581
-0.4109951 0.46579447 -0.19012374
-0.41348961 0.44105569 -0.18180853
-0.41601357 0.41601363 -0.17339543
-0.41856855 0.39066401 -0.1648789
-0.42115617 0.36500201 -0.15625347
-0.4237749 0.33901992 -0.14752445
-0.42642748 0.31271353 -0.13868234
-0.42911237 0.28607494 -0.12973279
-0.43183246 0.25909945 -0.12066588
-0.43458605 0.23177929 -0.11148721
-0.43737614 0.20410892 -0.1021868
-0.44020113 0.17608048 -0.092770174
-0.44306406 0.14768806 -0.083227031
-0.44596326 0.11892361 -0.073563159
-0.44890189 0.089780405 -0.063767716
-0.45187819 0.060250442 -0.053846713
-0.45489559 0.030326365 -0.043788776
-0.4579522 1.4901161e-08 -0.033600084
-0.46105149 -0.030736778 -0.023269022
-0.46419168 -0.061892182 -0.012801768
-0.46737629 -0.093475185 -0.0021863058
-0.47060353 -0.12549421 0.0085710771
-0.47387704 -0.15795897 0.019482851
-0.47719502 -0.19087793 0.030542649
-0.48056123 -0.22426179 0.041763298
-0.48397374 -0.25811926 0.053138472
-0.48743659 -0.29246193 0.064681284
-0.49094787 -0.32729855 0.076385498
-0.49451005 -0.36264071 0.088259488
-0.49812591 -0.39850062 0.10031223
-0.50179344 -0.43488759 0.11253735
-0.50551695 -0.47181576 0.12494908
-0.50929451 -0.50929445 0.13754101
-0.51313061 -0.5473392 0.15032798
-0.51702327 -0.58595967 0.16330352
-0.52097714 -0.6251725 0.17648312
-0.52499026 -0.66498756 0.18986008
-0.5290674 -0.70542312 0.20345059
-0.53320658 -0.74648923 0.21724792
-0.53741282 -0.7882055 0.23126876
-0.54168421 -0.83058226 0.2455065
-0.54602581 -0.87364125 0.25997871
-0.55043572 -0.91739273 0.27467826
-0.5549193 -0.96186018 0.28962374
-0.37775448 0.51266682 -0.21098426
-0.38001215 0.48858708 -0.20292105
-0.38229603 0.46421659 -0.19476447
-0.38460848 0.43955261 -0.1865056
-0.38694808 0.41458732 -0.17814986
-0.38931736 0.38931739 -0.16968814
-0.39171478 0.36373514 -0.16112602
-0.39414299 0.33783686 -0.15245387
-0.39660037 0.3116146 -0.14367741
-0.39908969 0.2850641 -0.13478699
-0.40160936 0.25817752 -0.12578814
-0.4041622 0.23094982 -0.116671
-0.40674654 0.2033733 -0.10744119
-0.40936527 0.17544232 -0.098088503
-0.41201681 0.14714885 -0.088618748
-0.41470408 0.11848691 -0.079021275
-0.41742545 0.08944834 -0.069302104
-0.42018396 0.060026281 -0.059450291
-0.42297798 0.03021273 -0.049471654
-0.42581064 -3.3527613e-08 -0.039355144
-0.42868021 -0.030619981 -0.029106634
-0.43158877 -0.061655506 -0.018718876
-0.4345383 -0.093115285 -0.0081848651
-0.43752718 -0.12500769 0.0024897121
-0.44055876 -0.15734236 0.013316661
-0.44363126 -0.1901276 0.024290033
-0.44674829 -0.22337411 0.035422407
-0.44990811 -0.2570903 0.046707317
-0.4531143 -0.29128781 0.058157958
-0.45636511 -0.32597509 0.069767945
-0.45966434 -0.36116481 0.081550896
-0.46301013 -0.39686579 0.093500257
-0.46640646 -0.43309164 0.10563014
-0.46985158 -0.46985143 0.11793393
-0.47334939 -0.50716001 0.13042611
-0.47689816 -0.54502642 0.14310043
-0.48050213 -0.58346677 0.15597163
-0.48415938 -0.62249064 0.16903332
-0.48787433 -0.66211516 0.18230104
-0.4916451 -0.70235014 0.19576803
-0.49547628 -0.74321431 0.20945084
-0.49936596 -0.78471792 0.22334254
-0.50331891 -0.82688111 0.2374602
-0.50733316 -0.86971408 0.2517969
-0.51141202 -0.91323566 0.26636404
-0.51555878 -0.95746619 0.28117391
-0.34960273 0.5109579 -0.21548149
-0.35168427 0.48694748 -0.2074756
-0.35379165 0.46265063 -0.19937024
-0.3559235 0.43805972 -0.19117081
-0.35808215 0.41317174 -0.18286827
-0.36026621 0.38797903 -0.17446811
-0.36247802 0.36247805 -0.16596115
-0.3647162 0.33666119 -0.15735278
-0.36698315 0.31052414 -0.14863381
-0.36927748 0.28405961 -0.13980938
-0.37160066 0.25726199 -0.1308741
-0.37395427 0.23012576 -0.12182168
-0.3763369 0.20264298 -0.11265778
-0.3787511 0.17480823 -0.10337239
-0.3811954 0.14661363 -0.093971252
-0.38367254 0.11805307 -0.084443778
-0.386181 0.089118719 -0.074795797
-0.38872358 0.059803698 -0.065016642
-0.39129874 0.030099869 -0.055112209
-0.39390939 7.4505806e-09 -0.045071229
-0.39655396 -0.030504176 -0.034899775
-0.39923543 -0.061420795 -0.024586432
-0.40195221 -0.092758194 -0.014137227
-0.40470746 -0.12452537 -0.0035401471
-0.40749952 -0.15673056 0.0071985424
-0.41033161 -0.18938375 0.018091202
-0.41320205 -0.22249332 0.02913139
-0.41611424 -0.25607026 0.040332057
-0.41906649 -0.29012293 0.051686868
-0.42206222 -0.32466316 0.063208878
-0.42509976 -0.35969985 0.074891686
-0.42818266 -0.39524552 0.086749122
-0.43130928 -0.43130916 0.098774493
-0.43448326 -0.46790504 0.11098213
-0.43770295 -0.50504178 0.12336545
-0.44097063 -0.54273295 0.13593359
-0.44428897 -0.58099318 0.14869633
-0.44765612 -0.61983156 0.16164708
-0.45107621 -0.65926522 0.17480119
-0.45454746 -0.69930375 0.18815219
-0.45807406 -0.7399658 0.20171598
-0.46165431 -0.78126097 0.21548599
-0.46529248 -0.82320976 0.22947904
-0.4689869 -0.86582184 0.24368823
-0.47274202 -0.90911937 0.25813118
-0.47655615 -0.9531123 0.27280089
-0.32163724 0.50925893 -0.21995226
-0.32354584 0.48531878 -0.2119996
-0.32547811 0.46109405 -0.20394857
-0.32743272 0.43657699 -0.19580436
-0.32941183 0.41176474 -0.18755817
-0.3314141 0.38664985 -0.17921524
-0.33344176 0.36122856 -0.17076665
-0.33549351 0.33549353 -0.16221771
-0.33757156 0.30944064 -0.15355921
-0.33967459 0.28306216 -0.14479659
-0.34180492 0.25635377 -0.13592015
-0.34396121 0.22930747 -0.12693575
-0.34614581 0.20191841 -0.11783321
-0.34835738 0.17417878 -0.10861824
-0.35059837 0.14608268 -0.099280842
-0.35286739 0.11762248 -0.089826569
-0.35516697 0.088791743 -0.080244996
-0.35749573 0.059582695 -0.070541844
-0.35985622 0.029988073 -0.060706455
-0.36224705 -1.1175871e-08 -0.050744601
-0.36466989 -0.030389121 -0.040649444
-0.36712644 -0.06118767 -0.030414041
-0.36961624 -0.092404015 -0.020039685
-0.37213901 -0.12404631 -0.0095281564
-0.37469643 -0.15612346 0.0011277497
-0.37729037 -0.18864514 0.011935763
-0.37991935 -0.22161955 0.022889882
-0.38258633 -0.25505748 0.034002408
-0.38528991 -0.28896743 0.045267314
-0.38803312 -0.32336095 0.056697339
-0.39081448 -0.35824654 0.06828627
-0.39363724 -0.39363721 0.080047831
-0.39649981 -0.42954141 0.091975123
-0.3994056 -0.46597308 0.10408252
-0.40235299 -0.50294119 0.11636336
-0.4053455 -0.54046059 0.12883218
-0.40838155 -0.57854044 0.14148244
-0.41146475 -0.61719704 0.15432917
-0.41459352 -0.65643972 0.16736571
-0.41777161 -0.69628602 0.18060778
-0.42099741 -0.73674542 0.19404855
-0.4242748 -0.77783722 0.20770445
-0.4276022 -0.8195709 0.22156855
-0.43098372 -0.86196733 0.23565802
-0.43441761 -0.90503657 0.24996594
-0.43790814 -0.94880086 0.26450989
-0.2938571 0.5075714 -0.22439329
-0.29559579 0.48370224 -0.21649006
-0.29735446 0.45954785 -0.20849612
-0.29913491 0.43510541 -0.20040309
-0.30093604 0.41036743 -0.19221613
-0.30275983 0.38533068 -0.18392645
-0.30460501 0.35998774 -0.17553914
-0.30647364 0.33433491 -0.16704538
-0.30836451 0.3083646 -0.15845044
-0.3102797 0.28207242 -0.14974512
-0.31221798 0.25545114 -0.14093471
-0.31418151 0.22849567 -0.13200963
-0.31616899 0.20119855 -0.12297554
-0.31818178 0.17355375 -0.11382648
-0.32022128 0.14555511 -0.10455617
-0.32228616 0.11719498 -0.095170297
-0.32437876 0.08846695 -0.085658453
-0.32649782 0.059363253 -0.076026365
-0.32864565 0.029876916 -0.06626346
-0.33082098 5.5879354e-08 -0.056375533
-0.33302629 -0.030275112 -0.046351604
-0.33526018 -0.060956366 -0.036197409
-0.33752525 -0.092052318 -0.025901582
-0.33982015 -0.12357096 -0.015470289
-0.34214747 -0.15552156 -0.0048916191
-0.34450585 -0.18791217 0.0058283433
-0.34689805 -0.22075327 0.016701758
-0.34932262 -0.25405276 0.027722716
-0.35178235 -0.28782189 0.038903408
-0.35427594 -0.32206899 0.05023782
-0.35680622 -0.35680628 0.061739102
-0.35937178 -0.39204192 0.073400751
-0.36197561 -0.42778933 0.085236445
-0.36461633 -0.46405712 0.097239658
-0.36729705 -0.50085962 0.10942462
-0.37001628 -0.53820544 0.12178476
-0.37277725 -0.57611024 0.13433465
-0.37557852 -0.61458296 0.1470678
-0.37842223 -0.65363842 0.15999378
-0.38131058 -0.69329196 0.17312256
-0.38424206 -0.73355287 0.18644741
-0.38722029 -0.77444059 0.19998491
-0.39024374 -0.81596404 0.21372768
-0.39331606 -0.8581441 0.2276929
-0.39643583 -0.90099049 0.24187365
-0.39960685 -0.94452524 0.25628734
-0.26626045 0.50589496 -0.22880504
-0.26783064 0.48209518 -0.22095414
-0.26941878 0.45801198 -0.21301341
-0.27102655 0.43364254 -0.20497456
-0.27265292 0.40897942 -0.19684273
-0.27429965 0.38401949 -0.18860909
-0.27596566 0.35875541 -0.18027897
-0.2776528 0.33318335 -0.17184344
-0.27935991 0.30729598 -0.16330774
-0.28108892 0.28108895 -0.15466282
-0.28283867 0.25455487 -0.14591396
-0.28461114 0.22768897 -0.13705167
-0.28640518 0.20048361 -0.12808149
-0.28822276 0.17293371 -0.11899353
-0.29006279 0.14503148 -0.1097935
-0.29192725 0.11677096 -0.10047121
-0.29381499 0.088144541 -0.091032386
-0.29572815 0.059145652 -0.081466496
-0.29766557 0.029766556 -0.071779586
-0.29962936 7.2643161e-08 -0.06196044
-0.3016184 -0.030161818 -0.052015357
-0.30363491 -0.060726896 -0.041932907
-0.30567762 -0.091703206 -0.031719215
-0.30774894 -0.12309955 -0.021362595
-0.30984762 -0.15492375 -0.01086919
-0.31197605 -0.18718556 -0.00022730976
-0.31413296 -0.21989307 0.010557309
-0.31632087 -0.25305659 0.021496817
-0.31853849 -0.28668457 0.03258504
-0.32078743 -0.32078737 0.043829739
-0.32306933 -0.35537627 0.05523935
-0.32538295 -0.39045954 0.066807374
-0.32773095 -0.42605022 0.078547344
-0.33011204 -0.46215677 0.090452909
-0.33252904 -0.49879345 0.10253787
-0.33498064 -0.53596896 0.11479576
-0.33746973 -0.57369846 0.12724122
-0.339995 -0.61199093 0.13986754
-0.34255943 -0.65086281 0.15268984
-0.34516174 -0.69032335 0.1657013
-0.34780505 -0.73039049 0.17891777
-0.35048795 -0.77107346 0.19233245
-0.35321376 -0.81239158 0.20596141
-0.35598111 -0.85435462 0.2197983
-0.35879338 -0.89698339 0.23385957
-0.36164922 -0.94028795 0.2481387
-0.36455211 -0.98429066 0.26265326
-0.23884611 0.50423068 -0.23318452
-0.24024938 0.48049873 -0.22538862
-0.24166985 0.45648754 -0.21749714
-0.24310657 0.43218952 -0.2095153
-0.24456112 0.40760195 -0.20143449
-0.24603252 0.38271728 -0.19325997
-0.24752241 0.35753241 -0.18498278
-0.2490298 0.33203977 -0.1766085
-0.25055632 0.30623549 -0.16812797
-0.25210097 0.28011227 -0.15954641
-0.25366548 0.25366557 -0.15085468
-0.25524887 0.22688794 -0.14205816
-0.25685281 0.1997745 -0.1331473
-0.25847635 0.17231762 -0.12412763
-0.26012123 0.14451182 -0.11498937
-0.26178649 0.11634962 -0.1057379
-0.26347393 0.087824658 -0.096363336
-0.26518252 0.058929417 -0.086871117
-0.26691341 0.029657077 -0.077254906
-0.26866785 -2.2351742e-08 -0.067508258
-0.27044469 -0.03004927 -0.057636905
-0.27224597 -0.060499098 -0.047629647
-0.27407062 -0.091356829 -0.03749276
-0.27592072 -0.12263143 -0.027214568
-0.27779511 -0.15433066 -0.016801134
-0.27969599 -0.18646389 -0.006240733
-0.28162223 -0.21903951 0.0044606179
-0.28357604 -0.25206751 0.015315033
-0.28555629 -0.2855562 0.026316404
-0.28756523 -0.3195169 0.03747724
-0.28960177 -0.35395771 0.048791453
-0.2916683 -0.38889092 0.060271889
-0.29376358 -0.42432508 0.071912453
-0.29589009 -0.46027344 0.08372654
-0.29804671 -0.49674445 0.095707715
-0.30023593 -0.53375268 0.10787009
-0.30245659 -0.57130682 0.12020706
-0.30471134 -0.60942262 0.13273327
-0.30699894 -0.64810884 0.14544226
-0.30932218 -0.68738252 0.15834913
-0.31167978 -0.7272529 0.17144707
-0.31407467 -0.76773804 0.18475199
-0.31650561 -0.80884755 0.19825703
-0.31897551 -0.85060132 0.21197891
-0.32148319 -0.89300883 0.22591045
-0.32403064 -0.93608844 0.24006274
-0.32661986 -0.97985959 0.25444746
-0.21161103 0.50257617 -0.23753849
-0.21285069 0.47891405 -0.22979042
-0.21410446 0.45497203 -0.22195454
-0.21537361 0.43074721 -0.21402234
-0.21665734 0.4062326 -0.20599894
-0.21795647 0.38142389 -0.19787943
-0.21927185 0.3563168 -0.18965833
-0.2206026 0.33090395 -0.18134107
-0.2219502 0.30518159 -0.17291848
-0.22331379 0.27914223 -0.1643962
-0.22469482 0.25278172 -0.15576468
-0.22609246 0.22609243 -0.14702958
-0.22750817 0.19906968 -0.13818122
-0.22894111 0.17170584 -0.12922545
-0.23039286 0.14399551 -0.12015209
-0.23186249 0.11593128 -0.11096689
-0.23335163 0.08750692 -0.10165959
-0.23485938 0.058714882 -0.092236266
-0.23638739 0.029548492 -0.082686126
-0.23793477 3.7252903e-08 -0.073015109
-0.23950319 -0.029937821 -0.063212469
-0.24109174 -0.06027282 -0.053283982
-0.2427022 -0.091013297 -0.043218501
-0.24433362 -0.12216675 -0.033022165
-0.24598785 -0.15374231 -0.022683308
-0.24766389 -0.18574792 -0.012208
-0.24936368 -0.21819323 -0.0015844479
-0.25108621 -0.25108609 0.0091813728
-0.25283343 -0.2844376 0.020101711
-0.2546044 -0.31825548 0.031170204
-0.25640112 -0.35255146 0.042399585
-0.25822258 -0.38733384 0.053783864
-0.26007015 -0.42261392 0.065331057
-0.2619451 -0.45840394 0.077049688
-0.26384649 -0.49471223 0.088933319
-0.26577654 -0.53155297 0.10099603
-0.26773417 -0.56893504 0.11323115
-0.26972172 -0.60687375 0.12565322
-0.27173811 -0.64537787 0.1382558
-0.27378577 -0.68446422 0.15105361
-0.27586362 -0.72414196 0.16404018
-0.27797416 -0.76442897 0.17723116
-0.28011632 -0.80533427 0.19061956
-0.28229269 -0.84687805 0.20422202
-0.28450218 -0.88906932 0.21803138
-0.28674752 -0.93192947 0.23206475
-0.2890276 -0.97546804 0.24631509
-0.18455409 0.50093251 -0.24186389
-0.18563169 0.47733861 -0.23416671
-0.18672149 0.45346648 -0.22638245
-0.18782464 0.42931348 -0.21850276
-0.18894042 0.40487236 -0.21053287
-0.19007003 0.38014007 -0.2024643
-0.19121273 0.35510936 -0.19430217
-0.19236974 0.32977676 -0.18603766
-0.19354035 0.30413491 -0.17767631
-0.1947258 0.27817976 -0.16920875
-0.19592534 0.25190401 -0.1606406
-0.19714028 0.22530323 -0.15196249
-0.19836985 0.19836985 -0.14317989
-0.19961539 0.17109901 -0.13428313
-0.20087612 0.14348295 -0.12527788
-0.20215344 0.1155163 -0.11615422
-0.20344654 0.087191403 -0.10691778
-0.20475686 0.058501992 -0.097558439
-0.2060836 0.0294405 -0.088081799
-0.2074282 2.2351742e-08 -0.078477338
-0.2087899 -0.029827079 -0.068750903
-0.21016958 -0.060048379 -0.058896109
-0.21156824 -0.090672106 -0.048905708
-0.21298499 -0.12170564 -0.038785908
-0.21442151 -0.15315814 -0.028525211
-0.21587688 -0.18503734 -0.018129677
-0.21735279 -0.21735275 -0.0075875074
-0.21884838 -0.25011235 0.0030951351
-0.22036533 -0.28332677 0.013930738
-0.2219028 -0.31700391 0.024912566
-0.22346255 -0.3511554 0.036053747
-0.22504368 -0.3857891 0.04734759
-0.22664806 -0.42091784 0.058807418
-0.22827478 -0.45654953 0.070426852
-0.22992574 -0.49269795 0.082219303
-0.23160002 -0.52937138 0.094178468
-0.2332996 -0.56658477 0.10631827
-0.23502354 -0.60434622 0.11863227
-0.23677394 -0.642672 0.13113494
-0.23854983 -0.68157089 0.1438199
-0.2403533 -0.72105992 0.15670207
-0.24218349 -0.76114815 0.1697748
-0.24404258 -0.80185425 0.183054
-0.2459296 -0.84318721 0.19653279
-0.24784687 -0.88516736 0.21022746
-0.24979341 -0.92780417 0.22413149
-0.25177166 -0.97111917 0.23826158
-0.15767393 0.49930084 -0.24615794
-0.15859118 0.47577357 -0.23851424
-0.15951955 0.45197216 -0.23077764
-0.16045848 0.42788929 -0.22295347
-0.1614089 0.40352225 -0.21503313
-0.16237026 0.37886399 -0.20702183
-0.16334356 0.35391104 -0.19891109
-0.16432816 0.32865632 -0.19070603
-0.1653247 0.30309528 -0.18240152
-0.16633384 0.27722311 -0.17399201
-0.16735496 0.25103247 -0.16548279
-0.1683891 0.22451879 -0.15686488
-0.16943567 0.19767502 -0.14814338
-0.17049578 0.17049584 -0.13930917
-0.17156878 0.14297405 -0.13036749
-0.17265585 0.11510389 -0.12130864
-0.1737563 0.086878181 -0.11213826
-0.17487134 0.058290415 -0.10284616
-0.17600031 0.029333413 -0.093438104
-0.17714444 2.9802322e-08 -0.083903685
-0.17830305 -0.029717136 -0.074248642
-0.17947741 -0.059825804 -0.064462215
-0.18066682 -0.090333432 -0.054550417
-0.18187265 -0.12124847 -0.044502016
-0.18309413 -0.15257831 -0.034322899
-0.18433267 -0.18433261 -0.024001762
-0.18558756 -0.21651879 -0.013544485
-0.18686017 -0.24914691 -0.0029392093
-0.18814981 -0.28222466 0.0078077465
-0.18945795 -0.31576315 0.01870884
-0.19078383 -0.34977031 0.029757813
-0.19212896 -0.38425785 0.04096733
-0.19349262 -0.41923392 0.052331135
-0.19487637 -0.4547115 0.063862443
-0.19627945 -0.49069858 0.075554803
-0.19770348 -0.52720928 0.087421715
-0.19914773 -0.56425184 0.0994571
-0.20061323 -0.6018396 0.11166953
-0.20210108 -0.63998675 0.12406833
-0.20361052 -0.67870164 0.13664702
-0.20514335 -0.71800172 0.14942053
-0.20669875 -0.75789541 0.1623823
-0.20827861 -0.7984013 0.17554772
-0.2098821 -0.83952832 0.18891013
-0.21151118 -0.88129652 0.20248589
-0.21316504 -0.92371523 0.21626803
-0.21484569 -0.96680558 0.23027343
-0.130968 0.4976784 -0.25042737
-0.1317274 0.47421864 -0.24283341
-0.13249598 0.45048636 -0.23514748
-0.13327326 0.42647451 -0.22737463
-0.13406006 0.40218019 -0.21950686
-0.13485585 0.37759644 -0.21154894
-0.13566148 0.3527199 -0.20349249
-0.13647646 0.32754356 -0.19534278
-0.13730164 0.30206367 -0.18709095
-0.13813649 0.27627307 -0.17874238
-0.13898194 0.25016749 -0.17028795
-0.13983741 0.22373991 -0.16173318
-0.14070387 0.19698544 -0.15306859
-0.14158075 0.16989689 -0.14429979
-0.14246902 0.14246903 -0.13541728
-0.14336811 0.11469453 -0.12642634
-0.144279 0.086567439 -0.11731727
-0.14520116 0.058080517 -0.10809581
-0.14613558 0.029227104 -0.098751634
-0.14708169 -7.4505806e-09 -0.089290485
-0.14804055 -0.029608065 -0.079701871
-0.14901157 -0.059604585 -0.069991581
-0.14999585 -0.089997418 -0.060148913
-0.15099277 -0.12079412 -0.050179623
-0.15200348 -0.15200347 -0.040072512
-0.15302737 -0.18363287 -0.029833637
-0.15406515 -0.21569121 -0.019455947
-0.15511754 -0.24818802 -0.0089318678
-0.15618396 -0.28113109 0.0017322898
-0.1572656 -0.31453121 0.012548685
-0.15836187 -0.34839606 0.023511335
-0.159474 -0.38273755 0.034632668
-0.16060138 -0.4175635 0.04590635
-0.16174529 -0.45288682 0.057345644
-0.16290513 -0.48871541 0.068943992
-0.16408223 -0.52506304 0.080714837
-0.16527595 -0.56193811 0.092652053
-0.16648768 -0.59935564 0.10476942
-0.16771677 -0.63732374 0.11706053
-0.16896471 -0.67585874 0.12953961
-0.17023079 -0.71496934 0.14220056
-0.17151655 -0.75467271 0.15505812
-0.17282131 -0.7949779 0.16810581
-0.17414667 -0.83590388 0.18135923
-0.17549191 -0.87745953 0.19481164
-0.17685869 -0.91966504 0.2084794
-0.17824632 -0.96253014 0.22235593
-0.10443506 0.49606651 -0.25466916
-0.1050389 0.47267509 -0.24712111
-0.1056495 0.44901043 -0.23948851
-0.10626751 0.42507011 -0.2317635
-0.10689252 0.40084699 -0.22395086
-0.10752519 0.37633821 -0.21604238
-0.10816513 0.35153666 -0.2080432
-0.10881302 0.32643902 -0.19994472
-0.10946842 0.30103821 -0.19175215
-0.11013205 0.27533016 -0.1834567
-0.11080348 0.24930787 -0.17506377
-0.11148345 0.22296698 -0.16656411
-0.11217153 0.19630025 -0.15796326
-0.11286844 0.16930272 -0.14925174
-0.11357377 0.14196719 -0.1404352
-0.11428828 0.11428833 -0.13150394
-0.11501151 0.086258672 -0.12246335
-0.11574397 0.057872027 -0.11330777
-0.11648613 0.029121608 -0.10403074
-0.11723755 7.0780516e-08 -0.094638012
-0.11799904 -0.029499767 -0.085119314
-0.11877017 -0.059385095 -0.075480253
-0.11955178 -0.089663804 -0.065710068
-0.12034341 -0.12034333 -0.055814806
-0.12114592 -0.15143234 -0.045783192
-0.12195887 -0.18293831 -0.035621516
-0.12278316 -0.21487051 -0.025317878
-0.1236183 -0.24723655 -0.014878586
-0.12446524 -0.28004682 -0.0042917132
-0.12532352 -0.31330872 0.0064365268
-0.12619407 -0.34703362 0.017318487
-0.12707642 -0.38122925 0.028347909
-0.12797159 -0.41590765 0.039537564
-0.12887906 -0.45107669 0.050880983
-0.1297999 -0.48674953 0.062391371
-0.13073358 -0.52293432 0.074062511
-0.13168122 -0.55964506 0.085907802
-0.13264225 -0.59689015 0.097920895
-0.13361786 -0.6346848 0.11011598
-0.13460749 -0.67303735 0.12248635
-0.13561189 -0.71196234 0.13504127
-0.13663183 -0.75147504 0.14779061
-0.13766724 -0.79158664 0.1607331
-0.13871799 -0.83230793 0.17386758
-0.13978492 -0.87365568 0.18720406
-0.14086884 -0.91564751 0.20075324
-0.14196923 -0.95829237 0.21450818
-0.078073628 0.49446633 -0.25888029
-0.078523383 0.47114033 -0.25138432
-0.07897836 0.44754404 -0.24380141
-0.079438835 0.42367381 -0.2361268
-0.079904504 0.39952254 -0.2283656
-0.080375873 0.37508747 -0.2205094
-0.080852635 0.35036147 -0.21256344
-0.081335291 0.32534114 -0.20451921
-0.081823535 0.30001968 -0.19638175
-0.082317881 0.27439296 -0.1881426
-0.082818039 0.24845409 -0.17980684
-0.083324514 0.22219868 -0.17136548
-0.083837003 0.1956197 -0.16282398
-0.084356062 0.16871214 -0.15417294
-0.084881358 0.14146896 -0.14541796
-0.085413471 0.11388472 -0.13654944
-0.085952066 0.085952073 -0.12757288
-0.086497732 0.057665188 -0.11847851
-0.087050132 0.029016767 -0.10927184
-0.087609872 -4.0978193e-08 -0.09994287
-0.088176608 -0.029392179 -0.090497255
-0.088750981 -0.059167281 -0.080924325
-0.089332633 -0.089332543 -0.071230143
-0.089922212 -0.11989634 -0.061403867
-0.090519361 -0.15086551 -0.051451243
-0.091124766 -0.18224949 -0.041361302
-0.091738053 -0.21405545 -0.031139828
-0.092359915 -0.24629308 -0.020775422
-0.092990004 -0.27897003 -0.010273993
-0.093628742 -0.3120957 0.00037160516
-0.094276592 -0.3456808 0.011169225
-0.094933197 -0.37973273 0.022112504
-0.095599286 -0.41426349 0.033214092
-0.096274503 -0.44928089 0.044467747
-0.096959628 -0.48479804 0.055886388
-0.097654268 -0.52082264 0.067463741
-0.098359235 -0.55736899 0.079213262
-0.099074155 -0.59444487 0.091128469
-0.099799842 -0.63206565 0.10322344
-0.10053594 -0.67023951 0.1154916
-0.10128328 -0.70898288 0.12794739
-0.1020415 -0.74830437 0.14058441
-0.10281149 -0.78822136 0.15341741
-0.10359285 -0.82874274 0.16644007
-0.10438652 -0.86988759 0.17966792
-0.10519208 -0.91166472 0.19309407
-0.10601054 -0.95409477 0.20673501
-0.051586945 0.5158695 -0.27043375
-0.051881596 0.49287522 -0.26306745
-0.0521795 0.46961555 -0.25561976
-0.052480981 0.44608837 -0.24808276
-0.052785832 0.42228672 -0.2404615
-0.05309438 0.39820787 -0.23274782
-0.053406425 0.37384501 -0.22494683
-0.053722288 0.34919491 -0.21705014
-0.054041777 0.3242507 -0.20906293
-0.054365225 0.29900876 -0.20097676
-0.054692429 0.27346221 -0.19279659
-0.055023741 0.24760687 -0.18451384
-0.055358939 0.22143577 -0.17613389
-0.055698399 0.19494443 -0.16764738
-0.0560419 0.1681257 -0.15905991
-0.056389805 0.14097458 -0.15036215
-0.056741912 0.11348382 -0.14155951
-0.057098445 0.08564771 -0.13264623
-0.057459645 0.057459723 -0.12361626
-0.057825439 0.028912723 -0.11447144
-0.058195755 -1.4901161e-08 -0.10521336
-0.058570854 -0.029285369 -0.095835954
-0.058950979 -0.05895099 -0.086332761
-0.059335906 -0.089003764 -0.076709658
-0.059726063 -0.1194521 -0.066955768
-0.060121216 -0.15030299 -0.057077017
-0.060521796 -0.18156537 -0.04706239
-0.060927577 -0.21324655 -0.036917858
-0.061339021 -0.24535605 -0.02663175
-0.061755877 -0.27790141 -0.016210467
-0.062178619 -0.31089294 -0.0056418926
-0.062607005 -0.34433845 0.005067721
-0.063041523 -0.37824905 0.015930623
-0.063481912 -0.41263244 0.026940614
-0.063928701 -0.44750094 0.038110286
-0.064381629 -0.48286217 0.049433485
-0.064841218 -0.51872969 0.060923085
-0.065307215 -0.55511129 0.072573006
-0.065780163 -0.59202135 0.084396601
-0.066259801 -0.62946808 0.096387655
-0.066746697 -0.66746688 0.10856
-0.067240588 -0.70602614 0.12090725
-0.067742057 -0.74516249 0.13344401
-0.068250842 -0.78488469 0.14616373
-0.068767555 -0.82521057 0.15908149
-0.069291927 -0.86614889 0.17219058
-0.069824576 -0.90771937 0.185507
-0.07036525 -0.94993073 0.19902387
-0.025711266 0.51422542 -0.27454406
-0.025857588 0.49129426 -0.26722783
-0.02600565 0.46810174 -0.25982481
-0.026155354 0.44464099 -0.25233978
-0.026306853 0.42090964 -0.24476472
-0.026460053 0.3969008 -0.23710465
-0.026615048 0.37261069 -0.22935495
-0.026771938 0.34803522 -0.22151053
-0.026930619 0.32316735 -0.21357644
-0.027091261 0.29800397 -0.20554419
-0.027253762 0.27253768 -0.19741921
-0.027418295 0.24676467 -0.18919256
-0.027584756 0.22067806 -0.18086964
-0.027753321 0.19427329 -0.17244126
-0.027923886 0.16754332 -0.16391307
-0.028096635 0.14048311 -0.15527564
-0.028271459 0.1130859 -0.14653435
-0.028448548 0.085345715 -0.1376799
-0.028627794 0.057255682 -0.1287176
-0.028809391 0.028809398 -0.11963779
-0.028993227 9.3132257e-08 -0.11044598
-0.029179502 -0.02917945 -0.10113216
-0.029368108 -0.058736164 -0.091701835
-0.029559251 -0.088677749 -0.08214476
-0.029752813 -0.11901122 -0.072466671
-0.029949013 -0.14974514 -0.06265673
-0.030147729 -0.18088624 -0.052720912
-0.030349188 -0.21244435 -0.042647943
-0.03055327 -0.24442606 -0.032443836
-0.030760204 -0.27684182 -0.022097155
-0.030969871 -0.30969864 -0.011613876
-0.031182507 -0.3430075 -0.00098206103
-0.031397991 -0.37677586 0.0097920597
-0.031616565 -0.41101527 0.020720899
-0.031838112 -0.44573349 0.031798184
-0.03206278 -0.48094162 0.043031693
-0.032290746 -0.51665187 0.054429919
-0.03252187 -0.55287182 0.065986246
-0.032756437 -0.58961576 0.077714428
-0.032994304 -0.62689173 0.089607716
-0.033235755 -0.66471505 0.1016804
-0.033480659 -0.70309371 0.11392558
-0.033729307 -0.74204469 0.12635806
-0.033981569 -0.78157616 0.13897124
-0.034237742 -0.82170582 0.15177983
-0.034497697 -0.86244237 0.16477746
-0.034761742 -0.90380514 0.17797968
-0.035029743 -0.94580311 0.19137985
0 0.51259047 -0.27863121
0 0.48972341 -0.27136162
0 0.46659654 -0.26400596
0 0.44320306 -0.25656906
0 0.41954064 -0.24904306
0 0.39560229 -0.24143296
0 0.37138554 -0.23373066
0 0.34688321 -0.2259413
0 0.32209232 -0.21805632
0 0.29700574 -0.21008122
0 0.27162006 -0.20200722
0 0.24592821 -0.19383955
0 0.21992604 -0.18556948
0 0.19360666 -0.17720236
0 0.16696543 -0.16872901
0 0.13999532 -0.16015483
0 0.11269091 -0.15147078
0 0.085045606 -0.14268199
0 0.057053179 -0.13377902
0 0.028706875 -0.12476738
0 2.2351742e-08 -0.1156372
0 -0.029074188 -0.1063941
0 -0.058523148 -0.097027935
0 -0.088353679 -0.087544322
0 -0.11857356 -0.077937163
0 -0.14919075 -0.068199426
0 -0.18021235 -0.05833713
0 -0.21164753 -0.048339374
0 -0.24350314 -0.038211942
0 -0.27578944 -0.027943507
0 -0.30851337 -0.017539978
0 -0.34168583 -0.0069896728
0 -0.375314 0.0037012845
0 -0.40940964 0.014545158
0 -0.44398004 0.025535703
0 -0.47903788 0.036685526
0 -0.51459062 0.047988504
0 -0.55065203 0.059457496
0 -0.58722973 0.071086228
0 -0.62433833 0.082888246
0 -0.6619857 0.094857126
0 -0.70018786 0.10700691
0 -0.73895299 0.1193313
0 -0.77829778 0.1318444
0 -0.81823069 0.14453992
0 -0.85877025 0.15743309
0 -0.89992464 0.170517
0 -0.94171411 0.18380764
0 -0.98414689 0.19729793
0.025548298 0.510966 -0.28269243
0.025692828 0.48816371 -0.27546602
0.025838938 0.46510088 -0.2681604
0.025986785 0.44177541 -0.260768
0.026136272 0.41818047 -0.25329375
0.026287552 0.39431331 -0.24572982
0.026440525 0.37016737 -0.23808108
0.026595358 0.34573963 -0.23033956
0.026751945 0.32102332 -0.22251007
0.026910458 0.29601505 -0.21458443
0.027070789 0.27070794 -0.20656782
0.027233046 0.24509746 -0.19845511
0.027397327 0.21917862 -0.19024102
0.027563531 0.19294474 -0.18193083
0.027731838 0.16639103 -0.17351551
0.027902136 0.13951077 -0.16500045
0.028074617 0.11229844 -0.15637648
0.028249167 0.084747583 -0.14764902
0.028425977 0.056852046 -0.13880856
0.028604938 0.028604928 -0.12986061
0.028786242 7.4505806e-09 -0.12079523
0.028969781 -0.02896969 -0.11161823
0.029155757 -0.0583115 -0.10231949
0.029344056 -0.088032067 -0.092904605
0.029534882 -0.11813951 -0.083363287
0.029728124 -0.14864059 -0.073701188
0.029923994 -0.17954396 -0.063907519
0.030122381 -0.21085669 -0.053988308
0.030323502 -0.242588 -0.043932326
0.030527236 -0.27474511 -0.033745565
0.030733818 -0.30733812 -0.023416549
0.030943124 -0.34037435 -0.012951255
0.031155389 -0.37386465 -0.002337873
0.031370495 -0.40781641 0.0084174424
0.031588685 -0.44224158 0.019326985
0.03180984 -0.47714752 0.030384675
0.032034207 -0.51254737 0.041603073
0.032261666 -0.5484482 0.052975923
0.032492377 -0.58486277 0.064511418
0.032726511 -0.6218037 0.076218218
0.032963943 -0.65927881 0.088089854
