# .PCD v0.7 - Point Cloud Data file format
VERSION 0.7
FIELDS x y z
SIZE 4 4 4
TYPE F F F
COUNT 1 1 1
WIDTH 1376
HEIGHT 1
VIEWPOINT 0 0 0 1 0 0 0
POINTS 1376
DATA ascii
-0.5105741 0.19146538 0.035436749
-0.50701326 0.15844166 0.024309054
-0.50350016 0.12587512 0.013330735
-0.50003695 0.093757033 0.0025082119
-0.49661961 0.062077448 -0.008171048
-0.49325007 0.030828204 -0.01870092
-0.48992455 -2.7939677e-08 -0.02909321
-0.48664492 -0.03041525 -0.039341953
-0.48340756 -0.060425855 -0.049458802
-0.48021433 -0.090040162 -0.059437517
-0.47706303 -0.11926568 -0.069285333
-0.47395149 -0.14810976 -0.079008952
-0.47088161 -0.1765805 -0.088602439
-0.46784988 -0.20468432 -0.098076306
-0.46485829 -0.23242915 -0.10742518
-0.46190342 -0.25982061 -0.11665921
-0.45898715 -0.28686696 -0.12577248
-0.45610622 -0.31357297 -0.13477542
-0.45326242 -0.33994675 -0.14366226
-0.45045272 -0.36599284 -0.15244266
-0.4476788 -0.39171886 -0.16111113
-0.44493765 -0.41712898 -0.16967724
-0.44223103 -0.44223097 -0.17813541
-0.439556 -0.4670282 -0.1864949
-0.43691424 -0.49152845 -0.19475035
-0.55435467 0.96088135 0.28774136
-0.54988009 0.91646695 0.27282631
-0.54547906 0.87276649 0.25815621
-0.5411461 0.82975733 0.24371293
-0.53688318 0.78742874 0.22950336
-0.53268522 0.74575925 0.21550992
-0.52855408 0.70473874 0.20173952
-0.52448475 0.66434753 0.18817532
-0.52047938 0.62457526 0.17482394
-0.51653302 0.5854041 0.16166945
-0.51264775 0.54682422 0.14871845
-0.50881886 0.50881881 0.1359553
-0.50504827 0.47137848 0.12338693
-0.50133163 0.43448746 0.11099809
-0.4976708 0.39813671 0.098795339
-0.49406159 0.36231175 0.0867645
-0.49050581 0.3270039 0.074911937
-0.48699936 0.29219967 0.063223757
-0.48354417 0.25789028 0.051706448
-0.48013619 0.22406358 0.040346578
-0.47677734 0.19071092 0.029150493
-0.4734638 0.1578213 0.018105321
-0.47019732 0.12538594 0.0072170794
-0.46697426 0.093394935 -0.0035263114
-0.4637965 0.061839569 -0.014119089
-0.46066025 0.030710712 -0.024573028
-0.45756754 5.9604645e-08 -0.034882236
-0.45451474 -0.03030096 -0.045058209
-0.45150372 -0.060200393 -0.055095106
-0.448531 -0.089706086 -0.065003954
-0.44559848 -0.11882623 -0.074779093
-0.4427028 -0.14756754 -0.084431425
-0.43984571 -0.17593825 -0.093954943
-0.43702412 -0.20394456 -0.10336036
-0.43423963 -0.23159446 -0.1126419
-0.43148923 -0.25889352 -0.12180991
-0.42877463 -0.28584969 -0.1308586
-0.4260928 -0.31246799 -0.13979802
-0.42344546 -0.33875632 -0.14862236
-0.42083085 -0.36471999 -0.15733789
-0.41824719 -0.39036396 -0.1659501
-0.41569504 -0.41569495 -0.17445724
-0.41317493 -0.44071996 -0.1828575
-0.41068524 -0.46544319 -0.1911566
-0.40822428 -0.48986915 -0.19935969
-0.51503652 0.95649648 0.27930889
-0.5108999 0.91232121 0.26453504
-0.50682747 0.86884707 0.24999061
-0.50282115 0.82606328 0.23568237
-0.49887598 0.78394794 0.22159258
-0.49499395 0.74249089 0.20772806
-0.4911702 0.70167166 0.1940718
-0.48740664 0.66148049 0.18063068
-0.48369876 0.62189853 0.16738835
-0.48004848 0.58291596 0.15435134
-0.47645128 0.54451573 0.14150433
-0.47290915 0.50668836 0.12885381
-0.46941778 0.46941781 0.11638463
-0.46597907 0.43269491 0.10410352
-0.46258891 0.39650479 0.091995865
-0.45924914 0.36083868 0.080068082
-0.45595586 0.32568276 0.068306416
-0.45271084 0.2910285 0.056717142
-0.44951034 0.25686312 0.04528673
-0.44635612 0.22317809 0.034021586
-0.44324455 0.189962 0.022908889
-0.44017732 0.15720621 0.011954501
-0.43715101 0.12490033 0.0011461638
-0.43416727 0.093035884 -0.0095099434
-0.43122274 0.061603274 -0.020026142
-0.4283191 0.030594226 -0.030396249
-0.4254531 8.7544322e-08 -0.04063201
-0.42262641 -0.030187534 -0.050727278
-0.41983581 -0.059976529 -0.06069367
-0.41708302 -0.089374825 -0.070525125
-0.41436496 -0.11838991 -0.080232523
-0.41168323 -0.14702971 -0.089810267
-0.40903479 -0.17530052 -0.099268749
-0.40642139 -0.20321068 -0.10860229
-0.40384009 -0.23076569 -0.11782131
-0.40129238 -0.2579737 -0.12692012
-0.39877561 -0.28483972 -0.13590866
-0.39629129 -0.31137168 -0.14478143
-0.39383659 -0.33757424 -0.15354794
-0.39141324 -0.36345515 -0.162203
-0.38901845 -0.38901839 -0.17075574
-0.38665381 -0.41427189 -0.17920077
-0.38431677 -0.43921918 -0.18754748
-0.38200879 -0.46386769 -0.19579029
-0.37972739 -0.48822081 -0.20393817
-0.37747401 -0.51228613 -0.21198586
-0.47607562 0.95215124 0.27095267
-0.47226912 0.90820992 0.25631243
-0.46852145 0.8649627 0.24189824
-0.46483436 0.82239932 0.22771719
-0.46120331 0.78049791 0.21375147
-0.4576301 0.73924869 0.20000836
-0.45411026 0.69863117 0.1864706
-0.45064569 0.65863597 0.1731452
-0.4472321 0.61924446 0.16001612
-0.44387126 0.5804472 0.14708991
-0.44055918 0.54222673 0.13435104
-0.43729749 0.50457406 0.12180613
-0.43408245 0.46747339 0.10944039
-0.43091562 0.43091565 0.097260505
-0.42779335 0.3948862 0.085251823
-0.42471734 0.35937625 0.073420897
-0.42168394 0.32437232 0.061754018
-0.41869482 0.28986573 0.050257467
-0.41574657 0.255844 0.03891784
-0.41284075 0.22229886 0.02774173
-0.40997407 0.18921888 0.016715966
-0.40714809 0.15659542 0.0058468953
-0.4043597 0.12441841 -0.0048778728
-0.40161031 0.092679337 -0.015452266
-0.39889693 0.061368871 -0.025888223
-0.39622116 0.030478541 -0.036179855
-0.39357987 1.6763806e-08 -0.046338551
-0.3909747 -0.030074947 -0.05635846
-0.3884027 -0.059754197 -0.066250756
-0.38586536 -0.089045845 -0.076009706
-0.38335994 -0.11795686 -0.08564613
-0.38088787 -0.14649531 -0.095154032
-0.37844646 -0.17466745 -0.10454415
-0.37603712 -0.20248148 -0.11381064
-0.37365732 -0.22994292 -0.12296389
-0.37130842 -0.25705969 -0.131998
-0.36898786 -0.28383675 -0.14092326
-0.36669713 -0.31028214 -0.14973381
-0.36443371 -0.33640027 -0.15843932
-0.36219898 -0.36219901 -0.16703436
-0.35999152 -0.38768312 -0.17552459
-0.35780984 -0.41285744 -0.18391564
-0.3556554 -0.43772966 -0.19220199
-0.35352582 -0.46230289 -0.20039275
-0.35142249 -0.4865849 -0.20848246
-0.34934315 -0.51057839 -0.21647982
-0.43746856 0.94784856 0.26267833
-0.43398497 0.90413535 0.24816343
-0.43055791 0.86111587 0.23388398
-0.42718309 0.81876767 0.21982229
-0.42386219 0.77708077 0.20598513
-0.42059112 0.73603451 0.19235563
-0.41737151 0.69561923 0.17894065
-0.41419953 0.65581596 0.16572395
-0.41107666 0.61661506 0.15271209
-0.40799922 0.577999 0.13988945
-0.40496883 0.53995848 0.12726283
-0.40198189 0.50247729 0.11481711
-0.39903986 0.46554652 0.10255875
-0.39613941 0.42915106 0.090473473
-0.393282 0.39328212 0.078567684
-0.39046434 0.35792565 0.066827387
-0.38768795 0.32307324 0.055259064
-0.38494956 0.2887122 0.04384914
-0.38225079 0.25483385 0.032604225
-0.37958843 0.22142661 0.021511123
-0.37696403 0.18848199 0.010576092
-0.37437457 0.15598935 -0.00021345168
-0.37182152 0.12394056 -0.010851104
-0.36930197 0.092325449 -0.021349177
-0.36681741 0.061136276 -0.031701483
-0.36436501 0.030363789 -0.041919865
-0.36194623 8.1956387e-08 -0.051998138
-0.35955831 -0.029963173 -0.061947692
-0.35720271 -0.059533749 -0.071762763
-0.35487679 -0.088719226 -0.081454135
-0.35258192 -0.11752728 -0.091016121
-0.35031557 -0.14596479 -0.10045903
-0.34807914 -0.17403954 -0.10977752
-0.34587014 -0.20175751 -0.11898176
-0.34368995 -0.22912657 -0.12806593
-0.34153613 -0.25615206 -0.13704023
-0.33941007 -0.28284168 -0.1458988
-0.33730939 -0.30920017 -0.1546517
-0.33523542 -0.33523536 -0.16329303
-0.33318597 -0.36095148 -0.17183247
-0.33116227 -0.386356 -0.18026453
-0.32916215 -0.41145259 -0.18859838
-0.32718691 -0.43624914 -0.1968286
-0.32523438 -0.46074873 -0.20496409
-0.32330585 -0.48495871 -0.2129997
-0.32139921 -0.50888211 -0.22094388
-0.40242323 0.98776615 0.26908913
-0.39920753 0.94358146 0.25447235
-0.39604282 0.90009725 0.24008727
-0.39292923 0.85730016 0.22593454
-0.3898629 0.8151679 0.21199673
-0.38684532 0.77369064 0.19828045
-0.38387287 0.73284817 0.18476924
-0.38094696 0.69263095 0.17146981
-0.3780641 0.65301979 0.15836573
-0.37522575 0.6140058 0.1454643
-0.37242854 0.57557136 0.1327495
-0.36967388 0.53770745 0.12022841
-0.3669585 0.50039798 0.10788584
-0.36428386 0.46363401 0.095728353
-0.36164683 0.42740083 0.083741918
-0.35904878 0.3916896 0.071932599
-0.35648674 0.35648674 0.06028682
-0.35396203 0.32178366 0.048811018
-0.35147181 0.28756791 0.037491754
-0.34901741 0.25383082 0.026335441
-0.34659603 0.22056115 0.015329145
-0.34420902 0.18775043 0.0044791549
-0.34185368 0.15538812 -0.0062269643
-0.33953133 0.12346602 -0.0167831
-0.33723935 0.091974415 -0.027201163
-0.33497909 0.060905296 -0.037475199
-0.33274794 0.030249834 -0.047616795
-0.33054727 -2.7939677e-08 -0.057619784
-0.32837549 -0.02985229 -0.067491435
-0.32623118 -0.059314795 -0.077238366
-0.32411468 -0.088394776 -0.086858749
-0.32202637 -0.11710045 -0.096351162
-0.3199648 -0.14543854 -0.10572191
-0.31792855 -0.17341554 -0.11497746
-0.31591898 -0.20103927 -0.12411208
-0.31393373 -0.22831537 -0.13313578
-0.31197417 -0.25525156 -0.14204291
-0.31003809 -0.28185278 -0.15084338
-0.30812669 -0.30812663 -0.15953153
-0.30623788 -0.33407763 -0.16811693
-0.30437291 -0.35971341 -0.17659408
-0.30252975 -0.38503784 -0.18497209
-0.30070955 -0.41005841 -0.19324586
-0.29891035 -0.43477857 -0.20142403
-0.29713327 -0.45920604 -0.20950149
-0.29537648 -0.48334327 -0.21748695
-0.29364109 -0.50719821 -0.22537513
-0.36418656 0.98330355 0.26082534
-0.36128944 0.93935251 0.24633989
-0.35843927 0.89609826 0.2320891
-0.35563254 0.85351825 0.21805537
-0.35287058 0.81160241 0.20424563
-0.35015005 0.77033013 0.19064283
-0.34747225 0.72969186 0.17725402
-0.344834 0.68966806 0.16406268
-0.34223664 0.65024972 0.15107581
-0.33967698 0.6114186 0.13827762
-0.33715644 0.57316589 0.1256748
-0.33467194 0.53547513 0.11325234
-0.33222485 0.49833736 0.10101698
-0.32981226 0.46173722 0.088954002
-0.32743546 0.42566621 0.077069983
-0.32509169 0.39011002 0.065351039
-0.32278219 0.35506046 0.053803682
-0.32050434 0.32050434 0.042414263
-0.31825936 0.28643346 0.031189352
-0.31604463 0.25283575 0.020115733
-0.31386146 0.21970306 0.0091999844
-0.31170735 0.18702449 -0.0015706643
-0.30958349 0.15479177 -0.01218991
-0.30748749 0.12299508 -0.022669867
-0.30542058 0.091626227 -0.033004429
-0.30338037 0.060676143 -0.043205455
-0.30136812 0.030136824 -0.053266827
-0.29938152 -0 -0.063199662
-0.29742178 -0.029742094 -0.072998375
-0.29548672 -0.059097365 -0.082673773
-0.29357749 -0.088073187 -0.092219964
-0.29169196 -0.11667671 -0.10164763
-0.28983128 -0.14491564 -0.1109509
-0.28799343 -0.172796 -0.12014025
-0.28617948 -0.20032562 -0.12920979
-0.2843875 -0.22750998 -0.13816984
-0.28261858 -0.25435665 -0.14701447
-0.28087077 -0.28087071 -0.15575349
-0.27914518 -0.30705968 -0.16438144
-0.27743995 -0.33292788 -0.17290755
-0.27575615 -0.3584829 -0.18132666
-0.27409264 -0.38372964 -0.18964419
-0.27244839 -0.40867257 -0.1978654
-0.27082443 -0.43331897 -0.20598513
-0.26921907 -0.4576723 -0.21401207
-0.26763326 -0.48173985 -0.22194101
-0.26606539 -0.50552422 -0.22978041
-0.3262938 0.97888148 0.25263593
-0.32371083 0.93516457 0.23828599
-0.32116729 0.89213151 0.22415549
-0.31866455 0.8497721 0.21025115
-0.31619942 0.80806518 0.19655606
-0.31377319 0.76700109 0.18307695
-0.31138286 0.72656006 0.16979739
-0.3090297 0.68673271 0.15672439
-0.30671084 0.64750075 0.14384183
-0.30442753 0.60885507 0.13115668
-0.30217698 0.57077873 0.11865363
-0.2999604 0.53326303 0.10633937
-0.29777518 0.496292 0.094199196
-0.2956225 0.45985726 0.082239762
-0.2934998 0.42394415 0.070446983
-0.29140824 0.38854432 0.058827281
-0.28934541 0.3536444 0.047367156
-0.28731161 0.31923521 0.036068216
-0.28530702 0.28530699 0.024931654
-0.28332937 0.25184831 0.013944678
-0.28137979 0.218851 0.0031138286
-0.27945605 0.18630412 -0.0075738057
-0.27755922 0.15419956 -0.018111676
-0.27568719 0.12252773 -0.028511863
-0.27384099 0.091280371 -0.038768299
-0.27201939 0.060448751 -0.048888423
-0.27022111 0.030024538 -0.058879063
-0.26844719 1.0803342e-07 -0.068734109
-0.26669565 -0.029632848 -0.078464814
-0.26496756 -0.058881648 -0.088065341
-0.26326099 -0.087753654 -0.097546339
-0.26157701 -0.11625641 -0.10690191
-0.25991368 -0.14439647 -0.11614242
-0.25827211 -0.17218131 -0.12526233
-0.25665045 -0.19961695 -0.13427165
-0.25504968 -0.22671077 -0.14316472
-0.2534681 -0.25346801 -0.15195128
-0.25190669 -0.27989632 -0.16062582
-0.25036371 -0.30600014 -0.1691978
-0.24884018 -0.33178687 -0.17766178
-0.24733447 -0.35726082 -0.18602693
-0.24584748 -0.38242936 -0.19428807
-0.24437763 -0.40729606 -0.20245378
-0.24292588 -0.43186826 -0.21051906
-0.24149068 -0.45614898 -0.21849255
-0.24007291 -0.48014575 -0.22636899
-0.23867112 -0.50386113 -0.23415674
-0.28874037 0.97449875 0.24451995
-0.28646481 0.9310106 0.23029771
-0.28422388 0.88819969 0.21629187
-0.28201869 0.84605598 0.20250937
-0.27984649 0.80455875 0.18893334
-0.27770844 0.76369822 0.17557046
-0.27560192 0.72345519 0.16240478
-0.27352801 0.68382007 0.1494427
-0.27148417 0.64477497 0.13666877
-0.26947153 0.60631096 0.12408981
-0.26748767 0.56841135 0.11169061
-0.26553366 0.53106737 0.099477932
-0.26360711 0.49426341 0.087437153
-0.26170918 0.457991 0.075574934
-0.25983754 0.42223608 0.063877434
-0.25799331 0.38698992 0.052350774
-0.25617427 0.35223967 0.040981919
-0.25438151 0.31797686 0.029776976
-0.25261286 0.28418946 0.018722951
-0.25086939 0.25086939 0.0078264028
-0.2491491 0.21800545 -0.0029255226
-0.24745297 0.18558979 -0.013526417
-0.24577904 0.15361199 -0.023988351
-0.24412832 0.12206411 -0.034305286
-0.24249893 0.090937167 -0.044488959
-0.24089186 0.060222983 -0.05453328
-0.23930523 0.029913196 -0.064449608
-0.23774007 1.1175871e-08 -0.074232012
-0.23619457 -0.029524265 -0.083891325
-0.23466967 -0.058667414 -0.09342178
-0.23316371 -0.087436378 -0.10283408
-0.23167759 -0.11583877 -0.11212226
-0.23020968 -0.14388104 -0.12129686
-0.22876087 -0.17157061 -0.13035198
-0.22733016 -0.19891386 -0.1392938
-0.22591664 -0.22591659 -0.14812842
-0.22452119 -0.25258631 -0.15684988
-0.22314228 -0.2789278 -0.1654681
-0.22178078 -0.30494857 -0.17397738
-0.22043525 -0.33065277 -0.18238714
-0.21910648 -0.35604799 -0.19069183
-0.21779309 -0.38113785 -0.19890055
-0.21649589 -0.40592974 -0.207008
-0.21521352 -0.43042696 -0.21502289
-0.21394679 -0.45463681 -0.22293995
-0.21269436 -0.47856224 -0.23076768
-0.21145703 -0.50221038 -0.238501
-0.25152257 0.97015834 0.2364822
-0.24954821 0.92689335 0.22237989
-0.24760547 0.88430524 0.20850313
-0.24569194 0.8423723 0.19483492
-0.24380855 0.80108517 0.18138212
-0.24195302 0.76042372 0.16812837
-0.2401263 0.72037888 0.15508041
-0.23832619 0.68093204 0.14222249
-0.23655361 0.64207411 0.12956139
-0.23480648 0.60378802 0.11708167
-0.23308569 0.56606531 0.1047904
-0.23138921 0.52888966 0.092672765
-0.22971798 0.49225283 0.080735296
-0.22806999 0.45614004 0.068964124
-0.22644618 0.42054302 0.057365477
-0.22484465 0.38544795 0.0459259
-0.2232663 0.3508471 0.034651875
-0.22170928 0.31672758 0.023530349
-0.22017449 0.28308147 0.012567446
-0.21866013 0.2498973 0.0017507672
-0.21716709 0.2171672 -0.0089137182
-0.21569371 0.18488038 -0.019437924
-0.21424079 0.15302922 -0.029815946
-0.21280672 0.12160386 -0.040059414
-0.2113923 0.090596817 -0.050162323
-0.20999599 0.0599989 -0.060136132
-0.20861855 0.02980274 -0.069974788
-0.20725851 1.8626451e-08 -0.079689384
-0.20591666 -0.029416621 -0.089274041
-0.20459151 -0.058454633 -0.098739482
-0.20328385 -0.087121598 -0.10807982
-0.20199226 -0.11542413 -0.11730554
-0.20071751 -0.14336964 -0.12641072
-0.19945823 -0.1709642 -0.13540567
-0.19821517 -0.19821514 -0.14428473
-0.19698699 -0.22512794 -0.15305744
-0.19577447 -0.25171003 -0.16171838
-0.19457625 -0.27796602 -0.17027694
-0.19339313 -0.30390337 -0.1787279
-0.19222379 -0.32952642 -0.18708023
-0.19106902 -0.35484236 -0.19532867
-0.18992755 -0.37985507 -0.203482
-0.1888001 -0.40457159 -0.2115352
-0.1876855 -0.42899537 -0.21949658
-0.18658446 -0.45313364 -0.22736128
-0.18549578 -0.47698915 -0.23513749
-0.1844202 -0.50056899 -0.24282022
-0.21463406 0.96585333 0.22850996
-0.21295671 0.92281246 0.21453199
-0.21130608 0.88044202 0.20077655
-0.20968015 0.83872056 0.18722719
-0.20807971 0.79763889 0.17389029
-0.20650287 0.75717711 0.16074985
-0.20495041 0.7173264 0.14781272
-0.20342045 0.67806816 0.13506305
-0.2019138 0.63939369 0.12250766
-0.20042868 0.60128605 0.11013171
-0.19896589 0.56373674 0.097941771
-0.19752367 0.52672982 0.08592318
-0.19610281 0.49025708 0.074082687
-0.19470164 0.45430389 0.062406391
-0.19332096 0.4188621 0.050900653
-0.19195913 0.38391829 0.039552078
-0.19061694 0.34946436 0.028367028
-0.1892928 0.31548804 0.017332569
-0.18798749 0.28198126 0.0064551234
-0.18669952 0.24893267 -0.0042779595
-0.18542962 0.21633461 -0.014860496
-0.18417634 0.18417639 -0.025304534
-0.18294041 0.15245041 -0.035603818
-0.18172045 0.12114706 -0.045770224
-0.18051715 0.090258576 -0.05579767
-0.17932969 0.059776563 -0.065693252
-0.17815726 0.029692939 -0.075463526
-0.17700055 3.7252903e-09 -0.085102804
-0.17585827 -0.029309694 -0.094621815
-0.17473112 -0.058243677 -0.10401469
-0.17361785 -0.086808883 -0.11329183
-0.17251915 -0.11501276 -0.12244774
-0.17143381 -0.14286141 -0.13149229
-0.17036249 -0.17036246 -0.14041997
-0.16930403 -0.19752133 -0.14924046
-0.16825907 -0.22434539 -0.15794843
-0.16722651 -0.25083971 -0.16655311
-0.16620697 -0.27701157 -0.17504922
-0.16519935 -0.30286551 -0.18344596
-0.16420433 -0.3284086 -0.19173795
-0.16322078 -0.353645 -0.19993418
-0.16224937 -0.37858179 -0.2080293
-0.16128902 -0.40322253 -0.21603206
-0.1603404 -0.42757434 -0.22393736
-0.15940247 -0.45164025 -0.23175347
-0.15847585 -0.47542748 -0.23947535
-0.15755953 -0.49893844 -0.24711126
-0.17807153 0.96158624 0.22060788
-0.17668661 0.91877031 0.20675862
-0.17532247 0.87661242 0.19311738
-0.1739798 0.83510309 0.17969072
-0.172657 0.79422218 0.16646257
-0.1713547 0.75396067 0.15343964
-0.17007136 0.7142998 0.14060625
-0.16880764 0.67523056 0.12796903
-0.16756202 0.63673568 0.11551279
-0.16633517 0.59880668 0.10324439
-0.16512565 0.56142724 0.091149181
-0.1639341 0.52458918 0.079233631
-0.16275911 0.48827738 0.067483783
-0.16160135 0.45248383 0.055906221
-0.16045947 0.4171946 0.044487268
-0.15933408 0.38240182 0.033233374
-0.15822388 0.34809256 0.022131458
-0.15712953 0.31425911 0.011187896
-0.15604974 0.28088963 0.00039003789
-0.15498516 0.24797627 -0.010255843
-0.15393454 0.21550836 -0.020761892
-0.15289852 0.18347824 -0.031122163
-0.15187591 0.15187593 -0.041348185
-0.15086733 0.12069385 -0.051434062
-0.14987163 0.089922994 -0.061391067
-0.14888939 0.059555784 -0.071213454
-0.14791954 0.029583924 -0.080911852
-0.14696266 -3.7252903e-09 -0.090480804
-0.14601766 -0.029203426 -0.099930756
-0.14508514 -0.058033999 -0.10925588
-0.14416406 -0.086498402 -0.11846664
-0.143255 -0.11460397 -0.12755732
-0.14235693 -0.14235695 -0.13653792
-0.14147045 -0.16976446 -0.14540279
-0.14059457 -0.1968323 -0.15416177
-0.13972981 -0.22356772 -0.16280916
-0.13887565 -0.24997607 -0.17135087
-0.1380315 -0.27606297 -0.17979228
-0.13719754 -0.30183461 -0.18813184
-0.13637397 -0.32729751 -0.19636774
-0.13556021 -0.35245651 -0.20450526
-0.13475576 -0.37731606 -0.21254975
-0.13396116 -0.40188336 -0.22049586
-0.13317552 -0.42616165 -0.22835207
-0.13239938 -0.45015791 -0.23611352
-0.13163191 -0.4738749 -0.24378817
-0.13087361 -0.49731967 -0.25137126
-0.1418311 0.95735997 0.21278149
-0.14073238 0.91476047 0.19904745
-0.13965099 0.87281877 0.18553013
-0.13858566 0.831514 0.17221332
-0.1375369 0.79083723 0.1591039
-0.13650344 0.75076902 0.1461857
-0.13548584 0.71130073 0.13346574
-0.13448288 0.67241442 0.12092873
-0.13349508 0.63410157 0.10858107
-0.13252126 0.59634566 0.096408427
-0.13156196 0.5591383 0.084417179
-0.13061604 0.52246428 0.072593242
-0.12968403 0.48631516 0.060942993
-0.12876482 0.45067692 0.049452975
-0.12785856 0.41554037 0.03812474
-0.12696536 0.38089603 0.026959568
-0.12608416 0.34673142 0.01594463
-0.12521549 0.31303883 0.0050862879
-0.12435833 0.27980626 -0.0056281686
-0.1235132 0.24702641 -0.016192444
-0.12267947 0.21468911 -0.02661404
-0.12185656 0.18278494 -0.036900207
-0.12104498 0.15130627 -0.047045074
-0.12024379 0.12024381 -0.057060022
-0.11945347 0.08959014 -0.066938959
-0.11867315 0.059336565 -0.076692969
-0.11790328 0.029475948 -0.086316362
-0.11714301 -7.4505806e-09 -0.095819764
-0.11639281 -0.029098086 -0.10519733
-0.11565183 -0.057825867 -0.11445953
-0.11492053 -0.08619041 -0.12360073
-0.11419812 -0.11419809 -0.13263072
-0.11348505 -0.14185631 -0.14154418
-0.11278052 -0.16917066 -0.15035088
-0.11208498 -0.19614872 -0.15904501
-0.11139768 -0.22279531 -0.16763639
-0.11071904 -0.24911788 -0.17611937
-0.11004833 -0.27512076 -0.18450321
-0.10938598 -0.30081141 -0.19278245
-0.10873129 -0.32619378 -0.20096627
-0.10808466 -0.35127509 -0.20904914
-0.1074454 -0.37605882 -0.2170399
-0.10681393 -0.40055215 -0.22493327
-0.10618957 -0.42475817 -0.23273787
-0.10557272 -0.44868401 -0.24044834
-0.10496274 -0.47233236 -0.24807303
-0.10436004 -0.49571013 -0.25560692
-0.1059075 0.95316756 0.20501763
-0.10509063 0.91078532 0.19140294
-0.1042866 0.86905497 0.17800257
-0.10349444 0.82795548 0.1647999
-0.10271456 0.78747833 0.15180197
-0.10194602 0.74760425 0.13899311
-0.10118922 0.70832455 0.12637964
-0.10044326 0.66962159 0.11394674
-0.099708512 0.63148725 0.1017012
-0.098984137 0.59390485 0.089628309
-0.098270521 0.55686629 0.077734664
-0.097566821 0.52035642 0.066006348
-0.096873417 0.48436716 0.054449663
-0.096189514 0.44888437 0.043051109
-0.095515482 0.41390041 0.031817317
-0.094850548 0.37940222 0.020735115
-0.09419509 0.34538203 0.0098108202
-0.09354835 0.3118279 -0.00096815825
-0.0929107 0.27873218 -0.011595696
-0.092281424 0.24608383 -0.022083685
-0.091660872 0.21387541 -0.032426149
-0.091048352 0.18209673 -0.04263477
-0.090444222 0.15074039 -0.052703645
-0.089847796 0.11979715 -0.06264402
-0.089259446 0.089259431 -0.072449967
-0.088678502 0.059119083 -0.082132414
-0.088105306 0.029368501 -0.091685578
-0.087539241 3.7252903e-09 -0.10112
-0.086980633 -0.028993528 -0.11043017
-0.086428881 -0.05761927 -0.1196261
-0.08588431 -0.08588431 -0.12870216
-0.085346341 -0.113795 -0.13766846
-0.084815286 -0.14135882 -0.14651923
-0.084290802 -0.16858159 -0.15526067
-0.08377254 -0.19546926 -0.16389823
-0.083260834 -0.22202885 -0.17242673
-0.082755126 -0.24826539 -0.18085524
-0.082255736 -0.27418569 -0.18917841
-0.081762128 -0.29979438 -0.19740517
-0.081274621 -0.32509843 -0.20553035
-0.08079268 -0.3501015 -0.21356268
-0.080316633 -0.3748109 -0.22149684
-0.07984595 -0.39922965 -0.22934154
-0.079380952 -0.42336509 -0.23709135
-0.078921154 -0.44721985 -0.24475485
-0.078466833 -0.47080097 -0.25232679
-0.078017525 -0.494111 -0.25981519
-0.070297152 0.94901156 0.19732144
-0.069757521 0.90684772 0.18383056
-0.069225885 0.86532354 0.17053962
-0.068702511 0.82443017 0.15745544
-0.068186775 0.7841478 0.14456186
-0.067678936 0.74446833 0.1318661
-0.067178398 0.70537317 0.11935252
-0.066685416 0.6668542 0.10702804
-0.066199407 0.62889445 0.094877899
-0.06572064 0.59148592 0.082908809
-0.065248549 0.55461264 0.07110633
-0.064783387 0.51826715 0.059477285
-0.064324617 0.48243457 0.04800798
-0.063872486 0.44710746 0.036704853
-0.06342648 0.41227216 0.025554746
-0.062986851 0.37792116 0.014563933
-0.062553085 0.344042 0.0037197918
-0.062125437 0.31062722 -0.0069714338
-0.061703414 0.27766541 -0.017521948
-0.061287265 0.24514905 -0.027925752
-0.060876515 0.21306784 -0.038194396
-0.060471408 0.18141431 -0.048322044
-0.060071491 0.15017875 -0.058320072
-0.05967699 0.11935402 -0.068182573
-0.059287477 0.088931359 -0.077920422
-0.058903173 0.058903232 -0.087527923
-0.058523662 0.02926182 -0.097015783
-0.05814917 8.9406967e-08 -0.10637811
-0.057779282 -0.028889559 -0.11562534
-0.057414226 -0.057414129 -0.12475175
-0.057053596 -0.085580371 -0.13376741
-0.056697622 -0.1133952 -0.14266676
-0.056345914 -0.14086485 -0.15145947
-0.05599869 -0.16799605 -0.16014007
-0.055655573 -0.19479448 -0.16871797
-0.05531678 -0.2212671 -0.17718785
-0.054981947 -0.24741866 -0.18555875
-0.054651275 -0.27325636 -0.19382539
-0.054324422 -0.29878432 -0.20199673
-0.054001596 -0.32400954 -0.21006742
-0.053682446 -0.34893584 -0.21804619
-0.053367183 -0.37357026 -0.22592776
-0.053055465 -0.39791599 -0.23372066
-0.052747499 -0.4219799 -0.24141987
-0.052442957 -0.44576514 -0.24903332
-0.052142043 -0.46927834 -0.25655621
-0.051844563 -0.49252328 -0.26399329
-0.035267744 0.98749685 0.20327997
-0.034995988 0.94489169 0.18969205
-0.034728501 0.90294099 0.17631769
-0.034464959 0.86162406 0.16314065
-0.034205496 0.82093191 0.15016747
-0.033949804 0.7808454 0.13738281
-0.033698015 0.74135637 0.12479326
-0.033449825 0.70244634 0.11238375
-0.033205364 0.66410744 0.10016102
-0.032964353 0.62632275 0.088110358
-0.032726917 0.58908451 0.076238424
-0.032492775 0.55237722 0.06453146
-0.032262061 0.51619297 0.052995607
-0.032034501 0.48051754 0.041617662
-0.031810224 0.44534314 0.030403823
-0.031588972 0.41065663 0.019341156
-0.031370867 0.37645048 0.0084360838
-0.031155664 0.34271231 -0.0023241192
-0.030943483 0.30943483 -0.012933239
-0.030734085 0.2766068 -0.02340313
-0.030527588 0.24422075 -0.033727899
-0.030323762 0.21226637 -0.04391925
-0.030122723 0.18073636 -0.053971168
-0.029924249 0.14962135 -0.063894808
-0.029728459 0.11891381 -0.073684439
-0.029535212 0.088605687 -0.083346657
-0.029344382 0.058688849 -0.092888325
-0.029155999 0.029156104 -0.10230745
-0.0289701 3.7252903e-09 -0.11160237
-0.028786555 -0.02878648 -0.12077959
-0.028605245 -0.057210431 -0.12984513
-0.028426282 -0.085278869 -0.13879323
-0.028249469 -0.11299782 -0.14763393
-0.028074916 -0.14037454 -0.15636162
-0.027902432 -0.16741462 -0.1649857
-0.027732128 -0.1941248 -0.17350096
-0.027563818 -0.2205105 -0.18191639
-0.027397612 -0.24657848 -0.19022678
-0.027233327 -0.2723332 -0.19844103
-0.027071068 -0.29778165 -0.20655398
-0.026910663 -0.32292789 -0.21457417
-0.026752219 -0.34777874 -0.22249651
-0.026595559 -0.37233779 -0.23032942
-0.02644079 -0.39661181 -0.23806792
-0.026287748 -0.42060393 -0.24572003
-0.026136531 -0.44432098 -0.25328088
-0.025986979 -0.46776557 -0.26075843
-0.025839193 -0.49094462 -0.26814771
-0.025693016 -0.51386029 -0.27545661
0 0.98319554 0.19559896
0 0.94081056 0.1821343
0 0.89906788 0.1688692
0 0.85795879 0.15581009
0 0.81746328 0.14294118
0 0.77757335 0.13026941
0 0.73827016 0.1177794
0 0.69954574 0.10547787
0 0.66138315 0.093350291
0 0.62377399 0.081403077
0 0.58670259 0.069622159
0 0.5501613 0.058014184
0 0.51413536 0.046565622
0 0.47861701 0.035282627
0 0.4435927 0.024152324
0 0.40905493 0.013180822
0 0.37499112 0.0023556948
0 0.34139389 -0.0083169788
0 0.30825168 -0.018849269
0 0.27555701 -0.029235117
0 0.24329939 -0.039486319
0 0.21147153 -0.049596928
0 0.18006359 -0.059578147
0 0.14906836 -0.069424048
0 0.11847699 -0.079145923
0 0.088282235 -0.088737503
0 0.058475915 -0.098209821
0 0.029051002 -0.10755699
0 4.0978193e-08 -0.11678927
0 -0.028684173 -0.12590106
0 -0.057008184 -0.1349023
0 -0.084979184 -0.14378759
0 -0.11260325 -0.15256639
0 -0.13988727 -0.1612334
0 -0.16683717 -0.16979799
0 -0.19345935 -0.17825469
0 -0.21975914 -0.18661273
0 -0.24574324 -0.19486675
0 -0.27141702 -0.20302208
0 -0.29678506 -0.21108419
0 -0.32185423 -0.21904752
0 -0.34662843 -0.2269208
0 -0.37111434 -0.23469886
0 -0.39531517 -0.24238992
0 -0.41923788 -0.24998896
0 -0.44288501 -0.25750417
0 -0.46626371 -0.2649304
0 -0.48937607 -0.27227563
0 -0.51222897 -0.27953491
0.034961838 0.97893143 0.18798435
0.034694869 0.9367615 0.17463607
0.034431834 0.89522779 0.16148445
0.03417287 0.85432172 0.14853621
0.033917662 0.81402385 0.13577572
0.033666346 0.77432591 0.12320986
0.033418618 0.7352097 0.11082369
0.033174619 0.6966669 0.098623484
0.032934051 0.65868104 0.086595267
0.032697048 0.62124395 0.074745089
0.032463331 0.58433998 0.063059241
0.032233033 0.54796159 0.051544338
0.03200588 0.51209402 0.040186659
0.031782001 0.47673017 0.028992862
0.031561144 0.44185594 0.017949685
0.031343423 0.40746447 0.0070637017
0.031128593 0.3735432 -0.0036776513
0.030916778 0.34008455 -0.014268398
0.030707741 0.30707744 -0.024720296
0.030501597 0.27451444 -0.035027467
0.030298118 0.24238499 -0.045201577
0.030097418 0.21068192 -0.055236436
0.029899361 0.17939612 -0.065139316
0.029703809 0.14851908 -0.07491684
0.029510884 0.11804358 -0.084563278
0.029320363 0.087961137 -0.094089113
0.02913237 0.058264717 -0.10348889
0.028946692 0.02894675 -0.11277279
0.028763443 6.7055225e-08 -0.12193522
0.028582424 -0.028582428 -0.13098614
0.028403746 -0.056807511 -0.13992018
0.02822721 -0.084681615 -0.14874689
0.028052932 -0.1122117 -0.15746075
0.027880717 -0.13940358 -0.16607152
0.027710676 -0.1662641 -0.17457341
0.027542628 -0.19279838 -0.18297601
0.027376674 -0.21901344 -0.19127363
0.02721264 -0.2449137 -0.19947538
0.027050629 -0.27050623 -0.20757595
0.026890464 -0.29579511 -0.21558408
0.026732255 -0.32078695 -0.22349465
0.02657583 -0.34548566 -0.23131591
0.02642129 -0.36989793 -0.23904288
0.026268471 -0.39402711 -0.24668375
0.026117476 -0.41787952 -0.2542336
0.025968142 -0.44145831 -0.2617003
0.02582057 -0.46477026 -0.26907885
0.0256746 -0.48781735 -0.27637729
0.025530338 -0.51060671 -0.28359053
0.069621958 0.97470725 0.18044144
0.069092371 0.93274701 0.16720194
0.068571009 0.89142323 0.15416795
0.068057239 0.85071546 0.14132351
0.067551322 0.81061584 0.12867564
0.067052662 0.77110565 0.11620918
0.06656152 0.73217678 0.10393059
0.066077307 0.69381183 0.091825396
0.065600298 0.656003 0.079900026
0.065129928 0.61873436 0.068140835
0.06466645 0.58199811 0.056553841
0.064209327 0.54577935 0.045125872
0.063758813 0.5100705 0.033863023
0.063314386 0.4748579 0.022752345
0.062876306 0.4401342 0.0118002
0.062444054 0.40588638 0.00099402666
0.062017892 0.37210739 -0.0096600503
0.061597321 0.33878532 -0.02017419
0.0611826 0.30591303 -0.030542344
0.060773246 0.27347967 -0.040776186
0.060369514 0.24147803 -0.050869584
0.05997093 0.20989832 -0.06083408
0.059577752 0.17873321 -0.070663631
0.059189525 0.14797381 -0.080369309
0.058806486 0.11761293 -0.089945227
0.058428213 0.087642327 -0.099401921
0.058054939 0.058054939 -0.10873392
0.057686243 0.028843142 -0.11795133
0.057322353 8.9406967e-08 -0.1270484
0.056962878 -0.028481428 -0.13603531
0.056608032 -0.056607977 -0.14490652
0.056257583 -0.084386356 -0.15366782
0.055911295 -0.11182261 -0.16232494
0.055569392 -0.13892339 -0.17087263
0.0552315 -0.16569445 -0.17931993
0.05489783 -0.19214234 -0.18766148
0.054568034 -0.21827215 -0.19590646
0.054242313 -0.2440903 -0.20404954
0.053920321 -0.26960158 -0.21209937
0.053602263 -0.29481238 -0.22005074
0.0532878 -0.31972677 -0.22791226
0.052977141 -0.34435141 -0.23567881
0.052669954 -0.36868963 -0.24335852
0.052366436 -0.39274824 -0.25094646
0.052066263 -0.41653004 -0.25845078
0.051769644 -0.44004196 -0.26586622
0.051476259 -0.46328622 -0.27320087
0.051186305 -0.48626989 -0.28044966
0.050899472 -0.5089947 -0.28762043
0.1039839 0.97051644 0.17295763
0.10319665 0.92876995 0.15983695
0.10242091 0.88764799 0.14690781
0.10165707 0.84714222 0.13417712
0.10090421 0.80723369 0.12162948
0.10016274 0.76791441 0.10927168
0.099431776 0.72916639 0.097088903
0.098711707 0.69098204 0.085087895
0.098001696 0.65334469 0.073254317
0.097302124 0.61624676 0.061594725
0.096612178 0.57967305 0.050095558
0.09593194 0.54361427 0.038758248
0.095261499 0.50806135 0.027584255
0.094600081 0.47300044 0.016560748
0.093948074 0.43842435 0.0056938082
0.093304977 0.40432161 -0.0050243288
0.092670366 0.37068149 -0.015601292
0.092044592 0.33749691 -0.026030764
0.091426954 0.30475652 -0.036324874
0.090817802 0.27245343 -0.046477318
0.090216465 0.24057733 -0.05649969
0.089623287 0.20912102 -0.06638597
0.089037605 0.17807525 -0.076147348
0.088459782 0.14743295 -0.085777715
0.087889157 0.11718565 -0.095288046
0.087326095 0.087326109 -0.10467242
0.086769961 0.057846621 -0.11394132
0.086221106 0.028740406 -0.12308892
0.085678913 2.2351742e-08 -0.13212547
0.08514373 -0.028381255 -0.1410452
0.084614962 -0.056409951 -0.14985803
0.084092945 -0.084092967 -0.15855832
0.083577111 -0.11143614 -0.16715549
0.083067782 -0.13844633 -0.17564435
0.082564406 -0.16512878 -0.18403386
0.082067311 -0.19149037 -0.19231881
0.081575952 -0.21753582 -0.20050818
0.081090651 -0.24327189 -0.20859644
0.080610886 -0.26870295 -0.21659254
0.080136962 -0.29383552 -0.22449122
0.079668388 -0.31867352 -0.23230091
0.079205453 -0.34322363 -0.24001643
0.078747675 -0.36748907 -0.24764611
0.078295343 -0.39147666 -0.25518492
0.077847995 -0.41518933 -0.26264068
0.077405915 -0.43863353 -0.27000868
0.076968834 -0.46181291 -0.2772935
0.076536469 -0.48473099 -0.28449953
0.076109119 -0.50739408 -0.29162204
0.13805161 0.96636134 0.16553786
0.13701089 0.92482364 0.15252891
0.1359853 0.88390446 0.13970897
0.13497539 0.84359616 0.127085
0.13397995 0.80387962 0.11464182
0.13299948 0.76474708 0.10238621
0.13203286 0.72618073 0.090303332
0.13108058 0.68817317 0.078400016
0.13014156 0.6507079 0.066662163
0.12921627 0.6137774 0.055096179
0.12830368 0.57736659 0.043688595
0.12740426 0.54146814 0.032445878
0.12651698 0.50606793 0.021354899
0.12564236 0.47115892 0.010422066
0.12477937 0.43672782 -0.00036531687
0.12392851 0.40276766 -0.011001036
0.12308882 0.36926657 -0.021497011
0.1222608 0.33621725 -0.031847343
0.12144349 0.30360878 -0.042063788
0.12063738 0.27143413 -0.052140161
0.11984155 0.23968306 -0.062087946
0.1190565 0.2083489 -0.071901083
0.11828166 0.17742248 -0.081586555
0.11751653 0.14689569 -0.09115082
0.11676154 0.11676156 -0.10058811
0.11601587 0.087011956 -0.10990895
0.11527999 0.057639997 -0.11910751
0.11455307 0.028638318 -0.12819399
0.11383557 3.7252903e-08 -0.13716277
0.1131267 -0.028281648 -0.14602372
0.11242689 -0.056213442 -0.15477122
0.1117354 -0.083801568 -0.16341485
0.11105265 -0.11105262 -0.17194922
0.11037791 -0.1379724 -0.18038338
0.1097116 -0.16456732 -0.1887123
0.10905302 -0.19084276 -0.19694467
0.10840257 -0.2168051 -0.20507529
0.10775954 -0.24245888 -0.2131131
0.10712439 -0.26781088 -0.22105259
0.1064964 -0.29286501 -0.22890235
0.105876 -0.31762803 -0.23665735
0.10526253 -0.34210321 -0.24432573
0.10465638 -0.36629719 -0.2519027
0.10405692 -0.39021337 -0.25939596
0.10346453 -0.41385809 -0.2668007
0.10287862 -0.4372341 -0.27412471
0.10229953 -0.46034783 -0.28136331
0.10172668 -0.48320168 -0.28852379
0.10116046 -0.50580233 -0.29560152
0.17182943 0.96224487 0.15818703
0.17053899 0.9209106 0.14528266
0.16926834 0.88019538 0.13257614
0.16801594 0.84007972 0.12005204
0.16678247 0.80055577 0.10771725
0.16556646 0.76160574 0.095557213
0.16436855 0.72322166 0.083578169
0.16318737 0.68538702 0.071766347
0.16202353 0.64809418 0.060127884
0.16087568 0.61132753 0.0486494
0.15974446 0.57508004 0.037337154
0.15862855 0.53933716 0.026178241
0.15752862 0.50409156 0.015178844
0.15644337 0.46933013 0.0043263584
0.15537342 0.4350456 -0.0063731819
0.15431754 0.40122569 -0.016931847
0.15327638 0.36786333 -0.027343467
0.15224874 0.33494726 -0.037619978
0.15123521 0.30247042 -0.047755256
0.15023465 0.2704224 -0.057760783
0.14924768 0.23879626 -0.067630567
0.14827317 0.2075825 -0.077375621
0.14731172 0.17677408 -0.086990207
0.14636225 0.1463623 -0.096484885
0.14542533 0.11634038 -0.105854
0.14449994 0.086699903 -0.11510792
0.14358665 0.057434671 -0.12424082
0.14268444 0.028536912 -0.13326298
0.14179389 -0 -0.14216854
0.14091401 -0.028182842 -0.1509674
0.14004533 -0.056018069 -0.15965399
0.13918695 -0.083512127 -0.16823786
0.13833937 -0.11067145 -0.17671354
0.13750207 -0.13750203 -0.18508658
0.13667449 -0.16400936 -0.19336252
0.13585681 -0.19019951 -0.20153929
0.13504919 -0.21607859 -0.20961539
0.13425113 -0.24165197 -0.21759614
0.1334621 -0.26692417 -0.22548643
0.13268262 -0.29190177 -0.23328102
0.13191187 -0.3165884 -0.2409886
0.13115035 -0.34099093 -0.24860376
0.13039726 -0.36511227 -0.25613487
0.12965307 -0.38895923 -0.26357672
0.12891702 -0.41253439 -0.27093717
0.12818958 -0.43584457 -0.27821153
0.12747002 -0.45889199 -0.28540725
0.12675877 -0.48168331 -0.29251966
0.12605512 -0.50422037 -0.29955617
0.20532005 0.95816016 0.15089297
0.20378458 0.91703057 0.13809744
0.20227256 0.87651443 0.12549734
0.20078218 0.83659244 0.11307755
0.19931424 0.79725695 0.10084462
0.19786698 0.75849009 0.088784039
0.19644119 0.7202844 0.076902509
0.1950352 0.68262321 0.065186024
0.1936498 0.64549947 0.053640991
0.19228335 0.60889733 0.042253911
0.19093663 0.57280988 0.031031162
0.18960807 0.53722286 0.019959837
0.18829842 0.50212914 0.0090462118
0.18700621 0.46751559 -0.0017222762
0.18573214 0.43337506 -0.012339488
0.18447533 0.39969659 -0.022812977
0.18323487 0.3664698 -0.033150136
0.18201151 0.33368775 -0.043344826
0.18080385 0.30133975 -0.05340863
0.17961264 0.26941895 -0.063335456
0.1784365 0.23791534 -0.073136501
0.17727618 0.20682223 -0.082805857
0.17613035 0.17613032 -0.092354551
0.17499971 0.14583308 -0.10177644
0.17388304 0.115922 -0.11108202
0.17278099 0.086390525 -0.12026575
0.17169234 0.057230812 -0.12933776
0.1706178 0.028436378 -0.13829225
0.16955619 7.4505806e-09 -0.14713924
0.16850814 -0.028084688 -0.15587288
0.16747251 -0.055824164 -0.16450307
0.16644999 -0.083224967 -0.17302421
0.16543944 -0.11029297 -0.1814454
0.16444151 -0.13703454 -0.18976146
0.16345513 -0.16345511 -0.19798127
0.16248094 -0.18956098 -0.20609961
0.16151786 -0.21535712 -0.2141252
0.16056654 -0.24084984 -0.22205278
0.15962598 -0.26604319 -0.22989088
0.15869676 -0.29094398 -0.23763447
0.15777789 -0.31555572 -0.24529153
0.15686999 -0.339885 -0.25285739
0.15597212 -0.36393487 -0.26033974
0.15508483 -0.38771206 -0.26773381
0.1542072 -0.41121915 -0.27504733
0.15333982 -0.43446285 -0.28227544
0.15248178 -0.45744532 -0.28942579
0.15163366 -0.48017323 -0.29649353
0.15079455 -0.50264847 -0.30348605
0.23852751 0.95411003 0.14366058
0.23675197 0.91318613 0.13097799
0.23500189 0.87286425 0.11847761
0.23327826 0.83313656 0.10616589
0.23157899 0.79398513 0.094028294
0.22990501 0.75540221 0.082071304
0.22825436 0.71737075 0.07028091
0.22662793 0.67988384 0.058663756
0.22502384 0.64292526 0.047205776
0.22344297 0.60648811 0.035913944
0.22188349 0.57055753 0.02477473
0.22034629 0.53512675 0.01379469
0.2188296 0.50018197 0.0029611886
0.21733427 0.46571636 -0.0077197105
0.21585861 0.43171725 -0.018260121
0.21440348 0.39817792 -0.028653964
0.21296723 0.36508673 -0.038912922
0.21155068 0.3324368 -0.049031079
0.21015227 0.30021757 -0.059019722
0.20877279 0.26842219 -0.068873063
0.20741075 0.23704088 -0.078601889
0.20606694 0.20606695 -0.088200718
0.20473987 0.1754913 -0.097679839
0.20343032 0.14530741 -0.10703374
0.20213684 0.11550681 -0.11627261
0.20086031 0.08608304 -0.1253909
0.19959922 0.057028394 -0.13439861
0.19835442 0.028336365 -0.14329
0.19712453 -1.4901161e-08 -0.15207511
0.19591029 -0.02798716 -0.16074806
0.19471094 -0.055631604 -0.16931492
0.19352567 -0.08293955 -0.17778116
0.19235525 -0.10991729 -0.18614128
0.19119839 -0.13657022 -0.1944045
0.19005588 -0.16290498 -0.20256537
0.18892643 -0.18892638 -0.21063291
0.18781082 -0.21464093 -0.21860152
0.18670782 -0.24005288 -0.22648002
0.18561819 -0.26516876 -0.23426318
0.18454073 -0.28999257 -0.24195933
0.18347616 -0.31453049 -0.24956335
0.18242335 -0.33878621 -0.25708342
0.18138301 -0.362766 -0.26451442
0.18035401 -0.38647285 -0.27186435
0.17933708 -0.40991321 -0.27912825
0.17833111 -0.43308973 -0.28631377
0.17733678 -0.45600882 -0.29341602
0.17635307 -0.47867253 -0.30044258
0.17538062 -0.50108743 -0.3073886
0.2714563 0.95009702 0.13649446
0.26944321 0.9093709 0.12391272
0.26746061 0.8692469 0.11152136
0.26550612 0.82970667 0.099305928
0.26358083 0.7907424 0.087272793
0.26168242 0.75233698 0.075407863
0.25981119 0.71448076 0.063712656
0.25796732 0.6771642 0.052188456
0.25614867 0.64037162 0.04082182
0.25435624 0.60409606 0.029619068
0.25258872 0.56832457 0.018572092
0.25084484 0.53304541 0.0076729059
0.24912561 0.4982512 -0.0030723363
0.24742906 0.46392947 -0.013675719
0.24575619 0.43007335 -0.024131149
0.24410507 0.39667082 -0.034450665
0.24247669 0.36371505 -0.044628054
0.24086919 0.33119527 -0.054674774
0.23928356 0.29910454 -0.064585038
0.237718 0.26743272 -0.074369915
0.23617345 0.23617345 -0.08402326
0.23464818 0.20531714 -0.093556218
0.23314314 0.17485735 -0.10296273
0.23165666 0.14478543 -0.11225329
0.23018961 0.11509489 -0.12142227
0.22874042 0.085777745 -0.13047966
0.22730999 0.056827541 -0.1394199
0.22589672 0.028237112 -0.14825283
0.22450152 3.7252903e-08 -0.15697294
0.22312285 -0.027890339 -0.16558959
0.22176158 -0.055440366 -0.17409745
0.22041628 -0.082656093 -0.18250564
0.21908773 -0.1095439 -0.19080898
0.21777457 -0.13610904 -0.19901624
0.21647762 -0.16235819 -0.20712234
0.21519546 -0.18829593 -0.21513578
0.21392892 -0.21392897 -0.22305153
0.21267669 -0.23926122 -0.230878
0.21143956 -0.26429933 -0.2386101
0.21021621 -0.2890473 -0.24625593
0.20900746 -0.31351122 -0.25381064
0.20781204 -0.33769447 -0.26128227
0.20663069 -0.36160374 -0.26866555
0.20546269 -0.38524252 -0.27596545
0.20430735 -0.40861467 -0.28318641
0.20316541 -0.43172646 -0.29032353
0.2020357 -0.45458028 -0.29738426
0.20091893 -0.47718239 -0.30436409
0.19981398 -0.49953496 -0.31126994
0.3063868 0.98724633 0.1420415
0.30410826 0.94611478 0.12938312
0.30186242 0.90558726 0.11690602
0.29965046 0.86565691 0.10461736
0.29746971 0.82630479 0.092502147
0.2953214 0.78752381 0.080567181
0.29320303 0.74929655 0.068798274
0.2911157 0.71161616 0.057201982
0.28905699 0.67446637 0.045764983
0.28702807 0.63784015 0.034493059
0.28502658 0.6017229 0.023373812
0.28305367 0.56610733 0.012413055
0.28110704 0.53097999 0.0015984178
0.27918783 0.49633399 -0.0090638697
0.27729383 0.46215641 -0.019586146
0.27542615 0.42844069 -0.029962152
0.27358267 0.39517495 -0.040203661
0.27176449 0.36235267 -0.050304756
0.2699703 0.32996377 -0.060272336
0.26819891 0.29799879 -0.070113473
0.26645058 0.26645058 -0.079826325
0.26472566 0.23531178 -0.089409143
0.26302296 0.20457342 -0.098868795
0.26134124 0.17422749 -0.10821152
0.25968093 0.14426728 -0.11743549
0.25804228 0.11468545 -0.12653911
0.25642419 0.085474715 -0.13552867
0.25482556 0.056627925 -0.14440981
0.25324741 0.028138578 -0.15317723
0.25168803 1.4901161e-08 -0.16184047
0.25014842 -0.02779422 -0.17039396
0.24862686 -0.055250328 -0.178847
0.24712433 -0.082374766 -0.18719436
0.24563923 -0.10917295 -0.195445
0.24417248 -0.13565132 -0.20359351
0.24272254 -0.16181505 -0.2116487
0.24129035 -0.18767022 -0.21960546
0.23987433 -0.21322155 -0.22747217
0.23847543 -0.23847532 -0.23524383
0.23709218 -0.26343578 -0.24292858
0.23572545 -0.28810883 -0.25052151
0.23437381 -0.31249833 -0.25803053
0.23303817 -0.33661067 -0.26545084
0.23171709 -0.36044884 -0.27279016
0.23041147 -0.38401908 -0.28004366
0.22911993 -0.40732422 -0.28721893
0.22784333 -0.43037069 -0.29431114
0.22658032 -0.45316061 -0.30132776
0.22533178 -0.47570038 -0.30826411
0.2240964 -0.49799186 -0.31512737
0.33899927 0.98309791 0.13488898
0.33648768 0.94216543 0.12233096
0.33401406 0.90183794 0.10996285
0.33157548 0.86209643 0.097770154
0.3291733 0.8229332 0.085759103
0.32680467 0.7843312 0.073916078
0.32447085 0.74628305 0.062247068
0.32216918 0.70877218 0.050738484
0.3199009 0.67179203 0.03939721
0.31766337 0.63532674 0.028209478
0.31545785 0.59937 0.017182052
0.31328183 0.56390733 0.0063018501
0.31113654 0.52893209 -0.0044246316
0.30901954 0.49443132 -0.015009567
0.30693203 0.46039808 -0.025447115
0.30487168 0.4268204 -0.035748988
0.30283964 0.39369154 -0.045909122
0.30083367 0.36100042 -0.055939019
0.29885495 0.32874042 -0.065832667
0.29690126 0.29690129 -0.075601168
0.29497373 0.26547641 -0.085238695
0.29307029 0.23445621 -0.09475591
0.29119205 0.20383446 -0.10414706
0.28933695 0.17360224 -0.11342257
0.28750613 0.14375302 -0.12257683
0.28569752 0.11427899 -0.13161978
0.2839123 0.085173696 -0.14054587
0.28214851 0.056429755 -0.14936474
0.28040725 0.028040797 -0.1580711
0.27868661 -0 -0.16667432
0.27698767 -0.027698696 -0.17516901
0.27530861 -0.055061687 -0.18356431
0.2736505 -0.082095139 -0.19185494
0.27201152 -0.10880462 -0.20004967
0.27039278 -0.13519637 -0.2081435
0.26879317 -0.16127591 -0.21614152
0.26721171 -0.18704812 -0.22404888
0.26564941 -0.21251951 -0.23186032
0.2641046 -0.23769408 -0.23958434
0.26257834 -0.26257822 -0.24721572
0.26106894 -0.28717583 -0.25476262
0.25957745 -0.31149295 -0.26222005
0.25810227 -0.3355329 -0.26959601
0.25664437 -0.3593021 -0.27688539
0.25520226 -0.38280338 -0.28409594
0.25377685 -0.40604293 -0.29122293
0.25236669 -0.42902336 -0.29827386
0.25097272 -0.45175081 -0.30524379
0.24959345 -0.47422752 -0.31214008
0.24822988 -0.49645972 -0.31895801
0.37133765 0.97898114 0.12779114
0.36859787 0.93824911 0.11533746
0.36589938 0.89811671 0.10307166
0.36323899 0.85856485 0.090978831
0.36061808 0.81958652 0.079065859
0.35803366 0.78116441 0.067318469
0.35548711 0.74329126 0.055743188
0.35297543 0.70595098 0.044326574
0.35050008 0.6691364 0.033074737
0.34805813 0.63283306 0.02197516
0.34565103 0.59703368 0.011033833
0.34327596 0.56172431 0.00023794174
0.34093434 0.5268985 -0.010405809
0.33862343 0.49254316 -0.02090995
0.33634463 0.45865181 -0.031268075
0.3340953 0.42521226 -0.041492209
0.33187684 0.39221817 -0.051576212
0.3296867 0.35965824 -0.061531454
0.32752621 0.32752627 -0.071351811
0.32539386 0.29581261 -0.081044368
0.32328817 0.26450852 -0.090615623
0.32121044 0.23360762 -0.10005987
0.31915838 0.2031008 -0.10938738
0.31713328 0.17298172 -0.11859253
0.3151328 0.14324223 -0.12768543
0.31315827 0.1138757 -0.1366607
0.3112075 0.084874824 -0.14552775
0.30928168 0.056233078 -0.15428147
0.30737877 0.027943529 -0.1629311
0.30549994 5.9604645e-08 -0.17147124
0.30364311 -0.027603857 -0.17991135
0.30180952 -0.054874327 -0.18824586
0.29999715 -0.081817374 -0.19648384
0.29820722 -0.10843895 -0.20462002
0.29643774 -0.13474439 -0.21266307
0.29468989 -0.16073994 -0.22060785
0.29296178 -0.18643022 -0.22846283
0.29125458 -0.21182142 -0.23622295
0.2895664 -0.23691794 -0.24389645
0.28789839 -0.26172572 -0.25147822
0.2862488 -0.2862488 -0.25897634
0.28461871 -0.31049311 -0.26638588
0.2830064 -0.33446211 -0.27371463
0.2814129 -0.35816181 -0.28095776
0.2798366 -0.38159531 -0.28812283
0.27827853 -0.40476876 -0.29520494
0.27673769 -0.42768541 -0.30220878
0.27521318 -0.45034873 -0.30913836
0.27370536 -0.47276375 -0.315992
0.27221465 -0.49493569 -0.32276809
0.40340629 0.97489858 0.12075219
0.40044352 0.93436819 0.10840726
0.39752266 0.89442587 0.096237034
0.39464533 0.85506499 0.084248275
0.39180818 0.81626701 0.072426677
0.38901269 0.77802551 0.060779035
0.38625565 0.74032331 0.049291223
0.38353857 0.70315415 0.037970096
0.38085833 0.66650206 0.026802301
0.37821639 0.6303606 0.015794307
0.37560976 0.59471548 0.0049332678
0.37303987 0.55955982 -0.005774498
0.37050387 0.52488047 -0.016341209
0.36800316 0.49067092 -0.026760802
0.36553493 0.45691878 -0.037045047
0.36310065 0.42361745 -0.047188014
0.36069754 0.39075565 -0.057201028
0.35832703 0.35832703 -0.067078099
0.35598645 0.32632098 -0.076830439
0.3536773 0.29473117 -0.08645194
0.35139689 0.26354766 -0.09595371
0.34914669 0.23276451 -0.10532951
0.34692416 0.20237246 -0.11459009
0.34473068 0.1723654 -0.12372956
0.34256384 0.142735 -0.13275804
0.34042498 0.11347496 -0.14166994
0.33831179 0.084577978 -0.15047488
0.33622551 0.056037698 -0.15916765
0.33416486 0.027847059 -0.16775383
0.33212841 3.7252903e-08 -0.17623895
0.33011749 -0.027509756 -0.18461779
0.32812995 -0.054688238 -0.19289924
0.32616702 -0.081541702 -0.20107809
0.32422662 -0.10807554 -0.20916314
0.32230997 -0.13429576 -0.21714914
0.32041505 -0.1602075 -0.22504465
0.31854308 -0.18581676 -0.23284455
0.31669208 -0.21112801 -0.24055706
0.3148632 -0.23614739 -0.2481773
0.31305459 -0.26087886 -0.25571311
0.31126741 -0.28532842 -0.26315978
0.30949974 -0.30949974 -0.27052504
0.30775282 -0.33339882 -0.27780402
0.30602473 -0.35702884 -0.28500432
0.30431667 -0.38039571 -0.29212123
0.30262685 -0.40350246 -0.29916209
0.30095643 -0.42635491 -0.30612218
0.29930365 -0.44895542 -0.3130089
0.29766959 -0.4713102 -0.31981736
0.2960526 -0.49342096 -0.32655486
0.43520862 0.97084987 0.11377183
0.4320254 0.93051624 0.10152882
0.4288871 0.89076555 0.089458466
0.42579541 0.85159087 0.07756725
0.42274663 0.81297427 0.065841228
0.41974247 0.7749092 0.054286808
0.41678077 0.7373814 0.042895615
0.41385925 0.70037723 0.031658977
