# .PCD v0.7 - Point Cloud Data file format
VERSION 0.7
FIELDS x y z
SIZE 4 4 4
TYPE F F F
COUNT 1 1 1
WIDTH 1368
HEIGHT 1
VIEWPOINT 0 0 0 1 0 0 0
POINTS 1368
DATA ascii
-0.6396091 -0.24873692 0.21658455
-0.6396091 -0.28427067 0.21658446
-0.6396091 -0.31980455 0.21658447
-0.6396091 -0.35533839 0.21658447
-0.6396091 -0.39087221 0.21658458
-0.6396091 -0.42640606 0.21658459
-0.6396091 -0.46193984 0.2165845
-0.6396091 -0.49747369 0.2165845
-0.6396091 -0.5330075 0.21658456
-0.6396091 -0.56854141 0.21658458
-0.6396091 -0.60407519 0.21658449
-0.6396091 -0.63960904 0.2165845
-0.6396091 -0.67514277 0.21658444
-0.6396091 -0.71067673 0.21658452
-0.6396091 -0.74621058 0.21658461
-0.6396091 -0.7817443 0.21658456
-0.58956885 0.76297158 0.17391884
-0.58956885 0.72829092 0.17391872
-0.58956885 0.69361049 0.17391878
-0.58956885 0.65892994 0.17391878
-0.58956885 0.6242494 0.17391874
-0.58956885 0.58956891 0.17391881
-0.58956885 0.55488831 0.17391869
-0.58956885 0.52020794 0.17391883
-0.58956885 0.48552728 0.17391874
-0.58956885 0.45084679 0.17391884
-0.58956885 0.41616631 0.17391875
-0.58956885 0.38148576 0.17391875
-0.58956885 0.3468053 0.1739188
-0.58956885 0.31212473 0.17391881
-0.58956885 0.27744418 0.17391877
-0.58956885 0.24276362 0.17391875
-0.58956885 0.20808321 0.17391877
-0.58956695 0.17340204 0.17391315
-0.58956695 0.13872169 0.17391312
-0.58956695 0.10404126 0.173913
-0.58956695 0.0693608 0.17391305
-0.58956695 0.034680516 0.17391312
-0.58956695 -7.4505806e-09 0.17391308
-0.58956695 -0.034680367 0.17391305
-0.58956695 -0.069360822 0.17391309
-0.58956695 -0.10404117 0.17391306
-0.58956695 -0.13872153 0.17391305
-0.58956695 -0.17340198 0.17391309
-0.58956695 -0.20808233 0.17391306
-0.58956695 -0.24276279 0.17391312
-0.58956695 -0.27744332 0.17391308
-0.58956695 -0.31212366 0.17391306
-0.58956695 -0.34680405 0.17391303
-0.58956695 -0.38148439 0.17391299
-0.58956695 -0.41616485 0.17391303
-0.58956695 -0.4508453 0.17391308
-0.58956695 -0.48552567 0.17391302
-0.58956695 -0.52020609 0.17391312
-0.58956695 -0.55488646 0.17391311
-0.58956695 -0.58956695 0.17391311
-0.58956695 -0.62424731 0.17391306
-0.58956695 -0.65892768 0.17391315
-0.58956695 -0.69360816 0.17391305
-0.58956695 -0.72828847 0.17391306
-0.58956695 -0.76296896 0.17391318
-0.54187393 0.77894378 0.13324866
-0.54187393 0.74507666 0.13324869
-0.54187393 0.71120954 0.13324863
-0.54187393 0.67734241 0.13324866
-0.54187393 0.64347529 0.13324869
-0.54187393 0.60960817 0.13324872
-0.54187393 0.57574111 0.13324872
-0.54187393 0.54187399 0.13324875
-0.54187393 0.50800693 0.13324875
-0.54187393 0.47413969 0.1332486
-0.54187393 0.44027266 0.13324872
-0.54187393 0.40640557 0.13324872
-0.54187393 0.37253833 0.13324869
-0.54187393 0.33867121 0.13324857
-0.54187393 0.30480409 0.13324863
-0.54187393 0.27093694 0.13324869
-0.54187393 0.2370699 0.13324867
-0.5418722 0.20320207 0.13324317
-0.5418722 0.1693351 0.13324325
-0.5418722 0.13546807 0.13324323
-0.5418722 0.10160114 0.13324326
-0.5418722 0.067734048 0.13324328
-0.5418722 0.033867043 0.13324322
-0.5418722 1.1920929e-07 0.13324325
-0.5418722 -0.033866972 0.13324326
-0.5418722 -0.067734063 0.13324329
-0.5418722 -0.10160097 0.13324314
-0.5418722 -0.13546799 0.13324326
-0.5418722 -0.16933501 0.13324335
-0.5418722 -0.20320208 0.13324322
-0.5418722 -0.23706901 0.13324325
-0.5418722 -0.2709361 0.13324325
-0.5418722 -0.30480301 0.13324329
-0.5418722 -0.33867002 0.13324323
-0.5418722 -0.37253711 0.13324325
-0.5418722 -0.40640405 0.13324329
-0.5418722 -0.44027102 0.13324322
-0.5418722 -0.47413811 0.13324328
-0.5418722 -0.5080052 0.13324329
-0.5418722 -0.54187208 0.13324322
-0.5418722 -0.57573915 0.13324323
-0.5418722 -0.60960621 0.13324329
-0.5418722 -0.64347315 0.13324326
-0.5418722 -0.67734027 0.13324329
-0.5418722 -0.71120715 0.1332432
-0.5418722 -0.74507421 0.13324323
-0.5418722 -0.77894115 0.13324323
-0.49636498 0.76109302 0.094442606
-0.49636498 0.72800207 0.094442695
-0.49636498 0.694911 0.094442606
-0.49636498 0.66182005 0.094442636
-0.49636498 0.62872893 0.094442576
-0.49636498 0.59563798 0.094442576
-0.49636498 0.56254703 0.094442695
-0.49636498 0.52945602 0.094442576
-0.49636498 0.49636495 0.094442606
-0.49636498 0.46327409 0.094442695
-0.49636498 0.43018305 0.094442591
-0.49636498 0.39709204 0.094442621
-0.49636498 0.36400107 0.094442606
-0.49636498 0.33091003 0.09444268
-0.49636498 0.29781896 0.094442584
-0.49636498 0.26472807 0.094442666
-0.49636498 0.23163706 0.094442688
-0.49636498 0.19854602 0.094442591
-0.49636343 0.16545451 0.094437391
-0.49636343 0.13236362 0.094437465
-0.49636343 0.099272691 0.09443742
-0.49636343 0.066181846 0.094437458
-0.49636343 0.033090923 0.094437413
-0.49636343 -0 0.094437361
-0.49636343 -0.033090848 0.094437405
-0.49636343 -0.066181853 0.094437435
-0.49636343 -0.099272609 0.094437398
-0.49636343 -0.13236363 0.09443742
-0.49636343 -0.16545437 0.094437391
-0.49636343 -0.19854531 0.09443751
-0.49636343 -0.23163624 0.094437465
-0.49636343 -0.26472709 0.09443751
-0.49636343 -0.29781801 0.094437458
-0.49636343 -0.33090892 0.094437413
-0.49636343 -0.36399978 0.09443745
-0.49636343 -0.39709073 0.094437525
-0.49636343 -0.43018153 0.09443745
-0.49636343 -0.46327257 0.094437465
-0.49636343 -0.49636346 0.09443745
-0.49636343 -0.52945435 0.094437465
-0.49636343 -0.56254518 0.09443745
-0.49636343 -0.59563607 0.094437465
-0.49636343 -0.62872696 0.09443745
-0.49636343 -0.66181791 0.09443742
-0.49636343 -0.69490886 0.09443748
-0.49636343 -0.72799963 0.09443745
-0.49636343 -0.76109052 0.09443742
-0.45289513 0.77639174 0.057375401
-0.45289513 0.74404198 0.057375312
-0.45289513 0.71169245 0.057375431
-0.45289513 0.67934281 0.057375342
-0.45289513 0.64699304 0.057375371
-0.45289513 0.61464345 0.057375401
-0.45289513 0.58229381 0.057375312
-0.45289513 0.54994416 0.057375386
-0.45289513 0.51759452 0.057375327
-0.45289513 0.48524487 0.057375371
-0.45289513 0.45289522 0.057375327
-0.45289513 0.42054546 0.057375327
-0.45289513 0.38819587 0.057375357
-0.45289513 0.35584623 0.057375297
-0.45289513 0.32349658 0.057375357
-0.45289513 0.29114693 0.057375424
-0.45289513 0.25879729 0.057375357
-0.45289513 0.22644758 0.057375327
-0.45289376 0.19409734 0.057370409
-0.45289376 0.16174784 0.05737035
-0.45289376 0.12939826 0.057370376
-0.45289376 0.097048678 0.057370402
-0.45289376 0.064699136 0.057370391
-0.45289376 0.032349549 0.057370413
-0.45289376 5.2154064e-08 0.057370361
-0.45289376 -0.032349534 0.057370383
-0.45289376 -0.064699121 0.057370413
-0.45289376 -0.097048707 0.057370435
-0.45289376 -0.1293982 0.05737038
-0.45289376 -0.16174769 0.057370327
-0.45289376 -0.19409728 0.057370357
-0.45289376 -0.22644687 0.05737038
-0.45289376 -0.25879645 0.057370394
-0.45289376 -0.29114595 0.057370357
-0.45289376 -0.32349554 0.05737038
-0.45289376 -0.35584512 0.057370394
-0.45289376 -0.38819456 0.057370394
-0.45289376 -0.42054421 0.05737038
-0.45289376 -0.45289367 0.057370365
-0.45289376 -0.48524326 0.057370335
-0.45289376 -0.51759285 0.057370424
-0.45289376 -0.54994249 0.057370409
-0.45289376 -0.5822919 0.057370394
-0.45289376 -0.61464155 0.057370365
-0.45289376 -0.64699107 0.057370454
-0.45289376 -0.6793406 0.057370394
-0.45289376 -0.71169019 0.057370394
-0.45289376 -0.74403965 0.057370365
-0.45289376 -0.77638924 0.057370394
-0.41133037 0.75937915 0.021932483
-0.41133037 0.72773838 0.021932453
-0.41133037 0.69609755 0.021932453
-0.41133037 0.66445673 0.021932453
-0.41133037 0.63281608 0.021932542
-0.41133037 0.60117519 0.021932572
-0.41133037 0.56953436 0.021932453
-0.41133037 0.53789365 0.021932542
-0.41133037 0.50625277 0.021932557
-0.41133037 0.47461203 0.021932542
-0.41133037 0.4429712 0.021932572
-0.41133037 0.41133034 0.021932468
-0.41133037 0.37968957 0.021932453
-0.41133037 0.34804881 0.021932572
-0.41133037 0.31640807 0.021932498
-0.41133037 0.28476727 0.021932527
-0.41133037 0.25312647 0.02193252
-0.41133037 0.22148564 0.021932542
-0.41133037 0.18984479 0.021932438
-0.41132915 0.15820354 0.021927781
-0.41132915 0.12656288 0.021927819
-0.41132915 0.09492214 0.021927763
-0.41132915 0.063281476 0.021927802
-0.41132915 0.031640701 0.021927787
-0.41132915 8.5681677e-08 0.021927783
-0.41132915 -0.031640697 0.021927768
-0.41132915 -0.063281402 0.021927845
-0.41132915 -0.094922021 0.021927837
-0.41132915 -0.1265628 0.02192783
-0.41132915 -0.15820348 0.021927737
-0.41132915 -0.18984419 0.021927811
-0.41132915 -0.2214849 0.021927714
-0.41132915 -0.25312558 0.021927796
-0.41132915 -0.2847662 0.021927789
-0.41132915 -0.31640697 0.021927819
-0.41132915 -0.34804773 0.021927804
-0.41132915 -0.37968838 0.021927759
-0.41132915 -0.41132912 0.021927789
-0.41132915 -0.44296974 0.021927789
-0.41132915 -0.47461051 0.021927804
-0.41132915 -0.5062511 0.021927774
-0.41132915 -0.53789192 0.021927774
-0.41132915 -0.56953263 0.021927774
-0.41132915 -0.60117328 0.021927774
-0.41132915 -0.63281405 0.021927804
-0.41132915 -0.6644547 0.021927774
-0.41132915 -0.69609541 0.021927804
-0.41132915 -0.72773618 0.021927834
-0.41132915 -0.75937688 0.021927834
-0.37154809 0.77405852 -0.011990398
-0.37154809 0.74309617 -0.011990398
-0.37154809 0.71213377 -0.011990398
-0.37154809 0.68117142 -0.011990339
-0.37154809 0.65020919 -0.011990398
-0.37154809 0.61924678 -0.011990368
-0.37154809 0.58828443 -0.011990368
-0.37154809 0.55732214 -0.011990368
-0.37154809 0.5263598 -0.011990339
-0.37154809 0.49539751 -0.011990398
-0.37154809 0.46443513 -0.011990353
-0.37154809 0.43347278 -0.011990353
-0.37154809 0.4025104 -0.011990339
-0.37154809 0.37154812 -0.011990339
-0.37154809 0.34058577 -0.011990353
-0.37154809 0.30962345 -0.011990353
-0.37154809 0.27866107 -0.011990339
-0.37154809 0.24769875 -0.011990331
-0.37154809 0.21673644 -0.011990346
-0.37154809 0.18577406 -0.011990309
-0.37154809 0.15481177 -0.011990361
-0.37154809 0.12384936 -0.01199029
-0.37154809 0.092887081 -0.011990331
-0.37154701 0.06192454 -0.01199488
-0.37154701 0.030962262 -0.011994926
-0.37154701 1.5832484e-08 -0.011994843
-0.37154701 -0.030962219 -0.011994928
-0.37154701 -0.061924469 -0.011994846
-0.37154701 -0.092886716 -0.011994764
-0.37154701 -0.12384895 -0.01199485
-0.37154701 -0.15481119 -0.011994936
-0.37154701 -0.18577351 -0.011994943
-0.37154701 -0.21673566 -0.011994936
-0.37154701 -0.24769792 -0.011994861
-0.37154701 -0.27866024 -0.011994869
-0.37154701 -0.30962244 -0.011994898
-0.37154701 -0.34058475 -0.011994898
-0.37154701 -0.37154698 -0.011994839
-0.37154701 -0.40250915 -0.011994824
-0.37154701 -0.43347138 -0.011994913
-0.37154701 -0.46443367 -0.011994869
-0.37154701 -0.49539593 -0.011994958
-0.37154701 -0.52635813 -0.011994869
-0.37154701 -0.55732048 -0.011994839
-0.37154701 -0.5882827 -0.011994898
-0.37154701 -0.61924493 -0.011994839
-0.37154701 -0.65020728 -0.011994869
-0.37154701 -0.68116945 -0.011994898
-0.37154701 -0.71213162 -0.011994928
-0.37154701 -0.74309391 -0.011994839
-0.37154701 -0.7740562 -0.011994839
-0.33343604 0.78812158 -0.044488937
-0.33343604 0.75780928 -0.044488907
-0.33343604 0.72749686 -0.044488847
-0.33343604 0.69718444 -0.044488996
-0.33343604 0.66687214 -0.044489026
-0.33343604 0.63655972 -0.044488966
-0.33343604 0.60624731 -0.044489026
-0.33343604 0.57593507 -0.044488937
-0.33343604 0.54562271 -0.044488907
-0.33343604 0.51531029 -0.044488996
-0.33343604 0.48499793 -0.044488966
-0.33343604 0.45468557 -0.044488952
-0.33343604 0.42437321 -0.044488952
-0.33343604 0.39406079 -0.044489026
-0.33343604 0.36374849 -0.044488907
-0.33343604 0.33343601 -0.044488952
-0.33343604 0.30312371 -0.044488974
-0.33343604 0.27281135 -0.044488959
-0.33343604 0.24249896 -0.044488899
-0.33343604 0.21218657 -0.044489019
-0.33343604 0.18187423 -0.044489004
-0.33343604 0.1515619 -0.044488855
-0.33343604 0.12124947 -0.044488933
-0.33343604 0.090937167 -0.044488959
-0.33343604 0.060624816 -0.04448894
-0.33343509 0.030312277 -0.044493333
-0.33343509 4.8428774e-08 -0.044493269
-0.33343509 -0.030312216 -0.044493329
-0.33343509 -0.06062457 -0.044493318
-0.33343509 -0.090936758 -0.044493288
-0.33343509 -0.12124911 -0.044493273
-0.33343509 -0.15156138 -0.044493333
-0.33343509 -0.18187365 -0.044493236
-0.33343509 -0.21218592 -0.044493288
-0.33343509 -0.24249826 -0.044493288
-0.33343509 -0.27281052 -0.044493347
-0.33343509 -0.30312282 -0.044493243
-0.33343509 -0.333435 -0.044493258
-0.33343509 -0.3637473 -0.044493318
-0.33343509 -0.39405966 -0.044493303
-0.33343509 -0.42437184 -0.044493318
-0.33343509 -0.4546842 -0.044493288
-0.33343509 -0.48499644 -0.044493333
-0.33343509 -0.5153088 -0.044493303
-0.33343509 -0.54562098 -0.044493288
-0.33343509 -0.57593334 -0.044493258
-0.33343509 -0.60624552 -0.044493288
-0.33343509 -0.63655794 -0.044493288
-0.33343509 -0.66687018 -0.044493347
-0.33343509 -0.69718242 -0.044493228
-0.33343509 -0.72749472 -0.044493288
-0.33343509 -0.75780702 -0.044493258
-0.29689124 0.77191728 -0.075651079
-0.29689124 0.74222809 -0.075651199
-0.29689124 0.71253902 -0.075651139
-0.29689124 0.68284988 -0.075651139
-0.29689124 0.65316075 -0.075651199
-0.29689124 0.62347162 -0.075651199
-0.29689124 0.59378248 -0.075651228
-0.29689124 0.56409341 -0.075651154
-0.29689124 0.53440428 -0.075651199
-0.29689124 0.50471514 -0.075651199
-0.29689124 0.47502595 -0.075651184
-0.29689124 0.44533682 -0.075651214
-0.29689124 0.41564769 -0.075651228
-0.29689124 0.38595864 -0.075651184
-0.29689124 0.35626954 -0.075651199
-0.29689124 0.32658044 -0.075651102
-0.29689124 0.2968913 -0.075651139
-0.29689124 0.26720217 -0.075651161
-0.29689124 0.23751301 -0.075651154
-0.29689124 0.2078239 -0.075651228
-0.29689124 0.17813474 -0.075651214
-0.29689124 0.1484457 -0.075651154
-0.29689124 0.11875652 -0.075651146
-0.29689124 0.089067437 -0.075651214
-0.29689041 0.059378151 -0.075655356
-0.29689041 0.029689066 -0.075655423
-0.29689041 1.8626451e-08 -0.075655364
-0.29689041 -0.029689064 -0.075655431
-0.29689041 -0.059378117 -0.075655378
-0.29689041 -0.089067124 -0.075655349
-0.29689041 -0.1187562 -0.075655416
-0.29689041 -0.1484452 -0.075655401
-0.29689041 -0.1781342 -0.075655371
-0.29689041 -0.20782325 -0.075655401
-0.29689041 -0.23751226 -0.075655371
-0.29689041 -0.26720124 -0.075655364
-0.29689041 -0.29689044 -0.075655341
-0.29689041 -0.32657945 -0.075655326
-0.29689041 -0.35626844 -0.075655311
-0.29689041 -0.38595742 -0.075655445
-0.29689041 -0.41564652 -0.075655356
-0.29689041 -0.44533554 -0.075655326
-0.29689041 -0.47502464 -0.075655401
-0.29689041 -0.50471365 -0.075655386
-0.29689041 -0.53440267 -0.075655401
-0.29689041 -0.56409174 -0.075655282
-0.29689041 -0.59378076 -0.075655341
-0.29689041 -0.62346983 -0.075655341
-0.29689041 -0.65315878 -0.075655431
-0.29689041 -0.68284786 -0.075655341
-0.29689041 -0.71253693 -0.075655371
-0.29689041 -0.74222594 -0.075655371
-0.29689041 -0.77191496 -0.075655371
-0.26181892 0.78545678 -0.10555792
-0.26181892 0.75636578 -0.1055578
-0.26181892 0.72727478 -0.1055578
-0.26181892 0.69818383 -0.1055578
-0.26181892 0.66909283 -0.10555783
-0.26181892 0.64000183 -0.1055578
-0.26181892 0.61091083 -0.10555778
-0.26181892 0.58181989 -0.1055578
-0.26181892 0.55272883 -0.10555777
-0.26181892 0.52363789 -0.10555781
-0.26181892 0.49454689 -0.10555778
-0.26181892 0.46545589 -0.1055578
-0.26181892 0.43636489 -0.10555777
-0.26181892 0.40727395 -0.10555778
-0.26181892 0.37818292 -0.10555778
-0.26181892 0.34909195 -0.10555778
-0.26181892 0.32000095 -0.10555777
-0.26181892 0.29090995 -0.10555779
-0.26181892 0.26181895 -0.10555777
-0.26181892 0.23272794 -0.10555775
-0.26181892 0.20363697 -0.10555777
-0.26181892 0.17454596 -0.10555775
-0.26181892 0.14545493 -0.10555786
-0.26181892 0.11636399 -0.10555775
-0.26181892 0.087273024 -0.10555776
-0.26181892 0.058182009 -0.10555774
-0.2618182 0.029091001 -0.10556182
-0.2618182 -1.1175871e-08 -0.10556181
-0.2618182 -0.029090852 -0.10556176
-0.2618182 -0.058181778 -0.10556183
-0.2618182 -0.087272711 -0.10556172
-0.2618182 -0.11636363 -0.10556178
-0.2618182 -0.14545456 -0.10556182
-0.2618182 -0.17454539 -0.10556179
-0.2618182 -0.20363632 -0.10556187
-0.2618182 -0.23272716 -0.10556182
-0.2618182 -0.26181817 -0.10556181
-0.2618182 -0.29090911 -0.10556186
-0.2618182 -0.31999993 -0.10556183
-0.2618182 -0.34909093 -0.10556181
-0.2618182 -0.37818182 -0.10556178
-0.2618182 -0.4072727 -0.10556182
-0.2618182 -0.4363637 -0.10556176
-0.2618182 -0.46545458 -0.10556178
-0.2618182 -0.49454546 -0.10556181
-0.2618182 -0.52363634 -0.10556179
-0.2618182 -0.55272722 -0.10556181
-0.2618182 -0.5818181 -0.10556184
-0.2618182 -0.6109091 -0.10556176
-0.2618182 -0.63999999 -0.10556176
-0.2618182 -0.66909087 -0.10556185
-0.2618182 -0.69818187 -0.10556179
-0.2618182 -0.72727275 -0.10556176
-0.2618182 -0.75636363 -0.10556179
-0.2618182 -0.78545457 -0.10556173
-0.22813188 0.76994503 -0.13428316
-0.22813188 0.74142867 -0.13428313
-0.22813188 0.71291214 -0.13428316
-0.22813188 0.68439567 -0.13428319
-0.22813188 0.65587914 -0.1342832
-0.22813188 0.62736261 -0.13428321
-0.22813188 0.5988462 -0.13428314
-0.22813188 0.57032967 -0.13428316
-0.22813188 0.54181314 -0.13428319
-0.22813188 0.51329672 -0.13428311
-0.22813188 0.48478025 -0.13428319
-0.22813188 0.45626384 -0.13428311
-0.22813188 0.42774731 -0.13428313
-0.22813188 0.39923078 -0.13428314
-0.22813188 0.37071431 -0.1342832
-0.22813188 0.34219781 -0.13428323
-0.22813188 0.31368136 -0.13428316
-0.22813188 0.28516486 -0.13428319
-0.22813188 0.25664836 -0.13428321
-0.22813188 0.22813191 -0.13428313
-0.22813188 0.1996154 -0.13428316
-0.22813188 0.17109901 -0.13428313
-0.22813188 0.14258249 -0.13428314
-0.22813188 0.11406599 -0.13428316
-0.22813188 0.085549466 -0.13428319
-0.22813126 0.057032809 -0.13428701
-0.22813126 0.028516427 -0.13428698
-0.22813126 8.1956387e-08 -0.134287
-0.22813126 -0.028516438 -0.13428701
-0.22813126 -0.057032779 -0.13428703
-0.22813126 -0.085549168 -0.134287
-0.22813126 -0.11406556 -0.13428695
-0.22813126 -0.14258198 -0.13428706
-0.22813126 -0.17109843 -0.13428698
-0.22813126 -0.19961488 -0.13428697
-0.22813126 -0.22813123 -0.13428697
-0.22813126 -0.25664762 -0.13428703
-0.22813126 -0.28516409 -0.134287
-0.22813126 -0.31368044 -0.134287
-0.22813126 -0.34219679 -0.13428703
-0.22813126 -0.37071329 -0.13428703
-0.22813126 -0.39922965 -0.13428704
-0.22813126 -0.427746 -0.13428704
-0.22813126 -0.45626247 -0.13428701
-0.22813126 -0.48477888 -0.13428697
-0.22813126 -0.51329529 -0.13428701
-0.22813126 -0.54181176 -0.13428698
-0.22813126 -0.57032812 -0.13428701
-0.22813126 -0.59884447 -0.13428706
-0.22813126 -0.62736094 -0.13428697
-0.22813126 -0.65587735 -0.13428703
-0.22813126 -0.68439364 -0.13428706
-0.22813126 -0.71291012 -0.13428703
-0.22813126 -0.74142647 -0.13428703
-0.22813126 -0.76994294 -0.134287
-0.1957496 0.78299838 -0.16189596
-0.1957496 0.75503415 -0.1618959
-0.1957496 0.72706991 -0.16189599
-0.1957496 0.69910568 -0.16189596
-0.1957496 0.67114151 -0.16189592
-0.1957496 0.64317721 -0.16189599
-0.1957496 0.61521298 -0.16189593
-0.1957496 0.58724886 -0.16189595
-0.1957496 0.55928457 -0.16189598
-0.1957496 0.53132033 -0.16189596
-0.1957496 0.5033561 -0.16189592
-0.1957496 0.47539192 -0.16189589
-0.1957496 0.44742763 -0.16189593
-0.1957496 0.41946343 -0.1618959
-0.1957496 0.39149925 -0.1618959
-0.1957496 0.36353499 -0.16189596
-0.1957496 0.33557078 -0.16189592
-0.1957496 0.30760658 -0.16189587
-0.1957496 0.27964228 -0.16189593
-0.1957496 0.25167805 -0.1618959
-0.1957496 0.2237139 -0.1618959
-0.1957496 0.19574961 -0.16189596
-0.1957496 0.16778539 -0.16189592
-0.1957496 0.1398212 -0.16189589
-0.1957496 0.11185694 -0.16189598
-0.1957496 0.083892748 -0.16189593
-0.1957496 0.055928536 -0.1618959
-0.19574907 0.027964182 -0.16189969
-0.19574907 1.4901161e-08 -0.16189969
-0.19574907 -0.027964115 -0.16189955
-0.19574907 -0.055928275 -0.16189955
-0.19574907 -0.083892353 -0.16189964
-0.19574907 -0.11185656 -0.16189969
-0.19574907 -0.13982072 -0.16189969
-0.19574907 -0.16778484 -0.16189964
-0.19574907 -0.195749 -0.16189964
-0.19574907 -0.22371316 -0.16189964
-0.19574907 -0.25167733 -0.16189966
-0.19574907 -0.27964154 -0.16189969
-0.19574907 -0.30760562 -0.1618996
-0.19574907 -0.3355698 -0.16189963
-0.19574907 -0.36353397 -0.16189964
-0.19574907 -0.39149806 -0.16189975
-0.19574907 -0.41946226 -0.1618996
-0.19574907 -0.44742644 -0.16189963
-0.19574907 -0.47539061 -0.16189961
-0.19574907 -0.50335479 -0.16189961
-0.19574907 -0.5313189 -0.16189963
-0.19574907 -0.55928296 -0.16189964
-0.19574907 -0.58724713 -0.1618997
-0.19574907 -0.61521125 -0.16189966
-0.19574907 -0.64317548 -0.16189966
-0.19574907 -0.67113972 -0.16189957
-0.19574907 -0.69910383 -0.1618996
-0.19574907 -0.72706795 -0.16189966
-0.19574907 -0.75503206 -0.16189963
-0.19574907 -0.7829963 -0.16189966
-0.16459773 0.76812279 -0.18845952
-0.16459773 0.74068987 -0.18845955
-0.16459773 0.7132569 -0.18845958
-0.16459773 0.68582392 -0.18845955
-0.16459773 0.65839094 -0.18845956
-0.16459773 0.63095796 -0.18845955
-0.16459773 0.60352504 -0.18845955
-0.16459773 0.57609218 -0.1884595
-0.16459773 0.54865921 -0.18845947
-0.16459773 0.52122629 -0.18845949
-0.16459773 0.49379322 -0.18845959
-0.16459773 0.46636024 -0.18845956
-0.16459773 0.43892729 -0.1884596
-0.16459773 0.41149431 -0.18845958
-0.16459773 0.38406146 -0.1884595
-0.16459773 0.35662848 -0.18845949
-0.16459773 0.3291955 -0.1884595
-0.16459773 0.30176255 -0.18845952
-0.16459773 0.27432957 -0.18845949
-0.16459773 0.24689664 -0.18845952
-0.16459773 0.21946371 -0.18845952
-0.16459773 0.19203076 -0.18845955
-0.16459773 0.16459776 -0.18845952
-0.16459773 0.13716477 -0.1884595
-0.16459773 0.10973184 -0.18845953
-0.16459773 0.082298905 -0.18845953
-0.1645973 0.054865755 -0.18846315
-0.1645973 0.027432889 -0.18846309
-0.1645973 1.1920929e-07 -0.18846309
-0.1645973 -0.027432822 -0.18846312
-0.1645973 -0.054865811 -0.18846309
-0.1645973 -0.082298592 -0.18846309
-0.1645973 -0.10973153 -0.18846311
-0.1645973 -0.13716434 -0.18846308
-0.1645973 -0.16459724 -0.18846306
-0.1645973 -0.1920301 -0.18846315
-0.1645973 -0.21946302 -0.18846312
-0.1645973 -0.24689594 -0.18846314
-0.1645973 -0.2743288 -0.18846306
-0.1645973 -0.30176172 -0.18846305
-0.1645973 -0.32919458 -0.18846314
-0.1645973 -0.35662746 -0.18846312
-0.1645973 -0.38406032 -0.18846303
-0.1645973 -0.41149318 -0.18846312
-0.1645973 -0.43892616 -0.18846303
-0.1645973 -0.46635899 -0.18846308
-0.1645973 -0.49379188 -0.18846306
-0.1645973 -0.52122474 -0.18846315
-0.1645973 -0.5486576 -0.18846306
-0.1645973 -0.57609057 -0.18846308
-0.1645973 -0.60352349 -0.18846306
-0.1645973 -0.63095635 -0.18846303
-0.1645973 -0.65838921 -0.18846309
-0.1645973 -0.68582207 -0.18846306
-0.1645973 -0.71325493 -0.18846315
-0.1645973 -0.74068785 -0.18846315
-0.1645973 -0.76812077 -0.18846309
-0.13460748 0.78072339 -0.21403259
-0.13460748 0.75380182 -0.21403268
-0.13460748 0.72688031 -0.21403264
-0.13460748 0.69995898 -0.21403256
-0.13460748 0.67303735 -0.21403264
-0.13460748 0.6461159 -0.21403259
-0.13460748 0.61919439 -0.21403259
-0.13460748 0.59227294 -0.21403258
-0.13460748 0.56535137 -0.21403265
-0.13460748 0.53842986 -0.21403264
-0.13460748 0.51150846 -0.21403253
-0.13460748 0.48458689 -0.21403259
-0.13460748 0.45766547 -0.21403261
-0.13460748 0.43074396 -0.21403259
-0.13460748 0.40382248 -0.21403261
-0.13460748 0.37690091 -0.21403265
-0.13460748 0.3499794 -0.21403262
-0.13460748 0.32305804 -0.21403255
-0.13460748 0.29613647 -0.21403264
-0.13460748 0.26921499 -0.21403262
-0.13460748 0.24229348 -0.21403259
-0.13460748 0.21537195 -0.21403266
-0.13460748 0.18845044 -0.21403265
-0.13460748 0.16152899 -0.21403265
-0.13460748 0.13460755 -0.21403253
-0.13460748 0.10768598 -0.21403259
-0.13460748 0.080764562 -0.21403265
-0.13460748 0.053843059 -0.21403261
-0.13460712 0.026921436 -0.21403609
-0.13460712 7.4505806e-09 -0.21403597
-0.13460712 -0.026921406 -0.21403602
-0.13460712 -0.053842828 -0.21403597
-0.13460712 -0.080764249 -0.21403602
-0.13460712 -0.1076857 -0.21403603
-0.13460712 -0.13460712 -0.21403609
-0.13460712 -0.16152845 -0.21403603
-0.13460712 -0.18844996 -0.214036
-0.13460712 -0.21537137 -0.21403606
-0.13460712 -0.24229288 -0.21403603
-0.13460712 -0.26921427 -0.21403606
-0.13460712 -0.2961356 -0.21403605
-0.13460712 -0.32305712 -0.21403599
-0.13460712 -0.34997851 -0.214036
-0.13460712 -0.3768999 -0.21403605
-0.13460712 -0.40382129 -0.21403605
-0.13460712 -0.4307428 -0.21403603
-0.13460712 -0.45766419 -0.21403606
-0.13460712 -0.48458567 -0.21403599
-0.13460712 -0.51150709 -0.21403603
-0.13460712 -0.53842843 -0.21403603
-0.13460712 -0.56534994 -0.21403602
-0.13460712 -0.59227139 -0.21403606
-0.13460712 -0.61919272 -0.21403606
-0.13460712 -0.64611417 -0.21403609
-0.13460712 -0.67303562 -0.21403603
-0.13460712 -0.69995701 -0.21403602
-0.13460712 -0.72687852 -0.21403599
-0.13460712 -0.75379992 -0.21403599
-0.13460712 -0.78072131 -0.21403605
-0.10571502 0.76643389 -0.23866956
-0.10571502 0.74000514 -0.2386696
-0.10571502 0.71357638 -0.23866962
-0.10571502 0.68714762 -0.23866959
-0.10571502 0.66071892 -0.23866951
-0.10571502 0.63429022 -0.23866953
-0.10571502 0.60786146 -0.23866957
-0.10571502 0.58143258 -0.2386695
-0.10571502 0.55500388 -0.23866954
-0.10571502 0.52857518 -0.23866954
-0.10571502 0.50214642 -0.2386696
-0.10571502 0.47571763 -0.23866957
-0.10571502 0.44928885 -0.23866956
-0.10571502 0.42286012 -0.2386696
-0.10571502 0.39643139 -0.23866962
-0.10571502 0.3700026 -0.2386696
-0.10571502 0.34357387 -0.23866951
-0.10571502 0.31714511 -0.2386695
-0.10571502 0.29071635 -0.23866953
-0.10571502 0.26428765 -0.23866956
-0.10571502 0.23785883 -0.23866954
-0.10571502 0.2114301 -0.23866957
-0.10571502 0.18500134 -0.23866954
-0.10571502 0.15857255 -0.23866954
-0.10571502 0.13214383 -0.23866957
-0.10571502 0.10571503 -0.23866956
-0.10571502 0.0792863 -0.23866959
-0.10571502 0.052857555 -0.2386696
-0.10571502 0.026428849 -0.23866951
-0.10571502 7.4505806e-08 -0.2386695
-0.10571502 -0.026428752 -0.23866953
-0.10571476 -0.052857324 -0.23867285
-0.10571476 -0.079286061 -0.23867288
-0.10571476 -0.10571471 -0.2386729
-0.10571476 -0.13214341 -0.23867288
-0.10571476 -0.15857211 -0.23867287
-0.10571476 -0.18500076 -0.23867288
-0.10571476 -0.21142946 -0.23867287
-0.10571476 -0.23785821 -0.2386729
-0.10571476 -0.26428688 -0.23867282
-0.10571476 -0.29071558 -0.23867285
-0.10571476 -0.31714427 -0.23867285
-0.10571476 -0.34357291 -0.23867291
-0.10571476 -0.37000161 -0.2386729
-0.10571476 -0.39643028 -0.23867288
-0.10571476 -0.42285901 -0.2386729
-0.10571476 -0.44928774 -0.23867288
-0.10571476 -0.47571641 -0.23867287
-0.10571476 -0.50214505 -0.23867293
-0.10571476 -0.52857375 -0.23867291
-0.10571476 -0.55500245 -0.23867287
-0.10571476 -0.58143109 -0.23867285
-0.10571476 -0.60785985 -0.23867284
-0.10571476 -0.63428843 -0.2386729
-0.10571476 -0.66071713 -0.23867288
-0.10571476 -0.68714583 -0.23867293
-0.10571476 -0.71357453 -0.23867288
-0.10571476 -0.74000323 -0.23867288
-0.10571476 -0.76643193 -0.23867288
-0.07786119 0.7786119 -0.26242092
-0.07786119 0.75265813 -0.26242095
-0.07786119 0.72670442 -0.26242089
-0.07786119 0.70075065 -0.26242089
-0.07786119 0.67479694 -0.26242092
-0.07786119 0.64884323 -0.26242095
-0.07786119 0.62288958 -0.26242089
-0.07786119 0.59693575 -0.26242089
-0.07786119 0.5709821 -0.26242092
-0.07786119 0.54502833 -0.26242095
-0.07786119 0.51907468 -0.26242086
-0.07786119 0.49312085 -0.26242089
-0.07786119 0.46716714 -0.26242092
-0.07786119 0.44121337 -0.26242092
-0.07786119 0.41525966 -0.26242095
-0.07786119 0.38930598 -0.26242083
-0.07786119 0.36335224 -0.26242092
-0.07786119 0.33739853 -0.26242095
-0.07786119 0.31144473 -0.26242089
-0.07786119 0.28549108 -0.26242083
-0.07786119 0.25953734 -0.26242089
-0.07786119 0.23358358 -0.26242089
-0.07786119 0.20762986 -0.26242095
-0.07786119 0.18167616 -0.26242086
-0.07786119 0.15572241 -0.26242083
-0.07786119 0.12976867 -0.26242089
-0.07786119 0.10381495 -0.26242092
-0.07786119 0.077861227 -0.2624208
-0.07786119 0.051907539 -0.26242089
-0.07786119 0.025953777 -0.26242089
-0.07786119 -0 -0.26242089
-0.07786119 -0.025953665 -0.26242089
-0.07786119 -0.05190745 -0.26242089
-0.077860996 -0.077860989 -0.26242399
-0.077860996 -0.10381466 -0.26242408
-0.077860996 -0.12976834 -0.26242408
-0.077860996 -0.15572195 -0.26242405
-0.077860996 -0.18167566 -0.26242411
-0.077860996 -0.20762926 -0.26242408
-0.077860996 -0.23358294 -0.26242408
-0.077860996 -0.25953659 -0.26242402
-0.077860996 -0.2854903 -0.26242408
-0.077860996 -0.31144387 -0.26242411
-0.077860996 -0.33739755 -0.26242411
-0.077860996 -0.36335135 -0.26242402
-0.077860996 -0.389305 -0.26242402
-0.077860996 -0.41525859 -0.26242411
-0.077860996 -0.4412123 -0.26242408
-0.077860996 -0.46716595 -0.26242408
-0.077860996 -0.4931196 -0.26242402
-0.077860996 -0.51907331 -0.26242402
-0.077860996 -0.5450269 -0.26242411
-0.077860996 -0.57098055 -0.26242408
-0.077860996 -0.59693426 -0.26242408
-0.077860996 -0.62288797 -0.26242408
-0.077860996 -0.6488415 -0.26242417
-0.077860996 -0.67479527 -0.26242405
-0.077860996 -0.70074892 -0.26242399
-0.077860996 -0.72670263 -0.26242405
-0.077860996 -0.75265622 -0.26242408
-0.077860996 -0.77860993 -0.26242408
-0.050990958 0.76486427 -0.28533348
-0.050990958 0.73936886 -0.28533345
-0.050990958 0.71387339 -0.28533351
-0.050990958 0.68837792 -0.28533345
-0.050990958 0.66288239 -0.28533345
-0.050990958 0.63738692 -0.28533354
-0.050990958 0.61189151 -0.28533351
-0.050990958 0.58639604 -0.28533345
-0.050990958 0.56090057 -0.28533348
-0.050990958 0.53540504 -0.28533351
-0.050990958 0.50990957 -0.28533345
-0.050990958 0.48441416 -0.28533342
-0.050990958 0.45891863 -0.28533345
-0.050990958 0.43342313 -0.28533348
-0.050990958 0.4079276 -0.28533351
-0.050990958 0.38243216 -0.28533348
-0.050990958 0.35693675 -0.28533342
-0.050990958 0.33144125 -0.28533351
-0.050990958 0.30594569 -0.28533351
-0.050990958 0.28045028 -0.28533345
-0.050990958 0.25495476 -0.28533351
-0.050990958 0.22945935 -0.28533345
-0.050990958 0.20396383 -0.28533351
-0.050990958 0.17846839 -0.28533345
-0.050990958 0.15297285 -0.28533345
-0.050990958 0.12747747 -0.28533345
-0.050990958 0.10198192 -0.28533345
-0.050990958 0.076486513 -0.28533345
-0.050990958 0.050990991 -0.28533345
-0.050990958 0.025495544 -0.28533351
-0.050990958 -2.9802322e-08 -0.28533348
-0.050990958 -0.02549544 -0.28533345
-0.050990835 -0.050990783 -0.28533655
-0.050990835 -0.076486185 -0.28533652
-0.050990835 -0.10198164 -0.28533655
-0.050990835 -0.12747702 -0.28533655
-0.050990835 -0.15297242 -0.28533652
-0.050990835 -0.1784679 -0.28533658
-0.050990835 -0.20396329 -0.28533655
-0.050990835 -0.22945876 -0.28533649
-0.050990835 -0.25495407 -0.28533664
-0.050990835 -0.28044951 -0.28533655
-0.050990835 -0.30594501 -0.28533655
-0.050990835 -0.33144036 -0.28533655
-0.050990835 -0.35693583 -0.28533649
-0.050990835 -0.38243115 -0.28533661
-0.050990835 -0.40792662 -0.28533658
-0.050990835 -0.43342206 -0.28533655
-0.050990835 -0.45891744 -0.28533655
-0.050990835 -0.48441291 -0.28533649
-0.050990835 -0.5099082 -0.28533661
-0.050990835 -0.53540367 -0.28533661
-0.050990835 -0.56089914 -0.28533655
-0.050990835 -0.58639455 -0.28533655
-0.050990835 -0.61188996 -0.28533649
-0.050990835 -0.63738537 -0.28533655
-0.050990835 -0.66288078 -0.28533658
-0.050990835 -0.68837619 -0.28533649
-0.050990835 -0.7138716 -0.28533652
-0.050990835 -0.73936707 -0.28533655
-0.050990835 -0.76486242 -0.28533655
-0.025053129 0.77664697 -0.30745095
-0.025053129 0.75159377 -0.30745101
-0.025053129 0.72654068 -0.30745095
-0.025053129 0.70148766 -0.30745095
-0.025053129 0.67643446 -0.30745095
-0.025053129 0.65138131 -0.30745101
-0.025053129 0.62632823 -0.30745101
-0.025053129 0.60127515 -0.30745092
-0.025053129 0.57622194 -0.30745098
-0.025053129 0.55116886 -0.30745095
-0.025053129 0.52611566 -0.30745101
-0.025053129 0.50106257 -0.30745107
-0.025053129 0.47600943 -0.30745101
-0.025053129 0.45095637 -0.30745101
-0.025053129 0.42590314 -0.30745098
-0.025053129 0.40085009 -0.30745098
-0.025053129 0.37579691 -0.30745101
-0.025053129 0.3507438 -0.30745095
-0.025053129 0.32569066 -0.30745101
-0.025053129 0.30063754 -0.30745098
-0.025053129 0.27558449 -0.30745095
-0.025053129 0.25053132 -0.30745101
-0.025053129 0.22547816 -0.30745107
-0.025053129 0.20042506 -0.30745101
-0.025053129 0.17537189 -0.30745104
-0.025053129 0.15031877 -0.30745101
-0.025053129 0.12526566 -0.30745095
-0.025053129 0.10021252 -0.30745101
-0.025053129 0.075159386 -0.30745101
-0.025053129 0.050106272 -0.30745101
-0.025053129 0.025053129 -0.30745101
-0.025053129 7.4505806e-08 -0.30745101
-0.025053129 -0.025053114 -0.30745095
-0.025053129 -0.05010622 -0.30745095
-0.025053067 -0.075159192 -0.30745396
-0.025053067 -0.10021225 -0.30745393
-0.025053067 -0.12526533 -0.30745396
-0.025053067 -0.1503184 -0.30745405
-0.025053067 -0.17537141 -0.30745396
-0.025053067 -0.20042448 -0.30745393
-0.025053067 -0.22547758 -0.30745396
-0.025053067 -0.25053069 -0.30745393
-0.025053067 -0.27558371 -0.30745402
-0.025053067 -0.30063671 -0.30745396
-0.025053067 -0.32568982 -0.30745399
-0.025053067 -0.35074288 -0.30745399
-0.025053067 -0.37579608 -0.30745393
-0.025053067 -0.40084904 -0.30745399
-0.025053067 -0.4259021 -0.30745399
-0.025053067 -0.45095515 -0.30745396
-0.025053067 -0.47600827 -0.30745399
-0.025053067 -0.50106132 -0.30745399
-0.025053067 -0.5261144 -0.30745393
-0.025053067 -0.55116743 -0.30745393
-0.025053067 -0.57622051 -0.30745399
-0.025053067 -0.60127366 -0.30745393
-0.025053067 -0.62632668 -0.30745393
-0.025053067 -0.65137964 -0.30745399
-0.025053067 -0.67643273 -0.30745399
-0.025053067 -0.70148587 -0.30745396
-0.025053067 -0.72653902 -0.30745399
-0.025053067 -0.75159204 -0.30745396
-0.025053067 -0.77664506 -0.30745399
0 0.78802955 -0.32881129
0 0.76340359 -0.32881123
0 0.73877597 -0.32881409
0 0.71415013 -0.32881412
0 0.68952429 -0.32881409
0 0.6648984 -0.32881409
0 0.6402725 -0.32881406
0 0.61564666 -0.32881409
0 0.5910207 -0.32881415
0 0.56639493 -0.32881403
0 0.54176903 -0.32881415
0 0.51714325 -0.32881403
0 0.49251732 -0.32881418
0 0.46789151 -0.32881406
0 0.44326559 -0.32881409
0 0.41863972 -0.32881412
0 0.39401382 -0.32881409
0 0.36938798 -0.32881412
0 0.34476215 -0.32881412
0 0.32013625 -0.32881409
0 0.29551038 -0.32881421
0 0.27088454 -0.32881409
0 0.24625866 -0.32881421
0 0.22163284 -0.32881409
0 0.19700691 -0.32881418
0 0.1723811 -0.32881406
0 0.14775518 -0.32881415
0 0.12312929 -0.32881412
0 0.0985035 -0.32881409
0 0.073877618 -0.32881415
0 0.04925181 -0.32881409
0 0.024625883 -0.32881412
0 7.4505806e-08 -0.32881409
0 -0.024625808 -0.32881415
0 -0.049251571 -0.32881698
0 -0.073877372 -0.32881692
0 -0.098503172 -0.32881698
0 -0.12312905 -0.32881695
0 -0.14775482 -0.32881704
0 -0.17238066 -0.32881695
0 -0.19700642 -0.32881698
0 -0.22163223 -0.32881692
0 -0.24625801 -0.32881698
0 -0.27088374 -0.32881701
0 -0.29550964 -0.32881698
0 -0.32013541 -0.32881704
0 -0.34476128 -0.32881695
0 -0.36938706 -0.32881701
0 -0.39401281 -0.32881701
0 -0.41863859 -0.32881701
0 -0.44326448 -0.32881698
0 -0.46789026 -0.32881704
0 -0.49251613 -0.32881695
0 -0.51714194 -0.32881701
0 -0.54176766 -0.32881701
0 -0.56639349 -0.32881707
0 -0.59101933 -0.32881695
0 -0.61564511 -0.32881701
0 -0.64027095 -0.32881695
0 -0.66489673 -0.32881695
0 -0.6895225 -0.32881701
0 -0.71414828 -0.32881704
0 -0.73877418 -0.32881698
0 -0.76339996 -0.32881701
0.024212988 0.77481556 -0.34945804
0.024212988 0.7506026 -0.34945798
0.024212988 0.72638965 -0.34945798
0.024212932 0.70217496 -0.34946078
0.024212932 0.67796206 -0.34946078
0.024212932 0.65374917 -0.34946078
0.024212932 0.62953627 -0.34946075
0.024212932 0.60532331 -0.34946078
0.024212932 0.5811103 -0.34946084
0.024212932 0.55689752 -0.34946072
0.024212932 0.5326845 -0.34946078
0.024212932 0.50847161 -0.34946081
0.024212932 0.48425859 -0.34946087
0.024212932 0.46004578 -0.34946075
0.024212932 0.43583277 -0.34946087
0.024212932 0.41161981 -0.34946081
0.024212932 0.38740695 -0.34946081
0.024212932 0.36319405 -0.34946078
0.024212932 0.33898109 -0.34946075
0.024212932 0.31476811 -0.34946084
0.024212932 0.29055527 -0.34946072
0.024212932 0.26634225 -0.34946078
0.024212932 0.24212936 -0.34946081
0.024212932 0.21791637 -0.34946087
0.024212932 0.19370352 -0.34946078
0.024212932 0.16949049 -0.34946081
0.024212932 0.14527759 -0.34946078
0.024212932 0.12106474 -0.34946078
0.024212932 0.096851751 -0.34946078
0.024212932 0.07263881 -0.34946078
0.024212932 0.048425853 -0.34946084
0.024212932 0.024212971 -0.34946078
0.024212932 1.4901161e-08 -0.34946081
0.024212932 -0.024212882 -0.34946078
0.024212932 -0.048425838 -0.34946075
0.024212876 -0.072638586 -0.34946355
0.024212876 -0.096851461 -0.34946358
0.024212876 -0.12106438 -0.34946358
0.024212876 -0.14527716 -0.34946358
0.024212876 -0.1694901 -0.34946361
0.024212876 -0.193703 -0.34946355
0.024212876 -0.21791591 -0.34946352
0.024212876 -0.24212873 -0.34946361
0.024212876 -0.26634157 -0.34946352
0.024212876 -0.29055446 -0.34946358
0.024212876 -0.31476736 -0.34946355
0.024212876 -0.33898017 -0.34946358
0.024212876 -0.36319306 -0.34946358
0.024212876 -0.38740599 -0.34946355
0.024212876 -0.41161883 -0.34946349
0.024212876 -0.4358317 -0.34946361
0.024212876 -0.46004462 -0.34946358
0.024212876 -0.48425752 -0.34946352
0.024212876 -0.50847042 -0.34946352
0.024212876 -0.53268325 -0.34946361
0.024212876 -0.55689609 -0.34946352
0.024212876 -0.58110893 -0.34946361
0.024212876 -0.60532182 -0.34946358
0.024212876 -0.6295346 -0.34946361
0.024212876 -0.65374756 -0.34946358
0.024212876 -0.67796046 -0.34946358
0.024212876 -0.70217335 -0.34946358
0.024212876 -0.72638619 -0.34946361
0.024212876 -0.75059915 -0.34946361
0.024212876 -0.77481198 -0.34946352
0.047627341 0.78585124 -0.36942381
0.047627341 0.76203752 -0.36942375
0.047627341 0.73822385 -0.36942375
0.047627233 0.71440858 -0.36942646
0.047627233 0.69059485 -0.36942652
0.047627233 0.66678137 -0.36942646
0.047627233 0.64296776 -0.36942646
0.047627233 0.61915404 -0.36942655
0.047627233 0.59534049 -0.36942649
0.047627233 0.57152689 -0.36942649
0.047627233 0.54771322 -0.36942646
0.047627233 0.52389961 -0.36942646
0.047627233 0.50008601 -0.36942649
0.047627233 0.4762724 -0.36942637
0.047627233 0.45245871 -0.36942646
0.047627233 0.4286451 -0.36942649
0.047627233 0.40483159 -0.3694264
0.047627233 0.38101792 -0.3694264
0.047627233 0.35720429 -0.36942655
0.047627233 0.33339071 -0.36942646
0.047627233 0.30957711 -0.36942643
0.047627233 0.28576338 -0.36942655
0.047627233 0.26194984 -0.36942643
0.047627233 0.23813626 -0.36942646
0.047627233 0.21432261 -0.36942646
0.047627233 0.19050899 -0.36942646
0.047627233 0.16669536 -0.36942646
0.047627233 0.14288172 -0.36942646
0.047627233 0.11906819 -0.36942646
0.047627233 0.095254466 -0.36942646
0.047627233 0.071440831 -0.36942643
0.047627233 0.047627285 -0.36942643
0.047627233 0.023813665 -0.36942643
0.047627233 2.9802322e-08 -0.36942655
0.047627233 -0.023813605 -0.36942643
0.047627129 -0.047627106 -0.36942914
0.047627129 -0.071440667 -0.36942911
0.047627129 -0.095254257 -0.36942911
0.047627129 -0.11906775 -0.36942917
0.047627129 -0.14288135 -0.36942917
0.047627129 -0.16669491 -0.36942914
0.047627129 -0.19050847 -0.36942917
0.047627129 -0.21432203 -0.36942908
0.047627129 -0.23813559 -0.36942914
0.047627129 -0.26194918 -0.36942917
0.047627129 -0.28576279 -0.36942911
0.047627129 -0.30957624 -0.3694292
0.047627129 -0.33338985 -0.36942914
0.047627129 -0.35720345 -0.36942914
0.047627129 -0.38101691 -0.36942914
0.047627129 -0.40483057 -0.36942914
0.047627129 -0.42864415 -0.36942908
0.047627129 -0.45245767 -0.36942917
0.047627129 -0.4762713 -0.36942911
0.047627129 -0.50008476 -0.36942914
0.047627129 -0.5238983 -0.36942923
0.047627129 -0.54771191 -0.36942917
0.047627129 -0.57152551 -0.36942914
0.047627129 -0.595339 -0.36942917
0.047627129 -0.61915261 -0.36942911
0.047627129 -0.64296627 -0.36942911
0.047627129 -0.66677976 -0.36942911
0.047627129 -0.69059324 -0.36942917
0.047627129 -0.71440685 -0.3694292
0.047627129 -0.73822045 -0.36942911
0.047627129 -0.76203394 -0.36942917
0.047627129 -0.7858476 -0.36942911
0.070900232 0.77990258 -0.37843674
0.070900232 0.75626922 -0.37843677
0.070900232 0.73263574 -0.37843683
0.070900232 0.70900238 -0.37843674
0.070900232 0.6853689 -0.37843686
0.070900232 0.66173553 -0.37843674
0.070900232 0.63810205 -0.37843683
0.070900232 0.61446869 -0.3784368
0.070900232 0.59083521 -0.37843686
0.070900232 0.56720185 -0.37843686
0.070900232 0.54356843 -0.37843686
0.070900232 0.51993501 -0.37843683
0.070900232 0.49630168 -0.37843683
0.070900232 0.47266829 -0.37843677
0.070900232 0.4490349 -0.37843674
0.070900232 0.42540148 -0.37843683
0.070900232 0.40176803 -0.37843674
0.070900232 0.37813461 -0.3784368
0.070900232 0.35450122 -0.37843677
0.070900232 0.3308678 -0.37843686
0.070900232 0.30723435 -0.37843677
0.070900232 0.28360093 -0.37843686
0.070900232 0.25996754 -0.3784368
0.070900232 0.23633412 -0.37843689
0.070900232 0.21270069 -0.3784368
0.070900232 0.18906733 -0.3784368
0.070900232 0.16543396 -0.37843674
0.070900232 0.14180052 -0.37843683
0.070900232 0.11816707 -0.37843674
0.070900232 0.094533667 -0.37843683
0.070900232 0.070900276 -0.3784368
0.070900232 0.047266856 -0.37843686
0.070900075 0.023633406 -0.37843946
0.070900075 5.9604645e-08 -0.37843943
0.070900075 -0.023633301 -0.37843943
0.070900075 -0.047266632 -0.37843943
0.070900075 -0.070900053 -0.37843943
0.070900075 -0.094533369 -0.37843946
0.070900075 -0.11816674 -0.37843949
0.070900075 -0.14180014 -0.37843946
0.070900075 -0.1654335 -0.37843946
0.070900075 -0.1890668 -0.37843946
0.070900075 -0.21270016 -0.37843943
0.070900075 -0.23633352 -0.37843943
0.070900075 -0.25996682 -0.37843946
0.070900075 -0.2836003 -0.37843943
0.070900075 -0.3072336 -0.37843946
0.070900075 -0.33086696 -0.37843943
0.070900075 -0.35450026 -0.37843943
0.070900075 -0.37813368 -0.37843946
0.070900075 -0.40176702 -0.37843946
0.070900075 -0.42540044 -0.37843937
0.070900075 -0.44903371 -0.37843946
0.070900075 -0.4726671 -0.37843949
0.070900075 -0.49630046 -0.37843949
0.070900075 -0.51993388 -0.37843937
0.070900075 -0.54356712 -0.37843946
0.070900075 -0.56720048 -0.37843946
0.070900075 -0.5908339 -0.37843943
0.070900075 -0.6144672 -0.37843946
0.070900075 -0.63810056 -0.37843949
0.070900075 -0.66173398 -0.37843937
0.070900075 -0.68536735 -0.37843943
0.070900075 -0.70900065 -0.37843952
0.070900075 -0.73263407 -0.37843943
0.070900075 -0.75626743 -0.37843937
0.070900075 -0.77990079 -0.37843949
0.096992388 0.77593911 -0.3477025
0.096992388 0.75169098 -0.3477025
0.096992388 0.72744292 -0.3477025
0.096992388 0.7031948 -0.3477025
0.096992165 0.67894518 -0.3477053
0.096992165 0.65469718 -0.34770527
0.096992165 0.63044912 -0.3477053
0.096992165 0.60620105 -0.34770536
0.096992165 0.58195305 -0.34770525
0.096992165 0.55770499 -0.34770533
0.096992165 0.53345698 -0.34770525
0.096992165 0.50920892 -0.3477053
0.096992165 0.48496076 -0.3477053
0.096992165 0.46071282 -0.34770527
0.096992165 0.43646476 -0.3477053
0.096992165 0.41221669 -0.34770536
0.096992165 0.38796863 -0.34770527
0.096992165 0.36372057 -0.3477053
0.096992165 0.33947262 -0.3477053
0.096992165 0.31522456 -0.34770533
0.096992165 0.29097652 -0.34770525
0.096992165 0.26672843 -0.3477053
0.096992165 0.24248047 -0.34770525
0.096992165 0.21823242 -0.3477053
0.096992165 0.19398442 -0.34770522
0.096992165 0.16973627 -0.34770536
0.096992165 0.14548826 -0.3477053
0.096992165 0.12124022 -0.3477053
0.096992165 0.09699221 -0.3477053
0.096992165 0.072744176 -0.3477053
0.096992165 0.048496142 -0.3477053
0.096992165 0.024248064 -0.34770525
0.096992165 2.9802322e-08 -0.34770525
0.096992165 -0.024247959 -0.34770527
0.096992165 -0.048496068 -0.34770527
0.096992165 -0.072744101 -0.34770527
0.096992165 -0.09699209 -0.3477053
0.096992165 -0.12124017 -0.34770527
0.096992165 -0.1454882 -0.34770525
0.096992165 -0.1697363 -0.34770525
0.096991941 -0.19398385 -0.34770805
0.096991941 -0.21823183 -0.34770808
0.096991941 -0.24247986 -0.34770808
0.096991941 -0.26672781 -0.34770808
0.096991941 -0.29097575 -0.34770808
0.096991941 -0.31522378 -0.34770805
0.096991941 -0.33947179 -0.34770802
0.096991941 -0.36371973 -0.34770808
0.096991941 -0.38796774 -0.34770808
0.096991941 -0.41221574 -0.34770802
0.096991941 -0.43646377 -0.34770802
0.096991941 -0.46071169 -0.34770805
0.096991941 -0.48495963 -0.34770811
0.096991941 -0.50920767 -0.34770811
0.096991941 -0.53345561 -0.34770805
0.096991941 -0.55770355 -0.34770817
0.096991941 -0.58195156 -0.34770808
0.096991941 -0.60619956 -0.34770805
0.096991941 -0.63044763 -0.34770805
0.096991941 -0.65469551 -0.34770811
0.096991941 -0.67894351 -0.34770805
0.096991941 -0.70319158 -0.34770805
0.096991941 -0.72743946 -0.34770811
0.096991941 -0.75168753 -0.34770814
0.096991941 -0.77593553 -0.34770805
0.12447776 0.77176225 -0.31532967
0.12447776 0.74686652 -0.31532973
0.12447776 0.72197115 -0.3153297
0.12447776 0.69707549 -0.31532967
0.12447776 0.67218 -0.31532967
0.12447776 0.64728445 -0.31532967
0.12447776 0.62238884 -0.31532967
0.12447776 0.59749329 -0.31532967
0.12447776 0.57259774 -0.31532967
0.12447776 0.54770219 -0.31532967
0.12447747 0.52280539 -0.31533271
0.12447747 0.49790993 -0.31533262
0.12447747 0.47301435 -0.31533262
0.12447776 0.44812 -0.31532973
0.12447747 0.42322344 -0.31533265
0.12447747 0.39832795 -0.31533253
0.12447747 0.37343246 -0.31533259
0.12447747 0.34853694 -0.31533262
0.12447747 0.32364145 -0.31533268
0.12447747 0.29874596 -0.31533259
0.12447747 0.27385044 -0.31533265
0.12447747 0.24895495 -0.31533268
0.12447747 0.22405946 -0.31533259
0.12447747 0.19916397 -0.31533265
0.12447747 0.17426854 -0.31533262
0.12447747 0.14937298 -0.31533259
0.12447747 0.12447756 -0.31533256
0.12447747 0.099582039 -0.31533262
0.12447747 0.074686535 -0.31533265
0.12447747 0.049790993 -0.31533265
0.12447747 0.024895519 -0.31533265
0.12447747 4.4703484e-08 -0.31533265
0.12447747 -0.024895459 -0.31533262
0.12447747 -0.049790978 -0.31533259
0.12447747 -0.074686438 -0.31533259
0.12447747 -0.099581875 -0.31533262
0.12447747 -0.12447739 -0.31533259
0.12447747 -0.14937289 -0.31533256
0.12447747 -0.17426845 -0.31533265
0.12447747 -0.19916396 -0.31533259
0.12447747 -0.22405939 -0.31533265
0.12447747 -0.24895489 -0.31533271
0.12447747 -0.27385044 -0.31533262
0.12447747 -0.2987459 -0.31533262
0.12447747 -0.32364136 -0.31533262
0.12447747 -0.34853691 -0.31533265
0.12447718 -0.3734315 -0.31533551
0.12447718 -0.39832687 -0.3153356
0.12447718 -0.42322236 -0.3153356
0.12447718 -0.44811779 -0.31533554
0.12447718 -0.47301325 -0.31533554
0.12447718 -0.49790865 -0.31533563
0.12447718 -0.52280414 -0.31533551
0.12447718 -0.54769957 -0.31533557
0.12447718 -0.57259494 -0.31533554
0.12447718 -0.59749043 -0.31533551
0.12447718 -0.62238592 -0.31533554
0.12447718 -0.64728123 -0.31533557
0.12447718 -0.67217666 -0.31533551
0.12447718 -0.69707215 -0.31533551
0.12447718 -0.72196752 -0.31533563
0.12447718 -0.74686313 -0.31533551
0.12447718 -0.77175844 -0.31533554
0.1534712 0.76735604 -0.28118068
0.1534712 0.74177748 -0.28118074
0.1534712 0.71619904 -0.28118068
0.1534712 0.69062042 -0.28118056
0.1534712 0.66504192 -0.28118062
0.1534712 0.63946342 -0.28118068
0.1534712 0.61388481 -0.28118068
0.1534712 0.58830631 -0.28118062
0.1534712 0.56272775 -0.28118062
0.1534712 0.53714919 -0.28118068
0.1534712 0.51157069 -0.28118068
0.1534712 0.48599213 -0.28118074
0.1534712 0.46041358 -0.28118062
0.1534712 0.43483505 -0.28118068
0.1534712 0.40925658 -0.28118059
0.1534712 0.38367802 -0.28118065
0.1534712 0.35809946 -0.28118068
0.1534712 0.33252102 -0.28118062
0.15347083 0.30694172 -0.28118375
0.15347083 0.28136319 -0.28118381
0.15347083 0.25578472 -0.28118378
0.15347083 0.23020627 -0.28118375
0.15347083 0.20462778 -0.28118384
0.15347083 0.17904934 -0.28118378
0.15347083 0.15347087 -0.28118375
0.15347083 0.12789235 -0.28118381
0.15347083 0.1023139 -0.28118378
0.15347083 0.07673537 -0.28118381
0.15347083 0.051156931 -0.28118378
0.15347083 0.025578558 -0.28118372
0.15347083 1.4901161e-08 -0.28118378
0.15347083 -0.025578432 -0.28118372
0.15347083 -0.051156878 -0.28118372
0.15347083 -0.076735362 -0.28118378
0.15347083 -0.10231381 -0.28118375
0.15347083 -0.12789226 -0.28118372
0.15347083 -0.15347084 -0.28118372
0.15347083 -0.17904919 -0.28118378
0.15347083 -0.20462777 -0.28118378
0.15347083 -0.23020618 -0.28118378
0.15347083 -0.25578472 -0.28118366
