# .PCD v0.7 - Point Cloud Data file format
VERSION 0.7
FIELDS x y z
SIZE 4 4 4
TYPE F F F
COUNT 1 1 1
WIDTH 1356
HEIGHT 1
VIEWPOINT 0 0 0 1 0 0 0
POINTS 1356
DATA ascii
-0.8725276 0.31411004 0.18494792
-0.8725276 0.27920884 0.18494791
-0.8725276 0.24430777 0.1849478
-0.8725276 0.20940667 0.18494788
-0.8725276 0.1745055 0.18494785
-0.8725276 0.13960446 0.18494789
-0.8725276 0.10470331 0.184948
-0.8725276 0.069802269 0.18494786
-0.8725276 0.03490115 0.1849478
-0.8725276 7.4505806e-09 0.18494792
-0.8725276 -0.034901038 0.18494795
-0.8725276 -0.069802172 0.18494791
-0.8725276 -0.10470329 0.18494785
-0.8725276 -0.13960434 0.18494788
-0.8725276 -0.17450556 0.18494791
-0.8725276 -0.20940652 0.18494786
-0.8725276 -0.24430767 0.18494797
-0.8725276 -0.27920881 0.18494791
-0.8725276 -0.31410992 0.18494785
-0.8725276 -0.34901097 0.18494788
-0.8725276 -0.38391212 0.18494782
-0.8725276 -0.41881323 0.18494794
-0.8725276 -0.45371437 0.18494788
-0.8725276 -0.48861551 0.18494783
-0.8725276 -0.52351654 0.18494786
-0.8725276 -0.55841762 0.18494789
-0.8725276 -0.5933187 0.18494783
-0.8725276 -0.6282199 0.18494792
-0.8725276 -0.66312087 0.18494786
-0.8725276 -0.69802195 0.18494785
-0.8725276 -0.73292321 0.18494788
-0.8725276 -0.76782423 0.18494788
-0.8298409 0.76068747 0.16872776
-0.8298409 0.72611082 0.16872784
-0.8298409 0.6915341 0.16872776
-0.8298409 0.65695727 0.16872767
-0.8298409 0.62238067 0.16872773
-0.8298409 0.58780402 0.16872783
-0.8298409 0.55322737 0.16872792
-0.8298409 0.51865059 0.16872776
-0.8298409 0.48407385 0.16872776
-0.8298409 0.44949719 0.16872786
-0.8298409 0.41492045 0.16872773
-0.8298409 0.38034377 0.16872779
-0.8298409 0.34576708 0.16872776
-0.8298409 0.31119034 0.16872776
-0.8298409 0.27661365 0.16872773
-0.8298409 0.24203698 0.1687278
-0.8298409 0.20746028 0.16872776
-0.8298409 0.17288351 0.16872779
-0.8298409 0.13830689 0.16872784
-0.8298409 0.10373008 0.16872776
-0.8298409 0.069153428 0.16872783
-0.8298409 0.034576781 0.16872776
-0.8298409 3.7252903e-08 0.16872776
-0.8298409 -0.034576617 0.16872783
-0.8298409 -0.069153354 0.16872782
-0.8298409 -0.10372999 0.16872774
-0.8298409 -0.13830683 0.16872783
-0.8298409 -0.17288357 0.16872782
-0.8298409 -0.20746014 0.16872783
-0.8298409 -0.24203686 0.16872782
-0.8298409 -0.27661359 0.16872782
-0.8298409 -0.31119025 0.16872773
-0.8298409 -0.34576699 0.16872773
-0.8298409 -0.38034365 0.16872782
-0.8298409 -0.41492039 0.16872782
-0.8298409 -0.44949713 0.1687278
-0.8298409 -0.48407382 0.16872783
-0.8298409 -0.51865059 0.16872779
-0.82984352 -0.55322903 0.16873349
-0.82984352 -0.58780587 0.1687334
-0.82984352 -0.62238264 0.16873348
-0.82984352 -0.6569593 0.16873339
-0.82984352 -0.69153631 0.16873346
-0.82984352 -0.72611302 0.16873345
-0.82984352 -0.76068997 0.16873345
-0.78794032 0.78794038 0.15280652
-0.78794032 0.75368208 0.15280649
-0.78794032 0.71942377 0.15280637
-0.78794032 0.68516552 0.15280643
-0.78794032 0.65090728 0.15280643
-0.78794032 0.61664903 0.15280649
-0.78794032 0.58239067 0.15280637
-0.78794032 0.54813248 0.15280643
-0.78794032 0.51387417 0.15280645
-0.78794032 0.47961593 0.15280651
-0.78794032 0.44535762 0.15280637
-0.78794032 0.41109928 0.15280639
-0.78794032 0.3768411 0.15280645
-0.78794032 0.34258279 0.15280643
-0.78794032 0.30832452 0.15280643
-0.78794032 0.27406624 0.15280637
-0.78794032 0.23980802 0.15280646
-0.78794032 0.20554969 0.15280648
-0.78794032 0.17129143 0.15280643
-0.78794032 0.13703324 0.15280648
-0.78794032 0.10277482 0.15280642
-0.78794032 0.068516642 0.15280646
-0.78794032 0.034258295 0.15280649
-0.78794032 4.4703484e-08 0.15280643
-0.78794032 -0.034258209 0.15280639
-0.78794032 -0.068516478 0.15280651
-0.78794032 -0.1027749 0.15280643
-0.78794032 -0.13703299 0.15280642
-0.78794032 -0.17129132 0.15280643
-0.78794032 -0.20554969 0.15280646
-0.78794032 -0.23980793 0.15280642
-0.78794032 -0.27406612 0.15280646
-0.78794032 -0.30832452 0.1528064
-0.78794032 -0.3425827 0.15280643
-0.78794289 -0.37684214 0.15281194
-0.78794289 -0.41110057 0.15281206
-0.78794289 -0.44535899 0.15281202
-0.78794289 -0.47961739 0.15281199
-0.78794289 -0.51387572 0.15281203
-0.78794289 -0.54813409 0.152812
-0.78794289 -0.58239257 0.15281202
-0.78794289 -0.61665088 0.15281197
-0.78794289 -0.65090925 0.15281194
-0.78794289 -0.68516767 0.15281203
-0.78794289 -0.71942616 0.152812
-0.78794289 -0.7536844 0.15281191
-0.74680454 0.78075027 0.13717565
-0.74680454 0.74680459 0.1371758
-0.74680454 0.71285886 0.13717565
-0.74680454 0.67891324 0.13717571
-0.74680454 0.6449675 0.13717559
-0.74680454 0.61102188 0.13717563
-0.74680454 0.57707632 0.13717569
-0.74680454 0.54313064 0.13717565
-0.74680454 0.50918496 0.13717575
-0.74680454 0.47523922 0.13717562
-0.74680454 0.44129363 0.13717568
-0.74680454 0.40734792 0.13717563
-0.74680454 0.37340224 0.13717563
-0.74680454 0.33945662 0.13717569
-0.74680454 0.30551091 0.13717568
-0.74680454 0.27156526 0.13717562
-0.74680454 0.23761965 0.13717568
-0.74680454 0.20367396 0.13717565
-0.74680454 0.16972838 0.13717568
-0.74680454 0.13578273 0.13717563
-0.74680454 0.10183704 0.13717559
-0.74680454 0.067891352 0.13717557
-0.74680454 0.033945732 0.13717565
-0.74680454 2.9802322e-08 0.13717562
-0.74680454 -0.033945579 0.13717569
-0.74680454 -0.06789127 0.13717566
-0.74680454 -0.10183696 0.13717565
-0.74680692 -0.13578297 0.13718109
-0.74680692 -0.16972877 0.13718115
-0.74680692 -0.20367463 0.13718112
-0.74680692 -0.23762032 0.1371811
-0.74680692 -0.27156618 0.13718106
-0.74680692 -0.3055118 0.13718112
-0.74680692 -0.33945766 0.13718107
-0.74680692 -0.37340343 0.13718113
-0.74680692 -0.40734914 0.13718113
-0.74680692 -0.44129494 0.13718118
-0.74680692 -0.47524083 0.13718115
-0.74680692 -0.50918645 0.13718115
-0.74680692 -0.54313231 0.13718113
-0.74680692 -0.57707816 0.13718112
-0.74680692 -0.61102378 0.1371811
-0.74680692 -0.64496964 0.13718113
-0.74680692 -0.67891532 0.13718116
-0.74680692 -0.71286118 0.1371811
-0.74680692 -0.74680686 0.13718113
-0.74680692 -0.78075266 0.13718107
-0.70641267 0.7736901 0.12182763
-0.70641267 0.74005127 0.12182745
-0.70641267 0.70641261 0.12182754
-0.70641267 0.67277396 0.12182757
-0.70641267 0.63913536 0.1218276
-0.70641267 0.60549664 0.12182769
-0.70641267 0.57185787 0.12182753
-0.70641267 0.53821921 0.12182757
-0.70641267 0.50458056 0.12182759
-0.70641267 0.4709419 0.12182766
-0.70641267 0.43730313 0.12182763
-0.70641267 0.40366441 0.12182754
-0.70641267 0.37002569 0.12182766
-0.70641267 0.33638698 0.12182759
-0.70641267 0.30274826 0.12182757
-0.70641267 0.26910961 0.12182757
-0.70641267 0.23547086 0.12182755
-0.70641267 0.20183223 0.12182757
-0.70641488 0.16819401 0.1218329
-0.70641488 0.13455522 0.12183291
-0.70641488 0.10091642 0.12183292
-0.70641267 0.067277424 0.12182759
-0.70641488 0.033638824 0.12183294
-0.70641488 2.6077032e-08 0.12183295
-0.70641488 -0.033638768 0.12183295
-0.70641488 -0.067277566 0.12183297
-0.70641488 -0.10091636 0.12183297
-0.70641488 -0.13455525 0.12183289
-0.70641488 -0.16819404 0.12183291
-0.70641488 -0.20183283 0.12183292
-0.70641488 -0.23547164 0.12183293
-0.70641488 -0.26911044 0.12183294
-0.70641488 -0.30274922 0.12183294
-0.70641488 -0.33638805 0.12183295
-0.70641488 -0.37002683 0.12183297
-0.70641488 -0.40366554 0.12183289
-0.70641488 -0.43730432 0.12183291
-0.70641488 -0.47094321 0.12183283
-0.70641488 -0.50458205 0.12183294
-0.70641488 -0.53822088 0.12183295
-0.70641488 -0.57185966 0.12183295
-0.70641488 -0.60549843 0.12183297
-0.70641488 -0.63913733 0.12183289
-0.70641488 -0.6727761 0.12183294
-0.70641488 -0.70641488 0.12183294
-0.70641488 -0.74005365 0.12183297
-0.70641488 -0.77369249 0.12183291
-0.66674477 0.76675647 0.10675457
-0.66674477 0.7334193 0.10675457
-0.66674477 0.70008206 0.10675466
-0.66674477 0.66674483 0.1067546
-0.66674477 0.63340753 0.10675457
-0.66674477 0.60007024 0.10675454
-0.66674477 0.56673306 0.10675456
-0.66674477 0.53339589 0.1067546
-0.66674477 0.50005865 0.10675466
-0.66674477 0.46672136 0.10675462
-0.66674477 0.43338412 0.10675456
-0.66674685 0.40004814 0.10675985
-0.66674685 0.36671084 0.10675982
-0.66674477 0.33337241 0.10675459
-0.66674477 0.30003512 0.10675457
-0.66674685 0.26669884 0.10675982
-0.66674685 0.23336142 0.10675988
-0.66674685 0.20002404 0.10675978
-0.66674685 0.16668674 0.10675976
-0.66674685 0.13334934 0.10675981
-0.66674685 0.10001204 0.10675979
-0.66674685 0.066674739 0.10675978
-0.66674685 0.033337336 0.10675983
-0.66674685 3.3527613e-08 0.10675982
-0.66674685 -0.033337276 0.1067598
-0.66674685 -0.066674672 0.10675985
-0.66674685 -0.10001197 0.10675984
-0.66674685 -0.13334928 0.10675982
-0.66674685 -0.16668668 0.10675988
-0.66674685 -0.20002398 0.10675986
-0.66674685 -0.23336129 0.10675983
-0.66674685 -0.26669875 0.10675981
-0.66674685 -0.30003607 0.10675979
-0.66674685 -0.33337337 0.10675976
-0.66674685 -0.36671078 0.10675983
-0.66674685 -0.40004808 0.10675982
-0.66674685 -0.43338543 0.10675991
-0.66674685 -0.46672273 0.10675988
-0.66674685 -0.50006008 0.10675986
-0.66674685 -0.5333975 0.10675985
-0.66674685 -0.56673485 0.10675983
-0.66674685 -0.60007215 0.1067598
-0.66674685 -0.6334095 0.10675985
-0.66674685 -0.66674685 0.10675985
-0.66674685 -0.70008421 0.10675991
-0.66674685 -0.73342144 0.10675979
-0.66674685 -0.7667588 0.10675988
-0.62778157 0.75994605 0.091949284
-0.62778157 0.72690505 0.091949433
-0.62778157 0.69386387 0.091949433
-0.62778157 0.66082269 0.091949344
-0.62778157 0.62778151 0.091949314
-0.62778157 0.59474039 0.091949344
-0.62778354 0.561701 0.091954395
-0.62778354 0.52865976 0.09195447
-0.62778354 0.49561858 0.09195447
-0.62778354 0.46257734 0.091954544
-0.62778354 0.4295361 0.091954455
-0.62778354 0.39649487 0.091954529
-0.62778354 0.36345369 0.091954559
-0.62778354 0.33041239 0.091954485
-0.62778354 0.29737118 0.091954537
-0.62778354 0.26433 0.091954559
-0.62778354 0.23128867 0.091954537
-0.62778354 0.19824749 0.091954559
-0.62778354 0.16520618 0.091954522
-0.62778354 0.132165 0.091954544
-0.62778354 0.099123687 0.091954522
-0.62778354 0.066082381 0.091954485
-0.62778354 0.033041239 0.09195447
-0.62778354 1.1175871e-08 0.091954529
-0.62778354 -0.033041209 0.091954425
-0.62778354 -0.06608244 0.091954485
-0.62778354 -0.099123679 0.091954544
-0.62778354 -0.1321649 0.09195444
-0.62778354 -0.16520613 0.091954499
-0.62778354 -0.19824734 0.091954567
-0.62778354 -0.23128866 0.091954529
-0.62778354 -0.26432979 0.091954514
-0.62778354 -0.29737103 0.091954581
-0.62778354 -0.33041236 0.091954537
-0.62778354 -0.36345357 0.091954604
-0.62778354 -0.39649475 0.091954544
-0.62778354 -0.42953604 0.091954514
-0.62778354 -0.46257728 0.091954574
-0.62778354 -0.49561858 0.091954604
-0.62778354 -0.52865976 0.091954514
-0.62778354 -0.56170094 0.09195447
-0.62778354 -0.59474224 0.091954425
-0.62778354 -0.62778348 0.091954499
-0.62778354 -0.66082472 0.091954559
-0.62778354 -0.69386601 0.091954529
-0.62778354 -0.72690713 0.091954499
-0.62778354 -0.75994849 0.091954589
-0.58950621 0.78600836 0.077409983
-0.58950621 0.75325805 0.077409983
-0.58950621 0.72050762 0.077409953
-0.58950621 0.68775731 0.077409953
-0.58950621 0.65500689 0.077409893
-0.58950621 0.62225664 0.077409893
-0.58950621 0.58950627 0.077409804
-0.58950621 0.5567559 0.077409863
-0.58950621 0.52400541 0.077409834
-0.58950621 0.49125516 0.077409849
-0.58950621 0.45850486 0.077409863
-0.58950621 0.42575455 0.077409893
-0.58950621 0.39300412 0.077409849
-0.58950621 0.36025381 0.077409863
-0.58950621 0.32750347 0.077409923
-0.58950621 0.29475313 0.077409811
-0.58950621 0.26200286 0.077409953
-0.58950621 0.22925249 0.077409871
-0.58950621 0.19650212 0.077409923
-0.58950621 0.16375171 0.077409886
-0.58950621 0.13100144 0.077409863
-0.58950621 0.098251015 0.077409834
-0.58950621 0.065500751 0.077409811
-0.58950621 0.032750361 0.077409901
-0.58950621 5.9604645e-08 0.077409923
-0.58950621 -0.032750323 0.077409841
-0.58950621 -0.065500721 0.077409938
-0.58950621 -0.098250933 0.077409871
-0.58950621 -0.1310014 0.077409878
-0.58950621 -0.16375171 0.077409893
-0.58950621 -0.196502 0.077409908
-0.58950621 -0.22925231 0.077409931
-0.58950621 -0.26200271 0.077409841
-0.58950621 -0.29475307 0.077409931
-0.58950621 -0.32750338 0.077409789
-0.58950621 -0.36025378 0.077409878
-0.58950621 -0.39300406 0.077409893
-0.58950621 -0.4257544 0.077409863
-0.58950621 -0.45850474 0.077409878
-0.58950621 -0.49125504 0.077409863
-0.58950621 -0.52400547 0.077409908
-0.58950621 -0.55675584 0.077409863
-0.58950621 -0.58950621 0.077409849
-0.58950621 -0.62225646 0.077409893
-0.58950621 -0.65500677 0.077409863
-0.58950621 -0.68775713 0.077409834
-0.58950621 -0.72050756 0.077409893
-0.58950621 -0.75325787 0.077409863
-0.55189699 0.77914864 0.063119054
-0.55189699 0.74668419 0.063119173
-0.55189699 0.71421969 0.063119113
-0.55189699 0.68175507 0.063119054
-0.55189699 0.64929056 0.063119084
-0.55189699 0.61682606 0.063119143
-0.55189699 0.58436155 0.063119054
-0.55189699 0.55189693 0.063119099
-0.55189699 0.51943243 0.063119084
-0.55189699 0.48696804 0.063119173
-0.55189699 0.45450342 0.063119099
-0.55189699 0.42203891 0.063119084
-0.55189699 0.38957438 0.063119084
-0.55189699 0.3571099 0.063119069
-0.55189699 0.32464534 0.063119069
-0.55189699 0.29218078 0.063119136
-0.55189699 0.25971624 0.063119136
-0.55189699 0.22725174 0.063119106
-0.55189699 0.19478714 0.063119039
-0.55189699 0.16232273 0.063119099
-0.55189699 0.1298582 0.063119113
-0.55189699 0.097393535 0.063119076
-0.55189699 0.064929076 0.063119181
-0.55189699 0.032464635 0.063119113
-0.55189699 2.0489097e-08 0.063119031
-0.55189699 -0.032464437 0.063119136
-0.55189699 -0.064929046 0.063119061
-0.55189699 -0.09739358 0.063119069
-0.55189699 -0.12985803 0.063119173
-0.55189699 -0.16232266 0.063119099
-0.55189699 -0.19478719 0.063119106
-0.55189699 -0.22725156 0.063119128
-0.55189699 -0.25971615 0.063119061
-0.55189699 -0.29218078 0.063119143
-0.55189699 -0.32464525 0.063119091
-0.55189699 -0.35710979 0.063119099
-0.55189699 -0.38957429 0.063119099
-0.55189699 -0.42203885 0.063119084
-0.55189699 -0.4545033 0.063119039
-0.55189699 -0.48696789 0.063119158
-0.55189699 -0.51943249 0.063119099
-0.55189699 -0.55189687 0.063119084
-0.55189699 -0.58436143 0.063119054
-0.55189699 -0.616826 0.063119084
-0.55189699 -0.6492905 0.063119143
-0.55189699 -0.68175495 0.063119024
-0.55189699 -0.71421957 0.063119113
-0.55189699 -0.74668407 0.063119054
-0.55189699 -0.7791487 0.063119113
-0.51493853 0.77240777 0.049075484
-0.51493853 0.74022424 0.049075693
-0.51493853 0.7080406 0.049075693
-0.51493853 0.67585695 0.049075633
-0.51493853 0.64367324 0.049075663
-0.51493853 0.61148953 0.049075633
-0.51493853 0.57930589 0.049075633
-0.51493853 0.54712224 0.049075603
-0.51493853 0.51493859 0.049075603
-0.51493853 0.48275489 0.049075603
-0.51493853 0.4505713 0.049075663
-0.51493853 0.41838765 0.049075663
-0.51493853 0.386204 0.049075648
-0.51493853 0.3540203 0.049075633
-0.51493853 0.32183665 0.049075633
-0.51493853 0.289653 0.049075618
-0.51493853 0.25746927 0.049075641
-0.51493853 0.22528565 0.049075589
-0.51493853 0.19310199 0.049075581
-0.51493853 0.16091827 0.0490756
-0.51493853 0.12873465 0.049075555
-0.51493853 0.096550941 0.049075577
-0.51493853 0.064367361 0.049075488
-0.51493853 0.032183606 0.049075551
-0.51493853 1.6763806e-08 0.04907563
-0.51493853 -0.032183561 0.04907554
-0.51493853 -0.064367317 0.049075603
-0.51493853 -0.096550904 0.049075685
-0.51493853 -0.12873448 0.049075589
-0.51493853 -0.16091824 0.049075652
-0.51493853 -0.19310191 0.049075641
-0.51494008 -0.22528628 0.049080484
-0.51494008 -0.25746992 0.049080476
-0.51494008 -0.28965378 0.049080446
-0.51494008 -0.32183751 0.049080506
-0.51494008 -0.35402131 0.049080521
-0.51494008 -0.38620499 0.049080521
-0.51494008 -0.41838884 0.049080491
-0.51494008 -0.45057261 0.049080506
-0.51494008 -0.48275629 0.049080506
-0.51494008 -0.51494008 0.049080506
-0.51494008 -0.54712373 0.049080506
-0.51494008 -0.57930756 0.049080491
-0.51494008 -0.61149138 0.049080491
-0.51494008 -0.64367509 0.04908058
-0.51494008 -0.67585886 0.049080521
-0.51494008 -0.70804256 0.049080461
-0.51494008 -0.74022639 0.04908058
-0.51494008 -0.77241015 0.049080491
-0.47861412 0.76578271 0.035273075
-0.47861412 0.73387504 0.035273015
-0.47861412 0.70196736 0.035273045
-0.47861412 0.6700598 0.035273045
-0.47861412 0.63815212 0.035272956
-0.47861412 0.60624462 0.035273045
-0.47861412 0.57433689 0.035272986
-0.47861412 0.54242933 0.035272986
-0.47861412 0.51052171 0.035273001
-0.47861412 0.47861415 0.035273001
-0.47861412 0.44670653 0.03527303
-0.47861412 0.41479895 0.035273015
-0.47861412 0.3828913 0.03527306
-0.47861412 0.35098374 0.035273045
-0.47861412 0.31907606 0.035272971
-0.47861412 0.28716847 0.035272971
-0.47861412 0.25526094 0.035273083
-0.47861412 0.22335327 0.035272993
-0.47861412 0.19144565 0.035273015
-0.47861412 0.15953809 0.035273008
-0.47861412 0.12763046 0.035273034
-0.47861412 0.095722884 0.035273027
-0.47861412 0.063815184 0.035272963
-0.47861558 0.031907711 0.035277907
-0.47861558 1.1175871e-08 0.035277847
-0.47861558 -0.031907685 0.035277784
-0.47861412 -0.063815206 0.035273008
-0.47861558 -0.095723018 0.035277922
-0.47861558 -0.1276308 0.035277773
-0.47861558 -0.15953842 0.035277802
-0.47861558 -0.19144621 0.035277814
-0.47861558 -0.22335383 0.035277836
-0.47861558 -0.25526163 0.035277858
-0.47861558 -0.28716931 0.035277806
-0.47861558 -0.31907693 0.035277829
-0.47861558 -0.35098475 0.035277799
-0.47861558 -0.38289237 0.035277829
-0.47861558 -0.41480014 0.035277888
-0.47861558 -0.44670776 0.035277754
-0.47861558 -0.47861549 0.035277814
-0.47861558 -0.51052332 0.035277829
-0.47861558 -0.54243094 0.035277814
-0.47861558 -0.57433867 0.035277933
-0.47861558 -0.60624623 0.035277784
-0.47861558 -0.63815403 0.035277873
-0.47861558 -0.67006171 0.035277784
-0.47861558 -0.7019695 0.035277873
-0.47861558 -0.73387712 0.035277843
-0.47861558 -0.7657848 0.035277814
-0.44290751 0.75927007 0.02170521
-0.44290751 0.72763383 0.02170521
-0.44290751 0.6959976 0.02170524
-0.44290751 0.66436124 0.021705121
-0.44290751 0.632725 0.021705151
-0.44290751 0.60108882 0.021705121
-0.44290751 0.56945252 0.02170521
-0.44290751 0.53781629 0.02170518
-0.44290751 0.50617999 0.02170521
-0.44290751 0.47454381 0.021705195
-0.44290751 0.44290757 0.021705166
-0.44290751 0.4112713 0.021705195
-0.44290751 0.37963504 0.02170521
-0.44290751 0.3479988 0.02170524
-0.44290751 0.31636256 0.021705225
-0.44290751 0.28472635 0.021705195
-0.44290882 0.25309086 0.021709919
-0.44290882 0.22145444 0.021709897
-0.44290751 0.18981749 0.02170518
-0.44290751 0.15818134 0.021705247
-0.44290882 0.12654541 0.021709859
-0.44290882 0.094909102 0.021709919
-0.44290882 0.063272722 0.021709893
-0.44290882 0.031636458 0.021709915
-0.44290882 7.1711838e-08 0.021709885
-0.44290882 -0.031636316 0.021709856
-0.44290882 -0.063272618 0.021709917
-0.44290882 -0.09490893 0.021709975
-0.44290882 -0.12654531 0.021709945
-0.44290882 -0.1581817 0.021709919
-0.44290882 -0.18981801 0.021709979
-0.44290882 -0.22145441 0.021709949
-0.44290882 -0.2530908 0.021709926
-0.44290882 -0.2847271 0.021709979
-0.44290882 -0.31636333 0.021709919
-0.44290882 -0.34799969 0.021709934
-0.44290882 -0.37963608 0.021709904
-0.44290882 -0.41127241 0.021709934
-0.44290882 -0.44290882 0.021709889
-0.44290882 -0.47454518 0.021709904
-0.44290882 -0.50618148 0.021709979
-0.44290882 -0.53781784 0.021709979
-0.44290882 -0.56945419 0.021709949
-0.44290882 -0.60109055 0.021709949
-0.44290882 -0.63272691 0.021709919
-0.44290882 -0.66436327 0.021710008
-0.44290882 -0.6959995 0.021709889
-0.44290882 -0.72763586 0.021709889
-0.44290882 -0.75927222 0.021709919
-0.40780315 0.78423685 0.0083661973
-0.40780315 0.75286734 0.008366257
-0.40780315 0.72149777 0.0083661675
-0.40780315 0.69012833 0.0083661675
-0.40780315 0.658759 0.008366257
-0.40780315 0.62738949 0.0083662868
-0.40780315 0.59601992 0.0083662271
-0.40780315 0.56465054 0.0083661675
-0.40780315 0.53328103 0.0083661973
-0.40780315 0.50191158 0.0083662271
-0.40780315 0.47054213 0.008366257
-0.40780315 0.43917263 0.008366257
-0.40780431 0.4078044 0.0083708912
-0.40780431 0.3764348 0.0083708465
-0.40780431 0.34506524 0.0083709508
-0.40780431 0.3136957 0.0083708763
-0.40780431 0.28232619 0.0083709359
-0.40780431 0.25095648 0.008370854
-0.40780431 0.21958695 0.0083708987
-0.40780431 0.18821737 0.0083708614
-0.40780431 0.15684785 0.0083709285
-0.40780431 0.1254783 0.0083708502
-0.40780431 0.09410879 0.0083709061
-0.40780431 0.062739201 0.0083708707
-0.40780431 0.031369649 0.0083707953
-0.40780431 1.3969839e-08 0.008370799
-0.40780431 -0.031369545 0.008370894
-0.40780431 -0.062739179 0.0083708968
-0.40780431 -0.094108649 0.0083709173
-0.40780431 -0.12547821 0.0083708428
-0.40780431 -0.15684776 0.0083709359
-0.40780431 -0.18821731 0.0083708614
-0.40780431 -0.21958694 0.0083708689
-0.40780431 -0.25095642 0.0083708838
-0.40780431 -0.28232604 0.0083708912
-0.40780431 -0.31369555 0.0083708465
-0.40780431 -0.34506515 0.0083709061
-0.40780431 -0.37643483 0.0083708763
-0.40780431 -0.40780434 0.0083708316
-0.40780431 -0.43917382 0.0083708167
-0.40780431 -0.47054344 0.0083708614
-0.40780431 -0.50191295 0.0083708316
-0.40780431 -0.53328252 0.0083708763
-0.40780431 -0.56465209 0.0083708465
-0.40780431 -0.59602171 0.0083708763
-0.40780431 -0.62739128 0.0083709061
-0.40780431 -0.65876079 0.0083708763
-0.40780431 -0.69013041 0.0083709359
-0.40780431 -0.72149992 0.0083709061
-0.40780431 -0.75286955 0.0083709061
-0.40780431 -0.78423917 0.0083709657
-0.37328583 0.77767885 -0.0047496855
-0.37328583 0.74657166 -0.0047497153
-0.37328583 0.71546453 -0.0047498047
-0.37328583 0.68435729 -0.0047498047
-0.37328583 0.65325028 -0.0047496557
-0.37328693 0.62214482 -0.0047451854
-0.37328693 0.59103775 -0.0047451258
-0.37328693 0.55993044 -0.004745096
-0.37328693 0.52882314 -0.0047451854
-0.37328693 0.49771601 -0.004745096
-0.37328693 0.46660864 -0.0047451705
-0.37328693 0.43550143 -0.0047451556
-0.37328693 0.40439421 -0.0047451407
-0.37328693 0.37328696 -0.0047451258
-0.37328693 0.34217972 -0.0047451258
-0.37328693 0.31107247 -0.004745096
-0.37328693 0.27996528 -0.0047451407
-0.37328693 0.24885803 -0.0047451109
-0.37328693 0.21775067 -0.0047451481
-0.37328693 0.18664351 -0.0047450513
-0.37328693 0.15553625 -0.004745163
-0.37328693 0.124429 -0.0047451518
-0.37328693 0.093321726 -0.0047451034
-0.37328693 0.062214524 -0.0047451276
-0.37328693 0.031107284 -0.0047451127
-0.37328693 9.0803951e-08 -0.0047451388
-0.37328693 -0.031107195 -0.0047450867
-0.37328693 -0.062214479 -0.0047450326
-0.37328693 -0.093321756 -0.0047451518
-0.37328693 -0.12442887 -0.0047450848
-0.37328693 -0.15553623 -0.0047451183
-0.37328693 -0.18664351 -0.0047450662
-0.37328693 -0.2177507 -0.004745096
-0.37328693 -0.2488579 -0.0047451183
-0.37328693 -0.27996513 -0.0047452003
-0.37328693 -0.31107238 -0.004745096
-0.37328693 -0.34217972 -0.004745096
-0.37328693 -0.3732869 -0.0047451109
-0.37328693 -0.40439415 -0.0047451854
-0.37328693 -0.43550137 -0.0047450811
-0.37328693 -0.46660858 -0.0047451705
-0.37328693 -0.49771583 -0.0047450662
-0.37328693 -0.52882308 -0.0047451258
-0.37328693 -0.55993038 -0.004745096
-0.37328693 -0.59103763 -0.0047451556
-0.37328693 -0.62214488 -0.0047451258
-0.37328693 -0.65325212 -0.0047451258
-0.37328693 -0.68435937 -0.0047450662
-0.37328693 -0.71546662 -0.0047451556
-0.37328693 -0.74657381 -0.0047451556
-0.37328693 -0.77768111 -0.004745096
-0.33934203 0.77123189 -0.017643511
-0.33934203 0.74038261 -0.017643571
-0.33934203 0.70953339 -0.017643541
-0.33934203 0.67868412 -0.017643601
-0.33934203 0.6478349 -0.017643452
-0.33934203 0.61698556 -0.017643511
-0.33934203 0.58613628 -0.017643571
-0.33934203 0.555287 -0.017643511
-0.33934203 0.52443767 -0.017643541
-0.33934203 0.49358848 -0.017643571
-0.33934203 0.46273917 -0.017643616
-0.33934203 0.43188989 -0.017643541
-0.33934203 0.40104064 -0.017643511
-0.33934203 0.37019134 -0.017643556
-0.33934203 0.33934209 -0.017643526
-0.33934203 0.30849278 -0.017643571
-0.33934203 0.27764347 -0.017643616
-0.33934203 0.24679416 -0.017643549
-0.33934203 0.21594498 -0.017643549
-0.33934203 0.18509567 -0.017643601
-0.33934203 0.15424639 -0.017643526
-0.33934203 0.12339719 -0.01764353
-0.33934203 0.092547908 -0.017643455
-0.33934203 0.061698556 -0.017643638
-0.33934203 0.030849276 -0.017643563
-0.33934203 3.8184226e-08 -0.017643526
-0.33934203 -0.030849278 -0.017643578
-0.33934203 -0.061698519 -0.017643543
-0.33934203 -0.092547759 -0.017643508
-0.33934203 -0.12339707 -0.01764356
-0.33934203 -0.15424639 -0.017643616
-0.33934203 -0.18509562 -0.017643578
-0.33934203 -0.21594486 -0.017643541
-0.33934203 -0.24679418 -0.017643601
-0.33934203 -0.27764341 -0.017643571
-0.33934203 -0.30849269 -0.017643571
-0.33934203 -0.33934203 -0.017643452
-0.33934203 -0.37019128 -0.017643631
-0.33934203 -0.40104052 -0.017643586
-0.33934203 -0.4318898 -0.017643601
-0.33934203 -0.46273905 -0.017643571
-0.33934203 -0.49358839 -0.017643481
-0.33934203 -0.52443761 -0.017643571
-0.33934203 -0.55528688 -0.017643481
-0.33934203 -0.58613622 -0.017643511
-0.33934203 -0.61698544 -0.017643601
-0.33934203 -0.64783478 -0.017643541
-0.33934203 -0.678684 -0.017643631
-0.33934203 -0.70953333 -0.017643511
-0.33934203 -0.74038267 -0.017643571
-0.33934203 -0.77123189 -0.017643511
-0.30595553 0.76488876 -0.030329794
-0.30595553 0.73429322 -0.030329764
-0.30595553 0.70369762 -0.030329883
-0.30595553 0.67310214 -0.030329794
-0.30595553 0.6425066 -0.030329794
-0.30595553 0.61191106 -0.030329823
-0.30595553 0.58131552 -0.030329794
-0.30595553 0.55071992 -0.030329883
-0.30595553 0.52012444 -0.030329779
-0.30595553 0.48952889 -0.030329823
-0.30595553 0.45893323 -0.030329883
-0.30595553 0.42833775 -0.030329779
-0.30595553 0.39774221 -0.030329794
-0.30595553 0.36714661 -0.030329883
-0.30595553 0.33655107 -0.030329883
-0.30595553 0.30595553 -0.030329764
-0.30595553 0.27536002 -0.030329771
-0.30595553 0.24476439 -0.030329853
-0.30595553 0.21416897 -0.030329809
-0.30595553 0.1835734 -0.030329771
-0.30595553 0.15297776 -0.030329868
-0.30595553 0.12238222 -0.030329876
-0.30595553 0.091786712 -0.030329747
-0.30595553 0.061191089 -0.030329838
-0.30595553 0.030595548 -0.030329846
-0.30595553 1.2759119e-07 -0.030329797
-0.30595553 -0.030595493 -0.030329891
-0.30595553 -0.061191082 -0.030329853
-0.30595553 -0.091786668 -0.03032982
-0.30595553 -0.12238216 -0.030329861
-0.30595553 -0.15297776 -0.030329823
-0.30595553 -0.18357334 -0.030329794
-0.30595553 -0.21416876 -0.030329742
-0.30595553 -0.24476434 -0.030329876
-0.30595553 -0.27535993 -0.030329846
-0.30595553 -0.30595547 -0.030329749
-0.30595553 -0.33655101 -0.030329853
-0.30595553 -0.36714661 -0.030329823
-0.30595553 -0.39774215 -0.030329734
-0.30595553 -0.42833769 -0.030329868
-0.30595553 -0.45893317 -0.030329868
-0.30595553 -0.48952875 -0.030329823
-0.30595553 -0.52012444 -0.030329838
-0.30595553 -0.55071986 -0.030329853
-0.30595553 -0.5813154 -0.030329794
-0.30595553 -0.61191106 -0.030329764
-0.30595553 -0.64250648 -0.030329823
-0.30595553 -0.67310202 -0.030329853
-0.30595553 -0.70369756 -0.030329794
-0.30595553 -0.73429322 -0.030329794
-0.30595553 -0.7648887 -0.030329823
-0.2731137 0.78899515 -0.042809129
-0.2731137 0.75864911 -0.042809039
-0.2731137 0.72830313 -0.042809129
-0.2731137 0.69795728 -0.042809129
-0.2731137 0.66761112 -0.042809159
-0.2731137 0.63726526 -0.042809159
-0.2731137 0.60691929 -0.042809129
-0.2731137 0.57657337 -0.042809099
-0.2731137 0.54622734 -0.042809173
-0.2731137 0.51588136 -0.042809114
-0.2731137 0.4855355 -0.042809099
-0.2731137 0.45518953 -0.042809084
-0.2731137 0.42484349 -0.042809129
-0.2731137 0.39449757 -0.042809144
-0.2731137 0.36415163 -0.042809114
-0.2731137 0.33380559 -0.042809159
-0.2731137 0.30345964 -0.042809129
-0.2731137 0.27311373 -0.042809121
-0.2731137 0.2427678 -0.042809106
-0.2731137 0.21242172 -0.042809114
-0.2731137 0.18207586 -0.042809151
-0.2731137 0.15172985 -0.04280908
-0.2731137 0.12138382 -0.042809136
-0.2731137 0.091037914 -0.042809147
-0.2731137 0.060691968 -0.04280911
-0.2731137 0.030346014 -0.042809077
-0.2731137 2.7939677e-08 -0.04280917
-0.2731137 -0.030345969 -0.042809095
-0.2731137 -0.060691878 -0.042809103
-0.2731137 -0.09103778 -0.042809106
-0.2731137 -0.12138386 -0.042809125
-0.2731137 -0.15172976 -0.042809129
-0.2731137 -0.18207568 -0.042809129
-0.2731137 -0.21242175 -0.042809144
-0.2731137 -0.24276771 -0.042809032
-0.2731137 -0.27311361 -0.042809211
-0.2731137 -0.30345958 -0.042809129
-0.2731137 -0.33380562 -0.042809054
-0.2731137 -0.3641516 -0.042809159
-0.2731137 -0.39449748 -0.042809159
-0.2731137 -0.42484349 -0.042809084
-0.2731137 -0.45518941 -0.042809099
-0.2731137 -0.48553538 -0.042809173
-0.2731137 -0.51588136 -0.042809099
-0.2731137 -0.54622734 -0.042809039
-0.2731137 -0.57657325 -0.042809188
-0.2731137 -0.60691929 -0.042809129
-0.2731137 -0.63726526 -0.042809069
-0.2731137 -0.66761124 -0.042809129
-0.2731137 -0.69795716 -0.042809129
-0.2731137 -0.72830319 -0.042809099
-0.2731137 -0.75864911 -0.042809159
-0.24080335 0.78261089 -0.055086434
-0.24080335 0.75251043 -0.055086493
-0.24080335 0.72241008 -0.055086404
-0.24080335 0.69230962 -0.055086434
-0.24080335 0.66220927 -0.055086493
-0.24080335 0.63210887 -0.055086434
-0.24080335 0.6020084 -0.055086464
-0.24080335 0.571908 -0.055086523
-0.24080335 0.54180753 -0.055086389
-0.24080335 0.51170707 -0.055086538
-0.24080335 0.48160672 -0.055086449
-0.24080335 0.45150632 -0.055086389
-0.24080335 0.42140585 -0.055086538
-0.24080335 0.39130548 -0.055086464
-0.24080335 0.3612051 -0.055086389
-0.24080335 0.33110464 -0.055086404
-0.24080335 0.30100423 -0.055086456
-0.24080335 0.27090377 -0.055086471
-0.24080335 0.24080339 -0.055086412
-0.24080335 0.21070299 -0.055086471
-0.24080335 0.18060254 -0.055086486
-0.24080335 0.1505022 -0.055086449
-0.24080403 0.12040211 -0.055082213
-0.24080403 0.090301566 -0.055082154
-0.24080403 0.060201064 -0.055082135
-0.24080403 0.030100565 -0.055082113
-0.24080403 6.7055225e-08 -0.05508209
-0.24080403 -0.030100465 -0.055082195
-0.24080403 -0.060200918 -0.055082213
-0.24080403 -0.090301469 -0.055082157
-0.24080403 -0.12040201 -0.055082094
-0.24080403 -0.15050238 -0.055082191
-0.24080403 -0.18060291 -0.055082135
-0.24080403 -0.21070354 -0.055082157
-0.24080403 -0.24080399 -0.055082172
-0.24080403 -0.27090454 -0.055082113
-0.24080403 -0.30100501 -0.055082127
-0.24080403 -0.33110547 -0.055082187
-0.24080403 -0.36120605 -0.055082127
-0.24080403 -0.39130649 -0.055082157
-0.24080403 -0.42140698 -0.055082217
-0.24080403 -0.45150751 -0.055082157
-0.24080403 -0.48160797 -0.055082172
-0.24080403 -0.51170856 -0.055082172
-0.24080403 -0.54180902 -0.055082187
-0.24080403 -0.57190943 -0.055082202
-0.24080403 -0.60201001 -0.055082172
-0.24080403 -0.63211048 -0.055082202
-0.24080403 -0.66221106 -0.055082202
-0.24080403 -0.69231153 -0.055082172
-0.24080403 -0.72241199 -0.055082172
-0.24080403 -0.75251257 -0.055082142
-0.24080403 -0.78261304 -0.055082172
-0.20901169 0.77632916 -0.067166626
-0.20901169 0.74647033 -0.067166686
-0.20901169 0.71661162 -0.067166656
-0.20901169 0.6867528 -0.067166626
-0.20901169 0.65689397 -0.067166686
-0.20901169 0.62703514 -0.067166686
-0.20901169 0.59717625 -0.067166716
-0.20901169 0.56731755 -0.067166701
-0.20901169 0.53745866 -0.067166686
-0.20901169 0.50759983 -0.067166716
-0.20901169 0.477741 -0.067166761
-0.20901169 0.44788224 -0.067166701
-0.20901169 0.41802341 -0.067166731
-0.20901169 0.38816464 -0.067166656
-0.20901169 0.35830578 -0.067166686
-0.20901169 0.32844692 -0.067166701
-0.20901169 0.29858822 -0.067166664
-0.20901227 0.26873016 -0.067162491
-0.20901227 0.23887122 -0.067162424
-0.20901227 0.20901224 -0.067162491
-0.20901227 0.17915344 -0.067162544
-0.20901227 0.14929454 -0.067162529
-0.20901227 0.11943565 -0.067162514
-0.20901227 0.089576758 -0.067162484
-0.20901227 0.059717868 -0.067162469
-0.20901227 0.029858898 -0.067162536
-0.20901227 -0 -0.067162514
-0.20901227 -0.029858844 -0.067162536
-0.20901227 -0.059717741 -0.067162514
-0.20901227 -0.089576632 -0.067162491
-0.20901227 -0.11943552 -0.067162469
-0.20901227 -0.1492945 -0.067162544
-0.20901227 -0.17915338 -0.067162529
-0.20901227 -0.20901224 -0.067162454
-0.20901227 -0.23887119 -0.067162484
-0.20901227 -0.26873004 -0.067162417
-0.20901227 -0.29858899 -0.067162447
-0.20901227 -0.32844785 -0.067162424
-0.20901227 -0.3583068 -0.067162454
-0.20901227 -0.38816568 -0.067162424
-0.20901227 -0.41802454 -0.067162529
-0.20901227 -0.44788337 -0.067162469
-0.20901227 -0.47774231 -0.067162469
-0.20901227 -0.5076012 -0.067162484
-0.20901227 -0.53746009 -0.067162558
-0.20901227 -0.56731892 -0.067162573
-0.20901227 -0.59717786 -0.067162573
-0.20901227 -0.62703681 -0.067162573
-0.20901227 -0.65689564 -0.067162484
-0.20901227 -0.68675458 -0.067162514
-0.20901227 -0.71661341 -0.067162484
-0.20901227 -0.74647236 -0.067162454
-0.20901227 -0.77633131 -0.067162484
-0.17772633 0.7701475 -0.079054594
-0.17772633 0.74052644 -0.079054475
-0.17772633 0.71090531 -0.079054624
-0.17772633 0.68128437 -0.079054564
-0.17772633 0.65166324 -0.079054564
-0.17772633 0.62204218 -0.079054564
-0.17772633 0.59242117 -0.079054549
-0.17772633 0.56280005 -0.079054639
-0.17772633 0.53317904 -0.079054549
-0.17772633 0.50355798 -0.079054594
-0.17772684 0.47393823 -0.079050422
-0.17772684 0.44431716 -0.079050422
-0.17772684 0.41469601 -0.079050377
-0.17772684 0.38507479 -0.079050437
-0.17772684 0.3554537 -0.079050452
-0.17772684 0.32583255 -0.079050377
-0.17772684 0.29621142 -0.079050377
-0.17772684 0.26659027 -0.079050474
-0.17772684 0.23696914 -0.079050444
-0.17772684 0.20734796 -0.079050377
-0.17772684 0.17772688 -0.079050377
-0.17772684 0.14810574 -0.079050347
-0.17772684 0.11848457 -0.079050444
-0.17772684 0.088863492 -0.079050444
-0.17772684 0.059242353 -0.079050422
-0.17772684 0.029621171 -0.079050347
-0.17772684 3.7252903e-09 -0.079050437
-0.17772684 -0.02962113 -0.079050407
-0.17772684 -0.059242293 -0.079050504
-0.17772684 -0.08886335 -0.079050384
-0.17772684 -0.11848447 -0.079050519
-0.17772684 -0.1481057 -0.079050407
-0.17772684 -0.17772684 -0.07905037
-0.17772684 -0.20734787 -0.079050422
-0.17772684 -0.23696905 -0.079050437
-0.17772684 -0.26659024 -0.079050444
-0.17772684 -0.29621136 -0.079050407
-0.17772684 -0.32583249 -0.079050392
-0.17772684 -0.35545361 -0.079050347
-0.17772684 -0.3850747 -0.079050437
-0.17772684 -0.41469589 -0.079050452
-0.17772684 -0.44431704 -0.079050466
-0.17772684 -0.47393817 -0.079050377
-0.17772684 -0.50355935 -0.079050407
-0.17772684 -0.53318048 -0.079050392
-0.17772684 -0.56280154 -0.079050466
-0.17772684 -0.59242272 -0.079050452
-0.17772684 -0.62204397 -0.079050362
-0.17772684 -0.65166497 -0.079050392
-0.17772684 -0.68128616 -0.079050422
-0.17772684 -0.71090728 -0.079050392
-0.17772684 -0.74052835 -0.079050481
-0.17772684 -0.77014953 -0.079050452
-0.14693528 0.76406336 -0.090754688
-0.14693567 0.73467839 -0.090750456
-0.14693567 0.70529127 -0.090750605
-0.14693567 0.67590415 -0.090750486
-0.14693528 0.64651525 -0.090754628
-0.14693567 0.61712986 -0.090750486
-0.14693567 0.58774269 -0.090750515
-0.14693567 0.55835563 -0.09075053
-0.14693567 0.52896845 -0.090750545
-0.14693567 0.49958143 -0.090750501
-0.14693567 0.47019422 -0.090750456
-0.14693567 0.44080704 -0.09075059
-0.14693567 0.41141999 -0.090750501
-0.14693567 0.38203281 -0.090750486
-0.14693567 0.35264567 -0.090750508
-0.14693567 0.32325849 -0.090750493
-0.14693567 0.29387137 -0.090750508
-0.14693567 0.26448423 -0.090750545
-0.14693567 0.23509711 -0.09075056
-0.14693567 0.20570999 -0.090750456
-0.14693567 0.17632285 -0.090750605
-0.14693567 0.14693575 -0.090750486
-0.14693567 0.11754856 -0.090750471
-0.14693567 0.088161483 -0.090750538
-0.14693567 0.0587743 -0.090750515
-0.14693567 0.029387172 -0.09075053
-0.14693567 -3.7252903e-09 -0.090750515
-0.14693567 -0.02938709 -0.090750575
-0.14693567 -0.058774192 -0.090750471
-0.14693567 -0.088161364 -0.090750448
-0.14693567 -0.11754853 -0.090750597
-0.14693567 -0.14693563 -0.090750486
-0.14693567 -0.1763228 -0.090750471
-0.14693567 -0.20570989 -0.09075053
-0.14693567 -0.23509711 -0.090750568
-0.14693567 -0.26448426 -0.090750501
-0.14693567 -0.2938714 -0.090750486
-0.14693567 -0.32325846 -0.090750493
-0.14693567 -0.35264552 -0.090750515
-0.14693567 -0.38203275 -0.090750575
-0.14693567 -0.41141981 -0.09075059
-0.14693567 -0.44080696 -0.09075053
-0.14693567 -0.47019413 -0.090750515
-0.14693567 -0.49958122 -0.09075056
-0.14693567 -0.52896833 -0.09075056
-0.14693567 -0.55835557 -0.09075053
-0.14693567 -0.58774269 -0.090750456
-0.14693567 -0.6171298 -0.090750545
-0.14693567 -0.64651698 -0.090750486
-0.14693567 -0.6759041 -0.090750456
-0.14693567 -0.70529127 -0.090750575
-0.14693567 -0.73467839 -0.090750515
-0.14693567 -0.7640655 -0.090750456
-0.11662721 0.78723371 -0.10226721
-0.11662721 0.75807691 -0.10226712
-0.11662721 0.7289201 -0.10226715
-0.11662721 0.6997633 -0.10226724
-0.11662721 0.67060649 -0.10226724
-0.11662721 0.64144969 -0.10226715
-0.11662721 0.61229289 -0.10226721
-0.11662721 0.58313608 -0.10226722
-0.11662721 0.55397934 -0.10226718
-0.11662721 0.52482253 -0.10226722
-0.11662721 0.49566567 -0.10226724
-0.11662721 0.46650887 -0.10226728
-0.11662721 0.43735206 -0.10226722
-0.11662721 0.4081952 -0.10226722
-0.11662721 0.37903848 -0.10226718
-0.11662721 0.34988168 -0.10226722
-0.11662721 0.3207249 -0.10226715
-0.11662721 0.29156804 -0.10226729
-0.11662721 0.26241124 -0.1022672
-0.11662721 0.23325445 -0.10226724
-0.11662721 0.20409769 -0.10226718
-0.11662721 0.17494082 -0.10226718
-0.11662721 0.14578409 -0.10226714
-0.11662721 0.11662725 -0.10226732
-0.11662721 0.087470487 -0.10226724
-0.11662721 0.058313631 -0.10226725
-0.11662721 0.029156853 -0.10226717
-0.11662721 3.7252903e-09 -0.10226718
-0.11662721 -0.029156722 -0.10226714
-0.11662721 -0.058313616 -0.10226727
-0.11662721 -0.087470338 -0.10226724
-0.11662721 -0.11662719 -0.10226725
-0.11662721 -0.14578396 -0.10226716
-0.11662721 -0.17494078 -0.10226714
-0.11662721 -0.20409758 -0.10226727
-0.11662721 -0.2332544 -0.10226723
-0.11662721 -0.26241121 -0.10226719
-0.11662721 -0.29156804 -0.10226715
-0.11662721 -0.32072473 -0.1022672
-0.11662721 -0.34988156 -0.10226716
-0.11662721 -0.37903836 -0.10226731
-0.11662721 -0.40819517 -0.10226725
-0.11662721 -0.437352 -0.10226722
-0.11662721 -0.46650881 -0.10226721
-0.11662721 -0.49566564 -0.10226721
-0.11662721 -0.52482235 -0.10226725
-0.11662721 -0.55397916 -0.10226721
-0.11662721 -0.58313602 -0.10226724
-0.11662721 -0.61229289 -0.10226721
-0.11662721 -0.64144969 -0.10226715
-0.11662721 -0.67060637 -0.10226727
-0.11662721 -0.69976324 -0.10226721
-0.11662721 -0.72891998 -0.10226727
-0.11662721 -0.75807679 -0.10226727
-0.086790159 0.78111148 -0.11360469
-0.086790159 0.75218129 -0.11360487
-0.086790159 0.72325134 -0.11360481
-0.086790159 0.69432127 -0.11360478
-0.086790159 0.66539127 -0.11360481
-0.086790159 0.6364612 -0.11360475
-0.086790159 0.60753107 -0.11360474
-0.086790159 0.57860112 -0.11360477
-0.086790159 0.54967093 -0.11360483
-0.086790159 0.52074093 -0.11360484
-0.086790159 0.49181089 -0.11360481
-0.086790159 0.46288082 -0.11360481
-0.086790159 0.43395075 -0.11360478
-0.086790159 0.40502074 -0.11360483
-0.086790159 0.37609068 -0.1136048
-0.086790159 0.34716064 -0.11360479
-0.086790159 0.3182306 -0.11360479
-0.086790159 0.28930053 -0.11360475
-0.086790159 0.26037052 -0.1136048
-0.086790159 0.23144044 -0.11360476
-0.086790159 0.2025104 -0.11360477
-0.086790159 0.17358032 -0.11360472
-0.086790159 0.14465019 -0.11360481
-0.086790159 0.11572021 -0.11360486
-0.086790159 0.086790174 -0.11360486
-0.086790159 0.057860091 -0.11360481
-0.086790159 0.028930049 -0.11360483
-0.086790159 -3.3527613e-08 -0.11360478
-0.086790159 -0.028930031 -0.11360481
-0.086790159 -0.057860062 -0.11360482
-0.086790159 -0.086790152 -0.11360479
-0.086790159 -0.11572014 -0.11360483
-0.086790159 -0.14465022 -0.11360478
-0.086790159 -0.17358027 -0.11360471
-0.086790159 -0.20251025 -0.11360475
-0.086790159 -0.23144034 -0.1136047
-0.086790159 -0.2603704 -0.11360484
-0.086790159 -0.2893005 -0.11360481
-0.086790159 -0.31823057 -0.11360476
-0.086790159 -0.34716058 -0.11360481
-0.086790159 -0.37609059 -0.11360484
-0.086790159 -0.40502065 -0.1136048
-0.086790159 -0.43395072 -0.11360477
-0.086790159 -0.46288079 -0.11360472
-0.086790159 -0.4918108 -0.11360478
-0.086790159 -0.52074081 -0.11360483
-0.086790159 -0.54967093 -0.11360481
-0.086790159 -0.578601 -0.11360477
-0.086790159 -0.60753107 -0.11360475
-0.086790159 -0.63646108 -0.11360478
-0.086790159 -0.66539121 -0.11360475
-0.086790159 -0.69432116 -0.11360478
-0.086790159 -0.72325122 -0.11360475
-0.086790159 -0.75218129 -0.11360484
-0.086790159 -0.78111136 -0.11360478
-0.057413597 0.77508366 -0.12476733
-0.057413597 0.74637675 -0.12476739
-0.057413597 0.71766996 -0.12476736
-0.057413597 0.68896329 -0.12476733
-0.057413597 0.66025639 -0.12476733
-0.057413597 0.6315496 -0.12476741
-0.057413597 0.60284287 -0.12476732
-0.057413597 0.57413602 -0.12476739
-0.057413597 0.54542923 -0.12476742
-0.057413597 0.51672244 -0.12476735
-0.057413597 0.48801559 -0.12476735
-0.057413597 0.45930874 -0.12476739
-0.057413597 0.43060204 -0.12476733
-0.057413597 0.40189523 -0.12476738
-0.057413597 0.37318838 -0.1247674
-0.057413597 0.34448165 -0.12476735
-0.057413597 0.31577483 -0.1247674
-0.057413597 0.28706801 -0.12476745
-0.057413597 0.25836122 -0.12476736
-0.057413597 0.22965446 -0.12476727
-0.057413597 0.20094763 -0.12476732
-0.057413597 0.17224082 -0.12476737
-0.057413597 0.14353409 -0.12476732
-0.057413597 0.11482728 -0.12476736
-0.057413597 0.086120427 -0.12476737
-0.057413597 0.05741369 -0.12476733
-0.057413597 0.028706875 -0.12476738
-0.057413597 6.3329935e-08 -0.12476742
-0.057413597 -0.028706718 -0.12476733
-0.057413597 -0.057413526 -0.12476738
-0.057413597 -0.086120389 -0.12476739
-0.057413597 -0.11482717 -0.1247673
-0.057413597 -0.14353402 -0.12476732
-0.057413597 -0.17224076 -0.12476735
-0.057413597 -0.20094757 -0.12476732
-0.057413597 -0.22965434 -0.12476739
-0.057413597 -0.25836116 -0.12476736
-0.057413597 -0.28706798 -0.12476731
-0.057413597 -0.31577474 -0.1247674
-0.057413597 -0.34448156 -0.12476736
-0.057413597 -0.37318838 -0.12476732
-0.057413597 -0.40189517 -0.12476739
-0.057413597 -0.43060195 -0.12476736
-0.057413597 -0.45930868 -0.12476741
-0.057413597 -0.48801553 -0.12476738
-0.057413597 -0.51672238 -0.12476738
-0.057413597 -0.54542911 -0.12476742
-0.057413597 -0.5741359 -0.12476736
-0.057413597 -0.60284281 -0.12476739
-0.057413597 -0.6315496 -0.12476733
-0.057413597 -0.66025633 -0.12476736
-0.057413597 -0.68896317 -0.12476733
-0.057413597 -0.71766996 -0.12476733
-0.057413597 -0.74637675 -0.12476739
-0.057413597 -0.77508354 -0.12476736
-0.028486969 0.76914817 -0.13575894
-0.028486969 0.7406612 -0.13575894
-0.028486969 0.7121743 -0.135759
-0.028486969 0.68368721 -0.13575894
-0.028486969 0.65520024 -0.13575909
-0.028486969 0.62671334 -0.13575898
-0.028486969 0.59822637 -0.13575898
-0.028486969 0.56973934 -0.13575895
-0.028486969 0.54125237 -0.13575898
-0.028486969 0.51276541 -0.13575898
-0.028486969 0.4842785 -0.13575898
-0.028486969 0.4557915 -0.13575898
-0.028486969 0.42730457 -0.13575904
-0.028486969 0.39881754 -0.135759
-0.028486969 0.37033063 -0.13575891
-0.028486969 0.34184361 -0.13575898
-0.028486969 0.31335667 -0.13575903
-0.028487045 0.28487051 -0.13575518
-0.028487045 0.25638348 -0.13575512
-0.028487045 0.22789639 -0.13575518
-0.028487045 0.19940937 -0.13575514
-0.028487045 0.17092222 -0.13575515
-0.028487045 0.14243525 -0.13575515
-0.028487045 0.11394811 -0.13575517
-0.028487045 0.08546114 -0.13575517
-0.028487045 0.056974117 -0.13575512
-0.028487045 0.028487101 -0.13575509
-0.028487045 -0 -0.13575515
-0.028487045 -0.028486971 -0.13575515
-0.028487045 -0.056974042 -0.13575506
-0.028487045 -0.085461088 -0.13575517
-0.028487045 -0.11394816 -0.13575509
-0.028487045 -0.14243516 -0.13575521
-0.028487045 -0.17092226 -0.13575511
-0.028487045 -0.19940923 -0.13575518
-0.028487045 -0.22789639 -0.13575512
-0.028487045 -0.25638336 -0.13575518
-0.028487045 -0.28487033 -0.13575511
-0.028487045 -0.31335738 -0.13575512
-0.028487045 -0.34184444 -0.13575512
-0.028487045 -0.37033153 -0.13575512
-0.028487045 -0.39881855 -0.13575514
-0.028487045 -0.42730564 -0.13575514
-0.028487045 -0.45579267 -0.13575515
-0.028487045 -0.48427975 -0.13575515
-0.028487045 -0.51276666 -0.1357552
-0.028487045 -0.54125381 -0.13575514
-0.028487045 -0.56974077 -0.13575521
-0.028487045 -0.59822786 -0.13575509
-0.028487045 -0.62671489 -0.13575521
-0.028487045 -0.65520203 -0.13575512
-0.028487045 -0.683689 -0.13575515
-0.028487045 -0.71217597 -0.13575515
-0.028487045 -0.74066305 -0.13575518
-0.028487045 -0.76915014 -0.13575515
0 0.76330292 -0.14658359
0 0.73503244 -0.1465835
0 0.70676196 -0.14658356
0 0.67849147 -0.14658359
0 0.65022099 -0.14658354
0 0.62195045 -0.14658354
0 0.59367996 -0.1465836
0 0.56540954 -0.14658354
0 0.53713906 -0.14658359
0 0.50886858 -0.14658356
0 0.48059815 -0.1465835
0 0.45232883 -0.14657982
0 0.42405835 -0.1465797
0 0.3957867 -0.14658351
0 0.36751625 -0.14658357
0 0.3392466 -0.14657977
0 0.31097618 -0.14657974
0 0.28270558 -0.14657968
0 0.25443497 -0.14657983
0 0.22616443 -0.14657982
0 0.19789386 -0.14657982
0 0.16962339 -0.14657971
0 0.14135283 -0.14657971
0 0.11308224 -0.14657983
0 0.084811643 -0.1465798
0 0.056541082 -0.14657979
0 0.028270654 -0.14657974
0 9.6857548e-08 -0.14657973
0 -0.02827058 -0.14657979
0 -0.056541093 -0.14657982
0 -0.084811576 -0.14657973
0 -0.11308213 -0.1465798
0 -0.14135273 -0.14657968
0 -0.16962332 -0.14657971
0 -0.1978938 -0.1465798
0 -0.22616434 -0.1465798
0 -0.25443494 -0.14657965
0 -0.28270543 -0.14657974
0 -0.31097603 -0.14657979
0 -0.33924657 -0.14657977
0 -0.36751711 -0.14657979
0 -0.39578766 -0.14657973
0 -0.42405829 -0.1465798
0 -0.45232874 -0.14657971
0 -0.48059934 -0.14657976
0 -0.50886989 -0.14657976
0 -0.53714049 -0.14657974
0 -0.56541091 -0.14657982
0 -0.59368157 -0.14657976
0 -0.62195218 -0.14657976
0 -0.65022254 -0.14657977
0 -0.67849314 -0.1465798
0 -0.7067638 -0.14657974
0 -0.73503423 -0.1465798
0 -0.76330483 -0.1465798
0.028057251 0.78560305 -0.15724483
0.028057251 0.75754577 -0.1572448
0.028057251 0.72948861 -0.15724483
0.028057251 0.70143127 -0.15724489
0.028057251 0.67337406 -0.1572448
0.028057251 0.64531684 -0.15724476
0.028057251 0.6172595 -0.15724488
0.028057326 0.58920377 -0.15724115
0.028057326 0.5611465 -0.15724111
0.028057326 0.53308922 -0.15724105
0.028057326 0.50503188 -0.15724111
0.028057326 0.47697461 -0.15724106
0.028057326 0.44891721 -0.15724109
0.028057326 0.42085996 -0.15724105
0.028057326 0.3928026 -0.15724111
0.028057326 0.36474529 -0.15724105
0.028057326 0.33668795 -0.15724111
0.028057326 0.30863056 -0.15724112
0.028057326 0.28057328 -0.15724109
0.028057326 0.25251597 -0.15724102
0.028057326 0.22445863 -0.15724108
0.028057326 0.19640128 -0.15724115
0.028057326 0.16834396 -0.15724106
0.028057326 0.1402867 -0.15724105
0.028057326 0.11222936 -0.15724111
0.028057326 0.084171928 -0.15724108
0.028057326 0.056114703 -0.15724109
0.028057326 0.028057441 -0.15724106
0.028057326 -0 -0.15724105
0.028057326 -0.0280573 -0.15724114
0.028057326 -0.056114566 -0.15724111
0.028057326 -0.084172003 -0.15724109
0.028057326 -0.11222923 -0.15724111
0.028057326 -0.14028661 -0.15724112
0.028057326 -0.16834396 -0.15724109
0.028057326 -0.19640118 -0.15724111
0.028057326 -0.22445855 -0.15724108
0.028057326 -0.25251591 -0.15724111
0.028057326 -0.28057319 -0.15724117
0.028057326 -0.30863059 -0.157241
0.028057326 -0.33668786 -0.15724105
0.028057326 -0.36474511 -0.15724112
0.028057326 -0.3928026 -0.15724106
0.028057326 -0.42085987 -0.15724111
0.028057326 -0.44891706 -0.15724112
0.028057326 -0.47697455 -0.15724108
0.028057326 -0.50503176 -0.15724106
0.028057326 -0.53308916 -0.15724109
0.028057326 -0.5611465 -0.15724108
0.028057326 -0.58920377 -0.15724112
0.028057326 -0.61726117 -0.15724109
0.028057326 -0.64531851 -0.15724105
0.028057326 -0.67337573 -0.15724114
0.028057326 -0.70143306 -0.15724108
0.028057326 -0.7294904 -0.15724105
0.028057326 -0.75754768 -0.15724108
0.055694584 0.77972412 -0.16774282
0.055694584 0.75187689 -0.16774279
0.055694584 0.72402954 -0.16774288
