# .PCD v0.7 - Point Cloud Data file format
VERSION 0.7
FIELDS x y z
SIZE 4 4 4
TYPE F F F
COUNT 1 1 1
WIDTH 1371
HEIGHT 1
VIEWPOINT 0 0 0 1 0 0 0
POINTS 1371
DATA ascii
-0.36914152 0.59630555 -0.14033224
-0.3691425 0.56791157 -0.14032842
-0.3691425 0.53951603 -0.14032844
-0.3691425 0.51112044 -0.14032836
-0.3691425 0.48272479 -0.14032845
-0.3691425 0.45432928 -0.14032835
-0.3691425 0.42593372 -0.14032833
-0.36914352 0.39753923 -0.14032455
-0.36914352 0.36914355 -0.14032459
-0.36914352 0.34074786 -0.14032462
-0.36914352 0.31235224 -0.14032458
-0.36914352 0.28395656 -0.14032462
-0.36914352 0.25556096 -0.14032456
-0.3691445 0.22716585 -0.14032084
-0.3691445 0.19877018 -0.14032075
-0.3691445 0.17037432 -0.14032081
-0.3691445 0.14197868 -0.14032072
-0.3691445 0.11358295 -0.14032072
-0.3691445 0.085187212 -0.14032072
-0.36914548 0.056791667 -0.14031695
-0.36914548 0.028395843 -0.14031687
-0.36914548 2.9802322e-08 -0.14031696
-0.36914548 -0.028395742 -0.14031692
-0.36914548 -0.056791555 -0.14031702
-0.36914548 -0.085187376 -0.14031695
-0.3691465 -0.11358343 -0.14031319
-0.3691465 -0.14197943 -0.14031315
-0.3691465 -0.17037527 -0.1403131
-0.3691465 -0.19877118 -0.14031312
-0.3691465 -0.22716695 -0.14031316
-0.3691465 -0.2555629 -0.14031321
-0.36914748 -0.28395957 -0.14030936
-0.36914748 -0.31235558 -0.14030933
-0.36914748 -0.34075147 -0.14030936
-0.36914748 -0.36914751 -0.14030936
-0.36914748 -0.3975434 -0.14030935
-0.36914748 -0.42593935 -0.14030939
-0.36914846 -0.45433649 -0.14030558
-0.36914846 -0.48273262 -0.14030547
-0.36914846 -0.51112854 -0.14030556
-0.36914846 -0.53952467 -0.14030546
-0.36914846 -0.56792068 -0.14030556
-0.36914846 -0.59631681 -0.14030546
-0.36914948 -0.62471443 -0.14030169
-0.36914948 -0.6531105 -0.14030167
-0.36914948 -0.68150663 -0.14030164
-0.36914948 -0.70990276 -0.1403017
-0.36914948 -0.73829883 -0.14030173
-0.36914948 -0.76669502 -0.1403017
-0.36915046 -0.7950933 -0.14029786
-0.36915046 -0.82348943 -0.14029786
-0.36915046 -0.85188556 -0.14029795
-0.36915046 -0.88028187 -0.14029786
-0.37018189 -0.91121697 -0.13633075
-0.37409583 -0.94962776 -0.12127736
-0.37809336 -0.98885953 -0.10590202
-0.32674012 0.626252 -0.19869015
-0.32674012 0.59902358 -0.19869016
-0.32674012 0.57179523 -0.19869021
-0.32674012 0.54456687 -0.19869024
-0.32674012 0.51733851 -0.19869016
-0.32674098 0.49011153 -0.19868663
-0.32674098 0.462883 -0.19868666
-0.32674098 0.43565458 -0.19868669
-0.32674098 0.40842628 -0.1986866
-0.32674098 0.38119778 -0.19868663
-0.32674181 0.35397038 -0.19868311
-0.32674181 0.32674184 -0.19868314
-0.32674181 0.29951334 -0.19868308
-0.32674181 0.27228484 -0.19868313
-0.32674181 0.24505635 -0.19868323
-0.32674181 0.21782795 -0.19868305
-0.32674181 0.19059941 -0.19868311
-0.32674265 0.1633714 -0.19867966
-0.32674265 0.13614279 -0.19867963
-0.32674265 0.1089143 -0.19867954
-0.32674265 0.081685655 -0.19867966
-0.32674265 0.05445721 -0.19867963
-0.32674351 0.027228668 -0.19867603
-0.32674351 1.4901161e-08 -0.19867614
-0.32674351 -0.027228594 -0.19867611
-0.32674351 -0.054457247 -0.19867614
-0.32674351 -0.081685856 -0.19867611
-0.32674351 -0.10891447 -0.19867608
-0.32674435 -0.13614339 -0.19867258
-0.32674435 -0.16337211 -0.19867268
-0.32674435 -0.19060077 -0.19867261
-0.32674435 -0.21782956 -0.19867252
-0.32674435 -0.24505824 -0.19867267
-0.32674435 -0.27228689 -0.19867261
-0.32674518 -0.29951638 -0.19866908
-0.32674518 -0.32674509 -0.19866914
-0.32674518 -0.3539739 -0.19866917
-0.32674518 -0.3812027 -0.19866908
-0.32674518 -0.40843141 -0.19866912
-0.32674518 -0.43566024 -0.19866906
-0.32674602 -0.46289021 -0.1986656
-0.32674602 -0.49011892 -0.1986656
-0.32674602 -0.51734781 -0.1986656
-0.32674602 -0.54457664 -0.1986656
-0.32674602 -0.57180542 -0.19866568
-0.32674602 -0.59903431 -0.19866562
-0.32674685 -0.62626475 -0.19866219
-0.32674685 -0.6534937 -0.1986621
-0.32674685 -0.68072259 -0.19866213
-0.32674685 -0.70795143 -0.19866213
-0.32979643 -0.74204195 -0.18595549
-0.33316058 -0.77737463 -0.17193824
-0.33659318 -0.81343341 -0.15763575
-0.34009817 -0.85024536 -0.14303163
-0.34367689 -0.88783193 -0.12812033
-0.34733176 -0.92621791 -0.1128917
-0.35106519 -0.96542919 -0.097335696
-0.35487875 -1.0054897 -0.081445932
-0.28768679 0.60152692 -0.25244004
-0.28768679 0.57537371 -0.25244007
-0.28768679 0.54922032 -0.25244009
-0.28768679 0.523067 -0.25244001
-0.28768679 0.49691361 -0.25244004
-0.28768751 0.47076142 -0.25243682
-0.28768751 0.444608 -0.25243679
-0.28768751 0.41845462 -0.25243682
-0.28768751 0.39230117 -0.25243679
-0.28768751 0.36614779 -0.25243679
-0.28768751 0.33999443 -0.25243682
-0.28768751 0.31384096 -0.25243679
-0.28768826 0.28768826 -0.2524336
-0.28768826 0.26153478 -0.25243354
-0.28768826 0.23538134 -0.25243351
-0.28768826 0.20922782 -0.25243357
-0.28768826 0.1830744 -0.25243357
-0.28768894 0.1569213 -0.25243038
-0.28768894 0.13076782 -0.25243026
-0.28768894 0.10461424 -0.25243029
-0.28768894 0.078460701 -0.25243032
-0.28768894 0.052307129 -0.25243035
-0.28768894 0.02615355 -0.25243035
-0.28768894 1.4901161e-08 -0.25243038
-0.28768966 -0.02615352 -0.25242707
-0.28768966 -0.052307218 -0.25242713
-0.28768966 -0.07846079 -0.25242713
-0.28768966 -0.10461441 -0.2524271
-0.28768966 -0.13076803 -0.25242707
-0.28769037 -0.15692192 -0.25242379
-0.28769037 -0.18307564 -0.25242385
-0.28769037 -0.20922929 -0.25242379
-0.28769037 -0.235383 -0.25242385
-0.28769037 -0.26153672 -0.25242391
-0.28769037 -0.28769034 -0.25242388
-0.28769037 -0.31384397 -0.25242385
-0.28769109 -0.33999857 -0.2524206
-0.28769109 -0.36615226 -0.25242066
-0.28769109 -0.39230591 -0.25242066
-0.28769109 -0.41845971 -0.25242066
-0.28769109 -0.44461346 -0.2524206
-0.28769177 -0.4707683 -0.25241739
-0.28769177 -0.49692214 -0.25241742
-0.28769177 -0.523076 -0.25241733
-0.2893084 -0.55231595 -0.24506915
-0.29213136 -0.58426273 -0.23223749
-0.29500923 -0.61683738 -0.2191564
-0.29794508 -0.65006196 -0.20581156
-0.30093995 -0.68395442 -0.19219846
-0.30399564 -0.71853513 -0.17830893
-0.30711406 -0.75382543 -0.16413432
-0.31029627 -0.78984487 -0.14966983
-0.31354594 -0.82662112 -0.13489842
-0.31686443 -0.86417568 -0.11981446
-0.32025391 -0.90253371 -0.10440776
-0.32371667 -0.94172114 -0.088667989
-0.32725424 -0.98176265 -0.072588235
-0.25159949 0.57867885 -0.30210996
-0.25160006 0.55352032 -0.30210692
-0.25160006 0.52836019 -0.30210698
-0.25160006 0.50320011 -0.30210692
-0.25160006 0.47804016 -0.30210692
-0.25160006 0.45288017 -0.30210692
-0.25160068 0.42772117 -0.30210397
-0.25160068 0.40256107 -0.30210403
-0.25160068 0.37740105 -0.30210397
-0.25160068 0.35224101 -0.30210394
-0.25160068 0.32708088 -0.30210394
-0.25160068 0.30192089 -0.30210394
-0.25160068 0.27676079 -0.302104
-0.25160128 0.25160128 -0.30210096
-0.25160128 0.22644114 -0.30210096
-0.25160128 0.20128106 -0.30210102
-0.25160128 0.176121 -0.30210093
-0.25160128 0.15096083 -0.30210093
-0.25160187 0.12580094 -0.30209801
-0.25160187 0.10064074 -0.30209798
-0.25160187 0.075480595 -0.30209798
-0.25160187 0.050320372 -0.30209798
-0.25160187 0.025160208 -0.30209801
-0.25160187 1.0430813e-07 -0.30209798
-0.25160187 -0.025160089 -0.30209795
-0.2516025 -0.050320461 -0.30209491
-0.2516025 -0.075480692 -0.30209494
-0.2516025 -0.10064092 -0.30209503
-0.2516025 -0.12580121 -0.30209494
-0.2516025 -0.15096143 -0.30209494
-0.25160307 -0.17612219 -0.30209199
-0.25160307 -0.20128243 -0.30209199
-0.25160307 -0.22644274 -0.30209202
-0.25160307 -0.25160304 -0.30209199
-0.25160307 -0.27676344 -0.30209196
-0.25160307 -0.30192369 -0.3020919
-0.25160307 -0.32708392 -0.30209202
-0.25160369 -0.35224509 -0.30208901
-0.25216016 -0.37824017 -0.29930651
-0.25451821 -0.40722907 -0.2875163
-0.25692016 -0.43676421 -0.27550659
-0.25936851 -0.46686327 -0.26326483
-0.26186398 -0.49754143 -0.25078759
-0.26440787 -0.52881569 -0.23806791
-0.26700175 -0.56070364 -0.2250986
-0.26964632 -0.5932219 -0.21187581
-0.27234447 -0.62639236 -0.19838487
-0.27509719 -0.66023326 -0.18462132
-0.27790612 -0.69476521 -0.17057666
-0.28077227 -0.73000777 -0.15624598
-0.28369892 -0.76598704 -0.14161277
-0.28668723 -0.80272412 -0.12667134
-0.2897391 -0.84024334 -0.11141181
-0.29285672 -0.87857008 -0.095823854
-0.29604211 -0.91773051 -0.079896778
-0.29929674 -0.95774955 -0.063623697
-0.30262458 -0.99866104 -0.046984434
-0.21815379 0.55750412 -0.34814185
-0.21815379 0.53326482 -0.34814188
-0.21815428 0.50902671 -0.34813905
-0.21815428 0.48478734 -0.34813902
-0.21815428 0.46054792 -0.34813911
-0.21815428 0.43630859 -0.34813914
-0.21815428 0.41206929 -0.34813902
-0.21815428 0.38782987 -0.34813911
-0.21815477 0.36359137 -0.34813628
-0.21815477 0.33935195 -0.34813622
-0.21815477 0.31511244 -0.34813637
-0.21815477 0.29087308 -0.34813637
-0.21815477 0.26663366 -0.34813631
-0.21815477 0.24239425 -0.34813628
-0.21815529 0.21815535 -0.3481335
-0.21815529 0.1939159 -0.34813344
-0.21815529 0.16967633 -0.34813356
-0.21815529 0.14543691 -0.3481335
-0.21815529 0.12119739 -0.34813353
-0.21815529 0.096957967 -0.34813344
-0.21815579 0.07271865 -0.34813076
-0.21815579 0.04847911 -0.34813076
-0.21815579 0.024239585 -0.34813076
-0.21815579 -0 -0.34813073
-0.21815579 -0.02423954 -0.34813073
-0.21815579 -0.048478991 -0.34813073
-0.21815628 -0.072718725 -0.34812796
-0.21815628 -0.096958302 -0.34812793
-0.21815628 -0.12119792 -0.34812802
-0.21815628 -0.14543745 -0.34812802
-0.21815628 -0.16967708 -0.34812793
-0.21815628 -0.19391666 -0.34812793
-0.2181568 -0.21815671 -0.34812519
-0.21991155 -0.24434614 -0.33837646
-0.2219032 -0.27121493 -0.32731181
-0.2239318 -0.29857567 -0.31604186
-0.22599781 -0.32644123 -0.30456391
-0.2281023 -0.35482576 -0.29287231
-0.23024638 -0.38374391 -0.28096086
-0.23243056 -0.41320989 -0.26882648
-0.23465714 -0.44324118 -0.25645658
-0.23692681 -0.47385359 -0.24384725
-0.23924081 -0.50506389 -0.23099165
-0.24160047 -0.53688985 -0.21788256
-0.24400651 -0.56934845 -0.2045157
-0.24646159 -0.60246158 -0.19087638
-0.24896656 -0.63624781 -0.17695983
-0.25152299 -0.67072797 -0.1627574
-0.25413176 -0.70592153 -0.14826414
-0.25679594 -0.74185485 -0.13346326
-0.25951657 -0.77854961 -0.11834869
-0.26229545 -0.8160302 -0.10291046
-0.26513448 -0.8543222 -0.087137967
-0.26803491 -0.89344954 -0.071024626
-0.27100024 -0.93344522 -0.054550439
-0.27403194 -0.97433567 -0.037707716
-0.18706936 0.53782439 -0.39092389
-0.18706936 0.51444066 -0.39092401
-0.18706936 0.4910571 -0.39092395
-0.18706976 0.4676744 -0.39092138
-0.18706976 0.44429076 -0.39092141
-0.18706976 0.42090699 -0.39092135
-0.18706976 0.39752319 -0.39092144
-0.18706976 0.37413958 -0.39092135
-0.18706976 0.35075587 -0.39092135
-0.18707018 0.32737282 -0.39091876
-0.18707018 0.30398902 -0.39091885
-0.18707018 0.28060529 -0.39091879
-0.18707018 0.25722152 -0.39091873
-0.18707018 0.2338378 -0.39091873
-0.18707018 0.21045399 -0.39091879
-0.18707058 0.18707058 -0.39091623
-0.18707058 0.16368683 -0.39091617
-0.18707058 0.14030302 -0.39091617
-0.18707058 0.11691914 -0.39091617
-0.18707058 0.093535364 -0.39091617
-0.18707058 0.070151493 -0.39091617
-0.18707101 0.046767756 -0.39091367
-0.18707101 0.023383871 -0.39091367
-0.18707101 7.4505806e-08 -0.39091355
-0.18707101 -0.023383841 -0.39091361
-0.18707101 -0.046767712 -0.39091361
-0.18707101 -0.070151597 -0.39091361
-0.18796475 -0.093982354 -0.38532767
-0.18960109 -0.11850061 -0.37510055
-0.1912666 -0.14344987 -0.36469111
-0.19296163 -0.16884136 -0.35409722
-0.19468696 -0.19468698 -0.34331375
-0.19644299 -0.22099836 -0.33233869
-0.19823143 -0.24778925 -0.32116088
-0.20005274 -0.27507246 -0.30977777
-0.20190781 -0.30286169 -0.29818344
-0.20379764 -0.3311711 -0.28637213
-0.20572266 -0.36001462 -0.27434072
-0.20768492 -0.38940921 -0.26207659
-0.20968495 -0.41936994 -0.24957633
-0.21172391 -0.44991332 -0.23683296
-0.21380289 -0.48105639 -0.22383942
-0.21592253 -0.51281595 -0.21059151
-0.21808523 -0.54521298 -0.1970748
-0.22029164 -0.57826549 -0.18328454
-0.22254318 -0.61199367 -0.16921245
-0.22484122 -0.64641845 -0.15484971
-0.22718659 -0.6815598 -0.14019099
-0.22958207 -0.71744382 -0.12521949
-0.23202856 -0.75409281 -0.10992885
-0.23452778 -0.79153115 -0.094308764
-0.23708141 -0.82978487 -0.078348607
-0.23969059 -0.86887836 -0.062041193
-0.24235854 -0.90884441 -0.045366615
-0.24508652 -0.94971013 -0.028316647
-0.24787663 -0.99150652 -0.010878295
-0.15810463 0.51948673 -0.43078858
-0.15810463 0.49690026 -0.43078858
-0.15810463 0.47431388 -0.43078864
-0.15810463 0.45172748 -0.43078867
-0.15810496 0.42914215 -0.43078616
-0.15810496 0.40655568 -0.43078613
-0.15810496 0.38396922 -0.43078613
-0.15810496 0.36138287 -0.43078619
-0.15810496 0.33879632 -0.43078628
-0.15810496 0.31620988 -0.43078625
-0.1581053 0.29362407 -0.43078384
-0.1581053 0.27103761 -0.43078381
-0.1581053 0.24845123 -0.43078387
-0.1581053 0.22586477 -0.43078381
-0.1581053 0.20327833 -0.43078375
-0.1581053 0.18069179 -0.43078387
-0.15810564 0.15810566 -0.43078136
-0.15810564 0.1355191 -0.43078139
-0.15810564 0.11293262 -0.43078139
-0.15810564 0.090346083 -0.43078145
-0.15810564 0.067759603 -0.43078139
-0.15838252 0.045252204 -0.42880362
-0.15970987 0.022815764 -0.41932255
-0.16106001 2.9802322e-08 -0.4096787
-0.16243316 -0.023204744 -0.39987046
-0.16382994 -0.046808496 -0.38989347
-0.16525096 -0.070821881 -0.3797434
-0.16669644 -0.095255077 -0.36941847
-0.16816784 -0.12011983 -0.3589085
-0.16966544 -0.14542744 -0.34821138
-0.17118995 -0.17118993 -0.33732194
-0.17274171 -0.19741908 -0.32623804
-0.17432225 -0.22412857 -0.31494844
-0.17593201 -0.25133142 -0.30345023
-0.17757174 -0.27904123 -0.29173774
-0.17924236 -0.30727255 -0.27980489
-0.18094425 -0.33603925 -0.26764852
-0.18267922 -0.36535841 -0.25525576
-0.1844478 -0.39524525 -0.24262315
-0.18625094 -0.4257164 -0.22974354
-0.18808968 -0.4567892 -0.2166097
-0.18996461 -0.48848039 -0.2032173
-0.19187778 -0.52081108 -0.18955174
-0.19382989 -0.55379969 -0.1756081
-0.19582213 -0.58746636 -0.1613778
-0.19785576 -0.62183237 -0.14685193
-0.1999315 -0.65691781 -0.13202509
-0.20205183 -0.69274914 -0.11687985
-0.20421761 -0.7293486 -0.10141003
-0.20643033 -0.76674128 -0.085604876
-0.20869154 -0.80495298 -0.069453597
-0.2110022 -0.84400874 -0.052948743
-0.21336524 -0.88394159 -0.036069959
-0.21578179 -0.924779 -0.018808901
-0.21825372 -0.96655214 -0.0011522174
-0.22078295 -1.0092934 0.016913652
-0.13104995 0.50235814 -0.46802449
-0.13104995 0.4805164 -0.46802455
-0.13104995 0.45867482 -0.46802449
-0.13104995 0.43683314 -0.46802455
-0.13104995 0.41499153 -0.46802449
-0.13104995 0.39314982 -0.46802449
-0.13105021 0.37130895 -0.46802226
-0.13105021 0.34946722 -0.46802229
-0.13105021 0.32762548 -0.46802229
-0.13105021 0.30578393 -0.46802223
-0.13105021 0.28394213 -0.4680222
-0.13105021 0.26210046 -0.46802223
-0.13105048 0.2402593 -0.4680199
-0.13105048 0.21841748 -0.46802002
-0.13105048 0.19657579 -0.46801996
-0.13105048 0.17473401 -0.46801996
-0.13196935 0.15396427 -0.46036276
-0.13304453 0.1330445 -0.45140308
-0.13413735 0.11178109 -0.44229615
-0.13524827 0.090165541 -0.43303835
-0.13637747 0.068188772 -0.42362845
-0.13752598 0.045842066 -0.41405749
-0.13869399 0.02311568 -0.40432408
-0.13988201 2.9802322e-08 -0.39442393
-0.14109056 -0.023515016 -0.38435262
-0.14231986 -0.047439963 -0.37410849
-0.14357109 -0.07178551 -0.36368164
-0.14484453 -0.096562974 -0.35306963
-0.14614074 -0.12178387 -0.34226775
-0.14746037 -0.1474604 -0.33127087
-0.14880371 -0.17360428 -0.32007638
-0.1501721 -0.20022942 -0.30867323
-0.15156588 -0.22734882 -0.29705831
-0.15298578 -0.25497624 -0.28522584
-0.15443254 -0.28312626 -0.27316955
-0.15590654 -0.311813 -0.26088625
-0.15740934 -0.34105358 -0.24836288
-0.15894139 -0.37086323 -0.23559581
-0.16050355 -0.40125886 -0.22257771
-0.16209672 -0.43225795 -0.20930119
-0.16372144 -0.46387738 -0.19576208
-0.16537946 -0.49613833 -0.18194516
-0.16707142 -0.52905947 -0.16784552
-0.16879836 -0.56266117 -0.15345438
-0.17056091 -0.59696317 -0.13876647
-0.17236112 -0.63199079 -0.12376463
-0.17419975 -0.66776562 -0.10844284
-0.17607802 -0.70431197 -0.092790604
-0.17799723 -0.74165499 -0.076797128
-0.17995824 -0.77981895 -0.060455382
-0.18196344 -0.8188355 -0.04374522
-0.18401386 -0.85873139 -0.026658475
-0.186111 -0.89953643 -0.0091823637
-0.1882565 -0.94128239 0.0086967647
-0.19045147 -0.98399913 0.026988208
-0.1057222 0.48632219 -0.50288528
-0.10572241 0.46517861 -0.5028832
-0.10572241 0.44403416 -0.5028832
-0.10572241 0.42288971 -0.5028832
-0.10572241 0.4017452 -0.5028832
-0.10572241 0.38060075 -0.5028832
-0.10572241 0.35945624 -0.5028832
-0.10572262 0.33831239 -0.50288105
-0.10572262 0.31716788 -0.50288105
-0.10572262 0.2960234 -0.50288111
-0.10615547 0.2760042 -0.49855262
-0.10699006 0.25677615 -0.49020672
-0.10783787 0.23724337 -0.48172864
-0.10869924 0.21739851 -0.47311494
-0.10957447 0.19723411 -0.46436268
-0.11046368 0.17674188 -0.45547062
-0.11136767 0.15591478 -0.44643062
-0.11228658 0.13474393 -0.43724155
-0.11322078 0.1132208 -0.42789951
-0.11417042 0.091336399 -0.41840315
-0.11513636 0.069081873 -0.40874368
-0.1161188 0.04644753 -0.39891943
-0.11711814 0.023423672 -0.38892603
-0.11813482 5.9604645e-08 -0.37875906
-0.11916906 -0.023833767 -0.36841679
-0.12022182 -0.048088729 -0.35788918
-0.12129336 -0.07277602 -0.34717375
-0.12238418 -0.097907342 -0.33626562
-0.12349478 -0.12349473 -0.32515958
-0.12462544 -0.14955053 -0.31385303
-0.12577729 -0.17608817 -0.30233452
-0.12695062 -0.20312095 -0.29060113
-0.12814607 -0.23066288 -0.27864668
-0.12936422 -0.25872841 -0.26646513
-0.13060544 -0.28733191 -0.25405282
-0.13187104 -0.31649044 -0.24139678
-0.13316143 -0.34621969 -0.22849306
-0.1344773 -0.37653631 -0.21533436
-0.13581945 -0.40745825 -0.20191297
-0.13718829 -0.43900251 -0.18822446
-0.13858536 -0.47119021 -0.17425369
-0.14001119 -0.5040403 -0.15999539
-0.14146668 -0.53757328 -0.1454407
-0.14295232 -0.57180929 -0.13058414
-0.14446992 -0.60677361 -0.11540806
-0.14602008 -0.6424883 -0.099906534
-0.14760387 -0.67897773 -0.084068596
-0.14922239 -0.71626747 -0.067883372
-0.15087637 -0.75438184 -0.05134356
-0.15256786 -0.79335296 -0.034428567
-0.15429772 -0.83320761 -0.017130166
-0.15606727 -0.87397659 0.00056520104
-0.15787785 -0.91569144 0.018671036
-0.15973046 -0.95838267 0.037197202
-0.16162755 -1.0020908 0.056168199
-0.081961595 0.4712792 -0.53558743
-0.081961595 0.45078874 -0.53558743
-0.081961751 0.43029928 -0.5355854
-0.081961751 0.40980881 -0.53558546
-0.082074255 0.38985273 -0.53417921
-0.082697697 0.37213969 -0.52638608
-0.083330691 0.35415551 -0.51847368
-0.083973438 0.33589372 -0.5104394
-0.084626019 0.31734759 -0.50228208
-0.085288979 0.29851148 -0.49399501
-0.08596243 0.27937794 -0.48557705
-0.086646587 0.25993979 -0.47702503
-0.087341718 0.24018976 -0.46833584
-0.088047914 0.22011985 -0.45950836
-0.088765807 0.19972315 -0.4505347
-0.08949551 0.17899102 -0.44141346
-0.090237305 0.15791534 -0.43214089
-0.090991504 0.13648729 -0.42271358
-0.091758214 0.11469781 -0.41312969
-0.092538156 0.092538208 -0.40338039
-0.093331471 0.069998637 -0.39346397
-0.094138503 0.047069296 -0.38337606
-0.094959617 0.023739874 -0.37311214
-0.095794961 5.9604645e-08 -0.3626703
-0.096645363 -0.024161384 -0.35204032
-0.097510993 -0.048755437 -0.34122002
-0.098392263 -0.073794156 -0.33020407
-0.099289611 -0.099289611 -0.31898713
-0.10020325 -0.12525399 -0.30756682
-0.10113408 -0.15170109 -0.29593131
-0.10208239 -0.17864412 -0.28407753
-0.10304864 -0.20609725 -0.27199939
-0.1040331 -0.23407434 -0.25969362
-0.10503682 -0.26259196 -0.24714714
-0.10606008 -0.29166517 -0.23435627
-0.10710349 -0.32131043 -0.22131377
-0.10816762 -0.35154468 -0.208012
-0.10925283 -0.38238487 -0.19444692
-0.11036033 -0.4138512 -0.18060318
-0.11149052 -0.44596201 -0.16647591
-0.11264408 -0.47873726 -0.15205629
-0.11382177 -0.51219797 -0.13733512
-0.11502403 -0.54636407 -0.12230691
-0.11625229 -0.5812614 -0.10695381
-0.11750705 -0.61691195 -0.091269225
-0.11878919 -0.65334058 -0.07524237
-0.12009963 -0.69057286 -0.058861941
-0.12143896 -0.72863364 -0.042120427
-0.12280884 -0.76755524 -0.024996787
-0.12420999 -0.80736494 -0.0074824989
-0.12564346 -0.84809351 0.010436088
-0.12711044 -0.88977301 0.02877304
-0.12861165 -0.93243444 0.04753831
-0.13014917 -0.97611868 0.066757292
-0.060889304 0.44652161 -0.54528558
-0.061346784 0.42942756 -0.53766096
-0.061811067 0.41207382 -0.52992296
-0.062282551 0.39445621 -0.52206486
-0.062761284 0.37656775 -0.51408595
-0.063247435 0.35840216 -0.50598347
-0.063741051 0.33995229 -0.49775663
-0.064242557 0.3212128 -0.48939818
-0.064752012 0.30217612 -0.48090702
-0.065269627 0.28283507 -0.47228035
-0.065795571 0.26318234 -0.46351445
-0.066329926 0.24320972 -0.45460856
-0.06687317 0.22291063 -0.44555449
-0.067425385 0.20227619 -0.43635091
-0.067986801 0.18129817 -0.42699394
-0.06855765 0.15996787 -0.4174799
-0.069138005 0.13827609 -0.4078072
-0.069728427 0.1162141 -0.3979668
-0.070329018 0.093772054 -0.38795698
-0.070940048 0.070940062 -0.37777317
-0.071561791 0.04770793 -0.36741084
-0.07219436 0.024064809 -0.35686806
-0.072838373 1.4901161e-08 -0.34613436
-0.073493995 -0.024497956 -0.33520755
-0.074161515 -0.049440995 -0.32408208
-0.074841276 -0.074841216 -0.31275275
-0.075533435 -0.10071129 -0.30121684
-0.076238692 -0.12706453 -0.28946251
-0.076957248 -0.15391445 -0.27748656
-0.077689476 -0.18127541 -0.26528266
-0.078435577 -0.20916145 -0.2528477
-0.079196356 -0.23758902 -0.24016821
-0.079972029 -0.26657337 -0.22724023
-0.080763042 -0.29613113 -0.21405658
-0.081569873 -0.32627946 -0.20060956
-0.08239276 -0.35703516 -0.18689471
-0.083232641 -0.388419 -0.17289662
-0.084089823 -0.42044902 -0.15861037
-0.084964842 -0.45314577 -0.14402664
-0.085858263 -0.4865301 -0.12913631
-0.086770438 -0.52062261 -0.11393335
-0.087702446 -0.55544883 -0.098399907
-0.088654689 -0.59103119 -0.082529157
-0.08962784 -0.62739491 -0.066309899
-0.090622596 -0.66456556 -0.049730748
-0.091639414 -0.70256883 -0.032783777
-0.092679575 -0.7414366 -0.015447766
-0.093743622 -0.78119683 0.0022863746
-0.094832391 -0.8218807 0.020432502
-0.095946744 -0.86352068 0.039005041
-0.097087301 -0.90614802 0.058014244
-0.098255605 -0.94980407 0.077485949
-0.099452369 -0.99452358 0.097432017
-0.04106687 0.45173559 -0.5334357
-0.041379042 0.43448004 -0.52563125
-0.041696001 0.41696006 -0.51770735
-0.042017855 0.39916962 -0.50966108
-0.042344712 0.38110244 -0.50148952
-0.042676609 0.36275122 -0.49319208
-0.043013837 0.34411073 -0.48476142
-0.043356437 0.32517329 -0.47619641
-0.043704543 0.30593181 -0.46749389
-0.044058278 0.2863788 -0.45865035
-0.044417694 0.2665062 -0.44966501
-0.044783119 0.24630722 -0.44052935
-0.045154605 0.22577304 -0.43124223
-0.045532309 0.20489541 -0.4217996
-0.045916382 0.18366554 -0.41219786
-0.04630689 0.16207416 -0.40243512
-0.046704199 0.14011264 -0.39250243
-0.047108382 0.117771 -0.3823978
-0.047519624 0.095039263 -0.37211674
-0.047938004 0.071907043 -0.36165732
-0.048363924 0.048363939 -0.35100931
-0.048797481 0.024398759 -0.34017038
-0.049238879 2.9802322e-08 -0.32913539
-0.049688339 -0.02484417 -0.3178989
-0.050145954 -0.050145879 -0.30645835
-0.050612211 -0.075918324 -0.29480216
-0.051087212 -0.10217445 -0.28292716
-0.051571209 -0.12892799 -0.27082711
-0.052064467 -0.15619336 -0.25849563
-0.052567124 -0.18398495 -0.24592921
-0.053079713 -0.2123189 -0.23311448
-0.053602397 -0.24121076 -0.22004737
-0.054135479 -0.27067742 -0.20672032
-0.054679271 -0.30073595 -0.19312565
-0.055233952 -0.3314037 -0.17925854
-0.055800147 -0.36270091 -0.16510363
-0.056378078 -0.39464647 -0.15065548
-0.0569681 -0.42726067 -0.13590486
-0.057570606 -0.46056485 -0.12084223
-0.058185823 -0.49457937 -0.10546172
-0.058814507 -0.52933055 -0.089744747
-0.059456918 -0.56484067 -0.073684409
-0.060113519 -0.60113513 -0.057269394
-0.060784612 -0.63823837 -0.040492177
-0.06147103 -0.6761812 -0.023331672
-0.062173136 -0.71499097 -0.0057790875
-0.062891461 -0.75469744 0.012179047
-0.063626572 -0.79533213 0.030557007
-0.064378887 -0.83692563 0.049364835
-0.065149404 -0.87951672 0.068627596
-0.065938585 -0.92314005 0.08835718
-0.066747114 -0.96783322 0.10857064
-0.020776033 0.45707273 -0.52130568
-0.020935845 0.43965274 -0.51331514
-0.021098135 0.42196274 -0.50520062
-0.021262961 0.4039962 -0.49695939
-0.021430383 0.38574684 -0.48858833
-0.021600461 0.36720788 -0.48008433
-0.02177326 0.34837222 -0.47144434
-0.021948846 0.32923269 -0.46266496
-0.022127243 0.3097814 -0.45374525
-0.022308609 0.29001191 -0.44467694
-0.022492973 0.26991567 -0.43545878
-0.022680409 0.24948454 -0.4260869
-0.022870995 0.22871004 -0.41655749
-0.023064813 0.20758334 -0.40686667
-0.023261892 0.18609515 -0.39701277
-0.02346242 0.16423696 -0.38698632
-0.023666434 0.14199865 -0.37678561
-0.02387403 0.11937013 -0.3664059
-0.024085244 0.096341014 -0.35584521
-0.024300283 0.072900847 -0.34509325
-0.024519198 0.049038425 -0.33414742
-0.024742093 0.024742097 -0.3230027
-0.024969077 7.4505806e-08 -0.31165355
-0.025200203 -0.025200173 -0.30009714
-0.025435712 -0.050871424 -0.28832173
-0.025675662 -0.077026986 -0.27632424
-0.025920182 -0.10368064 -0.26409814
-0.026169406 -0.13084705 -0.25163698
-0.026423404 -0.15854035 -0.23893714
-0.026682448 -0.18677703 -0.22598504
-0.026946617 -0.21557285 -0.21277651
-0.027216073 -0.24494459 -0.19930372
-0.027490899 -0.27490899 -0.18556231
-0.027771408 -0.3054854 -0.17153698
-0.028057698 -0.33669239 -0.15722242
-0.028349951 -0.36854923 -0.14260978
-0.02864836 -0.401077 -0.12768942
-0.028953115 -0.43429661 -0.11245163
-0.029264342 -0.46822953 -0.096890181
-0.029582419 -0.50290102 -0.080986515
-0.029907484 -0.53833467 -0.064733207
-0.03023977 -0.57455564 -0.04811877
-0.030579438 -0.61158872 -0.03113544
-0.030926913 -0.64946508 -0.013761729
-0.031282376 -0.6882121 0.004011333
-0.031646103 -0.72786027 0.022197813
-0.03201839 -0.76844132 0.040812045
-0.032399438 -0.80998594 0.05986467
-0.032789771 -0.85253394 0.079381138
-0.033189621 -0.89611959 0.099373549
-0.033599343 -0.94078159 0.11985976
-0.03401931 -0.98655981 0.14085799
0 0.44495022 -0.5007022
0 0.42708686 -0.49239022
0 0.40894112 -0.48394668
0 0.39050671 -0.47536647
0 0.37177533 -0.46665055
0 0.35274053 -0.45779333
0 0.33339408 -0.44879389
0 0.31372979 -0.43964392
0 0.29373908 -0.4303419
0 0.2734136 -0.42088422
0 0.25274491 -0.41126692
0 0.2317238 -0.40148836
0 0.21034227 -0.39153928
0 0.18859032 -0.38141793
0 0.16645834 -0.37111968
0 0.14393613 -0.36063987
0 0.1210131 -0.34997648
0 0.097679138 -0.33911893
0 0.073922589 -0.32806486
0 0.049731985 -0.3168087
0 0.025095284 -0.30534506
0 7.4505806e-08 -0.29367107
0 -0.0255666 -0.2817747
0 -0.051618166 -0.26965266
0 -0.078168496 -0.25729865
0 -0.10523214 -0.24470575
0 -0.13282365 -0.23187031
0 -0.16095938 -0.21877858
0 -0.18965532 -0.20542628
0 -0.21892831 -0.19180526
0 -0.24879524 -0.17791131
0 -0.27927569 -0.16372859
0 -0.31038818 -0.14925176
0 -0.34215251 -0.13447165
0 -0.37458944 -0.11937857
0 -0.40771937 -0.10396655
0 -0.44156706 -0.08821708
0 -0.47615483 -0.07212314
0 -0.51150751 -0.055673435
0 -0.54765046 -0.038856
0 -0.58460891 -0.021662772
0 -0.62241411 -0.0040718913
0 -0.66109395 0.013926059
0 -0.70067894 0.032345057
0 -0.7412014 0.051200211
0 -0.78269255 0.070502281
0 -0.82519245 0.090277642
0 -0.86873579 0.11053839
0 -0.91336137 0.1313028
0 -0.95911038 0.15258986
0 -1.0060222 0.17441395
0.021446515 0.45037681 -0.48778155
0.021616852 0.43233705 -0.47926477
0.021789914 0.41400841 -0.4706116
0.021965817 0.39538476 -0.46181649
0.022144536 0.37645715 -0.4528805
0.022326188 0.35721898 -0.44379798
0.022510843 0.33766264 -0.43456525
0.022698579 0.31778014 -0.42517841
0.022889473 0.2975632 -0.41563377
0.023083603 0.27700335 -0.40592709
0.023281006 0.25609112 -0.39605704
0.023481864 0.2348187 -0.38601407
0.023686219 0.21317598 -0.37579644
0.023894163 0.19115335 -0.36539924
0.024105789 0.16874062 -0.35481784
0.024321143 0.14592689 -0.34405023
0.024540434 0.1227022 -0.33308566
0.024763716 0.09905491 -0.32192147
0.024991101 0.074973382 -0.3105523
0.025222637 0.050445288 -0.29897547
0.025458565 0.025458589 -0.28717905
0.025698951 8.9406967e-08 -0.27515981
0.025943918 -0.025943913 -0.2629115
0.0261936 -0.052387156 -0.25042737
0.026448134 -0.079344355 -0.23770055
0.026707597 -0.10683037 -0.22472745
0.026972268 -0.13486126 -0.21149388
0.027242241 -0.16345336 -0.19799531
0.027517671 -0.1926237 -0.18422376
0.027798655 -0.22238919 -0.17017464
0.028085509 -0.25276953 -0.1558319
0.028378345 -0.28378335 -0.14119001
0.028677354 -0.31545085 -0.12623963
0.028982731 -0.34779266 -0.11097077
0.029294601 -0.38082972 -0.09537743
0.029613338 -0.41458669 -0.079440519
0.029939087 -0.44908622 -0.063153088
0.030272081 -0.48435321 -0.046503291
0.030612566 -0.52041358 -0.029479027
0.030960709 -0.5572927 -0.012071937
0.031316951 -0.59502202 0.0057402253
0.031681485 -0.63362968 0.023967117
0.032054611 -0.67314684 0.042623311
0.032436531 -0.71360362 0.061719149
0.032827761 -0.75503844 0.081280738
0.033228543 -0.79748493 0.10131982
0.033639234 -0.84098089 0.12185442
0.034060203 -0.88556522 0.14290276
0.034491844 -0.93127966 0.16448474
0.034934446 -0.97816443 0.18661496
0.043422617 0.45593756 -0.4745419
0.043771788 0.43771783 -0.46581268
0.044126712 0.41920376 -0.45693958
0.044487342 0.40038615 -0.44792372
0.044853918 0.38125831 -0.43875939
0.045226585 0.36181268 -0.4294427
0.045605499 0.34204125 -0.41997001
0.04599081 0.32193574 -0.410337
0.046382695 0.30148757 -0.40053993
0.046781309 0.2806879 -0.39057457
0.047186837 0.25952762 -0.38043645
0.047599457 0.23799732 -0.37012094
0.048019353 0.21608718 -0.35962346
0.048446618 0.19378649 -0.34894192
0.048881665 0.17108583 -0.33806577
0.049324598 0.14797379 -0.32699245
0.049775627 0.12443911 -0.31571662
0.050234988 0.10046999 -0.30423272
0.050702777 0.076054201 -0.29253787
0.051179487 0.051179573 -0.28062013
0.051665246 0.025832705 -0.26847616
0.052160315 5.9604645e-08 -0.25609949
0.052664969 -0.026332498 -0.24348325
0.053179339 -0.053179316 -0.23062387
0.053704001 -0.080555946 -0.21750748
0.054239109 -0.1084782 -0.20412956
0.054784998 -0.13696249 -0.19048241
0.055341978 -0.1660258 -0.17655781
0.055910259 -0.19568582 -0.16235085
0.056490481 -0.22596186 -0.1478453
0.057082873 -0.25687289 -0.13303554
0.057687819 -0.28843907 -0.11791187
0.058305725 -0.32068145 -0.10246429
0.058936842 -0.35362101 -0.086686224
0.059581947 -0.38728261 -0.070558652
0.060241327 -0.42168927 -0.054074153
0.060915463 -0.45686597 -0.037220687
0.061604686 -0.49283749 -0.01999031
0.062309861 -0.52963376 -0.0023608506
0.063031368 -0.56728226 0.015676826
0.063769773 -0.60581279 0.0341371
0.064525694 -0.64525694 0.053035051
0.065299548 -0.68564522 0.072381288
0.066092394 -0.72701627 0.092202485
0.066904731 -0.76940435 0.11251086
0.067737281 -0.81284726 0.13332465
0.068590812 -0.85738516 0.15466303
0.069465905 -0.90305674 0.17654017
0.070363842 -0.94991183 0.19898883
0.071285307 -0.99799424 0.22202531
0.065948166 0.4616372 -0.46097118
0.066485152 0.44323438 -0.45202148
0.067031093 0.42453033 -0.44292241
0.067585938 0.40551564 -0.43367511
0.068150043 0.38618356 -0.42427334
0.068723634 0.36652613 -0.41471344
0.069306977 0.34653485 -0.40499115
0.069900297 0.32620138 -0.39510241
0.070503868 0.30551684 -0.38504288
0.071117952 0.28447181 -0.37480819
0.071742989 0.26305765 -0.36439085
0.072378948 0.24126323 -0.35379153
0.073026106 0.21907836 -0.34300557
0.073685117 0.19649369 -0.33202195
0.074356139 0.17349768 -0.32083842
0.075039491 0.15007907 -0.30944926
0.075735517 0.12622589 -0.29784885
0.076444387 0.10192589 -0.28603429
0.07716684 0.07716693 -0.27399325
0.077903084 0.051935442 -0.26172256
0.078653514 0.026217878 -0.24921547
0.079418533 -1.4901161e-08 -0.23646513
0.080198385 -0.02673275 -0.22346762
0.080993913 -0.053995922 -0.21020877
0.081805378 -0.081805348 -0.19668441
0.082633264 -0.11017761 -0.18288624
0.083477862 -0.13912974 -0.16880961
0.084340133 -0.16868025 -0.15443851
0.085220397 -0.19884753 -0.1397675
0.086119227 -0.22965126 -0.12478681
0.087037221 -0.26111165 -0.10948691
0.087974757 -0.29324913 -0.093861386
0.088932961 -0.32608747 -0.077891335
0.089912258 -0.35964906 -0.061569586
0.09091337 -0.39395785 -0.044884458
0.091937028 -0.42903954 -0.027823538
0.09298373 -0.46491855 -0.010378554
0.094054811 -0.50162566 0.0074727982
0.095150858 -0.53918821 0.025740325
0.096272752 -0.57763636 0.044438541
0.097421423 -0.61700225 0.063582867
0.098597519 -0.6573168 0.0831846
0.099802673 -0.69861865 0.10327053
0.10103766 -0.74094272 0.12385362
0.10230359 -0.78432751 0.14495251
0.10360165 -0.82881308 0.16658673
0.10493272 -0.87443924 0.18877119
0.10629879 -0.92125618 0.21153918
0.10770091 -0.96930802 0.23490775
0.08977852 0.44889256 -0.43787587
0.090525031 0.42999396 -0.42854437
0.091284066 0.41077834 -0.41905648
0.092055932 0.39123774 -0.40940818
0.09284097 0.37136388 -0.39959526
0.093639508 0.35114816 -0.38961351
0.094451897 0.33058167 -0.37945855
0.095278516 0.30965525 -0.3691259
0.09611994 0.28835991 -0.35860798
0.096976146 0.26668447 -0.34790558
0.09784773 0.2446194 -0.33701068
0.098735139 0.22215408 -0.3259182
0.099638782 0.19927764 -0.31462252
0.10055911 0.17597839 -0.30311847
0.10149661 0.15224496 -0.29139972
0.10245151 0.12806441 -0.2794635
0.10342479 0.10342481 -0.26729745
0.10441674 0.078312568 -0.25489807
0.10542791 0.052713931 -0.2422585
0.10645886 0.026614726 -0.22937173
0.10750988 2.9802322e-08 -0.21623383
0.10858215 -0.02714552 -0.20283046
0.10967603 -0.054838002 -0.18915704
0.11079216 -0.083094068 -0.17520525
0.11193095 -0.11193094 -0.16097039
0.1130937 -0.14136715 -0.14643601
0.11428086 -0.17142124 -0.13159655
0.11549321 -0.20211309 -0.11644223
0.11673155 -0.23346311 -0.10096296
0.11799642 -0.26549181 -0.085152209
0.11928932 -0.29822326 -0.068990931
0.12061088 -0.33167985 -0.052471429
0.12196203 -0.36588609 -0.035581872
0.12334382 -0.40086731 -0.018309623
0.1247569 -0.43664911 -0.00064609945
0.1262031 -0.47326159 0.017431468
0.12768325 -0.51073283 0.035933107
0.12919851 -0.5490936 0.054873914
0.13075016 -0.58837575 0.074269667
0.13233913 -0.62861091 0.094131827
0.13396764 -0.66983807 0.11448804
0.13563669 -0.71209252 0.1353513
0.13734788 -0.75541317 0.15674111
0.13910279 -0.79984105 0.17867744
0.14090265 -0.84541589 0.20117584
0.14275019 -0.89218843 0.22426993
0.14464681 -0.94020426 0.24797779
0.14659452 -0.98951292 0.27232409
0.11367404 0.45469627 -0.42336679
0.11463158 0.43560004 -0.41379157
0.11560538 0.41617939 -0.40405354
0.11659587 0.39642596 -0.39414871
0.11760347 0.37633115 -0.3840726
0.11862864 0.35588598 -0.3738209
0.11967184 0.33508116 -0.36338896
0.12073356 0.3139073 -0.35277182
0.12181456 0.29235494 -0.3419618
0.12291481 0.27041265 -0.33095932
0.12403511 0.24807021 -0.31975633
0.12517601 0.22531687 -0.30834714
0.12633812 0.20214103 -0.29672611
0.12752199 0.1785308 -0.2848874
0.12872827 0.15447402 -0.27282465
0.12995757 0.12995762 -0.26053154
0.1312106 0.10496846 -0.24800141
0.13248801 0.079492852 -0.23522711
0.13379021 0.053516105 -0.22220524
0.1351186 0.027023733 -0.20892128
0.13647364 5.9604645e-08 -0.195371
0.13785613 -0.027571172 -0.181546
0.13926692 -0.055706706 -0.16743818
0.14070649 -0.084423833 -0.15304236
0.14217654 -0.11374117 -0.13834202
0.14367762 -0.1436775 -0.12333123
0.14521073 -0.17425281 -0.10800004
0.14677691 -0.20548758 -0.092338137
0.14837684 -0.23740289 -0.076339014
0.15001245 -0.27002245 -0.059982784
0.15168452 -0.30336905 -0.04326205
0.1533943 -0.33746743 -0.026164427
0.15514305 -0.3723433 -0.0086768568
0.15693167 -0.40802234 0.0092093945
0.15876248 -0.44453499 0.027517498
0.16063653 -0.48190951 0.046257898
0.16255534 -0.52017713 0.065446079
0.16452004 -0.55936801 0.085092977
0.16653334 -0.59951985 0.10522595
0.16859651 -0.64066672 0.12585776
0.17071144 -0.68284565 0.14700708
0.17288013 -0.72609651 0.16869384
0.17510402 -0.77045768 0.19093296
0.17738649 -0.81597781 0.21375749
0.17972924 -0.86270034 0.237185
0.18213469 -0.9106735 0.26123965
0.18460542 -0.95994812 0.28594685
0.18714343 -1.0105746 0.31132701
0.13819554 0.46065184 -0.40847781
0.13937502 0.44135422 -0.39864886
0.14057478 0.4217245 -0.38865072
0.14179538 0.40175366 -0.37847912
0.14303738 0.38143304 -0.36812913
0.14430131 0.36075336 -0.3575964
0.14558779 0.33970481 -0.34687579
0.14689775 0.31827852 -0.33595937
0.14823115 0.2964623 -0.32484782
0.14958897 0.27424645 -0.31353253
0.1509719 0.25161982 -0.30200812
0.15238066 0.22857106 -0.2902686
0.15381593 0.2050879 -0.27830794
0.1552785 0.18115827 -0.26611981
0.15676917 0.15676922 -0.25369757
0.15828912 0.13190764 -0.24103144
0.15983842 0.10655902 -0.22812045
0.16141795 0.080709033 -0.21495777
0.16302942 0.054343216 -0.20152888
0.1646734 0.027445659 -0.18782903
0.16635087 5.9604645e-08 -0.17385015
0.16806287 -0.028010458 -0.15958348
0.16981 -0.056603216 -0.145024
0.17159432 -0.085797213 -0.13015468
0.17341653 -0.11561102 -0.1149696
0.17527786 -0.14606492 -0.099458478
0.17717957 -0.17717962 -0.083610862
0.17912251 -0.20897622 -0.06741979
0.18110906 -0.24147868 -0.050865233
0.18314013 -0.27471012 -0.033939511
0.18521731 -0.30869547 -0.016629875
0.18734212 -0.3434605 0.001077041
0.18951569 -0.37903136 0.019190162
0.19174087 -0.41543847 0.037733331
0.19401893 -0.45271081 0.056717113
0.19635178 -0.49087939 0.076157466
0.19874077 -0.5299753 0.096065745
0.20118925 -0.57003617 0.11646985
0.20369883 -0.61109638 0.13738279
0.2062718 -0.65319395 0.15882427
0.20891058 -0.69636863 0.18081422
0.21161707 -0.74065965 0.20336823
0.21439531 -0.78611606 0.2265203
0.2172475 -0.83278209 0.25028849
0.22017658 -0.88070613 0.27469733
0.22318572 -0.9299404 0.29977366
0.22627746 -0.98053551 0.32553798
0.16478091 0.4472625 -0.38310075
0.16621855 0.42741913 -0.37283206
0.16768147 0.4072265 -0.36238262
0.16917038 0.38667521 -0.35174745
0.17068596 0.36575562 -0.34092191
0.17222896 0.34445786 -0.32990059
0.1738005 0.32277241 -0.31867516
0.17540058 0.30068672 -0.30724606
0.17703038 0.27819067 -0.29560456
0.17869078 0.2552726 -0.28374463
0.18038259 0.23192056 -0.27166015
0.18210676 0.20812203 -0.2593447
0.18386422 0.18386421 -0.24679154
0.18565592 0.15913372 -0.23399363
0.18748336 0.13391675 -0.22094055
0.18934664 0.1081981 -0.20763138
0.19124733 0.081963211 -0.19405505
0.19318657 0.055196226 -0.18020335
0.19516553 0.027880751 -0.16606781
0.19718547 8.1956387e-08 -0.15163969
0.19924711 -0.028463863 -0.13691376
0.20135286 -0.05752933 -0.12187258
0.20350362 -0.087215722 -0.10651008
0.20570081 -0.1175433 -0.090815887
0.20794538 -0.14853242 -0.074783295
0.21024005 -0.18020564 -0.058392674
0.21258594 -0.21258588 -0.041636236
0.21498479 -0.24569693 -0.024501622
0.2174384 -0.27956367 -0.0069760382
0.21994799 -0.31421137 0.010949671
0.22251685 -0.34966934 0.029298723
0.22514643 -0.38596529 0.048081502
0.22783892 -0.42312938 0.067313388
0.23059657 -0.46119308 0.087010875
0.23342106 -0.50018799 0.10718587
0.23631634 -0.54015154 0.12786645
0.23928437 -0.58111906 0.14906669
0.24232788 -0.62312883 0.17080608
0.24544983 -0.6662209 0.19310567
0.24865243 -0.71043551 0.21598148
0.25194058 -0.75582165 0.23946804
0.25531682 -0.80242431 0.26358432
0.2587848 -0.85029292 0.28835547
0.26234832 -0.89947981 0.31380913
0.26601034 -0.950037 0.33996662
0.26977706 -1.0020291 0.36687163
0.19087625 0.45333111 -0.36713079
0.19256434 0.43326977 -0.35658035
0.19428255 0.41285044 -0.34584147
0.19603169 0.39206332 -0.33490932
0.19781263 0.37089869 -0.32377848
0.19962667 0.34934679 -0.31244057
0.20147383 0.32739508 -0.30089581
0.20335551 0.30503333 -0.28913546
0.20527264 0.28224993 -0.27715334
0.20722626 0.25903288 -0.26494315
0.20921746 0.2353697 -0.25249827
0.21124725 0.21124724 -0.23981199
0.21331686 0.18665226 -0.22687708
0.21542794 0.16157097 -0.21368282
0.21758068 0.13598797 -0.20022823
0.21977684 0.10988846 -0.18650199
0.22201781 0.083256714 -0.17249601
0.22430497 0.056076214 -0.1582014
0.22663973 0.028330013 -0.14360903
0.22902359 7.4505806e-09 -0.12870991
0.23145816 -0.028932277 -0.11349393
0.23394503 -0.058486201 -0.09795098
0.2364859 -0.088682212 -0.082070366
0.23908192 -0.11954089 -0.065845348
0.24173625 -0.15108508 -0.049255732
0.24445018 -0.18333761 -0.032293633
0.24722575 -0.2163225 -0.014946356
0.25006506 -0.25006497 0.0027993396
0.25296962 -0.28459078 0.020952642
0.25594318 -0.31992885 0.039537549
0.25898752 -0.35610768 0.058564469
0.26210511 -0.39315763 0.078049451
0.26529866 -0.43111032 0.098009378
0.26857018 -0.46999779 0.11845624
0.27192426 -0.50985789 0.13941923
0.27536318 -0.55072629 0.16091242
0.27889016 -0.59264171 0.18295625
0.28250775 -0.63564253 0.20556617
0.28622139 -0.67977577 0.22877635
0.29003397 -0.72508478 0.2526049
0.29394948 -0.77161741 0.27707684
0.29797214 -0.81942332 0.30221856
0.30210647 -0.86855602 0.328058
0.30635598 -0.91906786 0.35461754
0.31072792 -0.97102469 0.38194212
0.21768947 0.45956674 -0.35072142
0.2196414 0.43928286 -0.33987743
0.22162865 0.41863197 -0.32883707
0.2236522 0.39760393 -0.31759512
0.22571304 0.3761884 -0.306146
0.22781275 0.35437542 -0.29448092
0.22995135 0.33215198 -0.28259984
0.23213047 0.30950728 -0.27049363
0.23435131 0.28642938 -0.25815567
0.23661502 0.26290566 -0.24557935
0.23892291 0.23892295 -0.23275782
0.24127626 0.21446784 -0.21968362
0.24367642 0.18952613 -0.20634937
0.24612547 0.16408363 -0.19274363
0.24862359 0.13812424 -0.17886512
0.25117296 0.11163248 -0.16470203
0.25377512 0.084591776 -0.15024556
0.25643179 0.056984834 -0.13548632
0.25914466 0.02879389 -0.12041481
0.26191553 5.9604645e-08 -0.10502102
0.26474631 -0.029416209 -0.089294545
0.2676397 -0.059475541 -0.073220119
0.27059549 -0.090198442 -0.056799069
0.27361807 -0.12160794 -0.040006984
0.27670896 -0.15372714 -0.022835426
0.27987045 -0.18658024 -0.0052713826
0.28310508 -0.22019273 0.012698486
0.28641441 -0.2545906 0.031083852
0.28980297 -0.28980297 0.049909182
0.29327264 -0.32585844 0.069185056
0.29682642 -0.36278784 0.088928208
0.30046734 -0.40062302 0.10915567
0.30419773 -0.43939668 0.12988016
0.30802295 -0.47914672 0.1511312
0.31194556 -0.51990926 0.17292355
0.31596938 -0.56172329 0.19527814
0.32009727 -0.60462809 0.2182108
0.32433558 -0.64867115 0.24175695
0.32868761 -0.693896 0.26593488
0.33315802 -0.74035114 0.29077065
0.33775172 -0.78808731 0.31629109
0.34247264 -0.83715522 0.34251833
0.34732866 -0.88761759 0.3694962
0.3523244 -0.93953156 0.39725029
0.35746589 -0.99296081 0.42581427
0.24748059 0.44546512 -0.32270437
0.24975152 0.42457762 -0.31134963
0.25206453 0.40330333 -0.29978454
0.25442079 0.38163123 -0.28800333
0.25682214 0.35955095 -0.27599666
0.25926861 0.33704922 -0.26376429
0.26176211 0.31411457 -0.25129676
0.26430407 0.2907345 -0.23858692
0.26689589 0.26689592 -0.22562791
0.26953903 0.2425852 -0.21241221
0.27223504 0.2177881 -0.19893208
0.27498627 0.19249041 -0.18517607
0.2777929 0.16667578 -0.1711428
0.28065744 0.14032878 -0.1568201
0.28358167 0.1134327 -0.14219904
0.28656748 0.085970253 -0.12726988
0.28961685 0.057923354 -0.1120232
0.29273179 0.029273205 -0.096448392
0.29591447 4.4703484e-08 -0.080535069
0.29916796 -0.029916799 -0.064267576
0.30249295 -0.060498562 -0.047642708
0.30589262 -0.091767743 -0.030644201
0.30936962 -0.12374781 -0.013259202
0.31292656 -0.15646325 0.0045255274
0.3165653 -0.18993914 0.022719204
0.32029063 -0.22420341 0.041345753
0.3241047 -0.25928369 0.060416117
0.32801068 -0.29520965 0.079945959
0.33201194 -0.33201191 0.099952303
0.33611205 -0.36972326 0.12045284
0.34031358 -0.40837622 0.14146048
0.34462261 -0.44800934 0.16300577
0.34904218 -0.48865899 0.18510343
0.35357654 -0.53036481 0.20777538
0.3582291 -0.57316655 0.23103811
0.36300695 -0.61711168 0.25492728
0.36791396 -0.66224498 0.2794624
0.37295544 -0.70861524 0.30466992
0.37813705 -0.75627398 0.33057785
0.38346326 -0.80527276 0.35720885
0.38894308 -0.85567474 0.38460806
0.39458179 -0.907538 0.41280162
0.40038639 -0.96092725 0.44182464
0.27611458 0.45182383 -0.30504104
0.27868477 0.43069461 -0.29335836
0.28130326 0.40916842 -0.28145611
0.28397146 0.38723376 -0.26932809
0.28669143 0.36488008 -0.25696442
0.28946328 0.34209305 -0.24436508
0.29228929 0.3188611 -0.23151967
0.29517099 0.29517105 -0.21842098
0.2981101 0.27100918 -0.20506148
0.30110833 0.24636142 -0.1914331
0.30416748 0.22121277 -0.17752795
0.30729023 0.19554833 -0.16333361
0.31047693 0.16935104 -0.14884865
0.31373042 0.14260477 -0.13406006
0.31705281 0.11529197 -0.11895819
0.32044634 0.087394476 -0.10353306
0.32391331 0.05889339 -0.08777418
0.32745612 0.029768793 -0.071670517
0.33107725 -5.0291419e-08 -0.055210784
0.33478034 -0.030434467 -0.038378466
0.33856624 -0.061557516 -0.021169895
0.34243876 -0.093392313 -0.0035676286
0.34640083 -0.12596397 0.014441948
0.3504557 -0.15929794 0.032873113
0.3546066 -0.19342175 0.0517409
0.35885707 -0.22836356 0.071061172
0.36321062 -0.26415321 0.090849876
0.3676711 -0.30082178 0.11112488
0.37224129 -0.3384012 0.13189858
0.37692776 -0.37692773 0.15320072
0.38173378 -0.41643673 0.17504609
0.38666391 -0.45696637 0.19745585
0.39172307 -0.49855652 0.22045195
0.39691496 -0.54124779 0.24405169
0.40224782 -0.5850876 0.26829153
0.40772584 -0.63012165 0.29319191
0.41335514 -0.67639923 0.31877962
0.4191421 -0.72397268 0.34508395
0.42509183 -0.7728942 0.3721281
0.43121448 -0.82322752 0.39995843
0.43751606 -0.87503207 0.42860204
0.4440046 -0.92837322 0.45809549
0.45068845 -0.98332024 0.48847651
0.30557787 0.45836693 -0.28686616
0.3084639 0.43699059 -0.27484101
0.31140497 0.4152067 -0.26258653
0.31440347 0.39300436 -0.25009292
0.31745943 0.3703694 -0.23735966
0.32057542 0.34729013 -0.22437638
0.32375318 0.32375315 -0.21113585
0.32699454 0.29974508 -0.19763002
0.33030149 0.27525121 -0.1838512
0.33367601 0.25025707 -0.16979058
0.33712107 0.2247474 -0.15543614
0.34063712 0.198705 -0.14078599
0.34422728 0.17211364 -0.125827
0.34789389 0.14495589 -0.11054936
0.35163951 0.11721322 -0.094942771
0.3554666 0.088866606 -0.078996465
0.35937795 0.059896413 -0.062699154
0.36337632 0.030281372 -0.046039276
0.36746573 4.3772161e-08 -0.029000062
0.37164715 -0.030970475 -0.011577492
0.37592486 -0.062654138 0.0062461086
0.38030213 -0.095075481 0.024484824
0.38478255 -0.12826085 0.043153364
0.38936982 -0.16223742 0.062266968
0.39406779 -0.19703384 0.081841707
0.39888048 -0.23268034 0.10189469
0.40381348 -0.26920897 0.12244885
0.40886739 -0.30665058 0.14350674
0.41405073 -0.34504232 0.16510412
0.41936725 -0.38441989 0.18725599
0.424822 -0.424822 0.20998436
0.43041906 -0.46628729 0.23330551
0.43616712 -0.50886154 0.25725573
0.44207078 -0.55258834 0.28185421
0.44813642 -0.59751523 0.30712783
0.45437086 -0.64369196 0.33310452
0.46077952 -0.69116926 0.35980731
0.46737328 -0.74000758 0.38728118
0.4741585 -0.79026419 0.41555306
0.48114359 -0.84200126 0.44465768
0.48833761 -0.89528555 0.47463262
0.49574998 -0.95018756 0.50551766
0.50338888 -1.0067778 0.53734642
0.33912659 0.44347325 -0.25577435
0.34240845 0.42142585 -0.24315177
0.34575531 0.39894849 -0.23027927
0.34916735 0.37602639 -0.21715593
0.35264742 0.35264742 -0.2037711
0.35619757 0.32879773 -0.19011667
0.35981989 0.30446306 -0.17618454
0.36351669 0.27962831 -0.16196623
0.36729023 0.25427786 -0.14745271
0.37114391 0.22839625 -0.1326308
0.37507829 0.2019653 -0.11749847
0.37909701 0.1749679 -0.10204193
0.38320276 0.14738575 -0.086250581
0.38739842 0.11919954 -0.070113443
0.39168698 0.090389282 -0.053619087
0.39607155 0.060934104 -0.036755316
0.40055537 0.030812036 -0.019509804
0.40514308 4.9592927e-08 -0.0018647192
0.4098359 -0.031525776 0.016184514
0.41463867 -0.063790537 0.034656711
0.41955534 -0.096820362 0.05356703
0.42459002 -0.13064304 0.072931245
0.42974705 -0.16528724 0.092765771
0.43503082 -0.20078336 0.11308813
0.44044617 -0.23716336 0.13391635
0.4459995 -0.27446124 0.15527532
0.45169315 -0.31271052 0.17717397
0.45753407 -0.35194916 0.19963907
0.46352801 -0.39221597 0.22269264
0.46967947 -0.43355021 0.24635217
0.47599807 -0.47599801 0.27065447
0.48248899 -0.51960343 0.29561955
0.48915941 -0.56441462 0.32127485
0.4960168 -0.61048222 0.34764957
0.50306737 -0.6578573 0.37476715
0.51032317 -0.7066012 0.40267402
0.51779133 -0.75677186 0.43139774
0.52548128 -0.80843288 0.46097463
0.53340316 -0.86165118 0.49144322
0.54156542 -0.91649538 0.52283645
0.5499835 -0.97304761 0.55521363
0.3707127 0.45015118 -0.23613349
0.37435573 0.42783517 -0.2231226
0.37807009 0.40507516 -0.20985699
0.38185894 0.38185897 -0.19632544
0.38572446 0.35817274 -0.18251994
