# .PCD v0.7 - Point Cloud Data file format
VERSION 0.7
FIELDS x y z
SIZE 4 4 4
TYPE F F F
COUNT 1 1 1
WIDTH 1391
HEIGHT 1
VIEWPOINT 0 0 0 1 0 0 0
POINTS 1391
DATA ascii
-0.36203459 0.18101735 -0.26712665
-0.35619512 0.15265507 -0.28798199
-0.350541 0.12519331 -0.30817512
-0.34506363 0.098589614 -0.32773727
-0.33975554 0.072804809 -0.34669468
-0.33460754 0.047801077 -0.36508042
-0.32961324 0.023543864 -0.38291723
-0.3247658 1.4901161e-08 -0.40022948
-0.32005888 -0.022861302 -0.41703987
-0.31548646 -0.045069456 -0.43336999
-0.31104282 -0.066652015 -0.44924009
-0.30672264 -0.08763504 -0.46466929
-0.30252084 -0.1080431 -0.47967583
-0.29843256 -0.12789962 -0.49427676
-0.29445335 -0.14722666 -0.50848824
-0.3031891 -0.17325087 -0.47728914
-0.31319121 -0.20133719 -0.44156736
-0.32387576 -0.23133981 -0.4034082
-0.33531505 -0.26346177 -0.3625536
-0.34759203 -0.29793599 -0.31870726
-0.36080217 -0.33503053 -0.27152818
-0.37505606 -0.37505603 -0.22062147
-0.39048353 -0.4183751 -0.16552334
-0.40723351 -0.4654097 -0.10570191
-0.42548493 -0.51666021 -0.040518343
-0.44544905 -0.57272011 0.030782074
-0.46737888 -0.63429987 0.10910296
-0.49157977 -0.70225674 0.19553463
-0.5184238 -0.77763563 0.2914061
-0.54836887 -0.86172259 0.39835292
-0.58198774 -0.95612264 0.51842028
-0.61999536 -1.0628492 0.65416175
-0.50478631 1.0484023 0.3813785
-0.4926587 0.98531747 0.33473381
-0.48110187 0.92519593 0.29028454
-0.47007319 0.86782742 0.24786642
-0.45953885 0.81303012 0.20734957
-0.44946626 0.7606352 0.16860893
-0.43982717 0.71049011 0.13153562
-0.43059149 0.66244859 0.096013933
-0.42173576 0.61638308 0.061953217
-0.41323689 0.57217419 0.029265285
-0.40507382 0.5297119 -0.0021312833
-0.39722809 0.48889613 -0.032306984
-0.38967949 0.4496302 -0.061340109
-0.38241237 0.41182876 -0.08929047
-0.37541139 0.37541139 -0.11621744
-0.3686631 0.34030443 -0.14217231
-0.36215222 0.30643645 -0.16721433
-0.35586727 0.27374402 -0.19138713
-0.34979677 0.24216704 -0.21473514
-0.34393075 0.21164978 -0.23729673
-0.3382574 0.18213861 -0.25911728
-0.3327682 0.1535854 -0.28022969
-0.3274543 0.12594402 -0.30066776
-0.32230744 0.099171527 -0.3204633
-0.31732059 0.073227912 -0.33964348
-0.31248504 0.048074648 -0.35824186
-0.30779463 0.0236765 -0.37628192
-0.30324292 4.4703484e-08 -0.3937884
-0.29882389 -0.022986397 -0.41078472
-0.29453182 -0.045312569 -0.42729273
-0.29036129 -0.067006394 -0.44333321
-0.28630719 -0.088094532 -0.45892581
-0.28236479 -0.10860182 -0.47408897
-0.27852944 -0.12855199 -0.48884022
-0.2747969 -0.14796758 -0.50319618
-0.28350329 -0.1744635 -0.46971017
-0.2929236 -0.2027932 -0.43347812
-0.30299148 -0.2330703 -0.39475554
-0.31377676 -0.26550332 -0.35327363
-0.32535747 -0.30032992 -0.30873251
-0.33782575 -0.33782572 -0.26077759
-0.35128772 -0.37830982 -0.20900077
-0.36586711 -0.42215434 -0.15292625
-0.38170904 -0.46979576 -0.091995552
-0.398985 -0.52174962 -0.025549561
-0.41789889 -0.57862926 0.04719606
-0.43869665 -0.64117205 0.12718742
-0.46167132 -0.71026349 0.21555163
-0.48718545 -0.78699189 0.31368288
-0.51568455 -0.87269688 0.42329478
-0.54772508 -0.96905202 0.54652762
-0.5840109 -1.0781739 0.68608844
-0.47030416 1.0581844 0.39949322
-0.45890376 0.99429142 0.35199162
-0.44804144 0.9334197 0.30673206
-0.43768144 0.87536287 0.2635653
-0.42778975 0.81993032 0.22234991
-0.41833523 0.76694798 0.18295619
-0.40929097 0.71625918 0.1452716
-0.40062821 0.66771364 0.10917675
-0.39232451 0.62118053 0.074578136
-0.38435808 0.57653713 0.041384667
-0.37670985 0.53367227 0.009517014
-0.36935896 0.49247867 -0.021111548
-0.36228949 0.45286188 -0.050567806
-0.35548553 0.41473314 -0.078917578
-0.34893245 0.37801021 -0.10622215
-0.34261751 0.34261748 -0.13253441
-0.33652619 0.30848241 -0.15791485
-0.33064768 0.27553976 -0.18240866
-0.32497102 0.24372835 -0.20606139
-0.31948677 0.21299121 -0.2289124
-0.31418383 0.18327397 -0.25100809
-0.30905399 0.15452707 -0.27238232
-0.30408901 0.1267038 -0.29306978
-0.29928103 0.099760383 -0.31310302
-0.2946234 0.073655888 -0.33250988
-0.29010788 0.048351362 -0.35132462
-0.28572866 0.023810729 -0.36957136
-0.28147966 5.9604645e-08 -0.38727537
-0.27735522 -0.023112908 -0.40446061
-0.27334991 -0.045558289 -0.42114943
-0.26945862 -0.067364618 -0.43736321
-0.26567653 -0.088558808 -0.45312178
-0.26199919 -0.10916631 -0.46844411
-0.25842223 -0.1292111 -0.48334801
-0.25527313 -0.14890929 -0.49646935
-0.26354051 -0.17569362 -0.46202189
-0.27236131 -0.20427091 -0.42526856
-0.28179303 -0.2348275 -0.38596976
-0.29190141 -0.26757619 -0.34385157
-0.30276197 -0.30276194 -0.29859918
-0.31446272 -0.34066796 -0.24984604
-0.32710335 -0.38162053 -0.19717672
-0.34080282 -0.4260034 -0.14009567
-0.3556999 -0.47426647 -0.078024328
-0.37195891 -0.52694172 -0.010278523
-0.38977551 -0.58466327 0.063957274
-0.40938479 -0.64819241 0.14566238
-0.43107158 -0.71845263 0.23602435
-0.45518467 -0.79657304 0.33649522
-0.48215702 -0.88395447 0.4488802
-0.51252514 -0.98233974 0.57541412
-0.54697591 -1.0939518 0.71895897
-0.43517241 1.0681504 0.41794905
-0.42452675 1.0034269 0.36955976
-0.414388 0.94179094 0.32347453
-0.40472224 0.88303041 0.27953923
-0.39549714 0.82694852 0.23760685
-0.3866832 0.77336657 0.19754359
-0.37825477 0.72212279 0.15923256
-0.37018475 0.67306316 0.12255052
-0.36245188 0.62605327 0.087401211
-0.35503548 0.58096719 0.053690314
-0.34791753 0.5376907 0.021335959
-0.34107837 0.49611402 -0.0097510815
-0.33450294 0.45614034 -0.039639562
-0.3281762 0.41767886 -0.068397343
-0.32208437 0.38064519 -0.09608753
-0.31621543 0.3449623 -0.12276459
-0.31055573 0.31055576 -0.14849041
-0.30509505 0.27735913 -0.17331174
-0.29982308 0.24530981 -0.19727513
-0.29473096 0.21434988 -0.22042105
-0.28980821 0.18442342 -0.24279726
-0.2850472 0.15548025 -0.26443827
-0.28044009 0.12747279 -0.28537965
-0.27597955 0.1003563 -0.30565482
-0.27165931 0.074088931 -0.32529232
-0.26747161 0.048631236 -0.34432727
-0.26341107 0.023946449 -0.36278424
-0.25947198 2.9802322e-08 -0.3806892
-0.25564897 -0.023240805 -0.39806652
-0.25193697 -0.045806691 -0.41493925
-0.24833125 -0.067726687 -0.43132901
-0.24482724 -0.089028016 -0.44725621
-0.24142078 -0.10973667 -0.46274024
-0.23810779 -0.12987688 -0.47779927
-0.23560901 -0.14993294 -0.48915732
-0.24329372 -0.17694084 -0.45422682
-0.25149715 -0.20577028 -0.41693854
-0.2602725 -0.23661129 -0.37705052
-0.26968238 -0.26968226 -0.33427835
-0.27979821 -0.3052344 -0.28829727
-0.29070249 -0.34355754 -0.23873228
-0.30249116 -0.3849887 -0.1851474
-0.31527638 -0.42992228 -0.12703294
-0.32919008 -0.47882193 -0.063788921
-0.3443895 -0.5322383 0.005299598
-0.36105937 -0.59082448 0.08107169
-0.37942511 -0.65537059 0.16455227
-0.39975938 -0.72683513 0.25698066
-0.42239657 -0.80639333 0.35987711
-0.44775143 -0.89550287 0.47512639
-0.47634459 -0.99599326 0.60509539
-0.3993727 1.0783063 0.4367561
-0.38951218 1.0127317 0.38745353
-0.38012549 0.95031375 0.3405202
-0.37118056 0.89083338 0.2957955
-0.36264694 0.83408809 0.25312749
-0.35449809 0.7798959 0.21238309
-0.34670624 0.72808313 0.17342386
-0.33924958 0.67849922 0.13614047
-0.33210689 0.63100314 0.100427
-0.32525876 0.58546591 0.066186517
-0.3186883 0.54177016 0.033334196
-0.31237715 0.49980348 0.0017784536
-0.3063111 0.4594667 -0.028551847
-0.30047616 0.42066664 -0.057726532
-0.29486018 0.38331828 -0.085806474
-0.28944945 0.34733936 -0.11285996
-0.28423378 0.31265724 -0.13893844
-0.2792027 0.2792027 -0.16409379
-0.27434665 0.24691203 -0.18837406
-0.26965731 0.21572593 -0.2118208
-0.26512492 0.18558747 -0.23448266
-0.2607424 0.15644544 -0.25639546
-0.25650236 0.12825125 -0.27759549
-0.25239867 0.10095945 -0.29811412
-0.24842359 0.0745271 -0.31798944
-0.24457179 0.048914358 -0.33724841
-0.2408376 0.024083808 -0.3559193
-0.23721576 2.9802322e-08 -0.37402862
-0.2337012 -0.023370087 -0.39160132
-0.23028928 -0.04605782 -0.40866098
-0.22697556 -0.068092659 -0.42522955
-0.22375584 -0.08950226 -0.44132823
-0.22062619 -0.11031306 -0.45697641
-0.21758288 -0.13054967 -0.47219297
-0.21567312 -0.15097117 -0.48174182
-0.22275788 -0.17820629 -0.44631794
-0.23032391 -0.20729151 -0.40848777
-0.23842198 -0.23842196 -0.36799744
-0.24711025 -0.27182123 -0.32455614
-0.25645629 -0.30774754 -0.27782583
-0.26653644 -0.34649739 -0.22742513
-0.27744141 -0.3884179 -0.17290029
-0.28927675 -0.43391511 -0.11372352
-0.30216688 -0.48346692 -0.049272984
-0.31625932 -0.53764081 0.021189272
-0.33173054 -0.59711492 0.098545387
-0.34879336 -0.66270721 0.18385939
-0.36770788 -0.7354157 0.27843198
-0.38878998 -0.81645888 0.38384259
-0.41243657 -0.90736037 0.50207555
-0.43914583 -1.0100355 0.63562202
-0.36288565 1.088657 0.455924
-0.35384214 1.0222106 0.40568236
-0.3452372 0.95899224 0.35787708
-0.33704081 0.89877558 0.31234166
-0.32922462 0.84135175 0.26891825
-0.32176378 0.78653359 0.22746918
-0.31463259 0.73414272 0.18785149
-0.30781063 0.68402362 0.14995167
-0.3012782 0.63603175 0.11366048
-0.2950173 0.59003466 0.078877747
-0.28901222 0.54591203 0.045516044
-0.28324583 0.5035482 0.013480738
-0.2777051 0.46284175 -0.017301351
-0.27237695 0.42369753 -0.046902046
-0.26725015 0.38602808 -0.075384215
-0.26231208 0.34974945 -0.10281803
-0.25755316 0.31478727 -0.12925631
-0.25296387 0.28107098 -0.15475251
-0.24853525 0.24853529 -0.17935589
-0.24425964 0.21711971 -0.20310925
-0.24012807 0.18676636 -0.22606246
-0.23613393 0.15742265 -0.24825215
-0.23227049 0.12903917 -0.26971573
-0.22853199 0.10156986 -0.2904852
-0.22491139 0.074970484 -0.31059965
-0.22140372 0.049200848 -0.33008665
-0.21800379 0.024222687 -0.34897524
-0.2147067 4.4703484e-08 -0.3672924
-0.21150786 -0.023500785 -0.38506377
-0.20840292 -0.046311751 -0.40231341
-0.20538782 -0.068462536 -0.41906393
-0.20245871 -0.08998163 -0.43533659
-0.19961201 -0.11089548 -0.45115173
-0.19684424 -0.13122939 -0.46652833
-0.1954588 -0.15202343 -0.47422516
-0.20192577 -0.17948949 -0.43829751
-0.20883578 -0.20883572 -0.39990869
-0.21623497 -0.240261 -0.35880196
-0.22417773 -0.27399498 -0.31467548
-0.23272628 -0.31030163 -0.26718366
-0.24195261 -0.34948713 -0.21592614
-0.2519407 -0.39190775 -0.16043676
-0.26278895 -0.43798152 -0.10016876
-0.27461424 -0.48820299 -0.034472659
-0.28755307 -0.54315573 0.037409678
-0.30177143 -0.6035428 0.11640066
-0.31746903 -0.67021239 0.20360953
-0.33488938 -0.74419862 0.3003892
-0.35433251 -0.82677573 0.4084065
-0.37617245 -0.91953266 0.52973962
-0.40088153 -1.024475 0.66701233
-0.32569134 1.0992084 0.4754636
-0.31749806 1.0318688 0.42425558
-0.30970579 0.96783066 0.37555385
-0.30228686 0.90686053 0.3291854
-0.29521501 0.84874308 0.28498635
-0.28846747 0.79328549 0.24281427
-0.28202057 0.74030405 0.2025212
-0.27585551 0.68963873 0.16398954
-0.26995423 0.6411413 0.12710661
-0.26430017 0.59467542 0.091768563
-0.25887886 0.55011749 0.057885379
-0.25367472 0.50734949 0.025359631
-0.24867572 0.46626699 -0.005884245
-0.24386992 0.42677242 -0.035920471
-0.23924701 0.38877642 -0.064813524
-0.23479545 0.35219318 -0.092635714
-0.23050655 0.31694651 -0.11944148
-0.22637151 0.28296444 -0.1452854
-0.22238223 0.25018004 -0.17021848
-0.21853165 0.21853162 -0.19428457
-0.21481161 0.18796018 -0.21753469
-0.21121612 0.15841211 -0.24000657
-0.20773901 0.12983695 -0.26173851
-0.204375 0.10218753 -0.28276354
-0.20111775 0.075419158 -0.30312145
-0.1979627 0.049490735 -0.32284051
-0.19490509 0.024363115 -0.34195054
-0.1919405 7.4505806e-08 -0.36047918
-0.18906474 -0.023633063 -0.37845269
-0.1862739 -0.046568394 -0.39589548
-0.18356425 -0.068836585 -0.41283083
-0.18093228 -0.090466097 -0.42928061
-0.17837474 -0.11148416 -0.44526529
-0.17588848 -0.13191625 -0.46080431
-0.17496106 -0.15309085 -0.46660075
-0.18079184 -0.18079178 -0.43015835
-0.18702465 -0.21040273 -0.39120325
-0.19370256 -0.24212824 -0.34946632
-0.20087501 -0.2762031 -0.30463853
-0.20859957 -0.31289932 -0.25636005
-0.21694143 -0.35252973 -0.20422351
-0.22597824 -0.39546186 -0.14774339
-0.23580064 -0.44212615 -0.086353391
-0.24651572 -0.49303138 -0.019384071
-0.25825098 -0.5487833 0.053961426
-0.27115941 -0.61010867 0.13463901
-0.28542712 -0.67788935 0.22381213
-0.30127859 -0.75319648 0.32288384
-0.31899425 -0.83735985 0.43360674
-0.33892351 -0.93203962 0.5581646
-0.36150888 -1.039338 0.69932306
-0.28046069 1.0417111 0.44318318
-0.27351338 0.97683346 0.39355955
-0.26690191 0.91509241 0.34633502
-0.26060256 0.85626554 0.30133939
-0.25459456 0.80015439 0.25842535
-0.24885651 0.74656963 0.21743929
-0.24337141 0.69534695 0.17825991
-0.2381229 0.64633358 0.14077044
-0.23309597 0.59938961 0.10486382
-0.22827762 0.5543884 0.070446923
-0.22365373 0.51120859 0.037419349
-0.21921347 0.46974313 0.0057030469
-0.21494608 0.42989215 -0.024778277
-0.21084225 0.39156419 -0.054091349
-0.20689161 0.35467136 -0.0823102
-0.2030863 0.31913564 -0.10949091
-0.19941846 0.28488353 -0.13568988
-0.19588073 0.25184664 -0.16095936
-0.19246684 0.21996215 -0.18534416
-0.18916942 0.18916945 -0.20889714
-0.18598311 0.15941414 -0.23165657
-0.18290232 0.13064456 -0.25366208
-0.17992197 0.10281257 -0.27495044
-0.17703718 0.075873114 -0.29555613
-0.17424342 0.049783871 -0.31551147
-0.17153649 0.024505258 -0.33484671
-0.16891235 1.4901161e-08 -0.35359055
-0.16636731 -0.023766726 -0.37176937
-0.16389818 -0.046828061 -0.38940609
-0.16150092 -0.069214642 -0.40652943
-0.15917277 -0.090955868 -0.423159
-0.15691079 -0.11207911 -0.43931589
-0.15471222 -0.13261044 -0.4550201
-0.15417312 -0.15417308 -0.45887074
-0.15934899 -0.18211308 -0.42190021
-0.16488412 -0.21199381 -0.38236368
-0.1708176 -0.24402508 -0.33998165
-0.17719407 -0.27844775 -0.29443547
-0.18406504 -0.31554008 -0.24535699
-0.1914904 -0.35562494 -0.19231887
-0.19954002 -0.39907992 -0.13482158
-0.20829666 -0.44634992 -0.072274059
-0.21785653 -0.49795765 -0.0039893687
-0.2283361 -0.55453044 0.070864633
-0.23987481 -0.61682081 0.15328401
-0.2526418 -0.68574184 0.24447669
-0.26684418 -0.76241183 0.34592238
-0.28273842 -0.84821534 0.45945296
-0.3006461 -0.9448877 0.58736467
-0.32097694 -1.0546386 0.73258513
-0.24270992 1.051743 0.46247533
-0.2366413 0.98600543 0.41190332
-0.23086873 0.92347491 0.36379868
-0.22537109 0.86392254 0.31798506
-0.22012995 0.80714309 0.2743088
-0.21512632 0.75294209 0.23261192
-0.21034509 0.70115036 0.19276842
-0.20577177 0.65161067 0.15465745
-0.20139374 0.60418117 0.11817372
-0.19719748 0.55872631 0.083205134
-0.19317254 0.51512682 0.049663886
-0.18930861 0.47327161 0.017464533
-0.18559623 0.4330579 -0.013472021
-0.18202719 0.39439222 -0.043214202
-0.17859231 0.35718465 -0.071838215
-0.17528464 0.32135516 -0.09940201
-0.17209728 0.28682882 -0.12596329
-0.16902423 0.25353634 -0.15157214
-0.16605856 0.22141145 -0.1762861
-0.16319515 0.19039433 -0.20014772
-0.16042884 0.16042885 -0.22320037
-0.15775473 0.13146228 -0.24548465
-0.15516831 0.10344552 -0.26703805
-0.15266533 0.07633274 -0.28789616
-0.15024184 0.050080627 -0.30809206
-0.14789407 0.024649009 -0.32765684
-0.14561854 -0 -0.34661943
-0.14341199 -0.023901954 -0.36500743
-0.14127131 -0.047090352 -0.38284653
-0.13919358 -0.069596767 -0.40016079
-0.13717611 -0.091450721 -0.41697317
-0.13521627 -0.11268017 -0.43330514
-0.13331164 -0.13331155 -0.44917703
-0.13308947 -0.15527101 -0.45102838
-0.13759014 -0.18345344 -0.41352293
-0.14240584 -0.21360868 -0.37339205
-0.14757088 -0.24595147 -0.33034998
-0.15312506 -0.2807292 -0.28406528
-0.15911329 -0.31822658 -0.23416331
-0.16558892 -0.35877594 -0.18019971
-0.17261401 -0.40276605 -0.12165722
-0.18026161 -0.45065397 -0.05792737
-0.18861824 -0.50298196 0.011711404
-0.19778799 -0.56039917 0.08812575
-0.20789416 -0.62368244 0.172344
-0.21908875 -0.6937809 0.26563197
-0.23155752 -0.77185833 0.36953861
-0.24553119 -0.85935915 0.4859859
-0.2612997 -0.95809877 0.61738998
-0.27923256 -1.0703914 0.76683068
-0.204225 1.06197 0.48214266
-0.19907025 0.9953512 0.43059495
-0.19416927 0.93201256 0.38158542
-0.18950452 0.87172079 0.33493772
-0.18505797 0.81425512 0.29047242
-0.18081532 0.75942445 0.24804589
-0.17676285 0.7070514 0.20752117
-0.17288804 0.65697455 0.16877308
-0.16918001 0.60904801 0.1316926
-0.16562718 0.56313241 0.096164405
-0.16222049 0.51910567 0.062097579
-0.15895113 0.4768534 0.029403865
-0.15581094 0.43627062 -0.0019980073
-0.15279286 0.39726144 -0.032178774
-0.14988905 0.35973373 -0.061216831
-0.14709356 0.3236059 -0.0891717
-0.14440043 0.28880087 -0.116103
-0.14180455 0.25524816 -0.14206201
-0.13929996 0.22287995 -0.16710779
-0.13688231 0.19163524 -0.19128427
-0.13454716 0.16145667 -0.2146358
-0.13229033 0.13229035 -0.23720402
-0.13010797 0.10408646 -0.25902754
-0.12799644 0.076797888 -0.28014284
-0.12595236 0.05038102 -0.30058372
-0.12397254 0.024794519 -0.32038194
-0.122054 -1.4901161e-08 -0.33956736
-0.12019393 -0.024038777 -0.35816801
-0.1183897 -0.04735586 -0.37621027
-0.11663885 -0.069983274 -0.3937189
-0.11493901 -0.091951221 -0.41071725
-0.11328802 -0.11328793 -0.42722717
-0.11168379 -0.13402051 -0.44326943
-0.11170338 -0.15638468 -0.44307357
-0.11550885 -0.1848141 -0.40501884
-0.11958274 -0.2152489 -0.3642799
-0.12395451 -0.24790901 -0.32056221
-0.12865807 -0.28304771 -0.27352667
-0.13373265 -0.32095832 -0.22278082
-0.13922435 -0.3619833 -0.16786391
-0.14518599 -0.40652075 -0.10824741
-0.15168104 -0.45504308 -0.043296978
-0.15878443 -0.50811011 0.027736917
-0.16658583 -0.56639171 0.10575092
-0.17519343 -0.6306963 0.19182689
-0.18473902 -0.70200825 0.28728282
-0.19538476 -0.78153884 0.39374012
-0.20733245 -0.8707962 0.51321709
-0.22083743 -0.97168469 0.64826703
-0.2362233 -1.086627 0.80212545
-0.16498429 1.0723979 0.50219625
-0.16078013 1.0048759 0.44964424
-0.15678491 0.94070935 0.39970392
-0.15298343 0.87965471 0.35218543
-0.14936246 0.82149351 0.30692333
-0.14590843 0.76601917 0.26374787
-0.14261052 0.71305263 0.22252423
-0.13945843 0.66242754 0.18312298
-0.13644309 0.61399388 0.14543127
-0.13355497 0.56760859 0.10932963
-0.13078657 0.52314621 0.074724779
-0.12813063 0.48048985 0.041525349
-0.12558039 0.43953145 0.0096475333
-0.12313005 0.40017268 -0.020981669
-0.12077317 0.36231953 -0.050442755
-0.11850481 0.32588831 -0.078797147
-0.1163201 0.29080024 -0.10610613
-0.11421478 0.25698325 -0.13242251
-0.11218403 0.22436811 -0.15780695
-0.11022422 0.19289249 -0.18230443
-0.10833172 0.16249762 -0.20596087
-0.10650311 0.13312893 -0.22881848
-0.1047352 0.10473522 -0.25091735
-0.10302503 0.077268817 -0.2722944
-0.10136981 0.050684884 -0.29298472
-0.099766932 0.024941772 -0.31302059
-0.098213963 4.4703484e-08 -0.33243281
-0.096708596 -0.024177119 -0.3512499
-0.095248677 -0.04762432 -0.36949888
-0.09383218 -0.070374086 -0.38720506
-0.092457198 -0.09245719 -0.40439236
-0.091121927 -0.11390239 -0.42108309
-0.089824684 -0.134737 -0.43729877
-0.090008095 -0.15751414 -0.43500608
-0.093097359 -0.18619467 -0.39639038
-0.096406221 -0.21691394 -0.35502958
-0.099959195 -0.2498979 -0.31061742
-0.10378383 -0.28540543 -0.26280963
-0.10791276 -0.32373819 -0.21119779
-0.11238385 -0.36524755 -0.15530922
-0.11724144 -0.41034496 -0.094589338
-0.12253793 -0.45951718 -0.02838318
-0.128336 -0.51334399 0.04409264
-0.13470958 -0.57251567 0.12376243
-0.14174931 -0.63787186 0.21175897
-0.14956538 -0.71043551 0.30945987
-0.15829371 -0.79146844 0.4185639
-0.1681039 -0.88254547 0.54119146
-0.17921041 -0.98565722 0.68002272
-0.1249653 1.0830326 0.52264744
-0.12175013 1.0145845 0.46906164
-0.11869628 0.9495703 0.41816399
-0.11579229 0.88774085 0.36976403
-0.1130266 0.82886171 0.32366928
-0.11038995 0.77272964 0.2797251
-0.10787351 0.71915662 0.23778427
-0.10546923 0.66797173 0.19771299
-0.10317013 0.61902082 0.15939474
-0.1009688 0.57215655 0.12270598
-0.098859452 0.52725041 0.087550148
-0.096836433 0.48418218 0.053833172
-0.094894551 0.44284129 0.021468535
-0.09302929 0.40312696 -0.0096192211
-0.091235682 0.36494276 -0.039512649
-0.089509927 0.32820308 -0.068275236
-0.087848254 0.29282758 -0.095969819
-0.086247377 0.25874215 -0.12265115
-0.08470358 0.22587627 -0.14838102
-0.083214074 0.1941662 -0.17320618
-0.081776053 0.16355211 -0.19717322
-0.080386885 0.13397816 -0.22032593
-0.079044126 0.1053922 -0.24270529
-0.07774549 0.077745572 -0.26434928
-0.07648883 0.050992608 -0.28529352
-0.07527215 0.025090694 -0.30557144
-0.074093573 -2.9802322e-08 -0.32521439
-0.072951339 -0.024317086 -0.34425175
-0.071843781 -0.047895819 -0.36271101
-0.070769355 -0.07076934 -0.3806181
-0.069726594 -0.092968792 -0.39799753
-0.068714105 -0.11452344 -0.41487223
-0.067730613 -0.1354612 -0.43126383
-0.067997307 -0.15866035 -0.42681897
-0.070348687 -0.18759641 -0.38762927
-0.072868511 -0.2186055 -0.34563214
-0.07557556 -0.25191855 -0.30051464
-0.078491509 -0.28780222 -0.2519156
-0.081641488 -0.32656595 -0.19941586
-0.085055105 -0.36857206 -0.14252231
-0.088766389 -0.4142431 -0.080667645
-0.092816323 -0.46408153 -0.013168648
-0.097253479 -0.51868516 0.060783833
-0.10213617 -0.57877165 0.14216214
-0.10753506 -0.64521027 0.23214366
-0.11353658 -0.71906507 0.33216912
-0.12024804 -0.8016535 0.4440265
-0.1278023 -0.89461607 0.56993091
-0.13636932 -1.0000417 0.71271467
-0.084144637 1.0938802 0.54350841
-0.081958607 1.0244826 0.48885784
-0.079883292 0.95859945 0.43697479
-0.077910766 0.8959738 0.38766181
-0.076033033 0.83636332 0.34071836
-0.07424368 0.77955866 0.29598451
-0.07253661 0.72536612 0.25330791
-0.070906274 0.67360961 0.21254954
-0.069347844 0.62413061 0.17358871
-0.06785623 0.57677805 0.13629843
-0.066427425 0.53141952 0.10057843
-0.065057561 0.48793173 0.066331625
-0.063743241 0.44620267 0.033473566
-0.062480785 0.40612513 0.0019122362
-0.061267372 0.36760423 -0.028423131
-0.060100183 0.33055109 -0.057602689
-0.058976643 0.29488319 -0.085691325
-0.057894494 0.26052529 -0.11274496
-0.05685119 0.22740479 -0.13882765
-0.055844821 0.19545688 -0.16398686
-0.054873459 0.16462047 -0.18827081
-0.053935315 0.13483831 -0.2117244
-0.05302871 0.10605749 -0.23438954
-0.052152079 0.078228094 -0.2563054
-0.051303964 0.051303975 -0.27750841
-0.050482985 0.025241554 -0.29803276
-0.04968787 8.9406967e-08 -0.31791061
-0.048917413 -0.024458647 -0.33717203
-0.048170488 -0.048170477 -0.35584515
-0.047446024 -0.071168959 -0.37395674
-0.046743032 -0.093486041 -0.39153153
-0.046060566 -0.11515142 -0.40859315
-0.045397744 -0.13619316 -0.42516381
-0.045663729 -0.15982299 -0.41851416
-0.047254775 -0.18901902 -0.37873805
-0.048960812 -0.22032359 -0.33608708
-0.050794527 -0.25397259 -0.29024416
-0.052770942 -0.29024014 -0.24083385
-0.054907385 -0.32944429 -0.18742265
-0.057224125 -0.37195674 -0.12950426
-0.059744973 -0.41821474 -0.066483155
-0.062498339 -0.46873748 0.0023511499
-0.065517545 -0.5241403 0.077831194
-0.06884326 -0.58516759 0.16097412
-0.072524659 -0.652722 0.2530092
-0.076622039 -0.72790927 0.35544351
-0.081210107 -0.81210089 0.47014526
-0.086382635 -0.90701771 0.59945863
-0.092258893 -1.0148479 0.74636507
-0.042497978 1.1049474 0.56479168
-0.041383032 1.0345757 0.50904417
-0.04032509 0.96780211 0.45614702
-0.039320037 0.90436095 0.40589452
-0.038363725 0.84400201 0.35807893
-0.037452828 0.78650934 0.31253403
-0.036584184 0.73168373 0.26910186
-0.035755038 0.67934573 0.22764456
-0.034962527 0.62932563 0.18801919
-0.03420439 0.58147466 0.15011223
-0.033478431 0.5356549 0.11381422
-0.032782651 0.49173975 0.079025149
-0.032115299 0.44961417 0.045657486
-0.031474479 0.40916827 0.013616636
-0.030858735 0.37030479 -0.017170712
-0.030266618 0.33293283 -0.046776444
-0.0296968 0.29696798 -0.075267464
-0.029148117 0.26233315 -0.10270144
-0.028619267 0.2289542 -0.129144
-0.028109265 0.19676489 -0.1546441
-0.027617119 0.16570278 -0.1792513
-0.027141914 0.13570958 -0.20301171
-0.026682785 0.10673122 -0.22596821
-0.026238926 0.0787168 -0.24816099
-0.025809597 0.051619254 -0.26962751
-0.02539409 0.025394201 -0.29040283
-0.024991749 -0 -0.31051987
-0.024601961 -0.024601951 -0.3300094
-0.024224143 -0.048448265 -0.34890023
-0.023857754 -0.071573183 -0.36721969
-0.023502283 -0.094009131 -0.38499326
-0.023157248 -0.11578616 -0.4022449
-0.022822199 -0.13693319 -0.41899735
-0.02300046 -0.16100322 -0.41008431
-0.023807986 -0.19046389 -0.36970809
-0.024674274 -0.22206847 -0.3263936
-0.025605988 -0.2560598 -0.27980796
-0.026610827 -0.29271904 -0.22956599
-0.027697824 -0.33237386 -0.17521617
-0.028877325 -0.37540516 -0.11624113
-0.030161753 -0.42226446 -0.052019656
-0.031565759 -0.47348642 0.018180773
-0.03310686 -0.5297097 0.095235646
-0.034806162 -0.59170473 0.18020077
-0.036689345 -0.66040814 0.27435988
-0.038788103 -0.73697382 0.37929779
-0.041141383 -0.8228277 0.49696189
-0.043798655 -0.91977167 0.62982541
-0.046822887 -1.0301036 0.78103709
0 1.0448699 0.52963227
0 0.97718322 0.47569087
0 0.91290641 0.42447177
0 0.85178137 0.37575945
0 0.7935853 0.32938141
0 0.73811227 0.28517333
0 0.68517566 0.24298657
0 0.63460767 0.20269167
0 0.58624852 0.16415282
0 0.53995848 0.12726283
0 0.49560773 0.091918349
0 0.45307821 0.0580291
0 0.41225731 0.025497645
0 0.37304541 -0.0057516098
0 0.33534914 -0.035793021
0 0.29908246 -0.064695105
0 0.26416552 -0.092521586
0 0.23052415 -0.11933148
0 0.19808996 -0.14517939
0 0.16679949 -0.17011246
0 0.13659218 -0.19418563
0 0.10741346 -0.21743912
0 0.079211645 -0.23991422
0 0.051938362 -0.26164922
0 0.025548518 -0.28268012
0 8.9406967e-08 -0.30304068
0 -0.02474688 -0.32276225
0 -0.048729286 -0.34187478
0 -0.071982071 -0.36040562
0 -0.094538033 -0.37838134
0 -0.11642812 -0.39582622
0 -0.13768116 -0.41276366
0 -0.16220059 -0.40153155
0 -0.19193086 -0.36053914
0 -0.2238417 -0.31654248
0 -0.25818229 -0.26919565
0 -0.29524139 -0.21810071
0 -0.3353551 -0.16279441
0 -0.3789171 -0.10273369
0 -0.42639345 -0.037273392
0 -0.47833395 0.034339175
0 -0.53540051 0.11301927
0 -0.59839147 0.19986767
0 -0.66827989 0.29622585
0 -0.74626434 0.40374625
0 -0.83383816 0.52448797
0 -0.93288559 0.66104919
0 -1.0458249 0.81676745
0.042214826 1.0553707 0.55063403
0.041114494 0.98674798 0.49561751
0.040070217 0.921615 0.44340336
0.039077528 0.85970557 0.393769
0.038132835 0.80078954 0.34653437
0.037232742 0.74465477 0.30152965
0.036374282 0.69111133 0.25860673
0.035554398 0.63997924 0.21761265
0.034770664 0.59110129 0.17842576
0.034020733 0.54433179 0.14092922
0.033302572 0.49953869 0.10502133
0.032614008 0.45659608 0.070592925
0.031953335 0.41539341 0.03755942
0.031318899 0.3758269 0.0058377236
0.030709168 0.33780086 -0.024648935
0.030122723 0.30122727 -0.053971127
0.02955826 0.26602435 -0.082194395
0.029014558 0.23211652 -0.10937941
0.028490501 0.19943354 -0.13558233
0.027985036 0.16791025 -0.1608555
0.027497195 0.13748607 -0.18524764
0.02702607 0.10810429 -0.20880389
0.026570817 0.07971251 -0.2315665
0.02613065 0.052261367 -0.25357488
0.025704825 0.025704868 -0.2748661
0.025292659 1.4901161e-08 -0.29547438
0.024893502 -0.024893463 -0.31543231
0.024506802 -0.0490136 -0.33476725
0.024131879 -0.072395563 -0.35351336
0.023768255 -0.095072925 -0.37169456
0.023415428 -0.11707702 -0.38933599
0.023072921 -0.13843745 -0.40646133
0.023345187 -0.16341627 -0.39284801
0.024177535 -0.19342022 -0.35123056
0.025071433 -0.22564283 -0.30653566
0.026033964 -0.26033962 -0.25840914
0.027073426 -0.2978076 -0.20643607
0.028199269 -0.33839116 -0.15014401
0.029422808 -0.38249645 -0.088966995
0.03075734 -0.43060267 -0.022240326
0.032218687 -0.48328024 0.050826892
0.033825822 -0.54121315 0.13118371
0.035601828 -0.60523093 0.21998402
0.037574537 -0.67634165 0.3186194
0.03977868 -0.755795 0.42882666
0.042257532 -0.84515047 0.55276918
0.045065861 -0.94638318 0.69318587
0.048274036 -1.0620286 0.8535943
0.085286789 1.0660849 0.57206237
0.083042137 0.99650556 0.51594591
0.080912292 0.93049145 0.46269992
0.078888968 0.86777866 0.41211683
0.076964363 0.80812585 0.36400184
0.075131439 0.7513144 0.31817853
0.073384039 0.69714844 0.27449369
0.071715824 0.64544249 0.23278832
0.07012178 0.59603506 0.19293691
0.068597049 0.54877639 0.15481882
0.067137219 0.50352907 0.11832294
0.065738425 0.46016896 0.083353207
0.064396538 0.41857755 0.049806148
0.063108332 0.37865007 0.017601073
0.061870664 0.34028864 -0.013340741
0.060680602 0.30340308 -0.043092206
0.059535459 0.26790962 -0.071720868
0.058432739 0.233731 -0.099288851
0.057370119 0.20079555 -0.12585427
0.056345467 0.16903634 -0.15147075
0.055356763 0.13839188 -0.17618826
0.054402169 0.10880435 -0.20005322
0.053479932 0.080219947 -0.22310907
0.052588444 0.052588515 -0.24539629
0.051726189 0.025863104 -0.2669526
0.050891753 5.9604645e-08 -0.28781348
0.050083816 -0.025041908 -0.30801195
0.049301125 -0.049301043 -0.32757914
0.048542526 -0.072813794 -0.34654418
0.047806915 -0.095613748 -0.36493441
0.047093268 -0.11773317 -0.38277566
0.046400614 -0.1392018 -0.40009201
0.047042854 -0.16464993 -0.38403606
0.04873335 -0.1949333 -0.34177363
0.050549749 -0.2274738 -0.29636359
0.052506793 -0.26253399 -0.24743745
0.054621477 -0.30041808 -0.19457036
0.056913648 -0.34148186 -0.13726625
0.059406616 -0.38614303 -0.074941888
0.062128179 -0.43489718 -0.0069030374
0.06511087 -0.4883315 0.067664295
0.068394393 -0.54715514 0.14975247
0.072026677 -0.61222672 0.24055955
0.076066412 -0.68459761 0.34155297
0.080586225 -0.76556903 0.45454806
0.08567743 -0.85677439 0.58182859
0.091454938 -0.96027666 0.72626597
0.098067969 -1.0787477 0.89159191
0.12924226 1.0770187 0.59393013
0.12580676 1.0064542 0.53667223
0.12254874 0.93954039 0.48237166
0.11945519 0.87600482 0.43081254
0.11651398 0.81559789 0.38179231
0.11371413 0.75809413 0.33512801
0.11104607 0.70329177 0.29066038
0.10849997 0.6509999 0.24822539
0.106068 0.60105205 0.20769265
0.10374267 0.5532943 0.16893716
0.10151743 0.50758719 0.13184984
0.099385336 0.4637982 0.096314907
0.097340956 0.42181081 0.062241927
0.095378995 0.38151607 0.02954258
0.093494549 0.34281346 -0.0018647313
0.091683134 0.30561048 -0.03205508
0.08994057 0.2698217 -0.061097793
0.08826302 0.23536813 -0.089057073
0.086646892 0.20217609 -0.11599249
0.085088894 0.17017777 -0.14195921
0.083585918 0.1393099 -0.16700861
0.082135126 0.10951354 -0.19118854
0.080733843 0.080733873 -0.21454339
0.079379566 0.05291979 -0.23711464
0.078069977 0.026023373 -0.25894114
0.076802894 -0 -0.28005916
0.075576283 -0.025191993 -0.3005026
0.074388236 -0.049592078 -0.32030344
0.073236965 -0.073236942 -0.33949125
0.072120786 -0.09616103 -0.35809422
0.071038119 -0.11839686 -0.37613869
0.069987476 -0.13997486 -0.3936494
0.071101204 -0.16590281 -0.3750872
0.073676221 -0.1964699 -0.3321704
0.076444753 -0.22933422 -0.28602809
0.079429485 -0.2647649 -0.23628272
0.082656965 -0.30307543 -0.1824913
0.086157605 -0.34463042 -0.12414719
0.089967884 -0.38986081 -0.060642555
0.094130769 -0.4392769 0.0087388009
0.09869758 -0.49348789 0.084852323
0.10373044 -0.55322903 0.16873349
0.1093038 -0.61938828 0.26162267
0.11551007 -0.69306034 0.36506039
0.12246354 -0.77560234 0.48095158
0.13030779 -0.86871862 0.61168933
0.13922575 -0.97458023 0.76032186
0.14945403 -1.0959961 0.93079305
0.17410868 1.0881792 0.61625099
0.16943391 1.0166034 0.55781639
0.16500296 0.94876707 0.50242972
0.16079786 0.88438821 0.44986594
0.15680178 0.82320935 0.39991486
0.15300004 0.7650001 0.35239294
0.14937775 0.70954442 0.30711457
0.14592303 0.65665364 0.26393044
0.14262448 0.60615408 0.22269864
0.13947177 0.5578872 0.18328983
0.13645586 0.51170945 0.14559092
0.1335672 0.46748525 0.10948272
0.13079831 0.42509449 0.07487148
0.12814188 0.3844257 0.041666225
0.1255912 0.34537587 0.0097827613
0.1231401 0.30785024 -0.020856142
0.12078282 0.27176145 -0.050321914
0.11851412 0.23702827 -0.07868091
0.11632906 0.20357595 -0.105994
0.11422312 0.17133476 -0.1323183
0.11219207 0.14024018 -0.15770647
0.11023198 0.11023201 -0.18220749
0.10833922 0.08125449 -0.20586711
0.10651036 0.053255156 -0.22872791
0.10474221 0.026185535 -0.25082976
0.10303181 -0 -0.27220976
0.10137638 -0.025344089 -0.29290274
0.099773295 -0.049886614 -0.31294116
0.098220125 -0.073665082 -0.33235583
0.096714564 -0.096714519 -0.35117519
0.095254466 -0.11906803 -0.36942655
0.093837805 -0.14075667 -0.38713479
0.095528483 -0.16717485 -0.36600131
0.099015653 -0.19803123 -0.32241169
0.10276707 -0.23122583 -0.27551901
0.10681393 -0.26703477 -0.22493336
0.11119257 -0.30577946 -0.17020026
0.11594556 -0.34783658 -0.11078794
0.12112336 -0.39365083 -0.046065316
0.12678486 -0.44374704 0.024703547
0.13300158 -0.49875587 0.1024123
0.13985938 -0.55943739 0.18813476
0.14746282 -0.62671697 0.28317788
0.1559405 -0.70173228 0.38914913
0.16545308 -0.78590214 0.50805622
0.17620088 -0.88100433 0.64240366
0.18844202 -0.9893207 0.79541808
0.21991469 1.0995736 0.6390397
0.2139499 1.0269597 0.57939172
0.20829929 0.95817685 0.52288568
0.2029395 0.89293379 0.46928763
0.1978486 0.83096433 0.41837883
0.19300759 0.77203035 0.36996853
0.18839714 0.71590912 0.32386398
0.18400182 0.66240662 0.27991086
0.17980692 0.6113435 0.23796175
0.175799 0.56255674 0.19788264
0.17196643 0.51589936 0.15955706
0.16829687 0.47123134 0.12286146
0.16478065 0.42842975 0.087699175
0.16140835 0.38738006 0.053976119
0.15817131 0.34797692 0.021605834
0.15506156 0.31012312 -0.0094918162
0.15207171 0.27372921 -0.03939008
0.14919502 0.23871204 -0.068157308
0.14642511 0.20499523 -0.095856234
0.14375618 0.17250746 -0.12254547
0.14118281 0.14118291 -0.1482792
0.13869995 0.11095996 -0.17310788
0.1363029 0.081781812 -0.19707823
0.13398731 0.053594939 -0.22023429
0.13174908 0.02634985 -0.24261662
0.12958439 7.4505806e-08 -0.26426342
0.12748969 -0.025497854 -0.28521043
0.12546162 -0.050184608 -0.30549103
0.12349709 -0.074098267 -0.32513648
0.12159312 -0.097274445 -0.34417617
0.11974696 -0.11974692 -0.36263773
0.11795603 -0.1415472 -0.38054702
0.12033298 -0.16846615 -0.35677758
0.12476078 -0.19961718 -0.31249949
0.12952721 -0.23314901 -0.26483518
0.13467196 -0.26934385 -0.2133877
0.14024232 -0.30853304 -0.15768415
0.14629336 -0.35110402 -0.097173795
0.15289012 -0.39751416 -0.031206205
0.16010989 -0.44830766 0.04099153
0.16804586 -0.50413758 0.12035139
0.17680898 -0.56578881 0.2079825
0.18653633 -0.63422346 0.30525589
0.19739629 -0.7106266 0.41385549
0.20959896 -0.79647589 0.535882
0.2234097 -0.89363873 0.67398959
0.23916887 -1.0045091 0.83158123
0.25938219 1.0375288 0.60141087
0.25246304 0.96777505 0.54375142
0.24590349 0.90164608 0.4890883
0.23967613 0.83886641 0.43719375
0.23375727 0.77919102 0.38787001
0.22812288 0.72238916 0.34091663
0.22275372 0.66826123 0.29617363
0.21763147 0.61662257 0.25348836
0.21273953 0.56730545 0.21272202
0.20806333 0.52015835 0.1737538
0.20358764 0.4750379 0.13645642
0.19930044 0.43181765 0.10072978
0.1951901 0.3903802 0.066476852
0.19124587 0.35061747 0.033608198
0.18745787 0.31242985 0.0020416677
0.18381703 0.27572554 -0.028298832
0.18031491 0.24041992 -0.057483032
0.17694375 0.2064344 -0.085576132
0.17369632 0.1736964 -0.112638
0.17056595 0.14213833 -0.13872448
0.16754641 0.11169766 -0.16388725
0.16463192 0.082315952 -0.18817462
0.1618171 0.053939082 -0.21163154
0.15909691 0.026516162 -0.23429972
0.15646666 4.4703484e-08 -0.25621849
0.15392196 -0.025653601 -0.27742425
0.15145873 -0.050486207 -0.29795134
0.14907308 -0.074536517 -0.31783181
0.14676142 -0.097840905 -0.33709556
0.14452036 -0.12043357 -0.35577106
0.1423467 -0.14234671 -0.37388489
0.14552398 -0.16977793 -0.34740752
0.15092196 -0.20122921 -0.30242431
0.15673584 -0.23510373 -0.25397536
0.16301559 -0.27169266 -0.20164408
0.16981955 -0.3113358 -0.1449444
0.17721672 -0.35443342 -0.083301306
0.18528712 -0.4014554 -0.016047984
0.19412763 -0.45296437 0.05762291
0.20385402 -0.50963503 0.1386762
0.21460648 -0.57228386 0.22827992
0.22655636 -0.64190966 0.32786238
0.23991646 -0.71974927 0.43919629
0.25494996 -0.80734146 0.5644756
0.27199343 -0.9066447 0.70650452
0.29147887 -1.0201759 0.86888337
0.30575934 1.0483177 0.6238879
0.29752058 0.97756749 0.56503946
0.28971413 0.91053009 0.50927925
0.28230685 0.84692073 0.45637029
0.27526996 0.78648555 0.40610653
0.26857436 0.72898757 0.3582809
0.26219675 0.6742202 0.3127265
0.25611499 0.6219936 0.2692855
0.25030896 0.57213485 0.22781397
0.24476036 0.52448654 0.18818112
0.23945321 0.47890645 0.15027271
0.23437054 0.43525964 0.11396812
0.22949919 0.39342728 0.079172656
0.2248262 0.35329837 0.045794129
0.22033973 0.31477103 0.013747811
0.21602879 0.27775133 -0.01704441
0.21188331 0.24215239 -0.046655059
0.20789395 0.20789392 -0.075150639
0.20405202 0.1749018 -0.10259297
0.20034951 0.14310688 -0.12903936
0.19677898 0.11244518 -0.15454316
0.19333348 0.082857229 -0.17915389
0.19000657 0.054287709 -0.20291756
0.18679221 0.026684634 -0.2258773
0.1836848 8.1956387e-08 -0.24807303
0.1806791 -0.025811225 -0.26954234
0.17777017 -0.050791435 -0.29032046
0.17495342 -0.074979991 -0.31043997
0.17222454 -0.098413996 -0.32993206
0.16957949 -0.12112819 -0.34882531
0.16701445 -0.14315522 -0.36714703
0.17110997 -0.17110991 -0.33789337
0.1775087 -0.20286703 -0.29218817
0.18440503 -0.23709226 -0.24292858
0.19185838 -0.27408329 -0.18969037
0.19993962 -0.31419078 -0.13196719
0.20873156 -0.35782549 -0.069167569
0.21833231 -0.40547431 -0.00059090555
0.22885881 -0.4577176 0.074598446
0.24045253 -0.51525533 0.15741068
0.25328273 -0.57893193 0.24905494
0.26755929 -0.64978689 0.35103053
0.28354141 -0.72910649 0.46518853
0.30155417 -0.81850415 0.59385109
0.32201082 -0.92003071 0.73996985
0.34544489 -1.0363346 0.90735608
0.35311118 1.0593333 0.64683735
0.34349921 0.98756027 0.58676273
0.33439669 0.91959083 0.52987194
0.32576412 0.85513097 0.47591853
0.31756726 0.79391819 0.42468798
0.30977163 0.73570758 0.37596518
0.30234954 0.68028653 0.32957727
0.29527482 0.62745893 0.28536016
0.28852358 0.57704711 0.24316496
0.28207418 0.52888912 0.20285632
0.27590683 0.48283699 0.16431034
0.27000338 0.43875545 0.12741366
0.26434726 0.39652085 0.09206295
0.25892326 0.3560195 0.058162898
0.25371736 0.31714672 0.025626168
0.24871667 0.27980626 -0.0056281686
0.24390928 0.24390933 -0.035674222
0.23928425 0.20937373 -0.064580776
0.23483197 0.17612408 -0.092407405
0.23054175 0.14408863 -0.11922144
0.22640544 0.11320277 -0.14507328
0.22241499 0.083405726 -0.17001376
0.21856272 0.054640673 -0.19409034
0.21484165 0.026855305 -0.21734703
0.21124515 5.9604645e-08 -0.23982517
0.2077671 -0.025970824 -0.26156303
0.20440169 -0.051100373 -0.28259668
0.20114359 -0.075428836 -0.30295992
0.19798771 -0.098993823 -0.32268411
0.19492935 -0.12183079 -0.34179893
0.19196403 -0.14397299 -0.36033213
0.19710106 -0.17246339 -0.32822561
0.20453224 -0.20453221 -0.28178087
0.21254569 -0.23911393 -0.2316967
0.22121271 -0.27651581 -0.1775279
0.23061658 -0.31709778 -0.11875372
0.24085617 -0.3612842 -0.054756314
0.25204656 -0.40957564 0.015183583
0.26432741 -0.46257293 0.091939002
0.27786636 -0.52099943 0.17655738
0.29286712 -0.58573413 0.27031192
0.30958104 -0.65785974 0.37477434
0.32831693 -0.73871303 0.49187344
0.34946668 -0.82998341 0.6240595
0.37352896 -0.93382215 0.77444839
0.40114981 -1.0530181 0.94707888
0.40146872 1.0705831 0.67027426
0.39042756 0.99775934 0.60893464
0.37997746 0.9288339 0.55087858
0.37007222 0.86350185 0.49584934
0.36067161 0.80149245 0.44362369
0.35173547 0.7425527 0.39397848
0.34323144 0.68646288 0.34673399
0.3351289 0.63302124 0.3017199
0.32740009 0.58204466 0.25878215
0.32001975 0.53336626 0.2177801
0.3129648 0.48683408 0.17858583
0.30621418 0.44230932 0.14108244
0.29974866 0.39966482 0.10516293
0.29355049 0.35878399 0.070728734
0.2876035 0.31955945 0.03768982
0.28189266 0.28189275 0.0059629381
0.2764042 0.24569264 -0.024528421
0.27112538 0.21087535 -0.053855136
0.26604441 0.17736292 -0.082082778
0.26115039 0.14508364 -0.10927183
0.25643316 0.11397034 -0.13547866
0.25188333 0.083961152 -0.16075552
0.24749213 0.054998361 -0.18515101
0.24325143 0.027027987 -0.20871051
0.23915359 -0 -0.23147637
0.23519154 -0.026132375 -0.25348771
0.23135862 -0.05141294 -0.2747817
0.22764865 -0.075882867 -0.29539269
0.22405575 -0.09958028 -0.31535313
0.22057451 -0.12254135 -0.33469337
0.21720031 -0.14480013 -0.35343897
0.22350611 -0.17383803 -0.31840679
0.23200308 -0.20622498 -0.27120134
0.24117105 -0.24117099 -0.22026826
0.25109339 -0.27899259 -0.16514412
0.2618672 -0.3200599 -0.10528952
0.27360708 -0.36480939 -0.04006812
0.28644893 -0.4137595 0.03127557
0.3005566 -0.46753249 0.10965151
0.3161248 -0.5268746 0.19614151
0.3333939 -0.5927003 0.29208115
0.35265878 -0.66613317 0.39910811
0.37428662 -0.74857318 0.51926261
0.39874053 -0.84178543 0.65511793
0.42661512 -0.94803345 0.80997658
0.45867762 -1.0702478 0.98810166
0.45086434 1.0820744 0.6942144
0.43833536 1.0081713 0.63156939
0.42648384 0.93826449 0.57231194
0.41525635 0.87203825 0.51617426
0.40460637 0.8092128 0.46292454
0.39448756 0.74952632 0.41233027
0.38486248 0.69275248 0.364205
0.37569591 0.63868308 0.31837225
0.36695588 0.58712941 0.27467191
0.35861319 0.53791982 0.23295863
0.35064146 0.49089801 0.1930998
0.34301639 0.44592136 0.1549747
0.33571592 0.40285915 0.11847228
0.32871974 0.36159176 0.083491355
0.32200918 0.32200918 0.049938545
0.31556711 0.28401041 0.017728209
0.30937779 0.24750224 -0.013218462
0.30342653 0.21239865 -0.042974696
0.29769996 0.17862004 -0.071607664
0.29218552 0.14609283 -0.099179849
0.28687164 0.11474863 -0.12574922
0.28174761 0.084524333 -0.15136933
0.2768034 0.05536072 -0.17609036
0.27202973 0.027203061 -0.19995873
0.26741791 5.9604645e-08 -0.22301772
0.26295987 -0.026295952 -0.24530795
0.25864804 -0.051729597 -0.26686713
0.25447533 -0.076342508 -0.28773075
0.25043511 -0.10017401 -0.3079319
0.24652117 -0.12326062 -0.32750154
0.24272768 -0.14563659 -0.34646901
0.25033602 -0.17523518 -0.30842716
0.2599318 -0.20794538 -0.26044852
0.27029252 -0.24326317 -0.20864491
0.28151342 -0.28151339 -0.15254015
0.29370722 -0.32307786 -0.091571309
0.30700424 -0.3684051 -0.025086015
0.32156241 -0.41803104 0.047704652
0.33756998 -0.47259793 0.12774256
0.35525477 -0.53288203 0.21616647
0.37489629 -0.59983402 0.31437415
0.39683533 -0.67461997 0.42406926
0.42150176 -0.75870311 0.54740131
0.44943783 -0.85393196 0.68708181
0.48133984 -0.96267956 0.84659171
0.51811677 -1.0880451 1.0304766
0.50133187 1.0938151 0.71867406
0.48725355 1.0188029 0.65468144
0.47394425 0.94788855 0.59418476
0.46134275 0.88074529 0.53690523
0.44939575 0.8170833 0.48260063
0.43805024 0.75663221 0.43103004
0.42726344 0.69915831 0.38199919
0.41699517 0.64444709 0.33532518
0.40720883 0.59230375 0.29084188
0.39787132 0.54255176 0.24839859
0.38895243 0.4950304 0.20785825
0.38042465 0.44959268 0.16909544
0.37226275 0.40610483 0.13199608
0.36444375 0.36444378 0.096455097
0.35694644 0.32449678 0.062376425
0.34975138 0.28616023 0.029671714
0.34284067 0.24933866 -0.0017406344
0.33619776 0.21394411 -0.031935766
0.32980737 0.17989492 -0.060983025
0.3236554 0.14711615 -0.088946521
0.31772873 0.11553775 -0.11588585
0.31201521 0.085095078 -0.14185651
0.30650353 0.055727996 -0.16690943
0.30118319 0.02738028 -0.19109276
0.29604444 -0 -0.21445085
0.29107809 -0.026461639 -0.23702508
0.28627563 -0.052050076 -0.25885463
0.28162903 -0.076807894 -0.27997544
0.27713087 -0.10077479 -0.30042163
0.27277416 -0.12398823 -0.32022488
0.26855227 -0.14648303 -0.33941513
0.27760071 -0.17665499 -0.2982859
0.28833112 -0.20969531 -0.24951133
0.2999244 -0.24539264 -0.19681461
0.31248906 -0.28408089 -0.13970256
0.32615247 -0.3261525 -0.077596083
0.34106538 -0.37207121 -0.0098101944
0.35740846 -0.42239177 0.064476505
0.37539539 -0.47777599 0.14623536
0.39528871 -0.53902996 0.23665935
0.41740841 -0.60713935 0.33720347
0.44215038 -0.6833232 0.44966716
0.4700104 -0.76910788 0.5763036
0.50161958 -0.86643374 0.71998179
0.5377844 -0.97778988 0.88436729
0.55290663 1.1058133 0.74367023
0.53721446 1.0296611 0.67828614
0.5223884 0.95771205 0.61651105
0.5083608 0.88963145 0.55806267
0.49506494 0.82510817 0.50266314
0.48244679 0.76387411 0.45008773
0.47045594 0.70568383 0.40012556
0.4590466 0.65031606 0.35258687
0.44817761 0.59757018 0.30729932
0.4378114 0.54726428 0.26410678
0.4279139 0.49923283 0.2228671
0.41845399 0.45332518 0.18345089
0.40940326 0.40940326 0.1457396
0.40073583 0.36734122 0.10962516
0.39242771 0.32702309 0.075008109
0.38445711 0.28834283 0.041797265
0.37680385 0.25120258 0.0099087059
0.36944935 0.21551216 -0.020734951
0.36237645 0.18118823 -0.050205488
0.35556927 0.14815383 -0.078568786
0.34901312 0.11633775 -0.10588606
0.34269437 0.085673623 -0.13221419
0.33660033 0.056100082 -0.15760604
0.33071926 0.027559929 -0.18211049
0.32504016 8.1956387e-08 -0.2057734
0.31955278 -0.026629388 -0.22863731
0.31424764 -0.052374534 -0.2507422
0.30911577 -0.07727889 -0.27212501
0.30414882 -0.10138291 -0.2928206
0.29933897 -0.12472454 -0.31286168
0.29467887 -0.14733937 -0.33227882
0.3053101 -0.17809755 -0.2879819
0.31721172 -0.2114744 -0.23839194
0.33007884 -0.24755915 -0.18477884
0.34403491 -0.28669569 -0.12662855
0.3592222 -0.32928699 -0.063348114
0.37581232 -0.37581223 0.0057772994
0.39400899 -0.42684299 0.081596792
0.41405749 -0.48306704 0.16513228
0.43625566 -0.54531962 0.2576246
0.46097043 -0.61462718 0.36060286
0.48865181 -0.69225669 0.47594193
0.51987016 -0.77980512 0.6060183
0.55534953 -0.8793034 0.75384915
0.59602642 -0.99337727 0.92333597
0.58825177 1.0407531 0.70239943
0.57184726 0.96774155 0.63930506
0.55633503 0.89869511 0.57964289
0.5416401 0.83329248 0.52312368
0.52770144 0.77125609 0.46951371
0.51446223 0.71233231 0.41859353
0.50187105 0.65629292 0.37016591
0.48988146 0.60293108 0.32405216
0.4784514 0.55205929 0.28009033
0.46754247 0.50350738 0.23813315
0.45711997 0.45712003 0.19804651
0.44715202 0.41275579 0.15970811
0.43760949 0.37028497 0.12300619
0.42846578 0.32958913 0.087837905
0.41969633 0.29055902 0.054109275
0.41127867 0.25309455 0.021733657
0.40319198 0.21710339 -0.0093689561
0.39541721 0.1825003 -0.039271891
0.38793659 0.14920647 -0.068043515
0.38073376 0.11714893 -0.095746659
0.37379354 0.086260036 -0.12243997
0.36710179 0.056477297 -0.14817736
0.36064541 0.027741991 -0.17300954
0.35441223 7.4505806e-08 -0.19698329
0.34839085 -0.026799262 -0.22014253
0.34257066 -0.052703202 -0.24252787
0.33694172 -0.077755816 -0.26417765
0.33149478 -0.10199831 -0.28512737
0.32622117 -0.12546965 -0.30541056
0.32132071 -0.14830181 -0.32425839
0.33347654 -0.17956427 -0.27750519
0.34658742 -0.21328454 -0.22707893
0.36077136 -0.24976476 -0.17252514
0.37616584 -0.28935826 -0.11331572
0.39293265 -0.33248141 -0.048827976
0.41126388 -0.37962812 0.021676764
0.43139052 -0.43139052 0.099087149
0.45358703 -0.48847824 0.18445817
0.47819158 -0.55175948 0.27909112
0.50561857 -0.62229973 0.38457945
0.53638315 -0.70142406 0.50290477
0.57113409 -0.79080099 0.63656217
0.61070246 -0.89256513 0.78874826
0.65615851 -1.0094745 0.96357912
0.64040071 1.0520869 0.72703797
0.6223529 0.97798294 0.66258132
0.60529441 0.90794158 0.60165834
0.58914614 0.84163743 0.54398608
0.5738371 0.77877897 0.48931092
0.55930561 0.71910721 0.4374128
0.54548997 0.6623807 0.38807106
0.53234041 0.60838902 0.34110814
0.51980978 0.55693907 0.29635626
0.50785559 0.50785565 0.25366265
0.49643886 0.46097893 0.21288855
0.48552412 0.41616362 0.17390741
0.475079 0.37327641 0.13660355
0.46507385 0.3321957 0.10087079
0.45548141 0.29280943 0.066611975
0.44627666 0.25501525 0.033738002
0.43743664 0.21871834 0.0021662936
0.42893997 0.18383144 -0.028178878
0.4207671 0.15027395 -0.057367768
0.41289985 0.11797141 -0.085465074
0.40532139 0.086854607 -0.11253091
0.3980161 0.056859456 -0.13862114
0.39096951 0.027926385 -0.16378763
0.38416809 2.9802322e-08 -0.18807852
0.37759924 -0.026971348 -0.21153861
0.37125129 -0.053035855 -0.23420997
0.3651132 -0.078238502 -0.25613162
0.35917482 -0.10262135 -0.27734017
0.35342649 -0.12622364 -0.29786992
0.34880561 -0.14948809 -0.31437308
0.36210993 -0.18105495 -0.26685771
0.37646937 -0.21512534 -0.21557391
0.39201576 -0.25201014 -0.16005105
0.40890029 -0.29207158 -0.099749148
0.4273048 -0.33573934 -0.034018874
0.44744408 -0.38352352 0.037907287
0.4695757 -0.43603456 0.11694868
0.49401057 -0.49401051 0.20421603
0.52112985 -0.55835342 0.30107072
0.55139756 -0.63016856 0.40916944
0.58539796 -0.71084034 0.53059959
0.62386703 -0.80211455 0.6679889
0.66774756 -0.90622884 0.8247056
0.69369787 1.06367 0.7522189
0.67393893 0.98844373 0.68635565
0.65527439 0.91738415 0.62414068
0.63761586 0.8501544 0.56527871
0.62088406 0.78645319 0.50950617
0.60500795 0.72600955 0.45658576
0.58992344 0.66857994 0.40630418
0.57557291 0.61394441 0.35846883
0.56190395 0.56190401 0.31290582
0.54886913 0.51227796 0.26945651
0.53642541 0.46490204 0.22797731
0.52453339 0.4196268 0.1883373
