# .PCD v0.7 - Point Cloud Data file format
VERSION 0.7
FIELDS x y z
SIZE 4 4 4
TYPE F F F
COUNT 1 1 1
WIDTH 1338
HEIGHT 1
VIEWPOINT 0 0 0 1 0 0 0
POINTS 1338
DATA ascii
-0.9679141 0.28678942 0.23232615
-0.9679141 0.25094068 0.23232609
-0.9679141 0.215092 0.23232611
-0.9679141 0.17924339 0.23232611
-0.9679141 0.14339466 0.23232616
-0.9679141 0.10754614 0.23232606
-0.9679141 0.071697421 0.23232612
-0.9679141 0.035848729 0.23232603
-0.9679141 1.4901161e-08 0.23232611
-0.9679141 -0.035848603 0.23232609
-0.96791077 -0.071697049 0.23232009
-0.96791077 -0.10754557 0.23232
-0.96791077 -0.1433942 0.23231998
-0.96791077 -0.17924266 0.23231998
-0.96791077 -0.2150912 0.23232007
-0.96791077 -0.25093982 0.23232006
-0.96791077 -0.28678828 0.23232004
-0.96791077 -0.3226369 0.23232004
-0.92370272 0.49737841 0.21624403
-0.92369962 0.46184993 0.21623826
-0.92369962 0.426323 0.21623808
-0.92369962 0.39079604 0.21623816
-0.92369962 0.3552691 0.21623816
-0.92369962 0.3197422 0.21623811
-0.92369962 0.28421527 0.21623814
-0.92369962 0.24868838 0.21623811
-0.92369962 0.21316145 0.21623813
-0.92369962 0.17763469 0.21623814
-0.92369962 0.14210758 0.21623814
-0.92369962 0.10658075 0.21623808
-0.92369652 0.071053647 0.21623224
-0.92369652 0.035526812 0.21623217
-0.92369652 4.4703484e-08 0.2162322
-0.92369652 -0.035526797 0.21623212
-0.92369652 -0.071053565 0.21623215
-0.92369652 -0.10658033 0.21623218
-0.92369652 -0.14210708 0.2162322
-0.92369652 -0.17763385 0.21623221
-0.92369652 -0.21316069 0.21623215
-0.92369652 -0.24868746 0.21623217
-0.92369342 -0.28421336 0.21622625
-0.92369342 -0.31973997 0.21622613
-0.92369342 -0.35526666 0.21622624
-0.92369342 -0.39079329 0.21622619
-0.88027185 0.52816314 0.20043638
-0.88027185 0.49295229 0.2004364
-0.88027185 0.45774141 0.20043641
-0.88027185 0.42253059 0.20043638
-0.88027185 0.38731965 0.20043643
-0.88027185 0.35210872 0.20043635
-0.88027185 0.31689793 0.20043641
-0.88027185 0.28168705 0.20043646
-0.88027185 0.24647622 0.20043643
-0.88026899 0.21126457 0.20043048
-0.88026899 0.17605379 0.20043057
-0.88026899 0.14084305 0.20043047
-0.88026899 0.10563232 0.20043051
-0.88026899 0.070421584 0.20043056
-0.88026899 0.035210758 0.20043051
-0.88026899 2.2351742e-08 0.20043057
-0.88026899 -0.035210714 0.20043062
-0.88026899 -0.070421442 0.2004305
-0.88026899 -0.10563217 0.20043054
-0.88026595 -0.14084257 0.20042461
-0.88026595 -0.17605314 0.20042469
-0.88026595 -0.21126379 0.20042467
-0.88026595 -0.24647444 0.20042463
-0.88026595 -0.28168508 0.20042461
-0.88026595 -0.31689572 0.20042475
-0.88026595 -0.3521063 0.20042466
-0.88026595 -0.38731706 0.20042467
-0.88026595 -0.42252767 0.20042467
-0.88026595 -0.45773834 0.20042463
-0.83760989 0.55840659 0.18491325
-0.83760989 0.52350628 0.18491337
-0.83760989 0.4886058 0.18491326
-0.83760989 0.45370531 0.18491328
-0.83760989 0.41880491 0.18491323
-0.83760989 0.38390458 0.18491328
-0.83760715 0.34900293 0.18490751
-0.83760715 0.31410271 0.1849076
-0.83760715 0.2792024 0.18490748
-0.83760715 0.24430211 0.18490748
-0.83760715 0.20940179 0.18490754
-0.83760715 0.17450145 0.18490757
-0.83760715 0.13960126 0.18490751
-0.83760715 0.10470097 0.18490751
-0.83760715 0.0698006 0.1849076
-0.83760715 0.034900308 0.1849076
-0.83760434 2.2351742e-08 0.18490177
-0.83760434 -0.034900099 0.1849018
-0.83760434 -0.069800384 0.1849018
-0.83760434 -0.10470058 0.18490171
-0.83760434 -0.13960069 0.18490174
-0.83760434 -0.17450099 0.18490174
-0.83760434 -0.20940101 0.18490186
-0.83760434 -0.24430121 0.18490177
-0.83760434 -0.27920133 0.1849018
-0.83760434 -0.31410164 0.1849018
-0.83760434 -0.34900174 0.18490183
-0.8376016 -0.38390076 0.18489599
-0.8376016 -0.41880089 0.18489605
-0.8376016 -0.45370081 0.18489605
-0.8376016 -0.48860085 0.18489599
-0.8376016 -0.52350098 0.18489601
-0.8376016 -0.55840099 0.18489601
-0.79569376 0.58812153 0.16966161
-0.79569376 0.55352598 0.16966149
-0.79569376 0.51893073 0.16966157
-0.79569113 0.48433369 0.16965581
-0.79569113 0.44973841 0.16965589
-0.79569113 0.41514334 0.16965596
-0.79569113 0.38054794 0.16965583
-0.79569113 0.34595266 0.1696559
-0.79569113 0.31135747 0.16965593
-0.79569113 0.27676213 0.16965592
-0.79569113 0.24216685 0.16965586
-0.79569113 0.20757166 0.16965589
-0.79569113 0.17297643 0.16965593
-0.79568845 0.13838072 0.16965026
-0.79568845 0.10378555 0.16965024
-0.79568845 0.06919039 0.16965024
-0.79568845 0.034595229 0.16965023
-0.79568845 6.7055225e-08 0.16965023
-0.79568845 -0.034595095 0.1696502
-0.79568845 -0.069190256 0.1696502
-0.79568845 -0.10378541 0.1696502
-0.79568845 -0.13838059 0.1696502
-0.79568845 -0.17297566 0.16965026
-0.79568845 -0.20757091 0.16965033
-0.79568583 -0.24216522 0.16964455
-0.79568583 -0.27676031 0.16964464
-0.79568583 -0.31135538 0.16964455
-0.79568583 -0.34595037 0.16964456
-0.79568583 -0.38054538 0.16964456
-0.79568583 -0.41514045 0.16964462
-0.79568583 -0.44973546 0.16964465
-0.79568583 -0.48433051 0.16964456
-0.79568583 -0.51892549 0.16964456
-0.79568583 -0.55352062 0.16964465
-0.79568583 -0.58811557 0.16964452
-0.79568332 -0.6227085 0.16963886
-0.7545014 0.61731923 0.15466851
-0.7545014 0.58302379 0.15466848
-0.7545014 0.54872841 0.15466863
-0.7545014 0.51443279 0.15466854
-0.7545014 0.48013726 0.15466855
-0.7545014 0.44584173 0.15466855
-0.7545014 0.41154629 0.15466861
-0.7545014 0.37725073 0.15466863
-0.7545014 0.34295514 0.15466854
-0.7545014 0.30865973 0.15466857
-0.75449896 0.27436334 0.15466301
-0.75449896 0.24006788 0.15466292
-0.75449896 0.20577243 0.15466301
-0.75449896 0.17147706 0.15466301
-0.75449896 0.13718162 0.15466294
-0.75449896 0.10288626 0.15466294
-0.75449896 0.068590894 0.15466295
-0.75449896 0.03429554 0.15466295
-0.75449896 8.9406967e-08 0.15466304
-0.75449896 -0.034295358 0.15466297
-0.75449896 -0.068590805 0.15466306
-0.75449651 -0.10288585 0.15465742
-0.75449651 -0.13718122 0.15465742
-0.75449651 -0.17147648 0.15465735
-0.75449651 -0.20577167 0.15465738
-0.75449651 -0.24006703 0.15465738
-0.75449651 -0.27436233 0.15465748
-0.75449651 -0.30865762 0.15465741
-0.75449651 -0.34295282 0.15465742
-0.75449651 -0.37724826 0.15465751
-0.75449651 -0.41154352 0.15465745
-0.75449651 -0.44583878 0.15465738
-0.75449407 -0.48013252 0.15465179
-0.75449407 -0.51442766 0.15465187
-0.75449407 -0.54872286 0.15465188
-0.75449407 -0.58301812 0.15465187
-0.75449407 -0.61731333 0.15465188
-0.75449407 -0.65160835 0.15465187
-0.75449407 -0.68590361 0.15465185
-0.7140193 0.64601749 0.13993865
-0.7140193 0.61201656 0.13993873
-0.7140193 0.57801569 0.1399387
-0.7140193 0.54401469 0.13993861
-0.7140193 0.51001388 0.13993876
-0.7140193 0.47601295 0.13993868
-0.7140193 0.44201201 0.13993865
-0.71401703 0.40800977 0.13993323
-0.71401703 0.37400892 0.13993326
-0.71401703 0.34000814 0.13993323
-0.71401703 0.30600727 0.13993324
-0.71401703 0.27200648 0.13993321
-0.71401703 0.23800579 0.13993324
-0.71401703 0.20400491 0.13993312
-0.71401703 0.17000407 0.13993315
-0.71401703 0.13600329 0.13993324
-0.71401703 0.10200249 0.13993323
-0.71401703 0.068001688 0.1399332
-0.71401471 0.03400078 0.13992776
-0.71401471 -2.2351742e-08 0.13992774
-0.71401471 -0.034000661 0.13992772
-0.71401471 -0.068001382 0.13992779
-0.71401471 -0.10200202 0.13992777
-0.71401471 -0.13600282 0.13992776
-0.71401471 -0.17000344 0.13992774
-0.71401471 -0.20400409 0.13992773
-0.71401471 -0.23800489 0.13992772
-0.71401471 -0.27200553 0.13992772
-0.71401471 -0.30600625 0.13992776
-0.71401244 -0.34000582 0.13992226
-0.71401244 -0.37400654 0.13992232
-0.71401244 -0.40800706 0.13992225
-0.71401244 -0.44200766 0.13992226
-0.71401244 -0.47600827 0.13992229
-0.71401244 -0.51000875 0.13992225
-0.71401244 -0.54400939 0.13992228
-0.71401244 -0.57800996 0.13992228
-0.71401244 -0.6120106 0.13992226
-0.71401244 -0.64601117 0.13992217
-0.71401018 -0.68000954 0.13991675
-0.71401018 -0.71401 0.13991675
-0.71401018 -0.74801052 0.13991678
-0.71401018 -0.78201115 0.13991693
-0.67422682 0.67422682 0.12545967
-0.67422682 0.64051545 0.12545964
-0.67422682 0.60680413 0.12545967
-0.67422682 0.57309282 0.12545966
-0.67422682 0.5393815 0.12545973
-0.67422682 0.50567007 0.12545969
-0.67422467 0.4719573 0.12545429
-0.67422467 0.43824601 0.12545434
-0.67422467 0.40453482 0.12545429
-0.67422467 0.37082362 0.12545443
-0.67422467 0.33711237 0.12545443
-0.67422467 0.30340111 0.12545431
-0.67422467 0.26968989 0.12545431
-0.67422467 0.23597872 0.1254544
-0.67422467 0.20226738 0.12545434
-0.67422253 0.1685556 0.12544897
-0.67422253 0.13484454 0.12544899
-0.67422253 0.10113335 0.12544894
-0.67422253 0.067422293 0.12544896
-0.67422253 0.033711139 0.12544903
-0.67422253 -3.7252903e-09 0.12544897
-0.67422253 -0.033711065 0.12544897
-0.67422253 -0.067422301 0.12544897
-0.67422253 -0.10113336 0.12544899
-0.67422253 -0.1348445 0.12544891
-0.67422253 -0.16855566 0.125449
-0.67422038 -0.20226607 0.12544356
-0.67422038 -0.23597705 0.12544367
-0.67422038 -0.26968804 0.12544361
-0.67422038 -0.30339909 0.12544362
-0.67422038 -0.33711016 0.12544362
-0.67422038 -0.37082121 0.12544364
-0.67422038 -0.40453219 0.12544358
-0.67422038 -0.43824315 0.12544356
-0.67422038 -0.4719542 0.12544356
-0.67422038 -0.50566524 0.12544356
-0.67421818 -0.53937453 0.1254382
-0.67421818 -0.57308543 0.12543818
-0.67421818 -0.60679638 0.12543818
-0.67421818 -0.64050728 0.12543821
-0.67421818 -0.67421812 0.12543812
-0.67421818 -0.70792907 0.12543824
-0.67421818 -0.74164003 0.12543818
-0.67421818 -0.77535081 0.12543815
-0.67421818 -0.80906194 0.1254383
-0.67421818 -0.84277272 0.12543824
-0.63510638 0.66853309 0.11122528
-0.63510638 0.63510644 0.11122531
-0.63510442 0.60167789 0.11122009
-0.63510442 0.56825137 0.11122005
-0.63510442 0.53482485 0.11122005
-0.63510442 0.50139827 0.11122006
-0.63510442 0.46797168 0.11122005
-0.63510442 0.43454519 0.11122002
-0.63510442 0.40111858 0.11122005
-0.63510442 0.36769211 0.11121997
-0.63510442 0.33426553 0.11121997
-0.63510239 0.30083799 0.11121471
-0.63510239 0.26741159 0.11121472
-0.63510239 0.23398516 0.11121477
-0.63510239 0.20055866 0.1112147
-0.63510239 0.16713227 0.11121471
-0.63510239 0.13370584 0.11121476
-0.63510239 0.10027937 0.11121468
-0.63510239 0.066852972 0.1112147
-0.63510239 0.033426408 0.1112147
-0.63510239 1.4901161e-08 0.11121471
-0.63510239 -0.033426382 0.11121473
-0.63510036 -0.066852637 0.11120942
-0.63510036 -0.10027903 0.11120944
-0.63510036 -0.13370533 0.11120937
-0.63510036 -0.16713156 0.1112094
-0.63510036 -0.20055798 0.11120958
-0.63510036 -0.23398435 0.11120943
-0.63510036 -0.26741067 0.11120953
-0.63510036 -0.30083698 0.11120946
-0.63510036 -0.33426327 0.1112094
-0.63510036 -0.36768967 0.11120941
-0.63509834 -0.40111476 0.11120419
-0.63509834 -0.43454099 0.11120422
-0.63509834 -0.46796715 0.11120413
-0.63509834 -0.50139344 0.1112041
-0.63509834 -0.5348196 0.11120419
-0.63509834 -0.56824589 0.11120416
-0.63509834 -0.60167211 0.11120413
-0.63509834 -0.63509834 0.11120418
-0.63509834 -0.66852462 0.11120418
-0.63509834 -0.70195073 0.11120415
-0.63509834 -0.73537695 0.11120412
-0.63509637 -0.76880074 0.11119878
-0.63509637 -0.8022269 0.11119884
-0.63509637 -0.83565307 0.1111989
-0.63509637 -0.86907917 0.11119881
-0.63509637 -0.90250528 0.11119878
-0.59663934 0.69607919 0.097224027
-0.59663934 0.66293257 0.097224027
-0.59663934 0.62978595 0.097223997
-0.59663934 0.59663928 0.097224027
-0.59663934 0.56349266 0.097224042
-0.59663934 0.53034604 0.097224027
-0.59663934 0.49719948 0.097224101
-0.59663934 0.46405286 0.097224087
-0.59663934 0.43090618 0.097224146
-0.59663749 0.39775831 0.097218931
-0.59663749 0.3646118 0.097218961
-0.59663749 0.33146524 0.097218871
-0.59663749 0.29831874 0.097218908
-0.59663749 0.26517224 0.097218953
-0.59663749 0.23202571 0.097218864
-0.59663749 0.19887914 0.097218812
-0.59663749 0.16573259 0.097218901
-0.59663749 0.13258614 0.097218908
-0.59663749 0.099439681 0.097218901
-0.59663558 0.066292845 0.097213723
-0.59663558 0.033146475 0.097213656
-0.59663558 9.6857548e-08 0.097213745
-0.59663558 -0.033146441 0.097213656
-0.59663558 -0.066292726 0.097213671
-0.59663558 -0.099439271 0.097213753
-0.59663558 -0.13258564 0.097213678
-0.59663558 -0.1657321 0.097213686
-0.59663558 -0.19887856 0.097213693
-0.59663558 -0.23202485 0.0972137
-0.59663373 -0.26517048 0.097208448
-0.59663373 -0.29831678 0.097208455
-0.59663373 -0.33146307 0.097208478
-0.59663373 -0.36460951 0.097208485
-0.59663373 -0.39775568 0.09720847
-0.59663373 -0.43090209 0.0972085
-0.59663373 -0.46404845 0.097208485
-0.59663373 -0.49719471 0.0972085
-0.59663373 -0.53034103 0.097208455
-0.59663373 -0.56348741 0.097208455
-0.59663373 -0.59663373 0.097208589
-0.59663182 -0.62977797 0.097203285
-0.59663182 -0.66292417 0.097203225
-0.59663182 -0.69607043 0.097203285
-0.59663182 -0.72921669 0.097203285
-0.59663182 -0.76236284 0.097203285
-0.59663182 -0.7955091 0.097203344
-0.59663182 -0.82865536 0.097203434
-0.59663182 -0.86180151 0.097203285
-0.59663182 -0.89494765 0.097203255
-0.59663182 -0.92809391 0.097203285
-0.59663182 -0.96124017 0.097203344
-0.5588131 0.72316992 0.083460599
-0.5588131 0.69029862 0.083460659
-0.5588131 0.65742719 0.083460599
-0.5588131 0.62455589 0.083460689
-0.5588131 0.59168446 0.083460659
-0.5588131 0.55881315 0.083460659
-0.55881137 0.52594012 0.083455443
-0.55881137 0.4930689 0.083455548
-0.55881137 0.46019763 0.083455533
-0.55881137 0.42732638 0.083455533
-0.55881137 0.39445508 0.083455548
-0.55881137 0.36158389 0.083455488
-0.55881137 0.32871258 0.083455503
-0.55881137 0.29584134 0.083455496
-0.55881137 0.26297003 0.083455518
-0.55881137 0.23009886 0.0834556
-0.55880964 0.19722697 0.083450459
-0.55880964 0.16435581 0.083450362
-0.55880964 0.13148469 0.083450392
-0.55880964 0.09861356 0.083450429
-0.55880964 0.065742344 0.083450377
-0.55880964 0.032871261 0.083450377
-0.55880964 1.1175871e-08 0.083450362
-0.55880964 -0.032871075 0.083450355
-0.55880964 -0.065742247 0.083450422
-0.55880964 -0.098613404 0.083450332
-0.55880791 -0.13148421 0.083445363
-0.55880791 -0.1643552 0.083445281
-0.55880791 -0.19722629 0.083445281
-0.55880791 -0.23009737 0.083445273
-0.55880791 -0.26296836 0.083445191
-0.55880791 -0.29583955 0.083445258
-0.55880791 -0.32871047 0.083445281
-0.55880791 -0.36158153 0.083445281
-0.55880791 -0.39445257 0.083445311
-0.55880791 -0.42732352 0.083445266
-0.55880791 -0.46019471 0.083445355
-0.55880618 -0.49306428 0.08344017
-0.55880618 -0.52593517 0.08344017
-0.55880618 -0.55880612 0.083440185
-0.55880618 -0.59167707 0.083440185
-0.55880618 -0.62454808 0.083440185
-0.55880618 -0.65741903 0.083440214
-0.55880618 -0.69028986 0.083440125
-0.55880618 -0.72316086 0.083440185
-0.55880618 -0.75603187 0.083440274
-0.55880618 -0.78890276 0.083440185
-0.55880618 -0.82177371 0.083440155
-0.55880439 -0.85464203 0.083434999
-0.55880439 -0.8875128 0.083434969
-0.55880439 -0.92038375 0.083435118
-0.55880439 -0.95325458 0.083435059
-0.55880439 -0.98612535 0.083434999
-0.55880439 -1.0189962 0.083435148
-0.55880439 -1.0518671 0.083435059
-0.52161002 0.74981427 0.069923788
-0.52161002 0.71721375 0.069923788
-0.52161002 0.68461323 0.069923937
-0.52160841 0.65201044 0.069918841
-0.52160841 0.61941004 0.069918841
-0.52160841 0.5868094 0.069918811
-0.52160841 0.55420899 0.069918916
-0.52160841 0.52160835 0.069918856
-0.52160841 0.48900789 0.069918856
-0.52160841 0.45640743 0.069918886
-0.52160841 0.42380688 0.069918931
-0.52160841 0.39120632 0.069918856
-0.52160841 0.35860571 0.069918826
-0.52160841 0.32600522 0.069918841
-0.52160674 0.29340383 0.069913805
-0.52160674 0.26080352 0.069913834
-0.52160674 0.22820289 0.069913805
-0.52160674 0.19560258 0.069913834
-0.52160674 0.16300213 0.069913805
-0.52160674 0.13040173 0.069913916
-0.52160674 0.097801253 0.069913767
-0.52160674 0.065200932 0.069913797
-0.52160674 0.032600399 0.069913849
-0.52160674 -4.4703484e-08 0.069913834
-0.52160674 -0.032600321 0.069913819
-0.52160513 -0.065200649 0.06990882
-0.52160513 -0.097800925 0.069908813
-0.52160513 -0.13040128 0.069908708
-0.52160513 -0.16300148 0.069908783
-0.52160513 -0.19560193 0.069908768
-0.52160513 -0.22820219 0.06990876
-0.52160513 -0.26080257 0.069908835
-0.52160513 -0.29340285 0.06990882
-0.52160513 -0.32600319 0.069908895
-0.52160358 -0.3586024 0.069903716
-0.52160358 -0.39120269 0.069903746
-0.52160358 -0.42380291 0.069903791
-0.52160358 -0.45640305 0.069903746
-0.52160358 -0.4890033 0.069903776
-0.52160358 -0.52160358 0.069903761
-0.52160358 -0.55420369 0.069903731
-0.52160358 -0.58680391 0.069903761
-0.52160358 -0.6194042 0.069903791
-0.52160358 -0.6520043 0.069903761
-0.52160358 -0.68460459 0.069903761
-0.52160197 -0.7172026 0.069898695
-0.52160197 -0.74980283 0.069898784
-0.52160197 -0.78240281 0.069898695
-0.52160197 -0.81500304 0.069898725
-0.52160197 -0.84760308 0.069898665
-0.52160197 -0.88020325 0.069898784
-0.52160197 -0.91280335 0.069898754
-0.52160197 -0.94540334 0.069898695
-0.52160197 -0.97800362 0.069898754
-0.52160197 -1.0106035 0.069898695
-0.52160197 -1.0432038 0.069898725
-0.48501322 0.77602124 0.056603372
-0.48501322 0.74368703 0.056603402
-0.48501322 0.71135283 0.056603372
-0.48501322 0.6790185 0.056603283
-0.48501322 0.64668423 0.056603283
-0.48501322 0.61435002 0.056603253
-0.48501322 0.58201599 0.056603462
-0.48501322 0.54968178 0.056603432
-0.48501322 0.5173474 0.056603357
-0.48501322 0.48501319 0.056603327
-0.48501322 0.45267904 0.056603298
-0.48501173 0.42034352 0.05659841
-0.48501173 0.38800943 0.05659844
-0.48501173 0.35567528 0.056598365
-0.48501173 0.32334113 0.056598321
-0.48501173 0.29100707 0.056598343
-0.48501173 0.25867295 0.056598403
-0.48501173 0.22633879 0.056598336
-0.48501173 0.19400471 0.056598358
-0.48501173 0.16167064 0.056598388
-0.48501173 0.12933645 0.056598369
-0.48501173 0.097002365 0.056598391
-0.48501027 0.064668112 0.056593377
-0.48501027 0.032333992 0.05659344
-0.48501027 3.5390258e-08 0.056593515
-0.48501027 -0.032333996 0.056593508
-0.48501027 -0.06466803 0.056593493
-0.48501027 -0.097001962 0.056593403
-0.48501027 -0.12933601 0.056593556
-0.48501027 -0.16167003 0.056593373
-0.48501027 -0.19400406 0.056593537
-0.48500875 -0.22633739 0.056588501
-0.48500875 -0.25867125 0.056588501
-0.48500875 -0.29100513 0.056588493
-0.48500875 -0.32333916 0.056588486
-0.48500875 -0.35567302 0.056588486
-0.48500875 -0.38800693 0.056588441
-0.48500875 -0.4203409 0.056588471
-0.48500875 -0.45267484 0.05658859
-0.48500875 -0.48500866 0.056588471
-0.48500875 -0.51734263 0.056588486
-0.48500875 -0.54967654 0.05658859
-0.48500726 -0.58200866 0.056583524
-0.48500726 -0.61434257 0.056583524
-0.48500726 -0.64667636 0.056583554
-0.48500726 -0.67901009 0.056583524
-0.48500726 -0.71134388 0.056583583
-0.48500726 -0.74367768 0.056583494
-0.48500726 -0.77601159 0.056583613
-0.48500726 -0.80834538 0.056583524
-0.48500726 -0.84067929 0.056583613
-0.48500726 -0.87301308 0.056583583
-0.48500726 -0.90534681 0.056583494
-0.48500726 -0.93768066 0.056583524
-0.4850058 -0.97001147 0.056578577
-0.4850058 -1.0023452 0.056578636
-0.4850058 -1.0346789 0.056578636
-0.44901106 0.80180556 0.043503642
-0.44901106 0.76973331 0.043503702
-0.44901106 0.73766106 0.043503582
-0.44901106 0.70558882 0.043503642
-0.44901106 0.67351663 0.043503672
-0.44901106 0.64144444 0.043503672
-0.44901106 0.60937226 0.043503702
-0.44901106 0.57729995 0.043503612
-0.44900972 0.5452261 0.043498755
-0.44900972 0.51315397 0.04349871
-0.44900972 0.48108178 0.04349871
-0.44900972 0.44900972 0.043498755
-0.44900972 0.41693756 0.043498725
-0.44900972 0.38486552 0.043498769
-0.44900972 0.35279337 0.043498725
-0.44900972 0.32072133 0.043498769
-0.44900972 0.28864914 0.043498769
-0.44900972 0.25657707 0.043498814
-0.44900972 0.22450492 0.043498777
-0.44900835 0.19243217 0.043493912
-0.44900835 0.1603602 0.043493882
-0.44900835 0.12828819 0.043493897
-0.44900835 0.096216135 0.043493949
-0.44900835 0.064144045 0.043493867
-0.44900835 0.032072023 0.043493874
-0.44900835 9.3132257e-09 0.043493886
-0.44900835 -0.032072004 0.043493897
-0.44900835 -0.064144015 0.043493904
-0.44900835 -0.096216038 0.043493919
-0.44900697 -0.12828769 0.04348905
-0.44900697 -0.16035962 0.043488987
-0.44900697 -0.19243155 0.043489084
-0.44900697 -0.22450349 0.043489017
-0.44900697 -0.2565755 0.043489024
-0.44900697 -0.28864735 0.043489054
-0.44900697 -0.32071924 0.043488979
-0.44900697 -0.35279125 0.043489039
-0.44900697 -0.38486308 0.043489054
-0.44900697 -0.41693497 0.043489024
-0.44900563 -0.44900554 0.043484122
-0.44900563 -0.48107737 0.043484196
-0.44900563 -0.51314926 0.043484151
-0.44900563 -0.54522109 0.043484062
-0.44900563 -0.57729286 0.043484122
-0.44900563 -0.60936469 0.043484151
-0.44900563 -0.64143658 0.043484181
-0.44900563 -0.67350841 0.043484211
-0.44900563 -0.70558023 0.043484092
-0.44900563 -0.73765206 0.043484122
-0.44900563 -0.76972389 0.043484151
-0.44900563 -0.80179572 0.043484211
-0.44900426 -0.83386493 0.043479234
-0.44900426 -0.86593676 0.043479323
-0.44900426 -0.89800847 0.043479294
-0.44900426 -0.93008029 0.043479353
-0.44900426 -0.96215189 0.043479264
-0.44900426 -0.99422359 0.043479264
-0.41358766 0.82717538 0.030614495
-0.41358766 0.79536104 0.030614555
-0.41358766 0.76354647 0.030614406
-0.41358766 0.73173201 0.030614465
-0.41358766 0.69991767 0.030614495
-0.41358644 0.66810119 0.030609727
-0.41358644 0.63628685 0.030609727
-0.41358644 0.60447252 0.030609727
-0.41358644 0.57265806 0.030609637
-0.41358644 0.54084384 0.030609727
-0.41358644 0.50902951 0.030609727
-0.41358644 0.47721508 0.030609637
-0.41358644 0.4454008 0.030609742
-0.41358644 0.41358644 0.030609623
-0.41358644 0.38177216 0.030609712
-0.41358644 0.34995779 0.030609727
-0.41358516 0.3181425 0.030604884
-0.41358516 0.28632826 0.030604824
-0.41358516 0.25451401 0.030604884
-0.41358516 0.22269972 0.030604847
-0.41358516 0.19088553 0.030604869
-0.41358516 0.15907124 0.030604839
-0.41358516 0.127257 0.030604899
-0.41358516 0.095442742 0.030604836
-0.41358516 0.063628517 0.030604893
-0.41358516 0.031814255 0.030604824
-0.41358393 1.2759119e-07 0.030600075
-0.41358393 -0.031814098 0.030600134
-0.41358393 -0.063628234 0.030600116
-0.41358393 -0.09544237 0.030600099
-0.41358393 -0.12725651 0.030600078
-0.41358393 -0.15907064 0.030600067
-0.41358393 -0.19088486 0.030600123
-0.41358393 -0.22269902 0.030600108
-0.41358393 -0.25451314 0.030600086
-0.41358393 -0.28632727 0.030600071
-0.41358268 -0.31814048 0.030595303
-0.41358268 -0.34995458 0.030595332
-0.41358268 -0.38176864 0.030595392
-0.41358268 -0.41358268 0.030595303
-0.41358268 -0.44539672 0.030595392
-0.41358268 -0.47721073 0.030595332
-0.41358268 -0.5090248 0.030595228
-0.41358268 -0.54083884 0.030595303
-0.41358268 -0.57265294 0.030595332
-0.41358268 -0.60446692 0.030595303
-0.41358268 -0.63628101 0.030595362
-0.41358268 -0.66809505 0.030595243
-0.41358146 -0.699907 0.030590504
-0.41358146 -0.73172092 0.030590475
-0.41358146 -0.7635349 0.030590504
-0.41358146 -0.79534888 0.030590534
-0.41358146 -0.8271628 0.030590534
-0.41358146 -0.8589769 0.030590594
-0.41358146 -0.89079064 0.030590445
-0.41358146 -0.92260474 0.030590504
-0.41358146 -0.95441866 0.030590564
-0.41358146 -0.98623264 0.030590564
-0.37872916 0.85214067 0.017930955
-0.37872916 0.82057989 0.017930895
-0.37872803 0.78901684 0.017926157
-0.37872803 0.75745618 0.017926276
-0.37872803 0.7258954 0.017926067
-0.37872803 0.69433469 0.017926067
-0.37872803 0.66277409 0.017926127
-0.37872803 0.63121343 0.017926157
-0.37872803 0.59965277 0.017926127
-0.37872803 0.56809205 0.017926127
-0.37872803 0.53653145 0.017926216
-0.37872803 0.50497079 0.017926201
-0.37872803 0.47341007 0.017926186
-0.37872693 0.4418481 0.017921492
-0.37872693 0.41028759 0.017921478
-0.37872693 0.37872696 0.017921448
-0.37872693 0.34716636 0.017921507
-0.37872693 0.31560576 0.017921433
-0.37872693 0.28404528 0.017921418
-0.37872693 0.25248462 0.017921388
-0.37872693 0.22092411 0.017921537
-0.37872693 0.18936351 0.01792147
-0.37872693 0.15780294 0.01792153
-0.3787258 0.12624195 0.017916739
-0.3787258 0.094681546 0.01791681
-0.3787258 0.063121058 0.017916791
-0.3787258 0.031560525 0.017916812
-0.3787258 4.0046871e-08 0.017916793
-0.3787258 -0.031560447 0.017916773
-0.3787258 -0.063120931 0.017916754
-0.3787258 -0.094681412 0.017916735
-0.3787258 -0.12624182 0.017916806
-0.3787258 -0.15780231 0.017916791
-0.3787258 -0.18936279 0.017916769
-0.37872463 -0.2209226 0.017912067
-0.37872463 -0.25248307 0.017912045
-0.37872463 -0.2840434 0.017912045
-0.37872463 -0.31560373 0.017911986
-0.37872463 -0.34716427 0.017912135
-0.37872463 -0.37872466 0.017912045
-0.37872463 -0.410285 0.017912
-0.37872463 -0.4418453 0.017911986
-0.37872463 -0.47340572 0.01791206
-0.37872463 -0.5049662 0.01791209
-0.37872463 -0.53652656 0.017912
-0.37872463 -0.56808698 0.01791206
-0.37872463 -0.59964728 0.01791206
-0.3787235 -0.63120574 0.017907292
-0.3787235 -0.66276616 0.017907351
-0.3787235 -0.69432634 0.017907321
-0.3787235 -0.7258867 0.017907321
-0.3787235 -0.757447 0.017907321
-0.3787235 -0.78900731 0.017907321
-0.3787235 -0.82056761 0.017907321
-0.3787235 -0.85212803 0.017907411
-0.3787235 -0.88368809 0.017907232
-0.3787235 -0.91524839 0.017907262
-0.3787235 -0.94680882 0.017907351
-0.34442115 0.87670851 0.0054433644
-0.34442115 0.84539741 0.0054433644
-0.34442115 0.81408644 0.0054433346
-0.34442115 0.7827754 0.005443275
-0.34442115 0.75146437 0.0054433644
-0.34442115 0.72015333 0.0054432154
-0.34442115 0.68884236 0.0054433048
-0.34442115 0.65753138 0.005443424
-0.34442115 0.62622029 0.0054433048
-0.34442115 0.59490931 0.0054433644
-0.34442014 0.56359655 0.0054386854
-0.34442014 0.53228569 0.0054387152
-0.34442014 0.50097477 0.0054387152
-0.34442014 0.4696638 0.0054386407
-0.34442014 0.43835291 0.0054386556
-0.34442014 0.40704203 0.0054386854
-0.34442014 0.37573111 0.0054387003
-0.34442014 0.34442014 0.0054386258
-0.34442014 0.31310925 0.0054386556
-0.34442014 0.2817983 0.0054387003
-0.34441909 0.25048661 0.0054340512
-0.34441909 0.21917582 0.0054340065
-0.34441909 0.18786505 0.0054340661
-0.34441909 0.15655407 0.005433999
-0.34441909 0.12524334 0.0054340325
-0.34441909 0.093932569 0.0054341033
-0.34441909 0.062621593 0.0054340307
-0.34441909 0.031310871 0.0054340633
-0.34441909 6.519258e-08 0.0054340037
-0.34441909 -0.031310741 0.005433945
-0.34441909 -0.062621556 0.005434053
-0.34441808 -0.093932196 0.005429443
-0.34441808 -0.1252429 0.0054293051
-0.34441808 -0.15655357 0.0054294243
-0.34441808 -0.18786436 0.0054293722
-0.34441808 -0.2191751 0.005429402
-0.34441808 -0.2504859 0.0054293498
-0.34441808 -0.28179654 0.0054294616
-0.34441808 -0.31310737 0.005429402
-0.34441808 -0.34441799 0.0054293573
-0.34441808 -0.37572876 0.0054293424
-0.34441808 -0.40703946 0.0054293722
-0.34441808 -0.43835026 0.0054293722
-0.34441808 -0.469661 0.0054293573
-0.34441707 -0.50097018 0.0054247975
-0.34441707 -0.53228086 0.0054247081
-0.34441707 -0.5635916 0.0054247379
-0.34441707 -0.59490216 0.0054247677
-0.34441707 -0.62621278 0.0054247379
-0.34441707 -0.65752339 0.0054246783
-0.34441707 -0.68883407 0.0054247975
-0.34441707 -0.72014469 0.0054247677
-0.34441707 -0.75145543 0.0054247975
-0.34441707 -0.78276604 0.0054248273
-0.34441707 -0.81407666 0.0054247975
-0.34441707 -0.84538734 0.0054248273
-0.34441707 -0.8766979 0.0054247081
-0.34441707 -0.90800846 0.0054247081
-0.34441605 -0.93931645 0.0054201186
-0.31065273 0.90089297 -0.0068435967
-0.31065273 0.86982775 -0.0068436265
-0.31065273 0.8387624 -0.0068435967
-0.31065273 0.80769718 -0.0068437159
-0.31065273 0.77663183 -0.0068436563
-0.31065273 0.74556667 -0.0068435669
-0.31065273 0.71450138 -0.0068435669
-0.31065184 0.68343401 -0.0068481863
-0.31065184 0.65236878 -0.0068482459
-0.31065184 0.62130368 -0.0068483055
-0.31065184 0.59023845 -0.0068482459
-0.31065184 0.55917335 -0.0068481863
-0.31065184 0.52810818 -0.0068482161
-0.31065184 0.49704301 -0.0068481565
-0.31065184 0.46597776 -0.0068481714
-0.31065184 0.43491256 -0.0068482012
-0.31065184 0.40384737 -0.0068482459
-0.31065094 0.3727811 -0.0068527311
-0.31065094 0.34171605 -0.0068527609
-0.31065094 0.31065094 -0.0068527162
-0.31065094 0.2795859 -0.0068527311
-0.31065094 0.24852081 -0.0068527386
-0.31065094 0.21745569 -0.0068528354
-0.31065094 0.18639052 -0.0068527684
-0.31065094 0.15532547 -0.0068527684
-0.31065094 0.1242604 -0.0068527833
-0.31065094 0.093195334 -0.0068527907
-0.31065094 0.062130231 -0.006852759
-0.31065002 0.031065002 -0.0068573458
-0.31065002 1.7229468e-08 -0.0068572629
-0.31065002 -0.031064998 -0.0068573095
-0.31065002 -0.062129937 -0.0068572666
-0.31065002 -0.093194954 -0.0068573132
-0.31065002 -0.12425989 -0.0068572685
-0.31065002 -0.15532491 -0.0068573207
-0.31065002 -0.18639001 -0.0068572834
-0.31065002 -0.21745494 -0.0068574101
-0.31065002 -0.24851997 -0.0068572834
-0.31065002 -0.279585 -0.0068573505
-0.31065002 -0.31064993 -0.0068572909
-0.31065002 -0.34171495 -0.0068573356
-0.3106491 -0.37277886 -0.0068619549
-0.3106491 -0.40384376 -0.0068618655
-0.3106491 -0.43490869 -0.0068618208
-0.3106491 -0.46597359 -0.0068619102
-0.3106491 -0.49703854 -0.0068618655
-0.3106491 -0.52810335 -0.0068618953
-0.3106491 -0.55916834 -0.0068618953
-0.3106491 -0.59023321 -0.0068619251
-0.3106491 -0.62129813 -0.0068618953
-0.3106491 -0.65236306 -0.0068618357
-0.3106491 -0.68342805 -0.0068618059
-0.3106491 -0.71449286 -0.0068618357
-0.3106491 -0.74555784 -0.0068618655
-0.3106491 -0.77662259 -0.0068619549
-0.3106491 -0.80768752 -0.0068619251
-0.3106491 -0.83875251 -0.0068618655
-0.31064817 -0.86981487 -0.0068664253
-0.31064817 -0.90087962 -0.0068664849
-0.27741027 0.92470098 -0.018939197
-0.27741027 0.89387763 -0.018939167
-0.27741027 0.86305416 -0.018939197
-0.27741027 0.83223081 -0.018939137
-0.27740946 0.80140507 -0.018943787
-0.27740946 0.77058184 -0.018943667
-0.27740946 0.73975855 -0.018943667
-0.27740946 0.70893526 -0.018943667
-0.27740946 0.67811203 -0.018943697
-0.27740946 0.64728874 -0.018943697
-0.27740946 0.61646557 -0.018943608
-0.27740946 0.58564228 -0.018943638
-0.27740946 0.55481887 -0.018943697
-0.27740946 0.52399564 -0.018943712
-0.27740866 0.49317095 -0.018948182
-0.27740866 0.46234778 -0.018948123
-0.27740866 0.43152457 -0.018948197
-0.27740866 0.40070143 -0.018948138
-0.27740866 0.36987826 -0.018948093
-0.27740866 0.33905506 -0.018948168
-0.27740866 0.30823189 -0.018948108
-0.27740866 0.27740866 -0.018948138
-0.27740866 0.24658546 -0.018948212
-0.27740866 0.2157623 -0.01894816
-0.27740866 0.18493906 -0.018948197
-0.27740785 0.1541155 -0.01895269
-0.27740785 0.12329239 -0.018952679
-0.27740785 0.092469394 -0.018952608
-0.27740785 0.061646271 -0.018952593
-0.27740785 0.030823154 -0.018952576
-0.27740785 7.9162419e-08 -0.018952601
-0.27740785 -0.030822948 -0.018952662
-0.27740785 -0.06164616 -0.018952569
-0.27740785 -0.092469186 -0.01895263
-0.27740785 -0.12329239 -0.018952705
-0.27740785 -0.15411541 -0.018952765
-0.27740785 -0.18493862 -0.018952675
-0.27740785 -0.21576166 -0.018952735
-0.27740702 -0.24658403 -0.018957146
-0.27740702 -0.27740699 -0.018957108
-0.27740702 -0.30822998 -0.018957123
-0.27740702 -0.33905298 -0.018957198
-0.27740702 -0.36987594 -0.018957153
-0.27740702 -0.40069896 -0.018957183
-0.27740702 -0.43152204 -0.018957168
-0.27740702 -0.462345 -0.018957138
-0.27740702 -0.493168 -0.018957153
-0.27740702 -0.52399111 -0.018957138
-0.27740702 -0.55481398 -0.018957198
-0.27740702 -0.58563709 -0.018957108
-0.27740702 -0.61646008 -0.018957168
-0.27740702 -0.64728302 -0.018957168
-0.27740702 -0.67810607 -0.018957168
-0.27740702 -0.70892906 -0.018957138
-0.27740622 -0.73974985 -0.018961668
-0.27740622 -0.77057278 -0.018961638
-0.27740622 -0.80139565 -0.018961698
-0.27740622 -0.83221865 -0.018961638
-0.27740622 -0.86304158 -0.018961608
-0.27740622 -0.89386451 -0.018961579
-0.24468152 0.94814092 -0.030847818
-0.24468082 0.91755307 -0.030852258
-0.24468082 0.88696796 -0.030852288
-0.24468082 0.85638297 -0.030852228
-0.24468082 0.82579768 -0.030852318
-0.24468082 0.79521263 -0.030852228
-0.24468082 0.76462764 -0.030852169
-0.24468082 0.73404253 -0.030852199
-0.24468082 0.7034573 -0.030852318
-0.24468082 0.67287225 -0.030852258
-0.24468082 0.64228719 -0.030852139
-0.24468011 0.6117003 -0.030856639
-0.24468011 0.58111537 -0.030856639
-0.24468011 0.55053025 -0.030856639
-0.24468011 0.51994526 -0.030856639
-0.24468011 0.48936027 -0.030856624
-0.24468011 0.45877516 -0.030856684
-0.24468011 0.42819023 -0.030856699
-0.24468011 0.39760521 -0.030856639
-0.24468011 0.36702025 -0.030856639
-0.24468011 0.33643514 -0.030856669
-0.24468011 0.30585015 -0.030856654
-0.24467941 0.27526432 -0.030861102
-0.24467941 0.24467939 -0.030861124
-0.24467941 0.21409455 -0.030861057
-0.24467941 0.18350959 -0.030861087
-0.24467941 0.15292467 -0.030861113
-0.24467941 0.12233974 -0.030861136
-0.24467941 0.091754839 -0.030861035
-0.24467941 0.0611699 -0.030861057
-0.24467941 0.030584967 -0.030861083
-0.24467941 1.1269003e-07 -0.030861018
-0.24467941 -0.030584944 -0.030861095
-0.24467941 -0.061169799 -0.030861029
-0.24467941 -0.091754809 -0.030861147
-0.24467941 -0.12233967 -0.030861076
-0.24467941 -0.1529246 -0.030861106
-0.24467871 -0.18350905 -0.03086549
-0.24467871 -0.2140938 -0.030865505
-0.24467871 -0.24467871 -0.030865476
-0.24467871 -0.27526352 -0.030865543
-0.24467871 -0.30584842 -0.03086552
-0.24467871 -0.33643311 -0.03086549
-0.24467871 -0.36701792 -0.030865535
-0.24467871 -0.39760283 -0.030865535
-0.24467871 -0.42818764 -0.03086558
-0.24467871 -0.45877248 -0.03086552
-0.24467871 -0.48935738 -0.03086549
-0.24467871 -0.51994216 -0.03086555
-0.24467871 -0.5505271 -0.03086555
-0.24467871 -0.58111191 -0.030865461
-0.24467798 -0.61169493 -0.030869961
-0.24467798 -0.64227974 -0.030869901
-0.24467798 -0.67286438 -0.030869961
-0.24467798 -0.70344913 -0.030869931
-0.24467798 -0.73403394 -0.030869961
-0.24467798 -0.76461864 -0.030869931
-0.24467798 -0.79520351 -0.030869871
-0.24467798 -0.82578814 -0.030869961
-0.24467798 -0.85637283 -0.030869991
-0.21245408 0.94086814 -0.042578131
-0.21245408 0.91051757 -0.042578191
-0.21245408 0.88016701 -0.042578101
-0.21245408 0.84981632 -0.04257825
-0.21245408 0.81946576 -0.042578191
-0.21245408 0.78911519 -0.042578131
-0.21245408 0.75876462 -0.042578191
-0.21245347 0.72841197 -0.042582452
-0.21245347 0.69806153 -0.042582452
-0.21245347 0.66771096 -0.042582542
-0.21245347 0.63736045 -0.042582542
-0.21245347 0.60701001 -0.042582542
-0.21245347 0.57665944 -0.042582512
-0.21245347 0.54630888 -0.042582586
-0.21245347 0.51595849 -0.042582497
-0.21245347 0.48560804 -0.042582497
-0.21245347 0.45525745 -0.042582557
-0.21245347 0.42490697 -0.042582557
-0.21245287 0.39455533 -0.042586908
-0.21245287 0.36420491 -0.042586952
-0.21245287 0.33385456 -0.042586908
-0.21245287 0.30350417 -0.042586818
-0.21245287 0.27315366 -0.042586938
-0.21245287 0.24280328 -0.042586863
-0.21245287 0.2124529 -0.042586938
-0.21245287 0.1821025 -0.042586848
-0.21245287 0.15175211 -0.04258693
-0.21245287 0.12140165 -0.04258693
-0.21245287 0.091051303 -0.042586878
-0.21245287 0.06070083 -0.042586882
-0.21245287 0.030350529 -0.04258687
-0.21245287 -2.0489097e-08 -0.042586967
-0.21245287 -0.030350324 -0.042586956
-0.21245226 -0.060700566 -0.042591251
-0.21245226 -0.091050945 -0.042591333
-0.21245226 -0.12140117 -0.042591237
-0.21245226 -0.15175164 -0.042591237
-0.21245226 -0.18210194 -0.042591229
-0.21245226 -0.21245216 -0.042591296
-0.21245226 -0.24280259 -0.042591251
-0.21245226 -0.27315286 -0.042591199
-0.21245226 -0.30350322 -0.042591229
-0.21245226 -0.33385354 -0.042591259
-0.21245226 -0.36420387 -0.042591259
-0.21245226 -0.39455414 -0.042591244
-0.21245226 -0.42490447 -0.042591229
-0.21245226 -0.45525479 -0.042591274
-0.21245165 -0.48560369 -0.04259564
-0.21245165 -0.51595396 -0.042595595
-0.21245165 -0.54630411 -0.042595655
-0.21245165 -0.57665443 -0.042595595
-0.21245165 -0.60700476 -0.042595595
-0.21245165 -0.63735485 -0.042595625
-0.21245165 -0.66770518 -0.042595536
-0.21245165 -0.69805539 -0.042595625
-0.21245165 -0.72840559 -0.042595655
-0.21245165 -0.7587558 -0.042595595
-0.21245165 -0.78910613 -0.042595565
-0.21245165 -0.81945628 -0.042595625
-0.21245165 -0.84980655 -0.042595536
-0.18071781 0.96382833 -0.054125667
-0.18071781 0.93370873 -0.054125696
-0.18071781 0.90358913 -0.054125577
-0.18071781 0.87346947 -0.054125667
-0.18071729 0.84334743 -0.054129899
-0.18071729 0.81322789 -0.054129869
-0.18071729 0.78310823 -0.054130018
-0.18071729 0.7529887 -0.054129958
-0.18071729 0.72286928 -0.054129928
-0.18071729 0.69274968 -0.054129839
-0.18071729 0.66263008 -0.054129988
-0.18071729 0.63251054 -0.054129958
-0.18071729 0.60239094 -0.054130018
-0.18071729 0.57227147 -0.054129958
-0.18071729 0.54215193 -0.054130003
-0.18071677 0.51203084 -0.054134294
-0.18071677 0.48191139 -0.054134324
-0.18071677 0.45179194 -0.054134309
-0.18071677 0.42167246 -0.054134294
-0.18071677 0.39155298 -0.054134265
-0.18071677 0.36143363 -0.054134205
-0.18071677 0.33131415 -0.054134175
-0.18071677 0.30119461 -0.054134257
-0.18071677 0.27107519 -0.054134272
-0.18071677 0.24095574 -0.054134294
-0.18071677 0.21083626 -0.054134265
-0.18071677 0.18071675 -0.054134212
-0.18071677 0.15059736 -0.054134279
-0.18071677 0.12047789 -0.054134253
-0.18071677 0.090358421 -0.054134239
-0.18071626 0.060238797 -0.0541385
-0.18071626 0.03011941 -0.054138556
-0.18071626 5.7742e-08 -0.054138489
-0.18071626 -0.030119326 -0.054138545
-0.18071626 -0.060238708 -0.054138608
-0.18071626 -0.090358108 -0.054138497
-0.18071626 -0.12047749 -0.054138556
-0.18071626 -0.15059687 -0.054138619
-0.18071626 -0.18071628 -0.054138504
-0.18071626 -0.21083558 -0.054138474
-0.18071626 -0.240955 -0.054138578
-0.18071626 -0.2710743 -0.054138556
-0.18071626 -0.30119374 -0.054138497
-0.18071626 -0.33131313 -0.054138541
-0.18071574 -0.36143142 -0.054142848
-0.18071574 -0.39155075 -0.054142803
-0.18071574 -0.42166999 -0.054142892
-0.18071574 -0.45178935 -0.054142743
-0.18071574 -0.48190862 -0.054142818
-0.18071574 -0.51202786 -0.054142863
-0.18071574 -0.54214722 -0.054142758
-0.18071574 -0.57226646 -0.054142863
-0.18071574 -0.60238576 -0.054142833
-0.18071574 -0.632505 -0.054142892
-0.18071574 -0.66262436 -0.054142833
-0.18071574 -0.6927436 -0.054142803
-0.18071574 -0.72286284 -0.054142922
-0.18071574 -0.75298226 -0.054142803
-0.18071574 -0.78310144 -0.054142863
-0.18071574 -0.81322074 -0.054142833
-0.18071522 -0.84333766 -0.054147094
-0.14946087 0.98644167 -0.06549868
-0.14946043 0.95654678 -0.065502971
-0.14946043 0.92665482 -0.065502912
-0.14946043 0.89676261 -0.065503031
-0.14946043 0.86687052 -0.065503001
-0.14946043 0.83697855 -0.065502882
-0.14946043 0.80708647 -0.065502882
-0.14946043 0.77719432 -0.065503001
-0.14946043 0.74730217 -0.065502971
-0.14946043 0.71741021 -0.065502912
-0.14946043 0.687518 -0.065502971
-0.14946043 0.65762591 -0.065502971
-0.14946002 0.62773204 -0.065507233
-0.14946002 0.59784007 -0.065507174
-0.14946002 0.56794804 -0.065507263
-0.14946002 0.53805608 -0.065507174
-0.14946002 0.50816405 -0.065507218
-0.14946002 0.47827214 -0.065507174
-0.14946002 0.44838005 -0.065507203
-0.14946002 0.41848806 -0.065507248
-0.14946002 0.38859606 -0.065507174
-0.14946002 0.35870403 -0.065507218
-0.14946002 0.32881209 -0.065507174
-0.14946002 0.29892004 -0.065507203
-0.14946002 0.2690281 -0.065507159
-0.14946002 0.2391361 -0.065507241
-0.14946002 0.20924413 -0.065507166
-0.1494596 0.17935152 -0.06551145
-0.1494596 0.14945963 -0.06551145
-0.1494596 0.11956768 -0.065511413
-0.1494596 0.089675784 -0.065511413
-0.1494596 0.059783883 -0.06551142
-0.1494596 0.029891942 -0.065511376
-0.1494596 4.4703484e-08 -0.065511376
-0.1494596 -0.029891886 -0.06551151
-0.1494596 -0.059783798 -0.065511338
-0.1494596 -0.08967565 -0.065511383
-0.1494596 -0.11956767 -0.065511435
-0.1494596 -0.14945962 -0.065511391
-0.1494596 -0.17935146 -0.065511435
-0.1494596 -0.20924345 -0.06551145
-0.1494596 -0.2391353 -0.065511473
-0.1494596 -0.2690272 -0.065511398
-0.14945917 -0.29891831 -0.06551569
-0.14945917 -0.3288101 -0.065515637
-0.14945917 -0.35870194 -0.065515682
-0.14945917 -0.38859385 -0.065515608
-0.14945917 -0.41848561 -0.065515712
-0.14945917 -0.44837749 -0.065515608
-0.14945917 -0.47826934 -0.065515637
-0.14945917 -0.50816119 -0.065515652
-0.14945917 -0.53805304 -0.065515652
-0.14945917 -0.56794482 -0.065515667
-0.14945917 -0.59783661 -0.065515667
-0.14945917 -0.62772846 -0.065515637
-0.14945917 -0.65762025 -0.065515637
-0.14945917 -0.6875121 -0.065515667
-0.14945875 -0.71740198 -0.06551981
-0.14945875 -0.74729371 -0.065519869
-0.14945875 -0.7771855 -0.065519869
-0.14945875 -0.80707717 -0.065519899
-0.11867215 1.0087134 -0.076705456
-0.11867215 0.97904527 -0.076705396
-0.11867215 0.94937718 -0.076705545
-0.11867215 0.91970909 -0.076705575
-0.11867215 0.89004111 -0.076705545
-0.11867215 0.86037314 -0.076705545
-0.11867215 0.83070505 -0.076705486
-0.11867215 0.80103707 -0.076705456
-0.11867215 0.77136904 -0.076705486
-0.11867181 0.74169898 -0.076709628
-0.11867181 0.71203089 -0.076709628
-0.11867181 0.68236291 -0.076709628
-0.11867181 0.65269494 -0.076709658
-0.11867181 0.62302703 -0.076709688
-0.11867181 0.59335917 -0.076709643
-0.11867181 0.56369114 -0.076709628
-0.11867181 0.53402317 -0.076709643
-0.11867181 0.50435525 -0.076709703
-0.11867181 0.47468725 -0.076709688
-0.11867181 0.44501936 -0.076709643
-0.11867181 0.41535136 -0.076709628
-0.11867181 0.38568342 -0.076709673
-0.11867181 0.35601547 -0.076709703
-0.11867181 0.32634747 -0.076709695
-0.11867148 0.29667875 -0.0767138
-0.11867148 0.26701084 -0.076713875
-0.11867148 0.23734297 -0.076713823
-0.11867148 0.20767514 -0.076713808
-0.11867148 0.17800722 -0.076713875
-0.11867148 0.14833935 -0.076713815
-0.11867148 0.11867152 -0.0767138
-0.11867148 0.089003608 -0.076713882
-0.11867148 0.059335776 -0.07671386
-0.11867148 0.029667946 -0.076713845
-0.11867148 -5.5879354e-08 -0.076713838
-0.11867148 -0.029667884 -0.076713823
-0.11867148 -0.059335671 -0.076713845
-0.11867148 -0.089003548 -0.076713786
-0.11867148 -0.1186715 -0.076713823
-0.11867148 -0.14833929 -0.076713838
-0.11867116 -0.17800668 -0.076717973
-0.11867116 -0.20767444 -0.07671795
-0.11867116 -0.23734227 -0.076718025
-0.11867116 -0.26701009 -0.076717921
-0.11867116 -0.29667777 -0.07671801
-0.11867116 -0.32634562 -0.076717913
-0.11867116 -0.35601348 -0.076717988
-0.11867116 -0.38568109 -0.076718047
-0.11867116 -0.41534895 -0.076717943
-0.11867116 -0.44501677 -0.076718003
-0.11867116 -0.47468454 -0.076717973
-0.11867116 -0.50435233 -0.076717988
-0.11867116 -0.53402019 -0.076717898
-0.11867116 -0.5636878 -0.076718003
-0.11867081 -0.59335399 -0.076722175
-0.11867081 -0.62302178 -0.076722145
-0.11867081 -0.65268946 -0.076722056
-0.11867081 -0.68235713 -0.076722115
-0.11867081 -0.71202481 -0.076722175
-0.11867081 -0.74169254 -0.076722175
-0.11867081 -0.77136028 -0.076722145
-0.11867081 -0.80102795 -0.076722205
-0.088341959 1.0306563 -0.087741345
-0.088341959 1.0012089 -0.087741345
-0.088341959 0.97176158 -0.087741256
-0.088341959 0.94231427 -0.087741315
-0.088341959 0.91286695 -0.087741315
-0.088341959 0.88341969 -0.087741256
-0.088341959 0.85397232 -0.087741286
-0.088341713 0.82452273 -0.087745488
-0.088341713 0.79507536 -0.087745488
-0.088341713 0.76562822 -0.087745428
-0.088341713 0.73618102 -0.087745398
-0.088341713 0.7067337 -0.087745458
-0.088341713 0.67728651 -0.087745458
-0.088341713 0.64783931 -0.087745428
-0.088341713 0.61839205 -0.087745398
-0.088341713 0.58894473 -0.087745458
-0.088341713 0.55949759 -0.087745458
-0.088341713 0.53005034 -0.087745428
-0.088341713 0.50060308 -0.087745398
-0.088341713 0.47115582 -0.087745458
-0.088341713 0.44170862 -0.087745443
-0.088341467 0.41226023 -0.0877496
-0.088341467 0.38281304 -0.0877496
-0.088341467 0.35336584 -0.087749615
-0.088341467 0.32391876 -0.087749518
-0.088341467 0.29447168 -0.087749474
-0.088341467 0.26502448 -0.087749489
-0.088341467 0.2355773 -0.087749481
-0.088341467 0.20613016 -0.087749541
-0.088341467 0.17668298 -0.087749541
-0.088341467 0.1472358 -0.087749541
-0.088341467 0.11778861 -0.087749548
-0.088341467 0.088341504 -0.087749466
-0.088341467 0.058894318 -0.087749474
-0.088341467 0.029447224 -0.087749556
-0.088341467 3.7252903e-08 -0.087749563
-0.088341467 -0.029447148 -0.087749571
-0.088341221 -0.058894038 -0.087753609
-0.088341221 -0.088341221 -0.087753616
-0.088341221 -0.11778824 -0.087753609
-0.088341221 -0.14723542 -0.087753609
-0.088341221 -0.17668244 -0.087753609
-0.088341221 -0.20612946 -0.087753594
-0.088341221 -0.23557654 -0.087753683
-0.088341221 -0.26502359 -0.087753676
-0.088341221 -0.29447067 -0.087753594
-0.088341221 -0.32391787 -0.087753601
-0.088341221 -0.35336488 -0.087753579
-0.088341221 -0.3828119 -0.087753579
-0.088341221 -0.41225898 -0.087753668
-0.088341221 -0.441706 -0.087753654
-0.088340975 -0.4711518 -0.087757692
-0.088340975 -0.50059879 -0.087757692
-0.088340975 -0.53004575 -0.087757826
-0.088340975 -0.55949283 -0.087757677
-0.088340975 -0.58893979 -0.087757766
-0.088340975 -0.61838681 -0.087757736
-0.088340975 -0.64783382 -0.087757736
-0.088340975 -0.67728078 -0.087757736
-0.088340975 -0.70672774 -0.087757766
-0.088340975 -0.7361747 -0.087757766
-0.088340975 -0.76562178 -0.087757736
-0.058459729 1.0522752 -0.098614156
-0.058459729 1.0230453 -0.098614156
-0.058459729 0.9938153 -0.098614186
-0.058459729 0.96458554 -0.098614156
-0.058459565 0.93535304 -0.098618269
-0.058459565 0.90612328 -0.098618209
-0.058459565 0.87689346 -0.098618239
-0.058459565 0.84766376 -0.098618209
-0.058459565 0.81843394 -0.098618239
-0.058459565 0.78920412 -0.09861818
-0.058459565 0.75997436 -0.098618239
-0.058459565 0.7307446 -0.098618269
-0.058459565 0.70151484 -0.098618209
-0.058459565 0.67228496 -0.098618239
-0.058459565 0.64305526 -0.098618209
-0.058459565 0.61382544 -0.098618209
-0.058459565 0.58459574 -0.09861818
-0.058459565 0.55536592 -0.098618209
-0.058459565 0.5261361 -0.098618269
-0.058459565 0.49690628 -0.098618254
-0.058459401 0.46767533 -0.098622218
-0.058459401 0.43844551 -0.098622277
-0.058459401 0.40921587 -0.098622277
-0.058459401 0.37998617 -0.098622233
-0.058459401 0.35075641 -0.098622337
-0.058459401 0.32152683 -0.098622248
-0.058459401 0.29229704 -0.098622307
-0.058459401 0.26306731 -0.09862227
-0.058459401 0.23383763 -0.09862227
-0.058459401 0.20460798 -0.098622285
-0.058459401 0.17537826 -0.098622255
-0.058459401 0.14614859 -0.098622255
-0.058459401 0.1169188 -0.098622315
-0.058459401 0.087689161 -0.098622181
-0.058459245 0.058459215 -0.098626353
-0.058459245 0.029229671 -0.098626308
-0.058459245 7.8231096e-08 -0.098626219
-0.058459245 -0.029229544 -0.098626271
-0.058459245 -0.058459163 -0.098626308
-0.058459245 -0.087688841 -0.098626316
-0.058459245 -0.11691838 -0.098626271
-0.058459245 -0.146148 -0.098626316
-0.058459245 -0.17537773 -0.098626286
-0.058459245 -0.20460729 -0.098626286
-0.058459245 -0.23383692 -0.09862633
-0.058459245 -0.26306659 -0.098626234
-0.058459245 -0.29229623 -0.098626278
-0.058459245 -0.32152581 -0.098626278
-0.058459245 -0.35075539 -0.098626286
-0.058459245 -0.379985 -0.09862633
-0.058459077 -0.40921354 -0.098630384
-0.058459077 -0.43844306 -0.098630339
-0.058459077 -0.46767253 -0.098630384
-0.058459077 -0.49690211 -0.098630369
-0.058459077 -0.52613163 -0.098630324
-0.058459077 -0.55536127 -0.098630339
-0.058459077 -0.58459067 -0.098630369
-0.058459077 -0.61382031 -0.098630369
-0.058459077 -0.64304984 -0.098630339
-0.058459077 -0.67227942 -0.098630309
-0.058459077 -0.70150888 -0.098630339
-0.058459077 -0.73073846 -0.098630339
-0.058459077 -0.75996792 -0.098630399
-0.029015513 1.0445585 -0.10933161
-0.029015513 1.0155431 -0.10933158
-0.029015513 0.98652756 -0.10933161
-0.029015513 0.95751202 -0.10933158
-0.029015513 0.92849648 -0.10933161
-0.029015513 0.89948106 -0.10933158
-0.029015513 0.8704654 -0.10933164
-0.029015513 0.84144998 -0.10933158
-0.029015513 0.81243455 -0.10933161
-0.029015513 0.78341883 -0.10933158
-0.029015513 0.75440347 -0.10933161
-0.029015513 0.72538793 -0.10933155
-0.029015513 0.69637239 -0.10933161
-0.029015513 0.66735691 -0.10933158
-0.029015513 0.63834131 -0.10933161
-0.029015513 0.60932583 -0.10933159
-0.029015435 0.58030868 -0.1093356
-0.029015435 0.55129337 -0.10933556
-0.029015435 0.52227783 -0.10933563
-0.029015435 0.49326238 -0.10933562
-0.029015435 0.46424705 -0.10933556
