# .PCD v0.7 - Point Cloud Data file format
VERSION 0.7
FIELDS x y z
SIZE 4 4 4
TYPE F F F
COUNT 1 1 1
WIDTH 1390
HEIGHT 1
VIEWPOINT 0 0 0 1 0 0 0
POINTS 1390
DATA ascii
-0.26115602 -0.47008079 -0.25432718
-0.27077866 -0.51447952 -0.20621406
-0.28113675 -0.56227338 -0.15442358
-0.29231966 -0.61387122 -0.098509073
-0.30442905 -0.6697439 -0.037962079
-0.31758508 -0.73044562 0.027818054
-0.33192956 -0.79663086 0.099540442
-0.34763113 -0.8690778 0.17804828
-0.36489195 -0.94871908 0.26435241
-0.38395643 -1.0366822 0.35967481
-0.35402918 1.0620874 0.40672126
-0.3360489 0.97080791 0.30683094
-0.31980455 0.88834596 0.2165845
-0.3050563 0.8134836 0.1346499
-0.29160836 0.74522144 0.059939146
-0.27929601 0.68272358 -0.0084627867
-0.26798204 0.62529147 -0.071318299
-0.25754827 0.57232964 -0.12928344
-0.24789658 0.52333724 -0.18290411
-0.2389421 0.47788426 -0.23265111
-0.23061201 0.43560055 -0.27892941
-0.22284316 0.39616561 -0.32208973
-0.21558067 0.35930118 -0.36243689
-0.21178947 0.32945031 -0.38349921
-0.21178994 0.30591884 -0.38349655
-0.21179041 0.28238723 -0.38349396
-0.21179087 0.25885552 -0.38349128
-0.21179135 0.23532373 -0.38348866
-0.21179231 0.21179235 -0.38348341
-0.21179278 0.18826023 -0.38348088
-0.21179324 0.16472809 -0.38347828
-0.21179372 0.14119585 -0.3834756
-0.21179418 0.11766349 -0.38347298
-0.21179466 0.094131023 -0.38347036
-0.21179512 0.070598423 -0.38346773
-0.2117956 0.04706575 -0.38346511
-0.21179654 0.023532987 -0.38345993
-0.21179703 1.4901161e-08 -0.38345724
-0.21179703 -0.023533002 -0.3834573
-0.21179703 -0.047065929 -0.38345724
-0.21179749 -0.070599139 -0.38345459
-0.21179749 -0.094132155 -0.38345465
-0.21179797 -0.11766554 -0.383452
-0.21179797 -0.14119861 -0.38345203
-0.21179843 -0.16473207 -0.38344938
-0.21179843 -0.1882652 -0.38344941
-0.21179843 -0.21179843 -0.38344935
-0.21179891 -0.23533206 -0.38344681
-0.21179891 -0.25886536 -0.38344675
-0.21179937 -0.28239906 -0.38344416
-0.21179937 -0.30593243 -0.38344416
-0.21179985 -0.32946646 -0.38344148
-0.21640962 -0.3606827 -0.3578316
-0.22373007 -0.39774227 -0.31716257
-0.23156308 -0.43739694 -0.27364579
-0.2399639 -0.47992772 -0.2269747
-0.24899784 -0.52566206 -0.17678607
-0.25873861 -0.57497466 -0.12267065
-0.26927251 -0.62830245 -0.064148992
-0.28070053 -0.68615687 -0.00065985322
-0.29314157 -0.74913949 0.068456978
-0.30673656 -0.81796408 0.14398465
-0.32165387 -0.89348298 0.22685868
-0.33809629 -0.9767226 0.31820527
-0.35631028 -1.0689307 0.41939411
-0.32472315 1.0959406 0.46941233
-0.30773196 1.000129 0.3632175
-0.29243153 0.91384852 0.26758963
-0.27857774 0.83573329 0.18100357
-0.26597637 0.76468211 0.10224494
-0.2544657 0.69978082 0.030303389
-0.24390998 0.6402638 -0.035669923
-0.23419516 0.5854879 -0.09638761
-0.22522454 0.53490841 -0.15245393
-0.21691582 0.48806065 -0.20438349
-0.2091988 0.4445475 -0.2526148
-0.20201154 0.40402314 -0.29753518
-0.19530174 0.36619082 -0.33947146
-0.18902333 0.33079079 -0.37871161
-0.183136 0.29759598 -0.41550732
-0.18154457 0.27231693 -0.42545375
-0.18154496 0.24962431 -0.42545143
-0.18154535 0.22693168 -0.42544892
-0.18154573 0.20423903 -0.42544645
-0.18154614 0.18154615 -0.42544407
-0.18154691 0.15885358 -0.42543918
-0.1815473 0.13616051 -0.42543674
-0.1815477 0.11346732 -0.42543432
-0.18154809 0.090774089 -0.42543179
-0.18154848 0.068080708 -0.4254294
-0.18154886 0.045387238 -0.42542696
-0.18154925 0.022693694 -0.42542452
-0.18154964 4.4703484e-08 -0.42542207
-0.18155003 -0.022693768 -0.42541969
-0.18155003 -0.045387477 -0.42541963
-0.18155041 -0.068081409 -0.42541724
-0.18155041 -0.090775222 -0.42541718
-0.18155041 -0.11346896 -0.42541724
-0.1815508 -0.13616312 -0.42541477
-0.1815508 -0.15885696 -0.42541477
-0.1815512 -0.18155113 -0.42541233
-0.1815512 -0.20424508 -0.42541233
-0.18155159 -0.22693944 -0.42540991
-0.18155159 -0.24963337 -0.42540991
-0.18155159 -0.27232739 -0.42540994
-0.18380848 -0.29868871 -0.41130441
-0.18974066 -0.33204615 -0.37422821
-0.19606851 -0.36762846 -0.33467916
-0.20283252 -0.40566501 -0.29240409
-0.21008042 -0.44642085 -0.24710476
-0.21786548 -0.4901973 -0.19844802
-0.22624974 -0.53734314 -0.14604637
-0.23530518 -0.58826292 -0.089450091
-0.24511567 -0.6434285 -0.028134495
-0.2557798 -0.70339447 0.038516432
-0.26741406 -0.76881552 0.11123061
-0.28015715 -0.84047145 0.19087493
-0.29417551 -0.91929847 0.27848956
-0.30967063 -1.0064294 0.37533408
-0.32688889 -1.1032498 0.48294815
-0.27765235 1.03128 0.42312354
-0.26343948 0.94085532 0.32160324
-0.25060916 0.85923135 0.22995803
-0.23896977 0.78518635 0.1468195
-0.22836287 0.71771193 0.071056008
-0.21865755 0.65597266 0.0017322898
-0.20974353 0.5992673 -0.06193921
-0.20152785 0.54700422 -0.12062271
-0.19393152 0.4986811 -0.17488216
-0.18688706 0.4538686 -0.22519977
-0.18033643 0.41219762 -0.27198994
-0.17422989 0.37334979 -0.31560811
-0.16852297 0.33704594 -0.35637188
-0.16317804 0.303045 -0.39454991
-0.15816174 0.2711345 -0.43038055
-0.15344466 0.24112733 -0.46407408
-0.1533823 0.21911755 -0.46451944
-0.15338263 0.19720627 -0.46451721
-0.15338294 0.1752948 -0.46451491
-0.15338326 0.1533833 -0.46451256
-0.15338358 0.13147163 -0.46451038
-0.15338422 0.10956021 -0.46450576
-0.15338454 0.087648332 -0.4645035
-0.15338485 0.065736383 -0.46450126
-0.15338516 0.043824345 -0.464499
-0.15338549 0.021912292 -0.46449667
-0.1533858 2.9802322e-08 -0.46449447
-0.15338612 -0.021912247 -0.46449208
-0.15338612 -0.043824598 -0.46449217
-0.15338612 -0.065736905 -0.46449214
-0.15338644 -0.08764933 -0.46448988
-0.15338644 -0.10956164 -0.46448991
-0.15338677 -0.13147436 -0.46448761
-0.15338677 -0.15338673 -0.46448761
-0.15338677 -0.17529912 -0.46448758
-0.15338708 -0.19721195 -0.46448532
-0.15338708 -0.21912433 -0.46448535
-0.15398379 -0.2419745 -0.4602232
-0.15873528 -0.27211756 -0.42628399
-0.16378932 -0.30418009 -0.39018366
-0.1691754 -0.3383508 -0.35171154
-0.17492819 -0.37484613 -0.31062028
-0.18108599 -0.41391078 -0.26663607
-0.18769312 -0.4558261 -0.21944223
-0.19480066 -0.50091594 -0.1686741
-0.20246768 -0.54955506 -0.1139096
-0.21076296 -0.60217988 -0.054657638
-0.21976699 -0.65930092 0.0096567869
-0.22957468 -0.72152042 0.079711884
-0.24029866 -0.78955263 0.1563116
-0.25207362 -0.86425233 0.24041843
-0.265062 -0.94665003 0.3331928
-0.27946159 -1.0380001 0.43604693
-0.24563867 1.0644343 0.48688155
-0.23268081 0.96950334 0.37889934
-0.22102231 0.88408911 0.28174499
-0.21047425 0.80681795 0.19384477
-0.20088652 0.73658395 0.11394688
-0.1921342 0.67246974 0.041010946
-0.1841127 0.61370903 -0.025834888
-0.17673464 0.55965972 -0.087318674
-0.16992468 0.50977403 -0.14406839
-0.16362004 0.46359017 -0.19660696
-0.15776651 0.42071071 -0.24538645
-0.15231733 0.38079339 -0.29079625
-0.14723201 0.34354144 -0.33317396
-0.14247528 0.30869648 -0.37281337
-0.13801658 0.27603316 -0.40996921
-0.13382821 0.24535178 -0.44487226
-0.12988654 0.21647766 -0.47771943
-0.12709448 0.19064176 -0.5009867
-0.12709473 0.16945972 -0.50098461
-0.12709498 0.14827752 -0.50098246
-0.12709524 0.1270953 -0.50098032
-0.12709549 0.10591297 -0.50097823
-0.12709576 0.084730566 -0.50097609
-0.12709627 0.063548222 -0.50097185
-0.12709652 0.042365491 -0.50096971
-0.12709676 0.021182835 -0.5009675
-0.12709703 4.4703484e-08 -0.50096542
-0.12709703 -0.021182775 -0.50096548
-0.12709728 -0.04236576 -0.50096333
-0.12709728 -0.063548639 -0.50096333
-0.12709753 -0.084731653 -0.50096124
-0.12709753 -0.10591459 -0.50096118
-0.12709753 -0.12709755 -0.50096118
-0.12709779 -0.14828074 -0.5009591
-0.12709779 -0.16946363 -0.5009591
-0.12709804 -0.19064698 -0.50095701
-0.13033748 -0.21722907 -0.47396183
-0.13430753 -0.24623042 -0.44087797
-0.13852674 -0.27705342 -0.40571788
-0.14301996 -0.30987656 -0.36827436
-0.14781444 -0.34490025 -0.32832041
-0.1529415 -0.38235369 -0.28559491
-0.15843703 -0.42249864 -0.23979878
-0.16434221 -0.46563625 -0.19058892
-0.17070462 -0.51211381 -0.13756882
-0.17757951 -0.56233513 -0.080278099
-0.18503138 -0.61677122 -0.018179119
-0.19313607 -0.67597616 0.049359858
-0.20198326 -0.74060535 0.12308666
-0.21167994 -0.81143963 0.20389208
-0.22235458 -0.88941818 0.29284748
-0.23416299 -0.97567916 0.39125097
-0.24729596 -1.0716157 0.50069225
-0.21149823 1.0997909 0.55487514
-0.19999091 0.99995464 0.43980181
-0.18967184 0.91042483 0.336611
-0.18036479 0.82967812 0.24354061
-0.17192672 0.75647759 0.15915984
-0.16424288 0.68982017 0.082321495
-0.15721647 0.62886596 0.012057513
-0.1507666 0.57291311 -0.052441388
-0.14482549 0.52137178 -0.11185247
-0.13933448 0.4737373 -0.16676244
-0.13424464 0.42958286 -0.2176609
-0.12951356 0.38854071 -0.26497176
-0.12510459 0.35029289 -0.30906135
-0.12098594 0.31456342 -0.35024798
-0.11712981 0.28111157 -0.3888092
-0.11351191 0.24972621 -0.42498827
-0.11011104 0.22022212 -0.45899695
-0.10690781 0.19243412 -0.49102926
-0.10388567 0.1662171 -0.52125055
-0.10250048 0.14350067 -0.53510249
-0.10250068 0.12300083 -0.53510058
-0.10250089 0.10250099 -0.53509855
-0.10250107 0.082000881 -0.53509665
-0.10250127 0.061500847 -0.5350945
-0.10250147 0.041000605 -0.53509259
-0.10250187 0.020500422 -0.5350886
-0.10250207 2.9802322e-08 -0.53508663
-0.10250207 -0.020500392 -0.53508663
-0.10250227 -0.041000873 -0.53508461
-0.10250227 -0.061501309 -0.53508461
-0.10250227 -0.082001716 -0.53508461
-0.10250247 -0.10250242 -0.53508264
-0.10250247 -0.1230029 -0.5350827
-0.10250267 -0.14350368 -0.53508067
-0.10423157 -0.16677049 -0.51779157
-0.10727459 -0.19309418 -0.48736149
-0.1105004 -0.22100081 -0.45510331
-0.11392649 -0.25063819 -0.42084256
-0.11757182 -0.28217229 -0.38438928
-0.12145813 -0.31579116 -0.34552601
-0.12561016 -0.35170838 -0.30400583
-0.1300561 -0.39016822 -0.2595464
-0.13482831 -0.43145055 -0.21182422
-0.13996409 -0.47587788 -0.16046637
-0.14550662 -0.52382386 -0.10504115
-0.15150622 -0.57572353 -0.045045197
-0.15802185 -0.63208735 0.020111054
-0.16512255 -0.6935147 0.091118217
-0.172892 -0.76072466 0.16881266
-0.18142869 -0.83457196 0.25417957
-0.19085287 -0.91609365 0.34842119
-0.20130898 -1.0065449 0.4529826
-0.2129772 -1.1074812 0.5696646
-0.16518092 1.0323806 0.50465393
-0.1563957 0.93837416 0.39483887
-0.14849831 0.85386533 0.29612154
-0.14135921 0.77747566 0.20688275
-0.13487419 0.70808959 0.12582004
-0.12895809 0.64479041 0.051868677
-0.12353919 0.58681118 -0.015867591
-0.11855733 0.53350794 -0.078140795
-0.1139617 0.4843373 -0.13558617
-0.10970905 0.43883616 -0.18874434
-0.10576263 0.39660984 -0.23807448
-0.10209002 0.35731512 -0.28398198
-0.098663934 0.32065776 -0.3268083
-0.095460318 0.28638095 -0.36685336
-0.092458211 0.25426012 -0.40437967
-0.089639172 0.22409794 -0.43961775
-0.086986944 0.19572067 -0.47277045
-0.084487163 0.16897434 -0.50401783
-0.082127191 0.14372264 -0.53351748
-0.07989534 0.11984299 -0.56141567
-0.079441465 0.09930186 -0.56708914
-0.079441607 0.079441652 -0.56708717
-0.079441763 0.059581369 -0.56708539
-0.079441905 0.039720982 -0.56708348
-0.079442054 0.019860536 -0.56708169
-0.07944221 2.9802322e-08 -0.56707978
-0.079442352 -0.019860595 -0.56707788
-0.079442352 -0.039721131 -0.56707788
-0.079442509 -0.059581816 -0.56707603
-0.079442509 -0.079442486 -0.56707609
-0.07944265 -0.09930329 -0.56707418
-0.080150887 -0.12022631 -0.55822128
-0.082397565 -0.14419571 -0.53013778
-0.08477366 -0.16954726 -0.5004366
-0.08729104 -0.19640484 -0.46896929
-0.089962512 -0.22490627 -0.43557599
-0.092802651 -0.25520721 -0.40007415
-0.095827974 -0.28748384 -0.36225769
-0.09905719 -0.3219358 -0.32189253
-0.10251163 -0.35879064 -0.27871197
-0.10621571 -0.39830893 -0.23241094
-0.11019751 -0.44078994 -0.1826386
-0.11448947 -0.48658025 -0.12898895
-0.1191293 -0.53608191 -0.070991009
-0.12416073 -0.58976346 -0.0080981851
-0.1296363 -0.64818144 0.060346454
-0.13561711 -0.71198982 0.13510665
-0.14217646 -0.78197044 0.21709836
-0.14940257 -0.8590647 0.30742466
-0.15740313 -0.94441867 0.40743166
-0.16630837 -1.0394273 0.51874739
-0.12803763 1.0669804 0.57385331
-0.12101221 0.96809769 0.45676273
-0.11471764 0.879502 0.35185334
-0.10904591 0.79966998 0.25732449
-0.10390723 0.72735065 0.17167976
-0.099231362 0.66154242 0.093748689
-0.094957933 0.6014002 0.022524714
-0.09103737 0.54622424 -0.042817816
-0.087427713 0.49542382 -0.10297869
-0.084093392 0.44849813 -0.1585508
-0.081004053 0.40502027 -0.21003981
-0.078133658 0.36462367 -0.25787982
-0.075459726 0.32699215 -0.30244526
-0.072962925 0.29185173 -0.3440586
-0.070625901 0.25896165 -0.38300908
-0.06843394 0.22811309 -0.41954175
-0.066373944 0.19912185 -0.45387492
-0.064434342 0.17182496 -0.48620155
-0.062604889 0.14607809 -0.51669252
-0.060876444 0.1217529 -0.54549992
-0.059240989 0.098735064 -0.57275742
-0.057777956 0.077037334 -0.5971415
-0.05777806 0.05777809 -0.59713972
-0.057778161 0.038518816 -0.59713793
-0.057778265 0.019259453 -0.59713614
-0.05777837 5.9604645e-08 -0.59713447
-0.057778478 -0.019259423 -0.59713262
-0.057778478 -0.038518995 -0.59713268
-0.057778478 -0.057778448 -0.59713268
-0.05786854 -0.077158004 -0.59563172
-0.059428427 -0.099047378 -0.56963354
-0.061074629 -0.12214924 -0.54219687
-0.06281475 -0.14656775 -0.5131948
-0.064656943 -0.17241848 -0.48249173
-0.066610448 -0.19983128 -0.44993326
-0.068685673 -0.22895218 -0.41534615
-0.070894368 -0.25994593 -0.37853459
-0.073249824 -0.29299927 -0.33927688
-0.075767182 -0.32832453 -0.29732093
-0.078463726 -0.366164 -0.25237858
-0.081359297 -0.40679634 -0.20411918
-0.084476754 -0.45054269 -0.15216132
-0.087842405 -0.49777359 -0.096067235
-0.091487631 -0.54892564 -0.035313517
-0.095448479 -0.60450697 0.030700684
-0.099767812 -0.66511869 0.10268956
-0.10449661 -0.73147619 0.18150279
-0.10969598 -0.8044371 0.26815879
-0.11543983 -0.88503855 0.36388981
-0.1218189 -0.97455108 0.47020775
-0.1289437 -1.0745306 0.58895421
-0.088317998 1.1039749 0.64784253
-0.083313808 0.99976575 0.52273798
-0.078846 0.90672916 0.41104281
-0.074833252 0.82316589 0.31072411
-0.071208693 0.74769139 0.22011009
-0.067918591 0.67918599 0.13785744
-0.064919092 0.61673141 0.062869936
-0.062173314 0.55955982 -0.005774498
-0.059650384 0.50702834 -0.068847686
-0.05732438 0.45859504 -0.1269979
-0.05517282 0.41379619 -0.1807868
-0.053176932 0.37223858 -0.2306841
-0.0513204 0.33358261 -0.27709725
-0.049589135 0.29753485 -0.32037905
-0.047970857 0.26383972 -0.36083591
-0.046454869 0.23227434 -0.39873567
-0.045031853 0.20264336 -0.434311
-0.043693338 0.17477342 -0.46777391
-0.042432096 0.14851238 -0.49930489
-0.041241627 0.12372488 -0.52906668
-0.040116135 0.10029039 -0.55720401
-0.039050441 0.07810092 -0.58384645
-0.038039897 0.057059914 -0.60910988
-0.03738723 0.037387282 -0.62542665
-0.037387293 0.018693686 -0.62542498
-0.03738736 2.9802322e-08 -0.62542337
-0.03738736 -0.018693626 -0.62542331
-0.037387427 -0.037387371 -0.62542164
-0.038155813 -0.057233691 -0.60621208
-0.039172672 -0.078345329 -0.58079052
-0.040245295 -0.10061322 -0.55397493
-0.041378316 -0.12413491 -0.52564949
-0.042576976 -0.14901938 -0.49568301
-0.043847151 -0.17538856 -0.46392855
-0.045195445 -0.20337945 -0.4302212
-0.046629295 -0.2331464 -0.39437503
-0.048157096 -0.26486397 -0.35617995
-0.049788412 -0.29873037 -0.31539708
-0.051534116 -0.33497167 -0.27175447
-0.053406693 -0.37384683 -0.22494008
-0.055420339 -0.41565251 -0.17459889
-0.057591937 -0.46073544 -0.12030898
-0.059940659 -0.50949556 -0.06159085
-0.062489096 -0.56240189 0.0021201968
-0.06526386 -0.62000662 0.071489155
-0.068296492 -0.6829648 0.14730492
-0.071624696 -0.75205928 0.23051001
-0.075293891 -0.82823277 0.32223994
-0.079359323 -0.91263205 0.42387563
-0.083889157 -1.0066698 0.53712153
-0.043065652 1.0335758 0.59317541
-0.040682424 0.93569583 0.47401395
-0.03854914 0.84808111 0.36734962
-0.036628563 0.76919973 0.27132061
-0.034889925 0.69779861 0.18438914
-0.033308763 0.6328665 0.10533082
-0.031864703 0.57356465 0.033127725
-0.030540645 0.51919097 -0.033075199
-0.029322235 0.46915573 -0.093995675
-0.028197311 0.42295974 -0.15024176
-0.027155582 0.38017821 -0.20232826
-0.02618802 0.34044424 -0.25070643
-0.02528703 0.30344447 -0.29575577
-0.024445977 0.26890579 -0.33780843
-0.023659071 0.23659077 -0.37715375
-0.022921244 0.20629121 -0.41404516
-0.022228045 0.17782435 -0.44870502
-0.021575589 0.15102911 -0.48132795
-0.020960301 0.12576187 -0.51209229
-0.020379134 0.10189573 -0.54115063
-0.019829324 0.079317331 -0.56864113
-0.019308401 0.057925195 -0.59468722
-0.01881415 0.037628353 -0.61939991
-0.01834457 0.018344611 -0.64287889
-0.018160196 2.9802322e-08 -0.65209758
-0.018398445 -0.018398434 -0.64018512
-0.018870857 -0.037741631 -0.61656451
-0.019368205 -0.058104634 -0.59169716
-0.019892476 -0.079569891 -0.56548357
-0.020445921 -0.10222957 -0.53781128
-0.021031043 -0.12618619 -0.50855523
-0.02165064 -0.15155444 -0.4775753
-0.022307854 -0.17846279 -0.44471461
-0.023006219 -0.2070559 -0.40979642
-0.02374972 -0.23749717 -0.3726213
-0.024542885 -0.26997173 -0.33296311
-0.025390856 -0.30469021 -0.29056454
-0.026299454 -0.3418929 -0.24513453
-0.027275566 -0.38185787 -0.196329
-0.028326929 -0.42490387 -0.14376095
-0.029462591 -0.47140142 -0.086977854
-0.030693116 -0.52178299 -0.025451571
-0.032030907 -0.57655627 0.041438013
-0.033490632 -0.6363219 0.11442424
-0.035089757 -0.70179504 0.19438052
-0.036849249 -0.77383417 0.28235507
-0.03879451 -0.85347915 0.37961823
-0.040956754 -0.94200534 0.48773032
-0.043374076 -1.0409776 0.60859632
0 1.0697479 0.66853404
0 0.96657437 0.54114121
0 0.87455487 0.42751741
0 0.79197955 0.32555816
0 0.71745765 0.23353681
0 0.64986861 0.15007335
0 0.58828843 0.07402721
0 0.53195149 0.0044559538
0 0.48021573 -0.059433237
0 0.43253943 -0.11830936
0 0.38846284 -0.17274013
0 0.34759328 -0.2232105
0 0.30959275 -0.27013785
0 0.27417019 -0.3138794
0 0.24107057 -0.35475469
0 0.21007332 -0.39303365
0 0.18098421 -0.42895615
0 0.15363242 -0.46273333
0 0.12786672 -0.49455187
0 0.10355306 -0.52457708
0 0.080572084 -0.55295658
0 0.058817267 -0.57982033
0 0.038192779 -0.60528994
0 0.018612772 -0.62946951
0 5.9604645e-08 -0.64981699
0 -0.018668234 -0.62669301
0 -0.038309753 -0.60236353
0 -0.059002519 -0.5767318
0 -0.080833301 -0.54969054
0 -0.1038987 -0.52111983
0 -0.12830652 -0.49088648
0 -0.15417722 -0.45884097
0 -0.18164678 -0.42481506
0 -0.2108677 -0.38861963
0 -0.24201339 -0.35004017
0 -0.27527967 -0.30883616
0 -0.31089196 -0.26472405
0 -0.34910703 -0.21738799
0 -0.39022088 -0.16646129
0 -0.43457645 -0.11151902
0 -0.48257279 -0.052066997
0 -0.53467762 0.012473911
0 -0.59144157 0.082786098
0 -0.65351915 0.15968014
0 -0.72169316 0.24412555
0 -0.79690778 0.33729216
0 -0.88031304 0.44060433
0 -0.97332811 0.55582356
0 -1.0777066 0.68511474
0.046189528 1.1085486 0.74936891
0.043459155 0.99956053 0.61285031
0.041033402 0.90273488 0.49156269
0.038864128 0.81614673 0.38309914
0.036912829 0.73825669 0.28553432
0.03514776 0.66780746 0.19728053
0.033543676 0.60378617 0.11707638
0.032079715 0.5453552 0.043878436
0.030738106 0.4918097 -0.023202032
0.02950421 0.44256321 -0.084896877
0.028365551 0.39711776 -0.14182982
0.027311517 0.35504967 -0.19453159
0.026333006 0.31599611 -0.24345699
0.025422189 0.27964413 -0.28899783
0.024572272 0.24572273 -0.33149371
0.023777399 0.21399665 -0.3712374
0.023032291 0.18425831 -0.4084928
0.022332462 0.15632731 -0.44348425
0.021673907 0.13004348 -0.47641203
0.02105308 0.10526544 -0.50745338
0.020466827 0.081867337 -0.53676593
0.01991234 0.059737086 -0.56449026
0.019387143 0.038774312 -0.59075034
0.0188889 0.01888895 -0.61566228
0.018470019 5.9604645e-08 -0.63660634
0.018946197 -0.018946141 -0.6127975
0.019447576 -0.038895071 -0.58772856
0.019976212 -0.059928566 -0.5612967
0.020534391 -0.08213748 -0.53338778
0.021124659 -0.10562325 -0.5038743
0.021749869 -0.1304992 -0.47261387
0.022413215 -0.15689245 -0.43944669
0.023118295 -0.18494633 -0.4041926
0.023869123 -0.21482208 -0.36665127
0.024670415 -0.24670413 -0.3265866
0.025527379 -0.28080118 -0.28373846
0.026446017 -0.31735224 -0.23780654
0.027433243 -0.35663211 -0.18844533
0.028497029 -0.39895841 -0.1352559
0.029646648 -0.4446997 -0.077774987
0.030892922 -0.49428666 -0.015461326
0.032248572 -0.5482257 0.052321255
0.033728663 -0.60711586 0.12632576
0.03535115 -0.67167193 0.20745023
0.037137624 -0.74275237 0.29677379
0.039114263 -0.82139945 0.39560583
0.041313145 -0.90888923 0.50555003
0.043774165 -1.0068055 0.62860084
0.089988977 1.0348732 0.68961704
0.0847992 0.93279123 0.55987263
0.080175087 0.84183842 0.44426978
0.07602948 0.76029468 0.34062946
0.072291248 0.68676698 0.24717395
0.068902731 0.62012464 0.16246094
0.065817647 0.55944997 0.08533375
0.062996984 0.50397593 0.014817312
0.060408156 0.45306116 -0.049903393
0.058023702 0.40616593 -0.10951483
0.055820487 0.36283326 -0.1645952
0.053778332 0.32267004 -0.21564907
0.051880322 0.2853418 -0.26309931
0.050111718 0.2505587 -0.30731434
0.048459724 0.21806875 -0.34861428
0.046913177 0.18765277 -0.38727793
0.045462381 0.15911835 -0.42354774
0.044098541 0.13229568 -0.45764384
0.042814143 0.10703537 -0.48975372
0.041602444 0.08320491 -0.52004623
0.040457442 0.060686216 -0.54867125
0.039373782 0.039373875 -0.57576281
0.038346659 0.019173414 -0.60144085
0.037484027 5.9604645e-08 -0.62300658
0.038465012 -0.019232422 -0.59848207
0.039498717 -0.039498687 -0.57263941
0.040589519 -0.060884237 -0.54536939
0.04174228 -0.083484545 -0.51655042
0.042962428 -0.10740602 -0.48604664
0.044256061 -0.13276814 -0.45370579
0.045629915 -0.15970466 -0.41935951
0.047091905 -0.18836761 -0.3828097
0.048650678 -0.21892798 -0.34384036
0.050316181 -0.2515808 -0.30220279
0.052099761 -0.28654867 -0.25761333
0.054014433 -0.32408652 -0.20974657
0.056075197 -0.36448872 -0.15822735
0.058299456 -0.40809608 -0.10262105
0.060707442 -0.45530576 -0.042421326
0.063322924 -0.50658333 0.022965685
0.066173919 -0.56247824 0.094240576
0.069293514 -0.62364161 0.17223041
0.072722033 -0.69085932 0.25794357
0.07650777 -0.76507765 0.35258693
0.080708995 -0.8474443 0.45761749
0.085398428 -0.93938267 0.5748533
0.090666808 -1.0426683 0.70656294
0.13992746 1.0727773 0.772017
0.13157919 0.96491396 0.63287908
0.12417146 0.86920023 0.50941694
0.11755294 0.78368628 0.39910823
0.11160465 0.70682943 0.29997
0.10622863 0.63737184 0.21036975
0.10134609 0.57429457 0.12899426
0.096892662 0.51676089 0.054770336
0.092814147 0.46407074 -0.013204977
0.08906512 0.41563725 -0.07568869
0.085607201 0.3709645 -0.13332072
0.08240775 0.32963103 -0.18664485
0.079439037 0.29127648 -0.23612347
0.076676585 0.25558874 -0.28216422
0.074099809 0.22229946 -0.32511055
0.071690597 0.19117489 -0.36526418
0.069433101 0.1620106 -0.40288898
0.067313448 0.1346269 -0.43821663
0.065319374 0.10886574 -0.47145107
0.063440174 0.084586933 -0.50277102
0.061665956 0.061666012 -0.53234136
0.059988279 0.039992183 -0.56030267
0.058399469 0.01946646 -0.58678287
0.057066418 5.9604645e-08 -0.60900033
0.058582798 -0.019527614 -0.5837273
0.060181968 -0.040121257 -0.55707449
0.061870892 -0.061870813 -0.52892578
0.063657351 -0.084876463 -0.49915153
0.065549903 -0.10924971 -0.46760905
0.067558572 -0.13511713 -0.43413103
0.069694251 -0.16261989 -0.39853656
0.07196936 -0.19191828 -0.36061811
0.074398011 -0.22319396 -0.32014045
0.076996312 -0.25665432 -0.27683553
0.079782657 -0.29253629 -0.23039636
0.082778245 -0.33111292 -0.18046987
0.086007558 -0.37269938 -0.12664801
0.089499064 -0.41766226 -0.068456337
0.093286037 -0.46643007 -0.0053400546
0.097407348 -0.51950586 0.063348517
0.10190998 -0.57748979 0.13839233
0.10684904 -0.64109427 0.22071002
0.11229123 -0.71117771 0.31141317
0.118318 -0.78878659 0.41185921
0.12502788 -0.87519521 0.5236907
0.13254456 -0.97199345 0.6489687
0.14102349 -1.0811801 0.7902841
0.19366316 1.1135633 0.86068225
0.18169682 0.99933255 0.71110284
0.17112389 0.89840031 0.57894117
0.16171315 0.80856586 0.46130711
0.15328352 0.72809678 0.35593671
0.14568968 0.65560359 0.26101369
0.13881092 0.58994627 0.17502899
0.13255242 0.53020966 0.096797869
0.12683432 0.47562873 0.025321558
0.12158879 0.4255608 -0.040247411
0.11675993 0.37946984 -0.10060823
0.11229996 0.33689988 -0.15635788
0.10816818 0.29746252 -0.2080051
0.10432965 0.26082411 -0.25598678
0.10075421 0.22669694 -0.30067977
0.097415939 0.19483194 -0.34240809
0.094291575 0.16501027 -0.38146263
0.091361396 0.13704215 -0.41808984
0.088607855 0.11075985 -0.45250922
0.086015418 0.086015433 -0.48491454
0.083570383 0.06267783 -0.51547766
0.081260495 0.040630281 -0.54435116
0.079074867 0.019768775 -0.57167149
0.077243067 5.9604645e-08 -0.59456903
0.079327568 -0.019831866 -0.56851274
0.081527695 -0.04076384 -0.54101115
0.083853178 -0.062889859 -0.51194263
0.086315393 -0.086315349 -0.48116493
0.088926584 -0.11115821 -0.44852504
0.091700688 -0.13755098 -0.4138487
0.09465345 -0.16564351 -0.37693927
0.097802684 -0.19560534 -0.33757377
0.1011687 -0.22762954 -0.29549864
0.10477466 -0.26193663 -0.25042412
0.10864718 -0.2987797 -0.20201766
0.11281694 -0.33845079 -0.14989559
0.11731954 -0.38128838 -0.093613207
0.12219612 -0.42768636 -0.03265579
0.12749609 -0.47811034 0.033593759
0.13327664 -0.53310657 0.10585074
0.13960627 -0.59332651 0.18497093
0.14656708 -0.65955162 0.27198106
0.15425844 -0.73272753 0.36812323
0.1628024 -0.81401187 0.47492266
0.17234759 -0.90482473 0.59423751
0.18308257 -1.006954 0.72842467
0.23552209 1.0362972 0.79511344
0.22133973 0.92962682 0.65328991
0.2087692 0.83507693 0.52758479
0.19754906 0.75068641 0.41538319
0.18747409 0.67490667 0.31463343
0.17837569 0.60647738 0.22364955
0.17011845 0.544379 0.14107706
0.16259186 0.48777559 0.065811172
0.15570351 0.43596989 -0.0030722916
0.14937466 0.38837424 -0.066360608
0.14354025 0.34449655 -0.12470497
0.13814443 0.3039178 -0.17866294
0.13313963 0.26627922 -0.22871117
0.12848476 0.23127259 -0.27525976
0.12414439 0.19863108 -0.31866348
0.12008768 0.16812281 -0.35923058
0.11628795 0.1395456 -0.39722776
0.11272109 0.1127211 -0.43289649
0.10936651 0.087493241 -0.46644229
0.10620582 0.063723534 -0.49804914
0.1032227 0.041289106 -0.52788043
0.10040258 0.020080566 -0.55608159
0.098041251 2.9802322e-08 -0.57969481
0.10072889 -0.020145744 -0.55281842
0.10356804 -0.041427121 -0.52442694
0.10657188 -0.063943103 -0.49438852
0.10975517 -0.087804109 -0.46255559
0.1131345 -0.11313449 -0.42876244
0.11672851 -0.14007412 -0.39282227
0.12055837 -0.1687817 -0.35452366
0.12464807 -0.1994369 -0.31362668
0.12902498 -0.23224494 -0.26985747
0.13372047 -0.26744086 -0.22290277
0.13877061 -0.30529535 -0.17240122
0.14421679 -0.34612015 -0.11793947
0.15010834 -0.39028156 -0.059024006
0.15650174 -0.43820488 0.0049100667
0.16346399 -0.49039197 0.074532613
0.17107455 -0.5474385 0.1506381
0.17942837 -0.61005652 0.23417641
0.18863994 -0.67910373 0.32629198
0.19884923 -0.75562704 0.42838496
0.21022603 -0.840904 0.54215288
0.22298357 -0.93653101 0.66972858
0.23739062 -1.0445187 0.81379908
0.29348224 1.0761014 0.88557774
0.27517325 0.96310627 0.7330029
0.25901559 0.86338526 0.59835583
0.24464925 0.77472258 0.47863632
0.23179281 0.69537848 0.37149942
0.22022092 0.62395924 0.27506697
0.20974742 0.55932641 0.18778782
0.20022427 0.50056076 0.10842828
0.19152834 0.4468995 0.035962105
0.1835563 0.39770529 -0.030471593
0.17622139 0.35244286 -0.091595799
0.16945061 0.3106595 -0.14801893
0.16318046 0.27196747 -0.20027021
0.15735777 0.23603663 -0.24879265
0.15193631 0.20258184 -0.29397145
0.14687596 0.17135534 -0.33614093
0.14214185 0.14214185 -0.37559196
0.13770337 0.11475284 -0.41257924
0.1335337 0.089022517 -0.44732654
0.12960938 0.064804733 -0.4800292
0.12590888 0.041969687 -0.51086658
0.12241384 0.020402372 -0.53999209
0.11949048 2.9802322e-08 -0.56435335
0.12281881 -0.020469725 -0.53661734
0.12633786 -0.042112559 -0.50729191
0.13006452 -0.065032184 -0.47623637
0.13401771 -0.089345083 -0.44329312
0.13821875 -0.11518219 -0.40828446
0.14269169 -0.14269164 -0.37101001
0.14746381 -0.17204109 -0.33124226
0.15256616 -0.20342156 -0.28872263
0.15803428 -0.23705135 -0.24315508
0.16390848 -0.27318078 -0.19420332
0.17023672 -0.31210053 -0.14146812
0.17707321 -0.35414636 -0.084497288
0.18448175 -0.39971045 -0.022759333
0.19253732 -0.44925368 0.044370294
0.2013285 -0.50332117 0.11763021
0.21096092 -0.56256229 0.19790025
0.22156134 -0.62775713 0.28623712
0.23328342 -0.69985026 0.38392127
0.24631612 -0.78000098 0.49252695
0.2608901 -0.86963356 0.61397678
0.27729714 -0.97053981 0.75070208
0.29590771 -1.0849947 0.90578997
0.33302912 0.99908733 0.81867206
0.31278682 0.89367664 0.67408419
0.29486543 0.80034906 0.54607427
0.27888533 0.71713376 0.43193078
0.26454923 0.64247668 0.32952994
0.25161409 0.57511795 0.23713607
0.23988257 0.51403409 0.15333962
0.22919631 0.45839265 0.077009127
0.21942152 0.40749711 0.0071892142
0.2104464 0.36076531 -0.0569188
0.20217663 0.3177062 -0.11598847
0.19453225 0.27790323 -0.17059126
0.18744487 0.24100058 -0.22121541
0.18085623 0.20669281 -0.26827729
0.1747146 0.17471465 -0.31214595
0.16897641 0.14483695 -0.35313302
0.16360314 0.11685948 -0.39151347
0.15856108 0.090606347 -0.4275282
0.1538205 0.065923095 -0.46138945
0.14935517 0.042672917 -0.4932847
0.14514205 0.020734608 -0.52337843
0.14162165 2.9802322e-08 -0.54852408
0.14563091 -0.020804405 -0.51988655
0.14987379 -0.042821065 -0.48958033
0.15437129 -0.066159114 -0.45745522
0.1591471 -0.090941146 -0.42334235
0.16422783 -0.1173056 -0.38705146
0.16964366 -0.14540884 -0.34836692
0.17542887 -0.17542882 -0.30704406
0.18162213 -0.20756811 -0.26280633
0.18826917 -0.24206026 -0.21532756
0.19542125 -0.27917314 -0.16424133
0.20313816 -0.31921703 -0.1091205
0.21148959 -0.36255351 -0.049467385
0.22055717 -0.40960616 0.015300989
0.23043709 -0.4608742 0.08587189
0.24124369 -0.51695073 0.16306193
0.25311375 -0.57854563 0.24784794
0.26621234 -0.64651561 0.3414093
0.28074059 -0.7219044 0.44518259
0.29694733 -0.80599976 0.5609448
0.31513852 -0.90039569 0.69088209
0.335704 -1.007112 0.83777839
0.39537573 1.0378612 0.91099072
0.3704699 0.92617476 0.75532949
0.34851593 0.82772529 0.61811721
0.32901964 0.74029416 0.49626529
0.31158793 0.66212434 0.38731715
0.2959114 0.59182286 0.28933895
0.28173393 0.52825111 0.20072974
0.268852 0.47049093 0.12021762
0.25709662 0.41778201 0.046746343
0.24632685 0.3694903 -0.020564601
0.23642243 0.32508087 -0.082467169
0.22728372 0.28410465 -0.1395842
0.21882521 0.24617833 -0.19244985
0.21097368 0.21097365 -0.24152187
0.20366609 0.17820784 -0.28719437
0.19684775 0.14763582 -0.32980889
0.1904716 0.11904478 -0.36965984
0.18449515 0.09224759 -0.40701264
0.17888233 0.067080915 -0.44209278
0.17360096 0.043400258 -0.47510135
0.16862249 0.021077842 -0.50621688
0.16446783 5.9604645e-08 -0.53218341
0.16920123 -0.021150097 -0.50259966
0.17421515 -0.04355374 -0.47126263
0.17953531 -0.067325696 -0.43801171
0.18519022 -0.092595071 -0.40266842
0.1912134 -0.11950839 -0.36502367
0.19764154 -0.1482311 -0.32484779
0.2045169 -0.17895228 -0.28187674
0.21188787 -0.21188788 -0.23580819
0.21980998 -0.24728614 -0.18629494
0.22834753 -0.28543431 -0.1329354
0.23757505 -0.32666564 -0.075263292
0.24757975 -0.37136966 -0.012733802
0.25846416 -0.42000422 0.055293664
0.27034959 -0.47311172 0.12957753
0.28338081 -0.53133899 0.21102257
0.29773185 -0.59546369 0.3007167
0.31361401 -0.66642976 0.39998025
0.33128607 -0.74539363 0.51043051
0.35107017 -0.83379149 0.63408101
0.37336564 -0.93341392 0.77342778
0.39868501 -1.0465481 0.93167382
0.46275464 1.0797609 1.0107518
0.43250653 0.96112573 0.84270686
0.40596846 0.85704458 0.69527292
0.38250026 0.76500058 0.5648942
0.36159578 0.68301427 0.44875798
0.34285781 0.60952497 0.34465814
0.32596728 0.54327881 0.25082198
0.31065878 0.48324692 0.16577457
0.29672363 0.42860085 0.088357225
0.28398496 0.37864661 0.017586902
0.27229509 0.33280516 -0.047356874
0.26153025 0.29058918 -0.10716159
0.25158352 0.25158355 -0.16242114
0.24236569 0.21543616 -0.21363133
0.23379944 0.18184404 -0.26122156
0.22581805 0.15054543 -0.30556256
0.21836363 0.12131314 -0.34697598
0.21138564 0.093949199 -0.38574275
0.20484023 0.068280101 -0.42210609
0.1986876 0.044152841 -0.45628747
0.19289377 0.021432653 -0.48847532
0.1880642 2.9802322e-08 -0.51530623
0.19356818 -0.021507561 -0.48472857
0.1994036 -0.044311851 -0.45230949
0.20560226 -0.068534002 -0.41787255
0.21219866 -0.094310462 -0.38122591
0.21923234 -0.12179568 -0.34214994
0.22674832 -0.15116547 -0.30039454
0.23479789 -0.18262056 -0.25567454
0.24344008 -0.21639115 -0.20766251
0.25274271 -0.25274268 -0.15598109
0.2627846 -0.29198283 -0.10019299
0.27365744 -0.33447009 -0.039788321
0.28546885 -0.38062507 0.02583079
0.29834586 -0.43094403 0.097369611
0.31243843 -0.48601529 0.17566183
0.3279295 -0.54654914 0.26172313
0.34503806 -0.61340088 0.35677069
0.36402866 -0.68760961 0.46227404
0.38523147 -0.77046287 0.5800674
0.40905869 -0.86356843 0.71244097
0.4360258 -0.96894622 0.86225826
0.46679941 -1.0891985 1.0332227
0.4994089 0.99881774 0.93693721
0.46764049 0.8885169 0.77809501
0.43967202 0.79140949 0.63825268
0.41486189 0.70526516 0.51420188
0.3927007 0.62832105 0.40339613
0.3727884 0.55918252 0.30383456
0.3547956 0.49671388 0.21387069
0.33845752 0.43999481 0.13218035
0.32355794 0.38826948 0.05768232
0.30991486 0.34090632 -0.01053308
0.29737577 0.29737577 -0.073228605
0.28581187 0.2572307 -0.13104796
0.27511367 0.22009088 -0.18453903
0.26518813 0.18563178 -0.23416662
0.25595322 0.15357202 -0.28034127
0.24733984 0.12366999 -0.3234081
0.23928732 0.095714986 -0.36367077
0.23174259 0.069522798 -0.40139437
0.2246591 0.044931829 -0.43681186
0.21799576 0.021799609 -0.47012842
0.21244794 5.9604645e-08 -0.49786758
0.21877241 -0.021877185 -0.46624523
0.22548498 -0.045096934 -0.43268251
0.23262252 -0.069786713 -0.39699483
0.24022666 -0.096090659 -0.35897404
0.24834476 -0.12417235 -0.31838343
0.25703076 -0.15421842 -0.27495354
0.26634637 -0.18644239 -0.22837566
0.2763626 -0.22108999 -0.17829442
0.28716162 -0.25844532 -0.12429939
0.29883888 -0.29883879 -0.065912917
0.31150615 -0.34265667 -0.0025767237
0.32529381 -0.39035249 0.06636171
0.34035963 -0.44246745 0.14169067
0.35688871 -0.49964416 0.22433628
0.3751052 -0.56265771 0.31541872
0.39528283 -0.63245249 0.41630664
0.41775298 -0.7101801 0.52865756
0.44293177 -0.79727697 0.65455139
0.4713425 -0.89555049 0.79660505
0.50364524 -1.0072906 0.95811903
0.57177007 1.0395819 1.0388473
0.53401464 0.92238903 0.86723208
0.50093442 0.81971097 0.71686727
0.47171536 0.72901475 0.58405346
0.44571546 0.64831346 0.46587196
0.42243186 0.57604349 0.36003762
0.40146154 0.51095116 0.26471788
0.382471 0.45201123 0.17839713
0.3651948 0.39839441 0.099868998
0.34941185 0.34941188 0.028128281
0.33493662 0.30448779 -0.037668273
0.32161298 0.26313791 -0.098230042
0.30930886 0.22495192 -0.15415797
0.29791147 0.18958005 -0.20596434
0.28732419 0.15672229 -0.25408837
0.27746424 0.12612015 -0.29890624
0.26825795 0.097548395 -0.34075314
0.25964293 0.070811763 -0.37991208
0.25156409 0.04573895 -0.41663432
0.24397279 0.022179335 -0.45114011
0.23765995 5.9604645e-08 -0.47983479
0.24485871 -0.022259876 -0.44711319
0.25250718 -0.045910403 -0.41234744
0.26064891 -0.071086019 -0.37533972
0.26933312 -0.097939231 -0.33586583
0.27861598 -0.1266436 -0.29367101
0.28856155 -0.15739721 -0.24846387
0.29924348 -0.19042771 -0.19990961
0.31074664 -0.22599751 -0.14762254
0.32316956 -0.26441139 -0.091154933
0.33662608 -0.30602369 -0.029988751
0.35125306 -0.351253 0.036497399
0.36720887 -0.40059143 0.10902387
0.38468328 -0.45462555 0.18845294
0.40390387 -0.51405931 0.27581936
0.42514777 -0.57974684 0.37238249
0.44874871 -0.65272534 0.47965944
0.47512391 -0.73428226 0.59954667
0.50479311 -0.82602507 0.73440677
0.53841704 -0.92999309 0.88724297
0.57683712 -1.0487947 1.0618795
0.60564715 0.95894128 0.96342242
0.56674087 0.85011137 0.80131274
0.53252912 0.75441635 0.65876412
0.50221473 0.66961962 0.53245407
0.475164 0.59395504 0.41974264
0.45087838 0.52602482 0.31855264
0.42895454 0.4647007 0.22720316
0.40905991 0.40905988 0.14430895
0.39092892 0.35835153 0.068763122
0.37433699 0.31194752 -0.00036993623
0.35909712 0.26932287 -0.063869432
0.34504864 0.2300325 -0.12240469
0.33205798 0.19370052 -0.17653248
0.32000998 0.16000494 -0.22673243
0.30880567 0.12866905 -0.27341703
0.29835936 0.099453174 -0.31694329
0.28859738 0.072149366 -0.35761824
0.27945331 0.046575546 -0.39571851
0.27087092 0.022572592 -0.43147844
0.26374274 2.9802322e-08 -0.46117923
0.27187377 -0.022656128 -0.42730007
0.28052211 -0.046753615 -0.39126533
0.28973868 -0.072434694 -0.35286278
0.2995815 -0.099860504 -0.31185111
0.31011656 -0.12921517 -0.26795503
0.3214196 -0.16070968 -0.22085908
0.33357772 -0.19458695 -0.17020024
0.34669086 -0.23112714 -0.11556216
0.36087817 -0.27065855 -0.056448303
0.3762762 -0.31356338 0.0077099949
0.39304677 -0.36029279 0.077587456
0.41138199 -0.41138196 0.15398446
0.43151161 -0.46747082 0.23785767
0.45371252 -0.52933127 0.3303614
0.47832355 -0.59790432 0.43290743
0.50575572 -0.67434084 0.54720813
0.53652579 -0.76007813 0.67541683
0.57128513 -0.85692763 0.82024717
0.61085731 -0.96719074 0.98513132
0.63761634 0.88285333 0.89226317
0.59773648 0.78165543 0.73887914
0.56255156 0.69237113 0.60355258
0.5312807 0.61301619 0.48327982
0.50330144 0.54201692 0.37566736
0.4781234 0.47812343 0.27882859
0.45533988 0.42031384 0.1911999
0.43462759 0.36776185 0.11153722
0.41571766 0.31978282 0.038806617
0.39838457 0.2758047 -0.027859077
0.38243899 0.23534705 -0.089188144
0.36772177 0.19800407 -0.14579287
0.35409436 0.16342819 -0.19820592
0.34144092 0.1313235 -0.24687313
0.32966059 0.10143406 -0.292182
0.31866601 0.073538378 -0.33446878
0.30838117 0.047443256 -0.37402594
0.29873943 0.02297996 -0.41110957
0.29074222 -0 -0.44186801
0.29986811 -0.023066744 -0.4067685
0.30958539 -0.047628507 -0.36939424
0.31995359 -0.073835395 -0.32951656
0.33104029 -0.10185847 -0.28687537
0.34292209 -0.13189307 -0.24117625
0.35568947 -0.16416433 -0.19207099
0.36944428 -0.19893152 -0.13916774
0.38430572 -0.23649576 -0.082008459
0.40041292 -0.27720886 -0.020057619
0.41792941 -0.32148409 0.047313318
0.43704852 -0.36981022 0.12084842
0.45800078 -0.4227699 0.20143411
0.48106313 -0.48106304 0.29013544
0.50657123 -0.54553819 0.38824341
0.53493798 -0.61723608 0.49734625
0.56666774 -0.69743723 0.61938399
0.60239899 -0.78775251 0.7568118
0.64294255 -0.89022809 0.91274858
0.71416664 0.91821432 0.99048775
0.66782898 0.81093514 0.82499599
0.6271354 0.71672618 0.67966187
0.59111857 0.63334143 0.5510304
0.55901194 0.55901194 0.43636376
0.5302152 0.49234265 0.33351833
0.50423658 0.43220285 0.24073763
0.48068321 0.37767968 0.15661839
0.4592306 0.32802194 0.080001965
0.43961105 0.28260717 0.009932071
0.42159918 0.24091387 -0.054396048
0.40500519 0.20250261 -0.11366023
0.38966802 0.16700064 -0.16843581
0.37545007 0.13408935 -0.21921423
0.36223403 0.10349544 -0.26641449
0.34991592 0.074982032 -0.31040752
0.33840808 0.048344046 -0.35150707
0.32763305 0.023402408 -0.38998935
0.31870762 1.0430813e-07 -0.42186582
0.3288959 -0.023492545 -0.38547903
0.33975708 -0.048536748 -0.34668911
0.35135931 -0.075291239 -0.3052527
0.36378282 -0.10393789 -0.26088306
0.37711707 -0.13468467 -0.21326064
0.39146605 -0.16777121 -0.16201429
0.40695015 -0.20347506 -0.10671401
0.4237096 -0.24211974 -0.046858773
0.44190878 -0.28408423 0.01813826
0.46174151 -0.3298153 0.08896932
0.48343801 -0.3798441 0.166457
0.50727403 -0.43480632 0.25158557
0.53358245 -0.49546939 0.34554422
0.562769 -0.56276882 0.44978181
0.5953356 -0.63785952 0.56609124
0.63190025 -0.72217155 0.69667912
0.6732502 -0.81751794 0.84435767
0.74337697 0.84249401 0.91781592
0.69642842 0.74285698 0.76132071
0.65505779 0.65505785 0.62341857
0.61832911 0.57710719 0.50098968
0.58549827 0.50743186 0.39155364
0.55598003 0.44478408 0.29315937
0.52928996 0.38814601 0.20419249
0.50504506 0.33669674 0.1233762
0.48292255 0.28975362 0.049634494
0.46265677 0.24675024 -0.017918177
0.44402337 0.2072109 -0.080029383
0.4268328 0.17073317 -0.13733138
0.41092369 0.13697468 -0.19036168
0.39615789 0.10564213 -0.23958096
0.38241646 0.076483317 -0.28538579
0.36959726 0.04927972 -0.32811654
0.3576088 0.023840606 -0.36807805
0.34769168 1.4901161e-08 -0.40113515
0.35901472 -0.02393432 -0.36339164
0.37110096 -0.049480081 -0.32310411
0.38402933 -0.076805845 -0.28000957
0.39789104 -0.10610427 -0.23380396
0.41279086 -0.13759692 -0.18413779
0.42885002 -0.17153995 -0.13060731
0.44620928 -0.20823093 -0.072743043
0.46503323 -0.24801764 -0.0099966303
0.4855153 -0.29130915 0.058277011
0.50788474 -0.33858985 0.13284183
0.53241503 -0.39043766 0.21460953
0.55943513 -0.44754809 0.30467653
0.5893445 -0.51076525 0.40437424
0.62263256 -0.58112365 0.51533437
0.65990889 -0.65990877 0.63958883
0.70192975 -0.74872494 0.77965832
0.74966604 -0.84962136 0.93877929
0.77096534 0.77096534 0.84915936
0.7235406 0.67831933 0.70095694
0.68161494 0.59641314 0.56993949
0.64427954 0.52347708 0.4532662
0.61082184 0.45811635 0.34871089
0.58066946 0.39921033 0.2544848
0.55334675 0.34584177 0.16910121
0.5284797 0.29726988 0.09139169
0.50575155 0.25287583 0.020366304
0.48489913 0.21214345 -0.04479757
0.46569684 0.17463636 -0.10480472
0.44795749 0.13998678 -0.1602402
0.43151999 0.10788 -0.21160744
0.41624612 0.078046188 -0.2593382
0.40201652 0.050252095 -0.30380577
0.38872766 0.024295524 -0.34533346
0.37775022 2.9802322e-08 -0.3796379
0.39028883 -0.024393037 -0.3404547
0.4036884 -0.050461009 -0.29858109
0.41804078 -0.078382559 -0.25372988
0.43345129 -0.10836281 -0.20557201
0.45004147 -0.14063789 -0.15372764
0.46795222 -0.17548203 -0.097756654
0.4873476 -0.21321455 -0.037146062
0.50842035 -0.25421005 0.028706133
0.53139776 -0.29891121 0.10051057
0.55655032 -0.34784389 0.1791124
0.58420026 -0.4016377 0.26551855
0.61474574 -0.46105924 0.360973
0.64865905 -0.52703542 0.46695209
0.68653262 -0.60071599 0.58530706
0.72910625 -0.68353701 0.7183497
0.7773056 -0.7773056 0.86897266
0.79706615 0.70329374 0.78420496
0.74927849 0.61705291 0.64365292
0.70689958 0.54057026 0.51900899
0.66905546 0.47227448 0.4077028
0.63505971 0.41092098 0.30771518
0.60434753 0.35549852 0.21738529
0.57646519 0.30518752 0.13537858
0.55104214 0.25931403 0.060604997
0.52776682 0.21731579 -0.0078519136
0.50637805 0.17872173 -0.070760146
0.48665535 0.14313397 -0.12876801
0.46841267 0.11021483 -0.18242303
0.45148709 0.079674177 -0.23220417
0.43574205 0.051263817 -0.27851307
0.42105818 0.024768203 -0.32170099
0.40894586 -0 -0.3573254
0.42278522 -0.024869725 -0.31662151
0.43759403 -0.051481679 -0.2730661
0.45347795 -0.080025427 -0.22634871
0.47055838 -0.11071963 -0.17611216
0.48897588 -0.14381634 -0.12194304
0.50889379 -0.17960966 -0.063360855
0.53050333 -0.21844254 0.00019650161
0.55402774 -0.26071894 0.069386058
0.57973719 -0.30691966 0.14500198
0.60794878 -0.35761693 0.22797728
0.63904881 -0.4135021 0.31944802
0.67349976 -0.47541142 0.42077428
0.71187687 -0.54437649 0.53364813
0.75489175 -0.62167567 0.66016263
0.8034429 -0.70892006 0.80296016
0.82179654 0.63917512 0.72266084
0.77374715 0.55881739 0.58919024
0.73100334 0.48733553 0.47045735
0.69273484 0.42333794 0.36415595
0.65827602 0.36570895 0.26843721
0.62707466 0.31353733 0.18176684
0.59869921 0.26608855 0.10294598
0.57277882 0.22274739 0.030945048
0.54900974 0.18300326 -0.035080306
0.52713478 0.14642639 -0.095844097
0.50693619 0.11265251 -0.15195124
0.48822844 0.081371441 -0.20391725
0.47085229 0.052316949 -0.25218439
0.45467153 0.025259569 -0.29713076
0.44134352 4.4703484e-08 -0.33415323
0.45657691 -0.025365323 -0.29183817
0.4728995 -0.05254437 -0.24649763
0.49043241 -0.081738688 -0.19779518
0.50931543 -0.11318116 -0.14534222
0.52971083 -0.14714183 -0.088688381
0.55180615 -0.18393534 -0.027312309
0.57582682 -0.22393259 0.039411627
0.60203391 -0.26757056 0.11220906
0.63074028 -0.31537017 0.19194889
0.66232121 -0.36795625 0.27967376
0.69723392 -0.42608729 0.37665346
0.73602927 -0.49068606 0.4844183
0.7793963 -0.56289726 0.6048823
0.82819724 -0.64415336 0.74044055
0.84526169 0.57833701 0.66426557
0.79703248 0.50338888 0.53734624
0.75400698 0.43653047 0.42412156
0.71538883 0.37652043 0.32249472
0.68053377 0.32235813 0.23077101
0.648911 0.27322572 0.14755324
0.62009668 0.22845671 0.071725912
0.5937342 0.18749508 0.0023511127
0.56952024 0.14987376 -0.061369978
0.5472039 0.11520083 -0.12009712
0.5265705 0.083142757 -0.17439541
0.50743669 0.053414419 -0.2247477
0.48964456 0.025770798 -0.27156907
0.475014 1.4901161e-08 -0.31007057
0.49174297 -0.025881141 -0.26604694
0.50969326 -0.053651847 -0.21880925
0.52900374 -0.08352688 -0.16799219
0.54983354 -0.11575443 -0.11317705
0.57237256 -0.15062438 -0.053863749
0.59683841 -0.18847522 0.010520108
0.62348926 -0.22970647 0.080653816
0.6526314 -0.27479208 0.15734372
0.68463141 -0.32429901 0.24155422
0.71993124 -0.37891108 0.33444852
0.75907201 -0.43946254 0.43745053
0.80271018 -0.50697488 0.55228788
0.85167187 -0.58272272 0.6811344
0.86755627 0.52053386 0.6087833
0.81922078 0.45057157 0.48794472
0.77598423 0.38799214 0.37985313
0.73708522 0.3316884 0.2826058
0.70189303 0.28075731 0.19462529
0.66990608 0.23446712 0.11465785
0.64070749 0.1922123 0.041661352
0.61394787 0.15348697 -0.025237709
0.58933395 0.11786681 -0.086772509
0.56661904 0.084992886 -0.1435598
0.54558879 0.054558925 -0.19613546
0.52606374 0.026303254 -0.24494793
0.51003385 4.4703484e-08 -0.2850228
0.52836895 -0.026418388 -0.23918492
0.54807013 -0.054807007 -0.18993199
0.56929892 -0.085394815 -0.13686001
0.59223855 -0.1184476 -0.079511069
0.61710441 -0.15427597 -0.01734633
0.64414984 -0.19324493 0.050267354
0.67367458 -0.23578605 0.1240791
0.70603579 -0.28241426 0.20498225
0.74166304 -0.33374831 0.29405031
0.78107697 -0.39053845 0.39258498
0.82491821 -0.4537051 0.50218821
0.87397009 -0.52438205 0.62481797
0.94305742 0.53888994 0.68526757
0.88876927 0.46554586 0.55601013
0.840388 0.40018475 0.44081643
0.7970022 0.34157249 0.33751699
0.75787878 0.28871569 0.24436584
0.72240716 0.24080233 0.15990967
0.69010752 0.1971736 0.083005741
0.66057259 0.15727916 0.012684479
0.63346189 0.12065938 -0.051864702
0.60848886 0.086926989 -0.11132448
0.58541012 0.055753402 -0.16627368
0.5640195 0.026858091 -0.21720365
0.54648441 8.9406967e-08 -0.25895393
0.56654638 -0.026978306 -0.21118747
0.58813739 -0.056013044 -0.15978019
0.61143929 -0.087348491 -0.10429955
0.63666379 -0.12126929 -0.044241108
0.66405916 -0.15810928 0.020985827
0.69391805 -0.1982623 0.09207847
0.72658861 -0.2421962 0.1698654
0.76248741 -0.29047135 0.25533894
0.802118 -0.34376475 0.34969732
0.84609401 -0.4029018 0.45440227
0.8951754 -0.46890137 0.5712626
0.96309549 0.48154771 0.62874597
0.90897089 0.41316858 0.5057357
0.86060303 0.35206497 0.39580852
0.81712532 0.29713652 0.2969957
0.7778216 0.24748869 0.20766897
0.74212295 0.20239723 0.12653576
0.70955956 0.16126356 0.052527972
0.67973167 0.12358755 -0.0152626
0.65231043 0.088951394 -0.077583604
0.62701577 0.057001494 -0.13507149
0.60360968 0.027436815 -0.18826729
0.58445805 -0 -0.23179361
0.60637873 -0.027562656 -0.1819739
0.63000774 -0.057273395 -0.12827156
0.65555292 -0.089393578 -0.070214204
0.68325734 -0.12422861 -0.0072498545
0.71340662 -0.16213782 0.061271284
0.74633944 -0.20354712 0.13611868
0.78245997 -0.24896452 0.21821088
0.82225472 -0.29900169 0.30865318
0.86631399 -0.35440117 0.408788
0.9153623 -0.41607368 0.52026147
0.97030193 -0.48515108 0.64512438
0.98214942 0.42702156 0.57500005
0.92823505 0.36322239 0.45779473
0.87992853 0.30606213 0.3527807
0.83640409 0.25455785 0.25816244
0.7969721 0.2079058 0.17244051
0.76109064 0.16545451 0.094437391
0.72830087 0.12666105 0.023155458
0.69822186 0.091072425 -0.04223384
0.67052692 0.058306754 -0.10244018
0.64494526 0.028041117 -0.15805249
0.62405086 1.4901161e-08 -0.20347504
0.64797455 -0.028172802 -0.151467
0.67380565 -0.058591753 -0.095312372
0.70178181 -0.091536693 -0.034494657
0.73218173 -0.12733589 0.031592019
0.76533455 -0.16637702 0.10366349
0.80162942 -0.20912062 0.18256535
0.84154397 -0.25612205 0.2693361
0.88563848 -0.30804804 0.36519367
0.93460923 -0.36571658 0.47165188
0.98931271 -0.43013591 0.59057236
1.0002941 0.37511033 0.52383858
0.94662517 0.31554183 0.41202852
0.89842212 0.26203981 0.31160536
0.85489023 0.21372262 0.22091404
0.81537414 0.16986966 0.13858877
0.7793498 0.12989169 0.063538149
0.74637395 0.093296818 -0.0051616393
0.71607542 0.059673049 -0.068283573
0.68814075 0.02867258 -0.12648074
0.66536856 7.4505806e-09 -0.17392284
0.69145364 -0.028810535 -0.11957891
0.71966749 -0.059972249 -0.06080002
