# .PCD v0.7 - Point Cloud Data file format
VERSION 0.7
FIELDS x y z
SIZE 4 4 4
TYPE F F F
COUNT 1 1 1
WIDTH 1393
HEIGHT 1
VIEWPOINT 0 0 0 1 0 0 0
POINTS 1393
DATA ascii
-0.18707018 -0.49105909 -0.39091882
-0.18706976 -0.51444179 -0.39092141
-0.22046317 1.0078316 0.014629513
-0.21794124 0.96516836 -0.0033841729
-0.21547571 0.92346728 -0.02099517
-0.21306597 0.88270187 -0.038207531
-0.21070893 0.84283578 -0.055043519
-0.20840405 0.80384421 -0.071507037
-0.20614962 0.76569867 -0.087610006
-0.20394289 0.72836739 -0.10337248
-0.20178291 0.69182712 -0.11880091
-0.19966872 0.65605438 -0.13390219
-0.19759786 0.62102187 -0.14869405
-0.19556952 0.58670855 -0.16318233
-0.19358289 0.55309403 -0.17737244
-0.19163573 0.52015412 -0.19128066
-0.18972735 0.48787034 -0.20491204
-0.18785708 0.45622432 -0.21827111
-0.18602285 0.4251951 -0.23137271
-0.1842241 0.394766 -0.24422093
-0.1824598 0.36491957 -0.25682309
-0.1807294 0.33564037 -0.26918298
-0.1790311 0.30691043 -0.28131378
-0.17736442 0.27871555 -0.29321864
-0.1757289 0.25104135 -0.30490094
-0.17412284 0.22387221 -0.31637269
-0.17254589 0.19719535 -0.32763669
-0.17099763 0.17099771 -0.33869559
-0.16947654 0.1452657 -0.34956062
-0.16798227 0.11998738 -0.36023402
-0.1665141 0.095150903 -0.37072092
-0.16507176 0.070745051 -0.38102344
-0.16365381 0.046758264 -0.39115155
-0.16226003 0.023180082 -0.40110713
-0.16089012 2.9802322e-08 -0.41089213
-0.15954283 -0.022791833 -0.42051578
-0.15821789 -0.045205101 -0.4299795
-0.15810597 -0.067759648 -0.43077901
-0.15810597 -0.090346232 -0.43077904
-0.15810597 -0.11293282 -0.43077898
-0.15810597 -0.13551936 -0.43077898
-0.15810597 -0.15810594 -0.43077892
-0.15810597 -0.18069248 -0.43077901
-0.15810631 -0.2032795 -0.43077654
-0.15810631 -0.22586611 -0.43077654
-0.15810631 -0.24845272 -0.43077657
-0.15810631 -0.27103934 -0.43077657
-0.15810631 -0.29362592 -0.43077654
-0.15810664 -0.31621325 -0.43077415
-0.15810664 -0.33879992 -0.43077412
-0.15810664 -0.36138654 -0.43077418
-0.15810664 -0.38397324 -0.43077409
-0.15810631 -0.40655911 -0.43077648
-0.15810597 -0.42914471 -0.43077898
-0.15810564 -0.4517304 -0.43078133
-0.1581053 -0.47431588 -0.43078384
-0.15810496 -0.49690124 -0.43078625
-0.19017445 0.98256797 0.024679661
-0.1879847 0.93992347 0.0064317584
-0.18584536 0.89825249 -0.01139605
-0.18375364 0.857517 -0.028827041
-0.18170899 0.81769049 -0.045865685
-0.17970935 0.77874053 -0.062529445
-0.17775324 0.74063861 -0.078830361
-0.17583974 0.70335901 -0.094776154
-0.17396653 0.66687173 -0.11038634
-0.17213279 0.63115364 -0.12566736
-0.17033732 0.59618068 -0.14062974
-0.16857937 0.56193125 -0.15527932
-0.16685688 0.52838022 -0.16963336
-0.16516924 0.49550784 -0.18369693
-0.16351582 0.46329492 -0.19747546
-0.16189477 0.43171936 -0.21098429
-0.16030554 0.40076387 -0.22422791
-0.1587476 0.3704111 -0.23721066
-0.15721928 0.34064174 -0.2499468
-0.15572007 0.3114402 -0.26244
-0.15424922 0.28279033 -0.27469721
-0.15280624 0.25467712 -0.28672197
-0.15138966 0.22708449 -0.29852691
-0.1499991 0.1999988 -0.31011492
-0.1486342 0.17340654 -0.3214891
-0.14729357 0.14729357 -0.332661
-0.14597692 0.12164747 -0.34363306
-0.14468391 0.096455991 -0.35440812
-0.14341329 0.071706712 -0.36499661
-0.1421648 0.04738833 -0.37540072
-0.14093816 0.023489773 -0.38562268
-0.13973221 7.4505806e-08 -0.39567232
-0.13854671 -0.023091078 -0.40555137
-0.13738117 -0.045793697 -0.41526425
-0.13623537 -0.068117648 -0.42481261
-0.13510823 -0.09007208 -0.43420544
-0.13399959 -0.11166625 -0.44344413
-0.13290927 -0.13290924 -0.45253012
-0.13183627 -0.15380895 -0.46147171
-0.13105048 -0.17473392 -0.46801996
-0.13105048 -0.1965757 -0.46801999
-0.13105077 -0.21841791 -0.4680177
-0.13105077 -0.24025962 -0.4680177
-0.13105077 -0.26210147 -0.46801767
-0.13105077 -0.28394327 -0.4680177
-0.13105077 -0.30578509 -0.46801764
-0.13105103 -0.32762754 -0.46801546
-0.13105103 -0.34946939 -0.4680154
-0.13105103 -0.37131122 -0.46801543
-0.13105103 -0.39315304 -0.46801543
-0.13105103 -0.41499481 -0.46801549
-0.13105077 -0.4368358 -0.46801773
-0.13105048 -0.45867664 -0.46801996
-0.13105021 -0.48051745 -0.46802217
-0.16138814 1.0006065 0.053773999
-0.15949614 0.95697683 0.034854025
-0.15764846 0.91436112 0.01637727
-0.15584265 0.87271881 -0.0016809106
-0.15407817 0.83202207 -0.019325703
-0.15235277 0.79223448 -0.036579579
-0.15066601 0.75332999 -0.053447306
-0.14901662 0.71527982 -0.069941163
-0.14740252 0.67805171 -0.086082011
-0.14582305 0.64162141 -0.101877
-0.14427742 0.6059652 -0.11733311
-0.14276385 0.57105541 -0.13246889
-0.14128171 0.53687054 -0.14729019
-0.1398304 0.50338948 -0.16180347
-0.13840823 0.47058797 -0.17602515
-0.1370147 0.43844709 -0.18996032
-0.13564929 0.40694794 -0.20361438
-0.1343105 0.3760694 -0.21700238
-0.13299787 0.3457945 -0.23012865
-0.13171066 0.31610557 -0.24300084
-0.13044843 0.28698665 -0.25562292
-0.12920986 0.25841975 -0.26800874
-0.12799458 0.23039025 -0.28016147
-0.12680227 0.20288363 -0.29208472
-0.12563165 0.17588437 -0.30379075
-0.12448245 0.14937896 -0.31528282
-0.12335438 0.12335444 -0.32656348
-0.12224629 0.097797081 -0.33764446
-0.12115792 0.072694838 -0.34852809
-0.12008877 0.048035532 -0.35921967
-0.11903858 0.023807749 -0.36972153
-0.11800634 -0 -0.38004398
-0.11699186 -0.02339834 -0.39018881
-0.11599492 -0.046397924 -0.40015823
-0.11501458 -0.069008723 -0.40996164
-0.11405066 -0.091240466 -0.41960075
-0.11310302 -0.11310299 -0.42907721
-0.11217074 -0.13460483 -0.43839997
-0.11125372 -0.15575521 -0.4475702
-0.11035157 -0.17656249 -0.4565917
-0.10946415 -0.19703539 -0.46546584
-0.10859067 -0.21718132 -0.47420058
-0.10773103 -0.23700823 -0.48279706
-0.1068851 -0.25652421 -0.49125636
-0.10605214 -0.27573553 -0.49958593
-0.10572262 -0.29602331 -0.50288105
-0.10572262 -0.31716782 -0.50288105
-0.10572283 -0.33831304 -0.50287902
-0.10572283 -0.35945761 -0.5028789
-0.10572283 -0.38060212 -0.50287902
-0.10572283 -0.40174672 -0.50287896
-0.10572283 -0.42289126 -0.50287896
-0.10572283 -0.44403589 -0.50287902
-0.10572262 -0.4651795 -0.50288105
-0.12995473 0.9746604 0.064326704
-0.12842177 0.93105793 0.045164794
-0.12692419 0.88846934 0.026444972
-0.1254615 0.84686512 0.0081613958
-0.12403177 0.80620658 -0.0097100735
-0.12263463 0.76646638 -0.027174532
-0.1212686 0.72761166 -0.044249743
-0.11993267 0.68961287 -0.060948879
-0.11862619 0.65244412 -0.077279985
-0.11734755 0.61607456 -0.09326306
-0.11609616 0.58048087 -0.10890526
-0.1148712 0.54563814 -0.12421745
-0.11367211 0.51152456 -0.13920601
-0.1124975 0.47811446 -0.15388854
-0.11134692 0.44538772 -0.16827095
-0.11021992 0.41332477 -0.18235837
-0.10911522 0.38190326 -0.19616717
-0.10803246 0.35110551 -0.20970166
-0.10697123 0.32091367 -0.222967
-0.1059304 0.29130858 -0.2359775
-0.10490961 0.26227403 -0.24873728
-0.10390831 0.23379371 -0.26125348
-0.1029262 0.20585239 -0.27352986
-0.10196224 0.17843392 -0.28557941
-0.10101616 0.15152428 -0.29740542
-0.10008771 0.1251097 -0.30901098
-0.099175945 0.099175997 -0.32040811
-0.098280638 0.073710516 -0.33159941
-0.097401574 0.048700839 -0.34258768
-0.096537881 0.024134532 -0.3533839
-0.095689364 2.9802322e-08 -0.36399025
-0.094855852 -0.023713902 -0.37440926
-0.094036527 -0.047018215 -0.38465077
-0.093231231 -0.069923416 -0.39471698
-0.092439607 -0.092439607 -0.40461224
-0.09166152 -0.11457677 -0.41433835
-0.090896226 -0.13634431 -0.42390454
-0.090143599 -0.15775125 -0.43331236
-0.089403525 -0.17880699 -0.44256324
-0.08867532 -0.1995194 -0.45166588
-0.08795888 -0.21989717 -0.4606213
-0.087254107 -0.23994875 -0.46943098
-0.086560354 -0.25968105 -0.47810289
-0.085877553 -0.27910203 -0.48663786
-0.085205615 -0.29821962 -0.49503717
-0.084543929 -0.3170397 -0.50330818
-0.08389245 -0.33556977 -0.51145172
-0.083250932 -0.35381645 -0.51947069
-0.082619309 -0.37178686 -0.52736592
-0.081997044 -0.3894859 -0.53514427
-0.081961751 -0.4098087 -0.53558546
-0.081961751 -0.43029916 -0.53558546
-0.081961751 -0.4507896 -0.5355854
-0.099300981 0.99300992 0.094909072
-0.098107845 0.9483757 0.075023264
-0.09694273 0.90479875 0.055604726
-0.095805258 0.86224741 0.036646992
-0.094693892 0.82068038 0.018124133
-0.093608283 0.78006899 3.0606985e-05
-0.092547014 0.74037617 -0.017657071
-0.091509812 0.70157528 -0.034943879
-0.090495855 0.66363621 -0.051843196
-0.089503862 0.62652713 -0.068376273
-0.088533387 0.5902226 -0.084550887
-0.087583974 0.55469859 -0.10037443
-0.086654469 0.51992691 -0.11586614
-0.085744485 0.48588547 -0.13103254
-0.084853649 0.45255288 -0.14587991
-0.083980903 0.41990453 -0.16042566
-0.083125934 0.38792104 -0.1746752
-0.082288191 0.35658219 -0.18863747
-0.081467375 0.32586959 -0.20231771
-0.080662571 0.29576281 -0.21573125
-0.07987351 0.26624507 -0.22888213
-0.079099931 0.23729984 -0.24177517
-0.078341007 0.20890942 -0.25442392
-0.077596501 0.18105853 -0.26683232
-0.076866202 0.15373239 -0.27900404
-0.076149337 0.12691557 -0.2909517
-0.075445719 0.1005943 -0.3026787
-0.074755162 0.074755147 -0.314188
-0.074076958 0.049384683 -0.3254914
-0.073410951 0.024470344 -0.33659154
-0.072756812 1.0430813e-07 -0.34749383
-0.072114393 -0.024038091 -0.35820079
-0.071483053 -0.04765527 -0.36872309
-0.070862673 -0.070862651 -0.37906277
-0.070253134 -0.09367083 -0.38922188
-0.069653831 -0.11608963 -0.39921021
-0.069064662 -0.13812932 -0.40902966
-0.068485528 -0.15979952 -0.41868189
-0.067915887 -0.181109 -0.42817599
-0.067355633 -0.20206687 -0.43751344
-0.066804551 -0.22268179 -0.44669813
-0.066262551 -0.24296263 -0.45573145
-0.065729141 -0.26291651 -0.46462166
-0.065204255 -0.28255177 -0.47336984
-0.064687811 -0.30187634 -0.48197722
-0.064179353 -0.32089674 -0.49045146
-0.063678823 -0.33962032 -0.4987936
-0.063186176 -0.35805491 -0.50700438
-0.062700965 -0.37620571 -0.5150913
-0.062223148 -0.39407989 -0.52305496
-0.061752558 -0.41168371 -0.53089803
-0.06128915 -0.42902404 -0.53862154
-0.06083253 -0.44610521 -0.54623187
-0.067470893 1.0120635 0.12666503
-0.06664484 0.96635014 0.10601348
-0.065838553 0.92173982 0.085856587
-0.065051749 0.87819862 0.066186458
-0.064283341 0.83568335 0.04697606
-0.063533053 0.79416323 0.028219074
-0.062799901 0.75359881 0.0098901391
-0.06208365 0.71396202 -0.0080161393
-0.061383553 0.67521918 -0.025518477
-0.060699075 0.63734031 -0.042630464
-0.060029861 0.60029864 -0.059360832
-0.059375077 0.56406325 -0.075730458
-0.058734421 0.52860981 -0.091746822
-0.058107447 0.49391329 -0.10742119
-0.057493869 0.45995098 -0.12276058
-0.056892965 0.42669725 -0.13778321
-0.056304488 0.39413148 -0.15249515
-0.055728205 0.36223337 -0.1669021
-0.055163465 0.33098078 -0.18102083
-0.054610051 0.30035529 -0.19485623
-0.054067764 0.27033889 -0.20841324
-0.053536009 0.24091208 -0.22170714
-0.05301461 0.21205847 -0.23474205
-0.052503273 0.18376145 -0.24752554
-0.05200183 0.1560055 -0.26006153
-0.051509753 0.12877437 -0.27236354
-0.051026903 0.10205382 -0.28443491
-0.050553132 0.075829737 -0.29627901
-0.05008797 0.050088048 -0.30790812
-0.049631286 0.024815723 -0.31932521
-0.049182966 8.9406967e-08 -0.33053315
-0.048742566 -0.024371281 -0.3415432
-0.048309982 -0.048309922 -0.35235786
-0.047885112 -0.071827605 -0.36297953
-0.047467548 -0.094935074 -0.37341863
-0.047057204 -0.11764294 -0.38367727
-0.046653889 -0.13996163 -0.39376009
-0.046257537 -0.16190135 -0.40366897
-0.045867756 -0.1834709 -0.41341344
-0.045484494 -0.20468014 -0.42299497
-0.045107678 -0.22553834 -0.43241543
-0.044736959 -0.24605325 -0.44168338
-0.044372283 -0.26623362 -0.45080021
-0.044013601 -0.28608835 -0.45976734
-0.043660577 -0.30562404 -0.46859291
-0.043313172 -0.32484871 -0.47727805
-0.042971335 -0.34377071 -0.4858239
-0.042634774 -0.36239547 -0.49423802
-0.042303439 -0.38073087 -0.50252146
-0.041977216 -0.39878348 -0.51067698
-0.041656066 -0.41656062 -0.51870567
-0.041339714 -0.43406695 -0.52661455
-0.041028127 -0.45130932 -0.53440422
-0.033966169 0.98501897 0.13820112
-0.033547401 0.93932724 0.11726269
-0.033138938 0.89475131 0.096839547
-0.032740202 0.85124522 0.076902628
-0.032351039 0.80877614 0.057444781
-0.031970929 0.76730227 0.038438916
-0.031599738 0.72679394 0.01987952
-0.031236978 0.68721342 0.0017414391
-0.030882539 0.64853334 -0.015980363
-0.030536145 0.6107229 -0.033300221
-0.030197347 0.57374954 -0.05024001
-0.029865986 0.53758776 -0.066808105
-0.0295419 0.50221235 -0.083012357
-0.02922469 0.46759501 -0.098872855
-0.028914221 0.43371332 -0.11439629
-0.028610278 0.40054393 -0.12959334
-0.028312737 0.36806557 -0.14447048
-0.028021246 0.33625498 -0.15904507
-0.027735695 0.30509269 -0.17332262
-0.027455976 0.27455977 -0.18730858
-0.027181774 0.24463597 -0.20101872
-0.026912993 0.215304 -0.21445757
-0.026649544 0.18654679 -0.22763017
-0.026391137 0.15834685 -0.24055047
-0.026137693 0.13068855 -0.25322267
-0.025889134 0.10355651 -0.26565066
-0.025645195 0.076935552 -0.27784762
-0.025405811 0.050811678 -0.28981683
-0.025170915 0.025170922 -0.30156159
-0.024940263 4.4703484e-08 -0.31309426
-0.024713797 -0.024713784 -0.32441741
-0.024491411 -0.048982754 -0.33553669
-0.024273047 -0.072819144 -0.34645501
-0.024058485 -0.096233912 -0.35718304
-0.023847686 -0.11923832 -0.36772305
-0.023640601 -0.14184356 -0.37807733
-0.023437029 -0.16405919 -0.38825592
-0.023236934 -0.1858954 -0.39826077
-0.023040274 -0.2073624 -0.40809366
-0.022846868 -0.22846866 -0.41776392
-0.022656681 -0.24922344 -0.42727333
-0.022469634 -0.26963559 -0.43662563
-0.0222857 -0.28971401 -0.44582242
-0.022104703 -0.30946577 -0.45487222
-0.021926625 -0.32889926 -0.46377617
-0.021751435 -0.34802294 -0.47253552
-0.021578981 -0.36684266 -0.48115829
-0.021409238 -0.38536623 -0.48964536
-0.02124219 -0.40360159 -0.49799788
-0.021077685 -0.42155361 -0.50622314
-0.020915708 -0.43922982 -0.51432198
-0.020756202 -0.45663643 -0.52229726
0 1.0044233 0.17165697
0 0.95759892 0.14989066
0 0.91193998 0.12867036
0 0.86739761 0.1079649
0 0.82393676 0.087766021
0 0.78151333 0.068045437
0 0.74009562 0.048796296
0 0.69964391 0.029992312
0 0.66012847 0.011627167
0 0.62151569 -0.0063183308
0 0.58377451 -0.023858815
0 0.54687744 -0.041003317
0 0.51079345 -0.057773605
0 0.47549754 -0.074177682
0 0.44096407 -0.090227321
0 0.40716973 -0.10593
0 0.37408864 -0.12130471
0 0.3416999 -0.13635772
0 0.30998269 -0.15109521
0 0.2789146 -0.16553435
0 0.24847679 -0.17968062
0 0.21865098 -0.1935392
0 0.1894175 -0.20712572
0 0.16075952 -0.22044486
0 0.13266027 -0.23350433
0 0.10510393 -0.24630827
0 0.078074224 -0.25887066
0 0.05155652 -0.27119511
0 0.025536403 -0.28328514
0 4.4703484e-08 -0.29515353
0 -0.025066063 -0.30680329
0 -0.049674764 -0.31823757
0 -0.073838308 -0.32946792
0 -0.097568788 -0.34049696
0 -0.12087794 -0.35132733
0 -0.14377651 -0.36196974
0 -0.16627526 -0.37242645
0 -0.1883848 -0.38270214
0 -0.21011546 -0.39279905
0 -0.23147607 -0.40272674
0 -0.25247645 -0.41248697
0 -0.27312613 -0.42208156
0 -0.29343277 -0.43151948
0 -0.31340539 -0.4408021
0 -0.33305293 -0.44993091
0 -0.35238168 -0.45891437
0 -0.37140021 -0.46775359
0 -0.39011663 -0.47644979
0 -0.40853664 -0.4850108
0 -0.42666781 -0.49343768
0 -0.44451705 -0.50173342
0.034878414 0.97659564 0.18381333
0.034437109 0.92980194 0.16174805
0.034006719 0.8841747 0.14022857
0.033587065 0.83967668 0.11924586
0.033177536 0.79626083 0.098769307
0.032777973 0.75389338 0.07879132
0.032387823 0.71253204 0.059283704
0.032006945 0.6721459 0.04023996
0.03163483 0.63269663 0.021634221
0.031271361 0.59415585 0.0034605861
0.030916236 0.55649227 -0.014295518
0.030569002 0.51967299 -0.031657293
0.030229477 0.48367172 -0.048633412
0.029897498 0.44846261 -0.065232337
0.029572651 0.41401714 -0.081474751
0.029254783 0.38031223 -0.097368136
0.02894376 0.34732509 -0.11291946
0.028639197 0.31503114 -0.12814747
0.02834098 0.28340989 -0.14305829
0.02804891 0.25244021 -0.15766186
0.027762871 0.22210298 -0.17196374
0.027482536 0.19237782 -0.18598048
0.027207807 0.16324688 -0.19971704
0.026938582 0.13469291 -0.21317832
0.026674565 0.10669829 -0.2263791
0.026415676 0.079247102 -0.23932351
0.026161827 0.052323692 -0.25201607
0.025912747 0.025912799 -0.26446992
0.025668368 -1.4901161e-08 -0.27668905
0.025428612 -0.025428563 -0.28867674
0.025193235 -0.050386436 -0.30044556
0.024962176 -0.074886441 -0.31199852
0.024735317 -0.098941199 -0.32334152
0.0245126 -0.12256297 -0.33447737
0.024293803 -0.14576276 -0.34541717
0.024078878 -0.16855213 -0.3561635
0.023867775 -0.19094221 -0.36671856
0.023660289 -0.21294257 -0.37709287
0.02345638 -0.23456377 -0.38728839
0.023256006 -0.25581607 -0.39730704
0.023058975 -0.27670762 -0.40715861
0.022865256 -0.29724824 -0.41684452
0.022674765 -0.31744668 -0.42636913
0.022487467 -0.33731198 -0.43573388
0.022303194 -0.35685101 -0.44494766
0.022121916 -0.37607253 -0.45401156
0.021943606 -0.3949849 -0.46292704
0.021768102 -0.41359389 -0.47170225
0.021595385 -0.43190762 -0.48033813
0.02142543 -0.44993401 -0.48883587
0.071168654 0.99636126 0.21910906
0.070250191 0.94837761 0.19614732
0.069354899 0.90161371 0.17376509
0.068482369 0.85602957 0.15195173
0.067631297 0.81157553 0.13067508
0.066801332 0.76821536 0.10992596
0.065991282 0.72590411 0.089674652
0.065200843 0.68460894 0.069913805
0.064428926 0.64428937 0.050615817
0.063675262 0.60491496 0.031774133
0.062939025 0.56645125 0.013368219
0.062219616 0.52886677 -0.0046168864
0.06151665 0.49213326 -0.022191063
0.060829215 0.45621914 -0.039377019
0.060156971 0.42109889 -0.056182995
0.059499428 0.38674632 -0.072621584
0.058856264 0.35313764 -0.088700674
0.058226697 0.32024691 -0.10443985
0.057610456 0.28805232 -0.11984589
0.057007276 0.25653276 -0.13492537
0.056416444 0.22566584 -0.14969617
0.055837743 0.1954321 -0.16416386
0.055270929 0.16581282 -0.17833418
0.054715361 0.13678846 -0.19222328
0.054170858 0.10834172 -0.20583585
0.053637087 0.080455609 -0.21918029
0.053113863 0.053113841 -0.23226084
0.052600618 0.026300326 -0.24509199
0.052097194 4.4703484e-08 -0.25767761
0.05160344 -0.025801726 -0.27002132
0.051118836 -0.051118754 -0.28213641
0.05064325 -0.075964861 -0.29402608
0.05017655 -0.10035306 -0.30569363
0.049718257 -0.12429556 -0.31715089
0.049268261 -0.14780477 -0.32840085
0.048826337 -0.17089212 -0.33944896
0.048392378 -0.19356954 -0.35029787
0.047965959 -0.21584678 -0.36095834
0.04754699 -0.23773499 -0.3714326
0.047135383 -0.25924456 -0.38172284
0.046730734 -0.28038433 -0.39183903
0.046332974 -0.30116427 -0.40178302
0.045942031 -0.32159421 -0.41155654
0.045557529 -0.34168145 -0.42116916
0.045179412 -0.3614352 -0.43062201
0.044807613 -0.38086465 -0.43991709
0.044441789 -0.39997599 -0.44906262
0.044081893 -0.41877797 -0.45806
0.043727867 -0.43727869 -0.4669106
0.043379396 -0.45548353 -0.47562248
0.1075234 0.96771061 0.23194921
0.10612587 0.91975749 0.20865715
0.10476386 0.87303209 0.1859569
0.10343636 0.82749099 0.1638321
0.10214242 0.78309202 0.14226639
0.10088013 0.73978758 0.12122807
0.099648982 0.69754279 0.10070881
0.098447196 0.65631461 0.080679268
0.097274363 0.61607099 0.061131984
0.096128851 0.57677311 0.04204011
0.095010288 0.53839165 0.023397416
0.093917735 0.50089467 0.0051882565
0.092849754 0.46424878 -0.012611449
0.091805786 0.42842701 -0.030010954
0.090785302 0.39340296 -0.047019094
0.089786984 0.35914794 -0.063657612
0.088810399 0.32563812 -0.079934083
0.087854825 0.29284939 -0.095860317
0.086919829 0.2607595 -0.11144358
0.086004294 0.22934476 -0.12670247
0.085107848 0.198585 -0.14164321
0.084230117 0.16846026 -0.15627217
0.08337009 0.13895023 -0.17060585
0.082527436 0.11003659 -0.18465003
0.081701875 0.081701927 -0.1984095
0.080892451 0.053928323 -0.21189985
0.080098905 0.026699722 -0.2251256
0.079320982 2.9802322e-08 -0.23809099
0.078557827 -0.026185937 -0.25081027
0.077809215 -0.051872768 -0.2632871
0.077074923 -0.077074908 -0.27552524
0.076354176 -0.10180553 -0.28753769
0.075646788 -0.12607792 -0.29932752
0.074952386 -0.1499047 -0.31090093
0.074270785 -0.17329846 -0.32226089
0.073601305 -0.19627008 -0.33341894
0.072943784 -0.21883132 -0.34437761
0.072298072 -0.24099353 -0.35513946
0.071663529 -0.26276627 -0.36571518
0.071040027 -0.28416005 -0.37610689
0.070427448 -0.30518556 -0.3863166
0.069825172 -0.32585081 -0.39635444
0.069233119 -0.34616554 -0.40622205
0.068651021 -0.3661387 -0.41592368
0.068078779 -0.38577974 -0.42546108
0.067515843 -0.40509498 -0.4348433
0.066962153 -0.42409354 -0.44407144
0.066417597 -0.44278401 -0.45314723
0.14634788 0.98784822 0.26924124
0.14440618 0.93864024 0.24496993
0.14251582 0.89072382 0.22134027
0.14067383 0.84404302 0.19831559
0.13887933 0.79855621 0.17588413
0.13712956 0.7542125 0.15401211
0.13542378 0.71097493 0.13268995
0.1337595 0.66879749 0.11188626
0.13213603 0.62764621 0.091593117
0.1305511 0.58747995 0.071781367
0.12900414 0.54826754 0.05244422
0.1274934 0.50997359 0.033560097
0.12601765 0.47256613 0.01511316
0.12457602 0.43601611 -0.0029071569
0.12316665 0.40029171 -0.020524174
0.12178882 0.36536652 -0.037747175
0.12044146 0.3312141 -0.054589003
0.11912394 0.29780978 -0.071058244
0.11783459 0.26512784 -0.087174982
0.11657286 0.23314571 -0.10294666
0.11533818 0.20184179 -0.1183802
0.11412907 0.17119363 -0.13349406
0.11294504 0.14118132 -0.14829436
0.11178562 0.11178559 -0.16278698
0.11064948 0.082987145 -0.1769888
0.1095362 0.054768145 -0.19090474
0.10844511 0.027111255 -0.20454349
0.10737581 -3.7252903e-08 -0.21790983
0.10632712 -0.026581757 -0.23101842
0.10529871 -0.052649364 -0.24387351
0.10429027 -0.078217693 -0.25647905
0.10330071 -0.10330067 -0.2688486
0.10232973 -0.12791213 -0.28098559
0.1013771 -0.15206563 -0.2928935
0.10044181 -0.17577308 -0.30458483
0.099523596 -0.19904713 -0.31606236
0.098622262 -0.22190005 -0.32732898
0.097736888 -0.24434213 -0.33839628
0.096867263 -0.26638487 -0.34926662
0.096012972 -0.28803894 -0.35994515
0.095173836 -0.30931491 -0.37043437
0.094349027 -0.33022153 -0.38074449
0.093538404 -0.35076892 -0.39087737
0.09274178 -0.37096709 -0.4008351
0.091958411 -0.39082319 -0.41062719
0.09118817 -0.41034672 -0.42025518
0.090430923 -0.42954677 -0.42972091
0.089685954 -0.4484297 -0.43903291
0.18682255 1.0088416 0.30811802
0.18429253 0.95832121 0.2828179
0.18182948 0.9091475 0.25818747
0.17943141 0.86127079 0.23420677
0.17709638 0.81464326 0.21085632
0.17482132 0.76921391 0.18810585
0.17260341 0.72493434 0.16592681
0.17044109 0.68176436 0.14430344
0.1683328 0.63966465 0.12322062
0.16627604 0.59859371 0.102653
0.1642684 0.55851257 0.082576647
0.16230869 0.51938784 0.06297949
0.16039567 0.48118699 0.043849245
0.15852767 0.44387752 0.025169462
0.15670224 0.40742588 0.0069150031
0.15491836 0.37180412 -0.010923758
0.15317509 0.33698514 -0.028356537
0.15147017 0.30294037 -0.045405678
0.14980279 0.26964504 -0.062079459
0.14817172 0.23707478 -0.078390069
0.1465762 0.20520675 -0.094345376
0.14501427 0.17401719 -0.10996465
0.14348528 0.14348532 -0.12525459
0.14198858 0.1135909 -0.14022163
0.14052241 0.084313482 -0.15488324
0.13908619 0.055634521 -0.1692453
0.1376794 0.027535945 -0.18331319
0.13630044 -0 -0.19710289
0.13494883 -0.026989698 -0.210619
0.13362409 -0.053449638 -0.22386637
0.13232478 -0.07939487 -0.23685947
0.1310505 -0.10484038 -0.24960232
0.12980084 -0.12980077 -0.26209891
0.12857448 -0.15428929 -0.2743625
0.12737107 -0.17831945 -0.28639668
0.12618998 -0.20190397 -0.29820755
0.12503089 -0.22505552 -0.30979839
0.12389261 -0.2477852 -0.32118121
0.12277486 -0.27010468 -0.33235863
0.12167739 -0.29202569 -0.34333348
0.1205991 -0.31355754 -0.35411647
0.11953973 -0.33471119 -0.36471003
0.11849909 -0.35549718 -0.37511656
0.11747614 -0.37592363 -0.38534594
0.11647071 -0.39600033 -0.39540026
0.11548235 -0.41573641 -0.4052839
0.11451086 -0.43514115 -0.41499883
0.11355533 -0.45422134 -0.42455408
0.22588651 0.97884148 0.3222802
0.22280382 0.9283492 0.29659113
0.21980488 0.87921953 0.27160007
0.21688487 0.83139211 0.24726668
0.21404216 0.78482127 0.22357723
0.2112723 0.73945308 0.20049506
0.20857388 0.69524622 0.17800823
0.20594287 0.65215242 0.15608314
0.20337738 0.6101321 0.13470417
0.2008757 0.56914777 0.11385666
0.19843416 0.52915776 0.093510658
0.19605188 0.49012974 0.073658332
0.19372612 0.45202759 0.054276988
0.19145489 0.41481894 0.035350099
0.18923686 0.37847379 0.01686658
0.1870691 0.34296009 -0.0011981726
0.18495043 0.3082507 -0.018853784
0.18287921 0.27431881 -0.036113858
0.1808544 0.24113914 -0.052987434
0.1788734 0.20868562 -0.069495603
0.17693534 0.17693536 -0.085646011
0.17503932 0.14586611 -0.10144626
0.17318304 0.11545542 -0.11691538
0.17136569 0.085682839 -0.13205981
0.16958657 0.056528889 -0.1468859
0.16784355 0.027974017 -0.16141109
0.166136 1.0430813e-07 -0.1756407
0.16446283 -0.027410485 -0.18958375
0.16282345 -0.054274462 -0.20324512
0.16121604 -0.080607958 -0.21664038
0.15964003 -0.1064267 -0.22977373
0.15809494 -0.13174574 -0.24264938
0.15657909 -0.15657902 -0.25528157
0.15509203 -0.18094064 -0.26767376
0.15363333 -0.20484439 -0.27982962
0.15220143 -0.22830205 -0.29176211
0.15079598 -0.25132659 -0.30347416
0.14941627 -0.2739298 -0.31497186
0.1480619 -0.29612371 -0.32625824
0.14673153 -0.3179183 -0.33734465
0.14542486 -0.33932459 -0.34823358
0.14414157 -0.36035392 -0.35892755
0.14288041 -0.38101441 -0.36943716
0.14164114 -0.40131655 -0.3797645
0.14042349 -0.4212704 -0.38991162
0.13922629 -0.44088325 -0.39988822
0.26930076 1.0002599 0.36346942
0.26554629 0.94837964 0.3366518
0.26189598 0.89792907 0.31057838
0.25834379 0.84884399 0.28520554
0.25488755 0.80107516 0.26051798
0.25152171 0.75456512 0.23647606
0.24824442 0.70926964 0.21306697
0.24505062 0.66513753 0.19025435
0.24193877 0.62212825 0.16802664
0.23890419 0.5801959 0.14635102
0.23594476 0.53930247 0.12521254
0.23305853 0.49941105 0.10459629
0.23024204 0.46048406 0.084478542
0.22749211 0.42248541 0.064836264
0.22480844 0.38538599 0.045667306
0.2221867 0.3491506 0.026940599
0.21962541 0.31375065 0.0086455941
0.21712312 0.27915829 -0.0092278421
0.21467662 0.24534473 -0.026703052
0.21228461 0.21228465 -0.043788753
0.20994532 0.1799532 -0.060497973
0.20765761 0.14832695 -0.076838687
0.20541865 0.11738213 -0.092831314
0.20322745 0.087097488 -0.10848273
0.20108305 0.057452358 -0.12379979
0.19898289 0.028426204 -0.13880084
0.19692616 1.4901161e-08 -0.15349185
0.19491203 -0.027844466 -0.16787848
0.19293818 -0.05512508 -0.18197747
0.1910039 -0.081858754 -0.19579375
0.18910849 -0.10806195 -0.20933233
0.18724987 -0.13374987 -0.22260815
0.18542743 -0.15893769 -0.23562567
0.18364058 -0.18364057 -0.24838902
0.18188739 -0.2078713 -0.26091173
0.18016735 -0.2316436 -0.27319774
0.17847954 -0.25497067 -0.28525349
0.17682348 -0.27786541 -0.29708245
0.17519745 -0.30033845 -0.30869696
0.17360108 -0.32240191 -0.32009974
0.17203391 -0.34406781 -0.33129373
0.17049439 -0.36534506 -0.34229022
0.16898219 -0.38624498 -0.35309172
0.16749695 -0.40677834 -0.36370048
0.16603723 -0.42695287 -0.37412712
0.16460273 -0.44677874 -0.38437361
0.3101739 0.96929348 0.37847951
0.30581743 0.91745222 0.35125151
0.30158058 0.86704409 0.3247712
0.29746056 0.81801653 0.29902104
0.29345056 0.77030778 0.27395871
0.28954825 0.72387064 0.24956921
0.28574738 0.67865014 0.22581387
0.28204596 0.63460338 0.2026799
0.27843827 0.59168148 0.18013199
0.27492264 0.54984528 0.15815908
0.27149376 0.50905085 0.13672875
0.26815024 0.46926296 0.11583173
0.26488724 0.43044183 0.095437974
0.26170349 0.3925553 0.075539589
0.25859538 0.35556865 0.056113824
0.25556102 0.31945133 0.037148893
0.25259623 0.28417081 0.018619254
0.2496995 0.24969953 0.00051444024
0.24686842 0.21600989 -0.017179653
0.24410155 0.18307617 -0.034472629
0.24139531 0.15087208 -0.051386695
0.23874842 0.11937424 -0.06792967
0.23615961 0.088559911 -0.08410985
0.23362568 0.058406468 -0.099946871
0.23114556 0.028893199 -0.11544762
0.22871815 5.9604645e-08 -0.13061887
0.22634061 -0.028292589 -0.14547864
0.22401197 -0.056002993 -0.1600326
0.22173077 -0.083148986 -0.17429008
0.21949612 -0.109748 -0.18825658
0.21730553 -0.13581595 -0.20194781
0.21515821 -0.16136865 -0.21536855
0.21305344 -0.18642175 -0.22852327
0.21098894 -0.21098894 -0.24142636
0.20896406 -0.23508459 -0.25408185
0.2069782 -0.25872272 -0.26649356
0.20502922 -0.28191516 -0.27867466
0.2031166 -0.30467489 -0.29062855
0.20123933 -0.32701391 -0.30236143
0.19939694 -0.3489446 -0.31387654
0.19758749 -0.37047642 -0.3251856
0.19581059 -0.3916212 -0.3362911
0.19406581 -0.41238987 -0.34719598
0.19235142 -0.4327907 -0.35791099
0.19066705 -0.45283419 -0.36843836
0.35681418 0.99115062 0.42219365
0.35169128 0.93784344 0.39373305
0.34671208 0.88604212 0.36607102
0.34187317 0.83569002 0.33918804
0.33716628 0.78672123 0.3130385
0.33258837 0.7390852 0.28760576
0.32813197 0.69272304 0.26284814
0.32379454 0.64758909 0.23875132
0.31956923 0.60363084 0.21527733
0.3154538 0.56080681 0.19241378
0.31144202 0.51907003 0.17012598
0.30753195 0.47838312 0.1484036
0.30371791 0.43870366 0.12721431
0.29999825 0.39999765 0.10654959
0.29636768 0.36222726 0.086379692
0.29282573 0.32536197 0.066702142
0.28936654 0.28936654 0.047484525
0.28598815 0.25421175 0.0287157
0.28268856 0.21986888 0.010384686
0.27946344 0.18630904 -0.0075327009
0.27631104 0.15350616 -0.025045954
0.273229 0.1214352 -0.042168401
0.27021572 0.090071909 -0.058908887
0.26726744 0.059392706 -0.075288303
0.26438278 0.029375929 -0.091314107
0.26156044 7.8231096e-08 -0.10699372
0.25879702 -0.028755184 -0.12234614
0.25609139 -0.056909133 -0.13737738
0.25344244 -0.084480755 -0.15209375
0.25084704 -0.11148755 -0.16651259
0.24830426 -0.1379468 -0.1806391
0.24581316 -0.1638754 -0.19447862
0.24337092 -0.1892885 -0.20804659
0.24097674 -0.21420147 -0.22134764
0.23862979 -0.23862985 -0.23438621
0.23632756 -0.26258615 -0.24717651
0.23406929 -0.28608465 -0.25972238
0.23185378 -0.30913833 -0.27203083
0.22968037 -0.33176041 -0.2841053
0.22754681 -0.35396162 -0.29595858
0.2254525 -0.37575415 -0.30759346
0.22339691 -0.39715004 -0.31901342
0.22137795 -0.41815835 -0.33022976
0.21939516 -0.43879038 -0.34124523
0.21744809 -0.45905706 -0.35206243
0.40560642 1.0140159 0.46792454
0.3996506 0.95916146 0.43814561
0.39386564 0.90589106 0.40922096
0.38824722 0.85414398 0.38112888
0.38278547 0.80384958 0.35382012
0.3774766 0.75495321 0.32727557
0.37231168 0.70739222 0.30145097
0.36728743 0.66111737 0.27632985
0.36239576 0.61607277 0.25187141
0.35763386 0.57221425 0.22806212
0.35299432 0.52949154 0.20486438
0.34847477 0.48786479 0.18226662
0.34406838 0.44728881 0.16023436
0.33977309 0.40772775 0.13875809
0.33558267 0.36914098 0.11780594
0.3314954 0.3314954 0.097369678
0.32750648 0.29475588 0.077425092
0.32361344 0.25889081 0.057959735
0.31981087 0.22386768 0.038946919
0.3160966 0.18965796 0.020375691
0.31246766 0.15623388 0.0022309646
0.30892199 0.12356879 -0.015497398
0.305455 0.091636546 -0.032832425
0.30206496 0.060413044 -0.049782634
0.29875019 0.029875018 -0.06635645
0.29550654 7.0780516e-08 -0.082574531
0.29233259 -0.029233258 -0.09844435
0.28922689 -0.057845298 -0.11397292
0.28618568 -0.08585567 -0.12917891
0.2832078 -0.11328311 -0.14406841
0.28029123 -0.14014554 -0.15865117
0.27743486 -0.16646089 -0.17293306
0.27463537 -0.19224465 -0.18693042
0.27189186 -0.2175134 -0.20064805
0.26920331 -0.24228296 -0.21409096
0.26656669 -0.26656666 -0.22727388
0.26398125 -0.29037929 -0.24020116
0.26144612 -0.31373528 -0.25287676
0.25895858 -0.33664608 -0.26531449
0.25651795 -0.35912508 -0.27751765
0.25412288 -0.38118428 -0.28949302
0.2517727 -0.40283626 -0.30124384
0.24946503 -0.4240905 -0.31278226
0.24719928 -0.44495866 -0.32411101
0.44984093 0.98147106 0.48462403
0.44318029 0.92664957 0.45434836
0.43671566 0.87343132 0.42496374
0.4304353 0.82174015 0.39641681
0.42433462 0.77151757 0.36868641
0.41840291 0.72269589 0.34172398
0.41263622 0.67522287 0.31551176
0.40702489 0.62903851 0.29000586
0.40156555 0.58409536 0.26519066
0.39624938 0.54034007 0.24102604
0.39107338 0.49772978 0.21749897
0.38602963 0.45621696 0.19457284
0.38111556 0.41576239 0.17223601
0.37632379 0.37632388 0.15045545
0.37165225 0.33786565 0.12922096
0.36709407 0.30034968 0.10850198
0.36264861 0.2637445 0.088295519
0.35830846 0.22801447 0.068567403
0.35407093 0.19312964 0.04930599
0.34993351 0.15906072 0.0304996
0.34589067 0.12577841 0.01212294
0.34194016 0.093256436 -0.0058339015
0.33807889 0.061468892 -0.023385264
0.33430478 0.030391429 -0.040540207
0.33061308 5.2154064e-08 -0.057320699
0.32700202 -0.029727476 -0.073734626
0.32346988 -0.058812737 -0.089789674
0.32001236 -0.087276071 -0.10550576
0.31662795 -0.11513741 -0.1208893
0.31331527 -0.14241588 -0.13594709
0.31007034 -0.16912921 -0.15069683
0.30689192 -0.19529486 -0.16514409
0.3037788 -0.22093 -0.17929457
0.30072743 -0.24604973 -0.19316448
0.29773673 -0.2706697 -0.20675847
0.29480571 -0.29480568 -0.2200813
0.29193109 -0.3184703 -0.23314784
0.289112 -0.34167778 -0.24596189
0.28634682 -0.36444131 -0.25853091
0.28363472 -0.3867746 -0.27085862
0.28097287 -0.40868768 -0.28295806
0.27836046 -0.43019336 -0.29483247
0.27579689 -0.45130402 -0.30648512
0.50242168 1.0048432 0.53331625
0.49480805 0.94838202 0.50159276
0.4874236 0.89361 0.47082418
0.48025447 0.84044534 0.44095296
0.47329494 0.78882492 0.41195494
0.46653253 0.73867655 0.38377818
0.45996231 0.68994355 0.35640234
0.45357299 0.64256173 0.3297801
0.44736025 0.59648037 0.30389372
0.44131389 0.55164242 0.27870062
0.43543038 0.50800216 0.25418591
0.42970011 0.46550837 0.23030978
0.42412016 0.42412025 0.20706007
0.41868189 0.3837918 0.18440063
0.41338271 0.34448558 0.16232045
0.4082146 0.30616102 0.14078686
0.40317544 0.26878363 0.11979039
0.39825916 0.23231789 0.099305846
0.3934626 0.19673139 0.079320051
0.38877895 0.16199127 0.059805013
0.38420555 0.12806851 0.040749058
0.37973845 0.094934598 0.022136185
0.37537518 0.062562622 0.003955923
0.3711099 0.030925842 -0.013816056
0.36694053 9.6857548e-08 -0.031188499
0.36286482 -0.030238697 -0.048170708
0.3588776 -0.059812929 -0.064783975
0.3549771 -0.08874426 -0.081036076
0.35116142 -0.11705384 -0.096934736
0.34742597 -0.1447608 -0.11249919
0.34376913 -0.17188451 -0.12773603
0.34018847 -0.19844328 -0.14265533
0.33668253 -0.22445503 -0.15726347
0.33324727 -0.24993545 -0.17157716
0.32988137 -0.27490106 -0.18560168
0.32658362 -0.29936829 -0.19934216
0.32335037 -0.32335028 -0.21281427
0.32018048 -0.34686208 -0.22602209
0.3170729 -0.36991835 -0.23897018
0.31402433 -0.39253041 -0.25167263
0.31103382 -0.41471171 -0.26413313
0.30809972 -0.43647447 -0.27635854
0.30522117 -0.45783165 -0.28835243
0.54891557 0.97115839 0.55110639
0.54052985 0.91474295 0.51885366
0.53239447 0.86002171 0.48756355
0.52450234 0.80692673 0.45720935
0.51683879 0.75537986 0.42773429
0.50939792 0.70532018 0.39911541
0.50216639 0.65667909 0.37130171
0.49513909 0.60940194 0.34427378
0.48830399 0.56342781 0.31798506
0.48165676 0.51870739 0.29241878
0.47518644 0.47518656 0.26753286
0.46888921 0.43282086 0.24331276
0.4627552 0.3915621 0.21972027
0.45678109 0.35137016 0.19674295
0.4509578 0.31220156 0.17434563
0.44528255 0.27401996 0.15251771
0.43974698 0.23678687 0.13122702
0.43435001 0.20046934 0.11046973
0.42908266 0.16503185 0.090210505
0.42394149 0.13044356 0.070436932
0.41892341 0.096674606 0.05113633
0.4140214 0.063695565 0.032282602
0.4092328 0.031479549 0.013865122
0.40455374 1.1757948e-07 -0.0041314233
0.39998162 -0.030767845 -0.021716528
0.39551055 -0.060847692 -0.03891287
0.39113835 -0.090262689 -0.055729188
0.38686281 -0.11903466 -0.072173424
0.38267869 -0.14718406 -0.088266343
0.37858412 -0.17473112 -0.10401465
0.37457722 -0.20169544 -0.1194257
0.37065327 -0.22809425 -0.13451782
0.36681071 -0.25394589 -0.14929695
0.36304793 -0.27926755 -0.16376916
0.35936061 -0.30407429 -0.17795116
0.35574746 -0.32838228 -0.1918478
0.35220718 -0.35220712 -0.20546439
0.34873575 -0.37556151 -0.21881604
0.34533209 -0.39846006 -0.2319071
0.3419942 -0.42091587 -0.24474505
0.33872107 -0.44294286 -0.25733402
0.60568589 0.99505544 0.60305655
0.59620881 0.93689954 0.56920981
0.58702141 0.88053215 0.5363977
0.57811511 0.82587874 0.50458956
0.56947285 0.772856 0.47372425
0.56108725 0.721398 0.44377586
0.55294305 0.67143083 0.41468906
0.54503381 0.62289584 0.38644207
0.53734571 0.57572764 0.35898459
0.52987343 0.52987349 0.33229774
0.52260423 0.48527539 0.30633634
0.51553363 0.44188592 0.28108406
0.50865 0.39965358 0.25649983
0.50194949 0.35853532 0.23256934
0.49542156 0.31848532 0.20925535
0.48906285 0.27946448 0.18654571
0.48286375 0.24143192 0.16440593
0.47682133 0.20435198 0.14282596
0.47092831 0.16818871 0.12177939
0.46518061 0.13290878 0.10125196
0.45957011 0.098479301 0.08121445
0.45409334 0.064870514 0.061654408
0.44874552 0.032053325 0.042555235
0.44352356 1.6763806e-08 0.023905253
0.43842044 -0.031315662 0.0056798793
0.43343341 -0.061919004 -0.012131033
0.42855978 -0.091834173 -0.029536698
0.42379335 -0.12108375 -0.046559658
0.41913179 -0.1496899 -0.063208222
0.41457278 -0.177674 -0.079490222
0.41011077 -0.20505536 -0.095426053
0.40574378 -0.23185354 -0.11102247
0.40146881 -0.25808704 -0.12629014
0.39728406 -0.28377432 -0.14123574
0.3931846 -0.3089307 -0.15587661
0.38916889 -0.33357328 -0.1702185
0.38523534 -0.35771853 -0.18426685
0.38137957 -0.38137954 -0.19803742
0.37760019 -0.40457159 -0.2115352
0.37389597 -0.42730969 -0.22476456
0.37026274 -0.44960469 -0.2377404
0.654652 0.96015632 0.62206602
0.64431757 0.90204465 0.58761781
0.63430685 0.84574246 0.55424869
0.62459999 0.79115999 0.52189255
0.61518812 0.73822582 0.49051976
0.60605341 0.6868605 0.46007049
0.59718823 0.63700068 0.43051991
0.58857644 0.58857644 0.4018141
0.58021164 0.54153097 0.37393147
0.57207924 0.4958021 0.34682348
0.56417364 0.45133895 0.32047141
0.5564816 0.40808663 0.29483142
0.54899842 0.36599898 0.26988739
0.54171193 0.32502729 0.24559915
0.5346182 0.28512967 0.22195309
0.52770603 0.24626285 0.19891267
0.52097201 0.20838884 0.17646603
0.51440603 0.17146872 0.15457954
0.50800681 0.13546851 0.13324867
0.50176322 0.10035267 0.11243669
0.49567124 0.066089563 0.092130147
0.48972696 0.032648522 0.07231579
0.48392203 -2.2351742e-08 0.052966088
0.47825316 -0.031883564 0.034069799
0.4727155 -0.063028738 0.015611021
0.46730605 -0.093461148 -0.0024205819
0.4620176 -0.12320466 -0.020048667
0.45684758 -0.15228248 -0.037282199
0.45179319 -0.18071723 -0.054129958
0.44684821 -0.20852908 -0.070613243
0.44201028 -0.23573887 -0.08673963
0.43727726 -0.26236629 -0.10251661
0.43264326 -0.28842881 -0.11796314
0.42810652 -0.3139447 -0.13308564
0.42366502 -0.33893204 -0.14789058
0.41931364 -0.36340517 -0.16239524
0.41505075 -0.3873806 -0.17660484
0.41087362 -0.41087356 -0.19052857
0.40678081 -0.43389946 -0.2041714
0.40276772 -0.45646998 -0.21754833
0.71607059 0.98459703 0.67761314
0.70448345 0.92463458 0.64140344
0.69326818 0.86658514 0.60635567
0.68240172 0.81035197 0.57239789
0.67187327 0.75585741 0.53949642
0.66166216 0.70301592 0.50758672
0.65175927 0.65175933 0.47664046
0.64214605 0.60201192 0.44659901
0.63281459 0.5537129 0.41743842
0.62374824 0.50679541 0.38910592
0.61494023 0.46120512 0.36158076
0.60637534 0.41688296 0.33481538
0.59804779 0.37377989 0.30879205
0.58994389 0.33184361 0.28346729
0.58205861 0.29102933 0.2588259
0.5743795 0.25129101 0.23482844
0.56690222 0.21258841 0.21146195
0.55961525 0.1748798 0.18869023
0.55251503 0.13812882 0.16650212
0.54559273 0.10229874 0.14487
0.53884172 0.067355275 0.12377311
0.5322575 0.033266157 0.10319723
0.52583051 -7.4505806e-09 0.083113119
0.51955694 -0.032472372 0.063508108
0.51343286 -0.064179055 0.044370271
0.50744992 -0.095146798 0.025673699
0.50160486 -0.12540118 0.0074077174
0.49589431 -0.15496694 -0.010437675
0.49031094 -0.18386658 -0.027885713
0.48485187 -0.21212262 -0.0449453
0.47951439 -0.23975718 -0.061624929
0.47429183 -0.26678911 -0.077945389
0.46918181 -0.29323858 -0.093914278
0.46418068 -0.31912419 -0.10954265
0.45928636 -0.34446478 -0.12483751
0.45449293 -0.36927542 -0.13981709
0.44979846 -0.39357367 -0.1544871
0.44520122 -0.41737607 -0.16885363
0.44069585 -0.44069576 -0.18293294
0.78069758 1.0103145 0.73606193
0.76774347 0.94838893 0.69796175
0.75520909 0.88848132 0.66109592
0.74307746 0.83049828 0.62541443
0.7313323 0.77435189 0.59087002
0.7199527 0.71995276 0.55740064
0.70891905 0.66721797 0.5249486
0.69821846 0.61607504 0.4934763
0.68783873 0.56645542 0.46294761
0.6777631 0.51828945 0.43331343
0.6679759 0.47151238 0.40452754
0.65846735 0.42606714 0.37656125
0.64922798 0.38189894 0.34938693
0.6402421 0.33895168 0.32295763
0.63150376 0.29717827 0.2972568
0.6229986 0.25652885 0.27224156
0.6147216 0.21696061 0.2478974
0.60665965 0.17842937 0.2241856
0.59880835 0.14089608 0.20109354
0.59115571 0.1043216 0.1785859
0.5837 0.068670638 0.15665737
0.57642817 0.033907566 0.13526975
0.56933534 6.7055225e-08 0.11440837
0.56241667 -0.033083286 0.094059303
0.55566239 -0.06537208 0.07419388
0.54906851 -0.096894331 0.054799911
0.54262918 -0.12767746 0.035860918
0.53634077 -0.15774727 0.017365612
0.53019488 -0.18712765 -0.00071056932
0.52418828 -0.21584216 -0.018377073
0.5183177 -0.24391419 -0.035643466
0.51257575 -0.27136362 -0.052531704
0.50695962 -0.29821151 -0.069049783
0.50146651 -0.32447833 -0.085205704
0.49608991 -0.35018104 -0.10101935
0.49082735 -0.37533852 -0.11649747
0.48567662 -0.39996892 -0.13164681
0.48063153 -0.42408654 -0.14648521
0.47569022 -0.44770843 -0.16101858
0.83433592 0.97339195 0.75749242
0.82036126 0.91151261 0.71867406
0.80685043 0.85167539 0.68114382
0.79377407 0.79377419 0.64482075
0.78111804 0.73772264 0.60966498
0.76885617 0.68342781 0.57560426
0.75697625 0.6308136 0.54260445
0.74545503 0.5797984 0.51060104
0.73427922 0.53031278 0.47955707
0.7234363 0.48229083 0.4494378
0.71290624 0.43566501 0.42018795
0.70268101 0.39037833 0.39178428
0.69274241 0.34637129 0.36417711
0.68308342 0.30359277 0.3373467
0.6736877 0.26198974 0.31124741
0.66454935 0.22151655 0.28586298
0.6556533 0.18212596 0.26115173
0.64699447 0.14377657 0.23709942
0.63855916 0.10642658 0.21366815
0.6303432 0.07003814 0.19084585
0.62233585 0.034574278 0.16860332
0.61453146 8.9406967e-08 0.14692438
0.60691839 -0.03371764 0.12577695
0.59949166 -0.066610098 0.10514729
0.59224445 -0.098707326 0.085016124
0.58517218 -0.13003823 0.065371089
0.57826513 -0.16062912 0.046184655
0.5715192 -0.19050631 0.027446002
0.5649305 -0.21969518 0.0091441274
0.5584904 -0.24821791 -0.0087451637
0.55219543 -0.27609766 -0.026231214
0.54604238 -0.30335683 -0.043323055
0.54002339 -0.33001423 -0.060042426
0.53413558 -0.35609037 -0.07639727
0.52837491 -0.38160405 -0.092399299
0.52273852 -0.40657431 -0.10805587
0.51721972 -0.43101645 -0.12338588
0.51181626 -0.45494774 -0.13839555
0.8889811 0.9357695 0.77931643
0.8739571 0.87395704 0.73977977
0.85942876 0.81419575 0.70154727
0.84537911 0.75639194 0.66457456
0.83177799 0.70044482 0.62878233
0.81861103 0.64627182 0.59413213
0.8058511 0.59378505 0.56055337
0.793486 0.54291147 0.52801359
0.78149158 0.49357361 0.49644938
0.76985443 0.44570518 0.46582532
0.75856161 0.39924297 0.4361074
0.74759525 0.35412404 0.40724853
0.73693883 0.31029004 0.37920532
0.72658187 0.2676881 0.35195017
0.71651453 0.22626781 0.3254573
0.70672244 0.18597972 0.29968855
0.69719195 0.14677721 0.27460825
0.68791503 0.10861821 0.25019535
0.67888409 0.071461536 0.22642975
0.67008495 0.035267703 0.20327404
0.66151536 4.4703484e-08 0.18072242
0.65316004 -0.034376867 0.15873472
0.64501309 -0.067896128 0.13729557
0.63706899 -0.10058977 0.11638997
0.62931621 -0.1324876 0.095987901
0.62174982 -0.16361834 0.076076314
0.61436319 -0.19400945 0.05663801
0.60715193 -0.22368746 0.037660889
0.60010612 -0.25267628 0.019119337
0.59322202 -0.28099984 0.0010032356
0.58649576 -0.30868196 -0.016697422
0.57991862 -0.33574238 -0.034005612
0.57348746 -0.36220253 -0.050929919
0.56719887 -0.3880834 -0.067478731
0.56104517 -0.41340163 -0.083672687
0.55502355 -0.43817645 -0.099519119
0.91297716 0.7760306 0.72233558
0.89791334 0.71833074 0.68467611
0.88334233 0.66250682 0.64824861
0.86923307 0.60846317 0.61297542
0.85557097 0.55612117 0.57882005
0.84232825 0.50539696 0.54571331
0.82949257 0.45622087 0.51362389
0.81703895 0.40851957 0.48248994
0.80495685 0.36223066 0.45228472
0.79322392 0.31728974 0.42295247
0.78183097 0.27364081 0.3944701
0.77075785 0.23122741 0.36678743
0.75999403 0.18999858 0.33987778
0.74952936 0.14990583 0.31371608
0.73934639 0.11090195 0.28825849
0.7294389 0.072943911 0.26348987
0.719791 0.035989545 0.23937006
0.7103973 1.4901161e-08 0.215886
0.70124567 -0.035062231 0.19300692
0.69232684 -0.069232613 0.1707097
0.68363422 -0.10254515 0.1489782
0.67515504 -0.13503097 0.12778024
0.66688359 -0.16672097 0.10710169
0.65881443 -0.19764434 0.08692883
0.65093619 -0.22782761 0.067233242
0.64324421 -0.25729764 0.048003159
0.63573372 -0.28608012 0.029227048
0.62839478 -0.31419736 0.010879576
0.62122333 -0.34167281 -0.0070490092
0.61421549 -0.36852926 -0.024568647
0.60736227 -0.39478546 -0.041701645
0.60066026 -0.42046213 -0.058456659
0.59410459 -0.4455784 -0.074845925
0.93582809 0.62388533 0.66805482
0.92075247 0.56998962 0.63216025
0.90615112 0.51780069 0.59739524
0.8920092 0.4672429 0.56372404
0.87829846 0.41823742 0.53107953
0.86500627 0.3707169 0.49943122
0.85210705 0.32461226 0.46871877
0.83959007 0.27986333 0.4389165
0.82743239 0.23640934 0.40996975
0.81562489 0.19419645 0.38185665
0.80414659 0.15317076 0.35452738
0.79298693 0.11328386 0.32795677
0.78213555 0.074489169 0.30212015
0.77157712 0.036741741 0.276981
0.76129735 3.7252903e-08 0.25250545
0.75128788 -0.035775557 0.22867335
0.74154317 -0.070623197 0.20547166
0.73204565 -0.10457793 0.18285848
0.72278827 -0.13767393 0.16081719
0.71376443 -0.16994385 0.13933186
0.70496094 -0.2014174 0.11837097
0.69637191 -0.232124 0.097920865
0.68798965 -0.26209128 0.077963188
0.67980886 -0.29134661 0.058485039
0.67181832 -0.31991351 0.039460078
0.66401345 -0.34781647 0.020877033
0.65638977 -0.37507975 0.0027253181
0.64893723 -0.40172309 -0.015018612
0.64165205 -0.42776799 -0.032364279
0.63453048 -0.45323604 -0.049320549
0.97318548 0.5308286 0.65167791
0.95762146 0.47881061 0.61630481
0.94254351 0.4284288 0.58203685
0.92793673 0.37961048 0.54883969
0.91377223 0.33228076 0.51664758
0.90003705 0.2863754 0.48543146
0.88670534 0.24182877 0.45513207
0.87376612 0.19858325 0.42572474
0.86119586 0.15658115 0.39715594
0.84898537 0.11577079 0.3694047
0.83711314 0.076101229 0.34242252
0.82557136 0.037526056 0.31619117
0.81434059 2.9802322e-08 0.29066685
0.80341417 -0.036518775 0.26583397
0.79277432 -0.072070353 0.24165255
0.78241527 -0.10669294 0.21810915
0.77232343 -0.14042239 0.19517311
0.76249111 -0.17329335 0.17282695
0.75290352 -0.2053373 0.1510369
0.74355406 -0.23658536 0.12978826
0.73443633 -0.2670677 0.10906596
0.72553712 -0.29681057 0.088840649
0.71685112 -0.32584125 0.06909968
0.70837271 -0.3541863 0.049830541
0.70009041 -0.38186753 0.031007275
0.69199961 -0.40890884 0.012619004
0.68409556 -0.43533355 -0.0053445846
0.99396086 0.38894126 0.60067719
0.97842139 0.34032047 0.56689566
0.96336412 0.29319781 0.53416246
0.94875968 0.24750257 0.50241363
0.93459487 0.20317282 0.47162068
0.92084342 0.16014664 0.44172615
0.90749413 0.11836885 0.41270584
0.89452302 0.077784583 0.38450789
0.8819207 0.038344398 0.3571116
0.86966544 1.4901161e-08 0.33046967
0.8577491 -0.03729333 0.30456465
0.84615201 -0.073578387 0.27935359
0.83486724 -0.1088957 0.25482139
0.82387942 -0.14328325 0.23093489
0.81317717 -0.17677753 0.20766889
0.80274922 -0.20941287 0.18499979
0.79258811 -0.24122237 0.16291013
0.78267837 -0.27223587 0.14136748
0.77301347 -0.30248347 0.12035663
0.76358432 -0.33199307 0.099858426
0.7543847 -0.36079261 0.079859465
0.74540192 -0.38890526 0.060331568
0.7366305 -0.41635638 0.041263282
0.72806531 -0.44317016 0.022643298
1.0297822 0.30035317 0.58527213
1.0137956 0.25344893 0.55196714
0.99830192 0.20797959 0.51968825
0.98327076 0.16387846 0.4883734
0.9686892 0.1210862 0.45799524
0.95453024 0.079544201 0.42849731
0.94078273 0.039199382 0.39985663
0.92742217 5.9604645e-08 0.37202215
0.91443902 -0.038101673 0.34497404
0.9018113 -0.075150833 0.3186661
0.8895306 -0.11119132 0.29308134
0.87757689 -0.14626272 0.26817781
0.86594313 -0.18040477 0.24394077
0.85461372 -0.21365339 0.22033794
0.84357983 -0.24604404 0.19735064
0.83282441 -0.2776081 0.17494361
0.82233989 -0.30837741 0.15310077
0.81211859 -0.33838278 0.13180646
0.80214578 -0.36765009 0.11102975
0.7924149 -0.39620745 0.090757057
0.78291976 -0.42408147 0.070975423
0.77364707 -0.45129403 0.051657334
