# .PCD v0.7 - Point Cloud Data file format
VERSION 0.7
FIELDS x y z
SIZE 4 4 4
TYPE F F F
COUNT 1 1 1
WIDTH 1362
HEIGHT 1
VIEWPOINT 0 0 0 1 0 0 0
POINTS 1362
DATA ascii
-0.80322111 0.49723217 0.35232389
-0.80322403 0.45898512 0.35233068
-0.80322403 0.42073646 0.35233071
-0.80322403 0.38248768 0.35233086
-0.80322695 0.34424016 0.35233775
-0.80322695 0.30599129 0.35233763
-0.80322981 0.26774335 0.35234463
-0.80322981 0.2294943 0.35234466
-0.80322981 0.19124517 0.35234463
-0.80323273 0.1529967 0.35235158
-0.80323273 0.11474749 0.35235161
-0.80323565 0.076498702 0.35235849
-0.80323565 0.038249314 0.35235852
-0.80323565 1.4901161e-08 0.35235846
-0.80323857 -0.038249373 0.35236543
-0.80323857 -0.076498836 0.35236537
-0.80323857 -0.11474831 0.35236546
-0.80324149 -0.15299827 0.35237229
-0.80324149 -0.19124791 0.35237238
-0.80324149 -0.22949755 0.35237229
-0.80324435 -0.26774803 0.35237923
-0.80324435 -0.30599776 0.35237923
-0.80324435 -0.34424749 0.35237923
-0.80324727 -0.38249865 0.35238612
-0.80324727 -0.42074853 0.35238612
-0.80324727 -0.45899841 0.35238609
-0.80324727 -0.49724823 0.35238618
-0.80325019 -0.53550005 0.35239303
-0.80325019 -0.57375014 0.35239321
-0.80325019 -0.61200011 0.35239309
-0.80325311 -0.6502524 0.35239998
-0.80325311 -0.68850267 0.35240006
-0.74564779 1.0066247 0.30401224
-0.74564779 0.96934211 0.30401203
-0.74564779 0.93205976 0.30401203
-0.74565041 0.89478046 0.30401868
-0.74565041 0.85749793 0.30401859
-0.74565041 0.82021546 0.30401865
-0.74565303 0.78293574 0.3040252
-0.74565303 0.74565309 0.30402529
-0.74565566 0.70837307 0.30403191
-0.74565566 0.67109013 0.30403182
-0.74565566 0.63380742 0.30403185
-0.74565834 0.59652668 0.30403841
-0.74565834 0.5592438 0.30403841
-0.74566096 0.52196264 0.30404502
-0.74566096 0.4846797 0.30404502
-0.74566096 0.44739664 0.30404499
-0.74566358 0.410115 0.30405158
-0.74566358 0.37283173 0.30405155
-0.74566358 0.33554867 0.30405152
-0.74566621 0.29826656 0.30405819
-0.74566621 0.26098314 0.30405813
-0.74566883 0.2237007 0.30406475
-0.74566883 0.18641724 0.30406475
-0.74566883 0.14913377 0.30406472
-0.74567145 0.11185075 0.30407125
-0.74567145 0.074567184 0.30407131
-0.74567407 0.037283748 0.30407789
-0.74567407 1.4901161e-08 0.30407792
-0.74567407 -0.037283689 0.3040778
-0.7456767 -0.074567728 0.30408442
-0.7456767 -0.11185145 0.30408448
-0.7456767 -0.14913535 0.30408451
-0.74567932 -0.18641979 0.30409104
-0.74567932 -0.22370376 0.30409098
-0.74567932 -0.26098773 0.30409107
-0.74568194 -0.29827279 0.30409762
-0.74568194 -0.33555686 0.30409765
-0.74568194 -0.372841 0.30409759
-0.74568194 -0.41012508 0.30409762
-0.74568462 -0.44741076 0.30410409
-0.74568462 -0.48469499 0.30410409
-0.74568462 -0.52197921 0.30410427
-0.74568725 -0.55926538 0.30411083
-0.74568725 -0.59654969 0.30411077
-0.74568725 -0.63383412 0.30411077
-0.74568993 -0.67112082 0.30411732
-0.74568993 -0.70840538 0.30411738
-0.69092351 0.94547427 0.25811237
-0.69092351 0.90910983 0.2581124
-0.69092351 0.87274551 0.2581124
-0.6909259 0.83638406 0.25811863
-0.6909259 0.8000195 0.25811869
-0.69092822 0.76365751 0.25812483
-0.69092822 0.72729278 0.25812483
-0.69092822 0.69092828 0.25812489
-0.69093066 0.65456593 0.25813133
-0.69093066 0.61820108 0.25813115
-0.69093066 0.58183646 0.25813127
-0.69093305 0.54547352 0.25813743
-0.69093305 0.50910848 0.2581374
-0.69093537 0.4727453 0.25814366
-0.69093537 0.43638027 0.25814366
-0.69093537 0.40001529 0.25814375
-0.69093776 0.36365154 0.25814998
-0.69093776 0.32728633 0.25814998
-0.69094014 0.29092219 0.25815612
-0.69094014 0.25455695 0.2581563
-0.69094014 0.21819161 0.25815621
-0.69094253 0.18182704 0.25816241
-0.69094253 0.14546163 0.25816256
-0.69094491 0.10909662 0.25816882
-0.69094491 0.072730988 0.25816867
-0.69094491 0.036365516 0.2581687
-0.69094729 7.4505806e-08 0.25817502
-0.69094729 -0.036365636 0.25817496
-0.69094729 -0.072731286 0.25817499
-0.69094968 -0.10909723 0.25818127
-0.69094968 -0.14546303 0.25818127
-0.69094968 -0.18182877 0.25818124
-0.69095206 -0.21819536 0.25818744
-0.69095206 -0.25456119 0.25818747
-0.69095206 -0.29092717 0.2581875
-0.69095445 -0.3272942 0.25819376
-0.69095445 -0.36366019 0.25819376
-0.69095445 -0.40002617 0.25819379
-0.69095445 -0.43639234 0.25819379
-0.69095677 -0.47275987 0.25820002
-0.69095677 -0.50912601 0.25819999
-0.69095677 -0.54549205 0.25819993
-0.69095916 -0.5818603 0.25820625
-0.69095916 -0.61822659 0.25820631
-0.69095916 -0.65459287 0.25820616
-0.6909616 -0.69096154 0.25821251
-0.6909616 -0.72732782 0.25821254
-0.6909616 -0.76369429 0.25821248
-0.63882726 0.92275059 0.21441281
-0.63882935 0.88726306 0.21441871
-0.63882935 0.85177255 0.21441877
-0.63883156 0.81628466 0.21442458
-0.63883156 0.78079414 0.21442467
-0.63883156 0.74530351 0.2144247
-0.6388337 0.70981526 0.21443066
-0.6388337 0.67432445 0.21443067
-0.6388337 0.63883376 0.21443065
-0.63883579 0.60334498 0.21443662
-0.63883579 0.56785405 0.21443658
-0.63883799 0.53236496 0.21444254
-0.63883799 0.49687394 0.21444252
-0.63883799 0.46138299 0.21444252
-0.63884014 0.42589349 0.21444863
-0.63884014 0.39040232 0.21444851
-0.63884014 0.35491118 0.21444851
-0.63884228 0.31942117 0.21445444
-0.63884228 0.28392985 0.21445441
-0.63884437 0.24843949 0.21446051
-0.63884437 0.21294823 0.21446043
-0.63884437 0.17745675 0.21446039
-0.63884658 0.1419659 0.21446645
-0.63884658 0.10647455 0.21446644
-0.63884872 0.070983171 0.21447246
-0.63884872 0.035491586 0.21447235
-0.63884872 6.7055225e-08 0.21447237
-0.63885081 -0.035491638 0.21447834
-0.63885081 -0.07098341 0.2144784
-0.63885081 -0.10647509 0.21447822
-0.63885301 -0.14196731 0.21448418
-0.63885301 -0.17745917 0.2144843
-0.63885301 -0.21295102 0.21448429
-0.63885516 -0.24844356 0.21449022
-0.63885516 -0.28393549 0.21449026
-0.63885516 -0.31942755 0.21449022
-0.63885731 -0.35492069 0.2144962
-0.63885731 -0.39041278 0.21449623
-0.63885731 -0.42590481 0.2144962
-0.63885731 -0.46139693 0.21449623
-0.63885939 -0.49689054 0.21450216
-0.63885939 -0.53238285 0.21450219
-0.63885939 -0.56787503 0.21450217
-0.6388616 -0.60336918 0.21450806
-0.6388616 -0.63886154 0.21450812
-0.6388616 -0.67435384 0.2145081
-0.63886374 -0.70984858 0.21451414
-0.63886374 -0.74534088 0.21451406
-0.63886374 -0.78083336 0.21451402
-0.58917832 0.90109628 0.17277008
-0.58917832 0.86643875 0.17277002
-0.58918029 0.83178395 0.17277583
-0.58918029 0.79712623 0.17277578
-0.5891822 0.76247114 0.17278147
-0.5891822 0.72781324 0.17278141
-0.5891822 0.69315565 0.17278153
-0.58918411 0.65849996 0.17278722
-0.58918411 0.623842 0.1727872
-0.58918607 0.58918613 0.17279288
-0.58918607 0.55452812 0.1727929
-0.58918607 0.51986998 0.17279276
-0.58918798 0.48521373 0.17279856
-0.58918798 0.45055562 0.17279851
-0.58918798 0.4158974 0.17279842
-0.58918995 0.38124061 0.17280421
-0.58918995 0.34658232 0.17280421
-0.58919185 0.31192514 0.17280984
-0.58919185 0.2772668 0.17280987
-0.58919185 0.24260849 0.17280987
-0.58919376 0.20795074 0.17281552
-0.58919376 0.17329235 0.17281558
-0.58919573 0.13863431 0.17282118
-0.58919573 0.10397576 0.17282124
-0.58919573 0.069317117 0.17282119
-0.5891977 0.034658737 0.17282692
-0.5891977 1.4901161e-08 0.17282698
-0.5891977 -0.034658626 0.17282695
-0.5891996 -0.069317587 0.17283255
-0.5891996 -0.10397632 0.17283258
-0.5891996 -0.13863511 0.17283253
-0.58920151 -0.1732946 0.17283827
-0.58920151 -0.20795341 0.17283839
-0.58920151 -0.2426123 0.17283826
-0.58920342 -0.27727214 0.17284398
-0.58920342 -0.31193119 0.17284399
-0.58920342 -0.34659025 0.17284402
-0.58920342 -0.38124931 0.17284404
-0.58920538 -0.41590956 0.17284963
-0.58920538 -0.45056888 0.17284971
-0.58920538 -0.48522794 0.17284967
-0.58920735 -0.51988876 0.17285538
-0.58920735 -0.55454797 0.17285536
-0.58920735 -0.58920729 0.17285527
-0.58920926 -0.62386853 0.17286102
-0.58920926 -0.65852791 0.17286102
-0.58920926 -0.6931873 0.17286102
-0.58920926 -0.72784662 0.17286092
-0.58921117 -0.76250857 0.17286673
-0.58921117 -0.79716802 0.17286667
-0.58921117 -0.8318274 0.17286664
-0.54180622 0.88043517 0.13303703
-0.54180622 0.84657228 0.13303706
-0.54180622 0.81270945 0.13303721
-0.54180795 0.77884895 0.13304251
-0.54180795 0.74498594 0.13304248
-0.54180968 0.7111252 0.13304788
-0.54180968 0.67726207 0.13304788
-0.54180968 0.643399 0.13304794
-0.54181141 0.60953784 0.13305326
-0.54181141 0.57567465 0.1330533
-0.54181314 0.54181319 0.13305874
-0.54181314 0.50794983 0.1330587
-0.54181314 0.47408658 0.13305886
-0.54181486 0.44022465 0.13306418
-0.54181486 0.40636116 0.13306424
-0.54181665 0.37249899 0.13306959
-0.54181665 0.33863541 0.13306957
-0.54181665 0.30477184 0.13306956
-0.54181838 0.27090922 0.13307503
-0.54181838 0.23704559 0.13307504
-0.54181838 0.20318195 0.13307507
-0.54182011 0.16931885 0.13308045
-0.54182011 0.13545503 0.1330805
-0.54182184 0.10159159 0.13308585
-0.54182184 0.067727715 0.13308594
-0.54182184 0.033863921 0.13308594
-0.54182357 -1.4901161e-08 0.13309127
-0.54182357 -0.033863898 0.13309136
-0.54182357 -0.067727864 0.13309135
-0.54182529 -0.10159223 0.13309672
-0.54182529 -0.13545628 0.1330968
-0.54182529 -0.1693204 0.13309678
-0.54182702 -0.20318511 0.13310213
-0.54182702 -0.23704931 0.13310219
-0.54182702 -0.27091345 0.13310216
-0.54182702 -0.30477768 0.13310224
-0.54182881 -0.3386429 0.13310754
-0.54182881 -0.37250727 0.1331076
-0.54182881 -0.40637156 0.13310754
-0.54183054 -0.44023728 0.133113
-0.54183054 -0.47410166 0.13311306
-0.54183054 -0.50796604 0.13311298
-0.54183227 -0.54183221 0.13311842
-0.54183227 -0.57569677 0.13311845
-0.54183227 -0.6095612 0.13311842
-0.54183227 -0.64342576 0.13311845
-0.541834 -0.67729241 0.13312393
-0.541834 -0.71115702 0.1331239
-0.541834 -0.74502164 0.13312384
-0.54183573 -0.77888882 0.13312927
-0.54183573 -0.81275356 0.1331293
-0.54183573 -0.84661835 0.13312939
-0.4965578 0.82759625 0.095085204
-0.4965578 0.79449248 0.095085233
-0.49655935 0.76139098 0.095090479
-0.49655935 0.72828698 0.095090419
-0.49655935 0.69518316 0.095090508
-0.4965609 0.66208112 0.095095605
-0.4965609 0.62897724 0.095095754
-0.49656242 0.59587491 0.09510079
-0.49656242 0.56277078 0.09510082
-0.49656242 0.52966666 0.09510079
-0.49656403 0.49656403 0.095105961
-0.49656403 0.46345973 0.095105946
-0.49656403 0.43035543 0.095105976
-0.49656558 0.39725256 0.095111221
-0.49656558 0.36414808 0.095111176
-0.49656713 0.33104473 0.095116347
-0.49656713 0.29794031 0.095116459
-0.49656713 0.2648358 0.095116325
-0.49656868 0.23173216 0.0951216
-0.49656868 0.19862749 0.095121592
-0.49657023 0.16552342 0.095126748
-0.49657023 0.1324188 0.095126711
-0.49657023 0.099314056 0.095126785
-0.49657178 0.066209644 0.095131911
-0.49657178 0.033104774 0.095131934
-0.49657178 7.0780516e-08 0.095131971
-0.49657333 -0.033104848 0.095137231
-0.49657333 -0.066209711 0.095137089
-0.49657333 -0.099314585 0.095137104
-0.49657491 -0.13241991 0.095142253
-0.49657491 -0.16552496 0.09514226
-0.49657491 -0.19863001 0.095142275
-0.49657491 -0.23173489 0.095142297
-0.49657646 -0.26484081 0.095147483
-0.49657646 -0.29794586 0.095147491
-0.49657646 -0.33105087 0.095147505
-0.49657801 -0.36415714 0.095152661
-0.49657801 -0.39726236 0.095152661
-0.49657801 -0.43036753 0.095152706
-0.49657956 -0.46347415 0.095157832
-0.49657956 -0.49657947 0.095157877
-0.49657956 -0.52968484 0.095157862
-0.49657956 -0.56279016 0.095157892
-0.49658111 -0.59589726 0.095163047
-0.49658111 -0.62900275 0.095163077
-0.49658111 -0.662108 0.095162988
-0.49658266 -0.69521564 0.095168233
-0.49658266 -0.72832119 0.095168203
-0.49658266 -0.76142681 0.095168293
-0.49658421 -0.7945348 0.095173478
-0.49658421 -0.82764041 0.095173389
-0.49658421 -0.86074591 0.095173478
-0.49658421 -0.89385158 0.095173419
-0.45329201 0.80944997 0.058792561
-0.45329335 0.77707446 0.058797508
-0.45329335 0.74469626 0.058797479
-0.45329475 0.71232039 0.058802515
-0.45329475 0.67994213 0.058802545
-0.45329475 0.64756405 0.058802515
-0.45329612 0.61518764 0.058807403
-0.45329612 0.58280933 0.058807462
-0.45329753 0.5504328 0.058812499
-0.45329753 0.51805431 0.058812425
-0.45329753 0.48567593 0.058812395
-0.45329896 0.4532989 0.058817357
-0.45329896 0.42092049 0.058817387
-0.45329896 0.38854194 0.058817387
-0.4533003 0.35616457 0.058822289
-0.4533003 0.32378596 0.058822349
-0.45330173 0.29140824 0.058827303
-0.45330173 0.25902963 0.058827303
-0.45330307 0.22665158 0.058832213
-0.45330307 0.19427276 0.05883228
-0.45330307 0.16189402 0.058832277
-0.45330447 0.12951559 0.05883719
-0.45330447 0.097136624 0.058837205
-0.45330447 0.064757884 0.058837198
-0.4533059 0.032379024 0.058842167
-0.4533059 3.7252903e-08 0.058842055
-0.4533059 -0.032379054 0.05884219
-0.45330724 -0.064758152 0.058847059
-0.45330724 -0.097137243 0.058847193
-0.45330724 -0.12951633 0.058847159
-0.45330867 -0.16189595 0.058852155
-0.45330867 -0.19427502 0.058852121
-0.45330867 -0.22665426 0.058852069
-0.45330867 -0.2590335 0.058852024
-0.45331001 -0.29141355 0.058857076
-0.45331001 -0.32379282 0.058857024
-0.45331001 -0.35617211 0.058857098
-0.45331144 -0.38855258 0.058862045
-0.45331144 -0.42093194 0.058862031
-0.45331144 -0.45331132 0.058862016
-0.45331284 -0.48569226 0.058866963
-0.45331284 -0.51807177 0.058866978
-0.45331284 -0.55045128 0.058867052
-0.45331284 -0.58283073 0.058867067
-0.45331419 -0.61521214 0.058872014
-0.45331419 -0.64759171 0.058871955
-0.45331419 -0.67997122 0.058871955
-0.45331562 -0.71235305 0.058876932
-0.45331562 -0.74473268 0.058876842
-0.45331562 -0.77711242 0.058876932
-0.45331696 -0.8094945 0.058881789
-0.45331696 -0.84187424 0.058881879
-0.45331696 -0.87425411 0.058881879
-0.45331839 -0.90663666 0.058886796
-0.41188404 0.79208481 0.024062097
-0.41188526 0.76040363 0.024066806
-0.41188526 0.72872013 0.024066806
-0.41188526 0.69703662 0.024066806
-0.41188654 0.66535515 0.024071544
-0.41188654 0.63367164 0.024071574
-0.41188654 0.60198808 0.024071604
-0.41188776 0.57030606 0.024076253
-0.41188776 0.53862238 0.024076253
-0.41188896 0.50694031 0.024081066
-0.41188896 0.47525656 0.024081096
-0.41188896 0.44357276 0.024081036
-0.41189024 0.41189027 0.024085864
-0.41189024 0.38020641 0.024085835
-0.41189146 0.34852362 0.024090588
-0.41189146 0.31683964 0.024090528
-0.41189146 0.28515562 0.024090499
-0.41189268 0.25347251 0.024095349
-0.41189268 0.22178847 0.024095356
-0.41189393 0.19010499 0.024100065
-0.41189393 0.15842076 0.024100058
-0.41189393 0.12673661 0.024099983
-0.41189516 0.095052749 0.024104863
-0.41189516 0.063368566 0.024104819
-0.41189516 0.031684261 0.024104727
-0.41189638 1.1175871e-08 0.024109628
-0.41189638 -0.031684294 0.024109535
-0.41189638 -0.063368611 0.024109609
-0.4118976 -0.095053263 0.024114225
-0.4118976 -0.12673767 0.024114382
-0.4118976 -0.15842214 0.024114273
-0.4118976 -0.19010654 0.024114259
-0.41189888 -0.22179163 0.024119094
-0.41189888 -0.2534762 0.024119072
-0.41189888 -0.2851606 0.024119064
-0.4119001 -0.31684622 0.024123803
-0.4119001 -0.3485308 0.024123773
-0.4119001 -0.38021541 0.024123698
-0.41190132 -0.4119013 0.024128526
-0.41190132 -0.44358599 0.024128526
-0.41190132 -0.47527069 0.024128497
-0.41190258 -0.50695699 0.024133354
-0.41190258 -0.53864181 0.024133265
-0.41190258 -0.57032651 0.024133235
-0.41190258 -0.60201132 0.024133265
-0.4119038 -0.63369811 0.024138033
-0.4119038 -0.66538298 0.024137974
-0.4119038 -0.69706798 0.024138033
-0.41190502 -0.72875512 0.024142861
-0.41190502 -0.76043993 0.024142683
-0.41190502 -0.79212499 0.024142772
-0.4119063 -0.82381243 0.024147511
-0.4119063 -0.85549772 0.02414757
-0.4119063 -0.88718271 0.02414757
-0.4119063 -0.91886789 0.0241476
-0.41190752 -0.95055568 0.024152309
-0.37221545 0.7754488 -0.0092096925
-0.37221545 0.7444309 -0.0092096031
-0.37221655 0.71341515 -0.0092050135
-0.37221655 0.68239701 -0.0092051327
-0.37221655 0.65137899 -0.0092050433
-0.37221766 0.62036276 -0.009200573
-0.37221766 0.58934468 -0.0092004836
-0.37221873 0.55832815 -0.0091959536
-0.37221873 0.52730995 -0.0091959238
-0.37221873 0.49629164 -0.0091959685
-0.37221983 0.46527481 -0.0091914535
-0.37221983 0.43425643 -0.0091914386
-0.37221983 0.40323818 -0.0091913939
-0.37222093 0.37222093 -0.0091868192
-0.37222093 0.3412025 -0.0091868937
-0.37222201 0.31018502 -0.0091823041
-0.37222201 0.27916652 -0.0091823488
-0.37222201 0.24814799 -0.0091823563
-0.37222311 0.21713015 -0.0091777444
-0.37222311 0.1861116 -0.0091777518
-0.37222418 0.15509346 -0.009173207
-0.37222418 0.12407476 -0.0091732256
-0.37222418 0.09305606 -0.0091732405
-0.37222528 0.062037606 -0.0091685932
-0.37222528 0.031018827 -0.0091687012
-0.37222528 8.1490725e-08 -0.0091686789
-0.37222639 -0.031018786 -0.0091641452
-0.37222639 -0.062037654 -0.009164175
-0.37222639 -0.093056537 -0.0091640353
-0.37222749 -0.12407573 -0.009159524
-0.37222749 -0.15509477 -0.009159565
-0.37222749 -0.18611374 -0.0091595203
-0.37222749 -0.21713269 -0.0091596395
-0.37222856 -0.24815241 -0.0091549903
-0.37222856 -0.27917141 -0.0091549903
-0.37222856 -0.31019038 -0.0091549903
-0.37222967 -0.34121048 -0.0091504306
-0.37222967 -0.37222958 -0.0091505051
-0.37222967 -0.40324879 -0.0091504008
-0.37223077 -0.43426907 -0.0091458857
-0.37223077 -0.4652884 -0.0091458708
-0.37223077 -0.49630761 -0.0091459155
-0.37223077 -0.52732682 -0.0091458559
-0.37223184 -0.55834764 -0.0091413856
-0.37223184 -0.58936703 -0.0091414154
-0.37223184 -0.62038624 -0.0091413558
-0.37223294 -0.6514076 -0.0091368258
-0.37223294 -0.68242693 -0.0091368258
-0.37223294 -0.71344638 -0.0091367662
-0.37223402 -0.74446797 -0.009132266
-0.37223402 -0.77548754 -0.0091322362
-0.37223402 -0.80650711 -0.009132117
-0.37223402 -0.83752656 -0.0091322362
-0.37223512 -0.86854857 -0.0091277361
-0.37223512 -0.8995682 -0.0091276765
-0.37223512 -0.93058771 -0.0091277659
-0.37223622 -0.9616102 -0.0091230869
-0.33417886 0.72911763 -0.041112483
-0.33417886 0.69873768 -0.041112453
-0.33417985 0.6683597 -0.041108042
-0.33417985 0.63797963 -0.041108072
-0.3341808 0.60760152 -0.041103691
-0.3341808 0.57722139 -0.04110378
-0.3341808 0.54684138 -0.041103646
-0.33418176 0.5164628 -0.041099355
-0.33418176 0.48608258 -0.041099399
-0.33418176 0.45570248 -0.041099325
-0.33418274 0.42532355 -0.041094929
-0.33418274 0.3949433 -0.041094914
-0.33418369 0.364564 -0.041090667
-0.33418369 0.33418372 -0.041090623
-0.33418369 0.30380332 -0.041090623
-0.33418465 0.27342379 -0.041086316
-0.33418465 0.24304333 -0.041086279
-0.3341856 0.21266364 -0.041081846
-0.3341856 0.18228312 -0.041081905
-0.3341856 0.15190251 -0.041081883
-0.33418658 0.12152244 -0.041077603
-0.33418658 0.091141738 -0.041077506
-0.33418658 0.060761258 -0.041077439
-0.33418751 0.030380679 -0.041073188
-0.33418751 2.9802322e-08 -0.041073132
-0.33418751 -0.030380653 -0.041073203
-0.33418846 -0.060761534 -0.041068852
-0.33418846 -0.091142274 -0.041068718
-0.33418846 -0.12152308 -0.041068837
-0.33418846 -0.15190382 -0.041068703
-0.33418944 -0.1822852 -0.041064397
-0.33418944 -0.21266595 -0.041064426
-0.33418944 -0.24304679 -0.041064419
-0.3341904 -0.27342847 -0.041060098
-0.3341904 -0.3038094 -0.041060016
-0.3341904 -0.33419031 -0.04106006
-0.33419135 -0.36457229 -0.041055709
-0.33419135 -0.39495343 -0.04105565
-0.33419135 -0.42533448 -0.041055694
-0.33419135 -0.45571548 -0.041055664
-0.33419234 -0.48609793 -0.041051313
-0.33419234 -0.51647902 -0.041051373
-0.33419234 -0.5468601 -0.041051328
-0.33419329 -0.57724285 -0.041046977
-0.33419329 -0.60762405 -0.041046977
-0.33419329 -0.63800526 -0.041047007
-0.33419424 -0.66838849 -0.041042566
-0.33419424 -0.69876975 -0.041042566
-0.33419424 -0.72915101 -0.041042626
-0.33419424 -0.75953233 -0.041042626
-0.3341952 -0.78991586 -0.041038245
-0.3341952 -0.82029724 -0.041038305
-0.3341952 -0.8506788 -0.041038185
-0.33419618 -0.88106251 -0.041033924
-0.33419618 -0.91144407 -0.041033804
-0.33419618 -0.94182551 -0.041033864
-0.33419713 -0.97220969 -0.041029572
-0.29767564 0.71442151 -0.071729243
-0.29767564 0.68465388 -0.071729273
-0.29767564 0.65488642 -0.071729243
-0.29767644 0.62512064 -0.071724981
-0.29767644 0.59535295 -0.0717251
-0.29767731 0.56558692 -0.071720794
-0.29767731 0.53581917 -0.071720853
-0.29767731 0.50605148 -0.071720794
-0.29767814 0.47628504 -0.071716651
-0.29767814 0.44651723 -0.071716622
-0.29767814 0.41674942 -0.071716666
-0.29767898 0.38698274 -0.07171239
-0.29767898 0.35721481 -0.071712464
-0.29767981 0.32744786 -0.07170818
-0.29767981 0.2976799 -0.071708232
-0.29767981 0.26791185 -0.071708322
-0.29768065 0.23814456 -0.071704052
-0.29768065 0.2083765 -0.071704142
-0.29768151 0.17860888 -0.071699888
-0.29768151 0.14884079 -0.07169982
-0.29768151 0.11907263 -0.071699835
-0.29768234 0.089304723 -0.071695656
-0.29768234 0.059536517 -0.071695633
-0.29768234 0.029768281 -0.071695745
-0.29768318 6.3329935e-08 -0.071691453
-0.29768318 -0.029768215 -0.071691521
-0.29768318 -0.059536632 -0.071691468
-0.29768318 -0.089304909 -0.071691535
-0.29768401 -0.11907358 -0.071687326
-0.29768401 -0.14884196 -0.071687311
-0.29768401 -0.17861041 -0.071687393
-0.29768485 -0.2083793 -0.071683072
-0.29768485 -0.23814788 -0.071683131
-0.29768485 -0.26791638 -0.071683086
-0.29768568 -0.29768562 -0.071678951
-0.29768568 -0.32745421 -0.071678877
-0.29768568 -0.3572228 -0.071678922
-0.29768652 -0.38699245 -0.071674734
-0.29768652 -0.41676104 -0.071674794
-0.29768652 -0.44652969 -0.071674719
-0.29768652 -0.47629839 -0.071674779
-0.29768735 -0.50606847 -0.071670488
-0.29768735 -0.53583717 -0.071670562
-0.29768735 -0.56560588 -0.071670562
-0.29768822 -0.59537625 -0.07166636
-0.29768822 -0.62514514 -0.07166633
-0.29768822 -0.65491402 -0.07166636
-0.29768902 -0.68468475 -0.071662128
-0.29768902 -0.71445358 -0.071662158
-0.29768902 -0.74422264 -0.071662158
-0.29768902 -0.77399147 -0.071662128
-0.29768988 -0.80376267 -0.071657956
-0.29768988 -0.83353156 -0.071658015
-0.29768988 -0.86330062 -0.071657896
-0.29769072 -0.89307213 -0.071653724
-0.29769072 -0.92284113 -0.071653843
-0.29769072 -0.95261019 -0.071653724
-0.29769155 -0.982382 -0.071649671
-0.29769155 -1.0121514 -0.071649492
-0.2626141 0.70030421 -0.1011402
-0.26261482 0.67112678 -0.10113615
-0.26261482 0.64194733 -0.10113621
-0.26261556 0.61276966 -0.10113209
-0.26261556 0.58359015 -0.10113207
-0.26261556 0.55441064 -0.10113207
-0.26261628 0.52523255 -0.10112812
-0.26261628 0.49605295 -0.10112815
-0.26261628 0.46687329 -0.10112818
-0.26261699 0.43769509 -0.10112408
-0.26261699 0.40851527 -0.10112411
-0.26261771 0.37933674 -0.10112005
-0.26261771 0.35015702 -0.10112002
-0.26261771 0.32097721 -0.10112007
-0.26261842 0.29179823 -0.10111608
-0.26261842 0.26261848 -0.10111602
-0.26261917 0.23343939 -0.10111196
-0.26261917 0.20425941 -0.10111202
-0.26261917 0.17507949 -0.10111195
-0.26261988 0.14589995 -0.10110797
-0.26261988 0.11671998 -0.10110804
-0.26261988 0.087540045 -0.10110797
-0.26262063 0.058360197 -0.10110388
-0.26262063 0.029180106 -0.101104
-0.26262063 7.4505806e-09 -0.10110395
-0.26262134 -0.029180132 -0.10109992
-0.26262134 -0.058360234 -0.10109987
-0.26262134 -0.08754041 -0.10109991
-0.26262134 -0.11672051 -0.10109986
-0.26262206 -0.14590116 -0.10109587
-0.26262206 -0.17508133 -0.1010959
-0.26262206 -0.2042616 -0.10109587
-0.2626228 -0.2334424 -0.10109189
-0.2626228 -0.2626228 -0.10109182
-0.2626228 -0.29180303 -0.1010919
-0.26262352 -0.32098424 -0.10108782
-0.26262352 -0.35016465 -0.10108781
-0.26262352 -0.379345 -0.10108785
-0.26262352 -0.40852544 -0.10108781
-0.26262423 -0.43770698 -0.10108379
-0.26262423 -0.46688747 -0.10108379
-0.26262423 -0.49606794 -0.1010838
-0.26262495 -0.52524996 -0.10107976
-0.26262495 -0.55443043 -0.10107978
-0.26262495 -0.58361089 -0.10107984
-0.26262569 -0.61279321 -0.10107574
-0.26262569 -0.64197385 -0.10107577
-0.26262569 -0.6711545 -0.10107565
-0.26262641 -0.70033705 -0.10107169
-0.26262641 -0.72951782 -0.10107169
-0.26262641 -0.75869846 -0.10107169
-0.26262641 -0.78787911 -0.1010718
-0.26262715 -0.8170622 -0.10106763
-0.26262715 -0.8462429 -0.10106775
-0.26262715 -0.87542367 -0.10106775
-0.26262787 -0.90460706 -0.10106364
-0.26262787 -0.93378782 -0.10106364
-0.26262787 -0.96296889 -0.10106358
-0.26262859 -0.99215233 -0.10105965
-0.26262859 -1.0213333 -0.10105965
-0.22891198 0.658122 -0.12940747
-0.22891259 0.62950969 -0.12940355
-0.22891259 0.60089564 -0.12940362
-0.22891323 0.57228315 -0.12939972
-0.22891323 0.54366899 -0.12939972
-0.22891323 0.51505482 -0.12939973
-0.22891384 0.48644197 -0.1293958
-0.22891384 0.45782778 -0.1293958
-0.22891447 0.42921469 -0.12939197
-0.22891447 0.40060031 -0.12939197
-0.22891447 0.37198609 -0.12939191
-0.22891508 0.34337273 -0.12938803
-0.22891508 0.31475824 -0.12938809
-0.22891508 0.2861439 -0.12938809
-0.22891569 0.25753021 -0.12938423
-0.22891569 0.22891581 -0.1293842
-0.22891633 0.20030184 -0.12938029
-0.22891633 0.17168738 -0.12938035
-0.22891633 0.14307274 -0.12938039
-0.22891694 0.11445852 -0.12937641
-0.22891694 0.085843869 -0.12937647
-0.22891694 0.057229262 -0.12937641
-0.22891757 0.028614677 -0.12937257
-0.22891757 -7.4505806e-09 -0.1293726
-0.22891757 -0.028614692 -0.12937263
-0.22891818 -0.057229497 -0.12936877
-0.22891818 -0.085844271 -0.12936872
-0.22891818 -0.114459 -0.12936869
-0.22891818 -0.14307377 -0.12936872
-0.22891879 -0.17168909 -0.12936482
-0.22891879 -0.20030385 -0.12936485
-0.22891879 -0.22891876 -0.12936485
-0.22891942 -0.25753435 -0.12936093
-0.22891942 -0.28614929 -0.12936097
-0.22891942 -0.3147642 -0.12936096
-0.22892003 -0.34338 -0.1293571
-0.22892003 -0.37199503 -0.12935707
-0.22892003 -0.40061003 -0.12935713
-0.22892003 -0.42922503 -0.12935705
-0.22892067 -0.45784128 -0.1293532
-0.22892067 -0.48645636 -0.12935321
-0.22892067 -0.51507145 -0.12935321
-0.22892128 -0.543688 -0.12934932
-0.22892128 -0.57230306 -0.12934937
-0.22892128 -0.60091835 -0.12934938
-0.22892189 -0.6295352 -0.12934548
-0.22892189 -0.65815043 -0.12934545
-0.22892189 -0.68676567 -0.12934548
-0.22892189 -0.71538091 -0.12934551
-0.22892252 -0.74399811 -0.1293416
-0.22892252 -0.77261347 -0.1293416
-0.22892252 -0.80122876 -0.12934166
-0.22892313 -0.82984626 -0.12933779
-0.22892313 -0.85846174 -0.1293377
-0.22892313 -0.88707697 -0.12933779
-0.22892377 -0.91569507 -0.12933388
-0.22892377 -0.94431055 -0.12933388
-0.22892377 -0.9729259 -0.12933382
-0.23285934 -1.0187595 -0.10473651
-0.196491 0.64561337 -0.15660016
-0.19649152 0.61754477 -0.15659656
-0.19649152 0.58947456 -0.1565965
-0.19649152 0.56140441 -0.15659651
-0.19649205 0.53333557 -0.15659279
-0.19649205 0.5052653 -0.15659273
-0.19649205 0.47719496 -0.15659279
-0.19649257 0.44912589 -0.15658903
-0.19649257 0.42105553 -0.15658902
-0.19649309 0.39298621 -0.15658537
-0.19649309 0.36491573 -0.15658528
-0.19649309 0.33684525 -0.15658534
-0.19649361 0.30877575 -0.15658152
-0.19649361 0.28070521 -0.15658154
-0.19649413 0.25263533 -0.15657787
-0.19649413 0.22456476 -0.15657784
-0.19649413 0.19649418 -0.15657781
-0.19649465 0.16842405 -0.15657409
-0.19649465 0.14035335 -0.1565741
-0.19649465 0.11228272 -0.15657406
-0.19649518 0.084212258 -0.15657035
-0.19649518 0.056141555 -0.15657037
-0.19649518 0.0280708 -0.15657037
-0.1964957 1.2665987e-07 -0.15656663
-0.1964957 -0.028070796 -0.15656663
-0.1964957 -0.056141663 -0.15656668
-0.1964957 -0.084212407 -0.15656666
-0.19649622 -0.11228351 -0.15656295
-0.19649622 -0.14035438 -0.15656292
-0.19649622 -0.16842529 -0.15656292
-0.19649674 -0.19649674 -0.15655917
-0.19649674 -0.22456767 -0.15655915
-0.19649674 -0.25263867 -0.15655926
-0.19649726 -0.2807104 -0.15655547
-0.19649726 -0.30878145 -0.15655544
-0.19649726 -0.3368524 -0.1565555
-0.19649726 -0.36492345 -0.15655546
-0.19649778 -0.39299554 -0.15655173
-0.19649778 -0.42106664 -0.15655175
-0.19649778 -0.44913772 -0.15655176
-0.1964983 -0.4772101 -0.15654801
-0.1964983 -0.50528133 -0.15654796
-0.1964983 -0.53335249 -0.15654807
-0.19649883 -0.56142515 -0.15654428
-0.19649883 -0.58949637 -0.1565443
-0.19649883 -0.61756778 -0.15654425
-0.19649883 -0.64563894 -0.15654424
-0.19649936 -0.67371202 -0.15654051
-0.19649936 -0.7017833 -0.1565406
-0.19649936 -0.72985464 -0.15654054
-0.19649987 -0.75792801 -0.15653685
-0.19649987 -0.78599942 -0.15653682
-0.19649987 -0.81407082 -0.15653688
-0.19650041 -0.84214449 -0.15653306
-0.19650041 -0.87021589 -0.15653321
-0.19693507 -0.90027457 -0.15342823
-0.20158002 -0.9503057 -0.12025011
-0.20644934 -1.0027539 -0.085469216
-0.16527945 0.63357127 -0.1827786
-0.16527945 0.60602474 -0.18277851
-0.16527988 0.57847959 -0.18277498
-0.16527988 0.55093294 -0.18277495
-0.16527988 0.52338636 -0.18277498
-0.16528033 0.49584097 -0.18277134
-0.16528033 0.46829432 -0.18277134
-0.16528033 0.4407475 -0.18277138
-0.16528076 0.41320181 -0.18276781
-0.16528076 0.38565511 -0.18276775
-0.16528118 0.35810927 -0.18276417
-0.16528118 0.33056241 -0.18276417
-0.16528161 0.30301633 -0.18276055
-0.16528161 0.27546936 -0.1827606
-0.16528161 0.24792241 -0.18276066
-0.16528204 0.22037609 -0.18275701
-0.16528204 0.1928291 -0.18275702
-0.16528204 0.16528209 -0.18275702
-0.16528247 0.13773546 -0.18275341
-0.16528247 0.11018841 -0.18275338
-0.16528247 0.082641229 -0.1827534
-0.16528291 0.055094376 -0.18274976
-0.16528291 0.027547248 -0.18274982
-0.16528291 2.9802322e-08 -0.18274981
-0.16528291 -0.027547143 -0.18274982
-0.16528334 -0.055094406 -0.18274629
-0.16528334 -0.082641587 -0.18274623
-0.16528334 -0.1101888 -0.1827462
-0.16528377 -0.1377365 -0.18274263
-0.16528377 -0.16528372 -0.18274263
-0.16528377 -0.19283098 -0.18274264
-0.16528419 -0.22037894 -0.18273908
-0.16528419 -0.24792618 -0.18273911
-0.16528419 -0.27547356 -0.18273911
-0.16528419 -0.30302095 -0.18273911
-0.16528463 -0.33056915 -0.18273547
-0.16528463 -0.35811666 -0.18273541
-0.16528463 -0.38566405 -0.18273544
-0.16528507 -0.41321263 -0.18273187
-0.16528507 -0.44076014 -0.18273184
-0.16528507 -0.46830761 -0.18273191
-0.16528548 -0.49585646 -0.18272831
-0.16528548 -0.523404 -0.18272831
-0.16528548 -0.55095154 -0.18272831
-0.16528592 -0.57850069 -0.18272468
-0.16528592 -0.60604829 -0.18272471
-0.16528592 -0.63359594 -0.18272468
-0.16528592 -0.66114366 -0.18272467
-0.16528635 -0.68869317 -0.18272105
-0.16528635 -0.71624076 -0.18272114
-0.16528635 -0.74378848 -0.18272114
-0.16528678 -0.77133822 -0.18271753
-0.16528678 -0.79888606 -0.18271747
-0.16706173 -0.83530867 -0.16792613
-0.17096052 -0.88329595 -0.13543642
-0.17504561 -0.93357652 -0.10139394
-0.17933072 -0.98631883 -0.065684676
-0.18383195 -1.0417144 -0.02817446
-0.13521056 0.62196863 -0.20800176
-0.13521092 0.59492803 -0.2079982
-0.13521092 0.56788582 -0.2079982
-0.13521126 0.5408451 -0.20799479
-0.13521126 0.51380289 -0.20799471
-0.13521126 0.48676062 -0.20799471
-0.1352116 0.45971948 -0.20799127
-0.1352116 0.43267721 -0.20799127
-0.13521194 0.40563589 -0.20798784
-0.13521194 0.37859342 -0.20798784
-0.13521194 0.35155112 -0.20798786
-0.1352123 0.32450959 -0.20798436
-0.1352123 0.29746699 -0.2079844
-0.13521264 0.27042532 -0.20798096
-0.13521264 0.24338281 -0.20798093
-0.13521264 0.21634026 -0.20798086
-0.13521299 0.18929824 -0.20797744
-0.13521299 0.16225561 -0.20797744
-0.13521299 0.135213 -0.20797747
-0.13521333 0.10817071 -0.20797399
-0.13521333 0.081128061 -0.20797397
-0.13521333 0.054085389 -0.20797393
-0.13521333 0.027042687 -0.20797405
-0.13521369 2.2351742e-08 -0.20797056
-0.13521369 -0.027042769 -0.20797057
-0.13521369 -0.054085426 -0.20797056
-0.13521403 -0.081128359 -0.20796698
-0.13521403 -0.10817119 -0.20796706
-0.13521403 -0.135214 -0.20796713
-0.13521437 -0.16225724 -0.20796356
-0.13521437 -0.18930006 -0.20796363
-0.13521437 -0.21634294 -0.20796359
-0.13521472 -0.24338654 -0.20796016
-0.13521472 -0.27042931 -0.20796017
-0.13521472 -0.29747236 -0.20796013
-0.13521472 -0.32451528 -0.20796013
-0.13521507 -0.35155904 -0.20795673
-0.13521507 -0.37860209 -0.20795667
-0.13521507 -0.40564516 -0.20795663
-0.13521542 -0.43268925 -0.20795326
-0.13521542 -0.45973229 -0.20795326
-0.13521542 -0.48677552 -0.2079532
-0.13521576 -0.51381987 -0.20794973
-0.13521576 -0.54086298 -0.2079498
-0.13521576 -0.56790614 -0.2079497
-0.13521576 -0.59494931 -0.20794977
-0.1352161 -0.62199402 -0.20794624
-0.1352161 -0.64903718 -0.20794632
-0.1352161 -0.67608052 -0.20794626
-0.13521646 -0.70312548 -0.20794281
-0.13521646 -0.73016876 -0.20794281
-0.13779753 -0.77166617 -0.18213204
-0.14097978 -0.81768274 -0.15030953
-0.1443125 -0.86587501 -0.11698234
-0.14780658 -0.91640079 -0.082041413
-0.15147451 -0.96943688 -0.045362204
-0.15532957 -1.0251751 -0.0068116188
-0.10622371 0.58423042 -0.23231092
-0.10622371 0.55767447 -0.23231094
-0.10622371 0.53111863 -0.23231085
-0.10622398 0.50456393 -0.23230752
-0.10622398 0.47800797 -0.23230754
-0.10622398 0.45145199 -0.23230752
-0.10622425 0.42489702 -0.23230425
-0.10622425 0.39834091 -0.2323043
-0.10622452 0.37178588 -0.23230082
-0.10622452 0.34522969 -0.23230095
-0.10622452 0.31867361 -0.23230085
-0.10622478 0.29211816 -0.23229752
-0.10622478 0.26556194 -0.2322976
-0.10622505 0.23900643 -0.2322942
-0.10622505 0.21245015 -0.23229423
-0.10622505 0.18589389 -0.23229414
-0.10622532 0.15933801 -0.23229089
-0.10622532 0.13278164 -0.23229085
-0.10622532 0.10622536 -0.23229089
-0.10622559 0.079669237 -0.23228747
-0.10622559 0.053112797 -0.2322875
-0.10622559 0.02655647 -0.2322875
-0.10622585 1.1175871e-07 -0.23228416
-0.10622585 -0.026556432 -0.23228413
-0.10622585 -0.053112872 -0.23228419
-0.10622585 -0.079669319 -0.23228425
-0.10622612 -0.10622615 -0.23228088
-0.10622612 -0.13278264 -0.23228082
-0.10622612 -0.1593391 -0.23228087
-0.10622638 -0.18589613 -0.23227757
-0.10622638 -0.2124528 -0.23227751
-0.10622638 -0.23900932 -0.23227751
-0.10622665 -0.26556656 -0.23227426
-0.10622665 -0.29212323 -0.2322742
-0.10622665 -0.31867996 -0.23227417
-0.10622665 -0.34523666 -0.23227417
-0.10622691 -0.37179413 -0.23227087
-0.10622691 -0.39835089 -0.2322709
-0.10622691 -0.42490759 -0.23227087
-0.10622718 -0.45146549 -0.23226747
-0.10622718 -0.47802222 -0.23226751
-0.10622718 -0.50457907 -0.23226753
-0.10622746 -0.53113723 -0.23226424
-0.10622746 -0.55769408 -0.23226419
-0.10622746 -0.58425093 -0.23226418
-0.10622746 -0.61080778 -0.23226418
-0.10622773 -0.63736624 -0.23226085
-0.10673976 -0.66712338 -0.22586045
-0.1091248 -0.70931119 -0.19604734
-0.11161887 -0.75342727 -0.16487163
-0.1142296 -0.79960716 -0.13223729
-0.1169654 -0.84799892 -0.098040015
-0.11983544 -0.89876586 -0.062164307
-0.12285024 -0.95208931 -0.02447933
-0.12602101 -1.0081681 0.015155345
-0.07826037 0.57390946 -0.25576791
-0.078260563 0.54782397 -0.25576463
-0.078260563 0.52173704 -0.25576466
-0.078260563 0.49565023 -0.25576466
-0.07826075 0.46956456 -0.25576153
-0.07826075 0.44347757 -0.25576156
-0.078260943 0.41739178 -0.25575829
-0.078260943 0.39130473 -0.25575826
-0.078260943 0.36521775 -0.25575826
-0.078261137 0.33913159 -0.25575504
-0.078261137 0.31304458 -0.25575501
-0.078261331 0.28695828 -0.25575182
-0.078261331 0.26087114 -0.25575182
-0.078261331 0.23478405 -0.25575176
-0.078261524 0.20869741 -0.25574857
-0.078261524 0.18261027 -0.25574857
-0.078261524 0.15652308 -0.25574854
-0.078261718 0.13043624 -0.25574538
-0.078261718 0.10434901 -0.25574532
-0.078261718 0.078261741 -0.25574541
-0.078261912 0.052174672 -0.25574216
-0.078261912 0.026087314 -0.25574213
-0.078261912 4.4703484e-08 -0.25574213
-0.078261912 -0.026087269 -0.25574216
-0.078262106 -0.052174687 -0.25573894
-0.078262106 -0.078262046 -0.25573894
-0.078262106 -0.10434945 -0.25573888
-0.078262299 -0.13043717 -0.25573575
-0.078262299 -0.15652452 -0.25573573
-0.078262299 -0.182612 -0.25573578
-0.078262493 -0.20869993 -0.25573254
-0.078262493 -0.23478745 -0.25573254
-0.078262493 -0.26087493 -0.25573251
-0.078262493 -0.28696245 -0.25573251
-0.078262687 -0.31305069 -0.25572929
-0.078262687 -0.33913821 -0.25572929
-0.078262687 -0.36522585 -0.25572926
-0.07826288 -0.39131424 -0.2557261
-0.07826288 -0.41740194 -0.2557261
-0.07826288 -0.44348961 -0.25572604
-0.078263074 -0.46957842 -0.25572282
-0.078263074 -0.49566612 -0.25572285
-0.078263074 -0.52175379 -0.25572282
-0.078263074 -0.54784143 -0.25572282
-0.078263268 -0.5739305 -0.25571963
-0.079271793 -0.60775036 -0.23891079
-0.081025369 -0.64820302 -0.2096844
-0.082858294 -0.69048572 -0.17913586
-0.084776051 -0.73472571 -0.14717314
-0.086784691 -0.78106213 -0.11369586
-0.088890821 -0.82964766 -0.078593612
-0.091101721 -0.88064992 -0.041745305
-0.093425676 -0.93425679 -0.0030126572
-0.095871598 -0.99067307 0.037752628
-0.098449036 -1.0501229 0.080709785
-0.051267996 0.56394792 -0.27840742
-0.051267996 0.53831404 -0.27840739
-0.051268123 0.51268119 -0.27840436
-0.051268123 0.48704714 -0.27840436
-0.051268246 0.46141428 -0.27840114
-0.051268246 0.43578011 -0.2784012
-0.051268246 0.41014603 -0.27840117
-0.051268373 0.38451275 -0.2783981
-0.051268373 0.35887855 -0.27839813
-0.051268373 0.33324447 -0.27839807
-0.051268496 0.30761096 -0.27839497
-0.051268496 0.28197673 -0.27839497
-0.051268619 0.25634316 -0.27839175
-0.051268619 0.23070881 -0.27839184
-0.051268619 0.20507456 -0.27839184
-0.051268745 0.17944062 -0.2783888
-0.051268745 0.15380621 -0.27838883
-0.051268745 0.12817189 -0.27838874
-0.051268868 0.10253774 -0.27838567
-0.051268868 0.076903418 -0.27838558
-0.051268868 0.051268846 -0.27838564
-0.051268868 0.025634483 -0.27838561
-0.051268991 1.4901161e-08 -0.27838251
-0.051268991 -0.025634468 -0.27838254
-0.051268991 -0.05126895 -0.27838248
-0.051269118 -0.076903671 -0.27837941
-0.051269118 -0.10253824 -0.27837944
-0.051269118 -0.12817273 -0.27837938
-0.051269241 -0.15380777 -0.27837634
-0.051269241 -0.1794423 -0.27837634
-0.051269241 -0.20507692 -0.27837631
-0.051269241 -0.23071158 -0.27837628
-0.051269367 -0.25634676 -0.27837318
-0.051269367 -0.28198147 -0.27837324
-0.051269367 -0.30761611 -0.27837321
-0.05126949 -0.33325163 -0.27837008
-0.05126949 -0.35888636 -0.27837014
-0.05126949 -0.38452113 -0.27837005
-0.051269613 -0.41015682 -0.27836704
-0.051269613 -0.4357917 -0.27836704
-0.051269613 -0.46142644 -0.27836707
-0.051269613 -0.48706129 -0.27836692
-0.051269736 -0.51269734 -0.27836388
-0.052335963 -0.54952753 -0.25170833
-0.053482231 -0.58830458 -0.22305149
-0.054679833 -0.62881809 -0.19311145
-0.055932306 -0.67118752 -0.16179973
-0.057243496 -0.71554363 -0.12902001
-0.058617637 -0.76202923 -0.094666511
-0.060059369 -0.81080151 -0.058623046
-0.061573815 -0.86203337 -0.020761937
-0.063166805 -0.91591859 0.019062638
-0.064844601 -0.97266895 0.061007619
-0.066613965 -1.0325162 0.10524157
-0.02519666 0.55432653 -0.3002744
-0.02519666 0.52912992 -0.30027446
-0.02519666 0.50393325 -0.30027443
-0.02519672 0.47873762 -0.30027139
-0.02519672 0.45354095 -0.30027139
-0.025196778 0.42834526 -0.30026841
-0.025196778 0.40314841 -0.30026844
-0.025196778 0.37795171 -0.30026838
-0.025196839 0.35275584 -0.3002654
-0.025196839 0.32755893 -0.30026537
-0.025196899 0.3023628 -0.30026239
-0.025196899 0.27716592 -0.30026248
-0.025196899 0.25196904 -0.30026245
-0.02519696 0.22677271 -0.30025941
-0.02519696 0.2015757 -0.30025941
-0.02519696 0.1763787 -0.30025944
-0.025197018 0.15118214 -0.30025637
-0.025197018 0.12598512 -0.30025637
-0.025197018 0.10078811 -0.30025637
-0.025197018 0.075591102 -0.30025637
-0.025197079 0.050394177 -0.30025339
-0.025197079 0.025197089 -0.30025342
-0.025197079 -2.9802322e-08 -0.30025339
-0.025197139 -0.025197133 -0.30025035
-0.025197139 -0.050394252 -0.30025032
-0.025197139 -0.075591385 -0.30025041
-0.0251972 -0.10078876 -0.3002474
-0.0251972 -0.12598598 -0.30024731
-0.0251972 -0.15118316 -0.30024734
-0.0251972 -0.17638032 -0.30024737
-0.025197258 -0.20157796 -0.30024439
-0.025197258 -0.22677523 -0.30024436
-0.025197258 -0.25197256 -0.30024439
-0.02519732 -0.27717045 -0.30024144
-0.02519732 -0.30236784 -0.30024135
-0.02519732 -0.32756513 -0.30024135
-0.025197379 -0.3527633 -0.30023831
-0.025197379 -0.37796062 -0.30023834
-0.025197379 -0.40315804 -0.30023834
-0.025197441 -0.42835641 -0.30023536
-0.025378235 -0.45680821 -0.2911956
-0.025916941 -0.4924219 -0.26426029
-0.026479013 -0.52958018 -0.23615666
-0.027066007 -0.56838608 -0.20680703
-0.027679617 -0.60895139 -0.17612661
-0.028321689 -0.65139878 -0.14402279
-0.028994262 -0.69586217 -0.1103943
-0.029699553 -0.7424888 -0.075129718
-0.030440012 -0.79144031 -0.03810674
-0.031218337 -0.84289503 0.00080955029
-0.032037608 -0.897053 0.041773021
-0.032901138 -0.95413303 0.084949583
-0.033812512 -1.0143752 0.13051814
0 0.52025384 -0.32140779
0 0.49547979 -0.32140777
0 0.47070694 -0.32140487
0 0.44593295 -0.32140487
0 0.42115885 -0.32140481
0 0.39638573 -0.32140201
0 0.37161168 -0.32140198
0 0.34683758 -0.32140195
0 0.32206422 -0.32139903
0 0.29729006 -0.32139906
0 0.27251646 -0.32139614
0 0.24774227 -0.32139617
0 0.22296804 -0.32139617
0 0.19819431 -0.32139325
0 0.17341995 -0.32139328
0 0.14864573 -0.32139325
0 0.12387176 -0.32139033
0 0.099097401 -0.32139036
0 0.074323058 -0.32139033
0 0.0495487 -0.32139036
0 0.024774402 -0.32138744
0 5.9604645e-08 -0.32138741
0 -0.024774373 -0.32138744
0 -0.049548894 -0.32138458
0 -0.074323371 -0.32138452
0 -0.099097811 -0.32138455
0 -0.1238725 -0.32138163
0 -0.14864701 -0.32138157
0 -0.17342158 -0.32138169
0 -0.19819653 -0.32137868
0 -0.22297108 -0.32137877
0 -0.24774574 -0.32137871
0 -0.2725203 -0.32137874
0 -0.29729557 -0.32137576
0 -0.32207009 -0.32137588
0 -0.34684476 -0.32137588
0 -0.37162027 -0.32137296
0 -0.40227276 -0.3030048
0 -0.43640143 -0.27657372
0 -0.47199488 -0.24901053
0 -0.5091517 -0.22023426
0 -0.54797637 -0.1901664
0 -0.58858341 -0.15871809
0 -0.63109869 -0.12579203
0 -0.67565978 -0.091281503
0 -0.72241819 -0.055069327
0 -0.77154028 -0.017026603
0 -0.82321274 0.02299419
0 -0.87763679 0.065146089
0 -0.93504125 0.10960925
0 -0.99567509 0.15657383
0.024365215 0.51166952 -0.34184664
0.024365271 0.48730543 -0.34184387
0.024365271 0.46294013 -0.34184384
0.024365326 0.43857592 -0.34184098
0.024365326 0.41421056 -0.34184107
0.024365326 0.38984522 -0.34184101
0.024365382 0.36548075 -0.34183821
0.024365382 0.34111536 -0.34183827
0.02436544 0.31675068 -0.3418355
0.02436544 0.29238528 -0.34183538
0.02436544 0.26801986 -0.34183541
0.024365496 0.24365497 -0.34183258
0.024365496 0.21928951 -0.34183258
0.024365496 0.19492404 -0.34183255
0.024365552 0.17055885 -0.34182981
0.024365552 0.14619336 -0.34182975
0.024365552 0.12182775 -0.34182978
0.024365608 0.097462445 -0.34182698
0.024365608 0.073096842 -0.34182695
0.024365608 0.048731208 -0.34182703
0.024365608 0.024365604 -0.34182698
0.024365664 8.9406967e-08 -0.34182417
0.024365664 -0.024365589 -0.3418242
0.024365664 -0.048731282 -0.34182423
0.024365719 -0.07309708 -0.3418214
0.024365719 -0.097462855 -0.34182137
0.024365719 -0.12182854 -0.34182134
0.024365775 -0.14619464 -0.34181854
0.024365775 -0.17056039 -0.34181845
0.024365775 -0.19492617 -0.34181857
0.024365775 -0.21929196 -0.34181854
0.024365833 -0.24365826 -0.34181571
0.024365833 -0.26802412 -0.34181577
0.024365833 -0.29238999 -0.34181574
0.024412097 -0.31735727 -0.33950248
0.024910165 -0.34874225 -0.31459913
0.025428977 -0.38143456 -0.28865844
0.025969863 -0.41551781 -0.26161411
0.026534259 -0.45108235 -0.23339438
0.027123732 -0.48822719 -0.20392069
0.027739989 -0.52705967 -0.17310788
0.028384902 -0.567698 -0.14086226
0.029060515 -0.6102708 -0.10708168
0.029769072 -0.65491951 -0.071653783
0.030513046 -0.70180011 -0.034455001
0.031295162 -0.75108373 0.0046505034
0.032118518 -0.8029629 0.045818508
0.032986477 -0.85764837 0.089216501
0.033902537 -0.91536844 0.13501954
0.034871049 -0.97638935 0.1834451
0.035896521 -1.0409992 0.23471877
0.047939524 0.50336504 -0.36161923
0.047939524 0.47939527 -0.36161926
0.047939632 0.45542657 -0.36161649
0.047939632 0.43145669 -0.36161658
0.04793974 0.40748784 -0.36161381
0.04793974 0.38351798 -0.36161378
0.047939852 0.35954887 -0.36161113
0.047939852 0.33557901 -0.36161107
0.047939852 0.31160906 -0.36161113
0.04793996 0.28763971 -0.36160839
0.04793996 0.26366979 -0.36160833
0.04793996 0.23969978 -0.36160836
0.047940068 0.21573031 -0.36160564
0.047940068 0.19176027 -0.36160564
0.047940068 0.16779025 -0.36160561
0.047940176 0.14382055 -0.3616029
0.047940176 0.11985047 -0.36160293
0.047940176 0.095880345 -0.3616029
0.047940176 0.071910307 -0.3616029
0.047940284 0.047940359 -0.36160022
0.047940284 0.023970246 -0.36160019
0.047940284 2.9802322e-08 -0.36160016
0.047940392 -0.023970202 -0.36159748
0.047940392 -0.047940329 -0.36159748
0.047940392 -0.07191053 -0.36159754
0.0479405 -0.09588097 -0.3615948
0.0479405 -0.11985122 -0.36159474
0.0479405 -0.14382149 -0.36159471
0.0479405 -0.16779169 -0.3615948
0.047940612 -0.19176245 -0.36159199
0.047940612 -0.21573274 -0.36159199
0.047940612 -0.239703 -0.36159199
0.048386954 -0.26612818 -0.35043356
0.049365148 -0.29619083 -0.32597873
0.050383706 -0.32749408 -0.30051467
0.05144519 -0.36011627 -0.27397773
0.052552357 -0.39414263 -0.24629846
0.053708229 -0.42966574 -0.21740161
0.054916088 -0.46678668 -0.18720514
0.056179531 -0.50561571 -0.1556191
0.057502471 -0.54627347 -0.12254553
0.058889225 -0.58889222 -0.087876707
0.060344521 -0.6336174 -0.05149436
0.061873563 -0.68060911 -0.013268292
0.063482106 -0.73004413 0.026945263
0.065176718 -0.78212065 0.069310755
0.0669645 -0.83705616 0.11400509
0.068853125 -0.89509064 0.16122076
0.07085114 -0.95649016 0.21117094
0.072968818 -1.0215634 0.26411313
0.070760824 0.47173885 -0.38076022
0.070760988 0.4481529 -0.38075766
0.070760988 0.42456588 -0.38075763
0.070760988 0.40097895 -0.38075766
0.070761144 0.3773928 -0.38075495
0.070761144 0.35380569 -0.38075501
0.070761301 0.33021939 -0.38075238
0.070761301 0.30663234 -0.38075238
0.070761301 0.2830452 -0.38075238
0.070761457 0.25945878 -0.3807497
0.070761457 0.23587155 -0.3807497
0.070761457 0.21228443 -0.3807497
0.070761614 0.18869765 -0.38074708
0.070761614 0.16511053 -0.38074708
0.070761614 0.14152327 -0.38074711
0.070761614 0.11793607 -0.38074708
0.07076177 0.094349116 -0.38074446
0.07076177 0.070761755 -0.38074452
0.07076177 0.047174543 -0.38074449
0.070761926 0.023587286 -0.38074189
0.070761926 4.4703484e-08 -0.38074183
0.070761926 -0.023587286 -0.38074183
0.07076209 -0.047174662 -0.38073921
0.07076209 -0.070762038 -0.38073921
0.07076209 -0.094349444 -0.38073915
0.07076209 -0.1179368 -0.38073921
0.070762247 -0.14152445 -0.38073662
0.070762247 -0.1651119 -0.38073662
0.070762247 -0.18869931 -0.38073656
0.071936205 -0.21580859 -0.36117056
0.073377311 -0.24459101 -0.33715215
0.074877329 -0.2745502 -0.31215182
0.076439962 -0.30575976 -0.28610799
0.078069203 -0.33829984 -0.25895396
0.07976941 -0.37225717 -0.2306172
0.081545316 -0.40772659 -0.20101865
0.083402105 -0.44481122 -0.17007226
0.085345417 -0.48362398 -0.13768367
0.087381452 -0.52428865 -0.10374981
0.089517005 -0.5669409 -0.068157285
0.091759555 -0.6117304 -0.030781358
0.094117351 -0.65882146 0.008515209
0.096599512 -0.70839643 0.049884558
0.099216461 -0.76065934 0.093500227
0.10197947 -0.81583571 0.13955048
0.10490078 -0.87417305 0.18823895
0.10799401 -0.93594813 0.23979294
0.11127561 -1.0014806 0.29448631
0.092864625 0.46432319 -0.39929944
0.092864625 0.44110698 -0.39929947
0.092864834 0.41789177 -0.39929697
0.092864834 0.39467555 -0.39929691
0.092864834 0.37145939 -0.39929697
0.092865035 0.34824398 -0.39929435
0.092865035 0.32502767 -0.39929438
0.092865236 0.30181205 -0.39929187
0.092865236 0.27859578 -0.39929181
0.092865236 0.25537944 -0.39929181
0.092865445 0.23216361 -0.39928931
0.092865445 0.20894738 -0.39928925
0.092865445 0.18573098 -0.39928922
0.092865646 0.16251494 -0.39928675
0.092865646 0.13929847 -0.39928675
0.092865646 0.1160821 -0.39928675
0.092865646 0.092865705 -0.39928672
0.092865855 0.069649413 -0.39928418
0.092865855 0.046432972 -0.39928421
0.092865855 0.02321656 -0.39928418
0.092866056 2.9802322e-08 -0.39928168
0.092866056 -0.023216486 -0.39928168
0.092866056 -0.046433017 -0.39928171
0.092866056 -0.069649503 -0.39928168
0.092866257 -0.092866287 -0.39927912
0.092866257 -0.11608279 -0.39927906
0.093255706 -0.13988355 -0.39441106
0.095071092 -0.16637442 -0.37171867
0.096958578 -0.19391713 -0.34812516
0.098922521 -0.22257562 -0.32357591
0.10096766 -0.25241914 -0.29801163
0.10309915 -0.28352264 -0.271368
0.10532258 -0.31596771 -0.24357507
0.10764403 -0.349843 -0.21455708
0.11007011 -0.38524532 -0.18423098
0.11260808 -0.42228031 -0.15250637
0.11526584 -0.46106339 -0.11928427
0.1180521 -0.50172126 -0.084456101
