# .PCD v0.7 - Point Cloud Data file format
VERSION 0.7
FIELDS x y z
SIZE 4 4 4
TYPE F F F
COUNT 1 1 1
WIDTH 1383
HEIGHT 1
VIEWPOINT 0 0 0 1 0 0 0
POINTS 1383
DATA ascii
-0.49245465 0.62377584 0.081408083
-0.46971393 0.56365669 0.0056056678
-0.44898072 0.50884485 -0.063504934
-0.43000048 0.45866725 -0.1267724
-0.41255987 0.41255993 -0.18490776
-0.39647892 0.37004712 -0.23851091
-0.38160363 0.33072311 -0.28809527
-0.36780503 0.29424408 -0.33409059
-0.3549695 0.26031101 -0.3768757
-0.34299961 0.22866642 -0.41677526
-0.33181068 0.19908644 -0.4540717
-0.32132867 0.17137533 -0.48901182
-0.31443569 0.14673671 -0.5119884
-0.31867063 0.12746827 -0.49787188
-0.3230212 0.10767379 -0.48336995
-0.32749152 0.087331146 -0.4684689
-0.33208802 0.066417634 -0.45314723
-0.33681539 0.044908762 -0.43738943
-0.34167925 0.022778705 -0.42117643
-0.34668568 1.4901161e-08 -0.40448841
-0.35184023 -0.023455977 -0.38730663
-0.35715115 -0.047620147 -0.36960354
-0.36262485 -0.07252489 -0.35135776
-0.36826897 -0.098205015 -0.33254403
-0.37409157 -0.12469721 -0.31313545
-0.38010034 -0.15204012 -0.2931062
-0.38630623 -0.18027619 -0.27241999
-0.39271808 -0.2094496 -0.25104702
-0.39934641 -0.2396078 -0.22895268
-0.40620232 -0.27080154 -0.20609961
-0.41329667 -0.30308419 -0.1824518
-0.42064434 -0.33651543 -0.15795949
-0.428258 -0.37115699 -0.13258062
-0.43615237 -0.40707552 -0.10626611
-0.44434202 -0.4443419 -0.078967392
-0.45284632 -0.48303616 -0.050619513
-0.46168259 -0.52324021 -0.021165326
-0.47087052 -0.56504452 0.0094610751
-0.48043159 -0.60854661 0.041331172
-0.49038744 -0.65384996 0.074517429
-0.50076628 -0.70107269 0.10911351
-0.51159388 -0.75033772 0.14520568
-0.5229001 -0.8017801 0.18289301
-0.53471732 -0.85554773 0.22228378
-0.54707915 -0.9117986 0.26348984
-0.56002808 -0.97071528 0.30665287
-0.57360482 -1.0324886 0.35190862
-0.58785617 -1.0973314 0.39941326
-0.61497289 1.0542393 0.63622427
-0.57756001 0.94884861 0.50260687
-0.54443812 0.85554564 0.38431457
-0.51490927 0.7723639 0.27885431
-0.4884187 0.69774091 0.18424499
-0.46452048 0.63042068 0.098894328
-0.44285184 0.569381 0.02150631
-0.42311469 0.51378214 -0.048983499
-0.40506062 0.46292651 -0.11346221
-0.38848528 0.41623425 -0.17265996
-0.37321314 0.37321311 -0.22720332
-0.35909635 0.33344662 -0.27762043
-0.34600857 0.29657882 -0.32436252
-0.33384123 0.26230389 -0.36781719
-0.32250056 0.23035759 -0.40831965
-0.31190506 0.20051046 -0.44616061
-0.30198303 0.17256173 -0.48159659
-0.29494521 0.14747263 -0.50673151
-0.29893786 0.12811624 -0.49247217
-0.30303943 0.10822839 -0.47782367
-0.30725577 0.08778736 -0.46276534
-0.31159109 0.066769585 -0.44728196
-0.3160505 0.045150116 -0.43135551
-0.32063943 0.022902846 -0.41496652
-0.32536283 -0 -0.39809722
-0.33022824 -0.023587674 -0.38072079
-0.33524138 -0.047891617 -0.36281681
-0.34040904 -0.072944745 -0.3443608
-0.34573853 -0.098782487 -0.32532692
-0.3512367 -0.12544155 -0.30569059
-0.35691342 -0.15296289 -0.28541654
-0.3627767 -0.18138833 -0.2644763
-0.36883578 -0.21076325 -0.24283668
-0.37510076 -0.24113616 -0.22046183
-0.38158122 -0.27255791 -0.19731735
-0.38829055 -0.30508542 -0.17335534
-0.39524007 -0.33877718 -0.14853576
-0.40244284 -0.37369692 -0.12281145
-0.40991306 -0.409913 -0.096132129
-0.41766465 -0.44749784 -0.068447933
-0.42571631 -0.48653293 -0.03969197
-0.43408448 -0.52710259 -0.0098056495
-0.44278821 -0.56929904 0.021279216
-0.45184675 -0.61322057 0.053631127
-0.46128511 -0.65897864 0.08733955
-0.47112623 -0.7066893 0.12248626
-0.48139638 -0.75647992 0.15916532
-0.49212423 -0.80848974 0.19747919
-0.5033412 -0.86287045 0.23753959
-0.51507956 -0.91978478 0.27946237
-0.52738041 -0.97942072 0.32339406
-0.54028308 -1.0419745 0.36947516
-0.57921469 1.0693195 0.66764152
-0.54350424 0.96158451 0.53029364
-0.51194143 0.86636239 0.40889809
-0.48384324 0.78159297 0.30082822
-0.45866746 0.70564222 0.20399815
-0.43598336 0.63720644 0.11675179
-0.41543731 0.57522082 0.037728429
-0.39674062 0.51881468 -0.034181908
-0.37965432 0.46726686 -0.099898443
-0.36397895 0.41997579 -0.16018832
-0.3495467 0.37643495 -0.21569699
-0.33621529 0.33621535 -0.26697159
-0.32386267 0.29895014 -0.31448171
-0.31238627 0.2643269 -0.35862166
-0.30169538 0.23207343 -0.39974052
-0.29171205 0.20195451 -0.43813792
-0.28236824 0.17376508 -0.47407568
-0.27525824 0.14821601 -0.50142169
-0.27900341 0.1287709 -0.48701721
-0.28285134 0.10878895 -0.47221759
-0.28680745 0.088248447 -0.45700175
-0.29087579 0.067125231 -0.44135419
-0.29506123 0.045394033 -0.4252564
-0.29936823 0.023028374 -0.40869105
-0.3038035 -0 -0.39163232
-0.30837217 -0.02372089 -0.37406051
-0.31308034 -0.048166141 -0.35595226
-0.31793451 -0.073369503 -0.33728239
-0.32294154 -0.099366583 -0.31802446
-0.32810804 -0.12619542 -0.29815328
-0.33344337 -0.15389693 -0.27763286
-0.33895507 -0.18251427 -0.25643399
-0.34465206 -0.21209349 -0.23452258
-0.35054287 -0.24268344 -0.21186553
-0.35663956 -0.27433804 -0.18841684
-0.36295202 -0.30711317 -0.16413799
-0.36949196 -0.34106949 -0.13898431
-0.37627196 -0.37627196 -0.1129076
-0.38330433 -0.4127892 -0.085859939
-0.39060569 -0.45069879 -0.057777852
-0.39819062 -0.49008071 -0.028605118
-0.40607587 -0.53102231 0.0017229915
-0.41427982 -0.57361817 0.033276618
-0.42282078 -0.61796886 0.066126436
-0.43172267 -0.66418862 0.10036439
-0.44100744 -0.71239662 0.13607517
-0.45070037 -0.76272357 0.17335552
-0.46082893 -0.81531274 0.21231174
-0.47142163 -0.87031674 0.25305274
-0.48251441 -0.92791212 0.2957173
-0.49414182 -0.98828363 0.3404381
-0.50634348 -1.0516365 0.38736755
-0.54241866 1.0848374 0.6999706
-0.50851983 0.97466302 0.55872524
-0.47861061 0.87745273 0.43410337
-0.45202419 0.79104245 0.3233268
-0.4282361 0.71372688 0.22420979
-0.40682653 0.64414203 0.13500321
-0.38745579 0.58118367 0.054291755
-0.36984584 0.52394831 -0.019082993
-0.35376704 0.47168946 -0.086077943
-0.33902717 0.42378396 -0.14749426
-0.32546723 0.37971187 -0.20399383
-0.31295031 0.33902958 -0.25614768
-0.30136049 0.30136052 -0.30443862
-0.29059845 0.26638186 -0.34928054
-0.28057855 0.23381549 -0.39103001
-0.27122661 0.20342006 -0.42999643
-0.26247799 0.17498536 -0.46644908
-0.25537181 0.14896697 -0.49605805
-0.25886375 0.12943189 -0.48150852
-0.26245299 0.10935542 -0.46655321
-0.2661432 0.088714376 -0.45117736
-0.26993865 0.067484662 -0.43536299
-0.27384391 0.045640677 -0.41909102
-0.27786323 0.023155302 -0.40234387
-0.28200293 1.4901161e-08 -0.38509512
-0.28626785 -0.023855671 -0.36732465
-0.29066372 -0.048443899 -0.3490085
-0.29519671 -0.073799171 -0.33012101
-0.29987264 -0.099957481 -0.31063804
-0.30469981 -0.12695819 -0.29052484
-0.3096849 -0.15484241 -0.26975358
-0.31483585 -0.18365417 -0.24829128
-0.32016107 -0.21344063 -0.2261029
-0.32566866 -0.24425146 -0.20315458
-0.33136994 -0.27614158 -0.1793993
-0.3372744 -0.3091681 -0.15479738
-0.34339309 -0.34339306 -0.12930286
-0.34973788 -0.37888265 -0.10286622
-0.35632053 -0.41570723 -0.075438455
-0.36315677 -0.45394596 -0.046954095
-0.37026048 -0.49368054 -0.017355397
-0.37764764 -0.5350008 0.013424486
-0.3853344 -0.5780015 0.045452625
-0.39334178 -0.62279105 0.078816742
-0.40168902 -0.66948164 0.11359686
-0.41039824 -0.71819687 0.14988527
-0.41949344 -0.76907134 0.18778211
-0.42899948 -0.82224911 0.22739062
-0.43894789 -0.87789583 0.26884225
-0.44936866 -0.93618453 0.312262
-0.46029621 -0.99730825 0.35779342
-0.47177023 -1.061483 0.40560195
-0.50453681 1.1008075 0.7332418
-0.47257257 0.98810625 0.58794957
-0.44441706 0.88883412 0.45997018
-0.41942787 0.800726 0.34638309
-0.39709938 0.72199887 0.24488974
-0.3770268 0.65122819 0.15365085
-0.35888696 0.58726954 0.071197033
-0.3424125 0.52918291 -0.0036869049
-0.32738417 0.47619522 -0.071997479
-0.31361955 0.42766303 -0.13456389
-0.30096567 0.38304719 -0.19208162
-0.28929329 0.34189209 -0.24513781
-0.27849251 0.30381 -0.29423231
-0.26846856 0.26846859 -0.33979565
-0.25914171 0.23558344 -0.38219038
-0.25044119 0.20490645 -0.42173836
-0.24230587 0.1762225 -0.45871693
-0.23528285 0.14972556 -0.49063981
-0.23851669 0.13010003 -0.47594064
-0.24184112 0.10992785 -0.46082941
-0.24525957 0.089185342 -0.44529116
-0.24877603 0.067848012 -0.42930722
-0.2523948 0.045890003 -0.41285825
-0.25611985 0.023283646 -0.39592624
-0.25995708 7.4505806e-08 -0.37848431
-0.26391101 -0.023991898 -0.36051196
-0.26798707 -0.048724934 -0.34198424
-0.27219042 -0.074233636 -0.32287818
-0.27652836 -0.10055572 -0.30316025
-0.28100681 -0.12773028 -0.28280365
-0.28563273 -0.15579964 -0.2617768
-0.29041347 -0.18480857 -0.24004613
-0.29535624 -0.2148045 -0.21757907
-0.30047092 -0.24583986 -0.19433039
-0.3057659 -0.27796903 -0.17026237
-0.31125084 -0.31125075 -0.14533088
-0.31693614 -0.34574842 -0.11948857
-0.32283211 -0.38152879 -0.092688739
-0.32895252 -0.41866678 -0.064868569
-0.33530951 -0.4572401 -0.035973266
-0.34191701 -0.49733382 -0.0059391111
-0.34879017 -0.53903937 0.025302619
-0.35594425 -0.58245409 0.057821065
-0.36339906 -0.62768924 0.091706604
-0.37117285 -0.67485964 0.12704185
-0.37928647 -0.72409236 0.1639221
-0.38776276 -0.77552551 0.20245066
-0.39662522 -0.82930714 0.24273437
-0.40590364 -0.8856079 0.28490916
-0.41562656 -0.94460571 0.32910427
-0.42582828 -1.0065033 0.37547591
-0.43654183 -1.0715116 0.42417368
-0.43561977 1.0019255 0.61799139
-0.40932325 0.90051115 0.48650891
-0.38602221 0.81064671 0.37000379
-0.36523119 0.73046243 0.26604852
-0.34656528 0.65847409 0.17271903
-0.32971451 0.59348619 0.088465244
-0.31442642 0.53452498 0.01202476
-0.30049324 0.48078927 -0.057641134
-0.28774253 0.4316138 -0.12139483
-0.27602911 0.38644069 -0.17996183
-0.26523274 0.34480259 -0.23394372
-0.25524911 0.30629897 -0.28386182
-0.24598981 0.27058885 -0.33015832
-0.23737878 0.23737879 -0.37321347
-0.22935022 0.20641522 -0.41335624
-0.22184698 0.17747761 -0.45087242
-0.21498783 0.15049154 -0.48516828
-0.21795847 0.13077514 -0.47031498
-0.22101237 0.11050627 -0.45504552
-0.22415304 0.089661285 -0.43934211
-0.2273843 0.068215385 -0.42318583
-0.23070955 0.046141952 -0.40655959
-0.23413403 0.02341342 -0.38943717
-0.23766172 1.4901161e-08 -0.37179881
-0.24129732 -0.024129689 -0.35362083
-0.24504586 -0.049009115 -0.33487803
-0.24891214 -0.074673556 -0.31554666
-0.25290298 -0.10116109 -0.29559243
-0.25702387 -0.12851192 -0.27498794
-0.26128128 -0.15676869 -0.25370085
-0.26568145 -0.18597689 -0.23170003
-0.27023306 -0.21618645 -0.20894206
-0.27494335 -0.24744892 -0.18539071
-0.27982071 -0.27982059 -0.16100377
-0.28487429 -0.31336167 -0.135736
-0.29011372 -0.34813643 -0.10953872
-0.29554871 -0.38421324 -0.082363874
-0.30119205 -0.42166889 -0.05414708
-0.30705512 -0.46058258 -0.024831831
-0.31315094 -0.50104141 0.005647406
-0.31949279 -0.54313767 0.037356541
-0.32609779 -0.58697593 0.070381582
-0.33298165 -0.6326651 0.10480094
-0.34016243 -0.68032479 0.14070472
-0.34765974 -0.73008537 0.17819127
-0.35549375 -0.78208625 0.21736145
-0.36369026 -0.83648753 0.25834388
-0.37227362 -0.89345664 0.30126086
-0.38127193 -0.9531799 0.3462525
-0.39071751 -1.0158653 0.39348006
-0.40064138 -1.0817318 0.44309983
-0.39761704 1.0161325 0.64887625
-0.37329653 0.91250277 0.51376247
-0.3517797 0.82081926 0.39422429
-0.33260813 0.73912925 0.28771561
-0.31541824 0.66588289 0.19221613
-0.29991689 0.59983385 0.10609767
-0.28586867 0.53997421 0.028051913
-0.27307761 0.48547137 -0.043009505
-0.26138219 0.43563712 -0.10798401
-0.2506474 0.38989598 -0.16762175
-0.24075958 0.34776384 -0.22255406
-0.23162231 0.30882972 -0.27331686
-0.22315319 0.27274287 -0.32036734
-0.21528108 0.23920128 -0.36410126
-0.20794593 0.207946 -0.40485218
-0.20109415 0.17875041 -0.4429177
-0.19467948 0.15141743 -0.47855461
-0.1971858 0.13145725 -0.46463072
-0.19996326 0.11109073 -0.44920039
-0.20282008 0.09014228 -0.43332916
-0.20575927 0.068586394 -0.41700035
-0.20878536 0.046396762 -0.40018874
-0.21190175 0.023544699 -0.38287526
-0.21511264 7.4505806e-08 -0.3650372
-0.21842229 -0.024269104 -0.34665012
-0.2218349 -0.049296603 -0.32769123
-0.22535634 -0.075118698 -0.30812764
-0.22899139 -0.10177388 -0.28793296
-0.23274565 -0.1293031 -0.26707602
-0.23662503 -0.15774998 -0.24552384
-0.24063532 -0.18716075 -0.22324437
-0.24478453 -0.21758619 -0.2001932
-0.24907936 -0.24907927 -0.17633319
-0.25352755 -0.28169724 -0.15162094
-0.25813752 -0.31550145 -0.12600994
-0.26291752 -0.35055661 -0.099454507
-0.26787865 -0.38693571 -0.071892738
-0.27303058 -0.42471418 -0.043270737
-0.2783846 -0.46397424 -0.013526425
-0.28395277 -0.50480491 0.017407954
-0.28974736 -0.54730052 0.049600095
-0.29578429 -0.59156847 0.083138645
-0.30207813 -0.63772053 0.11810452
-0.30864564 -0.68587911 0.15459064
-0.31550506 -0.73617858 0.19269863
-0.32267523 -0.78876173 0.23253286
-0.33018002 -0.84379327 0.27422607
-0.33804223 -0.90144587 0.31790501
-0.34628922 -0.96191442 0.36372158
-0.35494736 -1.0254033 0.41182241
-0.36404955 -1.0921487 0.46239024
-0.35852262 1.0307525 0.680659
-0.33629739 0.92481792 0.54175144
-0.31666568 0.83124745 0.41905308
-0.29920062 0.74800152 0.30989647
-0.28356138 0.67345834 0.21215124
-0.26947582 0.60632062 0.12411661
-0.25672343 0.54553735 0.044414222
-0.24512349 0.49024701 -0.028085575
-0.23452649 0.4397372 -0.094316855
-0.22480714 0.39341253 -0.15506269
-0.2158619 0.35077557 -0.21097057
-0.20760128 0.31140199 -0.26259926
-0.19994959 0.27493069 -0.31042236
-0.19284192 0.24105242 -0.35484532
-0.1862222 0.2095 -0.39621857
-0.18004188 0.18004189 -0.43484563
-0.1742586 0.15247628 -0.47099113
-0.17619528 0.13214649 -0.4588868
-0.17869027 0.11168149 -0.44329309
-0.18125695 0.090628535 -0.4272514
-0.18389803 0.068961799 -0.4107447
-0.18661763 0.046654388 -0.39374721
-0.18941887 0.023677424 -0.37623945
-0.19230548 7.4505806e-08 -0.35819811
-0.19528143 -0.024410158 -0.33959839
-0.19835047 -0.049587578 -0.32041681
-0.20151801 -0.07556925 -0.30061975
-0.20478837 -0.10239415 -0.28018007
-0.20816661 -0.13010411 -0.25906608
-0.21165764 -0.15874317 -0.23724702
-0.21526831 -0.18835978 -0.21468039
-0.2190043 -0.21900427 -0.19133036
-0.2228723 -0.25073129 -0.16715553
-0.22687934 -0.28359914 -0.14211138
-0.23103251 -0.3176696 -0.11615422
-0.23534119 -0.35301173 -0.089224935
-0.23981366 -0.38969716 -0.06127207
-0.24445939 -0.42780393 -0.032236204
-0.24928868 -0.46741629 -0.0020531416
-0.25431186 -0.50862366 0.029341742
-0.25954244 -0.55152762 0.062032834
-0.26499268 -0.59623349 0.096096918
-0.27067676 -0.64285719 0.13162233
-0.27660999 -0.69152498 0.1687052
-0.28280827 -0.74237162 0.2074443
-0.28929165 -0.7955519 0.24796543
-0.29607928 -0.85122788 0.29038811
-0.30319306 -0.90957916 0.33484936
-0.31065828 -0.97080714 0.38150701
-0.31849918 -1.0351222 0.43051234
-0.31828544 1.045795 0.71335995
-0.29828471 0.93746626 0.57049775
-0.28064901 0.84194684 0.44452828
-0.26498228 0.75709224 0.33262309
-0.25097218 0.68121016 0.23255102
-0.23836918 0.61294937 0.14252968
-0.22697073 0.55121469 0.061112091
-0.21661328 0.49511608 -0.012869716
-0.20715986 0.44391397 -0.080394164
-0.19849706 0.39699417 -0.14227125
-0.19052967 0.35384092 -0.19918105
-0.18317722 0.31401819 -0.25169852
-0.17637114 0.27715471 -0.30031341
-0.17005272 0.24293244 -0.34544522
-0.16417097 0.21107697 -0.38745761
-0.15868284 0.18135187 -0.42665851
-0.15354976 0.15354981 -0.46332332
-0.15498351 0.13284305 -0.45308226
-0.15718986 0.11227846 -0.43732265
-0.15945961 0.091119826 -0.42111009
-0.16179621 0.069341242 -0.40442014
-0.1642023 0.046914995 -0.3872337
-0.16668105 0.023811623 -0.36952835
-0.16923578 1.4901161e-08 -0.35128033
-0.17186964 -0.024552822 -0.33246702
-0.17458719 -0.04988201 -0.31305599
-0.17739207 -0.076025166 -0.29302114
-0.18028854 -0.10302205 -0.27233216
-0.18328115 -0.130915 -0.25095627
-0.18637434 -0.15974942 -0.22886208
-0.1895742 -0.18957417 -0.20600596
-0.19288586 -0.22044086 -0.1823512
-0.19631529 -0.25240532 -0.15785542
-0.19986884 -0.28552693 -0.13247266
-0.20355289 -0.31986874 -0.10615815
-0.20737587 -0.3555015 -0.078851119
-0.21134521 -0.39249814 -0.050498843
-0.21546945 -0.43093881 -0.021039948
-0.2197572 -0.47090822 0.0095869452
-0.22421977 -0.51250219 0.041462213
-0.22886731 -0.55582047 0.074659035
-0.23371159 -0.60097265 0.10926118
-0.23876539 -0.64807743 0.14535971
-0.24404258 -0.69726455 0.18305396
-0.24955748 -0.74867237 0.22244616
-0.25532827 -0.80246031 0.26366609
-0.26137227 -0.85879445 0.30683747
-0.26771033 -0.91786385 0.35210928
-0.27436242 -0.97986561 0.39962402
-0.28135347 -1.045027 0.44956017
-0.27685764 1.0612876 0.74703968
-0.25921887 0.95046932 0.60005003
-0.24369304 0.8529259 0.4706682
-0.22992112 0.76640379 0.35590196
-0.21762326 0.68914032 0.25341979
-0.20657419 0.6197226 0.16134417
-0.19659285 0.55701315 0.078166306
-0.18753162 0.50008434 0.0026560575
-0.17926887 0.44817227 -0.066200152
-0.1717035 0.40064153 -0.12924474
-0.16475083 0.35696012 -0.18718374
-0.15833892 0.31667784 -0.24061641
-0.15240777 0.27941427 -0.29004273
-0.14690489 0.24484152 -0.33589992
-0.14178556 0.21267839 -0.37856102
-0.13701101 0.18268144 -0.41834891
-0.13254756 0.1546388 -0.45554447
-0.13354692 0.13354698 -0.44721636
-0.13545802 0.11288175 -0.43129045
-0.13742493 0.09161666 -0.41489953
-0.13944981 0.069724932 -0.39802569
-0.14153524 0.047178447 -0.38064706
-0.14368398 0.023947388 -0.36274081
-0.14589898 5.9604645e-08 -0.34428251
-0.148183 -0.024697155 -0.32524902
-0.15054002 -0.050179943 -0.30560714
-0.15297323 -0.076486513 -0.28533041
-0.1554864 -0.10365758 -0.26438737
-0.15808311 -0.13173595 -0.24274798
-0.16076846 -0.16076839 -0.22037019
-0.16354661 -0.19080435 -0.19721895
-0.16642247 -0.22189656 -0.17325351
-0.16940127 -0.25410184 -0.14843008
-0.17248818 -0.28748026 -0.12270593
-0.17569016 -0.32209861 -0.096022628
-0.17901328 -0.35802656 -0.068329975
-0.18246454 -0.39533979 -0.039569497
-0.18605149 -0.43412006 -0.0096782595
-0.18978171 -0.47445422 0.021406919
-0.19366518 -0.51644045 0.053769127
-0.1977109 -0.56018084 0.087483361
-0.20192924 -0.60578769 0.12263641
-0.20633152 -0.65338314 0.15932196
-0.21092933 -0.70309776 0.19763713
-0.21573746 -0.755081 0.23770477
-0.2207699 -0.80948943 0.27964169
-0.22604352 -0.86650014 0.32358867
-0.23157443 -0.92629766 0.36967954
-0.23738277 -0.98909491 0.41808248
-0.24349 -1.0551232 0.46897587
-0.23418397 1.0772462 0.78173226
-0.21905319 0.96383417 0.63042462
-0.20575978 0.86419106 0.49749044
-0.1939875 0.77594995 0.37976766
-0.1834894 0.69725966 0.27478659
-0.17406921 0.62664926 0.18058482
-0.16556905 0.56293476 0.095583141
-0.15785992 0.50515181 0.018491894
-0.15083718 0.45251161 -0.051735535
-0.14441268 0.40435556 -0.11598054
-0.13851307 0.36013401 -0.17497665
-0.13307659 0.31938383 -0.22934157
-0.12805073 0.28171158 -0.27960008
-0.12339068 0.24678136 -0.3262006
-0.11905789 0.21430427 -0.36952841
-0.11501882 0.18403015 -0.40991908
-0.11124505 0.15574315 -0.44765687
-0.11188194 0.13425836 -0.44128788
-0.11349168 0.1134917 -0.42519054
-0.11514865 0.092118964 -0.40862077
-0.11685474 0.07011281 -0.39156002
-0.11861214 0.047444925 -0.37398598
-0.12042319 0.024084672 -0.35587543
-0.12229014 5.9604645e-08 -0.33720595
-0.12421617 -0.024843231 -0.31794563
-0.12620385 -0.050481521 -0.29806891
-0.12825617 -0.076953687 -0.27754569
-0.13037634 -0.10430104 -0.25634402
-0.13256745 -0.13256742 -0.23443283
-0.13483383 -0.16180059 -0.21176918
-0.13717903 -0.19205056 -0.18831716
-0.13960725 -0.2233716 -0.16403478
-0.142123 -0.25582141 -0.13887726
-0.14473069 -0.28946131 -0.1128005
-0.14743625 -0.32435977 -0.085744761
-0.15024491 -0.36058772 -0.057658225
-0.15316264 -0.39822286 -0.028480843
-0.15619551 -0.43734732 0.001847595
-0.15935138 -0.47805411 0.033406392
-0.1626374 -0.52043962 0.066266596
-0.16606179 -0.56461 0.10051058
-0.16963351 -0.61068058 0.13622765
-0.17336166 -0.6587742 0.17350917
-0.17725796 -0.70903188 0.21247229
-0.18133344 -0.76160032 0.253227
-0.18560137 -0.81664598 0.29590631
-0.19007437 -0.87434202 0.34063631
-0.19476829 -0.93488783 0.38757563
-0.19969994 -0.99849969 0.43689194
-0.20488779 -1.0654163 0.48877043
-0.19020645 1.0936872 0.81747329
-0.17774259 0.97758424 0.66167492
-0.16681172 0.87576151 0.52503914
-0.15714684 0.78573436 0.40422827
-0.14854109 0.70557016 0.29665625
-0.14082895 0.63373029 0.20025451
-0.13387811 0.56898201 0.11336897
-0.12758112 0.51032454 0.034656689
-0.12184989 0.45693713 -0.036983609
-0.11661145 0.40814012 -0.10246418
-0.11180484 0.36336577 -0.16254681
-0.1073788 0.32213652 -0.21787228
-0.10328959 0.28404647 -0.26898739
-0.099500649 0.24875173 -0.31634924
-0.09597984 0.21595466 -0.36035934
-0.092699684 0.18539941 -0.40136135
-0.089636318 0.15686353 -0.4396534
-0.089984722 0.13497716 -0.43529832
-0.091286629 0.11410831 -0.41902447
-0.092626765 0.09262675 -0.40227285
-0.094006829 0.070505187 -0.38502195
-0.095428638 0.047714308 -0.36724931
-0.096893899 0.024223566 -0.34893355
-0.098405093 -2.9802322e-08 -0.33004376
-0.099964164 -0.024991035 -0.31055534
-0.10157344 -0.050786681 -0.29043949
-0.10323536 -0.077426471 -0.26966527
-0.10495233 -0.10495224 -0.24820332
-0.10672763 -0.1334095 -0.22601201
-0.10856403 -0.162846 -0.20305707
-0.11046474 -0.19331329 -0.17929819
-0.11243317 -0.22486633 -0.15469272
-0.11447272 -0.25756359 -0.12919825
-0.11658797 -0.29146996 -0.10275768
-0.11878286 -0.32665274 -0.075321674
-0.12106197 -0.36318588 -0.046832785
-0.12343024 -0.40114826 -0.017229214
-0.12589267 -0.44062433 0.013551012
-0.12845573 -0.48170894 0.045589224
-0.13112532 -0.5245012 0.078959078
-0.13390821 -0.56910986 0.11374532
-0.13681181 -0.61565304 0.15004013
-0.13984364 -0.66425723 0.18793812
-0.14301339 -0.71506673 0.22755983
-0.14633015 -0.7682333 0.26901954
-0.14980493 -0.82392716 0.31245434
-0.15344822 -0.8823272 0.35799536
-0.15727313 -0.94363868 0.40580666
-0.1612936 -1.008085 0.45606259
-0.16552499 -1.0759125 0.50895512
-0.13523622 0.99173242 0.69382983
-0.12680607 0.8876425 0.55332708
-0.11936569 0.79577118 0.42932075
-0.11275005 0.71408379 0.3190603
-0.10682924 0.64097536 0.22037986
-0.10149924 0.57516229 0.13154648
-0.096675806 0.51560438 0.051156089
-0.092289746 0.46144876 -0.02194491
-0.088284642 0.41199505 -0.088696629
-0.084612705 0.36665505 -0.14989564
-0.081234016 0.32493603 -0.20620723
-0.078114793 0.286421 -0.25819412
-0.075226255 0.25075418 -0.30633646
-0.072543725 0.21763116 -0.35104531
-0.070045926 0.18678921 -0.39267528
-0.067714259 0.15799996 -0.43153629
-0.067851931 0.13570389 -0.42924187
-0.068838984 0.11473162 -0.41279101
-0.069855176 0.093140289 -0.39585441
-0.070901819 0.070901871 -0.3784104
-0.071980305 0.04798688 -0.36043561
-0.073091939 0.024364039 -0.34190843
-0.074238613 7.4505806e-08 -0.32279712
-0.075421847 -0.025140643 -0.30307657
-0.076643407 -0.051095605 -0.28271717
-0.077904999 -0.077904962 -0.26169068
-0.079209015 -0.10561199 -0.23995712
-0.080557428 -0.13426235 -0.21748357
-0.08195255 -0.16390504 -0.19423158
-0.083396837 -0.19459262 -0.17015992
-0.084892951 -0.22638114 -0.14522485
-0.086443491 -0.25933039 -0.1193825
-0.08805196 -0.29350647 -0.092574589
-0.089721434 -0.3289786 -0.06475015
-0.091455437 -0.36582172 -0.035850137
-0.093257502 -0.40411586 -0.0058156997
-0.095132299 -0.44395065 0.025431037
-0.097084023 -0.48542005 0.057959795
-0.09911751 -0.52862668 0.091851234
-0.101238 -0.57368195 0.12719278
-0.10345087 -0.62070525 0.16407394
-0.10576301 -0.66983229 0.20260933
-0.10818084 -0.72120559 0.24290673
-0.1107122 -0.77498531 0.2850959
-0.11336445 -0.83133924 0.32930025
-0.11614691 -0.89045966 0.37567449
-0.11906938 -0.95255506 0.42438236
-0.12214272 -1.0178559 0.47560462
-0.12537892 -1.0866172 0.52954137
-0.09148106 1.0062916 0.726919
-0.085700363 0.89985383 0.58240175
-0.080606811 0.80606812 0.4550629
-0.076084755 0.72280526 0.34201163
-0.072042882 0.648386 0.24096476
-0.068409003 0.58147645 0.15011759
-0.065124109 0.52099288 0.06799531
-0.06214023 0.46605179 -0.0066015422
-0.059417803 0.4159247 -0.074662119
-0.056923915 0.37000543 -0.1370095
-0.054630935 0.32778564 -0.19433391
-0.052515533 0.28883544 -0.24721897
-0.050557733 0.25278863 -0.2961641
-0.048740767 0.21933347 -0.3415882
-0.047049869 0.18819955 -0.38386053
-0.045472357 0.15915333 -0.42329836
-0.045479503 0.13643852 -0.42311984
-0.046144731 0.11536184 -0.40648901
-0.046829712 0.093659416 -0.38936454
-0.047535334 0.071302995 -0.37172398
-0.048262436 0.048262462 -0.35354644
-0.04901224 0.024506167 -0.33480129
-0.049785711 2.9802322e-08 -0.31546453
-0.050583985 -0.02529195 -0.29550773
-0.051408276 -0.051408216 -0.27490047
-0.052259751 -0.0783896 -0.25361359
-0.053140033 -0.10628002 -0.23160657
-0.054050483 -0.13512614 -0.2088453
-0.054992668 -0.16497792 -0.18529059
-0.055968292 -0.19588897 -0.16089998
-0.056979001 -0.22791591 -0.13563231
-0.058027044 -0.26112163 -0.10943114
-0.059114367 -0.29557177 -0.082248189
-0.060243215 -0.33133769 -0.054026887
-0.061416015 -0.368496 -0.024706915
-0.062635198 -0.40712881 0.0057727545
-0.063903965 -0.44732776 0.037491843
-0.065225191 -0.48918885 0.070522457
-0.066602208 -0.5328176 0.10494784
-0.068038397 -0.57832634 0.14085256
-0.069538124 -0.62584305 0.17834572
-0.07110545 -0.6755017 0.21752886
-0.072745062 -0.72745061 0.25851911
-0.074462332 -0.78185451 0.30145103
-0.07626237 -0.83888608 0.346452
-0.078151591 -0.89874321 0.39368236
-0.080136791 -0.96164137 0.44331235
-0.082225472 -1.0278184 0.49552941
-0.084425949 -1.0975372 0.55054128
-0.046422239 1.0212891 0.76100457
-0.043447897 0.91240585 0.61228746
-0.040831584 0.81663185 0.48147207
-0.038512617 0.73173964 0.36552328
-0.036442891 0.65597206 0.26203722
-0.034584284 0.58793283 0.16910684
-0.032906055 0.52649689 0.085195377
-0.031383164 0.47074753 0.0090509206
-0.029994912 0.41992873 -0.060361803
-0.028724356 0.37341666 -0.1238896
-0.027557062 0.33068472 -0.18225424
-0.026480937 0.29129031 -0.23606046
-0.025485702 0.25485703 -0.28582227
-0.024562564 0.22106302 -0.33197922
-0.023703963 0.18963173 -0.37490913
-0.022903362 0.16032355 -0.41493928
-0.022863524 0.13718118 -0.41693109
-0.023199799 0.11599906 -0.40011749
-0.023546109 0.094184503 -0.38280189
-0.023902917 0.071708769 -0.36496145
-0.02427065 0.048541367 -0.34657484
-0.024649931 0.024650022 -0.32761079
-0.025041254 4.4703484e-08 -0.30804455
-0.025445204 -0.025445148 -0.28784716
-0.025862334 -0.051724598 -0.26699054
-0.026293436 -0.07888025 -0.24543557
-0.026739154 -0.10695661 -0.22314969
-0.027200243 -0.13600118 -0.20009516
-0.027677514 -0.16606499 -0.1762317
-0.028171757 -0.1972023 -0.1515196
-0.028684048 -0.2294724 -0.12590489
-0.029215319 -0.26293778 -0.099341363
-0.029766642 -0.29766643 -0.071775332
-0.030339168 -0.33373088 -0.04314892
-0.030934066 -0.37120879 -0.013404086
-0.031552851 -0.41018707 0.01753518
-0.032196894 -0.45075652 0.049737439
-0.032867782 -0.49301672 0.08328177
-0.03356722 -0.53707546 0.11825369
-0.034296967 -0.58304834 0.15474091
-0.035059262 -0.63106656 0.19285555
-0.03585621 -0.68126792 0.23270316
-0.036690362 -0.73380721 0.27441087
-0.037564117 -0.78884643 0.31809849
-0.038480502 -0.84657109 0.36391777
-0.039442718 -0.9071824 0.41202855
-0.040454287 -0.97090292 0.46260709
-0.041519109 -1.0379778 0.51584816
0 1.0367362 0.79611117
0 0.92530924 0.64300978
0 0.82747918 0.50859058
0 0.74090058 0.38963094
0 0.66373551 0.28360236
0 0.59453213 0.18851665
0 0.53211677 0.1027576
0 0.47553742 0.025017276
0 0.42401201 -0.0457789
0 0.37689239 -0.11052151
0 0.33363655 -0.16995522
0 0.29378808 -0.22470722
0 0.25695896 -0.27531293
0 0.22281972 -0.32222027
0 0.19108552 -0.36582315
0 0.16151081 -0.4064588
0 0.13793194 -0.41067469
0 0.11664321 -0.39367515
0 0.094715387 -0.37616521
0 0.072119012 -0.35812432
0 0.048823431 -0.33952224
0 0.024795443 -0.32033539
0 4.4703484e-08 -0.30053571
0 -0.02560024 -0.28009331
0 -0.052045055 -0.25897956
0 -0.07937713 -0.23715435
0 -0.10764176 -0.21458448
0 -0.13688758 -0.191231
0 -0.16716653 -0.16705272
0 -0.19853374 -0.14200872
0 -0.23105019 -0.11604378
0 -0.26477939 -0.089110278
0 -0.29979083 -0.061153017
0 -0.33615786 -0.03211689
0 -0.37396282 -0.0019290447
0 -0.41329151 0.029475674
0 -0.45423818 0.062172264
0 -0.49690488 0.096242249
0 -0.54140198 0.13177399
0 -0.58784813 0.1688579
0 -0.63637823 0.20760983
0 -0.68713582 0.24814488
0 -0.7402733 0.29057601
0 -0.79596448 0.33504641
0 -0.85439819 0.38170671
0 -0.91578162 0.43072242
0 -0.98034418 0.4822768
0 -1.0483397 0.53657234
0.047848281 1.0526623 0.83230674
0.044694599 0.93858647 0.6746226
0.041930933 0.83861864 0.5364393
0.039488994 0.75029093 0.41434228
0.037315957 0.6716873 0.30569053
0.035369605 0.60128337 0.208373
0.03361623 0.53785968 0.12070407
0.032028481 0.48042727 0.041316703
0.030583952 0.42817533 -0.030909821
0.02926402 0.38043222 -0.096906424
0.028053377 0.33664057 -0.15743843
0.026938926 0.29632819 -0.21316108
0.025909634 0.25909641 -0.26462564
0.024956103 0.22460499 -0.31230211
0.024070267 0.19256219 -0.35659394
0.023245161 0.16271617 -0.39784926
0.023115158 0.13869105 -0.40434936
0.02345893 0.1172947 -0.38716078
0.023813082 0.09525238 -0.36945325
0.024178034 0.072534099 -0.35120568
0.024554403 0.049108833 -0.33238721
0.024942676 0.024942696 -0.3129735
0.025343426 5.9604645e-08 -0.29293609
0.025757199 -0.025757194 -0.27224743
0.026184775 -0.05236952 -0.25086868
0.026626784 -0.079880312 -0.22876818
0.027083972 -0.10833585 -0.20590882
0.027557136 -0.13778558 -0.18225062
0.028047049 -0.16828229 -0.15775485
0.028554779 -0.19988337 -0.13236856
0.029081225 -0.23264976 -0.10604601
0.02962745 -0.26664701 -0.07873489
0.030194586 -0.30194584 -0.050378039
0.030783769 -0.33862144 -0.020918906
0.031396497 -0.37675798 0.0097175092
0.03203411 -0.41644338 0.041598216
0.032698158 -0.45777422 0.074800685
0.033390325 -0.50085479 0.10940883
0.034112312 -0.54579693 0.14550835
0.034866333 -0.59272754 0.18320926
0.035654556 -0.64178205 0.22262059
0.036479123 -0.69310319 0.26384866
0.037342723 -0.74685454 0.30702889
0.038248207 -0.80321234 0.35230309
0.039198697 -0.86237133 0.39982751
0.040197633 -0.92454541 0.44977418
0.04124881 -0.98997128 0.50233299
0.042356443 -1.0589108 0.55771464
0.097189561 1.0690851 0.86963159
0.090690151 0.95224661 0.70714641
0.085005872 0.85005873 0.56503946
0.079992123 0.75992525 0.43969578
0.075536869 0.67983186 0.32831442
0.07155171 0.60818958 0.22868541
0.067965761 0.54372609 0.13903669
0.064722292 0.48541719 0.057949886
0.061774287 0.43242007 -0.015750125
0.059083138 0.38404039 -0.083028942
0.056616679 0.3397001 -0.14469042
0.054347888 0.29891336 -0.20141011
0.052253935 0.26126972 -0.25375903
0.050315343 0.22641905 -0.30222374
0.048515342 0.19406135 -0.34722388
0.046839777 0.16393928 -0.38911283
0.046486132 0.13945845 -0.39795405
0.04718136 0.11795345 -0.38057339
0.047897592 0.095795199 -0.36266756
0.048636016 0.072954059 -0.34420693
0.049397565 0.049397618 -0.32516819
0.050183345 0.025091678 -0.30552375
0.050994523 7.4505806e-08 -0.28524429
0.051832233 -0.025916055 -0.26430154
0.052698053 -0.052698061 -0.24265605
0.053593293 -0.080389887 -0.22027504
0.054519475 -0.10903891 -0.19712049
0.055478085 -0.13869514 -0.17315516
0.056471165 -0.16941346 -0.14832829
0.057500441 -0.20125146 -0.12259634
0.058567934 -0.23427173 -0.095908917
0.059675813 -0.26854116 -0.068211958
0.060826238 -0.30413109 -0.03945145
0.062022075 -0.34112132 -0.0095554888
0.063265875 -0.37959522 0.021539554
0.064560585 -0.41964382 0.053907156
0.065909386 -0.4613657 0.087627217
0.067315534 -0.50486648 0.12278105
0.068783216 -0.55026567 0.15947309
0.070316322 -0.59768867 0.19780082
0.071919575 -0.64727622 0.23788224
0.073597394 -0.69917512 0.27982751
0.075355366 -0.75355357 0.32377678
0.07719937 -0.81059337 0.36987692
0.079135887 -0.87049472 0.41828975
0.081172064 -0.93347859 0.46919408
0.083315782 -0.99978918 0.52278697
0.085576147 -1.0697019 0.57929635
0.14809413 1.0860238 0.90812826
0.13804489 0.96631426 0.74064088
0.12927282 0.86181873 0.59443951
0.1215485 0.76980728 0.46570116
0.11469565 0.68817389 0.35148668
0.10857427 0.61525422 0.24946383
0.10307319 0.54972374 0.15777928
0.098102681 0.49051347 0.074937329
0.093589492 0.43675101 -0.00028251112
0.089473307 0.38771772 -0.068885654
0.085703701 0.3428148 -0.13171241
0.082239099 0.30154335 -0.18945582
0.079043731 0.26347917 -0.24271184
0.076087385 0.22826222 -0.29198426
0.073344208 0.19558457 -0.33770388
0.070791945 0.16518117 -0.38024157
0.070117183 0.14023443 -0.39148766
0.071171597 0.11861938 -0.37391412
0.072258361 0.096344531 -0.35580128
0.073378839 0.073378846 -0.33712673
0.07453461 0.049689829 -0.31786388
0.075727373 0.025242478 -0.29798451
0.076958738 -0 -0.27746165
0.078231014 -0.026076905 -0.25625706
0.079546057 -0.053030603 -0.23433965
0.080906071 -0.080906056 -0.21167284
0.082313396 -0.10975115 -0.18821742
0.083770335 -0.1396171 -0.16393523
0.085279994 -0.1705599 -0.13877417
0.08684507 -0.20263852 -0.11268952
0.088468671 -0.23591642 -0.085629523
0.090154126 -0.27046233 -0.057538606
0.091904789 -0.30634925 -0.028360963
0.093725055 -0.34365851 0.001976952
0.095618896 -0.38247555 0.033540875
0.097590849 -0.42289358 0.066406757
0.099645846 -0.46501392 0.10065667
0.10178892 -0.50894457 0.13637464
0.10402656 -0.55480814 0.17366843
0.10636512 -0.6027357 0.21264477
0.10881088 -0.65286529 0.25340745
0.11137177 -0.70535451 0.29608884
0.11405611 -0.76037395 0.34082773
0.11687304 -0.81811124 0.3877767
0.11983263 -0.87877262 0.43710327
0.12294602 -0.94258612 0.48899296
0.12622599 -1.0098079 0.54365933
0.12968525 -1.0807104 0.60131353
0.20063868 1.1035128 0.94787616
0.18681978 0.98080385 0.77513981
0.17478102 0.87390512 0.62465543
0.16420054 0.77995265 0.49239948
0.15482794 0.69672579 0.37524199
0.14646755 0.62248713 0.27073699
0.13896377 0.55585515 0.17693992
0.13219099 0.49571621 0.092279926
0.12604807 0.44116825 0.015493527
0.12045073 0.39146495 -0.054473177
0.11532936 0.34598815 -0.11849029
0.11062575 0.30422086 -0.17728552
0.10629076 0.26572692 -0.23147289
0.1022827 0.23013608 -0.28157365
0.098565936 0.1971319 -0.32803321
0.095109597 0.1664418 -0.3712374
0.094012685 0.14101909 -0.38494876
0.095434465 0.11929312 -0.36717659
0.09690012 0.096900105 -0.34885585
0.0984115 0.07380867 -0.32996356
0.099970788 0.049985453 -0.31047255
0.10158002 0.025395051 -0.29035714
0.10324217 4.4703484e-08 -0.26958025
0.10495962 -0.026239872 -0.24811211
0.10673517 -0.053367645 -0.2259177
0.10857183 -0.081428856 -0.20295934
0.11047281 -0.11047271 -0.17919716
0.11244125 -0.14055143 -0.15459184
0.1144814 -0.17172211 -0.12908977
0.11659697 -0.2040447 -0.1026452
0.1187922 -0.2375844 -0.075204864
0.12107133 -0.27241042 -0.046715744
0.12343998 -0.30859989 -0.017107606
0.12590317 -0.34623373 0.013682261
0.12846665 -0.38539988 0.045725822
0.1311367 -0.42619419 0.079101428
0.13391967 -0.46871886 0.11388856
0.13682376 -0.51308906 0.15018962
0.13985659 -0.55942637 0.18810005
0.14302741 -0.60786647 0.22773531
0.14634484 -0.65855169 0.26920307
0.14981981 -0.71164399 0.31264013
0.15346381 -0.76731902 0.3581903
0.15728951 -0.8257699 0.40601152
0.16131082 -0.88720942 0.45627779
0.16554314 -0.95187306 0.50918204
0.17000422 -1.0200254 0.56494546
0.17471167 -1.0919479 0.6237886
0.23707858 0.99573004 0.81067842
0.22158474 0.88633901 0.65574014
0.20799184 0.79036903 0.51981109
0.19597024 0.70549279 0.39959496
0.1852617 0.62988973 0.29250962
0.17566343 0.56212306 0.19652696
0.16701072 0.50103223 0.10999982
0.1591704 0.44567716 0.03159672
0.15203322 0.39528644 -0.039775074
0.14550863 0.34922069 -0.10502114
0.13952063 0.30694535 -0.16490106
0.13400634 0.26801273 -0.22004397
0.12891135 0.23204046 -0.27099383
0.12418961 0.19870336 -0.31821129
0.11980153 0.16772214 -0.36209211
0.11817683 0.14181224 -0.37833902
0.11997452 0.11997454 -0.36036205
0.12182776 0.097462267 -0.34182975
0.12373913 0.074243516 -0.32271588
0.12571146 0.050284564 -0.30299282
0.12774736 0.025549591 -0.28263381
0.12985061 -0 -0.26160136
0.13202426 -0.026404761 -0.23986474
0.13427193 -0.053708747 -0.21738797
0.13659747 -0.081958391 -0.19413266
0.13900462 -0.1112037 -0.17006126
0.14149849 -0.14149845 -0.14512247
0.14408349 -0.17290008 -0.11927256
0.1467647 -0.2054705 -0.092460498
0.14954756 -0.23927608 -0.064631581
0.1524376 -0.27438763 -0.03573142
0.15544197 -0.31088394 -0.0056876391
0.15856716 -0.34884778 0.025564238
0.16182059 -0.38836932 0.05809854
0.1652098 -0.42954546 0.09199068
0.16874456 -0.47248465 0.12733823
0.17243388 -0.51730156 0.16423145
0.17628872 -0.56412381 0.20277987
0.18031923 -0.61308533 0.24308507
0.18453836 -0.66433811 0.28527644
0.18895967 -0.71804667 0.32948941
0.19359805 -0.77439207 0.37587297
0.19846983 -0.83357334 0.42459106
0.20359318 -0.89580977 0.4758243
0.20898883 -0.96134859 0.52978098
0.21467741 -1.0304515 0.5866667
0.28889203 1.0111221 0.84732628
0.26973841 0.89912784 0.68771255
0.25296766 0.80106431 0.54795647
0.23816024 0.71448076 0.42456129
0.22499044 0.63747299 0.31481314
0.21320088 0.56853575 0.21656673
0.20258534 0.50646329 0.12810376
0.19297619 0.45027784 0.04802759
0.18423788 0.39918205 -0.024791718
0.17625666 0.35251334 -0.091301881
0.16893822 0.30972004 -0.15228891
0.16220328 0.27033889 -0.20841324
0.15598477 0.2339772 -0.26023424
0.15022546 0.20030062 -0.30822849
0.14487629 0.16902238 -0.35280487
0.14261466 0.14261472 -0.37165183
0.14479657 0.12066385 -0.35346928
0.14704627 0.09803088 -0.33472174
0.14936699 0.074683577 -0.31538245
0.15176177 0.050587304 -0.29542604
0.15423496 0.025705837 -0.2748161
0.15679009 -2.9802322e-08 -0.25352323
0.15943132 -0.026571825 -0.23151304
0.16216305 -0.054054342 -0.20874856
0.16498961 -0.082494691 -0.18519394
0.16791689 -0.11194456 -0.16079994
0.17094991 -0.14245822 -0.13552482
0.17409453 -0.17409448 -0.10931966
0.177357 -0.20691638 -0.082132436
0.18074356 -0.24099138 -0.053911023
0.18426251 -0.27639371 -0.024586543
0.1879212 -0.31320196 0.0059026033
0.19172812 -0.35150155 0.037627026
0.19569248 -0.3913849 0.070663318
0.19982363 -0.43295109 0.10508941
0.20413359 -0.47631162 0.14100593
0.20863427 -0.52158564 0.17851152
0.21333715 -0.56889904 0.21770237
0.21825698 -0.61839467 0.25870073
0.22340904 -0.67022705 0.30163461
0.22881024 -0.72456568 0.34664446
0.23447904 -0.78159678 0.39388472
0.24043588 -0.84152544 0.44352502
0.24670425 -0.90458208 0.49576128
0.25330719 -0.9710108 0.55078584
0.26027331 -1.041093 0.60883677
0.34233096 1.0269929 0.88511384
0.31930342 0.91229534 0.72063124
0.29917857 0.81205606 0.57688236
0.28144014 0.72370327 0.45017952
0.26568648 0.64523864 0.33765328
0.25160381 0.57509452 0.23706289
0.2389389 0.51201189 0.14659902
0.22748791 0.45497581 0.064806193
0.21708426 0.40315658 -0.0095054358
0.20759061 0.35586962 -0.077317417
0.1988925 0.31254536 -0.13944666
0.19089349 0.27270502 -0.19658238
0.18351348 0.23594593 -0.24929678
0.17668286 0.20192325 -0.298087
0.17034248 0.17034255 -0.34337541
0.16733064 0.1434263 -0.36488849
0.16990548 0.12136107 -0.34649682
0.17256078 0.098606236 -0.32753032
0.17530042 0.075128764 -0.30796158
0.178128 0.050893731 -0.28776443
0.18104875 0.025864147 -0.26690203
0.18406688 2.2351742e-08 -0.24534391
0.18718734 -0.026741043 -0.22305489
0.19041543 -0.054404341 -0.19999722
0.19375628 -0.083038375 -0.17613384
0.197217 -0.11269539 -0.15141442
0.20080361 -0.14343111 -0.12579584
0.20452306 -0.17530546 -0.099228285
0.20838234 -0.20838232 -0.071662128
0.21239066 -0.24273211 -0.043031275
0.21655621 -0.27842933 -0.013277426
0.22088841 -0.31555483 0.017667055
0.2253975 -0.35419598 0.049874797
0.23009381 -0.39444649 0.08341974
0.2349907 -0.43641132 0.11839762
0.24010135 -0.48020267 0.15490228
0.24543843 -0.5259394 0.19302423
0.25101817 -0.57375568 0.23287958
0.25685751 -0.62379676 0.27458918
0.26297498 -0.67622143 0.31828552
0.26939097 -0.73120403 0.36411399
0.27612787 -0.78893673 0.41223463
0.28321037 -0.84963101 0.46282378
0.29066688 -0.91352433 0.51608455
0.29852545 -0.98086917 0.57221711
0.30682075 -1.0519569 0.63146937
0.39747611 1.0433748 0.92411816
0.37034169 0.92585415 0.75452822
0.34667531 0.82335383 0.60661328
0.32585075 0.73316413 0.4764598
0.30738738 0.65319824 0.36106375
0.29090413 0.58180833 0.25804356
0.27609873 0.51768517 0.16550972
0.26272655 0.45977148 0.081933513
0.25059056 0.40720975 0.0060837269
0.23952626 0.35928947 -0.063068211
0.22939767 0.31542185 -0.12637192
0.22009094 0.27511373 -0.18453902
0.21150991 0.23794875 -0.23817037
0.2035729 0.2035729 -0.28777677
0.19621003 0.17168382 -0.33379465
0.19232954 0.14424723 -0.35804772
0.19530624 0.12206642 -0.33944333
0.19837655 0.099188343 -0.32025397
0.20154445 0.075579204 -0.30045459
0.20481566 0.051203921 -0.2800096
0.20819479 0.026024371 -0.25888988
0.21168733 8.9406967e-08 -0.23706165
0.21529901 -0.026912346 -0.21448848
0.21903552 -0.054758802 -0.19113523
0.22290461 -0.083589166 -0.16695353
0.22691284 -0.11345635 -0.14190224
0.23106784 -0.14441735 -0.11593325
0.23537786 -0.17653339 -0.088995636
0.23985106 -0.20986959 -0.061038241
0.24449827 -0.24449821 -0.031993151
0.24932911 -0.28049523 -0.0018004328
0.25435469 -0.31794333 0.029609546
0.25958705 -0.35693207 0.062311724
0.26503837 -0.39755741 0.096382409
0.27072442 -0.4399271 0.13192028
0.27666071 -0.48415607 0.16902193
0.28286219 -0.53036654 0.20778139
0.2893481 -0.57869607 0.24831808
0.29613841 -0.62929404 0.29075766
0.30325508 -0.68232381 0.33523679
0.31072223 -0.73796523 0.38190645
0.31856638 -0.79641593 0.43093258
0.32681811 -0.8578974 0.48250574
0.33550736 -0.92264509 0.53681368
0.34467128 -0.99092984 0.59408826
0.35434985 -1.0630497 0.6545794
0.45440894 1.0602877 0.964387
0.42291808 0.93981802 0.78943765
0.39551064 0.83496702 0.63717413
0.37143934 0.74287868 0.50344449
0.35012996 0.66135669 0.38505918
0.33113179 0.58867872 0.2795136
0.31409022 0.52348375 0.18483838
0.2987169 0.46467078 0.099431023
0.28477827 0.41134638 0.021994039
0.27208242 0.36277658 -0.048538342
0.26047027 0.31835264 -0.11305021
0.24980876 0.27756533 -0.17228089
0.23998509 0.23998512 -0.22685689
0.23090538 0.20524921 -0.27729976
0.22248766 0.17304602 -0.3240647
0.21761625 0.1450775 -0.35112828
0.22100399 0.12278003 -0.33230731
0.22449891 0.099777281 -0.31289119
0.22810559 0.076035269 -0.29285404
0.23183061 0.051517986 -0.27215952
0.23567931 0.026186623 -0.25077778
0.23965795 6.7055225e-08 -0.22867428
0.24377263 -0.027085871 -0.20581505
0.24803168 -0.055118147 -0.18215364
0.25244221 -0.084147334 -0.15765065
0.25701243 -0.11422772 -0.13226049
0.26175117 -0.14541724 -0.10593411
0.26666725 -0.1777781 -0.078622758
0.27177227 -0.21137835 -0.050261535
0.27707651 -0.24629015 -0.020793386
0.28259197 -0.28259194 0.0098481029
0.28833148 -0.32036826 0.041734114
0.29430804 -0.35970977 0.074937269
0.30053857 -0.400718 0.10955125
0.30703956 -0.44350162 0.14566797
0.31382701 -0.48817527 0.18337612
0.32092133 -0.53486884 0.22278896
0.32834381 -0.58372235 0.264025
0.33611777 -0.63488907 0.3072136
0.34426877 -0.68853736 0.35249686
0.35282493 -0.74485254 0.40003103
0.36181858 -0.80404121 0.44999588
0.37128133 -0.86632299 0.50256658
0.38125229 -0.93194991 0.55796087
0.39177358 -1.0011991 0.61641252
0.40289205 -1.0743787 0.67818189
0.51321554 1.0777526 1.0059704
0.47710681 0.95421362 0.82542682
0.4457452 0.84691596 0.66861868
0.41825062 0.75285113 0.53114569
0.39395228 0.66971892 0.40965402
0.37232217 0.59571546 0.30150342
0.35294363 0.52941549 0.20461088
0.33548257 0.46967557 0.11730528
0.3196677 0.41556805 0.038231075
0.30527589 0.36633104 -0.033727929
0.29212493 0.32133746 -0.099482767
0.28006023 0.28006026 -0.15980621
0.26895255 0.24205734 -0.21534458
0.25869235 0.20695391 -0.26664558
0.24918622 0.17443034 -0.31417626
0.24319574 0.14591748 -0.3441287
0.24700399 0.12350201 -0.32508737
0.25093281 0.10037315 -0.30544341
0.25498924 0.07649678 -0.28516123
0.25917894 0.051835783 -0.26421261
0.26350865 0.026350878 -0.24256399
0.26798549 2.2351742e-08 -0.22017983
0.27261636 -0.0272616 -0.1970256
0.27741084 -0.055482138 -0.17305326
0.28237692 -0.084713072 -0.14822268
0.2875241 -0.11500964 -0.12248681
0.29286239 -0.14643118 -0.095795393
0.2984018 -0.17904103 -0.068098351
0.30415571 -0.21290901 -0.039328828
0.31013587 -0.24810871 -0.0094280913
0.31635588 -0.28472024 0.021671936
0.3228305 -0.32283044 0.054045245
0.32957467 -0.36253211 0.087766021
0.33660769 -0.40392914 0.1229312
0.34394854 -0.44713306 0.15963541
0.35161555 -0.49226174 0.19797041
0.35963216 -0.5394482 0.23805341
0.36802286 -0.58883655 0.28000695
0.37681442 -0.64058459 0.32396477
0.38603634 -0.69486535 0.3700743
0.3957209 -0.75186974 0.41849726
0.40590551 -0.81181097 0.46942022
0.41662651 -0.8749156 0.52302527
0.42792925 -0.94144428 0.57953876
0.43986231 -1.0116833 0.63920444
0.45248005 -1.0859519 0.70229274
0.5739947 1.0958081 1.0489594
0.53297907 0.96905279 0.86252469
0.49743629 0.85920811 0.7009666
0.46633762 0.76309806 0.55960929
0.43889865 0.67829788 0.43488634
0.41450918 0.60292232 0.32402518
0.39268634 0.53548133 0.22483046
0.37304759 0.47478789 0.13556354
0.35527959 0.41987595 0.054799929
0.33912724 0.36995697 -0.018619999
0.32437965 0.32437968 -0.085654348
0.31086132 0.28260124 -0.14710136
0.2984246 0.24416561 -0.20363182
0.28694406 0.20868659 -0.25581622
0.27631474 0.17583668 -0.30413124
0.26907316 0.14676717 -0.33704746
0.27331093 0.12423228 -0.31778499
0.27768493 0.10097641 -0.29790312
0.28220123 0.076964021 -0.27737448
0.28686687 0.052157648 -0.25616705
0.29168937 0.026517324 -0.23424655
0.29667604 2.2351742e-08 -0.21157993
0.30183694 -0.027439706 -0.18812117
0.30718061 -0.055850934 -0.1638319
0.31271687 -0.085286386 -0.13866709
0.31845635 -0.11580231 -0.11257853
0.32440954 -0.14745876 -0.085518479
0.33059049 -0.18032208 -0.057423249
0.33701155 -0.21446185 -0.028236583
0.343687 -0.24995415 0.0021062121
0.35063222 -0.28688085 0.033675469
0.35786283 -0.32532978 0.06654194
0.36539909 -0.36539906 0.10079764
0.3732608 -0.40719363 0.13653255
0.38146698 -0.45082465 0.17383339
0.3900421 -0.49641716 0.21281123
0.39901161 -0.5441066 0.25358173
0.40840331 -0.59404129 0.29627144
0.41824785 -0.64638305 0.34101918
0.4285787 -0.70131063 0.38797766
0.43943447 -0.75902307 0.43732214
0.45085275 -0.81973231 0.48922351
0.46288028 -0.88368034 0.54389364
0.47556704 -0.95113403 0.60156101
0.48896891 -1.0223895 0.66247857
0.50314802 -1.0977772 0.72692889
0.59061921 0.98436546 0.90080607
0.55065233 0.87186605 0.73427725
0.51575172 0.77362758 0.58885807
0.48500961 0.68709689 0.4607659
0.45772782 0.61030376 0.34709185
0.43335176 0.54168969 0.245525
0.41144076 0.48001418 0.15422902
0.39163879 0.42427534 0.071720928
0.37365538 0.37365547 -0.0032099038
0.35725001 0.32747924 -0.071565695
0.34222549 0.2851879 -0.13416779
0.32841375 0.24631032 -0.19171667
0.31567362 0.21044913 -0.24480067
0.30388498 0.1772663 -0.29391989
0.29525375 0.14762688 -0.32988337
0.2999315 0.12497152 -0.31039274
0.30476055 0.10158681 -0.2902717
0.3097477 0.077436924 -0.269492
0.31490076 0.052483462 -0.24802086
0.32022816 0.026685648 -0.22582339
0.32573807 -4.4703484e-08 -0.20286535
0.33144182 -0.027620167 -0.1790998
0.33734885 -0.056224857 -0.1544871
0.34347025 -0.085867561 -0.12898129
0.34981793 -0.11660596 -0.1025326
0.35640365 -0.14850149 -0.075092144
0.3632431 -0.18162155 -0.046594314
0.37035024 -0.21603757 -0.01698146
0.37774101 -0.2518273 0.013813525
0.38543159 -0.28907362 0.045857571
0.39344308 -0.32786924 0.079238698
0.40179592 -0.36831284 0.11404226
0.41050979 -0.41050988 0.15035017
0.41961002 -0.45457757 0.1882679
0.42912287 -0.50064337 0.22790466
0.43907708 -0.54884636 0.26938054
0.44950402 -0.59933865 0.31282616
0.46043828 -0.65228754 0.35838538
0.47191945 -0.70787919 0.40622365
0.48398599 -0.76631117 0.45650101
0.49668583 -0.82780963 0.50941706
0.51007009 -0.89262259 0.56518477
0.52419573 -0.9610253 0.62404126
0.53912592 -1.0333246 0.68625057
0.65011024 1.0001696 0.94031668
0.60545719 0.8848989 0.76857388
0.5665462 0.78444862 0.61891657
0.53233463 0.69612992 0.48733357
0.50201958 0.61787027 0.37073725
0.47497123 0.54804373 0.2667051
0.45068708 0.48535535 0.17330442
0.42876667 0.42876667 0.088995099
0.40887964 0.37742734 0.012506574
0.39075565 0.33063942 -0.057201043
0.37417018 0.2878232 -0.12099126
0.35893533 0.24849367 -0.17958687
0.34489256 0.2122416 -0.23359749
0.33190641 0.17871886 -0.28354427
0.32174212 0.14849631 -0.3226378
0.3268708 0.12571955 -0.30291203
0.3321656 0.10220481 -0.28254732
0.3376348 0.077915803 -0.26151204
0.34328711 0.052813426 -0.23977241
0.34913099 0.02685634 -0.21729583
0.35517821 2.9802322e-08 -0.19403736
0.3614386 -0.027802885 -0.16995884
0.36792365 -0.056603648 -0.14501637
