# .PCD v0.7 - Point Cloud Data file format
VERSION 0.7
FIELDS x y z
SIZE 4 4 4
TYPE F F F
COUNT 1 1 1
WIDTH 1385
HEIGHT 1
VIEWPOINT 0 0 0 1 0 0 0
POINTS 1385
DATA ascii
-0.29768065 -0.20837645 -0.071704037
-0.29767981 -0.23814379 -0.071708299
-0.29767981 -0.26791179 -0.071708217
-0.29767981 -0.29767981 -0.071708202
-0.29767898 -0.32744682 -0.071712434
-0.29767898 -0.35721472 -0.071712434
-0.29767898 -0.38698265 -0.071712479
-0.29767814 -0.41674936 -0.071716562
-0.29767814 -0.4465172 -0.071716666
-0.29767814 -0.47628498 -0.071716696
-0.29767814 -0.50605285 -0.071716636
-0.29767731 -0.53581911 -0.071720779
-0.29767731 -0.56558681 -0.071720883
-0.29767731 -0.59535456 -0.071720898
-0.29767644 -0.62512052 -0.071725041
-0.29767644 -0.65488815 -0.07172507
-0.29767644 -0.68465585 -0.071725011
-0.29767564 -0.71442139 -0.071729243
-0.26262859 1.0505143 -0.10105965
-0.26262859 1.0213335 -0.10105965
-0.26262859 0.99215245 -0.10105968
-0.26262787 0.96296883 -0.10106373
-0.26262787 0.933788 -0.10106355
-0.26262787 0.90460718 -0.10106367
-0.26262715 0.87542379 -0.10106772
-0.26262715 0.84624314 -0.10106763
-0.26262715 0.8170622 -0.10106769
-0.26262641 0.78787935 -0.10107169
-0.26262641 0.75869846 -0.10107177
-0.26262641 0.72951782 -0.10107172
-0.26262569 0.70033514 -0.10107574
-0.26262569 0.67115456 -0.10107571
-0.26262569 0.64197397 -0.10107574
-0.26262495 0.6127916 -0.10107985
-0.26262495 0.58361107 -0.10107975
-0.26262495 0.55443048 -0.10107975
-0.26262423 0.52524847 -0.10108387
-0.26262423 0.49606809 -0.10108376
-0.26262423 0.46688753 -0.10108377
-0.26262352 0.43770593 -0.10108779
-0.26262352 0.40852544 -0.10108787
-0.26262352 0.37934506 -0.10108787
-0.2626228 0.35016379 -0.10109184
-0.2626228 0.32098341 -0.10109189
-0.2626228 0.29180315 -0.10109185
-0.26262206 0.26262209 -0.10109583
-0.26262206 0.23344184 -0.10109596
-0.26262206 0.20426162 -0.10109597
-0.26262206 0.17508146 -0.10109587
-0.26262134 0.14590077 -0.10109988
-0.26262134 0.11672065 -0.10109995
-0.26262134 0.08754047 -0.1011
-0.26262063 0.058360197 -0.10110388
-0.26262063 0.029180106 -0.101104
-0.26262063 7.4505806e-09 -0.10110395
-0.26261988 -0.02917992 -0.10110798
-0.26261988 -0.058359928 -0.10110801
-0.26261988 -0.087539904 -0.1011079
-0.26261917 -0.11671953 -0.10111204
-0.26261917 -0.14589946 -0.10111197
-0.26261917 -0.17507944 -0.10111196
-0.26261842 -0.20425871 -0.10111606
-0.26261842 -0.23343861 -0.10111596
-0.26261842 -0.26261833 -0.101116
-0.26261771 -0.29179743 -0.10112009
-0.26261771 -0.32097715 -0.10112015
-0.26261771 -0.3501569 -0.10112002
-0.26261699 -0.37933549 -0.10112408
-0.26261699 -0.40851527 -0.10112406
-0.26261699 -0.43769497 -0.10112405
-0.26261699 -0.46687454 -0.10112409
-0.26261628 -0.49605292 -0.1011281
-0.26261628 -0.52523243 -0.10112812
-0.26261628 -0.55441201 -0.10112816
-0.26261556 -0.58359003 -0.10113211
-0.26261556 -0.61276954 -0.10113209
-0.26261556 -0.64194906 -0.10113209
-0.26261482 -0.67112672 -0.10113612
-0.26261482 -0.70030612 -0.10113618
-0.23216745 1.0157326 -0.1090607
-0.22892377 0.97292602 -0.12933382
-0.22892377 0.94431049 -0.12933388
-0.22892377 0.91569507 -0.12933385
-0.22892313 0.88707721 -0.12933764
-0.22892313 0.85846174 -0.12933776
-0.22892313 0.82984638 -0.12933779
-0.22892252 0.80122876 -0.12934166
-0.22892252 0.77261353 -0.12934166
-0.22892252 0.74399817 -0.1293416
-0.22892189 0.71538103 -0.12934545
-0.22892189 0.68676579 -0.12934545
-0.22892189 0.65815043 -0.12934554
-0.22892128 0.62953353 -0.12934935
-0.22892128 0.60091841 -0.12934931
-0.22892128 0.57230324 -0.12934937
-0.22892067 0.54368663 -0.12935321
-0.22892067 0.51507151 -0.12935318
-0.22892067 0.48645642 -0.12935321
-0.22892003 0.45784006 -0.12935711
-0.22892003 0.42922512 -0.12935708
-0.22892003 0.40061009 -0.1293571
-0.22891942 0.37199414 -0.1293609
-0.22891942 0.34337914 -0.12936099
-0.22891942 0.31476423 -0.12936097
-0.22891879 0.28614852 -0.12936485
-0.22891879 0.25753367 -0.12936488
-0.22891879 0.22891878 -0.12936488
-0.22891879 0.200304 -0.12936483
-0.22891818 0.17168868 -0.12936869
-0.22891818 0.14307387 -0.12936878
-0.22891818 0.1144591 -0.12936872
-0.22891757 0.085844137 -0.12937261
-0.22891757 0.057229452 -0.12937263
-0.22891757 0.028614677 -0.12937257
-0.22891694 5.9604645e-08 -0.12937644
-0.22891694 -0.028614577 -0.1293765
-0.22891694 -0.057229191 -0.12937643
-0.22891633 -0.085843541 -0.12938038
-0.22891633 -0.11445805 -0.12938038
-0.22891633 -0.14307266 -0.12938039
-0.22891569 -0.17168674 -0.12938417
-0.22891569 -0.2003012 -0.12938422
-0.22891569 -0.22891566 -0.12938428
-0.22891508 -0.2575295 -0.12938812
-0.22891508 -0.28614378 -0.12938815
-0.22891508 -0.31475818 -0.12938811
-0.22891447 -0.34337166 -0.12939194
-0.22891447 -0.37198591 -0.12939194
-0.22891447 -0.40060022 -0.12939197
-0.22891447 -0.42921454 -0.12939201
-0.22891384 -0.45782766 -0.12939578
-0.22891384 -0.48644185 -0.12939589
-0.22891384 -0.51505607 -0.12939583
-0.22891323 -0.54366881 -0.12939972
-0.22891323 -0.57228297 -0.12939975
-0.22891323 -0.60089719 -0.12939967
-0.22891259 -0.62950957 -0.12940356
-0.22891259 -0.65812373 -0.12940353
-0.21090777 1.0545388 -0.053623348
-0.20582841 0.99973816 -0.089904279
-0.20098744 0.94751233 -0.12448272
-0.19650041 0.89828765 -0.156533
-0.19650041 0.87021595 -0.15653315
-0.19650041 0.84214461 -0.15653306
-0.19649987 0.81407094 -0.15653685
-0.19649987 0.78599954 -0.15653676
-0.19649987 0.75792801 -0.15653685
-0.19649936 0.7298547 -0.15654057
-0.19649936 0.70178354 -0.15654051
-0.19649936 0.67371207 -0.15654056
-0.19649883 0.64563906 -0.15654428
-0.19649883 0.61756778 -0.15654425
-0.19649883 0.58949649 -0.15654428
-0.1964983 0.56142372 -0.15654804
-0.1964983 0.53335249 -0.1565481
-0.1964983 0.50528145 -0.15654795
-0.19649778 0.47720891 -0.15655178
-0.19649778 0.44913781 -0.15655175
-0.19649778 0.42106667 -0.15655172
-0.19649726 0.39299449 -0.1565555
-0.19649726 0.36492351 -0.15655546
-0.19649726 0.33685243 -0.15655547
-0.19649674 0.30878058 -0.15655923
-0.19649674 0.28070962 -0.15655918
-0.19649674 0.2526387 -0.15655918
-0.19649674 0.22456773 -0.15655915
-0.19649622 0.19649625 -0.15656291
-0.19649622 0.16842534 -0.15656291
-0.19649622 0.14035442 -0.15656292
-0.1964957 0.11228328 -0.15656665
-0.1964957 0.084212489 -0.1565666
-0.1964957 0.05614166 -0.15656669
-0.19649518 0.0280708 -0.15657037
-0.19649518 1.0430813e-07 -0.15657039
-0.19649518 -0.028070688 -0.15657035
-0.19649465 -0.056141239 -0.15657413
-0.19649465 -0.084211946 -0.15657416
-0.19649465 -0.11228261 -0.15657414
-0.19649413 -0.1403529 -0.15657781
-0.19649413 -0.16842352 -0.15657784
-0.19649413 -0.19649406 -0.15657777
-0.19649361 -0.22456412 -0.15658151
-0.19649361 -0.25263458 -0.15658157
-0.19649361 -0.28070509 -0.15658163
-0.19649309 -0.30877477 -0.15658531
-0.19649309 -0.33684522 -0.15658531
-0.19649309 -0.36491573 -0.1565852
-0.19649309 -0.39298612 -0.15658534
-0.19649257 -0.4210555 -0.15658902
-0.19649257 -0.44912577 -0.156589
-0.19649257 -0.47719619 -0.15658897
-0.19649205 -0.50526524 -0.1565927
-0.19649205 -0.53333557 -0.15659268
-0.19649205 -0.5614059 -0.15659273
-0.19649152 -0.5894745 -0.1565965
-0.19649152 -0.61754465 -0.15659654
-0.19649152 -0.64561498 -0.15659642
-0.1832571 1.0384569 -0.032964766
-0.17878415 0.98331279 -0.070239574
-0.17452481 0.93079901 -0.1057339
-0.17046323 0.88072681 -0.13958031
-0.16658686 0.83293432 -0.17188352
-0.16528678 0.79888606 -0.18271756
-0.16528678 0.77133828 -0.1827175
-0.16528635 0.74378854 -0.18272114
-0.16528635 0.71624088 -0.18272105
-0.16528635 0.68869311 -0.18272117
-0.16528592 0.66114372 -0.18272462
-0.16528592 0.63359606 -0.1827247
-0.16528592 0.60604835 -0.1827247
-0.16528548 0.5784992 -0.18272826
-0.16528548 0.55095166 -0.18272826
-0.16528548 0.52340406 -0.18272823
-0.16528507 0.49585521 -0.18273184
-0.16528507 0.4683077 -0.18273188
-0.16528507 0.44076014 -0.18273188
-0.16528507 0.41321272 -0.18273187
-0.16528463 0.38566419 -0.18273544
-0.16528463 0.35811675 -0.1827355
-0.16528419 0.33056846 -0.182739
-0.16528419 0.30302104 -0.18273911
-0.16528419 0.27547365 -0.18273911
-0.16528419 0.24792631 -0.18273914
-0.16528377 0.22037838 -0.1827426
-0.16528377 0.19283116 -0.18274258
-0.16528377 0.16528383 -0.18274261
-0.16528334 0.13773623 -0.18274622
-0.16528334 0.11018895 -0.18274628
-0.16528334 0.082641721 -0.18274626
-0.16528291 0.055094376 -0.18274976
-0.16528291 0.027547248 -0.18274982
-0.16528291 2.9802322e-08 -0.18274981
-0.16528247 -0.027547009 -0.1827534
-0.16528247 -0.055094134 -0.18275346
-0.16528247 -0.082641229 -0.1827534
-0.16528204 -0.11018798 -0.18275702
-0.16528204 -0.13773505 -0.18275702
-0.16528204 -0.16528198 -0.18275702
-0.16528161 -0.19282848 -0.18276055
-0.16528161 -0.22037539 -0.18276055
-0.16528161 -0.24792241 -0.18276064
-0.16528118 -0.27546865 -0.18276422
-0.16528118 -0.30301547 -0.18276413
-0.16528118 -0.33056229 -0.18276422
-0.16528118 -0.35810915 -0.18276411
-0.16528076 -0.38565511 -0.18276772
-0.16528076 -0.41320181 -0.18276773
-0.16528076 -0.44074863 -0.18276776
-0.16528033 -0.46829426 -0.18277133
-0.16528033 -0.49584097 -0.18277133
-0.16528033 -0.52338761 -0.18277134
-0.16527988 -0.55093288 -0.18277495
-0.16527988 -0.57847953 -0.18277496
-0.16527988 -0.60602617 -0.18277499
-0.16527945 -0.63357127 -0.18277852
-0.1548371 1.0219249 -0.011736363
-0.15100701 0.96644491 -0.050037175
-0.14736143 0.91364086 -0.086493075
-0.1438881 0.8633287 -0.12122625
-0.14057437 0.81533128 -0.15436372
-0.13741018 0.76949704 -0.18600547
-0.13521646 0.73016882 -0.20794283
-0.13521646 0.70312554 -0.20794287
-0.1352161 0.67608058 -0.20794633
-0.1352161 0.64903736 -0.20794632
-0.1352161 0.62199414 -0.2079463
-0.13521576 0.59494936 -0.2079498
-0.13521576 0.5679062 -0.2079498
-0.13521576 0.54086298 -0.20794982
-0.13521542 0.51381856 -0.20795332
-0.13521542 0.48677549 -0.20795324
-0.13521542 0.45973244 -0.20795318
-0.13521542 0.43268934 -0.20795326
-0.13521507 0.40564519 -0.2079567
-0.13521507 0.37860221 -0.2079567
-0.13521472 0.35155827 -0.20796013
-0.13521472 0.32451531 -0.20796017
-0.13521472 0.29747245 -0.20796013
-0.13521472 0.27042949 -0.20796017
-0.13521437 0.2433859 -0.20796359
-0.13521437 0.21634306 -0.20796357
-0.13521437 0.18930018 -0.20796353
-0.13521403 0.16225688 -0.20796704
-0.13521403 0.13521405 -0.20796704
-0.13521403 0.10817121 -0.20796701
-0.13521369 0.081128269 -0.20797053
-0.13521369 0.05408556 -0.20797047
-0.13521369 0.027042687 -0.20797057
-0.13521333 2.2351742e-08 -0.20797402
-0.13521333 -0.02704265 -0.20797399
-0.13521333 -0.054085307 -0.20797405
-0.13521299 -0.081127807 -0.20797738
-0.13521299 -0.10817038 -0.20797744
-0.13521299 -0.13521291 -0.20797744
-0.13521264 -0.16225515 -0.20798086
-0.13521264 -0.18929765 -0.20798092
-0.13521264 -0.21634011 -0.2079809
-0.1352123 -0.2433821 -0.20798439
-0.1352123 -0.27042454 -0.20798437
-0.1352123 -0.29746699 -0.20798439
-0.1352123 -0.32450944 -0.20798439
-0.13521194 -0.35155094 -0.20798787
-0.13521194 -0.37859339 -0.20798782
-0.13521194 -0.40563583 -0.20798783
-0.1352116 -0.43267715 -0.20799124
-0.1352116 -0.45971948 -0.20799129
-0.1352116 -0.48676175 -0.20799127
-0.13521126 -0.51380277 -0.20799471
-0.13521126 -0.54084504 -0.2079947
-0.13521126 -0.56788725 -0.20799476
-0.13521092 -0.59492797 -0.20799822
-0.13521092 -0.62197018 -0.20799817
-0.12561621 1.0049298 0.010095358
-0.12246587 0.94911051 -0.029283941
-0.11947002 0.89602518 -0.066732168
-0.11661692 0.84547269 -0.10239586
-0.11389721 0.79728043 -0.13639227
-0.11130118 0.75128305 -0.16884255
-0.10882114 0.70733744 -0.19984306
-0.10644893 0.66530585 -0.22949563
-0.10622773 0.63736635 -0.2322609
-0.10622746 0.6108079 -0.23226416
-0.10622746 0.58425105 -0.23226415
-0.10622746 0.55769408 -0.23226422
-0.10622718 0.53113592 -0.23226753
-0.10622718 0.50457919 -0.23226751
-0.10622718 0.47802237 -0.23226753
-0.10622718 0.45146555 -0.23226754
-0.10622691 0.42490768 -0.23227082
-0.10622691 0.39835095 -0.2322709
-0.10622665 0.37179327 -0.23227417
-0.10622665 0.34523666 -0.23227422
-0.10622665 0.31868005 -0.23227412
-0.10622665 0.29212332 -0.23227423
-0.10622638 0.26556605 -0.23227751
-0.10622638 0.23900937 -0.23227754
-0.10622638 0.2124528 -0.23227748
-0.10622612 0.18589571 -0.23228091
-0.10622612 0.15933917 -0.23228088
-0.10622612 0.13278267 -0.23228088
-0.10622585 0.10622595 -0.23228419
-0.10622585 0.079669461 -0.23228419
-0.10622585 0.053112976 -0.2322842
-0.10622559 0.02655647 -0.2322875
-0.10622559 2.2351742e-08 -0.23228756
-0.10622559 -0.02655638 -0.23228756
-0.10622532 -0.053112589 -0.23229088
-0.10622532 -0.079668909 -0.23229089
-0.10622532 -0.10622533 -0.23229089
-0.10622505 -0.13278127 -0.23229419
-0.10622505 -0.15933755 -0.23229423
-0.10622505 -0.1858938 -0.23229423
-0.10622478 -0.21244958 -0.23229751
-0.10622478 -0.23900573 -0.2322976
-0.10622478 -0.26556197 -0.23229757
-0.10622478 -0.29211819 -0.23229754
-0.10622452 -0.31867352 -0.23230091
-0.10622452 -0.34522966 -0.23230091
-0.10622452 -0.37178585 -0.23230085
-0.10622425 -0.39834088 -0.23230419
-0.10622425 -0.42489699 -0.2323042
-0.10622425 -0.45145306 -0.23230419
-0.10622398 -0.47800785 -0.23230761
-0.10622398 -0.50456387 -0.23230757
-0.10622398 -0.53111982 -0.23230757
-0.10622371 -0.55767441 -0.23231091
-0.10622371 -0.58423036 -0.23231097
-0.098119378 1.0466067 0.075215548
-0.095559239 0.98744547 0.03254655
-0.093129583 0.93129575 -0.0079477429
-0.090820141 0.87792802 -0.046438277
-0.088622727 0.82714558 -0.083061874
-0.086528897 0.77876008 -0.11795917
-0.084531941 0.73261023 -0.15124169
-0.082624868 0.68854058 -0.18302619
-0.08080215 0.64641726 -0.2134048
-0.079057924 0.60611075 -0.24247532
-0.078263268 0.57393068 -0.2557196
-0.078263074 0.54784155 -0.25572279
-0.078263074 0.52175385 -0.25572282
-0.078263074 0.49566615 -0.25572279
-0.078263074 0.46957844 -0.25572282
-0.07826288 0.4434897 -0.25572604
-0.07826288 0.41740203 -0.25572604
-0.07826288 0.39131439 -0.25572613
-0.078262687 0.36522594 -0.25572926
-0.078262687 0.33913839 -0.25572923
-0.078262687 0.31305072 -0.25572929
-0.078262493 0.28696251 -0.25573248
-0.078262493 0.26087499 -0.25573248
-0.078262493 0.23478749 -0.25573251
-0.078262299 0.20869945 -0.2557357
-0.078262299 0.18261209 -0.2557357
-0.078262299 0.15652461 -0.25573573
-0.078262106 0.13043696 -0.25573891
-0.078262106 0.10434951 -0.255739
-0.078262106 0.078262128 -0.25573894
-0.078261912 0.052174672 -0.25574216
-0.078261912 0.026087314 -0.25574213
-0.078261912 4.4703484e-08 -0.25574213
-0.078261718 -0.02608721 -0.25574535
-0.078261718 -0.052174434 -0.25574532
-0.078261718 -0.078261659 -0.25574535
-0.078261524 -0.1043487 -0.2557486
-0.078261524 -0.13043582 -0.25574863
-0.078261524 -0.15652297 -0.25574854
-0.078261331 -0.18260977 -0.25575179
-0.078261331 -0.20869678 -0.25575185
-0.078261331 -0.23478393 -0.25575179
-0.078261331 -0.26087102 -0.25575185
-0.078261137 -0.2869575 -0.25575504
-0.078261137 -0.31304455 -0.25575501
-0.078261137 -0.33913159 -0.25575501
-0.078260943 -0.36521769 -0.25575829
-0.078260943 -0.39130467 -0.25575823
-0.078260943 -0.41739172 -0.25575823
-0.07826075 -0.44347763 -0.25576144
-0.07826075 -0.4695645 -0.25576144
-0.07826075 -0.49565142 -0.2557615
-0.078260563 -0.52173698 -0.25576466
-0.078260563 -0.54782391 -0.25576466
-0.078260563 -0.57391071 -0.25576463
-0.066387579 1.0290076 0.099582195
-0.064630464 0.96945691 0.055654138
-0.062963769 0.9129746 0.013986886
-0.061381061 0.85933495 -0.025580794
-0.059875797 0.80832338 -0.063212335
-0.058442757 0.75975585 -0.099038392
-0.057076551 0.71345687 -0.13319361
-0.055772908 0.66927493 -0.16578463
-0.05452735 0.62706459 -0.19692357
-0.053336348 0.58669972 -0.22669877
-0.052196126 0.54805934 -0.25520423
-0.051269736 0.5126974 -0.27836385
-0.051269736 0.48706251 -0.27836391
-0.051269613 0.46142656 -0.27836698
-0.051269613 0.43579179 -0.27836701
-0.051269613 0.41015697 -0.27836698
-0.05126949 0.38452119 -0.27837005
-0.05126949 0.35888651 -0.27837005
-0.05126949 0.33325177 -0.27837008
-0.051269367 0.30761626 -0.27837321
-0.051269367 0.28198156 -0.27837315
-0.051269367 0.25634685 -0.27837324
-0.051269241 0.23071164 -0.27837634
-0.051269241 0.20507704 -0.27837631
-0.051269241 0.17944236 -0.27837628
-0.051269118 0.15380739 -0.27837944
-0.051269118 0.12817281 -0.27837947
-0.051269118 0.10253833 -0.27837941
-0.051268991 0.076903529 -0.27838254
-0.051268991 0.051269084 -0.27838254
-0.051268991 0.025634512 -0.27838257
-0.051268868 -0 -0.27838564
-0.051268868 -0.025634408 -0.27838567
-0.051268868 -0.051268846 -0.27838567
-0.051268745 -0.076903053 -0.27838874
-0.051268745 -0.10253746 -0.27838877
-0.051268745 -0.12817186 -0.27838871
-0.051268619 -0.15380578 -0.2783919
-0.051268619 -0.17944019 -0.27839184
-0.051268619 -0.20507446 -0.27839184
-0.051268619 -0.23070878 -0.27839184
-0.051268496 -0.25634244 -0.278395
-0.051268496 -0.28197661 -0.27839497
-0.051268496 -0.30761096 -0.27839494
-0.051268373 -0.33324432 -0.27839813
-0.051268373 -0.35887849 -0.2783981
-0.051268373 -0.38451272 -0.2783981
-0.051268246 -0.41014594 -0.27840111
-0.051268246 -0.43578011 -0.2784012
-0.051268246 -0.46141416 -0.27840123
-0.051268123 -0.48704708 -0.2784043
-0.051268123 -0.51268119 -0.2784043
-0.051268123 -0.53831524 -0.2784043
-0.051267996 -0.56394792 -0.27840745
-0.03369597 1.010879 0.12469116
-0.032790892 0.95093584 0.079437137
-0.031933252 0.89413106 0.036555231
-0.031119244 0.84021956 -0.0041452348
-0.030345792 0.78899062 -0.042817801
-0.029609768 0.74024427 -0.079618901
-0.028908687 0.6938085 -0.11467305
-0.028239958 0.64951903 -0.14810957
-0.02760154 0.607234 -0.18003033
-0.026991282 0.56681693 -0.21054329
-0.026407491 0.52814978 -0.2397328
-0.025848357 0.49111876 -0.26768953
-0.025312467 0.4556244 -0.2944839
-0.025197441 0.42835653 -0.3002353
-0.025197379 0.4031581 -0.30023834
-0.025197379 0.37796074 -0.30023834
-0.025197379 0.35276332 -0.30023834
-0.02519732 0.32756513 -0.30024141
-0.02519732 0.30236787 -0.30024138
-0.02519732 0.2771706 -0.30024132
-0.025197258 0.25197268 -0.30024433
-0.025197258 0.22677535 -0.30024439
-0.025197258 0.20157814 -0.30024436
-0.0251972 0.17638043 -0.3002474
-0.0251972 0.15118322 -0.30024737
-0.0251972 0.12598601 -0.30024737
-0.025197139 0.10078856 -0.30025047
-0.025197139 0.075591475 -0.30025041
-0.025197139 0.050394341 -0.30025029
-0.025197079 0.025197089 -0.30025342
-0.025197079 -2.9802322e-08 -0.30025339
-0.025197079 -0.025197029 -0.30025342
-0.025197018 -0.050394014 -0.30025637
-0.025197018 -0.075591058 -0.30025643
-0.025197018 -0.10078806 -0.30025634
-0.02519696 -0.12598476 -0.30025938
-0.02519696 -0.15118171 -0.30025935
-0.02519696 -0.17637864 -0.30025938
-0.02519696 -0.20157564 -0.30025929
-0.025196899 -0.22677204 -0.30026239
-0.025196899 -0.25196901 -0.30026233
-0.025196899 -0.27716586 -0.30026239
-0.025196839 -0.30236197 -0.30026537
-0.025196839 -0.32755882 -0.30026546
-0.025196839 -0.35275576 -0.30026537
-0.025196778 -0.37795159 -0.30026841
-0.025196778 -0.40314841 -0.30026838
-0.025196778 -0.4283452 -0.30026838
-0.02519672 -0.45354086 -0.30027139
-0.02519672 -0.47873759 -0.30027145
-0.02519672 -0.50393426 -0.30027145
-0.02519666 -0.52912986 -0.30027437
0 1.055999 0.19989103
0 0.9921906 0.15056601
0 0.9318642 0.10393581
0 0.87473667 0.059775233
0 0.82056522 0.017902613
0 0.76912159 -0.021864295
0 0.720209 -0.059671968
0 0.67364138 -0.095669657
0 0.6292575 -0.12997667
0 0.58690399 -0.16271678
0 0.54644775 -0.19398788
0 0.5077613 -0.22389339
0 0.47073343 -0.25251451
0 0.43525749 -0.27993825
0 0.40124005 -0.3062323
0 0.37162036 -0.32137293
0 0.34684482 -0.32137591
0 0.32207021 -0.32137588
0 0.29729557 -0.32137582
0 0.27252039 -0.32137871
0 0.24774578 -0.32137871
0 0.22297123 -0.32137871
0 0.19819607 -0.32138169
0 0.17342162 -0.32138166
0 0.14864707 -0.32138169
0 0.12387234 -0.32138452
0 0.099097908 -0.32138449
0 0.074323386 -0.32138455
0 0.049548805 -0.32138744
0 0.024774402 -0.32138744
0 5.9604645e-08 -0.32138741
0 -0.024774373 -0.32138744
0 -0.049548671 -0.32139036
0 -0.074322984 -0.32139045
0 -0.099097081 -0.32139319
0 -0.12387139 -0.32139328
0 -0.14864567 -0.32139325
0 -0.17341992 -0.32139325
0 -0.19819374 -0.32139617
0 -0.22296798 -0.32139617
0 -0.24774216 -0.3213962
0 -0.2725158 -0.32139906
0 -0.29728997 -0.321399
0 -0.3220641 -0.32139909
0 -0.3468374 -0.32140201
0 -0.37161157 -0.32140192
0 -0.39638567 -0.32140198
0 -0.42115879 -0.32140487
0 -0.44593284 -0.32140484
0 -0.47070694 -0.32140487
0 -0.49547976 -0.32140779
0 -0.52025378 -0.32140774
0.035765082 1.0371873 0.22814673
0.034747224 0.97292233 0.17725396
0.033785596 0.91221106 0.12917235
0.032875858 0.85477233 0.083685517
0.032013733 0.80034333 0.040579319
0.031195762 0.74869823 -0.00031936169
0.030418457 0.69962466 -0.039184362
0.029679036 0.65293878 -0.076155603
0.028974626 0.60846722 -0.111376
0.028302956 0.56605911 -0.14495957
0.027661648 0.52557135 -0.17702502
0.027048828 0.4868789 -0.20766599
0.026462505 0.44986266 -0.23698208
0.025901124 0.41441798 -0.2650511
0.025363011 0.38044515 -0.29195693
0.024846856 0.34785596 -0.31776461
0.024365889 0.31675649 -0.34181297
0.024365833 0.29239005 -0.34181574
0.024365833 0.26802424 -0.34181574
0.024365833 0.2436583 -0.34181577
0.024365775 0.21929201 -0.34181854
0.024365775 0.1949262 -0.34181851
0.024365775 0.17056045 -0.34181857
0.024365719 0.14619437 -0.34182134
0.024365719 0.12182868 -0.34182131
0.024365719 0.097462937 -0.34182143
0.024365664 0.073097065 -0.34182414
0.024365664 0.048731327 -0.34182414
0.024365664 0.024365649 -0.34182417
0.024365664 8.9406967e-08 -0.34182417
0.024365608 -0.024365515 -0.34182695
0.024365608 -0.048731208 -0.34182698
0.024365552 -0.073096678 -0.34182978
0.024365552 -0.097462155 -0.34182978
0.024365552 -0.12182766 -0.34182981
0.024365552 -0.14619324 -0.34182978
0.024365496 -0.17055841 -0.34183264
0.024365496 -0.19492397 -0.34183258
0.024365496 -0.21928944 -0.34183258
0.02436544 -0.24365433 -0.34183544
0.02436544 -0.2680198 -0.34183541
0.02436544 -0.29238525 -0.34183544
0.024365382 -0.31674993 -0.34183818
0.024365382 -0.3411153 -0.34183821
0.024365382 -0.36548075 -0.34183812
0.024365326 -0.38984522 -0.34184101
0.024365326 -0.41421044 -0.34184104
0.024365326 -0.43857589 -0.34184098
0.024365271 -0.46294004 -0.34184381
0.024365271 -0.48730534 -0.34184378
0.024365271 -0.51167071 -0.34184381
0.072697528 1.0177653 0.25733072
0.070595562 0.95304012 0.20478174
0.068611965 0.89195549 0.15519181
0.066736579 0.83420718 0.108307
0.064961188 0.77953422 0.063922256
0.063277617 0.7276926 0.021833032
0.061679289 0.67847216 -0.018125236
0.060159542 0.63167524 -0.056118786
0.058713049 0.58713055 -0.092281118
0.05733433 0.54467613 -0.12674908
0.056019027 0.50417125 -0.15963179
0.054762568 0.46548185 -0.19104309
0.053561378 0.42849103 -0.22107296
0.05241162 0.39308715 -0.24981683
0.051310312 0.3591722 -0.2773495
0.050254211 0.32665241 -0.30375198
0.049240828 0.29544494 -0.32908669
0.048267398 0.26547068 -0.35342249
0.047940612 0.23970312 -0.36159199
0.047940612 0.21573283 -0.36159205
0.047940612 0.19176246 -0.36159208
0.0479405 0.16779184 -0.36159474
0.0479405 0.14382151 -0.36159477
0.0479405 0.11985126 -0.3615948
0.047940392 0.095880836 -0.36159751
0.047940392 0.071910664 -0.36159748
0.047940392 0.047940418 -0.36159751
0.047940392 0.023970202 -0.36159748
0.047940284 2.9802322e-08 -0.36160016
0.047940284 -0.023970038 -0.36160022
0.047940176 -0.047940135 -0.36160296
0.047940176 -0.071910217 -0.3616029
0.047940176 -0.095880292 -0.36160293
0.047940176 -0.11985045 -0.36160296
0.047940068 -0.14382017 -0.36160567
0.047940068 -0.16779014 -0.36160567
0.047940068 -0.19176018 -0.36160567
0.04793996 -0.21572974 -0.36160836
0.04793996 -0.23969974 -0.36160836
0.04793996 -0.26366979 -0.36160836
0.047939852 -0.28763902 -0.36161107
0.047939852 -0.311609 -0.36161104
0.047939852 -0.33557883 -0.3616111
0.04793974 -0.35954803 -0.36161378
0.04793974 -0.38351786 -0.36161384
0.04793974 -0.40748781 -0.36161378
0.047939632 -0.43145671 -0.36161655
0.047939632 -0.45542648 -0.36161649
0.047939632 -0.47939631 -0.36161652
0.047939524 -0.50336492 -0.36161929
0.11085504 0.99769521 0.28747651
0.10759856 0.93252099 0.23320216
0.10452761 0.87106359 0.18201956
0.10162742 0.81301939 0.13368294
0.098883502 0.75810695 0.087951094
0.096284159 0.70608389 0.04462865
0.093817689 0.65672374 0.003520757
0.091474697 0.60983133 -0.035529077
0.089245625 0.56522232 -0.072680295
0.087122843 0.52273709 -0.10805991
0.085098483 0.48222476 -0.14179933
0.083166271 0.44355351 -0.17400283
0.081319645 0.40659827 -0.20477995
0.07955344 0.37124944 -0.2342166
0.077862144 0.33740267 -0.26240498
0.076241441 0.30496579 -0.28941667
0.074686661 0.2738511 -0.3153297
0.073194191 0.24398062 -0.34020418
0.071760044 0.21528012 -0.36410671
0.070762247 0.18869939 -0.38073659
0.070762247 0.16511199 -0.38073653
0.070762247 0.14152455 -0.38073659
0.07076209 0.11793689 -0.38073921
0.07076209 0.094349489 -0.38073927
0.07076209 0.070762113 -0.38073924
0.07076209 0.047174767 -0.38073921
0.070761926 0.023587286 -0.38074189
0.070761926 4.4703484e-08 -0.38074183
0.070761926 -0.023587286 -0.38074183
0.07076177 -0.047174528 -0.38074446
0.07076177 -0.070761681 -0.38074446
0.07076177 -0.094349012 -0.3807444
0.070761614 -0.11793601 -0.38074708
0.070761614 -0.14152321 -0.38074705
0.070761614 -0.16511041 -0.38074711
0.070761457 -0.18869713 -0.38074973
0.070761457 -0.21228434 -0.38074973
0.070761457 -0.23587146 -0.38074976
0.070761301 -0.25945809 -0.38075238
0.070761301 -0.28304514 -0.38075238
0.070761301 -0.30663228 -0.38075235
0.070761144 -0.33021861 -0.38075498
0.070761144 -0.35380566 -0.38075498
0.070761144 -0.37739271 -0.38075501
0.070760988 -0.40097889 -0.3807576
0.070760988 -0.42456582 -0.38075763
0.070760988 -0.44815284 -0.3807576
0.070760824 -0.47173879 -0.38076031
0.15507273 1.0467409 0.37830174
0.15030028 0.97695184 0.31864613
0.14581229 0.91132689 0.26254633
0.14158505 0.84951031 0.20970571
0.13759553 0.79117441 0.15983701
0.13382514 0.73603821 0.11270681
0.13025543 0.68384111 0.068085641
0.12687162 0.63435805 0.02578795
0.1236588 0.58737934 -0.014372289
0.12060502 0.5427227 -0.05254449
0.11769811 0.50021696 -0.088880911
0.11492835 0.45971346 -0.12350303
0.11228564 0.42107114 -0.15653688
0.10976202 0.38416705 -0.18808205
0.10734908 0.34888452 -0.21824379
0.10504021 0.31512061 -0.24710482
0.10282831 0.28277788 -0.27475351
0.10070787 0.25176966 -0.30125883
0.098672904 0.22201413 -0.32669598
0.096718773 0.19343756 -0.35112274
0.094840318 0.16597056 -0.37460342
0.093033642 0.13955046 -0.39718682
0.092866257 0.11608286 -0.39927912
0.092866257 0.092866331 -0.39927906
0.092866257 0.069649711 -0.39927909
0.092866056 0.046433076 -0.39928162
0.092866056 0.023216516 -0.39928168
0.092866056 2.9802322e-08 -0.39928168
0.092865855 -0.023216426 -0.39928418
0.092865855 -0.046432957 -0.39928418
0.092865855 -0.069649309 -0.39928418
0.092865646 -0.092865571 -0.39928675
0.092865646 -0.11608201 -0.39928669
0.092865646 -0.1392985 -0.39928675
0.092865445 -0.16251443 -0.39928931
0.092865445 -0.18573079 -0.39928931
0.092865445 -0.20894718 -0.39928931
0.092865236 -0.23216309 -0.39929184
0.092865236 -0.25537935 -0.39929184
0.092865236 -0.27859569 -0.39929187
0.092865035 -0.30181131 -0.39929441
0.092865035 -0.32502756 -0.39929444
0.092865035 -0.34824383 -0.39929444
0.092864834 -0.37145925 -0.39929697
0.092864834 -0.39467552 -0.39929691
0.092864834 -0.41789177 -0.39929694
0.092864625 -0.44110692 -0.39929947
0.092864625 -0.46432304 -0.3992995
0.19727468 1.0258285 0.41263968
0.19109857 0.95549297 0.35087845
0.18529809 0.88943076 0.29287347
0.17983873 0.82725823 0.23827991
0.17469245 0.76864684 0.18681705
0.16983195 0.71329415 0.13821211
0.16523512 0.66094041 0.092243701
0.16088007 0.61134434 0.048693478
0.15674919 0.56429708 0.007384479
0.15282467 0.51960391 -0.03186059
0.1490923 0.47709543 -0.069184348
0.14553748 0.43661246 -0.10473251
0.14214861 0.39801615 -0.13862117
0.13891362 0.36117542 -0.17097113
0.13582294 0.32597503 -0.20187809
0.13286644 0.29230627 -0.23144285
0.13003625 0.2600725 -0.25974482
0.12732381 0.22918282 -0.28686935
0.1247225 0.19955605 -0.31288236
0.12222508 0.1711151 -0.33785659
0.11982598 0.14379117 -0.36184758
0.11751899 0.11751904 -0.3849175
0.11529941 0.092239574 -0.40711325
0.11428598 0.068571597 -0.41724753
0.11428598 0.045714468 -0.41724756
0.11428598 0.022857234 -0.41724759
0.11428573 2.9802322e-08 -0.41725004
0.11428573 -0.0228571 -0.41725007
0.11428573 -0.045714244 -0.4172501
0.11428548 -0.06857124 -0.4172526
0.11428548 -0.091428295 -0.41725251
0.11428548 -0.11428538 -0.41725257
0.11428524 -0.13714226 -0.41725498
0.11428524 -0.15999928 -0.41725504
0.11428524 -0.18285632 -0.41725495
0.11428499 -0.205713 -0.41725746
0.11428499 -0.22856995 -0.41725746
0.11428499 -0.25142691 -0.41725746
0.11428475 -0.27428338 -0.41725993
0.11428475 -0.2971403 -0.4172599
0.11428475 -0.31999719 -0.41725999
0.11428449 -0.34285346 -0.41726238
0.11428449 -0.36571035 -0.41726246
0.11428449 -0.38856721 -0.41726238
0.11428424 -0.41142321 -0.41726488
0.11428424 -0.43428016 -0.41726485
0.11428424 -0.45713699 -0.41726488
0.24099788 1.0041578 0.44820818
0.23332205 0.93328834 0.38424322
0.22611929 0.86679065 0.32422012
0.21934868 0.80427861 0.26779839
0.21297103 0.74539864 0.21465123
0.20695443 0.68984812 0.1645129
0.20126779 0.63734806 0.11712435
0.19588593 0.58765793 0.072275519
0.19078383 0.54055411 0.029757738
0.18594128 0.49584344 -0.010596618
0.18133798 0.45334494 -0.048957586
0.17695758 0.41290095 -0.085460931
0.17278333 0.3743639 -0.12024622
0.16880195 0.3376039 -0.15342444
0.16499949 0.30249906 -0.18511167
0.16136496 0.26894158 -0.21539938
0.15788671 0.2368301 -0.24438474
0.15455563 0.20607412 -0.27214387
0.15136182 0.17658888 -0.29875875
0.1482977 0.1482977 -0.32429314
0.14535485 0.12112907 -0.34881696
0.14252684 0.09501797 -0.37238377
0.13980646 0.06990324 -0.3950536
0.13718827 0.045729518 -0.41687173
0.1350527 0.02250883 -0.43466824
0.1350527 4.4703484e-08 -0.43466833
0.1350527 -0.022508726 -0.43466824
0.1350524 -0.045017436 -0.43467063
0.1350524 -0.067526117 -0.43467063
0.1350524 -0.090034947 -0.43467069
0.13505211 -0.1125434 -0.43467301
0.13505211 -0.13505208 -0.43467307
0.13505211 -0.15756077 -0.43467307
0.13505183 -0.18006909 -0.43467546
0.13505183 -0.2025777 -0.43467546
0.13505183 -0.2250863 -0.43467548
0.13505155 -0.24759442 -0.4346779
0.13505155 -0.27010301 -0.4346779
0.13505155 -0.29261163 -0.43467787
0.13505125 -0.31511953 -0.43468028
0.13505125 -0.33762807 -0.43468028
0.13505125 -0.3601366 -0.43468028
0.13505125 -0.38264516 -0.43468031
0.13505095 -0.40515286 -0.43468261
0.13505095 -0.4276613 -0.43468267
0.28632778 0.98169518 0.48509097
0.2770451 0.91029108 0.41878626
0.2683464 0.84337437 0.35665259
0.26017639 0.78052914 0.29829532
0.25249001 0.72140002 0.24339277
0.24524397 0.66566217 0.19163522
0.23840299 0.61303627 0.1427711
0.23193255 0.56326485 0.096553817
0.22580478 0.5161252 0.052783877
0.2199918 0.47141108 0.011262685
0.21447124 0.42894247 -0.028170004
0.20922035 0.38855207 -0.065676272
0.204221 0.35009322 -0.10138585
0.19945447 0.31342852 -0.1354326
0.19490588 0.27843702 -0.16792253
0.19055963 0.24500522 -0.19896722
0.18640345 0.21303254 -0.22865409
0.18242426 0.18242429 -0.25707698
0.17861183 0.15309593 -0.28430855
0.17495507 0.12496793 -0.3104282
0.17144544 0.097968839 -0.33549705
0.16807346 0.072031543 -0.35958254
0.16483195 0.047094911 -0.38273624
0.16171274 0.023101836 -0.4050163
0.15870973 2.9802322e-08 -0.42646646
0.15581588 -0.022259414 -0.44713664
0.15519582 -0.044341683 -0.45156586
0.15519582 -0.066512451 -0.45156586
0.15519549 -0.088683069 -0.45156816
0.15519549 -0.11085387 -0.45156819
0.15519549 -0.1330246 -0.45156819
0.15519516 -0.15519519 -0.45157051
0.15519516 -0.17736588 -0.45157054
0.15519516 -0.19953656 -0.45157051
0.15519483 -0.22170687 -0.45157287
0.15519483 -0.24387753 -0.45157287
0.15519483 -0.26604825 -0.45157278
0.15519451 -0.28821832 -0.45157513
0.15519451 -0.31038901 -0.45157516
0.15519451 -0.33255965 -0.45157513
0.15519451 -0.35473025 -0.45157513
0.15519418 -0.37690011 -0.45157751
0.15519418 -0.39907074 -0.45157745
0.15519385 -0.42124039 -0.45157981
0.34513277 1.0353982 0.59697253
0.33335248 0.95838833 0.52334553
0.32235104 0.88646531 0.45458651
0.31205139 0.81913489 0.39021379
0.30239061 0.75597662 0.3298341
0.29330906 0.69660914 0.27307433
0.28475803 0.64070559 0.2196303
0.27669057 0.5879674 0.1692086
0.26906848 0.53813702 0.12157068
0.26185426 0.49097678 0.07648176
0.25501755 0.44628078 0.033752397
0.24852803 0.40385813 -0.0068071485
0.24236131 0.36354193 -0.045349211
0.23649253 0.32517725 -0.082029
0.23090188 0.28862739 -0.11697058
0.22556888 0.25376496 -0.15030196
0.22047719 0.22047721 -0.18212487
0.21560977 0.18865858 -0.21254626
0.21095315 0.15821496 -0.24165012
0.20649292 0.12905812 -0.2695266
0.20221786 0.10110898 -0.29624572
0.19811577 0.074293509 -0.3218838
0.19417724 0.048544347 -0.34649956
0.19039182 0.023799017 -0.37015849
0.18675159 1.4901161e-08 -0.39290988
0.18324754 -0.022905886 -0.41481018
0.17987296 -0.044968188 -0.43590131
0.17662005 -0.066232517 -0.45623207
0.17474301 -0.087371439 -0.46796352
0.17474301 -0.10921432 -0.46796355
0.17474265 -0.13105699 -0.46796572
0.17474265 -0.15289973 -0.46796581
0.17474265 -0.17474258 -0.46796581
0.17474228 -0.19658501 -0.46796802
0.17474228 -0.21842778 -0.46796808
0.17474228 -0.24027061 -0.46796802
0.17474192 -0.26211286 -0.46797034
0.17474192 -0.28395557 -0.46797031
0.17474192 -0.30579829 -0.46797037
0.17474192 -0.3276411 -0.46797022
0.17474157 -0.34948313 -0.46797258
0.17474157 -0.37132579 -0.46797258
0.17474121 -0.39316761 -0.46797484
0.17474121 -0.41501036 -0.46797475
0.395942 1.0118519 0.63957065
0.38217139 0.93419671 0.56306696
0.36932498 0.86175835 0.49169815
0.35731551 0.79403436 0.42497858
0.34606117 0.73057353 0.36245465
0.33549535 0.67099071 0.30375564
0.32555449 0.61493623 0.24852856
0.31618679 0.56210983 0.19648594
0.30734217 0.51223695 0.14734907
0.29897979 0.46507978 0.10089165
0.29105955 0.42041945 0.056890324
0.28354898 0.37806532 0.015164778
0.27641547 0.33784118 -0.024465978
0.26963279 0.29959205 -0.062147327
0.2631743 0.26317433 -0.09802781
0.25701869 0.22846101 -0.13222581
0.25114375 0.19533406 -0.16486415
0.24553207 0.16368806 -0.19604039
0.24016505 0.13342512 -0.22585705
0.23502824 0.10445702 -0.25439486
0.230106 0.076702081 -0.28174064
0.22538625 0.050085858 -0.30796155
0.22085568 0.02453956 -0.33313119
0.2165042 2.9802322e-08 -0.35730621
0.21232037 -0.023591071 -0.38054961
0.20829566 -0.046287909 -0.40290922
0.20442025 -0.068140075 -0.42443931
0.20068681 -0.089194074 -0.44518059
0.1970869 -0.10949269 -0.46517998
0.19372034 -0.12914687 -0.4838832
0.19372034 -0.15067141 -0.48388314
0.19371995 -0.17219551 -0.48388538
0.19371995 -0.19371989 -0.48388538
0.19371995 -0.21524435 -0.48388535
0.19371957 -0.23676831 -0.48388752
0.19371957 -0.25829273 -0.48388758
0.19371957 -0.2798171 -0.48388755
0.19371957 -0.30134147 -0.48388758
0.19371918 -0.32286525 -0.48388976
0.19371918 -0.34438959 -0.48388973
0.19371918 -0.36591393 -0.48388976
0.19371878 -0.38743746 -0.48389196
0.19371878 -0.40896183 -0.4838919
0.44880036 0.98736066 0.68389434
0.43288618 0.90906096 0.60432363
0.41806364 0.83612734 0.53021091
0.40422106 0.76802003 0.46099779
0.39126718 0.70428097 0.39622855
0.37911645 0.64449805 0.33547485
0.36769891 0.58831835 0.27838719
0.35694778 0.53542161 0.22463147
0.34680864 0.48553219 0.17393593
0.33722854 0.43839717 0.12603527
0.32816446 0.39379731 0.080714926
0.31957394 0.35153136 0.037762344
0.31142259 0.31142265 -0.0029942691
0.30367589 0.27330828 -0.041727923
0.29630607 0.23704487 -0.078576989
0.28928468 0.2024993 -0.11368397
0.28258911 0.16955353 -0.14716186
0.27619573 0.13809788 -0.17912863
0.27008596 0.1080344 -0.20967759
0.26424 0.079271995 -0.23890743
0.25864235 0.051728502 -0.26689571
0.25327635 0.025327668 -0.29372567
0.24812904 2.9802322e-08 -0.31946215
0.24318624 -0.024318591 -0.34417611
0.23843704 -0.047687382 -0.36792216
0.23386928 -0.070160761 -0.39076096
0.22947372 -0.091789499 -0.41273868
0.22523989 -0.11261988 -0.4339079
0.22115991 -0.13269591 -0.45430779
0.21722464 -0.1520572 -0.47398409
0.21342742 -0.17074189 -0.4929702
0.21215241 -0.19093709 -0.49934542
0.21215197 -0.21215193 -0.49934745
0.21215197 -0.23336712 -0.49934745
0.21215197 -0.25458232 -0.49934751
0.21215197 -0.27579755 -0.49934748
0.21215153 -0.29701209 -0.49934959
0.21215153 -0.31822726 -0.49934959
0.21215111 -0.33944178 -0.49935177
0.21215111 -0.36065686 -0.49935177
0.21215111 -0.38187197 -0.49935174
0.52346814 1.0469363 0.81929332
0.50383055 0.96185833 0.73003143
0.48561302 0.88293284 0.64722461
0.46866506 0.80951238 0.5701884
0.45286196 0.74104697 0.49835634
0.43808821 0.67704535 0.43120259
0.42424941 0.61708999 0.36829913
0.41125679 0.56080478 0.30924159
0.3990376 0.50786602 0.25369996
0.38752234 0.45798099 0.20135783
0.37665424 0.41089553 0.15195735
0.36637795 0.36637801 0.10524687
0.35664859 0.3242259 0.061022565
0.34742159 0.2842541 0.019081607
0.33866093 0.24629885 -0.020739585
0.33033028 0.2102102 -0.058606029
0.32240057 0.17585494 -0.094650283
0.31484178 0.14310995 -0.12900834
0.30763012 0.11186557 -0.16178863
0.30074066 0.082020283 -0.19310433
0.29415378 0.053482585 -0.22304481
0.2878485 0.026168101 -0.25170511
0.28180858 4.4703484e-08 -0.27915922
0.27601624 -0.025092289 -0.30548805
0.27045786 -0.049174055 -0.33075342
0.26511833 -0.072304979 -0.35502404
0.2599861 -0.094540372 -0.37835231
0.2550483 -0.11593103 -0.40079698
0.25029504 -0.13652451 -0.42240253
0.24571523 -0.15636417 -0.44321996
0.24130051 -0.17549124 -0.46328691
0.23704112 -0.19394267 -0.48264769
0.23292997 -0.21175449 -0.50133467
0.23006231 -0.23006231 -0.51436955
0.23006231 -0.25097704 -0.51436955
0.23006186 -0.27189124 -0.51437163
0.23006186 -0.29280603 -0.51437163
0.2300614 -0.31371999 -0.51437366
0.2300614 -0.33463472 -0.51437372
0.2300614 -0.3555494 -0.51437372
0.2300614 -0.37646407 -0.51437372
0.58352375 1.0211664 0.87124145
0.56117356 0.93528926 0.77811563
0.54047 0.8557443 0.69185108
0.5212419 0.78186291 0.61173403
0.50333297 0.71305501 0.53711325
0.48661563 0.64882082 0.46745771
0.47097129 0.58871424 0.40227324
0.45630327 0.53235376 0.34115601
0.44251966 0.47939637 0.28372455
0.42954585 0.42954588 0.22966707
0.4173097 0.38253394 0.17868315
0.40575269 0.33812723 0.13052896
0.39481735 0.29611301 0.084964983
0.38445711 0.25630474 0.041797325
0.37462559 0.21853158 0.00083260238
0.36528543 0.18264274 -0.038084812
0.35639864 0.14849943 -0.075113066
0.34793496 0.11597838 -0.11037837
0.33986303 0.084965795 -0.14401144
0.332158 0.055359714 -0.17611578
0.32479376 0.027066156 -0.20680004
0.31774977 2.9802322e-08 -0.23614995
0.31100404 -0.025916941 -0.26425701
0.30453956 -0.050756589 -0.29119256
0.29833761 -0.074584402 -0.31703395
0.29238391 -0.097461328 -0.34184104
0.28666255 -0.11944268 -0.36568001
0.28116143 -0.14058065 -0.38860145
0.27586684 -0.16092232 -0.4106622
0.27076858 -0.18051237 -0.43190494
0.26585475 -0.19939101 -0.4523792
0.26111665 -0.21759719 -0.47212133
0.25654396 -0.23516524 -0.49117419
0.25212917 -0.25212914 -0.50956911
0.24786326 -0.26851848 -0.52734375
0.24747148 -0.2887167 -0.52897608
0.24747148 -0.30933928 -0.52897608
0.24747148 -0.32996202 -0.52897614
0.24747148 -0.35058454 -0.52897614
0.24747102 -0.37120649 -0.52897811
0.64626014 0.99424636 0.92550868
0.62097335 0.9075765 0.82825178
0.59759092 0.82743359 0.73831916
0.57590783 0.75311029 0.65492278
0.55574316 0.68399161 0.57736647
0.53694075 0.61954719 0.50504947
0.51937091 0.5593226 0.43747321
0.5029127 0.50291264 0.37417218
0.4874672 0.44996974 0.31476641
0.47294056 0.40018052 0.25889483
0.45925617 0.35327396 0.20626251
0.44633999 0.30900458 0.15658492
0.43413183 0.26715809 0.10963033
0.42257237 0.22753903 0.065171115
0.41161379 0.18997559 0.023022637
0.40120804 0.15431085 -0.016999453
0.39131656 0.12040514 -0.055043574
0.38190004 0.088130862 -0.091261014
0.37292707 0.057373438 -0.12577255
0.36436507 0.028028056 -0.1587033
0.35618833 -4.4703484e-08 -0.19015223
0.34836966 -0.026797608 -0.2202241
0.3408877 -0.052444234 -0.2490008
0.33371958 -0.077012189 -0.27657062
0.32684743 -0.1005684 -0.30300176
0.32025191 -0.12317382 -0.32836926
0.31391802 -0.14488518 -0.35273042
0.30782908 -0.16575414 -0.3761493
0.30197257 -0.18582921 -0.39867443
0.29633409 -0.20515433 -0.42036083
0.29090291 -0.22377144 -0.44125
0.28566664 -0.2417179 -0.46138948
0.28061613 -0.25903028 -0.48081455
0.27574056 -0.27574053 -0.49956673
0.27103204 -0.29188058 -0.51767647
0.2664811 -0.3074781 -0.53518003
0.26440206 -0.32541788 -0.54317635
0.26440156 -0.34575588 -0.54317832
0.26440156 -0.36609444 -0.54317832
0.71185762 0.96609253 0.98224127
0.683397 0.87865323 0.88059616
0.65712166 0.79793346 0.7867558
0.63279474 0.72319388 0.69987381
0.61020219 0.65378797 0.6191861
0.58916962 0.5891695 0.54406965
0.56953639 0.52885532 0.47395134
0.5511716 0.47243291 0.4083626
0.53395218 0.41953403 0.34686476
0.51777792 0.3698414 0.28909951
0.50255305 0.32306984 0.23472485
0.48819953 0.27897125 0.18346237
0.47464162 0.23732087 0.13504134
0.46181786 0.19792202 0.089242116
0.44966748 0.16059554 0.045847822
0.43814129 0.12518322 0.0046830662
0.42719004 0.091540754 -0.034428664
0.41677406 0.059539225 -0.071628533
0.40685281 0.029060885 -0.10706168
0.39739397 2.2351742e-08 -0.14084315
0.38836393 -0.027740188 -0.17309329
0.37973613 -0.05424796 -0.20390682
0.37148243 -0.079603277 -0.23338433
0.36358079 -0.10388016 -0.26160455
0.35600743 -0.1271455 -0.28865224
0.34874395 -0.14946166 -0.31459329
0.34177014 -0.170885 -0.33949971
0.33507052 -0.19146885 -0.36342683
0.32862779 -0.21126069 -0.38643658
0.32242888 -0.2303063 -0.40857562
0.31645882 -0.24864611 -0.42989734
0.31070647 -0.26631969 -0.45044148
0.30515885 -0.2833617 -0.47025436
0.29980648 -0.29980642 -0.48936993
0.29463804 -0.31568354 -0.50782859
0.28964537 -0.33102331 -0.52565962
0.2848185 -0.34585103 -0.54289836
0.78051567 0.9366188 1.0416116
0.74861103 0.84842581 0.9352628
0.71920907 0.76715636 0.83725613
0.69203234 0.6920324 0.74666715
0.66683185 0.62237656 0.66266567
0.6434049 0.55761766 0.58457565
0.62156564 0.49725255 0.51177824
0.60116267 0.44085261 0.4437682
0.58205444 0.38803622 0.38007393
0.56412548 0.33847523 0.32031074
0.54726613 0.29187527 0.2641131
0.53138709 0.24798062 0.2111828
0.51640183 0.20656072 0.16123199
0.50224012 0.16741344 0.11402634
0.48883292 0.13035546 0.069335841
0.47612438 0.095224872 0.026973873
0.46405852 0.061874446 -0.013245733
0.45259035 0.030172747 -0.05147282
0.44167411 7.4505806e-08 -0.087860286
0.43127325 -0.0287515 -0.12252991
0.42134982 -0.056179937 -0.15560785
0.41187391 -0.082374766 -0.18719436
0.40281376 -0.10741697 -0.21739484
0.39414462 -0.13138151 -0.24629191
0.38583985 -0.1543359 -0.27397457
0.3778787 -0.17634337 -0.30051157
0.3702386 -0.19746058 -0.32597867
0.36290213 -0.21774121 -0.35043365
0.35584998 -0.23723324 -0.37394077
0.34906745 -0.25598273 -0.3965492
0.34253788 -0.27403024 -0.41831437
0.33624884 -0.29141563 -0.43927789
0.33018589 -0.30817342 -0.45948774
0.32433835 -0.32433829 -0.47897956
0.3186937 -0.33993989 -0.49779505
0.31324276 -0.35500842 -0.51596475
0.81680948 0.81680948 0.9924221
0.78402716 0.73502547 0.88997769
0.75377482 0.65955299 0.79543895
0.7257672 0.5896858 0.70791507
0.69976926 0.524827 0.62667173
0.67556679 0.46445215 0.55103886
0.65298504 0.40811563 0.48047072
0.63186169 0.35542217 0.41446036
0.61206436 0.30603218 0.35259381
0.59346789 0.25964218 0.29447973
0.57597005 0.21598873 0.23979913
0.55947262 0.17483529 0.18824466
0.54389572 0.13597399 0.13956679
0.52916104 0.099217705 0.093520954
0.51520526 0.064400725 0.049909048
0.50196522 0.03137286 0.0085338205
0.48938999 4.2840838e-08 -0.030763652
0.47742808 -0.02983918 -0.068144672
0.46603829 -0.058254726 -0.1037378
0.45517799 -0.085345849 -0.13767597
0.44481358 -0.11120339 -0.170065
0.43490949 -0.13590914 -0.20101513
0.42543796 -0.15953918 -0.23061387
0.41636908 -0.18216142 -0.25895399
0.4076798 -0.20383981 -0.28610796
0.39934483 -0.22463144 -0.31215477
0.39134476 -0.24459042 -0.33715501
0.38365802 -0.26376483 -0.36117601
0.3762683 -0.28220117 -0.38426888
0.36915705 -0.29994011 -0.40649155
0.36231038 -0.31702155 -0.42788735
0.35571232 -0.33348027 -0.44850633
0.34935102 -0.34935096 -0.46838546
0.85176033 0.70144975 0.94507015
0.81818086 0.62566775 0.8463068
0.78715199 0.55563682 0.75504559
0.75838739 0.49072129 0.67044383
0.73165393 0.43038481 0.59181601
0.70673829 0.37415564 0.51853466
0.68346632 0.32163131 0.4500877
0.66167563 0.27245468 0.38599744
0.64123386 0.22631782 0.32587457
0.62201512 0.18294561 0.26934877
0.60391688 0.14209804 0.21611868
0.58684015 0.10356 0.16589303
0.57070434 0.067141749 0.11843495
0.55543053 0.032672357 0.073511839
0.54095453 3.3527613e-08 0.030935366
0.52721238 -0.031012572 -0.0094826734
0.51415259 -0.060488444 -0.047893751
0.50172281 -0.088539295 -0.084451981
0.48988119 -0.1152662 -0.11928035
0.47858432 -0.14076002 -0.15250641
0.46779799 -0.16510506 -0.184231
0.45748708 -0.18837696 -0.21455708
0.44761986 -0.2106446 -0.24357836
0.43817034 -0.23197252 -0.2713711
0.4291105 -0.25241792 -0.29801765
0.42041871 -0.27203557 -0.32358173
0.41207111 -0.29087368 -0.34813356
0.40404946 -0.30897895 -0.37172669
0.39633325 -0.32639208 -0.39442134
0.38890707 -0.3431533 -0.41626298
0.88543403 0.59028941 0.89943153
0.85114199 0.52014226 0.80417591
0.81940359 0.45522422 0.71601385
0.78995049 0.39497533 0.6341995
0.76253814 0.33890581 0.55805415
0.73696738 0.28659841 0.48702422
0.71305329 0.23768452 0.42059618
0.6906448 0.19184583 0.35835043
0.66959959 0.1487999 0.29989147
0.64980119 0.10830031 0.24489592
0.63113785 0.070126452 0.19305331
0.61351866 0.034084402 0.14411116
0.59685463 1.4901161e-08 0.09782204
0.58107358 -0.032281779 0.053985961
0.56610399 -0.062900394 0.012403568
0.55188787 -0.091981359 -0.02708558
0.53836668 -0.11963694 -0.06464427
0.52549368 -0.14597037 -0.10040274
0.51322055 -0.17107348 -0.13449478
0.50150889 -0.1950312 -0.16702701
0.49031863 -0.21791941 -0.19811115
0.47961801 -0.23980893 -0.22783506
0.46937451 -0.26076362 -0.25628924
0.45955828 -0.28084117 -0.28355655
0.4501453 -0.30009678 -0.30970374
0.44110915 -0.31857878 -0.33480412
0.43242961 -0.33633417 -0.35891387
0.42408413 -0.35340351 -0.38209581
0.91790688 0.48310894 0.85543704
0.88296509 0.41824669 0.76348484
0.85058951 0.35814294 0.67828602
0.82050091 0.30228984 0.59910554
0.79247135 0.25025406 0.5253436
0.76629072 0.20165542 0.45644712
0.74178731 0.15616578 0.39196452
0.71879989 0.11349474 0.33147126
0.69719678 0.073389284 0.27462098
0.67685205 0.035623893 0.22108209
0.65766311 2.9802322e-08 0.17058504
0.63953018 -0.033659454 0.12286682
0.62237227 -0.065512747 0.077714428
0.60610908 -0.095701404 0.034916662
0.59067601 -0.1243528 -0.0056966953
0.57600766 -0.15158084 -0.044297665
0.56205177 -0.17748998 -0.081023678
0.54875463 -0.20217274 -0.11601612
0.53607363 -0.2257151 -0.1493874
0.52396399 -0.24819341 -0.18125468
0.51239073 -0.26967937 -0.21171066
0.50131643 -0.29023576 -0.24085361
0.4907119 -0.30992323 -0.2687602
0.48054555 -0.32879427 -0.29551372
0.47079301 -0.34690008 -0.32117832
0.94923419 0.37969363 0.81297809
0.91371518 0.31980032 0.72418058
0.88075471 0.26422644 0.64177942
0.85009289 0.21252319 0.56512493
0.82149088 0.16429827 0.49362001
0.79475397 0.11921316 0.42677742
0.76969975 0.076970071 0.364142
0.74617952 0.037309036 0.30534151
0.72405165 2.9802322e-08 0.2500217
0.7032007 -0.035159953 0.19789439
0.68351483 -0.068351381 0.14867979
0.66490328 -0.099735461 0.10215077
0.6472764 -0.12945521 0.058083691
0.63056189 -0.15764046 0.016297266
0.61468709 -0.18440616 -0.023389742
0.59959364 -0.20985767 -0.061123334
0.58522207 -0.23408879 -0.097052179
0.5715248 -0.25718614 -0.13129529
0.55845261 -0.2792263 -0.16397575
0.54596645 -0.30028155 -0.19519114
0.53402507 -0.32041505 -0.22504464
0.52259618 -0.33968741 -0.25361693
1.0183878 0.33946264 0.86462569
0.9794836 0.27985251 0.77199638
0.94343823 0.22462825 0.68617427
0.90995556 0.17332487 0.60645354
0.87876451 0.12553787 0.53218895
0.84964412 0.080918536 0.46285483
0.82238871 0.039161384 0.39796114
0.79683053 4.4703484e-08 0.33710819
0.77281034 -0.036800362 0.27991724
0.75019842 -0.071447454 0.22607945
0.7288698 -0.10412422 0.17529693
0.70872265 -0.13499476 0.1273275
0.68965715 -0.16420399 0.081933498
