# .PCD v0.7 - Point Cloud Data file format
VERSION 0.7
FIELDS x y z
SIZE 4 4 4
TYPE F F F
COUNT 1 1 1
WIDTH 1376
HEIGHT 1
VIEWPOINT 0 0 0 1 0 0 0
POINTS 1376
DATA ascii
-1.1223608 0.24399146 0.87980723
-1.1223608 0.1951932 0.87980723
-1.1223556 0.14639419 0.87979615
-1.1223503 0.097595692 0.87978482
-1.1223452 0.048797637 0.8797735
-1.1223401 5.9604645e-08 0.87976235
-1.1223401 -0.048797309 0.87976223
-1.1223348 -0.097594202 0.87975103
-1.1223296 -0.14639074 0.87973976
-1.1223245 -0.19518697 0.87972844
-1.1223193 -0.24398243 0.87971723
-1.1223193 -0.29277894 0.87971717
-0.9971168 0.54388195 0.7060672
-0.99711245 0.49855629 0.70605731
-0.99710822 0.4532311 0.70604765
-0.99710393 0.40790623 0.706038
-0.9970997 0.36258176 0.70602828
-0.9970997 0.31725907 0.70602828
-0.99709541 0.27193516 0.70601845
-0.99709117 0.22661172 0.70600879
-0.99708682 0.18128859 0.70599914
-0.99708682 0.13596648 0.70599908
-0.99708259 0.090643913 0.70598936
-0.9970783 0.045321673 0.70597965
-0.99707401 -2.9802322e-08 0.70596999
-0.99707401 -0.045321524 0.70597005
-0.99706978 -0.090642661 0.70596039
-0.99706542 -0.13596344 0.7059505
-0.99706119 -0.1812838 0.70594096
-0.9970569 -0.22660381 0.70593107
-0.9970569 -0.27192456 0.70593107
-0.99705267 -0.31724399 0.70592135
-0.99704838 -0.36256313 0.70591164
-0.99704415 -0.40788156 0.70590192
-0.99704415 -0.45320177 0.70590186
-0.99703979 -0.49851993 0.70589232
-0.9970355 -0.54383761 0.70588255
-0.88851309 0.71927255 0.55540007
-0.88851309 0.67696238 0.55540007
-0.88850951 0.63464952 0.55539137
-0.88850594 0.59233737 0.55538297
-0.88850242 0.55002546 0.55537462
-0.88850242 0.5077157 0.55537462
-0.88849884 0.46540418 0.55536622
-0.88849533 0.42309305 0.55535758
-0.88849181 0.38078219 0.55534917
-0.88848823 0.33847171 0.55534077
-0.88848823 0.29616275 0.55534077
-0.88848466 0.25385278 0.55533224
-0.88848108 0.21154311 0.55532372
-0.8884775 0.1692338 0.55531526
-0.88847393 0.12692487 0.55530685
-0.88847393 0.084616572 0.55530685
-0.88847041 0.042308241 0.55529839
-0.88846684 5.9604645e-08 0.5552898
-0.88846326 -0.042307794 0.5552814
-0.88846326 -0.084615469 0.55528134
-0.8884598 -0.12692283 0.55527294
-0.88845623 -0.16922975 0.55526453
-0.88845265 -0.21153641 0.55525601
-0.88845265 -0.25384361 0.55525601
-0.88844907 -0.29614955 0.55524755
-0.8884455 -0.33845538 0.55523914
-0.88844192 -0.38076079 0.55523068
-0.88843834 -0.42306581 0.55522221
-0.88843834 -0.46537241 0.55522215
-0.88843483 -0.5076769 0.55521363
-0.88843125 -0.54998118 0.55520517
-0.88842779 -0.59228504 0.55519676
-0.88842779 -0.63459134 0.55519676
-0.88842422 -0.67689455 0.5551883
-0.88842064 -0.71919751 0.55517977
-0.79345316 0.87279844 0.42352554
-0.79345316 0.83312583 0.42352566
-0.79345024 0.79345024 0.42351818
-0.79344726 0.75377482 0.42351061
-0.79344428 0.71409988 0.42350328
-0.79344124 0.67442507 0.4234958
-0.79344124 0.63475299 0.42349583
-0.79343832 0.59507871 0.42348841
-0.79343534 0.55540472 0.42348099
-0.79343235 0.51573104 0.42347345
-0.79342932 0.47605765 0.42346606
-0.79342932 0.43638617 0.42346609
-0.79342639 0.3967132 0.42345858
-0.79342341 0.35704061 0.42345122
-0.79342043 0.31736812 0.42344365
-0.79342043 0.27769721 0.42344379
-0.79341751 0.23802528 0.42343616
-0.79341447 0.19835368 0.42342892
-0.79341149 0.15868244 0.42342138
-0.79340851 0.11901128 0.42341387
-0.79340851 0.079340905 0.4234139
-0.79340559 0.039670318 0.42340654
-0.79340255 7.4505806e-08 0.42339909
-0.79339957 -0.039669991 0.42339158
-0.79339957 -0.079339936 0.42339158
-0.79339659 -0.11900951 0.42338413
-0.79339367 -0.15867871 0.42337668
-0.79339063 -0.19834752 0.42336923
-0.79339063 -0.23801723 0.42336932
-0.79338765 -0.2776857 0.42336187
-0.79338473 -0.3173539 0.42335436
-0.79338175 -0.35702178 0.42334703
-0.79337871 -0.3966893 0.4233394
-0.79337871 -0.43635824 0.42333946
-0.79337573 -0.47602534 0.42333195
-0.79337281 -0.51569223 0.42332453
-0.79336983 -0.55535889 0.42331713
-0.79336983 -0.59502721 0.42331713
-0.79336679 -0.63469332 0.42330968
-0.79336381 -0.67435926 0.42330223
-0.79336089 -0.71402484 0.4232949
-0.79335791 -0.75369 0.42328742
-0.79335791 -0.79335791 0.42328742
-0.79335487 -0.83302253 0.42327976
-0.79335195 -0.8726871 0.42327255
-0.70954937 1.0083071 0.30712786
-0.70954686 0.97095883 0.30712113
-0.70954686 0.93361437 0.30712119
-0.7095443 0.89626646 0.30711454
-0.70954186 0.85891914 0.30710807
-0.70953935 0.82157183 0.3071014
-0.70953679 0.78422487 0.30709478
-0.70953679 0.74688089 0.30709481
-0.70953435 0.70953441 0.30708826
-0.70953178 0.67218804 0.30708158
-0.70952934 0.63484204 0.30707508
-0.70952934 0.59749842 0.30707499
-0.70952678 0.56015277 0.30706847
-0.70952427 0.52280736 0.30706176
-0.70952183 0.48546231 0.30705518
-0.70951927 0.44811735 0.30704856
-0.70951927 0.41077429 0.30704862
-0.70951676 0.37342986 0.307042
-0.70951426 0.33608574 0.30703548
-0.70951176 0.29874188 0.30702883
-0.70950925 0.2613982 0.30702233
-0.70950925 0.22405556 0.30702221
-0.70950675 0.18671231 0.30701569
-0.70950425 0.14936942 0.30700898
-0.70950174 0.11202666 0.30700248
-0.70950174 0.074684381 0.30700237
-0.70949924 0.037342131 0.30699593
-0.70949668 -0 0.30698919
-0.70949423 -0.037341818 0.3069827
-0.70949423 -0.074683517 0.3069827
-0.70949173 -0.11202491 0.30697614
-0.70948917 -0.14936613 0.3069694
-0.70948672 -0.18670702 0.30696291
-0.70948416 -0.22404754 0.30695623
-0.70948416 -0.2613889 0.30695623
-0.70948166 -0.29872912 0.30694976
-0.70947921 -0.33606899 0.30694315
-0.70947665 -0.37340876 0.30693644
-0.70947665 -0.41074961 0.3069365
-0.70947415 -0.44808897 0.30692992
-0.70947164 -0.48542789 0.3069233
-0.70946914 -0.52276677 0.30691674
-0.70946664 -0.5601052 0.30691016
-0.70946664 -0.59744555 0.3069101
-0.70946413 -0.63478369 0.30690348
-0.70946163 -0.67212152 0.30689692
-0.70945913 -0.70945919 0.30689037
-0.70945913 -0.74679899 0.30689034
-0.70945662 -0.78413618 0.30688369
-0.70945406 -0.82147306 0.30687711
-0.70945162 -0.85880977 0.30687049
-0.70944911 -0.89614618 0.30686393
-0.70944911 -0.93348563 0.30686393
-0.70944655 -0.9708215 0.30685732
-0.70944411 -1.0081573 0.30685073
-0.63494444 1.0582407 0.20362723
-0.63494444 1.022966 0.2036272
-0.63494229 0.98768806 0.20362133
-0.63494021 0.95241034 0.20361543
-0.63493806 0.91713279 0.20360956
-0.63493806 0.88185847 0.2036095
-0.63493598 0.84658134 0.20360371
-0.63493389 0.81130433 0.20359775
-0.63493168 0.77602756 0.20359179
-0.6349296 0.74075127 0.20358592
-0.6349296 0.70547736 0.20358598
-0.63492751 0.67020118 0.20358013
-0.63492537 0.63492537 0.20357418
-0.63492328 0.59964979 0.20356829
-0.63492328 0.56437624 0.20356837
-0.63492113 0.52910095 0.20356238
-0.63491899 0.49382597 0.20355661
-0.6349169 0.45855117 0.20355073
-0.63491476 0.42327654 0.20354474
-0.63491476 0.38800353 0.20354486
-0.63491267 0.35272932 0.20353889
-0.63491052 0.31745535 0.20353305
-0.63490844 0.28218159 0.20352717
-0.63490844 0.24690892 0.20352712
-0.63490629 0.21163544 0.20352116
-0.63490415 0.17636234 0.20351535
-0.63490206 0.14108938 0.20350955
-0.63489991 0.10581663 0.20350359
-0.63489991 0.070544451 0.20350361
-0.63489783 0.035272196 0.20349769
-0.63489568 2.9802322e-08 0.20349169
-0.6348936 -0.035271816 0.20348589
-0.6348936 -0.070543662 0.20348592
-0.63489145 -0.10581525 0.20348005
-0.6348893 -0.1410864 0.20347413
-0.63488722 -0.17635755 0.20346822
-0.63488507 -0.2116283 0.20346242
-0.63488507 -0.24689971 0.20346239
-0.63488299 -0.28217012 0.20345645
-0.6348809 -0.31744042 0.20345059
-0.63487875 -0.3527104 0.20344475
-0.63487875 -0.38798141 0.20344466
-0.63487661 -0.42325103 0.20343886
-0.63487452 -0.45852044 0.20343298
-0.63487238 -0.49378964 0.20342712
-0.63487029 -0.52905846 0.20342116
-0.63487029 -0.56432915 0.20342125
-0.63486814 -0.59959757 0.20341523
-0.63486606 -0.63486588 0.20340931
-0.63486391 -0.67013395 0.20340347
-0.63486177 -0.7054019 0.2033975
-0.63486177 -0.74067205 0.20339766
-0.63485968 -0.77593958 0.20339176
-0.63485754 -0.81120682 0.20338583
-0.63485545 -0.84647381 0.20337996
-0.63485545 -0.88174367 0.20337993
-0.6348533 -0.91701025 0.20337406
-0.63485122 -0.95227677 0.20336822
-0.63484913 -0.98754299 0.20336229
-0.63484913 -1.0228124 0.20336232
-0.63743585 -1.062393 0.21054769
-0.61521626 1.085676 0.24935234
-0.58634222 1.0002308 0.16442844
-0.56817228 0.93581307 0.1109874
-0.56817043 0.90238833 0.11098215
-0.56817043 0.86896658 0.11098227
-0.56816864 0.8355422 0.1109769
-0.56816685 0.80211794 0.11097163
-0.56816506 0.76869392 0.1109663
-0.56816322 0.73527008 0.11096096
-0.56816322 0.70184869 0.1109609
-0.56816149 0.66842532 0.11095577
-0.5681597 0.63500202 0.11095044
-0.56815785 0.60157895 0.11094519
-0.56815785 0.56815791 0.11094521
-0.56815606 0.53473508 0.11093991
-0.56815428 0.50131261 0.11093466
-0.56815249 0.46789026 0.11092931
-0.56815249 0.43446961 0.11092938
-0.56815064 0.40104759 0.11092408
-0.56814885 0.36762577 0.11091873
-0.56814712 0.33420426 0.11091343
-0.56814528 0.30078283 0.11090819
-0.56814528 0.26736253 0.11090814
-0.56814349 0.23394147 0.11090292
-0.5681417 0.20052066 0.11089765
-0.56813991 0.16709989 0.11089233
-0.56813991 0.13368 0.11089239
-0.56813806 0.10025971 0.11088698
-0.56813627 0.06683962 0.11088172
-0.56813455 0.033419706 0.11087646
-0.5681327 4.4703484e-08 0.11087114
-0.5681327 -0.033419508 0.11087123
-0.56813091 -0.066838913 0.11086584
-0.56812912 -0.10025809 0.11086072
-0.56812733 -0.13367698 0.11085536
-0.56812733 -0.1670962 0.11085532
-0.56812549 -0.20051485 0.11085008
-0.5681237 -0.23393324 0.11084475
-0.56812197 -0.26735145 0.11083946
-0.56812018 -0.30076954 0.11083416
-0.56812018 -0.33418822 0.11083415
-0.56811833 -0.36760592 0.11082888
-0.56811655 -0.40102345 0.11082374
-0.56811476 -0.43444064 0.11081833
-0.56811291 -0.46785769 0.11081311
-0.56811291 -0.50127602 0.11081314
-0.56811112 -0.53469276 0.11080773
-0.56810933 -0.56810921 0.11080246
-0.5681076 -0.60152566 0.11079726
-0.5681076 -0.6349436 0.11079717
-0.56810576 -0.66835976 0.11079195
-0.56810397 -0.70177543 0.11078671
-0.56810218 -0.73519099 0.11078131
-0.56810218 -0.76860875 0.11078137
-0.56810033 -0.80202401 0.11077607
-0.56809855 -0.83543897 0.11077076
-0.56809676 -0.86885387 0.11076558
-0.56809503 -0.90226847 0.11076027
-0.56809503 -0.93568581 0.11076024
-0.5900045 -1.0064782 0.17519996
-0.61924309 -1.0927818 0.26119566
-0.56722355 1.0280926 0.21246615
-0.54111964 0.94695938 0.13089153
-0.51731259 0.87296504 0.056494504
-0.50806439 0.82560468 0.027593762
-0.50806284 0.79384828 0.027589142
-0.50806135 0.76209193 0.027584255
-0.50806135 0.73033816 0.027584285
-0.5080598 0.69858229 0.027579486
-0.50805831 0.66682649 0.027574778
-0.50805676 0.63507104 0.027570099
-0.50805527 0.60331559 0.027565241
-0.50805527 0.57156217 0.027565271
-0.50805372 0.53980708 0.027560472
-0.50805217 0.50805223 0.027555719
-0.50805062 0.4762975 0.027550921
-0.50805062 0.44454435 0.027550876
-0.50804907 0.41278994 0.027546093
-0.50804758 0.38103569 0.02754131
-0.50804603 0.34928173 0.027536601
-0.50804603 0.31752884 0.027536646
-0.50804454 0.2857751 0.027531907
-0.50804299 0.2540215 0.027527042
-0.5080415 0.22226819 0.027522251
-0.50803995 0.19051495 0.027517557
-0.50803995 0.15876253 0.027517512
-0.50803846 0.1270096 0.027512711
-0.50803691 0.095256969 0.027507965
-0.50803536 0.06350442 0.027503138
-0.50803536 0.031752232 0.027503204
-0.50803387 5.4016709e-08 0.027498536
-0.50803232 -0.03175202 0.027493622
-0.50803077 -0.063503772 0.0274889
-0.50802928 -0.095255435 0.0274841
-0.50802928 -0.12700719 0.027484115
-0.50802773 -0.15875868 0.027479321
-0.50802624 -0.19050977 0.027474657
-0.50802469 -0.22226074 0.027469903
-0.5080232 -0.25401157 0.027464993
-0.5080232 -0.285763 0.027465031
-0.50802165 -0.31751353 0.027460277
-0.50802016 -0.34926382 0.027455583
-0.50801861 -0.38101393 0.02745077
-0.50801861 -0.41276509 0.02745074
-0.50801706 -0.44451484 0.027445957
-0.50801551 -0.47626454 0.027441218
-0.50801396 -0.50801396 0.027436495
-0.50801247 -0.53976327 0.027431667
-0.50801247 -0.57151407 0.027431697
-0.50801092 -0.60326302 0.027426958
-0.50800943 -0.63501173 0.0274221
-0.50800788 -0.66676033 0.027417392
-0.50800788 -0.69851077 0.027417302
-0.50800639 -0.73025906 0.027412504
-0.50800484 -0.7620073 0.027407885
-0.50800335 -0.79375517 0.027403086
-0.50800335 -0.82550526 0.027402997
-0.52034199 -0.87807703 0.065961272
-0.54442984 -0.95275223 0.14123592
-0.57085806 -1.0346802 0.2238242
-0.54700929 1.0575514 0.26325709
-0.52114838 0.97281045 0.17705417
-0.4976224 0.89572036 0.098633975
-0.4761287 0.82528973 0.026988208
-0.45641482 0.7606914 -0.038724601
-0.45367056 0.72587287 -0.047872126
-0.45366928 0.6956262 -0.047876447
-0.45366797 0.66537976 -0.047880739
-0.45366666 0.63513327 -0.04788515
-0.45366666 0.60488892 -0.04788509
-0.45366541 0.57464278 -0.047889441
-0.45366409 0.54439694 -0.047893763
-0.45366278 0.51415116 -0.047898099
-0.45366278 0.48390704 -0.047898084
-0.4536615 0.4536615 -0.047902465
-0.45366019 0.42341614 -0.047906741
-0.45365888 0.39317104 -0.047911078
-0.4536576 0.36292613 -0.047915399
-0.4536576 0.33268225 -0.047915399
-0.45365629 0.3024376 -0.047919661
-0.45365497 0.27219298 -0.047924079
-0.45365372 0.2419486 -0.047928393
-0.45365372 0.21170518 -0.047928326
-0.45365238 0.18146095 -0.047932766
-0.45365107 0.15121703 -0.047937009
-0.45364982 0.12097337 -0.04794132
-0.45364851 0.090729713 -0.047945634
-0.45364851 0.060486536 -0.047945634
-0.4536472 0.030243188 -0.047950044
-0.45364591 3.3527613e-08 -0.047954313
-0.4536446 -0.030242903 -0.047958612
-0.45364329 -0.060485795 -0.047962949
-0.45364329 -0.090728588 -0.047962964
-0.45364201 -0.12097122 -0.047967367
-0.4536407 -0.15121344 -0.047971658
-0.45363939 -0.18145575 -0.047976039
-0.45363939 -0.21169829 -0.04797595
-0.45363814 -0.24194026 -0.047980301
-0.45363683 -0.27218205 -0.047984645
-0.45363551 -0.30242363 -0.047988921
-0.45363423 -0.33266503 -0.047993362
-0.45363423 -0.36290735 -0.047993228
-0.45363292 -0.39314845 -0.047997624
-0.45363161 -0.42338949 -0.048002005
-0.45363033 -0.45363027 -0.048006281
-0.45363033 -0.48387229 -0.048006326
-0.45362902 -0.51411283 -0.048010528
-0.45362771 -0.54435325 -0.048014894
-0.45362645 -0.57459342 -0.04801932
-0.45362514 -0.60483342 -0.048023611
-0.45362514 -0.63507521 -0.048023552
-0.4536238 -0.66531491 -0.048027873
-0.45362255 -0.69555449 -0.048032224
-0.45362124 -0.72579384 -0.048036635
-0.45893061 -0.76488423 -0.030338705
-0.47886276 -0.83002877 0.036101967
-0.50060654 -0.90109181 0.10858113
-0.52441716 -0.978912 0.18794969
-0.55060774 -1.0645082 0.27525181
-0.52560246 1.0887479 0.31704426
-0.50005627 1.0001125 0.22580776
-0.47687823 0.91969359 0.143029
-0.45575362 0.84639961 0.067584127
-0.43642116 0.77932358 -0.001460284
-0.41866213 0.7177065 -0.064885527
-0.40421298 0.66406423 -0.11648956
-0.40421298 0.63519186 -0.11648957
-0.40421188 0.60631788 -0.11649352
-0.40421078 0.57744396 -0.11649743
-0.40420967 0.54857033 -0.11650139
-0.40420857 0.51969677 -0.11650538
-0.40420857 0.49082473 -0.11650532
-0.40420744 0.4619514 -0.11650926
-0.40420637 0.43307829 -0.11651319
-0.40420523 0.40420526 -0.1165172
-0.40420523 0.37533346 -0.11651722
-0.40420416 0.34646067 -0.11652112
-0.40420303 0.31758818 -0.11652508
-0.40420195 0.28871572 -0.11652897
-0.40420082 0.25984341 -0.11653295
-0.40420082 0.23097193 -0.11653295
-0.40419975 0.20209987 -0.11653684
-0.40419862 0.17322794 -0.11654084
-0.40419754 0.14435625 -0.11654475
-0.40419641 0.11548471 -0.11654877
-0.40419641 0.086613588 -0.11654874
-0.40419534 0.057742238 -0.11655262
-0.40419421 0.028871071 -0.11655666
-0.40419313 5.9604645e-08 -0.1165605
-0.40419313 -0.028870977 -0.11656056
-0.404192 -0.057741687 -0.11656451
-0.40419093 -0.086612396 -0.11656848
-0.4041898 -0.11548277 -0.11657241
-0.40418872 -0.14435309 -0.1165763
-0.40418872 -0.17322358 -0.11657634
-0.40418759 -0.20209379 -0.11658026
-0.40418646 -0.23096357 -0.11658424
-0.40418538 -0.25983331 -0.11658818
-0.40418538 -0.28870374 -0.11658818
-0.40418425 -0.31757331 -0.1165921
-0.40418318 -0.34644273 -0.116596
-0.40418205 -0.37531191 -0.11660004
-0.40418097 -0.40418097 -0.11660388
-0.40418097 -0.43305096 -0.11660391
-0.40417984 -0.46191978 -0.11660786
-0.40417877 -0.4907884 -0.11661179
-0.40417764 -0.5196569 -0.11661576
-0.40417764 -0.54852676 -0.11661577
-0.40417656 -0.57739508 -0.11661965
-0.40417543 -0.6062631 -0.11662364
-0.40417436 -0.63513112 -0.11662754
-0.40438643 -0.66434902 -0.11587009
-0.42092752 -0.72158998 -0.056794852
-0.43888083 -0.78371561 0.0073240399
-0.45843235 -0.85137439 0.07715115
-0.47980714 -0.92534244 0.15348968
-0.50327438 -1.0065488 0.23730123
-0.52915329 -1.0961032 0.32972592
-0.47774595 1.0289913 0.27737713
-0.45499304 0.94498551 0.18986586
-0.43430886 0.86861765 0.11031124
-0.41542348 0.79889143 0.037675261
-0.39811212 0.73497635 -0.028906822
-0.38218582 0.67617494 -0.09016189
-0.36748472 0.62189722 -0.14670451
-0.35904884 0.58000195 -0.17915025
-0.35904792 0.5523814 -0.17915387
-0.35904792 0.52476233 -0.17915386
-0.35904697 0.49714196 -0.1791575
-0.35904604 0.46952179 -0.17916112
-0.35904509 0.44190162 -0.17916478
-0.35904416 0.41428173 -0.17916833
-0.35904416 0.38666296 -0.17916831
-0.35904321 0.35904321 -0.17917198
-0.35904229 0.3314237 -0.17917554
-0.35904133 0.30380422 -0.17917916
-0.35904041 0.27618495 -0.1791828
-0.35904041 0.24856652 -0.17918274
-0.35903946 0.22094737 -0.17918645
-0.35903853 0.19332851 -0.17918997
-0.35903758 0.16570972 -0.17919353
-0.35903758 0.13809143 -0.17919359
-0.35903665 0.11047284 -0.17919718
-0.3590357 0.082854465 -0.1792008
-0.35903478 0.055236138 -0.17920445
-0.35903382 0.027617931 -0.17920804
-0.35903382 5.2154064e-08 -0.17920798
-0.3590329 -0.027617894 -0.17921166
-0.35903195 -0.055235714 -0.17921527
-0.35903102 -0.082853243 -0.17921892
-0.35903102 -0.11047104 -0.17921884
-0.35903007 -0.13808848 -0.17922248
-0.35902914 -0.16570571 -0.17922604
-0.35902819 -0.19332282 -0.17922966
-0.35902727 -0.2209398 -0.1792333
-0.35902727 -0.2485573 -0.17923333
-0.35902631 -0.27617407 -0.17923692
-0.35902539 -0.30379066 -0.17924049
-0.35902444 -0.33140713 -0.17924409
-0.35902444 -0.35902432 -0.17924415
-0.35902351 -0.38664067 -0.1792478
-0.35902256 -0.41425675 -0.17925131
-0.35902163 -0.44187269 -0.17925501
-0.35902068 -0.4694885 -0.17925858
-0.35902068 -0.49710548 -0.17925856
-0.35901976 -0.52472115 -0.17926215
-0.3590188 -0.55233657 -0.17926578
-0.35901788 -0.57995194 -0.17926939
-0.36936483 -0.62507892 -0.13947336
-0.38421762 -0.67976964 -0.082347274
-0.40031374 -0.73904079 -0.020438969
-0.41781756 -0.80349529 0.046883255
-0.43692344 -0.87384677 0.12036735
-0.45785883 -0.95093757 0.20088822
-0.48090318 -1.0357914 0.28952023
-0.45410892 1.0595875 0.33201319
-0.43187019 0.97170782 0.2393516
-0.41170785 0.8920337 0.15534207
-0.39334419 0.81946713 0.078826904
-0.37654877 0.75309765 0.0088459849
-0.3611289 0.69216371 -0.05540362
-0.34692225 0.63602418 -0.11459795
-0.33379105 0.58413434 -0.1693113
-0.32161763 0.53602946 -0.22003379
-0.31764233 0.50293362 -0.2365977
-0.31764153 0.4764623 -0.23660097
-0.31764072 0.44999102 -0.2366043
-0.31763992 0.42351994 -0.2366076
-0.31763992 0.39704996 -0.23660763
-0.31763914 0.37057903 -0.23661095
-0.31763837 0.34410819 -0.2366143
-0.31763756 0.31763756 -0.23661757
-0.31763756 0.29116774 -0.23661757
-0.31763676 0.26469725 -0.23662092
-0.31763595 0.23822704 -0.23662421
-0.31763515 0.21175683 -0.2366275
-0.31763437 0.18528679 -0.23663078
-0.31763437 0.15881719 -0.23663083
-0.31763357 0.13234735 -0.23663414
-0.31763276 0.10587758 -0.23663747
-0.31763196 0.079407968 -0.23664081
-0.31763196 0.0529387 -0.23664083
-0.31763119 0.026469246 -0.23664415
-0.31763041 5.2154064e-08 -0.23664737
-0.31762961 -0.026469097 -0.23665071
-0.3176288 -0.052938119 -0.23665398
-0.3176288 -0.079407126 -0.23665398
-0.317628 -0.10587594 -0.23665738
-0.31762722 -0.13234459 -0.2366606
-0.31762642 -0.15881313 -0.23666398
-0.31762642 -0.18528199 -0.23666397
-0.31762561 -0.21175028 -0.23666732
-0.31762481 -0.23821864 -0.23667058
-0.317624 -0.26468661 -0.23667391
-0.31762323 -0.29115462 -0.2366773
-0.31762323 -0.31762326 -0.2366772
-0.31762245 -0.34409091 -0.23668057
-0.31762165 -0.3705585 -0.23668383
-0.31762084 -0.397026 -0.23668718
-0.31762004 -0.42349344 -0.23669046
-0.31762004 -0.44996166 -0.23669048
-0.31761926 -0.47642884 -0.23669378
-0.31761846 -0.50289583 -0.23669711
-0.32317814 -0.53863013 -0.21353181
-0.33547041 -0.58707321 -0.16231392
-0.34873384 -0.63934529 -0.10704976
-0.3630892 -0.69592094 -0.047235698
-0.37867829 -0.75735652 0.017718762
-0.39566481 -0.82430172 0.088496119
-0.4142482 -0.89753783 0.16592687
-0.43466181 -0.97798908 0.25098345
-0.4571915 -1.0667801 0.34485728
-0.42902315 1.0920589 0.38999784
-0.4074015 0.99998558 0.29171768
-0.38785461 0.91674733 0.20286813
-0.37009755 0.84113079 0.12215418
-0.35389525 0.77213514 0.048507452
-0.33905205 0.70892704 -0.018961608
-0.32540387 0.6508078 -0.080998898
-0.31281194 0.59718651 -0.13823481
-0.30115822 0.54756039 -0.19120629
-0.29034165 0.5014993 -0.24037251
-0.28027514 0.45863208 -0.28612947
-0.27954322 0.43202135 -0.28945637
-0.27954254 0.40660739 -0.28945938
-0.27954188 0.38119352 -0.28946245
-0.27954119 0.35577968 -0.28946558
-0.27954051 0.33036619 -0.28946853
-0.27954051 0.30495334 -0.28946859
-0.27953985 0.27953994 -0.2894716
-0.2795392 0.25412658 -0.28947467
-0.27953851 0.22871332 -0.28947783
-0.27953851 0.20330082 -0.28947768
-0.27953786 0.17788774 -0.28948087
-0.27953717 0.15247478 -0.2894839
-0.27953649 0.12706208 -0.28948694
-0.27953583 0.10164943 -0.28948998
-0.27953583 0.07623712 -0.28948998
-0.27953514 0.050824642 -0.28949302
-0.27953449 0.025412261 -0.28949606
-0.2795338 7.4505806e-08 -0.28949913
-0.2795338 -0.025412127 -0.2894991
-0.27953312 -0.050824225 -0.28950214
-0.27953246 -0.076236144 -0.28950527
-0.27953178 -0.10164791 -0.28950828
-0.27953112 -0.12705958 -0.28951132
-0.27953112 -0.15247142 -0.28951135
-0.27953047 -0.17788297 -0.28951439
-0.27952978 -0.20329431 -0.28951749
-0.27952909 -0.2287056 -0.28952053
-0.27952844 -0.25411671 -0.28952363
-0.27952844 -0.27952844 -0.28952357
-0.27952775 -0.30493933 -0.28952661
-0.27952707 -0.33035016 -0.28952974
-0.27952641 -0.35576087 -0.28953272
-0.27952641 -0.38117242 -0.28953269
-0.27952573 -0.40658286 -0.28953576
-0.27952507 -0.43199319 -0.28953886
-0.28156832 -0.46074814 -0.28025138
-0.29172817 -0.50389409 -0.2340702
-0.30264789 -0.55026889 -0.18443508
-0.31441686 -0.60025036 -0.1309398
-0.32713911 -0.65427816 -0.073111355
-0.34093332 -0.71286058 -0.010410339
-0.35594317 -0.77660322 0.057816148
-0.3723343 -0.84621418 0.13232121
-0.3903079 -0.92254591 0.21401957
-0.41010627 -1.0066245 0.30401218
-0.43201891 -1.0996845 0.40361494
-0.381466 1.0299582 0.34722269
-0.36264196 0.94286913 0.25310248
-0.34558839 0.86397099 0.16783464
-0.33006668 0.79216015 0.090226084
-0.31587932 0.72652245 0.019289345
-0.30286133 0.66629499 -0.045800596
-0.29087389 0.61083519 -0.10573798
-0.27979925 0.55959851 -0.16111116
-0.26953697 0.51212025 -0.21242255
-0.26000085 0.4680016 -0.26010308
-0.25111642 0.42689797 -0.3045252
-0.24437048 0.39099276 -0.33825502
-0.24436991 0.36655492 -0.33825788
-0.24436991 0.34211791 -0.33825785
-0.24436933 0.31768012 -0.33826065
-0.24436876 0.2932426 -0.33826348
-0.2443682 0.26880506 -0.33826631
-0.24436763 0.24436772 -0.33826914
-0.24436763 0.21993092 -0.33826914
-0.24436706 0.19549371 -0.33827195
-0.24436651 0.1710566 -0.33827484
-0.24436595 0.14661956 -0.33827764
-0.24436595 0.12218305 -0.33827758
-0.24436538 0.097746164 -0.3382805
-0.24436481 0.073309481 -0.33828336
-0.24436426 0.048872873 -0.3382861
-0.2443637 0.024436399 -0.3382889
-0.2443637 4.4703484e-08 -0.3382889
-0.24436313 -0.02443625 -0.33829176
-0.24436256 -0.048872516 -0.3382946
-0.24436198 -0.073308542 -0.3382974
-0.24436142 -0.097744532 -0.33830023
-0.24436142 -0.12218071 -0.33830023
-0.24436085 -0.14661652 -0.33830306
-0.24436028 -0.17105219 -0.33830589
-0.24435973 -0.1954878 -0.33830869
-0.24435973 -0.21992375 -0.33830869
-0.24435917 -0.24435911 -0.33831149
-0.2443586 -0.26879448 -0.33831435
-0.24435803 -0.29322961 -0.33831719
-0.24435747 -0.31766474 -0.33831996
-0.24435747 -0.34210038 -0.33832008
-0.24435692 -0.36653534 -0.33832279
-0.24435635 -0.39097005 -0.33832571
-0.25225767 -0.42883804 -0.29881895
-0.26122254 -0.47020048 -0.25399473
-0.27084807 -0.51461124 -0.20586711
-0.28121081 -0.5624215 -0.15405326
-0.29239729 -0.61403424 -0.098120868
-0.30451152 -0.66992521 -0.037549824
-0.31767195 -0.73064548 0.028252453
-0.33202133 -0.79685116 0.099999368
-0.3477295 -0.86932361 0.17854008
-0.36499655 -0.948991 0.26487541
-0.38406807 -1.0369836 0.36023286
-0.35392773 1.0617833 0.40615797
-0.33595037 0.97052336 0.30628356
-0.31971103 0.8880862 0.21606499
-0.30496925 0.81325138 0.1341663
-0.29152703 0.74501348 0.059487194
-0.27921978 0.6825372 -0.0088864565
-0.26790956 0.62512237 -0.071720839
-0.25747997 0.57217765 -0.12966314
-0.24783197 0.52320087 -0.18326299
-0.2388809 0.47776186 -0.23299125
-0.23055388 0.43549073 -0.27925241
-0.22278784 0.39606732 -0.32239711
-0.21552792 0.35921317 -0.36273003
-0.21179937 0.32946569 -0.38344416
-0.21179891 0.30593172 -0.38344675
-0.21179843 0.28239799 -0.38344938
-0.21179843 0.25886476 -0.38344935
-0.21179797 0.23533109 -0.38345203
-0.21179749 0.21179757 -0.38345456
-0.21179703 0.18826407 -0.38345724
-0.21179654 0.16473067 -0.38345987
-0.21179654 0.14119779 -0.38345987
-0.21179606 0.11766452 -0.38346246
-0.2117956 0.09413141 -0.38346508
-0.21179512 0.070598423 -0.38346773
-0.21179466 0.047065496 -0.38347042
-0.21179466 0.023532733 -0.38347036
-0.21179418 -0 -0.38347298
-0.21179372 -0.023532569 -0.3834756
-0.21179324 -0.047065109 -0.38347819
-0.21179324 -0.070597693 -0.38347819
-0.21179278 -0.094130099 -0.38348082
-0.21179231 -0.11766238 -0.38348338
-0.21179181 -0.14119443 -0.38348609
-0.21179135 -0.16472653 -0.38348871
-0.21179135 -0.18825896 -0.38348871
-0.21179087 -0.21179086 -0.38349128
-0.21179041 -0.23532267 -0.38349396
-0.21178994 -0.25885436 -0.38349655
-0.21178994 -0.28238657 -0.38349658
-0.21178947 -0.30591804 -0.38349923
-0.211789 -0.32944953 -0.3835018
-0.21646231 -0.36077049 -0.35753888
-0.22378482 -0.39783955 -0.31685853
-0.23162003 -0.43750447 -0.27332935
-0.24002445 -0.48004889 -0.22663811
-0.24906108 -0.52579564 -0.17643465
-0.25880548 -0.57512325 -0.1222991
-0.26934266 -0.62846619 -0.063759238
-0.2807743 -0.68633699 -0.0002502799
-0.29322022 -0.74934042 0.06889379
-0.30681968 -0.81818581 0.14444646
-0.32174203 -0.89372778 0.2273483
-0.33819124 -0.97699696 0.31873292
-0.35641173 -1.0692351 0.41995782
-0.32463339 1.0956377 0.46885127
-0.30764577 0.99984872 0.36267859
-0.29234758 0.91358626 0.26706514
-0.27849883 0.83549643 0.18051013
-0.26590276 0.76447046 0.10178488
-0.2543968 0.69959122 0.029872566
-0.24384527 0.6400938 -0.03607434
-0.2341342 0.58533549 -0.096768633
-0.22516696 0.53477162 -0.15281381
-0.21686129 0.48793793 -0.2047243
-0.20914654 0.44443649 -0.25294143
-0.20196185 0.40392369 -0.29784584
-0.19525439 0.36610198 -0.33976749
-0.18897812 0.33071178 -0.37899408
-0.18309279 0.29752576 -0.4157775
-0.18155159 0.27232742 -0.42540994
-0.1815512 0.24963297 -0.4254123
-0.1815508 0.22693861 -0.42541474
-0.18155041 0.20424423 -0.42541727
-0.18155003 0.18155009 -0.42541969
-0.18155003 0.15885633 -0.42541966
-0.18154964 0.1361623 -0.42542207
-0.18154925 0.11346832 -0.42542449
-0.18154886 0.090774491 -0.42542693
-0.18154886 0.068080872 -0.42542696
-0.18154848 0.045387194 -0.42542937
-0.18154809 0.022693545 -0.42543191
-0.1815477 1.4901161e-08 -0.42543435
-0.1815473 -0.022693381 -0.42543676
-0.1815473 -0.045386761 -0.42543668
-0.18154691 -0.068080068 -0.42543912
-0.18154652 -0.090773255 -0.42544162
-0.18154614 -0.11346626 -0.42544407
-0.18154614 -0.13615961 -0.42544404
-0.18154573 -0.15885253 -0.42544639
-0.18154535 -0.18154524 -0.42544892
-0.18154496 -0.20423806 -0.42545128
-0.18154457 -0.22693066 -0.42545378
-0.18154457 -0.24962372 -0.42545375
-0.18154418 -0.27231622 -0.42545623
-0.18385164 -0.29875886 -0.41103461
-0.18978538 -0.33212432 -0.37394875
-0.19611491 -0.36771539 -0.33438921
-0.20288168 -0.40576333 -0.29209685
-0.21013157 -0.44652957 -0.24678496
-0.21791939 -0.49031854 -0.19811118
-0.22630607 -0.5374769 -0.14569436
-0.23536412 -0.58841026 -0.089081645
-0.24517821 -0.64359277 -0.027743518
-0.25584558 -0.70357525 0.038927555
-0.26748344 -0.76901495 0.11166424
-0.28023145 -0.84069425 0.19133916
-0.29425436 -0.91954482 0.27898228
-0.30975571 -1.0067062 0.37586597
-0.32697991 -1.1035571 0.48351696
-0.27757731 1.0310016 0.42258793
-0.26336634 0.94059396 0.3210806
-0.25053954 0.85899282 0.22946095
-0.23890419 0.78497088 0.14635104
-0.22830155 0.71751916 0.070618093
-0.21860003 0.65580016 0.001321584
-0.20968944 0.59911269 -0.062325746
-0.20147681 0.54686564 -0.12098731
-0.19388324 0.49855691 -0.17522706
-0.18684128 0.45375746 -0.22552678
-0.18029292 0.41209814 -0.27230075
-0.17418803 0.37326011 -0.31590706
-0.16848305 0.33696604 -0.35665706
-0.16313991 0.30297413 -0.39482239
-0.15812524 0.27107185 -0.43064141
-0.15340966 0.24107236 -0.46432406
-0.15338677 0.21912397 -0.46448764
-0.15338677 0.19721153 -0.46448767
-0.15338644 0.17529885 -0.46448988
-0.15338612 0.15338616 -0.4644922
-0.1533858 0.13147357 -0.46449447
-0.15338549 0.10956112 -0.4644967
-0.15338549 0.087648913 -0.4644967
-0.15338516 0.065736547 -0.46449897
-0.15338485 0.043824255 -0.46450132
-0.15338454 0.021912113 -0.46450353
-0.15338454 1.4901161e-08 -0.46450353
-0.15338422 -0.021911964 -0.46450573
-0.1533839 -0.043823972 -0.46450809
-0.15338358 -0.065735772 -0.46451035
-0.15338326 -0.087647557 -0.46451262
-0.15338326 -0.10955943 -0.46451262
-0.15338294 -0.13147105 -0.46451491
-0.15338263 -0.1533826 -0.46451718
-0.1533823 -0.175294 -0.46451941
-0.1533823 -0.1972058 -0.46451944
-0.15338199 -0.21911705 -0.46452174
-0.15401874 -0.24202934 -0.45997351
-0.15877138 -0.27217948 -0.42602611
-0.16382669 -0.30424953 -0.38991678
-0.16921487 -0.33842972 -0.35142964
-0.17496914 -0.37493384 -0.3103278
-0.18112898 -0.41400912 -0.26632887
-0.1877379 -0.45593482 -0.21912241
-0.19484736 -0.50103593 -0.16834059
-0.202517 -0.54968905 -0.11355723
-0.21081461 -0.60232747 -0.054288745
-0.2198212 -0.65946352 0.010044008
-0.22963241 -0.7217018 0.08012414
-0.24035957 -0.78975284 0.1567466
-0.25213805 -0.86447328 0.24087876
-0.26513135 -0.94689769 0.33368808
-0.27953553 -1.0382748 0.43657497
-0.24557494 1.064158 0.48635036
-0.23261935 0.96924734 0.37838712
-0.22096223 0.88384891 0.28124437
-0.21041767 0.80660111 0.19337326
-0.20083369 0.73639017 0.11350673
-0.19208473 0.67229652 0.04059872
-0.18406622 0.613554 -0.026222289
-0.17669033 0.55951941 -0.087688059
-0.16988279 0.50964838 -0.14441738
-0.16358037 0.46347776 -0.19693762
-0.15772884 0.42061028 -0.24570033
-0.15228148 0.38070366 -0.29109499
-0.14719748 0.3434608 -0.33346164
-0.14244232 0.30862501 -0.37308818
-0.13798475 0.27596956 -0.41023445
-0.13379771 0.24529585 -0.4451265
-0.12985729 0.21642889 -0.47796327
-0.12709779 0.19064674 -0.5009591
-0.12709753 0.16946343 -0.5009613
-0.12709728 0.14828022 -0.50096333
-0.12709728 0.12709729 -0.50096333
-0.12709703 0.10591422 -0.50096542
-0.12709676 0.084731206 -0.50096762
-0.12709652 0.063548297 -0.50096971
-0.12709627 0.042365417 -0.50097185
-0.12709627 0.02118279 -0.50097185
-0.127096 -0 -0.50097394
-0.12709576 -0.021182582 -0.50097609
-0.12709549 -0.042365149 -0.50097817
-0.12709549 -0.063547701 -0.50097817
-0.12709524 -0.084730148 -0.50098038
-0.12709498 -0.10591245 -0.50098246
-0.12709473 -0.1270947 -0.50098455
-0.12709448 -0.14827688 -0.5009867
-0.12709448 -0.16945922 -0.50098675
-0.12709422 -0.19064122 -0.50098884
-0.13036613 -0.2172769 -0.47372282
-0.13433713 -0.24628466 -0.44063136
-0.13855791 -0.27711576 -0.40545809
-0.14305222 -0.30994645 -0.36800548
-0.1478482 -0.34497911 -0.32803896
-0.15297654 -0.38244137 -0.2853027
-0.15847346 -0.42259592 -0.23949513
-0.16438055 -0.46574491 -0.1902694
-0.17074461 -0.51223379 -0.13723558
-0.17762129 -0.56246734 -0.079929933
-0.18507567 -0.61691886 -0.017810076
-0.19318256 -0.67613888 0.049747229
-0.20203282 -0.74078691 0.12349942
-0.21173224 -0.8116402 0.20432803
-0.22240993 -0.88963974 0.29330888
-0.23422267 -0.97592771 0.39174822
-0.24735962 -1.0718917 0.50122285
-0.21144576 1.0995181 0.55435044
-0.1999402 0.99970114 0.43929473
-0.18962215 0.91018641 0.3361142
-0.18031678 0.82945722 0.24306041
-0.17188197 0.75628066 0.15871236
-0.16420104 0.68964434 0.081902921
-0.15717719 0.62870884 0.011664659
-0.15072961 0.5727725 -0.052811146
-0.14479017 0.52124465 -0.11220565
-0.13930106 0.47362363 -0.16709675
-0.13421294 0.42948145 -0.21797802
-0.12948342 0.38845026 -0.26527315
-0.12507558 0.35021168 -0.30935153
-0.12095824 0.31449142 -0.35052502
-0.11710335 0.281048 -0.389074
-0.11348656 0.24967051 -0.42524171
-0.11008649 0.22017299 -0.45924237
-0.10688423 0.19239163 -0.491265
-0.10386302 0.16618085 -0.52147728
-0.10250247 0.14350347 -0.53508264
-0.10250227 0.12300278 -0.53508461
-0.10250207 0.10250212 -0.53508663
-0.10250187 0.082001507 -0.53508854
-0.10250187 0.061501145 -0.53508866
-0.10250167 0.041000694 -0.53509057
-0.10250147 0.020500332 -0.53509259
-0.10250127 5.9604645e-08 -0.5350945
-0.10250107 -0.020500213 -0.53509653
-0.10250107 -0.041000411 -0.53509653
-0.10250089 -0.06150052 -0.53509855
-0.10250068 -0.082000479 -0.53510052
-0.10250048 -0.10250045 -0.53510255
-0.10250029 -0.12300034 -0.53510451
-0.10250029 -0.14350033 -0.53510451
-0.10425378 -0.166806 -0.51756954
-0.10729747 -0.19313537 -0.48713276
-0.11052445 -0.2210488 -0.45486298
-0.1139513 -0.25069284 -0.42059439
-0.11759771 -0.28223443 -0.3841303
-0.12148493 -0.31586078 -0.34525803
-0.12563793 -0.35178614 -0.30372807
-0.13008523 -0.39025557 -0.25925508
-0.13485859 -0.43154746 -0.21152139
-0.1399956 -0.47598496 -0.16015126
-0.14553988 -0.52394354 -0.10470852
-0.15154098 -0.57585561 -0.044697583
-0.15805824 -0.6322329 0.02047503
-0.16516177 -0.69367933 0.091510475
-0.1729333 -0.76090646 0.1692256
-0.18147293 -0.83477551 0.25462192
-0.19089906 -0.9163155 0.34888324
-0.20135808 -1.0067904 0.45347333
-0.21303044 -1.1077582 0.57019693
-0.16514091 1.0321307 0.50415385
-0.15635695 0.93814158 0.39435434
-0.14846024 0.8536464 0.29564565
-0.14132282 0.77727544 0.20642787
-0.13484021 0.70791113 0.12539521
-0.12892623 0.64463115 0.051470548
-0.12350922 0.58666885 -0.016242027
-0.11852874 0.53337938 -0.07849811
-0.11393467 0.48422232 -0.13592404
-0.10968342 0.4387337 -0.18906452
-0.10573803 0.39651772 -0.23838198
-0.10206661 0.35723308 -0.28427473
-0.098641604 0.32058522 -0.32708737
-0.095438987 0.28631693 -0.36712009
-0.092437789 0.25420395 -0.40463492
-0.089619592 0.224049 -0.43986243
-0.086968154 0.19567838 -0.47300541
-0.084469095 0.16893825 -0.50424361
-0.082109645 0.1436919 -0.53373682
-0.079878427 0.11981769 -0.56162703
-0.079442352 0.099303007 -0.56707782
-0.079442352 0.079442352 -0.56707788
-0.07944221 0.059581727 -0.56707972
-0.079442054 0.039721042 -0.56708157
-0.079441905 0.019860506 -0.56708348
-0.079441763 2.9802322e-08 -0.56708539
-0.079441763 -0.019860387 -0.56708539
-0.079441607 -0.039720774 -0.56708723
-0.079441465 -0.059581101 -0.56708908
-0.079441309 -0.079441264 -0.56709099
-0.079441309 -0.099301577 -0.56709093
-0.08016745 -0.12025113 -0.55801427
-0.08241459 -0.14422549 -0.52992493
-0.084791511 -0.16958304 -0.50021344
-0.087309428 -0.19644615 -0.46873945
-0.08998166 -0.22495407 -0.43533662
-0.092822418 -0.25526163 -0.39982712
-0.095848396 -0.28754511 -0.36200243
-0.099078543 -0.32200521 -0.32162553
-0.10253377 -0.35886806 -0.27843544
-0.10623867 -0.39839497 -0.232124
-0.11022165 -0.44088653 -0.18233687
-0.11451459 -0.48668694 -0.12867498
-0.1191555 -0.53619969 -0.070663676
-0.12418882 -0.58989686 -0.0077471435
-0.12966573 -0.64832854 0.060714275
-0.13564801 -0.712152 0.13549277
-0.14220947 -0.782152 0.21751091
-0.14943743 -0.85926521 0.30786055
-0.15744005 -0.94464034 0.40789339
-0.16634764 -1.0396727 0.51923823
-0.12800817 1.0667349 0.57336223
-0.12098358 0.96786857 0.45628554
-0.11468983 0.87928873 0.35138986
-0.10901853 0.79946929 0.25686821
-0.10388169 0.7271719 0.17125413
-0.099207141 0.66138113 0.093345135
-0.094935186 0.60125613 0.022145629
-0.091015682 0.54609412 -0.043179303
-0.087407231 0.49530768 -0.10332029
-0.084073991 0.44839466 -0.1588742
-0.080985636 0.40492821 -0.21034673
-0.078116141 0.36454198 -0.2581718
-0.075443022 0.32691979 -0.30272356
-0.072946809 0.2917873 -0.34432715
-0.070610486 0.25890511 -0.38326591
-0.068419173 0.22806397 -0.41978782
-0.066359773 0.19907936 -0.4541111
-0.06442073 0.17178868 -0.4864285
-0.062591784 0.14604752 -0.51691091
-0.060863826 0.12172771 -0.54571033
-0.059228707 0.098714545 -0.57296222
-0.057778478 0.07703802 -0.59713268
-0.05777837 0.057778418 -0.59713447
-0.057778265 0.038518906 -0.5971362
-0.057778265 0.019259453 -0.59713614
-0.057778161 2.9802322e-08 -0.59713793
-0.05777806 -0.019259363 -0.59713972
-0.057777956 -0.038518608 -0.5971415
-0.057777848 -0.057777852 -0.59714323
-0.057880163 -0.077173531 -0.595438
-0.059440348 -0.099067196 -0.56943482
-0.061087105 -0.12217419 -0.54198897
-0.062827572 -0.14659761 -0.51298118
-0.064670131 -0.17245363 -0.48227188
-0.066624165 -0.19987245 -0.44970459
-0.068699814 -0.22899938 -0.41511041
-0.070909113 -0.26000005 -0.37828884
-0.073265061 -0.29306018 -0.33902302
-0.07578294 -0.32839268 -0.29705834
-0.078480236 -0.36624113 -0.25210342
-0.081376418 -0.40688205 -0.20383379
-0.084494546 -0.45063758 -0.15186493
-0.087861389 -0.49788123 -0.095750749
-0.091507427 -0.54904461 -0.034983486
-0.095469177 -0.60463804 0.031045526
-0.099789798 -0.66526532 0.10305595
-0.10451969 -0.73163778 0.18188745
-0.10972065 -0.80461806 0.26857013
-0.11546589 -0.88523847 0.36432421
-0.12184605 -0.9747684 0.4706603
-0.12897307 -1.0747756 0.58944374
-0.088298813 1.1037352 0.64736295
-0.083294764 0.99953729 0.52226186
-0.078827478 0.90651608 0.41057962
-0.074814983 0.82296479 0.31026715
-0.071191184 0.74750751 0.21967232
-0.067902222 0.67902231 0.13744831
-0.064903736 0.61658555 0.062486082
-0.062158871 0.55942982 -0.0061356723
-0.059636753 0.50691247 -0.06918855
-0.057311319 0.45849061 -0.12732427
-0.055160437 0.41370335 -0.18109635
-0.05316516 0.3721562 -0.23097831
-0.051309191 0.33350971 -0.27737761
-0.049578432 0.29747063 -0.32064652
-0.047960628 0.2637834 -0.36109167
-0.046445068 0.23222539 -0.39898062
-0.045022357 0.20260064 -0.43454841
-0.043684218 0.1747369 -0.4680019
-0.042423327 0.14848167 -0.49952424
-0.041233182 0.12369958 -0.52927786
-0.040107988 0.10027005 -0.55740762
-0.039042577 0.078085214 -0.58404291
-0.038032301 0.0570485 -0.60929978
-0.03738736 0.037387401 -0.62542331
-0.037387293 0.018693686 -0.62542498
-0.03738723 5.9604645e-08 -0.62542665
-0.037387162 -0.018693566 -0.62542832
-0.037387162 -0.037387103 -0.62542832
-0.038163252 -0.057244867 -0.60602605
-0.039180443 -0.07836087 -0.58059621
-0.040253267 -0.10063314 -0.55377567
-0.041386578 -0.12415968 -0.5254429
-0.042585466 -0.14904907 -0.4954707
-0.043855887 -0.17542353 -0.46371016
-0.045204535 -0.20342034 -0.42999399
-0.046638653 -0.23319317 -0.39414102
-0.048166752 -0.26491708 -0.35593849
-0.049798496 -0.2987909 -0.31514496
-0.051544547 -0.33503947 -0.27149367
-0.053417489 -0.37392238 -0.22467013
-0.05543182 -0.41573861 -0.17431182
-0.057603862 -0.46083081 -0.12001073
-0.059953071 -0.50960112 -0.061280668
-0.06250222 -0.56251997 0.0024481118
-0.065277569 -0.62013686 0.071831793
-0.068311058 -0.68311048 0.14766914
-0.071639985 -0.75221986 0.23089233
-0.075309992 -0.82840973 0.32264227
-0.079376608 -0.91283089 0.42430776
-0.083907142 -1.0068858 0.53757125
-0.043056354 1.0333524 0.59271026
-0.040673342 0.93548679 0.47355974
-0.038540285 0.8478862 0.36690685
-0.036619805 0.76901603 0.27088287
-0.034881637 0.69763279 0.18397456
-0.033300996 0.63271892 0.10494253
-0.031857401 0.57343322 0.032762647
-0.030533763 0.51907402 -0.033419222
-0.029315729 0.4690516 -0.094321012
-0.028191142 0.42286715 -0.15055013
-0.027149655 0.38009515 -0.20262472
-0.026182372 0.34037092 -0.25098866
-0.025281647 0.30337983 -0.29602495
-0.024440832 0.26884919 -0.33806568
-0.023654146 0.23654151 -0.37740001
-0.022916524 0.20624875 -0.41428122
-0.022223512 0.17778812 -0.44893175
-0.021571184 0.15099837 -0.48154807
-0.020956062 0.12573642 -0.51230431
-0.020375047 0.10187529 -0.54135489
-0.019825382 0.079301611 -0.5688383
-0.019304594 0.05791387 -0.59487766
-0.018810466 0.037620902 -0.61958408
-0.018341003 0.018341064 -0.64305711
-0.018160133 2.9802322e-08 -0.65210068
-0.018401936 -0.018401861 -0.64001048
-0.018874496 -0.037748992 -0.61638248
-0.019371932 -0.058115721 -0.59151077
-0.019896297 -0.079585135 -0.56529254
-0.020449877 -0.10224932 -0.53761351
-0.021035103 -0.12621059 -0.50835216
-0.021654855 -0.151584 -0.47736457
-0.022312189 -0.17849742 -0.444498
-0.023010677 -0.20709607 -0.40957355
-0.023754366 -0.2375436 -0.37238905
-0.024547674 -0.27002445 -0.33272365
-0.025395799 -0.30474955 -0.29031742
-0.026304694 -0.34196103 -0.24487263
-0.02728099 -0.38193375 -0.19605798
-0.028332548 -0.42498809 -0.14347994
-0.029468503 -0.47149599 -0.086682141
-0.030699266 -0.52188742 -0.025143981
-0.032037415 -0.57667333 0.041763276
-0.033497427 -0.63645101 0.11476396
-0.035096865 -0.70193726 0.19473594
-0.036856834 -0.77399349 0.28273427
-0.03880249 -0.85365462 0.38001692
-0.040965009 -0.942195 0.48814297
-0.04338298 -1.0411913 0.60904139
0 1.069536 0.66809243
0 0.9663707 0.54069841
0 0.8743642 0.42708394
0 0.79179883 0.32512775
0 0.71729219 0.233123
0 0.64971936 0.1496805
0 0.58815563 0.073658317
0 0.53183353 0.0041086972
0 0.48011076 -0.05976136
0 0.43244621 -0.11862004
0 0.38838029 -0.173035
0 0.34752023 -0.22349122
0 0.30952847 -0.27040547
0 0.27411333 -0.31413803
0 0.24102108 -0.35500202
0 0.21003059 -0.39327073
0 0.18094781 -0.42918378
0 0.15360178 -0.46295211
0 0.12784143 -0.49476236
0 0.10353276 -0.52478004
0 0.080556452 -0.55315238
0 0.058805764 -0.58001125
0 0.038185358 -0.60547447
0 0.018609196 -0.62964815
0 5.9604645e-08 -0.64964604
0 -0.018671781 -0.62651819
0 -0.038316995 -0.60218298
0 -0.059013605 -0.57654697
0 -0.080848441 -0.54950106
0 -0.10391833 -0.52092373
0 -0.12833063 -0.49068525
0 -0.15420617 -0.45863438
0 -0.1816811 -0.42460042
0 -0.21090747 -0.38839883
0 -0.24205878 -0.34981292
0 -0.27533242 -0.30859619
0 -0.31095141 -0.26447633
0 -0.34917349 -0.21713202
0 -0.39029601 -0.16619289
0 -0.43465984 -0.11124107
0 -0.48266655 -0.051774219
0 -0.53478104 0.012778103
0 -0.5915556 0.083102852
0 -0.65364689 0.16001607
0 -0.72183359 0.24447665
0 -0.79706222 0.33766004
0 -0.88048643 0.44099826
0 -0.97351527 0.55623031
0 -1.0779127 0.68554413
0.046181049 1.1083453 0.74894512
0.043450575 0.9993633 0.61242151
0.041024961 0.90254915 0.49114066
0.038855843 0.81597269 0.38268471
0.036904581 0.73809159 0.28512171
0.035139926 0.66765869 0.19688901
0.03353633 0.60365391 0.11670916
0.032072708 0.54523599 0.043527961
0.030731494 0.49170393 -0.023532733
0.029497951 0.4424693 -0.085209817
0.028359614 0.39703462 -0.14212663
0.027305869 0.3549763 -0.19481385
0.026327629 0.31593153 -0.24372591
0.025417054 0.27958763 -0.2892547
0.02456736 0.24567366 -0.33173934
0.023772638 0.21395381 -0.37147534
0.023027724 0.18422182 -0.40872115
0.022328073 0.15629649 -0.44370368
0.021669684 0.13001813 -0.47662312
0.021049011 0.10524511 -0.50765669
0.020462904 0.081851676 -0.53696215
0.019908553 0.059725732 -0.56467974
0.019383444 0.03876695 -0.59093517
0.018885324 0.018885344 -0.61584115
0.018473443 -0 -0.63643521
0.018949697 -0.018949658 -0.61262256
0.019451156 -0.038902253 -0.58754957
0.019979876 -0.059939563 -0.5611136
0.020538142 -0.08215256 -0.5332002
0.021128504 -0.10564248 -0.50368214
0.021753855 -0.13052312 -0.47241467
0.022417301 -0.15692109 -0.43924218
0.023122491 -0.18497996 -0.40398267
0.023873545 -0.21486184 -0.3664301
0.024674967 -0.24674962 -0.32635903
0.025532065 -0.28085265 -0.28350416
0.026450915 -0.31741092 -0.23756161
0.0274383 -0.3566978 -0.18819244
0.028502334 -0.39903256 -0.13499077
0.029652139 -0.44478205 -0.077500522
0.030898614 -0.49437773 -0.015176773
0.032254577 -0.54832768 0.052621424
0.033734906 -0.60722828 0.126638
0.035357658 -0.67179543 0.20777532
0.037144542 -0.74289083 0.29711971
0.039121505 -0.82155144 0.39596772
0.041320737 -0.90905619 0.50592953
0.043782145 -1.0069894 0.62899989
0.089972891 1.0346882 0.68921494
0.084782876 0.9326117 0.55946457
0.080158979 0.8416692 0.44386691
0.076013342 0.7601335 0.34022629
0.07227543 0.6866166 0.2467784
0.068887912 0.61999118 0.16209036
0.065803714 0.55933154 0.084985361
0.062983848 0.50387084 0.014488876
0.060395733 0.452968 -0.050214127
0.058011916 0.40608343 -0.10980943
0.055809136 0.36275947 -0.16487888
0.053767525 0.32260519 -0.21591932
0.051870007 0.28528512 -0.2633571
0.050101861 0.25050935 -0.30756083
0.048450284 0.21802634 -0.34885019
0.046904117 0.18761653 -0.3875044
0.045453586 0.15908757 -0.42376775
0.044090077 0.13227025 -0.45785546
0.042805988 0.10701497 -0.4899576
0.041594584 0.083189249 -0.52024269
0.040449854 0.060674861 -0.54886091
0.03936645 0.039366454 -0.57594609
0.038339563 0.019169807 -0.60161829
0.037490878 2.9802322e-08 -0.6228354
0.038472015 -0.019235939 -0.59830701
0.039505806 -0.03950578 -0.5724622
0.040596768 -0.060895085 -0.54518813
0.041749701 -0.083499327 -0.51636493
0.042970028 -0.10742503 -0.48585665
0.044263847 -0.13279153 -0.45351118
0.045638092 -0.15973324 -0.41915503
0.047100298 -0.18840113 -0.38259983
0.048659302 -0.21896681 -0.34362474
0.05032517 -0.25162581 -0.30197811
0.052109007 -0.28659943 -0.25738215
0.054024093 -0.32414457 -0.20950493
0.056085169 -0.36455363 -0.15797812
0.058309745 -0.40816814 -0.10236371
0.060718253 -0.45538691 -0.042150959
0.063334115 -0.50667286 0.023245558
0.066185527 -0.56257683 0.094530731
0.069306009 -0.62375414 0.17254284
0.072735049 -0.69098288 0.25826883
0.076521061 -0.76521063 0.35291931
0.080723181 -0.84759331 0.45797202
0.08541327 -0.93954587 0.5752244
0.090682372 -1.0428472 0.70695192
0.13990462 1.0726022 0.77163625
0.13155626 0.96474594 0.63249695
0.12414812 0.86903685 0.5090279
0.11752983 0.78353226 0.39872319
0.11158147 0.70668268 0.29958379
0.10620622 0.63723725 0.20999618
0.10132504 0.57417512 0.12864323
0.096872829 0.51665503 0.054439694
0.092795402 0.4639771 -0.01351729
0.089047357 0.41555429 -0.075984746
0.085590325 0.37089145 -0.13360184
0.082391687 0.32956684 -0.18691254
0.07942351 0.29121953 -0.23638217
0.076661758 0.25553927 -0.2824114
0.074085616 0.22225687 -0.32534713
0.071676977 0.19113863 -0.36549106
0.069420025 0.16198011 -0.40310687
0.067300878 0.13460176 -0.43842614
0.065307267 0.10884547 -0.47165293
0.063428372 0.084571168 -0.50296783
0.061654445 0.061654478 -0.53253329
0.059977159 0.039984792 -0.56048799
0.058388714 0.019462943 -0.5869621
0.057076592 2.9802322e-08 -0.60883081
0.058593195 -0.019531041 -0.58355409
0.060192592 -0.04012838 -0.5568974
0.061881758 -0.061881721 -0.5287447
0.063668475 -0.08489126 -0.49896622
0.065561421 -0.10926898 -0.46741694
0.067570232 -0.13514046 -0.43393672
0.069706202 -0.16264781 -0.3983373
0.071981773 -0.19195138 -0.36041117
0.074410759 -0.22323224 -0.31992799
0.077009588 -0.25669852 -0.27661428
0.079796314 -0.29258648 -0.23016874
0.082792297 -0.33116916 -0.18023562
0.086022258 -0.37276316 -0.12640296
0.089514226 -0.41773301 -0.068203673
0.093301691 -0.46650839 -0.0050792098
0.097424112 -0.51959527 0.063627914
0.10192734 -0.57758826 0.13868165
0.10686705 -0.64120221 0.22101006
0.11231032 -0.7112987 0.31173137
0.11833743 -0.78891605 0.41218305
0.12504859 -0.8753401 0.52403581
0.13256617 -0.97215194 0.64932877
0.14104545 -1.0813483 0.79065001
0.19363479 1.1134 0.86032754
0.18166792 0.9991737 0.71074176
0.1710941 0.89824402 0.57856899
0.16168346 0.80841744 0.46093604
0.15325408 0.72795677 0.35556847
0.14566007 0.65547031 0.26064342
0.13878311 0.58982825 0.17468163
0.13252625 0.53010499 0.096470639
0.12680921 0.47553453 0.025007635
0.12156502 0.42547768 -0.040544569
0.11673736 0.37939647 -0.10089035
0.11227848 0.33683547 -0.15662631
0.1081477 0.29740623 -0.20826104
0.10431007 0.26077527 -0.25623137
0.10073549 0.2266549 -0.30091381
0.09739776 0.19479555 -0.34263539
0.094274126 0.16497976 -0.38168076
0.091344617 0.13701694 -0.41829956
