# .PCD v0.7 - Point Cloud Data file format
VERSION 0.7
FIELDS x y z
SIZE 4 4 4
TYPE F F F
COUNT 1 1 1
WIDTH 1385
HEIGHT 1
VIEWPOINT 0 0 0 1 0 0 0
POINTS 1385
DATA ascii
-0.27295989 -0.42184699 -0.31938061
-0.27049375 -0.44262606 -0.33059037
-0.39313602 0.98284 0.40557268
-0.38753968 0.93009508 0.37759081
-0.38209903 0.87882781 0.35038781
-0.37680906 0.82897991 0.32393786
-0.37166357 0.7804935 0.29821035
-0.36665666 0.73331332 0.27317598
-0.36178416 0.68738997 0.24881345
-0.35703823 0.64266884 0.22508378
-0.3524152 0.59910589 0.20196867
-0.34791034 0.5566566 0.17944448
-0.34352034 0.5152806 0.15749446
-0.33923867 0.47493416 0.13608602
-0.33506241 0.43558118 0.11520472
-0.33098772 0.39718527 0.094831243
-0.32701096 0.359712 0.074947357
-0.32312959 0.32312959 0.055540606
-0.31933832 0.28740448 0.036584154
-0.315635 0.25250795 0.018067509
-0.31201655 0.21841165 -2.4534762e-05
-0.30848014 0.18508813 -0.017706543
-0.30502391 0.15251192 -0.034987897
-0.30164337 0.12065735 -0.051890504
-0.29833695 0.089501105 -0.068422616
-0.29510224 0.05902053 -0.084596172
-0.2919369 0.029193714 -0.10042281
-0.28883877 -0 -0.1159135
-0.2858057 -0.028580539 -0.13107893
-0.28283566 -0.056567114 -0.14592914
-0.27992672 -0.083978027 -0.16047384
-0.27707699 -0.11083075 -0.17472245
-0.27428472 -0.13714235 -0.18868384
-0.27154744 -0.16292843 -0.20237014
-0.26886499 -0.18820545 -0.21578257
-0.26623496 -0.21298797 -0.22893246
-0.2636559 -0.23729023 -0.24182776
-0.26112634 -0.26112625 -0.25447559
-0.25864488 -0.28450927 -0.26688308
-0.25621012 -0.30745208 -0.27905679
-0.25382078 -0.32996699 -0.29100356
-0.25147495 -0.35206491 -0.30273256
-0.2491727 -0.37375906 -0.31424379
-0.24691224 -0.39505956 -0.32554621
-0.24469241 -0.415977 -0.33664539
-0.24251212 -0.43652177 -0.34754676
-0.24037036 -0.45670366 -0.35825551
-0.35104486 1.0141295 0.39014181
-0.3460851 0.96134764 0.36258772
-0.34126353 0.91003609 0.33580115
-0.33657449 0.86013478 0.30975083
-0.33201256 0.81158626 0.28440678
-0.32757261 0.76433611 0.25974047
-0.32325095 0.71833551 0.23573127
-0.31904078 0.67353058 0.21234143
-0.31493887 0.62987769 0.18955296
-0.3109411 0.5873332 0.16734309
-0.30704451 0.54585695 0.14569552
-0.30324343 0.50540572 0.12457839
-0.29953533 0.46594387 0.10397777
-0.29591677 0.42743543 0.083874896
-0.29238465 0.38984627 0.064251795
-0.2889367 0.35314488 0.045096502
-0.2855683 0.31729811 0.026383087
-0.28227746 0.28227752 0.0081008524
-0.27906168 0.24805488 -0.0097647235
-0.2759183 0.21460322 -0.027227826
-0.27284575 0.18189719 -0.044297688
-0.26984009 0.14991117 -0.060995709
-0.26689994 0.11862222 -0.077329881
-0.26402318 0.088007778 -0.093311884
-0.26120847 0.058046363 -0.10894916
-0.25845248 0.028716918 -0.12426039
-0.25575399 3.7252903e-08 -0.13925181
-0.25311127 -0.028123453 -0.15393353
-0.25052264 -0.055671651 -0.16831489
-0.24798641 -0.082662106 -0.18240513
-0.24550101 -0.10911153 -0.1962128
-0.24306494 -0.13503607 -0.20974658
-0.24067613 -0.16045065 -0.22301772
-0.23833442 -0.18537113 -0.23602732
-0.23603784 -0.20981134 -0.24878615
-0.23378509 -0.233785 -0.26130134
-0.23157492 -0.25730538 -0.27358004
-0.22940616 -0.28038523 -0.28562868
-0.22727765 -0.30303684 -0.29745376
-0.22518827 -0.32527187 -0.30906138
-0.22313644 -0.34710112 -0.32046038
-0.22112218 -0.36853689 -0.33165082
-0.21914396 -0.38958919 -0.34264094
-0.2172008 -0.41026819 -0.3534362
-0.21529181 -0.43058357 -0.36404181
-0.21341608 -0.45054504 -0.37446243
-0.30526754 0.99211949 0.3478148
-0.30104688 0.94077146 0.32143566
-0.29694131 0.89082396 0.29577595
-0.29294625 0.84222043 0.27080661
-0.28905824 0.79491007 0.24650651
-0.28527111 0.74883664 0.222837
-0.28158194 0.70395488 0.19977966
-0.27798694 0.66021895 0.17731103
-0.27448261 0.6175859 0.15540899
-0.2710664 0.57601607 0.13405758
-0.26773331 0.53546667 0.11322595
-0.26448122 0.49590236 0.092900306
-0.26130718 0.45728755 0.073062479
-0.25820842 0.41958874 0.053695247
-0.25518304 0.38277459 0.034786656
-0.25222701 0.34681219 0.016311407
-0.24933866 0.31167337 -0.0017406493
-0.24651572 0.27733025 -0.019383997
-0.24375671 0.24375674 -0.036628
-0.24105805 0.21092582 -0.05349452
-0.23841852 0.1788139 -0.069991648
-0.23583615 0.14739759 -0.086131379
-0.23330913 0.11665455 -0.10192528
-0.23083632 0.086563677 -0.11738031
-0.22841476 0.057103746 -0.13251503
-0.22604348 0.02825544 -0.14733559
-0.22372094 2.2351742e-08 -0.1618515
-0.22144561 -0.027680703 -0.17607224
-0.2192167 -0.054804139 -0.19000311
-0.21703163 -0.08138679 -0.20365968
-0.21488971 -0.10744481 -0.21704672
-0.21278909 -0.13299316 -0.23017545
-0.21072969 -0.15804726 -0.24304685
-0.20870976 -0.182621 -0.25567132
-0.20672819 -0.20672821 -0.26805604
-0.2047839 -0.23038186 -0.28020802
-0.20287584 -0.25359476 -0.29213345
-0.201003 -0.27637902 -0.30383861
-0.19916444 -0.29874659 -0.31532976
-0.19735871 -0.32070792 -0.32661536
-0.19558592 -0.34227526 -0.33769536
-0.19384468 -0.36345866 -0.34857816
-0.19213417 -0.38426831 -0.35926878
-0.19045357 -0.40471381 -0.36977249
-0.18880214 -0.42480469 -0.38009396
-0.18717909 -0.44455034 -0.39023799
-0.26143509 0.97104454 0.30728611
-0.25789618 0.92105782 0.28200835
-0.25445181 0.8724063 0.25740576
-0.25109911 0.82503998 0.23345768
-0.24783275 0.77890301 0.2101267
-0.24465029 0.73395097 0.18739489
-0.24154852 0.6901387 0.16523933
-0.23852521 0.64742553 0.14364409
-0.23557585 0.60576653 0.12257743
-0.23269857 0.56512523 0.1020254
-0.22989072 0.52546453 0.081969187
-0.22714983 0.48674965 0.0623914
-0.22447421 0.44894844 0.043279856
-0.22186022 0.41202611 0.024608359
-0.21930639 0.37595379 0.006366834
-0.21681069 0.34070253 -0.011459574
-0.21437117 0.30624458 -0.028884664
-0.21198654 0.2725541 -0.045917854
-0.20965376 0.23960432 -0.062580384
-0.2073718 0.20737179 -0.07888025
-0.20513895 0.17583343 -0.094829023
-0.2029537 0.14496696 -0.11043816
-0.20081507 0.11475146 -0.12571418
-0.19872047 0.085165918 -0.14067551
-0.19666912 0.056191247 -0.15532784
-0.19465971 0.027808547 -0.16968086
-0.19269092 1.3411045e-07 -0.18374357
-0.19076207 -0.027251691 -0.19752114
-0.18887095 -0.05396308 -0.21102908
-0.18701698 -0.080150045 -0.2242718
-0.18519904 -0.10582798 -0.237257
-0.18341611 -0.13101147 -0.24999225
-0.18166718 -0.15571469 -0.26248464
-0.17995128 -0.17995122 -0.27474099
-0.17826751 -0.20373425 -0.28676796
-0.17661494 -0.22707628 -0.29857203
-0.17499274 -0.24998958 -0.31015927
-0.17340006 -0.27248579 -0.32153547
-0.17183611 -0.29457614 -0.33270663
-0.17029972 -0.31627086 -0.34368074
-0.16879097 -0.33758181 -0.35445771
-0.1673087 -0.3585186 -0.36504519
-0.16585223 -0.37909079 -0.37544855
-0.16442092 -0.39930791 -0.38567221
-0.16301408 -0.41917896 -0.39572108
-0.16163112 -0.43871304 -0.40559927
-0.16027109 -0.45791736 -0.41531384
-0.22241463 1.0008658 0.29334792
-0.2194261 0.95084655 0.26844355
-0.21651682 0.90215343 0.24419957
-0.21368441 0.85473764 0.22059602
-0.21092443 0.80854368 0.19759619
-0.20823483 0.76352775 0.175183
-0.20561297 0.7196455 0.15333414
-0.20305698 0.67685664 0.13203406
-0.2005631 0.63511646 0.11125165
-0.19812973 0.5943892 0.090973705
-0.19575471 0.55463839 0.071181938
-0.19343595 0.51582932 0.051858962
-0.19117206 0.47793019 0.032993138
-0.18895999 0.44090667 0.01455915
-0.18679853 0.40473011 -0.0034530908
-0.18468593 0.36937195 -0.021057814
-0.18262061 0.33480448 -0.038268909
-0.18060148 0.3010025 -0.055095039
-0.178626 0.267939 -0.071557313
-0.17669328 0.23559111 -0.087663315
-0.17480193 0.20393555 -0.10342468
-0.17295064 0.17295067 -0.11885197
-0.17113861 0.14261553 -0.13395235
-0.16936372 0.11290919 -0.14874299
-0.16762525 0.083812624 -0.1632303
-0.16592212 0.055307433 -0.177423
-0.16425325 0.027375586 -0.1913304
-0.16261803 2.9802322e-08 -0.20495713
-0.16101462 -0.026835725 -0.21831882
-0.15944254 -0.05314751 -0.2314195
-0.15790087 -0.078950427 -0.24426681
-0.1563891 -0.10425935 -0.25686485
-0.15490563 -0.12908801 -0.26922709
-0.15345003 -0.15345 -0.28135702
-0.15202154 -0.17735845 -0.29326114
-0.1506194 -0.20082583 -0.30494568
-0.14924289 -0.22386424 -0.31641662
-0.14789131 -0.2464855 -0.32767978
-0.14656399 -0.2687006 -0.33874077
-0.14525995 -0.29051989 -0.3496078
-0.14397924 -0.311955 -0.36028033
-0.14272091 -0.33301544 -0.3707664
-0.14148438 -0.35371092 -0.38107076
-0.14026912 -0.37405092 -0.3911981
-0.13907453 -0.3940444 -0.40115288
-0.13790013 -0.41370034 -0.41093963
-0.13674538 -0.43302703 -0.42056248
-0.13560954 -0.45203173 -0.43002787
-0.18151844 0.98019969 0.25507706
-0.17912972 0.93147457 0.23118976
-0.17680247 0.88401234 0.20791727
-0.17453492 0.8377676 0.18524179
-0.17232479 0.79269409 0.16314062
-0.17016995 0.74874771 0.14159206
-0.16806884 0.70588923 0.12058121
-0.16601849 0.66407394 0.10007751
-0.16401754 0.62326676 0.080068171
-0.16206427 0.58343136 0.060535342
-0.16015697 0.54453373 0.041462302
-0.1582945 0.50654244 0.022837684
-0.1564744 0.46942317 0.00463669
-0.15469567 0.43314791 -0.013150558
-0.15295695 0.39768803 -0.030537948
-0.15125684 0.36301649 -0.047538787
-0.14959458 0.32910809 -0.064161658
-0.14796801 0.29593599 -0.080427356
-0.14637643 0.26347765 -0.096342966
-0.14481874 0.23171003 -0.11191995
-0.14329423 0.20061199 -0.1271649
-0.14180112 0.17016135 -0.14209619
-0.14033878 0.14033882 -0.15671951
-0.13890631 0.11112501 -0.17104426
-0.13750279 0.08250168 -0.18507946
-0.1361277 0.054451115 -0.1988304
-0.13477948 0.026955947 -0.21231252
-0.13345772 4.4703484e-08 -0.22553015
-0.13216162 -0.026432328 -0.23849112
-0.13089046 -0.052356124 -0.2512027
-0.12964384 -0.077786259 -0.26366895
-0.12842043 -0.10273631 -0.27590308
-0.12721989 -0.12721986 -0.28790843
-0.12604159 -0.15124983 -0.29969141
-0.12488492 -0.17483881 -0.3112582
-0.12374958 -0.19799922 -0.3226116
-0.1226344 -0.22074187 -0.33376336
-0.12153914 -0.24307825 -0.34471592
-0.12046327 -0.26501918 -0.35547459
-0.11940601 -0.28657439 -0.36604717
-0.11836743 -0.30775526 -0.3764331
-0.11734675 -0.32857087 -0.3866398
-0.11634352 -0.34903055 -0.39667216
-0.1153573 -0.36914334 -0.40653431
-0.11438766 -0.38891801 -0.4162308
-0.11343418 -0.40836301 -0.42576557
-0.11249647 -0.4274866 -0.43514264
-0.1115739 -0.44629556 -0.44436836
-0.14416094 1.0091267 0.24190447
-0.14227743 0.96037269 0.21836051
-0.14044203 0.91287315 0.195418
-0.13865338 0.8665837 0.17306
-0.13690972 0.82145834 0.15126416
-0.13520938 0.77745402 0.13000992
-0.13355118 0.7345314 0.10928223
-0.13193274 0.69264674 0.089051604
-0.13035305 0.65176523 0.069305688
-0.12881073 0.61185098 0.050026864
-0.12730488 0.57287204 0.031203657
-0.12583347 0.5347923 0.012810946
-0.12439567 0.4975827 -0.0051616281
-0.12299035 0.46121383 -0.022728026
-0.12161644 0.42565754 -0.039901972
-0.12027287 0.39088684 -0.056696549
-0.11895901 0.35687709 -0.07311967
-0.11767321 0.32360137 -0.089192182
-0.11641492 0.29103729 -0.10492088
-0.11518324 0.25916234 -0.12031673
-0.11397766 0.22795536 -0.13538647
-0.11279677 0.19739437 -0.15014775
-0.11164008 0.16746017 -0.16460623
-0.11050689 0.13813365 -0.1787712
-0.10939647 0.10939651 -0.19265153
-0.1083084 0.081231333 -0.20625225
-0.1072415 0.053620756 -0.21958849
-0.10619543 0.026548862 -0.23266448
-0.10516956 5.2154064e-08 -0.24548784
-0.10416331 -0.0260408 -0.25806582
-0.1031764 -0.051588185 -0.27040231
-0.10220776 -0.076655768 -0.28251034
-0.10125715 -0.10125706 -0.294393
-0.10032405 -0.12540504 -0.30605674
-0.099407993 -0.14911199 -0.31750745
-0.098508738 -0.17239028 -0.32874811
-0.097625382 -0.19525072 -0.33979008
-0.096757732 -0.21770483 -0.35063571
-0.095905364 -0.23976338 -0.36129028
-0.095067896 -0.2614367 -0.37175873
-0.094244912 -0.28273469 -0.38204595
-0.093436055 -0.30366713 -0.39215666
-0.092640974 -0.32424334 -0.4020952
-0.091859303 -0.34447235 -0.41186601
-0.091090716 -0.36436281 -0.42147347
-0.090334877 -0.38392326 -0.43092129
-0.089591488 -0.40316159 -0.44021383
-0.088860042 -0.42208517 -0.44935688
-0.088140622 -0.44070297 -0.45834956
-0.087432764 -0.45902199 -0.46719778
-0.10594926 0.98885971 0.20571357
-0.10459209 0.94132882 0.18309423
-0.10326926 0.89500028 0.16104704
-0.10197947 0.84982884 0.13955042
-0.1007215 0.80577201 0.11858428
-0.099494502 0.76279116 0.09813419
-0.098296724 0.72084272 0.078171432
-0.097127452 0.67989218 0.058683515
-0.095985666 0.63990444 0.039653718
-0.094870701 0.60084784 0.021071017
-0.093781061 0.56268638 0.0029103458
-0.092716165 0.52539164 -0.014837921
-0.091675185 0.48893431 -0.032187641
-0.090657316 0.45328659 -0.049152106
-0.08966206 0.41842297 -0.065739691
-0.088688172 0.3843154 -0.081971183
-0.087735206 0.35094091 -0.097853839
-0.086802512 0.31827587 -0.11339886
-0.085889436 0.28629816 -0.12861681
-0.08499559 0.25498682 -0.14351414
-0.084119938 0.22431989 -0.15810826
-0.083262146 0.19427834 -0.17240484
-0.082421675 0.16484334 -0.1864128
-0.081597999 0.13599673 -0.20014068
-0.080790825 0.10772114 -0.21359357
-0.079999268 0.07999932 -0.22678629
-0.079223067 0.0528154 -0.23972294
-0.078461789 0.026153892 -0.25241095
-0.077714995 7.4505806e-08 -0.26485741
-0.076982476 -0.025660776 -0.27706614
-0.07626345 -0.050842278 -0.2890498
-0.075557731 -0.075557679 -0.30081183
-0.074864954 -0.099819884 -0.31235814
-0.074184939 -0.1236415 -0.32369161
-0.073517002 -0.14703397 -0.33482403
-0.072860971 -0.17000887 -0.34575772
-0.072216555 -0.19257744 -0.356498
-0.071583442 -0.2147503 -0.36705002
-0.07096149 -0.23653822 -0.37741598
-0.070350088 -0.25795025 -0.38760591
-0.069749139 -0.27899653 -0.39762172
-0.069158368 -0.29968625 -0.4074679
-0.068577521 -0.32002836 -0.41714868
-0.068006344 -0.34003174 -0.4266682
-0.067444615 -0.35970458 -0.43603051
-0.06689208 -0.37905508 -0.44523934
-0.06634853 -0.39809105 -0.45429862
-0.065813601 -0.41681933 -0.46321407
-0.065287367 -0.43524909 -0.47198462
-0.064769477 -0.45338628 -0.48061606
-0.069241978 0.96938777 0.17094222
-0.068372272 0.92302561 0.14919934
-0.067524128 0.8778137 0.12799588
-0.066696778 0.83370978 0.10731211
-0.065889657 0.79067588 0.087134153
-0.065101638 0.74866885 0.067433625
-0.064332247 0.70765471 0.048198819
-0.063580833 0.66759878 0.029413432
-0.062846951 0.62846947 0.011066377
-0.062129639 0.59023154 -0.0068664849
-0.06142851 0.55285662 -0.024394542
-0.060743034 0.51631582 -0.041531518
-0.060072687 0.48058152 -0.058290228
-0.05941714 0.44562852 -0.074678883
-0.058775581 0.41142905 -0.090717852
-0.058147732 0.37796026 -0.10641414
-0.057533152 0.34519896 -0.12177862
-0.056931429 0.3131229 -0.13682166
-0.056342311 0.28171158 -0.15154958
-0.055765115 0.25094303 -0.16597952
-0.055199619 0.22079848 -0.18011683
-0.054645482 0.19125921 -0.19397026
-0.054102503 0.16230753 -0.20754486
-0.053570066 0.13392529 -0.22085565
-0.053048011 0.10609608 -0.23390704
-0.052536033 0.078804061 -0.24670666
-0.052033838 0.052033849 -0.25926137
-0.051541157 0.025770612 -0.27157849
-0.051057838 -1.4901161e-08 -0.28366137
-0.050583381 -0.025291637 -0.29552287
-0.05011766 -0.050117619 -0.30716592
-0.049660437 -0.074490614 -0.31859639
-0.049211595 -0.098423071 -0.32981747
-0.048770681 -0.1219267 -0.34084028
-0.048337601 -0.14501283 -0.35166734
-0.047912139 -0.16769245 -0.36230382
-0.047494106 -0.18997642 -0.37275469
-0.047083408 -0.21187527 -0.38302213
-0.04667965 -0.23339818 -0.39311612
-0.046282757 -0.25455514 -0.4030385
-0.045892555 -0.27535528 -0.41279349
-0.04550888 -0.29580766 -0.42238542
-0.045131661 -0.31592155 -0.43181592
-0.044760551 -0.33570412 -0.44109356
-0.044395491 -0.35516384 -0.45022005
-0.04403634 -0.37430885 -0.45919889
-0.043682866 -0.39314571 -0.46803579
-0.043335102 -0.4116835 -0.47672972
-0.042992841 -0.42992839 -0.48528638
-0.042655941 -0.4478873 -0.49370888
-0.034381315 0.99705827 0.15895846
-0.033952422 0.9506678 0.1375137
-0.033534098 0.90542054 0.11659732
-0.033126056 0.86127746 0.09619543
-0.032727726 0.8181932 0.076278925
-0.032338861 0.77613276 0.05683589
-0.031959131 0.7350601 0.037849188
-0.031588215 0.69494081 0.019303501
-0.031225901 0.65574396 0.0011877418
-0.030871715 0.61743438 -0.016521573
-0.03052547 0.57998407 -0.033833742
-0.03018691 0.54336441 -0.050761804
-0.029855775 0.50754821 -0.067318514
-0.029531909 0.47251061 -0.083511844
-0.029214913 0.43822378 -0.099361598
-0.028904652 0.40466517 -0.11487472
-0.028600911 0.3718119 -0.13006178
-0.028303487 0.3396419 -0.14493306
-0.028012259 0.30813485 -0.15949447
-0.027726889 0.27726892 -0.17376292
-0.027447278 0.24702556 -0.1877435
-0.027173247 0.21738604 -0.20144492
-0.026904702 0.18833295 -0.2148722
-0.026641348 0.15984817 -0.22803988
-0.0263831 0.13191558 -0.24095233
-0.02612981 0.10451926 -0.25361693
-0.025881337 0.07764405 -0.26604056
-0.025637606 0.051275261 -0.27822709
-0.025398362 0.025398418 -0.29018927
-0.025163542 -0 -0.30193019
-0.024933023 -0.024933025 -0.31345609
-0.024706693 -0.049413353 -0.32477263
-0.024484489 -0.073453449 -0.3358829
-0.024266191 -0.097064741 -0.34679782
-0.024051752 -0.12025864 -0.35751978
-0.023841068 -0.14304644 -0.36805388
-0.023634044 -0.16543825 -0.37840509
-0.023430636 -0.18744503 -0.38857549
-0.02323065 -0.2090759 -0.39857483
-0.023034047 -0.23034045 -0.40840495
-0.022840746 -0.25124812 -0.41807008
-0.022650661 -0.27180791 -0.42757431
-0.022463761 -0.29202887 -0.43691933
-0.022279872 -0.3119182 -0.44611371
-0.022098972 -0.33148459 -0.45515871
-0.021920985 -0.35073572 -0.46405807
-0.021745887 -0.36968002 -0.47281301
-0.021573475 -0.3883225 -0.4814336
-0.021403819 -0.40667251 -0.48991638
-0.021236813 -0.42473626 -0.49826673
-0.021072388 -0.44252008 -0.50648797
0 0.9779346 0.12598681
0 0.93265724 0.10535192
0 0.88847733 0.085221082
0 0.84535027 0.065566152
0 0.80324131 0.046375215
0 0.76211488 0.027631998
0 0.72193712 0.009321183
0 0.68267751 -0.0085675716
0 0.644301 -0.026057452
0 0.60677993 -0.043157578
0 0.57008618 -0.059880584
0 0.53419411 -0.076234743
0 0.49907482 -0.092240259
0 0.46470508 -0.10790417
0 0.431061 -0.12323742
0 0.39811999 -0.1382502
0 0.36586028 -0.15295246
0 0.3342618 -0.16735011
0 0.30330247 -0.18145974
0 0.2729643 -0.19528638
0 0.24322844 -0.2088384
0 0.21407786 -0.22212061
0 0.18549442 -0.23514743
0 0.15746213 -0.24792317
0 0.12996536 -0.2604548
0 0.1029887 -0.27274933
0 0.076517895 -0.28481039
0 0.050538272 -0.29665065
0 0.025036663 -0.30827302
0 4.4703484e-08 -0.31968349
0 -0.024584293 -0.33088782
0 -0.048728704 -0.34188879
0 -0.072444633 -0.35269731
0 -0.095743261 -0.36331576
0 -0.11863579 -0.37374911
0 -0.14113288 -0.38399941
0 -0.16324428 -0.39407662
0 -0.18497996 -0.40398267
0 -0.20634937 -0.41372192
0 -0.22736177 -0.42329839
0 -0.24802601 -0.43271616
0 -0.26835132 -0.44197676
0 -0.28834477 -0.45108894
0 -0.30801499 -0.46005362
0 -0.32736978 -0.46887466
0 -0.34641731 -0.47755316
0 -0.36516356 -0.48609683
0 -0.38361621 -0.49450669
0 -0.4017821 -0.50278592
0 -0.41966793 -0.51093751
0 -0.43728006 -0.51896423
0 -0.45462471 -0.52686918
0.033494454 1.0048337 0.11461538
0.033087272 0.95953077 0.094256073
0.032689966 0.9153192 0.074391156
0.032301996 0.872154 0.054992557
0.031923123 0.83000124 0.0360488
0.031553037 0.78882599 0.017544657
0.031191433 0.7485944 -0.00053566694
0.030838113 0.70927668 -0.018201709
0.030492621 0.67083764 -0.035476297
0.030154783 0.63325042 -0.052368194
0.02982435 0.59648705 -0.068889856
0.029501162 0.56052208 -0.085049197
0.029184822 0.52532679 -0.10086629
0.028875196 0.49087834 -0.11634755
0.028572069 0.45715317 -0.13150392
0.02827524 0.42412865 -0.14634532
0.027984591 0.39178428 -0.16087781
0.027699783 0.36009717 -0.17511822
0.027420714 0.3290486 -0.18907166
0.027147211 0.29861939 -0.20274672
0.026879113 0.26879114 -0.21615177
0.026616322 0.23954701 -0.22929123
0.026358554 0.21086848 -0.24217962
0.026105734 0.18274014 -0.2548207
0.025857715 0.15514635 -0.26722151
0.025614366 0.12807186 -0.27938899
0.025375616 0.10150251 -0.29132661
0.025141215 0.075423673 -0.30304664
0.024911104 0.049822256 -0.31455219
0.024685167 0.024685234 -0.325849
0.024463292 5.9604645e-08 -0.33694273
0.024245426 -0.024245337 -0.34783602
0.024031352 -0.048062623 -0.35853976
0.023821024 -0.071463019 -0.36905614
0.023614347 -0.094457328 -0.37939
0.023411278 -0.1170563 -0.38954341
0.023211619 -0.13926969 -0.39952645
0.023015337 -0.16110733 -0.4093405
0.022822347 -0.1825787 -0.41898996
0.022632567 -0.20369308 -0.42847896
0.022445966 -0.22445963 -0.43780911
0.022262368 -0.24488598 -0.44698906
0.02208175 -0.26498097 -0.45601994
0.021904038 -0.28475243 -0.46490544
0.021729164 -0.30420825 -0.47364908
0.021557104 -0.32335651 -0.48225212
0.021387706 -0.34220326 -0.49072206
0.021220949 -0.36075601 -0.49905998
0.021056769 -0.37902182 -0.50726879
0.020895114 -0.39700711 -0.51535165
0.02073596 -0.41471922 -0.52330929
0.020579174 -0.43216258 -0.53114861
0.02042474 -0.44934422 -0.53887028
0.065736786 0.98605186 0.083312422
0.064952403 0.94180989 0.063702762
0.064186513 0.89861119 0.044555426
0.063438475 0.85641944 0.025854528
0.062707677 0.81519973 0.0075844228
0.0619937 0.77492118 -0.010264993
0.061295621 0.73554754 -0.027716815
0.060613088 0.69705057 -0.044780135
0.059945587 0.65940154 -0.061467588
0.059292633 0.62257266 -0.077791572
0.05865391 0.58653915 -0.093759581
0.058028642 0.55127203 -0.10939132
0.057416562 0.51674908 -0.12469333
0.056817263 0.48294681 -0.13967578
0.056230348 0.44984278 -0.15434876
0.055655573 0.41741687 -0.16871801
0.05509229 0.38564605 -0.18280005
0.054540295 0.35451192 -0.19659999
0.053999256 0.3239955 -0.21012613
0.053468972 0.29407939 -0.22338298
0.052948877 0.2647444 -0.23638543
0.052438799 0.23597458 -0.24913746
0.051938456 0.20775384 -0.26164603
0.051447567 0.18006651 -0.27391815
0.050965995 0.15289803 -0.28595743
0.050493233 0.12623306 -0.29777649
0.050029162 0.10005837 -0.30937821
0.049573552 0.074360326 -0.32076865
0.049126156 0.049126178 -0.3319535
0.048686877 0.024343431 -0.34293541
0.048255272 2.9802322e-08 -0.3537254
0.047831256 -0.023915634 -0.36432594
0.047414627 -0.047414646 -0.37474161
0.047005191 -0.070507795 -0.38497758
0.046602871 -0.093205705 -0.39503559
0.046207275 -0.11551811 -0.40492544
0.04581834 -0.13745497 -0.4146488
0.045435898 -0.15902559 -0.42420983
0.045059789 -0.18023911 -0.43361264
0.04468995 -0.20110469 -0.44285858
0.044326037 -0.22163017 -0.45195639
0.043968003 -0.241824 -0.46090725
0.04361571 -0.26169419 -0.46971458
0.043269105 -0.28124911 -0.47837982
0.042927876 -0.30049509 -0.48691046
0.042591989 -0.31943989 -0.49530762
0.042261317 -0.33809048 -0.50357443
0.041935738 -0.35645372 -0.51171386
0.041615222 -0.37453699 -0.51972675
0.041299485 -0.39234504 -0.5276202
0.040988505 -0.40988502 -0.53539467
0.040682174 -0.42716274 -0.54305303
0.040380385 -0.44418412 -0.55059773
0.097956888 1.0122211 0.072507411
0.096795633 0.9679563 0.053153247
0.095661595 0.92472875 0.034252554
0.094553813 0.88250226 0.015789539
0.0934714 0.84124267 -0.002250582
0.092413761 0.80091929 -0.01987806
0.091379523 0.76149595 -0.037115455
0.090368174 0.72294545 -0.053971022
0.089378968 0.68523884 -0.070457906
0.08841119 0.64834869 -0.086587608
0.087464377 0.61225057 -0.1023678
0.086537391 0.57691598 -0.11781745
0.085629858 0.5423224 -0.13294308
0.08474116 0.50844693 -0.1477547
0.083870716 0.47526741 -0.16226222
0.083018184 0.44276372 -0.17647085
0.082182609 0.41091308 -0.19039726
0.081363678 0.37969717 -0.20404604
0.080560908 0.34909728 -0.2174255
0.07977403 0.31909612 -0.23054028
0.079002172 0.2896747 -0.24340445
0.078245111 0.26081711 -0.25602216
0.077502415 0.23250732 -0.26840037
0.076773688 0.20472983 -0.28054586
0.07605873 0.17747045 -0.29246187
0.075356781 0.15071356 -0.30416113
0.074667662 0.12444614 -0.31564635
0.073991038 0.098654732 -0.32692337
0.073326573 0.073326588 -0.33799791
0.072674096 0.048449457 -0.34887242
0.072032966 0.024011016 -0.35955805
0.071403041 7.4505806e-08 -0.3700566
0.070784047 -0.023594677 -0.38037324
0.070175692 -0.04678373 -0.39051247
0.069577858 -0.069577873 -0.40047643
0.06898997 -0.091986567 -0.41027445
0.068411939 -0.11401983 -0.41990834
0.067843504 -0.13568701 -0.42938221
0.06728445 -0.15699695 -0.43869987
0.066734664 -0.17795907 -0.44786289
0.066193663 -0.19858095 -0.45687968
0.065661356 -0.21887113 -0.4657515
0.065137535 -0.23883763 -0.47448164
0.064622149 -0.2584886 -0.48307157
0.06411472 -0.27783042 -0.49152866
0.063615195 -0.29687086 -0.49985406
0.063123398 -0.31561697 -0.50805068
0.062639147 -0.33407539 -0.51612151
0.062192753 -0.35242561 -0.52356148
0.062192753 -0.37315652 -0.52356142
0.062192753 -0.3938874 -0.52356142
0.062192753 -0.41461828 -0.52356148
0.06219263 -0.43534845 -0.5235635
0.06219263 -0.45607933 -0.52356344
0.12822779 0.99376529 0.042739898
0.12673508 0.95051306 0.024081081
0.12527671 0.90825623 0.0058515966
0.12385154 0.86696076 -0.011963218
0.12245877 0.82659686 -0.029372603
0.12109664 0.78712821 -0.046399295
0.11976449 0.74852806 -0.063051313
0.11846132 0.71076792 -0.079340845
0.11718652 0.67382252 -0.095275849
0.11593855 0.63766205 -0.11087534
0.11471689 0.60226369 -0.12614627
0.1135207 0.56760347 -0.14109862
0.1123492 0.53365874 -0.15574227
0.11120193 0.50040871 -0.17008317
0.11007756 0.46782967 -0.18413781
0.10897571 0.43590286 -0.19791101
0.10789569 0.40460885 -0.21141127
0.10683686 0.37392911 -0.2246464
0.10579889 0.34384641 -0.23762128
0.10478064 0.3143419 -0.25034946
0.10378179 0.28539994 -0.26283506
0.10280181 0.2570045 -0.27508485
0.10184015 0.22914028 -0.2871055
0.10089657 0.20179316 -0.29890025
0.099970073 0.17494771 -0.3104814
0.099060439 0.14859064 -0.32185191
0.098167203 0.12270904 -0.33301723
0.097289942 0.097289965 -0.34398308
0.096428432 0.072321355 -0.35475194
0.095581837 0.047790959 -0.36533439
0.094749972 0.023687512 -0.37573266
0.093932465 7.4505806e-08 -0.38595152
0.093129151 -0.02328226 -0.39599296
0.092339255 -0.046169609 -0.40586656
0.091562644 -0.068671927 -0.41557419
0.090798996 -0.090798974 -0.42511994
0.09004797 -0.11255994 -0.43450767
0.089309469 -0.13396415 -0.44373909
0.088582784 -0.15501982 -0.45282254
0.087867834 -0.17573564 -0.46175939
0.087164328 -0.19611971 -0.47055319
0.086472005 -0.21617997 -0.47920734
0.085790761 -0.23592457 -0.48772275
0.08560279 -0.25680825 -0.49007243
0.08560279 -0.27820903 -0.49007243
0.08560279 -0.29960972 -0.49007243
0.08560279 -0.32101041 -0.49007243
0.085602626 -0.34241045 -0.49007457
0.085602626 -0.36381108 -0.49007457
0.085602626 -0.38521174 -0.4900746
0.085602626 -0.40661234 -0.49007457
0.085602626 -0.42801306 -0.49007455
0.085602626 -0.44941375 -0.49007455
0.085602626 -0.47081438 -0.49007457
0.15741459 0.97597051 0.014038652
0.15561455 0.93368733 -0.0039618909
0.15385522 0.89236021 -0.021555305
0.15213564 0.85195959 -0.038750857
0.15045367 0.81244993 -0.055570602
0.14880846 0.77380407 -0.072022617
0.14719887 0.73599434 -0.088118702
0.14562412 0.69899571 -0.10386625
0.14408231 0.66277862 -0.11928427
0.14257281 0.62732035 -0.1343793
0.1410946 0.59259737 -0.14916138
0.13964674 0.5585869 -0.16364004
0.13822865 0.52526891 -0.17782091
0.1368387 0.49261937 -0.19172025
0.13547646 0.46062002 -0.20534283
0.13414104 0.42925137 -0.21869682
0.13283172 0.39849523 -0.23179017
0.13154802 0.36833447 -0.24462718
0.13028859 0.33875036 -0.25722146
0.12905303 0.30972728 -0.26957706
0.12784068 0.28124952 -0.28170046
0.12665091 0.25330186 -0.2935982
0.12548338 0.22587013 -0.30527353
0.12433688 0.198939 -0.31673855
0.12321115 0.17249566 -0.3279959
0.12210561 0.14652672 -0.33905122
0.12101974 0.12101977 -0.34990996
0.11995327 0.095962629 -0.36057451
0.11890519 0.071343184 -0.37105542
0.11787526 0.047150105 -0.38135484
0.11686301 0.023372635 -0.39147729
0.11586825 5.9604645e-08 -0.40142488
0.11489004 -0.022977963 -0.41120696
0.1139282 -0.045571253 -0.4208253
0.11298234 -0.067789391 -0.43028399
0.11205205 -0.089641616 -0.43958691
0.11113719 -0.11113715 -0.44873548
0.11057601 -0.13269117 -0.45434716
0.11057601 -0.15480645 -0.45434716
0.11057601 -0.17692152 -0.45434716
0.11057601 -0.19903678 -0.45434719
0.11057601 -0.22115198 -0.45434716
0.11057601 -0.24326721 -0.45434713
0.11057579 -0.26538181 -0.45434949
0.11057579 -0.28749701 -0.45434952
0.11057579 -0.30961218 -0.45434946
0.11057579 -0.33172733 -0.45434946
0.11057579 -0.35384244 -0.45434952
0.11057556 -0.37595677 -0.45435187
0.11057556 -0.39807194 -0.45435184
0.11057556 -0.42018709 -0.45435172
0.11057556 -0.4423022 -0.45435178
0.11057556 -0.46441728 -0.45435181
0.11057556 -0.48653245 -0.45435175
0.18770759 1.0011072 0.0041225851
0.18557452 0.95880163 -0.013653159
0.1834899 0.91744953 -0.031024754
0.1814511 0.87701362 -0.048014939
0.17945708 0.83746648 -0.064631552
0.17750643 0.79877901 -0.08088699
0.17559773 0.76092356 -0.096792966
0.17373011 0.72387552 -0.11235642
0.17190135 0.68760538 -0.1275962
0.17011067 0.65209091 -0.14251854
0.16835691 0.61730874 -0.15713303
0.16663896 0.58323646 -0.17144936
0.16495614 0.5498538 -0.18547286
0.16330652 0.51713735 -0.19921957
0.16168959 0.48506889 -0.212694
0.16010438 0.45362914 -0.22590415
0.15854993 0.42279983 -0.23885788
0.15702577 0.39256448 -0.25155929
0.15553026 0.36290398 -0.26402193
0.15406296 0.33380306 -0.27624941
0.15262309 0.30524623 -0.28824833
0.15121023 0.27721882 -0.30002204
0.14982295 0.24970494 -0.31158271
0.14846089 0.22269134 -0.32293329
0.14712337 0.19616455 -0.33407912
0.14580975 0.17011139 -0.34502617
0.1445197 0.14451976 -0.35577661
0.14325194 0.11937664 -0.36634123
0.14200625 0.094670877 -0.37672198
0.14078201 0.070391074 -0.38692382
0.13957873 0.046526253 -0.39695132
0.13839613 0.023066029 -0.40680623
0.1372747 2.9802322e-08 -0.41615152
0.1372744 -0.022879034 -0.41615403
0.1372744 -0.045758069 -0.41615397
0.1372744 -0.068637133 -0.41615403
0.1372744 -0.091516197 -0.41615403
0.1372744 -0.11439532 -0.41615397
0.1372744 -0.13727438 -0.41615403
0.1372741 -0.16015306 -0.41615647
0.1372741 -0.18303216 -0.41615647
0.1372741 -0.20591107 -0.41615656
0.1372741 -0.22879012 -0.4161565
0.1372741 -0.25166914 -0.4161565
0.1372741 -0.27454817 -0.41615644
0.1372738 -0.29742655 -0.41615897
0.1372738 -0.32030547 -0.416159
0.1372738 -0.34318447 -0.41615897
0.1372738 -0.36606348 -0.41615894
0.1372738 -0.38894239 -0.416159
0.1372738 -0.41182137 -0.41615897
0.13727351 -0.43469939 -0.41616151
0.13727351 -0.45757836 -0.41616145
0.13727351 -0.48045725 -0.41616151
0.13727351 -0.50333607 -0.41616151
0.2151636 0.98360503 -0.023224384
0.21276143 0.94222915 -0.040382922
0.21041167 0.90176433 -0.057166725
0.20811325 0.86218345 -0.07358411
0.20586452 0.82345796 -0.089646608
0.20366386 0.78556061 -0.10536557
0.20151028 0.74846679 -0.12074813
0.19940126 0.71214736 -0.13581273
0.19733591 0.67658031 -0.15056516
0.19531289 0.64174235 -0.16501521
0.19333147 0.60761321 -0.17916836
0.19138932 0.57416803 -0.19304074
0.18948582 0.54138815 -0.2066371
0.18761981 0.50925386 -0.21996579
0.1857902 0.47774622 -0.23303455
0.18399592 0.4468472 -0.24585083
0.1822364 0.41654044 -0.25841868
0.18050981 0.38680673 -0.27075168
0.1788156 0.35763121 -0.28285307
0.1771529 0.32899833 -0.29472938
0.17552127 0.30089357 -0.30638409
0.17391899 0.27330127 -0.3178288
0.17234571 0.24620821 -0.32906651
0.17080064 0.21960095 -0.34010276
0.16928303 0.19346635 -0.35094288
0.16779253 0.16779254 -0.36158934
0.16632766 0.14256653 -0.37205261
0.16588347 0.11848819 -0.37522545
0.16588347 0.094790578 -0.37522539
0.16588311 0.071092814 -0.37522805
0.16588311 0.0473952 -0.37522811
0.16588311 0.023697615 -0.37522808
0.16588311 2.9802322e-08 -0.37522808
0.16588311 -0.023697555 -0.37522805
0.16588272 -0.047395021 -0.37523076
0.16588272 -0.071092531 -0.37523073
0.16588272 -0.094790101 -0.37523073
0.16588272 -0.11848763 -0.37523073
0.16588272 -0.14218518 -0.37523079
0.16588272 -0.16588269 -0.3752307
0.16588235 -0.18957976 -0.37523335
0.16588235 -0.21327721 -0.37523341
0.16588235 -0.23697476 -0.37523344
0.16588235 -0.26067227 -0.37523332
0.16588235 -0.28436965 -0.37523341
0.16588235 -0.30806723 -0.37523335
0.16588199 -0.33176395 -0.375236
0.16588199 -0.35546139 -0.37523597
0.16588199 -0.37915882 -0.375236
0.16588199 -0.40285614 -0.37523606
0.16588199 -0.42655355 -0.37523603
0.16588199 -0.45025104 -0.37523606
0.16588162 -0.47394741 -0.37523866
0.16588162 -0.49764487 -0.37523872
0.16588162 -0.52134216 -0.37523872
0.24438873 1.0081036 -0.032677859
0.24167684 0.96670729 -0.049627155
0.23902379 0.92621714 -0.06620872
0.23642839 0.88660645 -0.082429916
0.23388872 0.84784651 -0.098302931
0.23140304 0.80991066 -0.11383846
0.22897026 0.7727747 -0.12904325
0.2265875 0.73640943 -0.14393547
0.22425382 0.70079315 -0.15852109
0.2219677 0.66590309 -0.17280929
0.21972829 0.63171887 -0.1868055
0.21753308 0.59821594 -0.20052561
0.21538128 0.56537592 -0.21397431
0.21327166 0.53317916 -0.22715953
0.21120293 0.501607 -0.240089
0.2091745 0.47064263 -0.25276682
0.20718412 0.44026634 -0.26520655
0.20523129 0.41046259 -0.27741188
0.20331492 0.38121548 -0.28938916
0.20143402 0.35250959 -0.30114487
0.19958805 0.32433063 -0.31268212
0.19777516 0.29666278 -0.32401267
0.1966152 0.27034596 -0.33126235
0.1966152 0.24576899 -0.33126235
0.19661476 0.22119164 -0.33126512
0.19661476 0.19661483 -0.33126509
0.19661476 0.17203793 -0.33126515
0.19661476 0.14746112 -0.33126509
0.19661476 0.12288427 -0.33126518
0.19661476 0.098307401 -0.33126515
0.19661476 0.073730588 -0.33126521
0.1966143 0.049153626 -0.33126804
0.1966143 0.024576753 -0.33126801
0.1966143 -1.4901161e-08 -0.33126801
0.1966143 -0.024576738 -0.33126801
0.1966143 -0.049153522 -0.33126804
0.19661383 -0.073730178 -0.33127087
0.19661383 -0.098306917 -0.33127081
0.19661383 -0.12288361 -0.3312709
0.19661383 -0.1474604 -0.33127087
0.19661383 -0.17203704 -0.33127087
0.19661383 -0.19661382 -0.3312709
0.19661383 -0.22119056 -0.33127081
0.19661337 -0.24576671 -0.33127373
0.19661337 -0.27034336 -0.33127373
0.19661337 -0.29492 -0.33127376
0.19661337 -0.31949666 -0.33127379
0.19661337 -0.34407339 -0.33127373
0.19661292 -0.36864918 -0.33127663
0.19661292 -0.39322582 -0.3312766
0.19661292 -0.41780242 -0.33127657
0.19661292 -0.44237906 -0.33127657
0.19661292 -0.46695569 -0.33127657
0.19661292 -0.49153221 -0.33127663
0.19661292 -0.51610887 -0.33127663
0.19661246 -0.54068428 -0.33127943
0.2702426 0.99088955 -0.05875957
0.26729372 0.95037758 -0.075142354
0.2644085 0.91074038 -0.091171175
0.26158491 0.87194967 -0.1068579
0.25882098 0.83397865 -0.1222131
0.25611556 0.79680395 -0.13724324
0.25346538 0.76039618 -0.15196621
0.25086954 0.72473425 -0.16638765
0.24832632 0.68979532 -0.18051672
0.24583478 0.65555942 -0.19435859
0.24339211 0.62200207 -0.20792906
0.24099751 0.58910507 -0.22123227
0.23864955 0.55684894 -0.23427653
0.23634692 0.52521539 -0.24706894
0.23408888 0.49418759 -0.25961366
0.23187301 0.46374601 -0.27192411
0.22971533 0.43390667 -0.28391108
0.22971533 0.40838283 -0.28391108
0.22971533 0.38285887 -0.28391114
0.22971477 0.35733414 -0.28391415
0.22971477 0.33181018 -0.28391421
0.22971477 0.30628636 -0.28391424
0.22971477 0.28076249 -0.28391421
0.22971477 0.25523871 -0.28391412
0.22971477 0.2297148 -0.28391418
0.22971477 0.20419094 -0.28391418
0.2297142 0.17866665 -0.28391725
0.2297142 0.15314281 -0.28391728
0.2297142 0.12761901 -0.28391731
0.2297142 0.10209528 -0.28391725
0.2297142 0.076571479 -0.28391728
0.22971366 0.051047519 -0.28392035
0.22971366 0.025523767 -0.28392041
0.22971366 7.4505806e-08 -0.28392038
0.22971366 -0.025523737 -0.28392035
0.22971366 -0.051047437 -0.28392035
0.22971366 -0.076571159 -0.28392041
0.22971366 -0.10209493 -0.28392032
0.2297131 -0.12761834 -0.28392345
0.2297131 -0.15314206 -0.28392339
0.2297131 -0.17866564 -0.28392345
0.2297131 -0.20418932 -0.28392342
0.2297131 -0.22971305 -0.28392339
0.22971255 -0.25523615 -0.28392655
0.22971255 -0.28075981 -0.28392646
0.22971255 -0.30628335 -0.28392649
0.22971255 -0.33180696 -0.28392655
0.22971255 -0.35733062 -0.28392655
0.22971255 -0.38285428 -0.28392646
0.22971255 -0.40837783 -0.28392655
0.22971199 -0.43390042 -0.28392959
0.22971199 -0.45942396 -0.28392965
0.22971199 -0.4849475 -0.28392962
0.22971199 -0.51047099 -0.28392959
0.22971199 -0.53599465 -0.28392956
0.22971144 -0.56151682 -0.28393269
0.29846501 1.014781 -0.067782313
0.29522753 0.97425079 -0.083969742
0.29205954 0.93459058 -0.099809647
0.28895882 0.89577234 -0.11531332
0.28592399 0.85777199 -0.13048735
0.2829515 0.82055938 -0.14534986
0.2800402 0.78411251 -0.15990636
0.27718818 0.74840808 -0.17416644
0.27439365 0.71342355 -0.18813905
0.27165565 0.67913914 -0.20182914
0.26897103 0.64553046 -0.21525219
0.26633897 0.61257958 -0.2284126
0.26546857 0.58403081 -0.23276456
0.26546857 0.55748403 -0.23276456
0.26546857 0.53093719 -0.23276445
0.26546857 0.5043903 -0.23276439
0.26546791 0.47784224 -0.23276788
0.26546791 0.4512955 -0.23276781
0.26546791 0.42474869 -0.23276784
0.26546791 0.39820188 -0.23276782
0.26546791 0.37165508 -0.23276785
0.26546791 0.3451083 -0.23276779
0.26546723 0.31856069 -0.2327712
0.26546723 0.292014 -0.23277116
0.26546723 0.26546732 -0.23277113
0.26546723 0.23892054 -0.23277117
0.26546723 0.21237385 -0.23277114
0.26546723 0.18582709 -0.2327712
0.26546657 0.15927993 -0.23277454
0.26546657 0.13273335 -0.23277447
0.26546657 0.10618663 -0.23277454
0.26546657 0.079639986 -0.23277456
0.26546657 0.053093299 -0.23277453
0.26546657 0.026546642 -0.23277453
0.26546589 -1.4901161e-08 -0.23277782
0.26546589 -0.026546523 -0.23277786
0.26546589 -0.053093135 -0.2327778
0.26546589 -0.07963974 -0.23277777
0.26546589 -0.10618626 -0.23277782
0.26546589 -0.13273294 -0.23277786
0.26546523 -0.15927909 -0.23278122
0.26546523 -0.18582553 -0.23278116
0.26546523 -0.21237217 -0.23278116
0.26546523 -0.23891869 -0.2327812
0.26546523 -0.26546514 -0.23278114
0.26546523 -0.29201177 -0.23278114
0.26546457 -0.31855741 -0.23278454
0.26546457 -0.34510386 -0.23278451
0.26546457 -0.37165037 -0.23278452
0.26546457 -0.39819682 -0.23278446
0.26546457 -0.42474329 -0.23278446
0.26546457 -0.45128968 -0.23278454
0.26546389 -0.47783494 -0.23278788
0.26546389 -0.50438136 -0.2327878
0.26546389 -0.53092778 -0.23278789
0.26546389 -0.55747408 -0.23278788
0.26546389 -0.58402056 -0.23278783
0.32283121 0.99784195 -0.092692792
0.31938726 0.95816171 -0.10834715
0.31601602 0.91931927 -0.12367097
0.31271601 0.88129067 -0.13867086
0.30948344 0.84404564 -0.15336457
0.30631697 0.80756295 -0.16775745
0.30420727 0.77434576 -0.17734703
0.30420727 0.74669051 -0.17734706
0.30420727 0.71903539 -0.17734709
0.30420727 0.69138014 -0.17734711
0.30420727 0.6637249 -0.17734708
0.30420646 0.63606805 -0.17735074
0.30420646 0.60841298 -0.17735071
0.30420646 0.58075786 -0.17735063
0.30420646 0.55310273 -0.17735069
0.30420646 0.52544761 -0.17735063
0.30420646 0.49779245 -0.17735069
0.30420569 0.47013611 -0.17735431
0.30420569 0.44248101 -0.17735425
0.30420569 0.41482592 -0.17735434
0.30420569 0.38717094 -0.17735428
0.30420569 0.35951582 -0.17735434
0.30420569 0.33186075 -0.17735432
0.30420488 0.30420491 -0.17735791
0.30420488 0.27654988 -0.17735793
0.30420488 0.24889499 -0.1773579
0.30420488 0.22123997 -0.17735791
0.30420488 0.19358495 -0.17735793
0.30420488 0.16592996 -0.17735797
0.30420408 0.1382747 -0.17736156
0.30420408 0.11061967 -0.17736158
0.30420408 0.082964823 -0.17736158
0.30420408 0.055309869 -0.1773615
0.30420408 0.027654938 -0.17736161
0.30420408 3.7252903e-08 -0.17736158
0.30420327 -0.027654842 -0.17736515
0.30420327 -0.055309702 -0.17736518
0.30420327 -0.08296448 -0.17736518
0.30420327 -0.11061933 -0.17736517
0.30420327 -0.1382741 -0.17736517
0.30420327 -0.165929 -0.17736514
0.3042025 -0.19358334 -0.17736882
0.3042025 -0.22123811 -0.17736882
0.3042025 -0.24889284 -0.17736878
0.3042025 -0.27654764 -0.17736882
0.3042025 -0.30420247 -0.17736885
0.3042025 -0.3318572 -0.17736882
0.30420169 -0.35951096 -0.1773724
0.30420169 -0.38716578 -0.17737246
0.30420169 -0.41482037 -0.17737246
0.30420169 -0.44247517 -0.17737244
0.30420169 -0.47012991 -0.1773724
0.30420169 -0.49778455 -0.17737243
0.30420089 -0.52543783 -0.17737603
0.30420089 -0.55309248 -0.17737606
0.30420089 -0.58074713 -0.17737605
0.30420089 -0.60840178 -0.17737597
0.34639728 0.98145908 -0.11678523
0.34632161 0.95238447 -0.11710057
0.34632161 0.92352426 -0.11710066
0.34632161 0.89466429 -0.11710051
0.34632161 0.86580408 -0.11710063
0.34632161 0.83694386 -0.11710063
0.34632066 0.80808157 -0.11710456
0.34632066 0.77922148 -0.11710459
0.34632066 0.75036144 -0.11710456
0.34632066 0.72150147 -0.11710456
0.34632066 0.69264138 -0.11710456
0.34632066 0.66378134 -0.11710453
0.34632066 0.63492119 -0.11710455
0.34631974 0.60605955 -0.11710845
0.34631974 0.57719958 -0.11710845
0.34631974 0.54833949 -0.11710852
0.34631974 0.51947963 -0.11710846
0.34631974 0.49061963 -0.11710854
0.34631878 0.46175835 -0.11711244
0.34631878 0.43289849 -0.11711238
0.34631878 0.40403861 -0.11711247
0.34631878 0.37517875 -0.11711241
0.34631878 0.34631884 -0.11711245
0.34631878 0.3174589 -0.11711249
0.34631878 0.28859898 -0.11711252
0.34631783 0.25973839 -0.11711636
0.34631783 0.23087862 -0.11711638
0.34631783 0.20201869 -0.11711642
0.34631783 0.173159 -0.11711636
0.34631783 0.14429916 -0.1171163
0.3463169 0.11543898 -0.11712038
0.3463169 0.086579263 -0.11712027
0.3463169 0.057719551 -0.11712034
0.3463169 0.028859798 -0.11712036
0.3463169 7.4505806e-08 -0.11712025
0.3463169 -0.028859731 -0.11712024
0.34631592 -0.057719357 -0.11712431
0.34631592 -0.086578995 -0.11712428
0.34631592 -0.11543867 -0.11712421
0.34631592 -0.14429826 -0.11712423
0.34631592 -0.17315796 -0.1171242
0.34631592 -0.20201764 -0.1171243
0.346315 -0.23087659 -0.11712816
0.346315 -0.25973624 -0.11712822
0.346315 -0.2885958 -0.11712819
0.346315 -0.31745538 -0.1171282
0.346315 -0.34631497 -0.11712821
0.346315 -0.37517452 -0.11712816
0.34631404 -0.40403306 -0.11713208
0.34631404 -0.4328925 -0.11713214
0.34631404 -0.461752 -0.11713217
0.34631404 -0.49061152 -0.11713214
0.34631404 -0.51947105 -0.1171321
0.34631404 -0.54833055 -0.11713214
0.34631312 -0.57718849 -0.11713611
0.34631312 -0.60604787 -0.11713611
0.34631312 -0.63490731 -0.11713609
0.39227408 0.96559781 -0.051360846
0.39227408 0.93542284 -0.051360816
0.39227298 0.9052453 -0.051365167
0.39227188 0.87506807 -0.051369429
0.39227188 0.84489322 -0.051369518
0.39227074 0.81471616 -0.05137381
0.39227074 0.78454137 -0.05137381
0.39227074 0.75436682 -0.05137381
0.39227074 0.72419214 -0.051373839
0.39227074 0.69401753 -0.05137378
0.39227074 0.66384274 -0.05137375
0.39227074 0.63366818 -0.05137375
0.39226961 0.60349172 -0.051378161
0.39226961 0.57331717 -0.051377982
0.39226961 0.5431425 -0.051378056
0.39226961 0.512968 -0.051378071
0.39226961 0.48279339 -0.051378056
0.39226848 0.45261759 -0.051382333
0.39226848 0.42244303 -0.051382348
0.39226848 0.39226848 -0.051382378
0.39226848 0.3620941 -0.051382348
0.39226848 0.33191955 -0.051382363
0.39226848 0.301745 -0.051382378
0.39226848 0.27157047 -0.051382408
0.39226738 0.24139532 -0.051386774
0.39226738 0.21122092 -0.051386744
0.39226738 0.18104658 -0.051386632
0.39226738 0.15087208 -0.051386695
0.39226738 0.12069767 -0.051386658
0.39226624 0.090523027 -0.051390998
0.39226624 0.060348701 -0.05139105
0.39226624 0.030174412 -0.051390968
0.39226624 4.0978193e-08 -0.051390976
0.39226624 -0.030174326 -0.051390983
0.39226624 -0.060348652 -0.051391035
0.39226514 -0.090522662 -0.051395282
0.39226514 -0.12069699 -0.051395331
0.39226514 -0.15087114 -0.051395364
0.39226514 -0.18104538 -0.051395319
0.39226514 -0.21121964 -0.05139529
0.39226514 -0.24139392 -0.05139529
0.39226401 -0.27156737 -0.051399626
0.39226401 -0.30174151 -0.051399618
0.39226401 -0.33191565 -0.051399648
0.39226401 -0.36208975 -0.051399633
0.39226401 -0.39226401 -0.051399603
0.39226401 -0.42243814 -0.051399589
0.39226291 -0.452611 -0.051403984
0.39226291 -0.48278511 -0.05140391
0.39226291 -0.51295912 -0.051403984
0.39226291 -0.54313326 -0.05140397
0.39226291 -0.57330728 -0.05140391
0.39226291 -0.60348129 -0.05140394
0.39226177 -0.63365358 -0.051408172
0.39226177 -0.66382754 -0.051408201
0.44261602 0.94846284 0.020664155
0.4426147 0.91684484 0.020659477
0.44261339 0.88522673 0.020654678
0.44261208 0.85360897 0.02064994
0.44261071 0.82199132 0.020645231
0.44261071 0.79037631 0.02064532
0.4426094 0.7587589 0.020640433
0.44260809 0.72714186 0.020635813
0.44260678 0.69552493 0.020631135
0.44260678 0.66391009 0.020630926
0.44260678 0.63229543 0.020631075
0.44260544 0.6006788 0.020626277
0.44260544 0.56906414 0.020626336
0.44260544 0.53744948 0.020626336
0.44260544 0.50583482 0.020626321
0.44260544 0.4742201 0.020626307
0.44260544 0.4426055 0.020626396
0.44260409 0.41098955 0.020621628
0.44260409 0.37937504 0.020621642
0.44260409 0.34776035 0.020621613
0.44260409 0.31614581 0.020621628
0.44260409 0.2845313 0.020621642
0.44260409 0.2529166 0.020621598
0.44260278 0.22130141 0.020616837
0.44260278 0.18968698 0.020616896
0.44260278 0.15807244 0.020616911
0.44260278 0.12645799 0.020616852
0.44260278 0.094843537 0.020616956
0.44260278 0.063229039 0.020616934
0.44260147 0.031614434 0.020612128
0.44260147 1.5832484e-08 0.020612195
0.44260147 -0.031614389 0.020612095
0.44260147 -0.063228808 0.020612158
0.44260147 -0.094843134 0.020612147
0.44260147 -0.12645756 0.020612214
0.44260016 -0.15807144 0.020607419
0.44260016 -0.18968576 0.020607404
0.44260016 -0.2213001 0.020607397
0.44260016 -0.25291425 0.020607404
0.44260016 -0.28452858 0.020607397
0.44260016 -0.31614292 0.020607382
0.44259882 -0.34775615 0.020602629
0.44259882 -0.37937039 0.020602658
0.44259882 -0.41098452 0.020602718
0.44259882 -0.44259873 0.020602673
0.44259882 -0.474213 0.020602703
0.44259882 -0.50582719 0.020602658
0.44259748 -0.53743976 0.020597935
0.44259748 -0.56905389 0.020597994
0.44259748 -0.60066801 0.020598054
0.44259748 -0.63228208 0.020597965
0.44259748 -0.6638962 0.020597994
0.44259748 -0.69551027 0.020597965
0.49800229 0.89640409 0.099900186
0.49800068 0.86320114 0.099894941
0.49799913 0.82999855 0.099889696
0.49799913 0.79679859 0.099889725
0.49799758 0.7635963 0.09988454
0.497996 0.73039418 0.099879324
0.49799445 0.69719231 0.099874109
0.49799445 0.66399258 0.099874079
0.4979929 0.63079095 0.099868923
0.49799129 0.59758961 0.099863708
0.49798974 0.56438845 0.099858508
0.49798819 0.53118742 0.099853277
0.49798819 0.49798828 0.099853247
0.49798661 0.4647876 0.099848092
0.49798661 0.43158835 0.099847972
0.49798506 0.39838809 0.099842906
0.49798506 0.36518905 0.099842802
0.49798506 0.33199006 0.099842787
0.49798506 0.29879111 0.099842891
0.49798506 0.26559204 0.099842787
0.49798506 0.23239301 0.099842809
0.49798352 0.19919342 0.099837631
0.49798352 0.16599457 0.099837661
0.49798352 0.13279563 0.099837609
0.49798352 0.099596687 0.099837549
0.49798352 0.066397898 0.099837668
0.49798352 0.033198956 0.099837616
0.49798191 -2.2351742e-08 0.099832393
0.49798191 -0.033198796 0.099832356
0.49798191 -0.066397496 0.099832401
0.49798191 -0.099596351 0.09983243
0.49798191 -0.13279513 0.099832386
0.49798191 -0.16599399 0.099832416
0.49798036 -0.19919212 0.099827096
0.49798036 -0.23239082 0.099827141
0.49798036 -0.26558951 0.099827185
0.49798036 -0.29878822 0.09982723
0.49798036 -0.33198678 0.099827185
0.49798036 -0.36518559 0.099827148
0.49797881 -0.39838305 0.099822044
0.49797881 -0.43158162 0.099822059
0.49797881 -0.46478021 0.099822029
0.49797881 -0.49797869 0.099821955
0.49797881 -0.53117728 0.099821925
0.49797881 -0.56437588 0.099821955
0.49797723 -0.59757262 0.09981671
0.49797723 -0.63077104 0.09981674
0.49797723 -0.66396964 0.09981674
0.49797723 -0.69716805 0.09981671
0.49797723 -0.73036659 0.099816769
0.55923581 0.87380588 0.18750444
0.55923396 0.83885098 0.18749875
0.55923212 0.80389619 0.18749297
0.55923212 0.7689442 0.18749303
0.55923027 0.73398983 0.1874873
0.55922842 0.69903564 0.18748152
0.55922657 0.66408157 0.18747564
0.55922657 0.62912989 0.18747562
0.55922472 0.59417629 0.18746993
0.55922288 0.55922288 0.18746403
0.55922103 0.52426976 0.18745843
0.55922103 0.48931849 0.18745834
0.55921918 0.45436549 0.18745248
0.55921733 0.419413 0.18744682
0.55921549 0.38446069 0.18744087
0.55921549 0.34950975 0.18744099
0.55921364 0.31455767 0.18743527
0.55921173 0.27960595 0.18742946
0.55920994 0.24465436 0.18742366
0.55920994 0.20970374 0.18742362
0.5592081 0.17475256 0.18741794
0.5592081 0.13980208 0.18741781
0.5592081 0.10485158 0.18741782
0.5592081 0.069901004 0.18741792
0.5592081 0.034950599 0.18741789
0.5592081 2.2351742e-08 0.18741783
0.55920619 -0.034950383 0.18741211
0.55920619 -0.069900706 0.18741214
0.55920619 -0.10485111 0.1874121
0.55920619 -0.13980153 0.18741205
0.55920619 -0.17475185 0.18741208
