# .PCD v0.7 - Point Cloud Data file format
VERSION 0.7
FIELDS x y z
SIZE 4 4 4
TYPE F F F
COUNT 1 1 1
WIDTH 1370
HEIGHT 1
VIEWPOINT 0 0 0 1 0 0 0
POINTS 1370
DATA ascii
-1.0368199 -0.18031648 0.69384897
-1.0765687 -0.23403671 0.78025937
-0.58861881 0.34782028 -0.22233731
-0.6018067 0.32825825 -0.19236484
-0.61560071 0.30780041 -0.16101484
-0.63004017 0.28638184 -0.12819792
-0.64517504 0.26393524 -0.093800403
-0.66105318 0.240383 -0.057713792
-0.67773449 0.21564284 -0.019801751
-0.69527739 0.18962115 0.020068623
-0.71375483 0.16221702 0.062062655
-0.73323888 0.13331623 0.10634454
-0.75381887 0.10279342 0.15311739
-0.775585 0.07050772 0.20258588
-0.79864818 0.036302269 0.25500217
-0.82312208 5.9604645e-08 0.31062469
-0.84914654 -0.038597539 0.36977118
-0.876867 -0.079715163 0.43277216
-0.90646195 -0.1236084 0.50003344
-0.9381206 -0.17056741 0.57198495
-0.97207475 -0.22092606 0.64915347
-1.0085746 -0.27506572 0.73210764
-1.0479273 -0.33343133 0.82154542
-0.53214943 0.35476628 -0.29308495
-0.54342818 0.33640793 -0.26623067
-0.55519682 0.31725538 -0.23821011
-0.56748503 0.29725406 -0.20895243
-0.58033109 0.27634823 -0.17836668
-0.5937705 0.25447309 -0.14636803
-0.60784888 0.23156147 -0.11284809
-0.62260932 0.20753643 -0.077704303
-0.63810623 0.18231606 -0.040806763
-0.65439242 0.15580782 -0.0020301417
-0.6715337 0.12791124 0.038782481
-0.68959504 0.098513603 0.081785515
-0.70865703 0.067491226 0.12717117
-0.72880036 0.034704812 0.17513159
-0.75012493 8.1956387e-08 0.22590429
-0.77273232 -0.036796659 0.27973139
-0.79674757 -0.075880691 0.33691067
-0.82230037 -0.11747141 0.39775074
-0.84954977 -0.16181894 0.46263024
-0.8786636 -0.20920555 0.53194875
-0.90984732 -0.2599563 0.60619581
-0.94332206 -0.31444073 0.68589735
-0.97935826 -0.37308884 0.77169788
-1.0182524 -0.43639386 0.86430311
-0.49103215 0.34372246 -0.33252701
-0.50111002 0.32572159 -0.30733225
-0.51160902 0.30696541 -0.28108475
-0.52255869 0.28740728 -0.25371057
-0.53398591 0.26699299 -0.22514249
-0.54592562 0.24566662 -0.19529337
-0.55840987 0.22336395 -0.16408277
-0.57148004 0.20001797 -0.13140737
-0.58517504 0.17555255 -0.097169623
-0.59954429 0.14988615 -0.061246511
-0.61463517 0.12292705 -0.023519333
-0.63050729 0.094576083 0.016160917
-0.64721894 0.064721927 0.057940058
-0.66484261 0.033242136 0.10199914
-0.68345076 1.1175871e-07 0.14851949
-0.70313287 -0.035156511 0.19772482
-0.72397971 -0.072397947 0.24984202
-0.74610317 -0.11191541 0.30515051
-0.76961851 -0.15392372 0.36393875
-0.7946673 -0.19866681 0.426561
-0.82139838 -0.24641949 0.49338853
-0.84999377 -0.29749781 0.56487709
-0.88064837 -0.35225922 0.64151347
-0.91360062 -0.41112036 0.72389436
-0.94911057 -0.47455528 0.81266904
-0.98749715 -0.5431233 0.9086355
-0.44374478 0.35032487 -0.39235792
-0.4523986 0.3333464 -0.36958465
-0.46139663 0.31569251 -0.3459056
-0.470761 0.29732272 -0.32126257
-0.48051223 0.27819133 -0.29560152
-0.49067712 0.25825122 -0.26885176
-0.50128013 0.23744854 -0.240949
-0.51235282 0.21572757 -0.21181041
-0.52392435 0.19302477 -0.18135907
-0.53603208 0.16927336 -0.14949661
-0.54871112 0.14439769 -0.11613066
-0.56200618 0.11831719 -0.0811437
-0.57595974 0.090941064 -0.04442367
-0.59062564 0.062171131 -0.0058293566
-0.60605609 0.031897772 0.034776974
-0.6223163 5.5879354e-08 0.077567212
-0.63947111 -0.03365637 0.12271129
-0.65760064 -0.06922105 0.17042072
-0.67678583 -0.10686092 0.22090806
-0.69712657 -0.14676346 0.2744363
-0.71872526 -0.18913814 0.33127496
-0.74170786 -0.23422357 0.3917554
-0.76620591 -0.28228635 0.45622405
-0.79238063 -0.33363396 0.52510494
-0.82040364 -0.3886123 0.59884977
-0.85048503 -0.44762367 0.67801118
-0.88285244 -0.51112497 0.7631886
-0.91778517 -0.57965386 0.85511696
-0.95559168 -0.65382582 0.95460773
-0.40085095 0.35631192 -0.44663244
-0.40829909 0.34024924 -0.42594326
-0.41602919 0.32357827 -0.40447074
-0.42405671 0.30626315 -0.38217208
-0.43240014 0.28826684 -0.3589958
-0.44107947 0.26954865 -0.33488649
-0.45011443 0.2500636 -0.30978957
-0.45952609 0.22976309 -0.28364599
-0.46933979 0.20859544 -0.2563858
-0.47958294 0.18650457 -0.22793239
-0.49028197 0.1634274 -0.19821295
-0.50147057 0.13929738 -0.16713353
-0.51318038 0.11404012 -0.1346063
-0.5254516 0.087575324 -0.10051963
-0.53832251 0.059813634 -0.064766996
-0.55184144 0.030657914 -0.027214507
-0.56605512 -1.5366822e-08 0.012268018
-0.58102214 -0.032278951 0.053843074
-0.59680033 -0.066311121 0.097671196
-0.61346126 -0.10224347 0.14395176
-0.63107711 -0.14023925 0.19288464
-0.64973682 -0.18048248 0.24471714
-0.66953123 -0.22317702 0.29970166
-0.69057214 -0.26855576 0.35814857
-0.71297574 -0.31687805 0.42038083
-0.73688459 -0.36844227 0.48679429
-0.76244956 -0.42358303 0.55780804
-0.78985542 -0.48268944 0.63393539
-0.81930131 -0.54620081 0.71572959
-0.8510316 -0.6146338 0.80386925
-0.88531452 -0.68857795 0.89909965
-0.92247987 -0.76873326 1.0023367
-0.36818609 0.34652811 -0.47720706
-0.37483603 0.33073765 -0.45764852
-0.38172978 0.31436571 -0.43737268
-0.38888267 0.29738092 -0.41633475
-0.39630789 0.27974689 -0.39449587
-0.40402308 0.26142675 -0.37180412
-0.41204372 0.24237865 -0.34821412
-0.42039019 0.22255951 -0.32366565
-0.42908078 0.20192042 -0.29810506
-0.43813932 0.18041041 -0.27146217
-0.44758752 0.15797207 -0.24367352
-0.45745218 0.1345448 -0.21465984
-0.46776265 0.11006186 -0.18433489
-0.47854736 0.084449559 -0.15261513
-0.48984244 0.057628572 -0.11939429
-0.50168222 0.029510755 -0.084571458
-0.51410997 3.5390258e-08 -0.048019186
-0.52716756 -0.031009784 -0.0096146595
-0.54090732 -0.063636102 0.030796474
-0.5553807 -0.098008387 0.073365442
-0.57065183 -0.134271 0.1182804
-0.58678454 -0.17258367 0.16572958
-0.60385799 -0.21312624 0.21594563
-0.62195265 -0.25609812 0.2691651
-0.64116746 -0.3017258 0.32567933
-0.661605 -0.35026139 0.38578963
-0.68339092 -0.40199471 0.449866
-0.70665771 -0.45724908 0.51829767
-0.73156756 -0.51640058 0.59156203
-0.75829458 -0.57987225 0.67017072
-0.78705198 -0.64816046 0.75475127
-0.8180728 -0.72182894 0.84598899
-0.85164326 -0.80154651 0.94472575
-0.33154249 0.3522639 -0.524037
-0.3372665 0.33726659 -0.50614953
-0.34319231 0.32174283 -0.48763138
-0.34933007 0.30566382 -0.46845084
-0.35569063 0.28899872 -0.44857407
-0.3622871 0.27171534 -0.4279601
-0.36913368 0.25377944 -0.40656456
-0.37624401 0.23515256 -0.3843447
-0.38363278 0.21579349 -0.3612549
-0.39131758 0.19565889 -0.33723992
-0.39931747 0.17470136 -0.31224027
-0.40765131 0.15286931 -0.28619701
-0.41633937 0.13010605 -0.25904685
-0.4254058 0.10635145 -0.2307142
-0.43487707 0.081539437 -0.20111662
-0.44477847 0.055597391 -0.17017466
-0.45514247 0.02844651 -0.13778707
-0.46599975 1.4901161e-08 -0.10385822
-0.47738898 -0.029836789 -0.068266712
-0.48934746 -0.061168455 -0.030896515
-0.50192195 -0.09411037 0.0083988495
-0.51515818 -0.1287895 0.049761996
-0.52911305 -0.16534778 0.093370974
-0.54384327 -0.20394118 0.13940284
-0.55941898 -0.24474582 0.18807699
-0.57591122 -0.28795558 0.23961514
-0.59340751 -0.33379173 0.29429105
-0.6119979 -0.38249865 0.35238612
-0.6317932 -0.43435767 0.41424641
-0.65290934 -0.48968202 0.48023438
-0.67548853 -0.54883438 0.5507943
-0.69968241 -0.61222208 0.62640029
-0.72567689 -0.68032211 0.70763296
-0.75367403 -0.75367415 0.79512411
-0.78392178 -0.8329168 0.8896482
-0.81669503 -0.91878182 0.9920646
-0.30247498 0.36296993 -0.55185747
-0.3028639 0.3432458 -0.55056107
-0.30795664 0.32848707 -0.53358519
-0.3132242 0.31322423 -0.51602668
-0.31867513 0.29743016 -0.49785697
-0.32431844 0.28107604 -0.47904587
-0.33016527 0.26413223 -0.45955652
-0.33622745 0.24656683 -0.43934917
-0.34251642 0.22834429 -0.41838592
-0.34904438 0.20942669 -0.39662609
-0.35582602 0.1897739 -0.37402067
-0.36287722 0.16934277 -0.35051659
-0.37021264 0.14808503 -0.32606518
-0.37785169 0.12595057 -0.30060178
-0.38581169 0.10288319 -0.27406842
-0.39411524 0.07882309 -0.24638991
-0.40278307 0.053704433 -0.21749718
-0.41184181 0.027456209 -0.1873014
-0.42131621 5.9604645e-08 -0.15571982
-0.43123806 -0.02874916 -0.12264718
-0.44163722 -0.058884893 -0.08798334
-0.45255157 -0.090510398 -0.051602051
-0.46401775 -0.12373805 -0.013381466
-0.47608149 -0.15869386 0.026830912
-0.48878774 -0.19551498 0.069185071
-0.50219238 -0.23435637 0.11386729
-0.51635134 -0.27538735 0.16106382
-0.53133363 -0.31880015 0.21100476
-0.5472095 -0.36480623 0.26392424
-0.56406528 -0.4136478 0.32011002
-0.5819903 -0.46559227 0.37986034
-0.60109431 -0.52094835 0.44354028
-0.62149262 -0.58005959 0.51153463
-0.64332658 -0.64332652 0.58431453
-0.66674775 -0.71119761 0.66238511
-0.69194174 -0.78420055 0.74636495
-0.71911114 -0.86293334 0.83692998
-0.748505 -0.94810635 0.9349094
-0.7804004 -1.0405337 1.0412273
-0.28621852 0.36799532 -0.5378983
-0.28621852 0.34755108 -0.53789836
-0.28621852 0.32710689 -0.5378983
-0.28621909 0.30666336 -0.53789634
-0.28962722 0.28962725 -0.52572441
-0.29461986 0.2735756 -0.50789362
-0.29978704 0.25696033 -0.48943937
-0.30513933 0.23975232 -0.47032401
-0.31068558 0.22191827 -0.4505161
-0.31643781 0.2034243 -0.42997223
-0.32240641 0.18423228 -0.40865591
-0.32860518 0.16430266 -0.38651741
-0.33504626 0.14359128 -0.36351359
-0.34174567 0.12205208 -0.33958712
-0.34871766 0.099633612 -0.31468716
-0.35598087 0.076281682 -0.28874701
-0.36355218 0.051936097 -0.26170659
-0.37145352 0.026532426 -0.23348764
-0.37970495 -1.4901161e-08 -0.20401822
-0.38833234 -0.027738005 -0.17320618
-0.39735979 -0.056765601 -0.14096512
-0.40681812 -0.087175272 -0.10718565
-0.41673648 -0.11906752 -0.071762785
-0.4271518 -0.15255421 -0.034565222
-0.4380998 -0.187757 0.0045348331
-0.4496251 -0.22481251 0.045696534
-0.46177173 -0.26386964 0.089077458
-0.47459441 -0.30509645 0.13487273
-0.48814794 -0.34867716 0.18327823
-0.50250012 -0.39482147 0.23453589
-0.51771992 -0.44375986 0.28889242
-0.53389245 -0.49575725 0.34665146
-0.55110592 -0.55110586 0.40812796
-0.56946844 -0.61014462 0.47370857
-0.58909452 -0.67325085 0.54380178
-0.61012423 -0.74086499 0.61890757
-0.63270819 -0.81348187 0.69956464
-0.65703124 -0.89168525 0.78643268
-0.68329597 -0.9761371 0.88023543
-0.26950508 0.37316093 -0.52354926
-0.26950508 0.35242984 -0.52354926
-0.26950508 0.3316986 -0.5235492
-0.26950562 0.3109681 -0.52354723
-0.26950562 0.29023692 -0.52354723
-0.26950616 0.26950616 -0.52354521
-0.27101493 0.25016761 -0.51774228
-0.2757234 0.23330449 -0.49963275
-0.28059837 0.21584491 -0.48088282
-0.28564823 0.19775653 -0.46146023
-0.29088318 0.17900512 -0.44132578
-0.29631424 0.1595539 -0.42043704
-0.30195197 0.13936248 -0.39875358
-0.30780771 0.11838767 -0.37623146
-0.31389508 0.096583143 -0.3528187
-0.32022876 0.073898956 -0.32845831
-0.32682255 0.050280392 -0.30309749
-0.33369443 0.025668845 -0.27666724
-0.34086064 2.9802322e-08 -0.24910483
-0.34834227 -0.026795514 -0.22032942
-0.35615879 -0.054793581 -0.19026586
-0.36433512 -0.084077395 -0.1588185
-0.37289464 -0.11473679 -0.12589705
-0.38186711 -0.14687189 -0.09138757
-0.39128092 -0.18059118 -0.055180751
-0.40117171 -0.21601555 -0.017139167
-0.41157433 -0.25327644 0.022870854
-0.42253211 -0.29252213 0.065016031
-0.4340879 -0.33391371 0.10946161
-0.44629502 -0.37763423 0.15641199
-0.45920709 -0.42388338 0.20607352
-0.47289011 -0.47289011 0.25870067
-0.48741186 -0.52490503 0.31455365
-0.5028556 -0.5802179 0.37395269
-0.51930815 -0.63914835 0.43723154
-0.53687572 -0.70206809 0.50479925
-0.55567127 -0.769391 0.57708985
-0.57583302 -0.84160215 0.65463507
-0.59751034 -0.91924667 0.73800921
-0.62088639 -1.0029702 0.82791704
-0.25231576 0.37847373 -0.50879163
-0.25231576 0.35744745 -0.50879163
-0.25231627 0.3364217 -0.50878954
-0.25231627 0.31539536 -0.50878954
-0.25231627 0.29436904 -0.50878966
-0.25231677 0.27334324 -0.50878739
-0.25231677 0.25231677 -0.50878745
-0.25231677 0.23129039 -0.50878745
-0.25231728 0.2102644 -0.50878537
-0.25652787 0.19239596 -0.49124122
-0.26109946 0.17406635 -0.472193
-0.26583749 0.15507187 -0.45245117
-0.27075008 0.13537507 -0.43198207
-0.27584824 0.1149368 -0.41073966
-0.28114146 0.093713894 -0.38868454
-0.28664246 0.071660668 -0.36576375
-0.29236236 0.048727065 -0.34193093
-0.29831585 0.024859682 -0.31712455
-0.30451617 1.4901161e-08 -0.29129007
-0.31098041 -0.025914967 -0.26435557
-0.31772429 -0.052953973 -0.23625612
-0.32476795 -0.081191927 -0.20690747
-0.33213013 -0.11071002 -0.17623177
-0.33983478 -0.14159784 -0.1441291
-0.34790438 -0.17395221 -0.11050567
-0.35636759 -0.20788109 -0.075242326
-0.36525175 -0.24350111 -0.038225099
-0.37459129 -0.28094348 0.00068971515
-0.38441983 -0.32034981 0.04164201
-0.39477924 -0.3618809 0.084806174
-0.40571117 -0.40571105 0.13035589
-0.41726714 -0.45203936 0.17850582
-0.42949927 -0.50108254 0.22947308
-0.44247177 -0.55308974 0.28352514
-0.4562507 -0.60833412 0.34093714
-0.47091711 -0.6671325 0.40204722
-0.4865559 -0.72983372 0.46720877
-0.50327098 -0.79684573 0.53685516
-0.52117336 -0.86862236 0.61144841
-0.5403986 -0.94569755 0.69155353
-0.56109411 -1.0286725 0.77778476
-0.23462993 0.40526986 -0.49360773
-0.23462993 0.38393986 -0.49360779
-0.23463039 0.36261067 -0.49360552
-0.23463039 0.34128067 -0.49360555
-0.23463039 0.31995058 -0.49360552
-0.23463087 0.29862115 -0.49360341
-0.23463087 0.27729106 -0.49360335
-0.23463087 0.25596088 -0.49360347
-0.23463133 0.23463136 -0.49360123
-0.23463133 0.2133012 -0.49360129
-0.23463133 0.19197112 -0.49360129
-0.23463181 0.1706413 -0.49359912
-0.23702615 0.15083486 -0.48271585
-0.24128497 0.1316101 -0.46335742
-0.24569914 0.11168149 -0.44329309
-0.25027782 0.091010123 -0.42248094
-0.25503096 0.069553912 -0.40087581
-0.2599681 0.04726696 -0.37843418
-0.26509959 0.024100021 -0.35510921
-0.27043775 5.9604645e-08 -0.33084494
-0.27599591 -0.025090486 -0.30558041
-0.28178671 -0.05123394 -0.27925861
-0.28782642 -0.078498073 -0.25180548
-0.29412997 -0.10695627 -0.22315304
-0.30071655 -0.13668934 -0.19321398
-0.30760407 -0.16778401 -0.16190706
-0.31481534 -0.20033699 -0.12912843
-0.32237196 -0.23445226 -0.094780199
-0.3303012 -0.27024633 -0.058738254
-0.33862934 -0.30784482 -0.020882994
-0.34738937 -0.34738937 0.018935353
-0.35661358 -0.38903296 0.060863525
-0.36634216 -0.43294978 0.10508418
-0.37661517 -0.47932833 0.15177983
-0.38748229 -0.52838492 0.20117573
-0.39899382 -0.58035445 0.25350076
-0.41121167 -0.63550895 0.30903661
-0.42419991 -0.6941452 0.36807406
-0.43803701 -0.75660938 0.43097001
-0.45280555 -0.82328272 0.49809954
-0.4686065 -0.89461231 0.56992221
-0.48554811 -0.97109622 0.64692974
-0.2164257 0.4112089 -0.47797877
-0.21642615 0.38956714 -0.47797659
-0.21642615 0.36792445 -0.47797656
-0.21642615 0.34628189 -0.47797659
-0.2164266 0.32463992 -0.47797436
-0.2164266 0.30299726 -0.47797436
-0.2164266 0.28135461 -0.47797436
-0.21642704 0.25971249 -0.47797215
-0.21642704 0.23806982 -0.47797209
-0.21642704 0.21642712 -0.47797215
-0.21642749 0.19478476 -0.47796994
-0.21642749 0.17314202 -0.47796994
-0.21642749 0.15149926 -0.47796991
-0.21642794 0.12985677 -0.47796774
-0.21721081 0.10860546 -0.47405335
-0.22114511 0.088458017 -0.45438188
-0.22522502 0.067567497 -0.43398231
-0.2294578 0.045891583 -0.41281837
-0.23385324 0.023385346 -0.39084116
-0.23841985 2.9802322e-08 -0.3680082
-0.24316891 -0.024316847 -0.34426296
-0.2481104 -0.049622014 -0.31955528
-0.25325751 -0.075977184 -0.29381973
-0.25862208 -0.10344885 -0.26699692
-0.26421949 -0.13210972 -0.23900983
-0.27006388 -0.16203833 -0.20978795
-0.27617338 -0.19332133 -0.17924054
-0.28256491 -0.2260519 -0.14728267
-0.28926015 -0.26033404 -0.11380666
-0.29627949 -0.29627943 -0.078709938
-0.30364883 -0.33401364 -0.041863143
-0.31139323 -0.37367189 -0.003141135
-0.31954399 -0.41540712 0.037612528
-0.32813185 -0.4593845 0.080551893
-0.33719516 -0.50579262 0.12586839
-0.34677222 -0.55483562 0.17375378
-0.35691044 -0.60674763 0.22444475
-0.36765799 -0.66178429 0.27818251
-0.37907428 -0.72024113 0.33526409
-0.39122084 -0.78244162 0.39599678
-0.40417314 -0.84876347 0.46075815
-0.41801074 -0.91962355 0.52994621
-0.43283123 -0.99551189 0.60404885
-0.19768044 0.41732544 -0.46188265
-0.19768044 0.39536092 -0.46188271
-0.19768044 0.3733964 -0.46188271
-0.19768085 0.35143262 -0.46188039
-0.19768085 0.3294681 -0.46188042
-0.19768085 0.30750355 -0.46188042
-0.19768126 0.28553966 -0.46187812
-0.19768126 0.26357508 -0.46187806
-0.19768126 0.24161047 -0.46187812
-0.19768167 0.21964633 -0.46187586
-0.19768167 0.19768174 -0.46187583
-0.19768167 0.17571709 -0.46187586
-0.19768208 0.15375282 -0.46187353
-0.19768208 0.1317881 -0.46187353
-0.19768208 0.10982344 -0.46187359
-0.19768248 0.0878589 -0.46187133
-0.19768248 0.065894157 -0.46187124
-0.2006737 0.044594243 -0.44525349
-0.20440662 0.022711813 -0.42451501
-0.20828106 4.4703484e-08 -0.40299031
-0.21230568 -0.023589462 -0.38063124
-0.21648893 -0.048108593 -0.35739112
-0.2208398 -0.073613234 -0.33321953
-0.22536914 -0.10016403 -0.30805644
-0.23008876 -0.12782702 -0.28183657
-0.23500966 -0.15667304 -0.25449809
-0.24014626 -0.18678032 -0.22596151
-0.24551179 -0.2182326 -0.19615299
-0.25112322 -0.25112316 -0.16497833
-0.25699648 -0.28555161 -0.13234925
-0.26315174 -0.32162982 -0.098153219
-0.26960835 -0.3594777 -0.062283218
-0.27639055 -0.39923078 -0.024604291
-0.28352195 -0.44103411 0.015014589
-0.29103196 -0.48505321 0.056736827
-0.29894975 -0.53146619 0.10072452
-0.30731139 -0.580477 0.14717804
-0.31615317 -0.63230634 0.1962992
-0.32551995 -0.68720877 0.24833679
-0.3354575 -0.74546105 0.30354539
-0.34602216 -0.80738497 0.36223787
-0.35727257 -0.87333274 0.42474008
-0.36928055 -0.94371676 0.49145114
-0.38212225 -1.0189925 0.56279397
-0.17836872 0.42362571 -0.44530284
-0.17836872 0.40132964 -0.44530287
-0.17836909 0.3790344 -0.44530046
-0.17836909 0.35673821 -0.44530055
-0.17836909 0.33444202 -0.44530052
-0.17836946 0.31214657 -0.44529825
-0.17836946 0.28985047 -0.44529811
-0.17836946 0.26755425 -0.44529817
-0.17836984 0.24525854 -0.44529581
-0.17836984 0.22296233 -0.44529584
-0.17836984 0.20066613 -0.44529581
-0.17837022 0.17837025 -0.44529355
-0.17837022 0.15607399 -0.44529349
-0.17837022 0.13377771 -0.44529349
-0.17837059 0.11148161 -0.44529116
-0.17837059 0.089185342 -0.44529116
-0.17837059 0.066888973 -0.44529116
-0.17837098 0.044592738 -0.44528878
-0.17837098 0.022296399 -0.44528878
-0.17986071 4.4703484e-08 -0.43597791
-0.18323523 -0.022904336 -0.41488707
-0.18673839 -0.046684548 -0.39299241
-0.19037853 -0.071391881 -0.37024146
-0.19416296 -0.097081408 -0.34658876
-0.19810139 -0.12381334 -0.32197374
-0.20220239 -0.1516517 -0.29634249
-0.20647728 -0.18066756 -0.26962432
-0.21093631 -0.21093626 -0.24175544
-0.21559274 -0.24254176 -0.21265277
-0.22045881 -0.27557343 -0.18223986
-0.22555022 -0.31013152 -0.15041855
-0.23088171 -0.34632242 -0.11709672
-0.23647201 -0.384267 -0.082157195
-0.24233907 -0.42409331 -0.045488179
-0.2485054 -0.46594763 -0.0069486201
-0.25499296 -0.50998592 0.033598602
-0.26182911 -0.55638677 0.076324642
-0.26904109 -0.60534239 0.12139942
-0.2766625 -0.65707332 0.16903323
-0.28472733 -0.71181822 0.21943854
-0.2932775 -0.76985341 0.2728771
-0.30235603 -0.83147907 0.32961786
-0.31201568 -0.89704508 0.38999063
-0.3223117 -0.96693516 0.45434076
-0.33331174 -1.041599 0.52309096
-0.15846497 0.45275703 -0.42821485
-0.15846497 0.43011916 -0.42821485
-0.15846531 0.40748218 -0.42821234
-0.15846531 0.3848443 -0.42821237
-0.15846531 0.3622064 -0.42821237
-0.15846564 0.3395693 -0.42820993
-0.15846564 0.31693128 -0.42820993
-0.15846564 0.2942934 -0.42820996
-0.15846597 0.27165607 -0.42820746
-0.15846597 0.24901801 -0.42820752
-0.15846597 0.22637995 -0.42820752
-0.15846631 0.20374244 -0.4282051
-0.15846631 0.18110442 -0.42820507
-0.15846631 0.15846637 -0.4282051
-0.15846665 0.13582858 -0.42820269
-0.15846665 0.11319055 -0.42820263
-0.15846665 0.09055239 -0.42820269
-0.15846699 0.067914456 -0.42820019
-0.15846699 0.045276314 -0.42820024
-0.15846699 0.022638217 -0.42820022
-0.15846699 2.9802322e-08 -0.42820019
-0.15846734 -0.022638127 -0.42819777
-0.15869918 -0.045342535 -0.42654181
-0.16170178 -0.069300741 -0.40509462
-0.16482019 -0.094182968 -0.38282019
-0.16806164 -0.12004399 -0.35966706
-0.17143312 -0.14694265 -0.33558503
-0.17494224 -0.17494226 -0.31051987
-0.17859803 -0.20411199 -0.28440705
-0.18241031 -0.23452754 -0.25717655
-0.18638842 -0.26626912 -0.22876149
-0.19054441 -0.29942682 -0.19907591
-0.19488944 -0.3340961 -0.16803995
-0.1994378 -0.3703844 -0.13555165
-0.20420298 -0.40840596 -0.10151465
-0.20920202 -0.44829002 -0.065807298
-0.21445134 -0.49017447 -0.028312117
-0.21997152 -0.53421646 0.011117846
-0.22578272 -0.58058411 0.052626371
-0.23191004 -0.62947005 0.09639284
-0.23837841 -0.68108106 0.1425955
-0.24521875 -0.73565626 0.19145525
-0.25246245 -0.7934534 0.2431958
-0.26014802 -0.85477203 0.29809275
-0.26831526 -0.91993785 0.35643005
-0.27701294 -0.98933196 0.41855657
-0.13794152 0.45980507 -0.4105947
-0.13794182 0.43681577 -0.4105922
-0.13794182 0.41382554 -0.41059211
-0.13794182 0.39083517 -0.41059217
-0.13794212 0.36784565 -0.41058969
-0.13794212 0.34485537 -0.41058964
-0.13794212 0.32186493 -0.41058969
-0.13794212 0.29887468 -0.41058969
-0.13794243 0.2758849 -0.41058713
-0.13794243 0.25289446 -0.41058716
-0.13794272 0.22990458 -0.41058463
-0.13794272 0.2069141 -0.41058463
-0.13794272 0.18392372 -0.41058463
-0.13794303 0.16093357 -0.41058218
-0.13794303 0.13794304 -0.41058215
-0.13794303 0.11495255 -0.41058218
-0.13794303 0.091962025 -0.41058213
-0.13794331 0.068971664 -0.41057968
-0.13794331 0.045981139 -0.41057965
-0.13794331 0.022990555 -0.41057968
-0.13794363 1.4901161e-08 -0.41057718
-0.13794363 -0.022990614 -0.41057718
-0.13794363 -0.045981213 -0.41057721
-0.13794392 -0.068971917 -0.41057464
-0.13794392 -0.091962546 -0.41057462
-0.1397969 -0.11649735 -0.39513323
-0.14251658 -0.14251649 -0.37246919
-0.14534451 -0.16956857 -0.34890309
-0.14828661 -0.19771549 -0.32438558
-0.15135063 -0.22702591 -0.29885206
-0.15454358 -0.25757259 -0.2722443
-0.15787452 -0.28943661 -0.24448635
-0.16135183 -0.32270354 -0.21550886
-0.16498616 -0.3574701 -0.18522257
-0.16878757 -0.39383763 -0.15354431
-0.17276876 -0.4319219 -0.12036778
-0.17694177 -0.47184467 -0.085592657
-0.1813219 -0.51374531 -0.049091622
-0.18592384 -0.5577715 -0.010742068
-0.19076602 -0.60409236 0.029609561
-0.19586657 -0.6528886 0.07211411
-0.20124799 -0.70436805 0.11695939
-0.20693281 -0.7587536 0.16433275
-0.21294886 -0.81630385 0.21446636
-0.21932441 -0.87729758 0.26759598
-0.22609431 -0.94205952 0.32401183
-0.23329459 -1.0109431 0.38401413
-0.11676901 0.46707603 -0.39241725
-0.11676926 0.44372326 -0.39241469
-0.11676926 0.42036936 -0.39241475
-0.11676952 0.39701638 -0.39241213
-0.11676952 0.37366247 -0.39241216
-0.11676952 0.3503086 -0.39241207
-0.11676952 0.32695469 -0.39241213
-0.11676978 0.30360141 -0.39240956
-0.11676978 0.28024748 -0.39240956
-0.11676978 0.25689358 -0.39240947
-0.11677004 0.23354018 -0.39240694
-0.11677004 0.21018618 -0.39240691
-0.11677004 0.18683213 -0.392407
-0.1167703 0.16347846 -0.39240438
-0.1167703 0.1401244 -0.39240432
-0.1167703 0.11677028 -0.39240444
-0.11677055 0.093416423 -0.39240181
-0.11677055 0.070062384 -0.39240175
-0.11677055 0.046708241 -0.39240175
-0.11677081 0.023354232 -0.39239919
-0.11677081 5.9604645e-08 -0.39239916
-0.11677081 -0.023354068 -0.39239919
-0.11677107 -0.046708375 -0.39239657
-0.11677107 -0.070062593 -0.39239669
-0.11677107 -0.09341681 -0.39239663
-0.11677133 -0.11677133 -0.39239407
-0.11677133 -0.14012554 -0.39239404
-0.11751089 -0.16451517 -0.38499847
-0.11981729 -0.19170764 -0.36193442
-0.12221631 -0.21998933 -0.33794421
-0.12471338 -0.24942672 -0.3129735
-0.1273143 -0.28009146 -0.2869643
-0.13002601 -0.31206238 -0.25984719
-0.1328561 -0.34542578 -0.23154646
-0.13581176 -0.38027287 -0.20198977
-0.13890229 -0.4167068 -0.17108433
-0.14213638 -0.45483643 -0.13874353
-0.14552505 -0.49478519 -0.10485677
-0.14907885 -0.53668368 -0.06931898
-0.15281098 -0.58068168 -0.031997621
-0.1567343 -0.62693721 0.0072357059
-0.16086489 -0.67563248 0.048541576
-0.16521858 -0.72696161 0.092078418
-0.16981502 -0.78114903 0.1380429
-0.17467396 -0.83843505 0.18663225
-0.17981976 -0.89909875 0.23809019
-0.1852773 -0.96344185 0.29266557
-0.19107716 -1.0318165 0.35066423
-0.09491612 0.49830973 -0.37365571
-0.094916336 0.47458175 -0.37365311
-0.094916336 0.45085263 -0.37365314
-0.094916336 0.42712355 -0.3736532
-0.094916552 0.40339535 -0.37365052
-0.094916552 0.37966627 -0.37365043
-0.094916552 0.35593712 -0.3736504
-0.094916761 0.33220875 -0.37364775
-0.094916761 0.30847952 -0.37364784
-0.094916761 0.28475031 -0.37364781
-0.094916977 0.26102173 -0.37364513
-0.094916977 0.23729253 -0.3736451
-0.094916977 0.21356326 -0.37364513
-0.094917193 0.18983439 -0.37364253
-0.094917193 0.16610514 -0.37364244
-0.094917193 0.14237583 -0.37364244
-0.094917402 0.11864677 -0.37363982
-0.094917402 0.094917417 -0.37363982
-0.094917402 0.071188107 -0.37363982
-0.09491761 0.047458827 -0.37363711
-0.09491761 0.023729399 -0.37363714
-0.09491761 1.4901161e-08 -0.37363714
-0.094917834 -0.023729458 -0.37363446
-0.094917834 -0.047458902 -0.37363452
-0.094917834 -0.071188301 -0.37363446
-0.094918042 -0.094917983 -0.37363178
-0.094918042 -0.11864756 -0.37363181
-0.094918042 -0.14237702 -0.37363183
-0.094918251 -0.16610688 -0.37362909
-0.094918251 -0.18983647 -0.37362915
-0.094918251 -0.21356608 -0.37362915
-0.096711688 -0.24177916 -0.35121122
-0.098665774 -0.27133083 -0.32678518
-0.1007002 -0.30210057 -0.30135477
-0.10282055 -0.3341668 -0.27485046
-0.10503186 -0.36761141 -0.24720924
-0.10734063 -0.4025273 -0.21834946
-0.1097529 -0.43901163 -0.18819597
-0.1122764 -0.47717464 -0.15665236
-0.11491835 -0.51713252 -0.12362808
-0.11768796 -0.55901772 -0.089007929
-0.12059402 -0.60297 -0.052682161
-0.12364759 -0.64914978 -0.014512539
-0.12685944 -0.69772691 0.02563566
-0.130243 -0.74889714 0.067930013
-0.13381158 -0.80286944 0.11253735
-0.13758166 -0.85988522 0.15966329
-0.14156987 -0.9202041 0.20951599
-0.14579672 -0.9841277 0.26235151
-0.072349712 0.50644803 -0.35427889
-0.072349712 0.4823314 -0.35427883
-0.072349712 0.45821485 -0.35427883
-0.072349876 0.43409932 -0.35427606
-0.072349876 0.40998268 -0.35427597
-0.072349876 0.38586605 -0.35427609
-0.07235004 0.36175025 -0.35427326
-0.07235004 0.33763355 -0.35427332
-0.07235004 0.31351686 -0.35427332
-0.072350204 0.28940088 -0.35427049
-0.072350204 0.26528415 -0.35427052
-0.072350204 0.24116737 -0.35427061
-0.072350375 0.21705118 -0.35426778
-0.072350375 0.19293435 -0.35426784
-0.072350375 0.16881758 -0.35426781
-0.072350539 0.14470111 -0.35426503
-0.072350539 0.12058425 -0.35426509
-0.072350539 0.096467406 -0.35426506
-0.072350703 0.07235077 -0.35426229
-0.072350703 0.048233837 -0.35426238
-0.072350703 0.024116933 -0.35426232
-0.072350867 -0 -0.35425955
-0.072350867 -0.024116933 -0.35425952
-0.072350867 -0.048233896 -0.35425955
-0.072351031 -0.072350934 -0.35425678
-0.072351031 -0.096468069 -0.35425681
-0.072351031 -0.12058505 -0.35425684
-0.072351195 -0.1447024 -0.35425401
-0.072351195 -0.16881947 -0.35425404
-0.072351195 -0.19293645 -0.35425407
-0.072351359 -0.2170541 -0.3542513
-0.072351359 -0.2411712 -0.35425127
-0.072351359 -0.26528826 -0.35425133
-0.073188782 -0.2927551 -0.34029421
-0.074681208 -0.32361853 -0.31542057
-0.076235756 -0.35576683 -0.28951135
-0.07785622 -0.38928103 -0.26250374
-0.079547063 -0.42425096 -0.23432297
-0.081313185 -0.46077469 -0.20488761
-0.08315929 -0.4989557 -0.1741192
-0.085091405 -0.53891218 -0.14191732
-0.087115191 -0.58076793 -0.10818756
-0.089237839 -0.62466484 -0.072810054
-0.091466255 -0.67075247 -0.035669863
-0.093809083 -0.71920294 0.0033774078
-0.096274801 -0.77019835 0.044472605
-0.098873943 -0.82394946 0.087791651
-0.10161699 -0.88068062 0.13350919
-0.10451693 -0.94065237 0.18184146
-0.10758688 -1.0041441 0.23300722
-0.049033847 0.5148555 -0.33426121
-0.049033847 0.49033844 -0.33426124
-0.049033958 0.46582264 -0.33425838
-0.049033958 0.44130567 -0.33425838
-0.049033958 0.41678873 -0.33425835
-0.04903407 0.39227262 -0.33425558
-0.04903407 0.3677555 -0.33425555
-0.04903407 0.34323856 -0.33425555
-0.049034186 0.31872225 -0.33425272
-0.049034186 0.29420513 -0.33425272
-0.049034186 0.26968807 -0.33425274
-0.049034301 0.2451715 -0.33424991
-0.049034301 0.22065437 -0.33424985
-0.049034301 0.19613725 -0.33424985
-0.049034413 0.17162052 -0.33424702
-0.049034413 0.14710329 -0.33424705
-0.049034413 0.12258606 -0.33424711
-0.049034525 0.098069079 -0.33424419
-0.049034525 0.073551804 -0.33424419
-0.049034525 0.049034566 -0.33424413
-0.04903464 0.024517342 -0.33424136
-0.04903464 1.4901161e-08 -0.33424133
-0.04903464 -0.024517253 -0.33424133
-0.049034756 -0.049034685 -0.3342385
-0.049034756 -0.073552102 -0.33423856
-0.049034756 -0.098069467 -0.3342385
-0.049034867 -0.12258715 -0.3342357
-0.049034867 -0.14710459 -0.33423573
-0.049034867 -0.17162204 -0.33423564
-0.049034983 -0.19613986 -0.33423287
-0.049034983 -0.22065735 -0.33423287
-0.049034983 -0.24517487 -0.33423281
-0.049035095 -0.26969296 -0.33422995
-0.049035095 -0.29421052 -0.33422995
-0.049035095 -0.31872809 -0.33422992
-0.049237162 -0.3446601 -0.32917833
-0.050250512 -0.3768788 -0.30384457
-0.051306326 -0.41045064 -0.27744913
-0.052407593 -0.44546449 -0.24991751
-0.053557038 -0.48201331 -0.22118147
-0.054758169 -0.52020252 -0.19115306
-0.056014273 -0.56014264 -0.15975055
-0.057329513 -0.60195982 -0.12686957
-0.058707833 -0.64578617 -0.092411548
-0.060154233 -0.69177365 -0.056251466
-0.061673529 -0.74008226 -0.018269181
-0.063271746 -0.79089677 0.021686286
-0.064954802 -0.84441233 0.063762575
-0.066730052 -0.90085554 0.10814381
-0.068604842 -0.96046776 0.15501374
-0.070588261 -1.0235296 0.20459905
-0.024930788 0.52354658 -0.31356782
-0.024930848 0.49861696 -0.31356487
-0.024930848 0.47368616 -0.31356484
-0.024930848 0.44875538 -0.31356484
-0.024930906 0.42382547 -0.31356198
-0.024930906 0.39889455 -0.31356201
-0.024930906 0.37396365 -0.31356192
-0.024930969 0.34903353 -0.31355903
-0.024930969 0.32410261 -0.31355906
-0.024930969 0.29917166 -0.31355906
-0.024931027 0.27424127 -0.31355608
-0.024931027 0.2493103 -0.31355608
-0.024931027 0.2243792 -0.3135561
-0.024931084 0.19944879 -0.31355309
-0.024931084 0.17451763 -0.31355312
-0.024931084 0.1495865 -0.31355312
-0.024931144 0.12465573 -0.31355014
-0.024931144 0.099724643 -0.3135502
-0.024931144 0.074793465 -0.31355017
-0.024931202 0.049862415 -0.31354725
-0.024931202 0.024931222 -0.31354722
-0.024931202 -0 -0.31354725
-0.024931261 -0.024931222 -0.31354433
-0.024931261 -0.049862474 -0.3135443
-0.024931261 -0.074793749 -0.31354427
-0.024931319 -0.099725276 -0.31354135
-0.024931319 -0.12465654 -0.31354141
-0.024931319 -0.14958787 -0.31354138
-0.024931379 -0.17451961 -0.31353843
-0.024931379 -0.199451 -0.31353846
-0.024931379 -0.22438231 -0.31353837
-0.024931436 -0.24931438 -0.31353548
-0.024931436 -0.27424577 -0.31353551
-0.024931436 -0.29917717 -0.31353551
-0.024931496 -0.32410941 -0.31353253
-0.024931496 -0.34904093 -0.31353253
-0.024931496 -0.37397245 -0.3135325
-0.024931496 -0.39890385 -0.31353259
-0.025361123 -0.43113902 -0.29205126
-0.025899159 -0.46618477 -0.26514947
-0.026460452 -0.50274855 -0.23708478
-0.027046613 -0.54093218 -0.20777671
-0.027659403 -0.58084738 -0.17713718
-0.028300531 -0.62261164 -0.14508079
-0.028972162 -0.66635978 -0.1114991
-0.029676368 -0.71223277 -0.076288998
-0.030415745 -0.76039362 -0.039320052
-0.031192815 -0.81101322 -0.00046655536
-0.032010727 -0.86428952 0.040428966
-0.032872587 -0.92043227 0.083521903
-0.033782247 -0.97968507 0.12900504
-0.03474357 -1.042307 0.17707118
0 0.55789518 -0.29216376
0 0.53253758 -0.29216075
0 0.50717866 -0.29216072
0 0.48181981 -0.29216072
0 0.45646191 -0.2921578
0 0.4311029 -0.29215771
0 0.40574396 -0.29215765
0 0.38038585 -0.2921547
0 0.35502678 -0.29215467
0 0.32966772 -0.2921547
0 0.30430937 -0.29215169
0 0.27895033 -0.29215157
0 0.25359121 -0.29215166
0 0.22823262 -0.29214859
0 0.20287342 -0.29214865
0 0.17751427 -0.29214856
0 0.1521554 -0.29214558
0 0.12679623 -0.29214549
0 0.10143699 -0.29214549
0 0.076077916 -0.29214248
0 0.050718598 -0.29214251
0 0.025359258 -0.29214251
0 1.4901161e-08 -0.29213941
0 -0.025359347 -0.29213947
0 -0.050718673 -0.2921395
0 -0.076078013 -0.29213941
0 -0.10143764 -0.2921364
0 -0.12679705 -0.29213643
0 -0.15215684 -0.29213345
0 -0.17751631 -0.29213342
0 -0.20287581 -0.29213336
0 -0.22823589 -0.29213035
0 -0.25359535 -0.29213032
0 -0.27895489 -0.29213038
0 -0.30431443 -0.29213029
0 -0.32967478 -0.29212728
0 -0.35503441 -0.29212725
0 -0.38039392 -0.29212737
0 -0.40575454 -0.29212427
0 -0.43111414 -0.29212427
0 -0.45647493 -0.2921212
0 -0.48642766 -0.28003436
0 -0.52299565 -0.25261796
0 -0.56116581 -0.22399817
0 -0.60104275 -0.1941009
0 -0.64274693 -0.16283132
0 -0.68640327 -0.13010049
0 -0.73215592 -0.095795423
0 -0.78015554 -0.059808135
0 -0.83057636 -0.022002995
0 -0.88360101 0.017751783
0 -0.93944252 0.059621245
0 -0.99832523 0.10376811
0.025801973 0.5676434 -0.27000874
0.025801973 0.54184145 -0.27000874
0.025801973 0.51603949 -0.27000871
0.025802035 0.49023876 -0.27000552
0.025802035 0.46443665 -0.27000558
0.025802035 0.4386346 -0.27000561
0.0258021 0.41283357 -0.27000245
0.0258021 0.38703156 -0.27000239
0.0258021 0.36122939 -0.27000239
0.025802162 0.33542806 -0.2699993
0.025802162 0.30962592 -0.26999927
0.025802162 0.28382379 -0.26999927
0.025802225 0.25802231 -0.26999605
0.025802225 0.23222005 -0.26999608
0.025802225 0.20641778 -0.26999614
0.025802286 0.18061602 -0.26999298
0.025802286 0.15481371 -0.26999298
0.025802286 0.12901145 -0.26999301
0.025802286 0.10320915 -0.26999301
0.025802352 0.077407107 -0.26998979
0.025802352 0.051604673 -0.26998985
0.025802413 0.02580253 -0.26998669
0.025802413 1.4901161e-08 -0.26998666
0.025802413 -0.025802381 -0.26998666
0.025802413 -0.051604815 -0.26998663
0.025802478 -0.077407382 -0.26998359
0.025802478 -0.10320987 -0.26998353
0.025802478 -0.12901238 -0.26998359
0.02580254 -0.15481521 -0.26998037
0.02580254 -0.18061778 -0.2699804
0.02580254 -0.20642027 -0.26998037
0.025802603 -0.23222341 -0.26997724
0.025802603 -0.25802594 -0.26997718
0.025802603 -0.28382856 -0.26997712
0.025802664 -0.30963188 -0.26997405
0.025802664 -0.33543459 -0.26997405
0.025802664 -0.36123726 -0.26997405
0.02580273 -0.38704085 -0.26997089
0.02580273 -0.41284361 -0.26997092
0.02580273 -0.43864641 -0.26997086
0.025802791 -0.46445024 -0.26996779
0.025802791 -0.49025294 -0.26996779
0.025802791 -0.51605582 -0.26996768
0.025846396 -0.5427742 -0.26778758
0.026405446 -0.58091974 -0.23983508
0.026989147 -0.62075025 -0.2106501
0.027599234 -0.66238153 -0.18014568
0.028237619 -0.70594037 -0.14822644
0.028906155 -0.75155997 -0.11479959
0.029607199 -0.79939425 -0.079747438
0.030343002 -0.84960401 -0.042957187
0.031116406 -0.9023757 -0.0042871833
0.031930167 -0.95790493 0.036400884
0.032787733 -1.0164199 0.079279482
0.052521542 0.57773697 -0.24706896
0.052521542 0.55147624 -0.2470689
0.052521668 0.5252167 -0.24706566
0.052521668 0.49895591 -0.24706557
0.052521668 0.47269508 -0.24706563
0.052521668 0.4464342 -0.24706565
0.052521799 0.42017442 -0.24706236
0.052521799 0.39391354 -0.24706236
0.052521929 0.36765361 -0.24705909
0.052521929 0.34139255 -0.24705911
0.052521929 0.31513155 -0.24705917
0.052522063 0.28887135 -0.24705583
0.052522063 0.26261032 -0.24705586
0.052522063 0.23634928 -0.24705586
0.052522063 0.21008822 -0.24705589
0.052522194 0.1838277 -0.24705258
0.052522194 0.15756661 -0.24705255
0.052522194 0.13130552 -0.24705252
0.05252232 0.10504469 -0.24704927
0.05252232 0.078783475 -0.2470493
0.05252232 0.052522317 -0.24704939
0.052522451 0.026261315 -0.24704596
0.052522451 2.2351742e-08 -0.24704608
0.052522451 -0.026261196 -0.24704613
0.052522585 -0.052522525 -0.24704275
0.052522585 -0.07878378 -0.24704282
0.052522585 -0.10504514 -0.24704273
0.052522715 -0.13130677 -0.2470395
0.052522715 -0.15756814 -0.24703954
0.052522715 -0.18382944 -0.24703959
0.052522842 -0.21009128 -0.24703631
0.052522842 -0.23635279 -0.24703635
0.052522842 -0.26261413 -0.24703632
0.052522972 -0.28887627 -0.24703304
0.052522972 -0.31513777 -0.24703306
0.052522972 -0.34139925 -0.24703303
0.052523106 -0.36766165 -0.24702974
0.052523106 -0.39392319 -0.24702972
0.052523106 -0.42018473 -0.24702981
0.052523237 -0.44644746 -0.24702649
0.052523237 -0.47270912 -0.24702646
0.052523237 -0.49897075 -0.24702643
0.052523367 -0.52523363 -0.24702325
0.052523367 -0.55149525 -0.24702322
0.052523367 -0.577757 -0.24702321
0.052523494 -0.60402012 -0.24701996
0.053332034 -0.63998437 -0.22680642
0.054522991 -0.68153727 -0.1970326
0.055768203 -0.72498655 -0.16590229
0.057071775 -0.77046889 -0.133313
0.058437582 -0.8181262 -0.099167764
0.059870541 -0.86812282 -0.063343823
0.061375357 -0.92063046 -0.025723338
0.062957957 -0.97584826 0.013841569
0.064624138 -1.0339862 0.055496156
0.080208533 0.58819592 -0.22329849
0.080208734 0.56146121 -0.22329511
0.080208734 0.53472495 -0.22329506
0.080208734 0.50798869 -0.22329505
0.080208734 0.48125246 -0.22329506
0.080208935 0.45451736 -0.2232917
0.080208935 0.42778105 -0.22329172
0.080208935 0.40104476 -0.22329171
0.080209143 0.3743093 -0.22328834
0.080209143 0.34757292 -0.22328839
0.080209143 0.3208366 -0.2232883
0.080209345 0.29410097 -0.22328492
0.080209345 0.26736444 -0.22328499
0.080209345 0.240628 -0.22328497
0.080209546 0.21389216 -0.22328156
0.080209546 0.18715566 -0.2232815
0.080209546 0.16041915 -0.22328159
0.080209754 0.13368297 -0.22327818
0.080209754 0.10694636 -0.22327819
0.080209754 0.080209792 -0.22327822
0.080209948 0.053473353 -0.22327475
0.080209948 0.026736617 -0.2232748
0.080209948 5.9604645e-08 -0.22327486
0.080210157 -0.026736677 -0.22327143
0.080210157 -0.053473338 -0.2232714
0.080210157 -0.080210105 -0.2232715
0.080210358 -0.10694709 -0.22326812
0.080210358 -0.13368388 -0.22326805
0.080210358 -0.16042064 -0.22326806
0.080210559 -0.18715794 -0.22326465
0.080210559 -0.21389475 -0.22326462
0.080210559 -0.24063165 -0.22326469
0.080210768 -0.26736915 -0.22326125
0.080210768 -0.29410607 -0.22326133
0.080210768 -0.32084304 -0.2232613
0.080210969 -0.34758079 -0.22325796
0.080210969 -0.37431782 -0.22325787
0.080210969 -0.40105474 -0.22325791
0.08021117 -0.42779288 -0.2232545
0.08021117 -0.45452994 -0.22325455
0.08021117 -0.48126701 -0.22325447
0.080211371 -0.50800532 -0.2232511
0.080211371 -0.53474241 -0.22325119
0.080211371 -0.56147951 -0.22325115
0.08021158 -0.58821821 -0.22324778
0.08021158 -0.61495537 -0.2232478
0.08021158 -0.64169252 -0.22324778
0.080211781 -0.66843146 -0.22324435
0.080795765 -0.70022988 -0.21351126
0.082618199 -0.74356365 -0.18313745
0.084524728 -0.78889745 -0.15136188
0.086521573 -0.83637506 -0.11808121
0.088614799 -0.88614786 -0.083194077
0.09081208 -0.93839139 -0.046572745
0.093120828 -0.9932887 -0.0080936551
0.095550306 -1.0510533 0.032397747
0.10891647 0.6262697 -0.1986516
0.10891647 0.59904057 -0.19865161
0.10891674 0.57181299 -0.19864802
0.10891674 0.54458368 -0.1986481
0.10891674 0.51735455 -0.19864808
0.10891702 0.49012661 -0.19864452
0.10891702 0.46289745 -0.1986445
0.10891702 0.43566808 -0.19864461
0.1089173 0.40843993 -0.19864105
0.1089173 0.38121063 -0.19864103
0.1089173 0.35398126 -0.19864102
0.10891759 0.32675281 -0.19863752
0.10891759 0.29952335 -0.19863755
0.10891759 0.27229401 -0.19863753
0.10891786 0.24506524 -0.19863406
0.10891786 0.21783575 -0.19863404
0.10891786 0.19060636 -0.198634
0.10891815 0.16337726 -0.19863054
0.10891815 0.13614771 -0.19863048
0.10891815 0.10891816 -0.19863045
0.10891843 0.081688821 -0.19862697
0.10891843 0.054459207 -0.19862702
0.10891843 0.02722954 -0.19862702
0.10891871 -7.4505806e-09 -0.19862352
0.10891871 -0.027229629 -0.19862357
0.10891871 -0.054459311 -0.19862349
0.10891899 -0.081689149 -0.19861998
0.10891899 -0.10891894 -0.19862004
0.10891899 -0.13614874 -0.19862001
0.10891927 -0.16337879 -0.19861653
0.10891927 -0.19060872 -0.19861647
0.10891927 -0.21783851 -0.19861647
0.10891955 -0.24506894 -0.19861299
0.10891955 -0.2722989 -0.19861297
0.10891955 -0.29952872 -0.19861294
0.10891984 -0.32675949 -0.19860949
0.10891984 -0.35398942 -0.19860947
0.10891984 -0.38121936 -0.19860943
0.1089201 -0.40845042 -0.19860592
0.1089201 -0.43568042 -0.19860598
0.1089201 -0.46291038 -0.19860597
0.10892039 -0.49014169 -0.19860242
0.10892039 -0.51737183 -0.19860242
0.10892039 -0.54460186 -0.19860244
0.10892067 -0.57183349 -0.19859894
0.10892067 -0.59906363 -0.19859894
0.10892067 -0.62629378 -0.19859894
0.10892095 -0.65352565 -0.19859546
0.10892095 -0.68075591 -0.19859543
0.10892095 -0.70798612 -0.19859549
0.10892123 -0.73521823 -0.19859195
0.10892123 -0.76244861 -0.19859189
0.1112921 -0.80686766 -0.16895619
0.11388739 -0.85415548 -0.13651484
0.11660694 -0.90370381 -0.10252056
0.11945922 -0.95567364 -0.066867203
0.12245487 -1.0102526 -0.029421449
0.13870285 0.63803315 -0.17307875
0.13870323 0.61029416 -0.17307515
0.13870323 0.58255363 -0.17307505
0.13870323 0.55481297 -0.17307502
0.1387036 0.52707362 -0.17307143
0.1387036 0.49933299 -0.17307141
0.1387036 0.47159225 -0.17307146
0.13870396 0.44385266 -0.17306781
0.13870396 0.41611186 -0.17306778
0.13870396 0.38837111 -0.17306784
0.13870433 0.36063126 -0.17306411
0.13870433 0.33289039 -0.1730642
0.13870433 0.3051495 -0.17306416
0.13870469 0.2774094 -0.17306051
0.13870469 0.2496684 -0.17306052
0.13870469 0.22192752 -0.1730606
0.13870504 0.19418715 -0.17305689
0.13870504 0.16644612 -0.17305686
0.13870504 0.13870506 -0.17305696
0.13870542 0.11096436 -0.17305326
0.13870542 0.083223201 -0.17305328
0.13870542 0.055482175 -0.17305325
0.13870578 0.027741186 -0.17304963
0.13870578 2.9802322e-08 -0.17304963
0.13870578 -0.027741119 -0.17304966
0.13870615 -0.055482384 -0.17304598
0.13870615 -0.083223701 -0.17304601
0.13870615 -0.11096485 -0.17304601
0.13870651 -0.1387064 -0.17304231
0.13870651 -0.16644777 -0.1730423
0.13870651 -0.19418904 -0.17304237
0.13870686 -0.22193092 -0.17303878
0.13870686 -0.24967229 -0.17303877
0.13870686 -0.2774137 -0.17303863
0.13870724 -0.30515593 -0.17303506
0.13870724 -0.33289734 -0.17303509
0.13870724 -0.36063877 -0.17303501
0.13870759 -0.38838127 -0.17303136
0.13870759 -0.41612279 -0.17303136
0.13870759 -0.44386429 -0.17303132
0.13870797 -0.471607 -0.17302778
0.13870797 -0.49934864 -0.17302772
0.13870797 -0.52709019 -0.17302777
0.13870832 -0.55483329 -0.17302409
0.13870832 -0.5825749 -0.17302416
0.13870832 -0.61031651 -0.17302413
0.13870868 -0.63805985 -0.17302056
0.13870868 -0.66580164 -0.17302051
0.13870868 -0.69354331 -0.17302048
0.13870905 -0.72128701 -0.17301691
0.13870905 -0.74902886 -0.17301679
0.13870905 -0.77677059 -0.17301685
0.13870941 -0.80451453 -0.17301324
0.13870941 -0.83225644 -0.17301318
0.14056277 -0.87148923 -0.15447953
0.14387557 -0.92080355 -0.12135172
0.14734869 -0.97250128 -0.08662051
0.1509932 -1.0267537 -0.050175309
0.16963013 0.65024877 -0.14652309
0.16963013 0.62197709 -0.1465231
0.16963013 0.59370542 -0.14652307
0.16963057 0.56543523 -0.1465193
0.16963057 0.53716356 -0.14651926
0.16963057 0.50889176 -0.14651929
0.16963102 0.48062134 -0.14651543
0.16963102 0.45234945 -0.14651541
0.16963102 0.42407751 -0.14651549
0.16963148 0.39580679 -0.1465117
0.16963148 0.36753485 -0.14651176
0.16963148 0.33926299 -0.14651173
0.16963193 0.31099188 -0.14650796
0.16963193 0.28271988 -0.14650798
0.16963193 0.25444794 -0.14650786
0.16963239 0.22617656 -0.14650416
0.16963239 0.19790453 -0.14650413
0.16963239 0.16963245 -0.14650407
0.16963284 0.14136069 -0.14650036
0.16963284 0.11308861 -0.1465003
0.16963284 0.084816441 -0.14650033
0.16963328 0.056544468 -0.14649659
0.16963328 0.028272219 -0.14649653
0.16963328 5.9604645e-08 -0.14649656
0.16963375 -0.028272219 -0.14649272
0.16963375 -0.05654458 -0.1464929
0.16963375 -0.084816873 -0.14649281
0.16963421 -0.11308944 -0.14648901
0.16963421 -0.14136176 -0.14648905
0.16963421 -0.16963413 -0.14648898
0.16963466 -0.19790706 -0.14648512
0.16963466 -0.22617947 -0.14648527
0.16963466 -0.25445196 -0.14648515
0.1696351 -0.28272513 -0.14648142
0.1696351 -0.31099761 -0.14648147
0.1696351 -0.33927017 -0.14648139
0.16963556 -0.36754364 -0.14647764
0.16963556 -0.39581627 -0.1464777
0.16963556 -0.42408884 -0.14647764
0.16963601 -0.45236272 -0.14647382
0.16963601 -0.4806354 -0.1464739
0.16963601 -0.50890803 -0.14647393
0.16963647 -0.53718215 -0.14647007
0.16963647 -0.56545484 -0.14647016
0.16963647 -0.59372759 -0.14647013
0.16963692 -0.62200201 -0.14646634
0.16963692 -0.65027487 -0.14646631
0.16963692 -0.67854768 -0.14646634
0.16963737 -0.70682234 -0.14646256
0.16963737 -0.73509526 -0.14646253
0.16963737 -0.76336813 -0.1464625
0.16963783 -0.7916432 -0.14645877
0.16963783 -0.81991613 -0.14645877
0.16963783 -0.84818918 -0.14645872
0.16963783 -0.8764621 -0.14645877
0.16963829 -0.90473759 -0.14645493
0.17044903 -0.9374696 -0.13969868
0.17450944 -0.98888671 -0.10586199
0.17876852 -1.0428164 -0.070369631
0.20176418 0.69176298 -0.11893451
0.20176418 0.66293943 -0.11893463
0.20176418 0.63411605 -0.11893456
0.20176475 0.60529423 -0.11893061
0.20176475 0.57647067 -0.11893071
0.20176475 0.54764712 -0.11893064
0.20176528 0.51882499 -0.11892675
0.20176528 0.49000144 -0.11892664
0.20176528 0.46117783 -0.11892672
0.20176585 0.43235537 -0.11892286
0.20176585 0.40353173 -0.11892273
0.20176585 0.374708 -0.11892279
0.20176639 0.34588528 -0.11891887
0.20176639 0.31706154 -0.11891882
0.20176639 0.28823775 -0.11891885
0.20176695 0.25941464 -0.11891491
0.20176695 0.23059081 -0.11891492
0.20176695 0.20176698 -0.11891492
0.20176749 0.17294361 -0.1189109
0.20176749 0.14411968 -0.11891099
0.20176749 0.11529581 -0.11891095
0.20176803 0.086472072 -0.1189071
0.20176803 0.057648096 -0.11890698
0.20176803 0.028824132 -0.11890703
0.20176859 1.4901161e-08 -0.11890316
0.20176859 -0.028824035 -0.11890313
0.20176859 -0.057648085 -0.11890312
0.20176913 -0.086472467 -0.11889917
0.20176913 -0.11529663 -0.1188992
0.20176913 -0.14412081 -0.11889922
0.20176969 -0.17294544 -0.11889523
0.20176969 -0.20176962 -0.11889525
0.20176969 -0.23059392 -0.11889525
0.20177023 -0.25941885 -0.1188914
0.20177023 -0.28824314 -0.11889138
0.20177023 -0.31706744 -0.11889137
0.20177023 -0.34589174 -0.11889136
0.2017708 -0.37471718 -0.11888736
0.2017708 -0.40354154 -0.11888742
0.20177133 -0.43236715 -0.11888346
0.20177133 -0.46119159 -0.11888346
0.20177133 -0.49001607 -0.11888346
0.2017719 -0.51884192 -0.1188796
0.2017719 -0.54766655 -0.11887956
0.2017719 -0.576491 -0.11887962
0.20177244 -0.60531729 -0.11887564
0.20177244 -0.63414192 -0.11887565
0.20177244 -0.66296649 -0.11887562
0.20177244 -0.69179118 -0.11887565
0.201773 -0.72061777 -0.11887169
0.201773 -0.74944246 -0.11887169
0.20177354 -0.77826941 -0.11886773
0.20177354 -0.8070941 -0.11886773
0.20177354 -0.8359189 -0.11886781
0.20177354 -0.86474371 -0.11886773
0.20177409 -0.8935709 -0.11886388
0.20177409 -0.92239583 -0.11886388
0.20177409 -0.95122063 -0.11886382
0.20177464 -0.98004818 -0.11885992
0.20177464 -1.0088732 -0.11885992
0.23517753 0.70553267 -0.09024781
0.23517753 0.67613542 -0.09024781
0.23517819 0.64674008 -0.090243697
0.23517819 0.61734271 -0.090243727
0.23517819 0.58794546 -0.090243712
0.23517883 0.55854976 -0.090239599
0.23517883 0.52915245 -0.090239629
0.23517883 0.49975508 -0.090239674
0.23517948 0.47035897 -0.090235561
0.23517948 0.44096154 -0.090235531
0.23517948 0.41156417 -0.090235516
0.23518014 0.38216773 -0.090231434
0.23518014 0.35277027 -0.090231381
0.23518014 0.32337272 -0.090231538
0.2351808 0.29397601 -0.090227388
0.2351808 0.26457846 -0.09022738
0.2351808 0.23518088 -0.090227373
0.23518145 0.2057838 -0.090223223
0.23518145 0.17638616 -0.09022329
0.23518145 0.14698841 -0.090223297
0.23518211 0.11759113 -0.090219118
0.23518211 0.088193387 -0.090219118
0.23518211 0.058795527 -0.09021917
0.23518211 0.029397782 -0.09021917
0.23518276 3.7252903e-08 -0.090215072
0.23518276 -0.029397825 -0.090215117
0.23518343 -0.058795907 -0.090211049
0.23518343 -0.088193744 -0.090210959
0.23518343 -0.11759165 -0.090210974
0.23518406 -0.14698994 -0.090206876
0.23518406 -0.17638803 -0.090206899
0.23518406 -0.20578605 -0.090206869
0.23518406 -0.235184 -0.090206936
0.23518471 -0.26458275 -0.090202823
0.23518471 -0.2939809 -0.090202898
0.23518471 -0.32337901 -0.090202793
0.23518537 -0.35277796 -0.09019874
0.23518537 -0.38217619 -0.090198725
0.23518603 -0.41157544 -0.090194672
