# .PCD v0.7 - Point Cloud Data file format
VERSION 0.7
FIELDS x y z
SIZE 4 4 4
TYPE F F F
COUNT 1 1 1
WIDTH 1385
HEIGHT 1
VIEWPOINT 0 0 0 1 0 0 0
POINTS 1385
DATA ascii
-0.47182232 -0.2064223 -0.085662544
-0.49154669 -0.24577333 -0.024024121
-0.51299208 -0.28855798 0.0429928
-0.53639406 -0.33524626 0.11612415
-0.56203324 -0.38639787 0.19624656
-0.59024656 -0.44268483 0.28441322
-0.62144214 -0.50492167 0.38189927
-0.65611917 -0.57410425 0.49026513
-0.69489497 -0.65146399 0.61143947
-0.73854178 -0.73854172 0.74783576
-0.78803909 -0.83729148 0.90251482
-0.75385487 0.90462589 0.9527421
-0.70561022 0.79969168 0.79192668
-0.66316915 0.70738053 0.65045655
-0.62554395 0.62554401 0.52503914
-0.59195894 0.55249506 0.41308898
-0.56179839 0.48689193 0.31255391
-0.53456044 0.4276484 0.22176078
-0.50984162 0.37388387 0.13936459
-0.48730776 0.32487184 0.064251736
-0.46668145 0.28000894 -0.004502371
-0.44773167 0.23879024 -0.067668505
-0.43025956 0.20078781 -0.12590885
-0.41409987 0.16563998 -0.17977434
-0.39911017 0.13303679 -0.22974022
-0.38516861 0.10271166 -0.27621192
-0.37216735 0.07443355 -0.3195495
-0.36001512 0.048002034 -0.36005694
-0.34863141 0.023242131 -0.39800262
-0.33919722 4.4703484e-08 -0.42944992
-0.34996596 -0.023331016 -0.39355412
-0.36144093 -0.048192143 -0.3553043
-0.37369388 -0.074738793 -0.31446111
-0.38680673 -0.10314845 -0.27075157
-0.40087327 -0.13362439 -0.22386298
-0.41600159 -0.1664006 -0.17343545
-0.43231648 -0.20174764 -0.11905244
-0.4499633 -0.23998035 -0.060229771
-0.46911207 -0.2814672 0.0035994798
-0.48996308 -0.32664198 0.073102839
-0.51275384 -0.37601948 0.14907217
-0.53776836 -0.43021458 0.23245373
-0.56534863 -0.48996881 0.32438815
-0.59591091 -0.55618346 0.42626217
-0.62996876 -0.62996882 0.53978854
-0.66815287 -0.71269637 0.66706878
-0.71126449 -0.80609977 0.81077415
-0.76032323 -0.91238767 0.97430331
-0.72453582 0.98329878 1.0275208
-0.67687845 0.87027228 0.85731566
-0.63510358 0.7711972 0.70811963
-0.59818542 0.68364036 0.57626891
-0.56532562 0.6057061 0.45891279
-0.53588611 0.53588617 0.3537716
-0.50936091 0.472978 0.25903878
-0.48533779 0.41600382 0.17324193
-0.46347862 0.36416173 0.095173419
-0.44350496 0.31678927 0.023838907
-0.42518046 0.27333027 -0.041605704
-0.40831015 0.23332007 -0.10185688
-0.39272749 0.19636376 -0.15750918
-0.37829146 0.16212496 -0.20906639
-0.36487821 0.13031371 -0.25697088
-0.35238355 0.10068104 -0.30159459
-0.3407163 0.073010713 -0.34326336
-0.32979691 0.047113895 -0.38226128
-0.31955633 0.02282548 -0.41883475
-0.31105724 8.9406967e-08 -0.44918871
-0.3207548 -0.022911027 -0.41455445
-0.33107653 -0.047296643 -0.37769115
-0.34208465 -0.073303849 -0.33837646
-0.35384995 -0.10109998 -0.29635754
-0.36645335 -0.13087618 -0.25134528
-0.37998778 -0.16285187 -0.20300822
-0.39456025 -0.19728009 -0.15096359
-0.41029498 -0.23445424 -0.094768085
-0.42733684 -0.27471653 -0.033904225
-0.44585577 -0.31846833 0.032234639
-0.46605241 -0.36618394 0.10436565
-0.48816729 -0.41842914 0.18334731
-0.51248366 -0.47587764 0.27019161
-0.53934956 -0.5393495 0.36614105
-0.56918806 -0.60984421 0.47270706
-0.60252136 -0.68859577 0.59175467
-0.64000177 -0.77714497 0.72561318
-0.68245447 -0.87744147 0.87723017
-0.73093927 -0.99198902 1.0503901
-0.69341838 1.0667975 1.1068864
-0.64650345 0.94488961 0.92644423
-0.60553455 0.83843237 0.76887161
-0.56944859 0.7446636 0.63007951
-0.53742385 0.66144484 0.5069074
-0.50880742 0.5870856 0.39684436
-0.48308447 0.52024484 0.29790992
-0.4598372 0.45983729 0.20849727
-0.43872604 0.40497792 0.1273005
-0.41946697 0.35493362 0.053227127
-0.4018276 0.30909821 -0.014616415
-0.38561195 0.26696211 -0.07698451
-0.37065428 0.22809502 -0.13451393
-0.35681462 0.19213097 -0.18774348
-0.34397036 0.15875565 -0.2371444
-0.3320187 0.12769952 -0.28311229
-0.32086971 0.098729193 -0.32599312
-0.31044585 0.071641386 -0.3660849
-0.30067727 0.046258062 -0.40365633
-0.29150471 0.022423461 -0.4389354
-0.28388289 1.4901161e-08 -0.46825013
-0.29257676 -0.022505835 -0.43481207
-0.30181998 -0.046433836 -0.39926124
-0.31166631 -0.071922913 -0.36139089
-0.32217669 -0.099131227 -0.32096627
-0.33342069 -0.12823868 -0.27771997
-0.34547797 -0.15945134 -0.231346
-0.35844091 -0.19300659 -0.18148851
-0.37241352 -0.2291775 -0.1277476
-0.38751972 -0.26828286 -0.069646887
-0.40390316 -0.31069475 -0.006633535
-0.42173311 -0.3568511 0.061943173
-0.44120994 -0.40727079 0.13685405
-0.4625729 -0.46257281 0.21901911
-0.48610985 -0.52350283 0.30954576
-0.51217043 -0.59096587 0.40977895
-0.54118353 -0.66607195 0.52136767
-0.57368106 -0.75019825 0.64635813
-0.61033082 -0.84507328 0.78731877
-0.6519829 -0.95289797 0.94751906
-0.61434013 1.0239002 0.99964315
-0.57433802 0.9093684 0.83296752
-0.53922909 0.80884367 0.6866805
-0.50816321 0.71989799 0.55723947
-0.48048189 0.64064252 0.44190049
-0.45566055 0.56957573 0.3384783
-0.43327925 0.50549245 0.2452229
-0.41299233 0.44740844 0.16069388
-0.39452013 0.39452007 0.083726496
-0.37762967 0.34616053 0.013349488
-0.36212605 0.30177176 -0.051248811
-0.34784621 0.26088473 -0.11074817
-0.33464897 0.22309932 -0.16573675
-0.32241648 0.1880763 -0.21670531
-0.31104678 0.15552345 -0.26407906
-0.30045164 0.12518823 -0.30822551
-0.29055518 0.096851751 -0.34946078
-0.28128925 0.070322365 -0.3880688
-0.27259606 0.045432702 -0.42429042
-0.26442409 0.022035345 -0.45834038
-0.25762531 -1.4901161e-08 -0.48666847
-0.265378 -0.022114798 -0.45436567
-0.27361172 -0.045601904 -0.42005846
-0.28237274 -0.070593148 -0.38355416
-0.29171407 -0.097238004 -0.34463209
-0.30169386 -0.12570572 -0.30304959
-0.31238067 -0.15619025 -0.25852129
-0.32385236 -0.18891388 -0.21072242
-0.33619881 -0.22413245 -0.15927902
-0.34952387 -0.2621429 -0.10375784
-0.36394885 -0.30329069 -0.043653861
-0.37961569 -0.3479811 0.021624759
-0.39669204 -0.39669198 0.09277615
-0.41537705 -0.44999176 0.17063038
-0.43590927 -0.50856078 0.25618124
-0.45857686 -0.57322103 0.35062954
-0.48373124 -0.64497495 0.45543957
-0.51180542 -0.72505772 0.57241511
-0.54333895 -0.81500834 0.70380491
-0.57901335 -0.91677117 0.8524484
-0.61970156 -1.032836 1.0219826
-0.58023155 1.1077147 1.0773085
-0.54138076 0.98432875 0.9007144
-0.50740403 0.87642515 0.74627435
-0.47744206 0.78126884 0.61008382
-0.45082131 0.69672382 0.48908028
-0.42701235 0.62110895 0.38085797
-0.40559351 0.55308205 0.28349936
-0.38621944 0.491552 0.19543558
-0.3686119 0.43563223 0.11540125
-0.35253978 0.3845889 0.042346224
-0.33781165 0.33781165 -0.02459982
-0.32426387 0.29478532 -0.086180769
-0.31176081 0.25507703 -0.1430127
-0.30018619 0.21831729 -0.19562468
-0.28944024 0.18418925 -0.24446997
-0.27943772 0.15242065 -0.28993589
-0.27010283 0.12277409 -0.33236721
-0.26137146 0.095044211 -0.37205529
-0.25318691 0.069051057 -0.40925777
-0.24549989 0.044636369 -0.44419873
-0.23826541 0.021660522 -0.47708279
-0.23223943 4.4703484e-08 -0.50447357
-0.23910882 -0.021737143 -0.47324914
-0.24639696 -0.044799387 -0.44012117
-0.25414336 -0.069311768 -0.40491024
-0.26239264 -0.095415488 -0.36741358
-0.27119541 -0.12327061 -0.32740089
-0.28060934 -0.15305956 -0.28461036
-0.29070032 -0.18499105 -0.23874228
-0.30154413 -0.2193048 -0.1894522
-0.31322831 -0.25627762 -0.13634232
-0.32585445 -0.29623133 -0.078950748
-0.33954126 -0.33954123 -0.016738012
-0.35442823 -0.38664892 0.050930053
-0.37068051 -0.43807691 0.12480408
-0.38849491 -0.49444801 0.20577846
-0.40810803 -0.55651087 0.29492903
-0.42980674 -0.62517339 0.39355963
-0.45394245 -0.70154738 0.50326735
-0.48095208 -0.78701246 0.62603837
-0.51137692 -0.88328737 0.76433331
-0.54590851 -0.9925608 0.92129505
-0.50650072 1.0636516 0.97239643
-0.47384888 0.94769788 0.80913711
-0.44515193 0.84578872 0.66565222
-0.41973063 0.75551522 0.53854597
-0.3970575 0.67499775 0.42518014
-0.37670833 0.60273331 0.32343429
-0.35834324 0.53751487 0.23160882
-0.34168562 0.47835994 0.14832075
-0.32650784 0.42446023 0.072431788
-0.31262201 0.37514645 0.0030027926
-0.29986826 0.32985511 -0.060766041
-0.28811431 0.28811434 -0.1195357
-0.27724707 0.2495224 -0.17387198
-0.2671698 0.21373588 -0.2242583
-0.25780004 0.18046007 -0.27110699
-0.24906467 0.14943883 -0.31478405
-0.24090183 0.12045096 -0.35559815
-0.2332571 0.093302831 -0.3938219
-0.22608311 0.0678249 -0.42969185
-0.21933678 0.043867394 -0.46342349
-0.2129814 0.021298125 -0.4952004
-0.20768152 2.9802322e-08 -0.52169973
-0.21372135 -0.021372125 -0.49150062
-0.22012299 -0.044024572 -0.45949239
-0.22691999 -0.06807597 -0.42550737
-0.23415011 -0.093660012 -0.38935679
-0.24185614 -0.12092798 -0.35082665
-0.25008664 -0.15005197 -0.30967417
-0.25889704 -0.18122785 -0.26562214
-0.2683509 -0.21468067 -0.21835285
-0.27852136 -0.25066918 -0.16750056
-0.28949308 -0.28949302 -0.11264198
-0.30136466 -0.33150113 -0.053283975
-0.31425157 -0.37710184 0.011150584
-0.32828984 -0.42677671 0.081341818
-0.34364098 -0.48109734 0.15809762
-0.36049825 -0.54074723 0.24238382
-0.37909603 -0.60655361 0.33537284
-0.39971554 -0.67951643 0.43847054
-0.42270717 -0.76087296 0.55342841
-0.44850513 -0.85215968 0.68241835
-0.47765672 -0.95531332 0.8281762
-0.51086128 -1.0728084 0.99419886
-0.43841335 1.0229646 0.87552261
-0.41116291 0.91369545 0.72413129
-0.38710347 0.81721848 0.59046739
-0.365704 0.731408 0.47158164
-0.34654534 0.6545856 0.36514449
-0.32929525 0.58541381 0.26931068
-0.31368107 0.52280176 0.18256529
-0.29948062 0.46585873 0.10367382
-0.28651017 0.4138481 0.031615898
-0.27461663 0.36615551 -0.034459442
-0.26367113 0.3222647 -0.095267706
-0.25356472 0.28173858 -0.15141447
-0.24420509 0.24420512 -0.2034124
-0.23551126 0.20934334 -0.25171152
-0.22741513 0.17687848 -0.29668987
-0.21985717 0.14657143 -0.33867869
-0.21278539 0.11821418 -0.37796623
-0.20615484 0.091624439 -0.41480273
-0.19992459 0.066641569 -0.44941521
-0.19405986 0.043124422 -0.48199701
-0.18852942 0.020947754 -0.51272178
-0.18391223 -0 -0.5383727
-0.18917246 -0.021019086 -0.50914913
-0.19474246 -0.043276057 -0.47820479
-0.20065042 -0.066883415 -0.44538283
-0.20692803 -0.09196794 -0.41050717
-0.21361117 -0.1186728 -0.37337875
-0.22074038 -0.14716022 -0.33377188
-0.22836189 -0.17761479 -0.29143015
-0.23652855 -0.21024752 -0.24605994
-0.24530093 -0.24530089 -0.19732431
-0.25474912 -0.2830545 -0.14483449
-0.26495501 -0.32383385 -0.088135079
-0.27601197 -0.36801594 -0.026707456
-0.288032 -0.41604623 0.040070355
-0.30114657 -0.46845025 0.11292928
-0.31551239 -0.52585387 0.19273929
-0.33131748 -0.58900875 0.28054535
-0.34878954 -0.65882462 0.37761226
-0.36820695 -0.7364139 0.48548687
-0.3899138 -0.82315129 0.60608047
-0.41434038 -0.92075622 0.74178338
-0.44203189 -1.0314076 0.89562517
-0.40093294 1.1025656 0.94572353
-0.37534142 0.98527128 0.7857765
-0.35282087 0.88205218 0.64502311
-0.33284852 0.7905153 0.52019596
-0.3150174 0.70878911 0.40875119
-0.29899853 0.6353718 0.30863327
-0.28453091 0.56906188 0.21821097
-0.27139878 0.50887287 0.13613509
-0.25942537 0.45399433 0.061301112
-0.24846303 0.40375245 -0.007213369
-0.23839027 0.35758543 -0.070168048
-0.22910303 0.31501672 -0.12821344
-0.22051169 0.27563968 -0.18190917
-0.21254143 0.23910914 -0.23172343
-0.20512722 0.20512727 -0.27806225
-0.19821285 0.17343625 -0.32127714
-0.19174984 0.14381239 -0.36167085
-0.18569458 0.11605917 -0.39951628
-0.18001007 0.090005055 -0.4350445
-0.17466323 0.065498769 -0.46846211
-0.16962522 0.04240635 -0.49994975
-0.16486937 0.020608693 -0.52967387
-0.16089419 2.9802322e-08 -0.5545187
-0.16542128 -0.020677656 -0.52622426
-0.17021053 -0.042552605 -0.49629161
-0.17528535 -0.065731987 -0.46457392
-0.18067206 -0.09033598 -0.43090689
-0.18640038 -0.11650015 -0.39510497
-0.19250382 -0.14437778 -0.35695845
-0.19902049 -0.17414287 -0.31622925
-0.20599432 -0.20599429 -0.27264276
-0.21347412 -0.2401583 -0.22589418
-0.22151756 -0.27689695 -0.17562258
-0.23019087 -0.31651235 -0.12141442
-0.23957105 -0.35935649 -0.062788352
-0.24974817 -0.40584072 0.0008187443
-0.26082832 -0.45644957 0.070069715
-0.27293727 -0.51175737 0.14575055
-0.28622529 -0.57245058 0.22880058
-0.30087334 -0.63935572 0.320351
-0.31710154 -0.71347845 0.42177737
-0.33518016 -0.79605275 0.53476858
-0.35544482 -0.88861197 0.66142261
-0.37831751 -0.99308336 0.8043769
-0.33753127 1.0608125 0.85083014
-0.31675231 0.95025688 0.70240903
-0.29838336 0.8525238 0.57120222
-0.28202704 0.76550198 0.45437151
-0.26737168 0.6875273 0.34969056
-0.25416422 0.61725605 0.25535136
-0.24219936 0.55359852 0.16988814
-0.23131107 0.49566668 0.092114687
-0.22135966 0.44271934 0.021033093
-0.21222919 0.39413989 -0.044184625
-0.20382152 0.34940827 -0.1042394
-0.19605514 0.30808672 -0.15971337
-0.18885891 0.26979852 -0.21111518
-0.18217224 0.23422143 -0.2588771
-0.1759433 0.20107809 -0.30336952
-0.17012584 0.17012589 -0.34492278
-0.16468078 0.14115499 -0.38381612
-0.15957345 0.11398105 -0.42029697
-0.15477338 0.088441998 -0.45458311
-0.15025398 0.064394563 -0.48686469
-0.14599071 0.041711614 -0.51731646
-0.14196272 0.020280451 -0.54608792
-0.13859229 2.9802322e-08 -0.57016236
-0.14242955 -0.020347059 -0.54275346
-0.14648533 -0.041852936 -0.51378357
-0.15077886 -0.064619482 -0.48311543
-0.1553317 -0.088760912 -0.45059526
-0.16016802 -0.11440568 -0.41604999
-0.16531558 -0.14169905 -0.37928176
-0.17080458 -0.17080453 -0.34007463
-0.17667061 -0.20190918 -0.29817438
-0.18295389 -0.23522639 -0.25329378
-0.18970059 -0.2710008 -0.20510316
-0.19696392 -0.30951467 -0.15322222
-0.2048056 -0.35109526 -0.097210184
-0.21329756 -0.39612406 -0.036553264
-0.22252423 -0.44504842 0.029351249
-0.23258518 -0.49839675 0.10121536
-0.24359901 -0.55679762 0.17988548
-0.25570777 -0.62100458 0.26637679
-0.26908332 -0.69192845 0.3619163
-0.28393537 -0.77068168 0.46800241
-0.30052274 -0.85863638 0.58648372
-0.31916842 -0.95750523 0.71966702
-0.34028083 -1.069454 0.87046987
-0.27875751 1.0221109 0.76287198
-0.26218453 0.91764587 0.62476373
-0.24747257 0.82490867 0.50216419
-0.23432395 0.74202585 0.39259216
-0.22250125 0.66750383 0.29406983
-0.211815 0.6001426 0.20501769
-0.20210817 0.53895509 0.1241273
-0.19325143 0.48312861 0.050321221
-0.18513888 0.43199077 -0.017283276
-0.17768002 0.38497341 -0.079440489
-0.17079888 0.3415978 -0.13678336
-0.16443042 0.30145586 -0.18985376
-0.15852021 0.26420042 -0.23910555
-0.15302011 0.22953019 -0.28493974
-0.1478889 0.19718523 -0.32769993
-0.14309064 0.16693914 -0.36768538
-0.13859394 0.13859396 -0.40515777
-0.13437156 0.11197636 -0.44034433
-0.13039859 0.086932436 -0.47345251
-0.12665379 0.06332694 -0.50465912
-0.12311807 0.041039407 -0.5341233
-0.11977442 0.01996243 -0.56198716
-0.11697389 -0 -0.58532494
-0.12016162 -0.020026892 -0.55876052
-0.12352797 -0.041175976 -0.53070766
-0.12708837 -0.063544169 -0.50103766
-0.13086009 -0.087240055 -0.46960658
-0.13486254 -0.11238547 -0.4362528
-0.13911755 -0.13911754 -0.40079445
-0.1436498 -0.16759136 -0.36302567
-0.14848731 -0.19798306 -0.32271305
-0.153662 -0.2304929 -0.27959073
-0.15921037 -0.26535058 -0.23335439
-0.16517441 -0.30281979 -0.18365395
-0.17160268 -0.34320524 -0.13008502
-0.17855157 -0.38686162 -0.072177693
-0.18608698 -0.43420291 -0.0093825459
-0.19428645 -0.4857161 0.058946446
-0.2032418 -0.54197806 0.13357432
-0.21306261 -0.60367739 0.21541448
-0.22388072 -0.67164212 0.30556542
-0.23585616 -0.74687791 0.4053607
-0.24918514 -0.83061701 0.51643538
-0.26411086 -0.92438793 0.64081651
-0.28093857 -1.030108 0.78104734
-0.23867518 1.0979058 0.82664442
-0.22412036 0.98612958 0.68109626
-0.21123867 0.88720244 0.55227935
-0.19975653 0.79902619 0.4374581
-0.189459 0.71994418 0.33448252
-0.18017107 0.64861584 0.24160327
-0.17175068 0.58395243 0.15739958
-0.16408274 0.52506483 0.080720007
-0.15707022 0.47121066 0.01059483
-0.15063208 0.42176986 -0.053786442
-0.14470136 0.37622347 -0.11309385
-0.13921995 0.3341279 -0.16790783
-0.13413833 0.29510432 -0.21872413
-0.12941492 0.25882989 -0.26595816
-0.12501284 0.22502315 -0.30997884
-0.12090012 0.19344023 -0.35110617
-0.11704991 0.16386989 -0.38960826
-0.11343711 0.13612458 -0.42573631
-0.11004065 0.11004065 -0.45970094
-0.10684166 0.085473359 -0.4916907
-0.10382342 0.062294096 -0.52187312
-0.10097121 0.040388495 -0.55039525
-0.098271348 0.019654304 -0.57739389
-0.096007556 2.9802322e-08 -0.60003185
-0.098583393 -0.01971662 -0.57427353
-0.10130125 -0.040520474 -0.54709482
-0.10417322 -0.062503904 -0.51837522
-0.10721278 -0.08577013 -0.48797956
-0.11043505 -0.11043498 -0.45575684
-0.11385702 -0.13662839 -0.42153722
-0.11749782 -0.1644969 -0.38512915
-0.12137917 -0.19420666 -0.34631565
-0.12552571 -0.22594625 -0.30485028
-0.12996557 -0.25993112 -0.26045156
-0.13473102 -0.29640824 -0.21279708
-0.13985926 -0.33566213 -0.16151486
-0.14539333 -0.37802255 -0.10617411
-0.15138339 -0.42387342 -0.0462735
-0.15788822 -0.4736647 0.018774882
-0.16497718 -0.52792692 0.0896644
-0.17273262 -0.58729088 0.16721891
-0.18125319 -0.65251148 0.25242466
-0.19065799 -0.72450036 0.34647256
-0.20109217 -0.80436867 0.45081446
-0.21273455 -0.89348501 0.56723815
-0.22580788 -0.99355465 0.69797146
-0.24059321 -1.1067287 0.8458246
-0.18404144 1.0582381 0.74041033
-0.17319918 0.95259541 0.6048823
-0.16356395 0.85871089 0.4844422
-0.15494427 0.77472138 0.37669605
-0.14718711 0.69913876 0.27973142
-0.14017008 0.63076538 0.19201857
-0.13379167 0.56861466 0.11228853
-0.1279681 0.51187241 0.039493948
-0.12263071 0.45986521 -0.027223453
-0.11772073 0.41202262 -0.088598251
-0.11318848 0.36786255 -0.14525136
-0.10899256 0.32697773 -0.19770029
-0.10509661 0.28901574 -0.24639975
-0.10146932 0.25367334 -0.29174075
-0.098084301 0.22068967 -0.33405358
-0.094917834 0.18983565 -0.37363449
-0.091949217 0.16091116 -0.4107421
-0.089160845 0.13374132 -0.44559681
-0.086536616 0.10817081 -0.47839969
-0.084062442 0.084062457 -0.50932682
-0.081725977 0.061294541 -0.53853273
-0.079515725 0.039757907 -0.5661608
-0.077421881 0.019355506 -0.59233391
-0.075664468 2.9802322e-08 -0.61430144
-0.077663533 -0.019415855 -0.58931315
-0.079771109 -0.039885491 -0.56296849
-0.081996247 -0.061497122 -0.53515422
-0.084349096 -0.084349066 -0.50574368
-0.086840957 -0.10855113 -0.47459546
-0.089484528 -0.13422681 -0.44155079
-0.092294097 -0.16151461 -0.40643114
-0.095285818 -0.19057159 -0.36903465
-0.098477982 -0.22157547 -0.32913244
-0.10189145 -0.25472862 -0.28646421
-0.10555005 -0.29026264 -0.24073163
-0.10948118 -0.3284435 -0.19159266
-0.11371645 -0.36957836 -0.13865176
-0.11829259 -0.41402411 -0.081449956
-0.12325247 -0.46219677 -0.01945141
-0.12864648 -0.51458597 0.047973782
-0.13453424 -0.57177049 0.12157063
-0.14098677 -0.6344403 0.20222716
-0.14808942 -0.70342475 0.2910105
-0.15594569 -0.77972841 0.38921383
-0.16468221 -0.86458158 0.49842033
-0.17445573 -0.95950639 0.62058926
-0.18546249 -1.0664092 0.75817376
-0.13321732 1.0213327 0.66018128
-0.12562782 0.92127073 0.5336895
-0.11885602 0.83199215 0.42082638
-0.11277734 0.75184894 0.31951481
-0.10729016 0.67950439 0.22806203
-0.10231184 0.61387098 0.14508995
-0.097775333 0.55406022 0.069481432
-0.09362404 0.4993282 0.00029331446
-0.08981064 0.44905323 -0.063263357
-0.08629597 0.40271461 -0.12184122
-0.083046027 0.35986611 -0.17600702
-0.080031775 0.32012713 -0.22624443
-0.077228867 0.28317255 -0.2729595
-0.07461565 0.24871883 -0.31651327
-0.07217332 0.21652004 -0.35721859
-0.069885969 0.18636268 -0.39534116
-0.067739144 0.15805805 -0.43112162
-0.065720148 0.13144036 -0.46477145
-0.063818149 0.10636365 -0.49647141
-0.062023155 0.082697555 -0.52638811
-0.060326364 0.060326383 -0.55466789
-0.058719944 0.039146721 -0.58144158
-0.057196856 0.019065678 -0.60682636
-0.055917252 5.9604645e-08 -0.6281532
-0.057372395 -0.01912412 -0.60390079
-0.0589053 -0.039270192 -0.57835245
-0.060522363 -0.060522288 -0.55140132
-0.062230714 -0.082974225 -0.52292877
-0.064038314 -0.10673049 -0.49280208
-0.065954067 -0.13190813 -0.46087292
-0.067987971 -0.15863861 -0.42697448
-0.070151314 -0.18707019 -0.39091876
-0.072456852 -0.21737057 -0.35249311
-0.07491909 -0.24973032 -0.31145582
-0.077554554 -0.28436661 -0.26753157
-0.080382198 -0.32152879 -0.22040409
-0.083423831 -0.36150315 -0.16971019
-0.086704709 -0.40462199 -0.1150289
-0.09025421 -0.45127106 -0.055870503
-0.094106741 -0.50190246 0.0083382577
-0.098302826 -0.55704921 0.078272954
-0.10289056 -0.61734325 0.15473524
-0.10792748 -0.6835407 0.23868404
-0.11348294 -0.75655293 0.33127505
-0.11964136 -0.83748937 0.43391523
-0.12650654 -0.92771441 0.54833478
-0.13420753 -1.0289245 0.67668492
-0.091139458 1.0936735 0.71837902
-0.085818663 0.98691463 0.58535928
-0.081085183 0.89193696 0.46702206
-0.076846562 0.80688894 0.36105677
-0.073028825 0.73028827 0.26561314
-0.06957268 0.66094053 0.17920968
-0.066428892 0.59785992 0.10061485
-0.063556746 0.54023236 0.028811336
-0.060922839 0.48738271 -0.037036374
-0.058498554 0.43873918 -0.09764342
-0.056259681 0.39381778 -0.15361539
-0.054185994 0.35220906 -0.20545737
-0.052259751 0.31355846 -0.25361371
-0.050465625 0.27756101 -0.29846662
-0.048790723 0.24395368 -0.3403393
-0.047223419 0.2125054 -0.37952191
-0.045753576 0.18301433 -0.41626793
-0.044372566 0.15530406 -0.45079321
-0.043072477 0.12921746 -0.48329544
-0.041846324 0.10461578 -0.51394928
-0.040688124 0.081376284 -0.54290426
-0.039592311 0.059388518 -0.57029957
-0.038553976 0.038554072 -0.59625798
-0.037568711 0.018784374 -0.62088966
-0.036740094 2.9802322e-08 -0.64160502
-0.03768203 -0.018840969 -0.61805654
-0.038673542 -0.03867352 -0.59326875
-0.039718639 -0.059577942 -0.56714135
-0.040821791 -0.081643537 -0.53956258
-0.04198797 -0.10496986 -0.51040804
-0.04322274 -0.12966822 -0.4795388
-0.044532333 -0.15586318 -0.44679898
-0.045923766 -0.183695 -0.41201329
-0.047404952 -0.21332225 -0.37498358
-0.048984867 -0.24492431 -0.33548573
-0.050673727 -0.27870551 -0.29326418
-0.052483197 -0.31489909 -0.24802741
-0.054426678 -0.35377333 -0.19944039
-0.056519635 -0.39563739 -0.14711654
-0.058779992 -0.44084984 -0.090607554
-0.061228681 -0.48982936 -0.029390439
-0.063890256 -0.5430671 0.037148938
-0.066793732 -0.60114348 0.10973594
-0.06997367 -0.66474986 0.18923447
-0.073471531 -0.73471528 0.27668089
-0.077337496 -0.81204367 0.37332997
-0.081632897 -0.89796185 0.48071504
-0.0864335 -0.9939853 0.60073024
-0.091834009 -1.102008 0.73574281
-0.043995205 1.0558848 0.63965291
-0.041510466 0.95474076 0.51541591
-0.039291531 0.86441374 0.40446916
-0.037297785 0.78325343 0.30478173
-0.0354966 0.70993197 0.21472263
-0.033861261 0.64336395 0.13295567
-0.032370064 0.58266127 0.058395982
-0.031004669 0.52707934 -0.0098739564
-0.029749714 0.47599542 -0.072621629
-0.028592477 0.42888719 -0.13048348
-0.027521899 0.38530672 -0.18401235
-0.026528532 0.34487092 -0.23368083
-0.025604436 0.30725324 -0.27988547
-0.024742557 0.2721681 -0.3229796
-0.023936754 0.23936757 -0.36326966
-0.023181833 0.20863655 -0.40101564
-0.022473076 0.17978463 -0.43645358
-0.021806326 0.15264431 -0.46979111
-0.021178041 0.1270683 -0.50120533
-0.020584946 0.10292481 -0.53085995
-0.020024128 0.080096588 -0.55890083
-0.019493096 0.058479369 -0.58545256
-0.0189895 0.037979037 -0.61063242
-0.018511236 0.018511295 -0.63454556
-0.018108666 2.9802322e-08 -0.65467405
-0.018566161 -0.018566132 -0.63179928
-0.019047407 -0.038094729 -0.607737
-0.019554229 -0.058662653 -0.58239591
-0.020088721 -0.08035481 -0.55567127
-0.020653294 -0.10326642 -0.52744263
-0.02125052 -0.12750305 -0.49758148
-0.021883311 -0.15318318 -0.46594185
-0.022554945 -0.18043953 -0.43236011
-0.023269113 -0.20942196 -0.39665169
-0.024029985 -0.24029982 -0.35860804
-0.0248423 -0.27326524 -0.31799233
-0.025711454 -0.30853733 -0.27453464
-0.026643634 -0.34636718 -0.22792572
-0.027645946 -0.38704315 -0.17781009
-0.028726619 -0.43089929 -0.12377641
-0.029895216 -0.47832346 -0.065346599
-0.031162921 -0.52976954 -0.001961261
-0.032542903 -0.58577228 0.067037791
-0.034050766 -0.64696455 0.14243095
-0.035705149 -0.71410286 0.22515017
-0.037528504 -0.78809845 0.3163178
-0.039548103 -0.87005818 0.41729772
-0.041797437 -0.96134108 0.52976447
-0.044318065 -1.0636334 0.65579581
0 1.0206206 0.56618547
0 0.92460167 0.4498964
0 0.83854109 0.3456679
0 0.76096332 0.25170991
0 0.6906777 0.16658679
0 0.62670004 0.089103222
0 0.56821597 0.018270284
0 0.51455021 -0.046724454
0 0.46512938 -0.10657801
0 0.41946787 -0.16188118
0 0.37715465 -0.21312675
0 0.33783332 -0.26074877
0 0.3011966 -0.3051216
0 0.26698023 -0.34656093
0 0.2349513 -0.38535115
0 0.20490597 -0.42174083
0 0.17666657 -0.45594141
0 0.15007451 -0.48814696
0 0.12498946 -0.51852918
0 0.10128736 -0.54723465
0 0.078856617 -0.57440037
0 0.057597548 -0.60014868
0 0.037420958 -0.62458432
0 0.018356651 -0.64227664
0 -0 -0.64227664
0 -0.018356651 -0.64227509
0 -0.037533045 -0.62178016
0 -0.057774961 -0.59719062
0 -0.079106331 -0.57127756
0 -0.10161754 -0.54393119
0 -0.12540908 -0.5150314
0 -0.1505937 -0.48443747
0 -0.17729744 -0.45199817
0 -0.20566174 -0.41754168
0 -0.23584674 -0.38087344
0 -0.26803336 -0.34177366
0 -0.30242762 -0.299992
0 -0.33926469 -0.25524288
0 -0.37881437 -0.20719852
0 -0.42138788 -0.15548104
0 -0.46734548 -0.099652261
0 -0.51710784 -0.03920193
0 -0.57116741 0.026468873
0 -0.63010597 0.098066539
0 -0.6946156 0.17643186
0 -0.7655251 0.26257151
0 -0.84383643 0.357703
0 -0.9307726 0.46331173
0 -1.0278417 0.58122957
0.043592162 1.0898041 0.6195007
0.041151475 0.98763549 0.49746642
0.038969748 0.89630425 0.38837999
0.037007708 0.81416953 0.29027799
0.035233766 0.73990905 0.20158085
0.033622004 0.67244011 0.12099287
0.032151349 0.61087561 0.047460109
0.030803867 0.5544697 -0.019913942
0.029564874 0.50260288 -0.081863657
0.028421696 0.45474714 -0.13902257
0.027363561 0.41045344 -0.19192931
0.026381452 0.36934039 -0.2410347
0.025467401 0.33107623 -0.28673741
0.024614565 0.29537487 -0.32937905
0.023816945 0.26198643 -0.36926007
0.023069445 0.23069444 -0.40663508
0.022367438 0.20130694 -0.44173545
0.021706849 0.17365478 -0.47476488
0.021084202 0.14758942 -0.50589728
0.020496279 0.12297775 -0.5352934
0.019940218 0.099701092 -0.5630964
0.019413566 0.077654332 -0.58942896
0.018914018 0.056742102 -0.61440647
0.018901806 0.03780362 -0.615017
0.018901842 0.018901885 -0.61501533
0.018901875 -0 -0.61501366
0.018901909 -0.018901885 -0.61501199
0.018901909 -0.037803769 -0.61501193
0.018971262 -0.056913763 -0.61154419
0.019473987 -0.077895895 -0.58640802
0.020004079 -0.10002035 -0.55990338
0.020563839 -0.123383 -0.53191543
0.021155827 -0.14809076 -0.502316
0.021782864 -0.17426288 -0.47096413
0.022448253 -0.20203426 -0.43769461
0.023155626 -0.23155621 -0.40232608
0.023908975 -0.2629987 -0.36465865
0.024712933 -0.29655519 -0.32446072
0.025572903 -0.33244759 -0.28146234
0.026494879 -0.37092817 -0.23536342
0.027485825 -0.41228732 -0.1858162
0.028553775 -0.45686033 -0.13241862
0.029708069 -0.50503719 -0.074703902
0.030959619 -0.55727321 -0.012126386
0.032321259 -0.61410391 0.055955678
0.033808187 -0.67616367 0.13030183
0.035438515 -0.74420875 0.21181835
0.037234053 -0.81914914 0.30159533
0.039221246 -0.90208852 0.40095493
0.041432515 -0.99438024 0.5115183
0.043908019 -1.0977004 0.63529348
0.084298335 1.0537293 0.54735112
0.079726607 0.9567194 0.4330579
0.075624973 0.8696872 0.33051702
0.071924962 0.79117471 0.23801684
0.068570122 0.71998632 0.15414569
0.065514088 0.65514094 0.077744871
0.062719025 0.59583074 0.0078682005
0.060152695 0.54137433 -0.056290001
0.05778797 0.49119776 -0.11540812
0.055602279 0.44481826 -0.17005035
0.053575903 0.40181932 -0.2207098
0.051691908 0.36184335 -0.26780966
0.04993603 0.32458419 -0.31170666
0.04829552 0.28977317 -0.35271931
0.046759266 0.25717598 -0.39112571
0.045317832 0.22658922 -0.42716151
0.043962609 0.19783178 -0.46104217
0.04268609 0.17074437 -0.49295509
0.041481525 0.14518538 -0.52306914
0.040343158 0.12102945 -0.55152833
0.039265603 0.098164037 -0.57846731
0.038960751 0.077921599 -0.58608854
0.038960822 0.058441252 -0.58608675
0.038960896 0.038960904 -0.58608496
0.038960963 0.019480556 -0.58608317
0.038961038 5.9604645e-08 -0.58608139
0.038961038 -0.019480526 -0.58608139
0.038961109 -0.038961083 -0.5860796
0.038961183 -0.058441758 -0.58607775
0.038961254 -0.077922449 -0.58607596
0.039389044 -0.098472625 -0.57538128
0.040473711 -0.12142105 -0.5482645
0.041619811 -0.14566924 -0.51961207
0.04283271 -0.17133081 -0.4892897
0.044118423 -0.19853285 -0.45714679
0.045483712 -0.22741854 -0.42301455
0.046936199 -0.25814903 -0.38670242
0.048484515 -0.29090708 -0.34799454
0.050138462 -0.32589996 -0.30664572
0.051909115 -0.36336377 -0.26237953
0.053809546 -0.40357155 -0.21486872
0.055854414 -0.44683534 -0.16374701
0.058060836 -0.4935171 -0.10858637
0.060448758 -0.54403877 -0.0488884
0.063041523 -0.59889442 0.015930653
0.065866664 -0.65866655 0.086559296
0.068956904 -0.72404742 0.1638152
0.072351381 -0.79586518 0.24867719
0.076097362 -0.87511963 0.34232664
0.080252409 -0.96302879 0.44620284
0.084887408 -1.0610926 0.562078
0.12239593 1.0199661 0.47982475
0.11595957 0.92767656 0.37255207
0.11016633 0.84460849 0.27599797
0.10492404 0.76944292 0.18862653
0.10015832 0.70110822 0.10919788
0.09580671 0.63871145 0.036671132
0.091817223 0.58150905 -0.029820412
0.088146947 0.52888167 -0.090991527
0.084758833 0.48030004 -0.14746021
0.081621312 0.43531373 -0.19975212
0.078707993 0.39353994 -0.24830759
0.075995468 0.35464561 -0.29351616
0.073463507 0.31834188 -0.33571553
0.07109499 0.28437996 -0.37519088
0.068874419 0.25253958 -0.41220024
0.066788226 0.22262748 -0.44697022
0.064824834 0.19447456 -0.47969347
0.062973574 0.16792956 -0.51054776
0.061224997 0.1428584 -0.53969067
0.060286447 0.12057291 -0.55533326
0.060286559 0.10047762 -0.55533135
0.060286678 0.080382317 -0.55532944
0.060286786 0.06028688 -0.55532742
0.060286906 0.040191323 -0.55532557
0.060286906 0.020095676 -0.55532563
0.060287017 5.9604645e-08 -0.55532372
0.060287133 -0.020095617 -0.55532175
0.060287252 -0.040191472 -0.55531979
0.060287364 -0.060287312 -0.555318
0.060287364 -0.080383062 -0.555318
0.060287479 -0.10047905 -0.55531603
0.060287591 -0.12057514 -0.55531412
0.061425343 -0.14332575 -0.53635156
0.063185796 -0.16849543 -0.50701076
0.06505014 -0.19515035 -0.47593844
0.067027837 -0.2234261 -0.44297677
0.069129564 -0.25347507 -0.40794793
0.071367361 -0.28546938 -0.3706513
0.073754884 -0.31960443 -0.33085927
0.076307684 -0.35610244 -0.28831258
0.07904353 -0.3952176 -0.24271517
0.081982635 -0.43724072 -0.19373003
0.08514899 -0.48251095 -0.14095752
0.088569999 -0.53141993 -0.083940789
0.092277125 -0.58442175 -0.022155315
0.096307844 -0.64205217 0.045023382
0.1007071 -0.70494962 0.11834431
0.1055275 -0.77386826 0.19868436
0.11083256 -0.84971625 0.28710192
0.11669925 -0.93359399 0.38488013
0.12322173 -1.0268476 0.49358809
0.16711637 1.0862565 0.52884734
0.1581285 0.98830318 0.41649902
0.15005752 0.90034515 0.31561172
0.14277092 0.82093281 0.22452912
0.1361592 0.7488755 0.14188248
0.13013235 0.68319482 0.066546947
0.12461678 0.62308395 -0.0023975372
0.11954975 0.56786144 -0.065735415
0.11487838 0.51695275 -0.12412776
0.11055862 0.46987414 -0.17812462
0.10655196 0.42620799 -0.22820774
0.10282531 0.3855949 -0.27479109
0.099350758 0.34772766 -0.31822294
0.096103333 0.31233588 -0.35881564
0.093061291 0.27918389 -0.39684123
0.090206116 0.24806681 -0.432531
0.08752092 0.21880236 -0.46609586
0.084990792 0.19122931 -0.49772245
0.083002962 0.16600595 -0.52257025
0.083002962 0.14525524 -0.52257031
0.083003126 0.12450473 -0.52256829
0.08300329 0.10375415 -0.52256626
0.083003446 0.083003476 -0.52256417
0.08300361 0.06225273 -0.52256215
0.08300361 0.041501835 -0.52256215
0.083003774 0.020750985 -0.52256018
0.083003946 5.9604645e-08 -0.52255809
0.083004102 -0.020750985 -0.52255613
0.083004102 -0.041502014 -0.52255607
0.083004266 -0.062253192 -0.52255398
0.08300443 -0.083004415 -0.52255195
0.083004594 -0.10375573 -0.52254993
0.083004594 -0.12450685 -0.52254999
0.083004758 -0.14525829 -0.52254784
0.083004914 -0.1660098 -0.52254593
0.085280553 -0.19188119 -0.49410042
0.087828584 -0.21957141 -0.46225005
0.090533562 -0.24896726 -0.4284378
0.093410455 -0.28023133 -0.39247668
0.09647619 -0.31354752 -0.35415506
0.09974999 -0.34912485 -0.31323251
0.10325377 -0.38720155 -0.26943523
0.10701267 -0.42805052 -0.22244911
0.11105557 -0.47198609 -0.17191274
0.11541595 -0.51937175 -0.11740789
0.12013274 -0.57063043 -0.058448136
0.12525147 -0.6262573 0.0055360496
0.13082583 -0.68683565 0.075215638
0.13691904 -0.75305456 0.15138057
0.14360803 -0.82574612 0.2349931
0.15098417 -0.90590501 0.32719481
0.15915905 -0.994744 0.42938083
0.16826984 -1.0937539 0.5432657
0.20225903 1.051747 0.46248296
0.19170868 0.9585433 0.35697928
0.18220441 0.87458122 0.26193681
0.17359744 0.79854816 0.17586696
0.16576746 0.72937679 0.097567201
0.15861332 0.66617602 0.026025891
0.15205072 0.60820287 -0.039600134
0.14601 0.55483806 -0.10000743
0.14043091 0.50555134 -0.1557983
0.13526215 0.45989129 -0.20748597
0.13046068 0.41747418 -0.25550064
0.12598839 0.37796524 -0.30022335
0.12181231 0.34107453 -0.34198424
0.11790445 0.30655164 -0.38106281
0.11423953 0.27417493 -0.41771209
0.11079534 0.24374978 -0.45215386
0.10755298 0.21510604 -0.48457754
0.10725086 0.19305156 -0.48759878
0.10725086 0.17160143 -0.48759878
0.10725109 0.15015155 -0.48759657
0.10725129 0.1287016 -0.48759443
0.10725152 0.10725161 -0.48759219
0.10725152 0.085801288 -0.48759222
0.10725173 0.064351037 -0.48759001
0.10725195 0.042900786 -0.48758787
0.10725216 0.021450475 -0.48758569
0.10725216 2.9802322e-08 -0.48758566
0.10725238 -0.021450475 -0.48758352
0.1072526 -0.042901024 -0.48758134
0.10725282 -0.064351693 -0.48757917
0.10725304 -0.085802406 -0.48757699
0.10725304 -0.10725303 -0.48757696
0.10725325 -0.12870383 -0.48757482
0.10725348 -0.1501548 -0.48757267
0.10725369 -0.17160589 -0.48757043
0.10725369 -0.19305661 -0.48757046
0.10792377 -0.21584746 -0.48086962
0.11118957 -0.24461703 -0.44821161
0.11465919 -0.27518204 -0.41351545
0.11835232 -0.30771604 -0.37658417
0.12229127 -0.34241554 -0.33719462
0.12650144 -0.37950429 -0.29509297
0.13101184 -0.41923788 -0.24998896
0.13585576 -0.4619095 -0.20154978
0.14107162 -0.50785774 -0.14939113
0.14670399 -0.55747503 -0.093067601
0.15280479 -0.61121905 -0.032059491
0.15943503 -0.66962701 0.034242898
0.16666673 -0.73333359 0.10656011
0.17458566 -0.80309403 0.18574923
0.183294 -0.87981105 0.27283257
0.19291739 -0.96458703 0.3690666
0.20360808 -1.058762 0.47597334
0.23523843 1.0193666 0.40021294
0.22332563 0.93052351 0.30093965
0.21256196 0.85024774 0.21124214
0.20278811 0.77735454 0.12979376
0.193873 0.7108677 0.055501074
0.1857093 0.64998257 -0.01252985
0.17820533 0.5940178 -0.075062931
0.17128378 0.54239863 -0.1327426
0.1648802 0.49464068 -0.18610559
0.1589382 0.45032489 -0.23562238
0.1534092 0.40909111 -0.28169742
0.14825228 0.37063071 -0.32467163
0.14343081 0.33467191 -0.36485061
0.13891275 0.30097765 -0.40250111
0.13467093 0.26934183 -0.43784967
0.13319011 0.24418193 -0.45018977
0.13319011 0.22198355 -0.4501898
0.13319039 0.19978559 -0.45018744
0.13319068 0.17758758 -0.45018509
0.13319094 0.15538947 -0.4501828
0.13319094 0.13319093 -0.45018274
0.13319123 0.11099276 -0.45018044
0.13319151 0.088794395 -0.45017809
0.13319178 0.066595927 -0.45017576
0.13319206 0.044397339 -0.45017347
0.13319206 0.022198707 -0.45017341
0.13319235 7.4505806e-08 -0.45017108
0.13319263 -0.022198766 -0.45016882
0.13319291 -0.044397563 -0.4501664
0.13319291 -0.066596448 -0.45016646
0.13319319 -0.088795409 -0.45016408
0.13319346 -0.11099456 -0.45016181
0.13319375 -0.13319372 -0.45015946
0.13319403 -0.15539296 -0.45015711
0.13319403 -0.17759196 -0.45015711
0.13319431 -0.19979139 -0.45015481
0.1331946 -0.22199094 -0.4501524
0.13319486 -0.2441905 -0.45015013
0.13515575 -0.27031144 -0.43380952
0.13942957 -0.30209735 -0.39819431
0.1439825 -0.33595914 -0.36025316
0.14884283 -0.37210703 -0.31975046
0.15404275 -0.41078064 -0.27641779
0.15961915 -0.45225421 -0.22994784
0.16561444 -0.49684322 -0.17998709
0.17207767 -0.54491258 -0.12612678
0.17906587 -0.59688616 -0.067891806
0.18664566 -0.65325975 -0.0047267973
0.19489554 -0.71461689 0.064022124
0.20390843 -0.78164893 0.13912958
0.21379535 -0.85518134 0.22152057
0.22468989 -0.93620777 0.3123084
0.23675439 -1.0259356 0.41284594
0.28077576 1.0829922 0.44543365
0.2662468 0.98891675 0.34165555
0.25314751 0.90409833 0.24808922
0.24127597 0.82723188 0.16329232
0.23046871 0.7572543 0.086097628
0.22058807 0.69327688 0.015521824
0.21151923 0.63455772 -0.049255699
0.20316717 0.5804776 -0.1089133
0.19544965 0.53050619 -0.16403845
0.18829648 0.48419106 -0.21513236
0.1816489 0.44114727 -0.26261532
0.17545466 0.40103921 -0.30685979
0.16966856 0.36357546 -0.34818912
0.16425225 0.32850456 -0.386877
0.16100428 0.29900795 -0.4100768
0.16100428 0.27600729 -0.41007683
0.16100463 0.25300729 -0.41007423
0.16100498 0.23000719 -0.41007173
0.16100533 0.2070069 -0.41006923
0.16100568 0.1840065 -0.41006678
0.16100568 0.16100574 -0.41006678
0.16100603 0.13800518 -0.41006431
0.16100638 0.11500461 -0.41006178
0.16100672 0.092003882 -0.41005921
0.16100672 0.069002897 -0.41005927
0.16100708 0.04600206 -0.41005677
0.16100743 0.023001105 -0.41005433
0.16100778 4.4703484e-08 -0.41005179
0.16100813 -0.02300109 -0.41004926
0.16100813 -0.046002254 -0.4100492
0.16100849 -0.069003642 -0.41004682
0.16100882 -0.092005029 -0.41004422
0.16100918 -0.11500655 -0.41004175
0.16100918 -0.13800785 -0.41004178
0.16100954 -0.16100946 -0.41003931
0.16100988 -0.18401131 -0.41003674
0.16101024 -0.20701316 -0.41003424
0.16101024 -0.23001456 -0.4100343
0.16101059 -0.25301659 -0.41003177
0.16101094 -0.27601865 -0.41002926
0.16101129 -0.29902089 -0.41002673
0.16487089 -0.32974172 -0.38245815
0.17032991 -0.36499262 -0.34346512
0.17616284 -0.40265781 -0.30180138
0.18240942 -0.44299427 -0.25718302
0.18911527 -0.48629636 -0.20928398
0.19633299 -0.53290385 -0.15772884
0.20412351 -0.58321005 -0.10208219
0.21255785 -0.6376735 -0.041836947
0.22171925 -0.69683182 0.023601472
0.23170592 -0.7613194 0.09493494
0.24263467 -0.83189023 0.17299739
0.25464541 -0.90944791 0.25878841
0.26790714 -0.99508369 0.35351515
0.28262609 -1.0901291 0.45865053
0.31108692 1.0499184 0.38418588
0.29545641 0.96023327 0.28649521
0.28132147 0.87912953 0.19815171
0.26847723 0.80543172 0.11787537
0.25675386 0.73816729 0.044604272
0.24601218 0.6765337 -0.022531122
0.23613255 0.61984801 -0.084278882
0.22701642 0.56754106 -0.14125478
0.21857797 0.51912266 -0.19399501
0.2107444 0.47417492 -0.24295488
0.20345241 0.43233633 -0.28852993
0.19664858 0.39329723 -0.33105367
0.19090426 0.35794556 -0.36695573
0.19090426 0.33408248 -0.3669557
0.19090469 0.31022015 -0.36695305
0.19090512 0.28635773 -0.3669503
0.19090556 0.26249522 -0.36694765
0.19090599 0.23863249 -0.36694497
0.19090599 0.21476924 -0.36694497
0.19090641 0.19090641 -0.3669422
0.19090684 0.16704352 -0.36693954
0.19090728 0.14318052 -0.36693686
0.19090772 0.11931737 -0.36693418
0.19090772 0.095453903 -0.36693418
0.19090813 0.071590602 -0.36693144
0.19090857 0.047727227 -0.36692879
0.190909 0.023863614 -0.36692613
0.190909 4.4703484e-08 -0.36692607
0.19090943 -0.023863658 -0.36692342
0.19090986 -0.047727436 -0.36692071
0.19091029 -0.071591347 -0.366918
0.19091029 -0.09545505 -0.36691803
0.19091073 -0.11931909 -0.36691532
0.19091116 -0.14318329 -0.3669126
0.19091159 -0.16704762 -0.36690995
0.19091202 -0.19091199 -0.36690727
0.19091202 -0.21477595 -0.36690721
0.19091246 -0.23864052 -0.36690453
0.19091287 -0.2625052 -0.36690179
0.1909133 -0.28636995 -0.36689916
0.1909133 -0.3102341 -0.3668991
0.19091374 -0.33409896 -0.36689648
0.19101079 -0.35814515 -0.36628991
0.19742508 -0.39485013 -0.32620057
0.20428513 -0.43410587 -0.28332523
0.21163911 -0.47618794 -0.23736297
0.21954229 -0.52141291 -0.18796805
0.22805864 -0.57014656 -0.13474086
0.23726238 -0.6228137 -0.077217519
0.24724023 -0.67991054 -0.014855951
0.2580941 -0.74202061 0.0529809
0.26994476 -0.80983412 0.1270473
0.28293601 -0.88417506 0.20824283
0.29724094 -0.96603298 0.29764852
0.31306937 -1.056609 0.39657623
0.35797983 1.1137149 0.42866942
0.3396028 1.0188082 0.32657474
0.32301933 0.93316698 0.2344445
0.30798107 0.85550296 0.15089858
0.29428074 0.78474855 0.074785531
0.28174654 0.72001886 0.005151093
0.27023721 0.66057992 -0.058789462
0.25963134 0.60580647 -0.11771116
0.24982581 0.55516845 -0.17218621
0.24073461 0.50821751 -0.22269282
0.23228183 0.46456367 -0.26965272
0.22440252 0.42387143 -0.3134267
0.22313435 0.39668328 -0.32047206
0.22313435 0.37189066 -0.32047206
0.22313486 0.34709871 -0.32046917
0.2231354 0.32230669 -0.32046628
0.22313592 0.29751465 -0.3204633
0.22313592 0.27272171 -0.32046336
0.22313644 0.24792939 -0.3204605
0.22313698 0.22313695 -0.32045752
0.2231375 0.19834442 -0.32045463
0.223138 0.17355181 -0.32045168
0.223138 0.14875866 -0.32045171
0.22313854 0.12396585 -0.32044888
0.22313906 0.099172987 -0.32044584
0.22313958 0.074379921 -0.32044303
0.22313958 0.049586579 -0.320443
0.22314009 0.024793357 -0.32044011
0.22314064 2.9802322e-08 -0.32043725
0.22314115 -0.024793401 -0.32043427
0.22314115 -0.049586877 -0.32043427
0.22314167 -0.074380554 -0.32043132
0.22314221 -0.099174261 -0.32042843
0.22314273 -0.12396813 -0.32042557
0.22314323 -0.14876218 -0.32042262
0.22314323 -0.17355582 -0.32042268
0.22314379 -0.19835001 -0.3204197
0.22314429 -0.22314432 -0.32041678
0.22314481 -0.24793865 -0.32041392
0.22314535 -0.27273315 -0.32041106
0.22314535 -0.29752702 -0.320411
0.22314587 -0.32232177 -0.32040811
0.22314638 -0.34711659 -0.32040519
0.2231469 -0.37191147 -0.32040223
0.2231469 -0.39670557 -0.32040232
0.2253003 -0.42556721 -0.30843902
0.23324561 -0.46649116 -0.26429841
0.2417718 -0.51040709 -0.21693067
0.25094497 -0.55765545 -0.16596849
0.26084173 -0.6086306 -0.11098671
0.2715511 -0.66379154 -0.051490039
0.28317755 -0.72367597 0.01310125
0.29584408 -0.78891742 0.083470762
0.30969682 -0.86026883 0.16043052
0.32491058 -0.93863064 0.24495146
0.34169632 -1.025089 0.33820549
0.38570663 1.0799787 0.36842594
0.36647615 0.98948556 0.2722733
0.34907216 0.90758753 0.18525338
0.33324519 0.83311296 0.10611856
0.31879216 0.76510119 0.033853471
0.30554065 0.70274365 -0.032403976
0.29334605 0.64536136 -0.093377084
0.28208828 0.59238541 -0.14966595
0.27166262 0.54332525 -0.20179421
0.26197949 0.49776104 -0.2502099
0.25797689 0.46435845 -0.27022287
0.25797689 0.43856072 -0.27022293
0.25797755 0.4127641 -0.27021962
0.25797817 0.38696718 -0.27021658
0.25797877 0.36117032 -0.2702134
0.25797942 0.33537319 -0.2702103
0.25797942 0.30957535 -0.27021024
0.25798005 0.28377807 -0.2702072
0.25798067 0.25798076 -0.27020395
0.2579813 0.23218323 -0.27020079
0.2579813 0.20638502 -0.27020091
0.25798196 0.18058738 -0.27019769
0.25798255 0.15478963 -0.27019453
0.25798318 0.12899165 -0.27019131
0.25798383 0.10319352 -0.27018833
0.25798383 0.077395268 -0.27018821
0.25798446 0.051596962 -0.27018505
0.25798509 0.025798596 -0.27018192
0.25798571 -0 -0.27017874
0.25798571 -0.025798552 -0.27017874
0.25798634 -0.051597275 -0.27017564
0.25798696 -0.07739605 -0.27017245
0.25798759 -0.10319503 -0.27016935
0.25798824 -0.12899411 -0.27016616
0.25798824 -0.1547929 -0.27016619
0.25798887 -0.18059219 -0.27016297
0.2579895 -0.20639156 -0.27015993
0.25799012 -0.2321911 -0.27015674
0.25799012 -0.25799 -0.27015674
0.25799075 -0.28378981 -0.27015355
0.25799137 -0.30958962 -0.27015042
0.257992 -0.33538961 -0.27014726
0.257992 -0.36118871 -0.27014732
0.25799266 -0.386989 -0.27014413
0.25799328 -0.41278917 -0.27014104
0.25799391 -0.43858957 -0.27013785
0.25799453 -0.46439016 -0.27013463
0.2630823 -0.49985635 -0.2446959
0.27285004 -0.54569995 -0.19585724
0.28337106 -0.59507924 -0.143252
0.294736 -0.64841914 -0.086427361
0.30705065 -0.70621645 -0.024854094
0.32043922 -0.76905406 0.042088717
0.33504862 -0.83762145 0.11513573
0.35105377 -0.91273975 0.19516146
0.36866477 -0.99539477 0.28321639
0.38813603 -1.0867808 0.38057274
0.41180453 1.0482297 0.31173134
0.39184585 0.9618035 0.22101006
0.37373358 0.88337028 0.13868171
0.35722175 0.81186759 0.063627869
0.34210616 0.74641359 -0.0050792098
0.32821885 0.68627572 -0.068203598
0.31541497 0.63082993 -0.126403
0.30357176 0.57954609 -0.18023571
0.29576349 0.53775185 -0.21572779
0.29576349 0.51086432 -0.21572779
0.29576424 0.48397791 -0.21572438
0.29576501 0.45709142 -0.21572101
0.29576576 0.43020478 -0.21571749
0.29576653 0.40331802 -0.21571408
0.29576653 0.37643015 -0.2157141
0.29576728 0.34954324 -0.21571067
0.29576802 0.3226561 -0.21570723
0.29576877 0.29576883 -0.21570383
0.29576877 0.26888072 -0.21570383
0.29576954 0.24199326 -0.2157004
0.29577029 0.21510565 -0.21569704
0.29577103 0.18821797 -0.21569359
0.29577178 0.1613301 -0.21569015
0.29577178 0.13444175 -0.21569023
0.29577252 0.10755368 -0.21568675
0.29577327 0.080665477 -0.21568334
0.29577404 0.053777106 -0.21567994
0.29577479 0.026888691 -0.2156765
0.29577479 2.2351742e-08 -0.21567646
0.29577553 -0.026888721 -0.21567303
0.29577628 -0.053777426 -0.21566968
0.29577702 -0.080666378 -0.21566623
0.29577702 -0.10755526 -0.21566615
0.2957778 -0.13444439 -0.21566281
0.29577857 -0.16133372 -0.21565944
0.29577932 -0.18822311 -0.21565595
0.29577932 -0.21511224 -0.21565598
0.29578006 -0.24200188 -0.21565259
0.29578081 -0.26889163 -0.21564917
0.29578155 -0.29578149 -0.21564566
0.29578233 -0.32267159 -0.21564227
0.29578233 -0.34956086 -0.2156423
0.29578307 -0.37645113 -0.21563888
0.29578382 -0.40334159 -0.21563539
0.29578456 -0.43023205 -0.21563205
0.29578456 -0.45712161 -0.21563199
0.29578531 -0.48401231 -0.21562861
0.29578608 -0.51090318 -0.21562517
0.29578683 -0.53779423 -0.21562175
0.30491897 -0.58211797 -0.17411198
0.31687135 -0.63374257 -0.11978307
0.32979894 -0.68957961 -0.061021149
0.34382626 -0.75016636 0.0027392507
0.35909981 -0.81613588 0.072164476
0.3757934 -0.88823891 0.14804453
0.39411476 -0.96737266 0.23132351
0.41431418 -1.0546179 0.32313898
0.45912641 1.1095555 0.35291928
0.43641028 1.0182906 0.25826874
0.41583607 0.9356311 0.17254287
0.39711311 0.86041176 0.094530642
0.3800047 0.7916764 0.023245543
0.36430955 0.7286191 -0.042151034
0.34985846 0.67056209 -0.10236374
0.33688378 0.61762035 -0.15642489
0.33688468 0.58954823 -0.15642121
0.33688468 0.5614745 -0.15642132
0.33688557 0.53340209 -0.15641752
0.33688647 0.50532973 -0.15641375
0.33688736 0.47725713 -0.15641007
0.33688736 0.44918311 -0.15641008
0.33688822 0.42111036 -0.15640631
0.33688912 0.39303735 -0.1564026
0.33689004 0.36496428 -0.15639883
0.33689094 0.336891 -0.15639508
0.33689094 0.3088167 -0.15639517
0.33689183 0.28074324 -0.15639138
0.33689272 0.25266951 -0.1563877
0.33689362 0.22459583 -0.1563839
0.33689362 0.19652131 -0.15638396
0.33689451 0.1684473 -0.15638016
0.33689541 0.14037307 -0.15637653
0.3368963 0.11229883 -0.15637273
0.33689719 0.084224269 -0.1563691
0.33689719 0.056149591 -0.156369
0.33689809 0.02807489 -0.15636528
0.33689898 2.9802322e-08 -0.15636155
0.33689988 -0.028074846 -0.15635782
0.33689988 -0.056149893 -0.15635788
0.33690077 -0.084225185 -0.15635411
0.33690166 -0.11230052 -0.15635037
0.33690256 -0.14037611 -0.15634666
0.33690345 -0.16845165 -0.15634289
0.33690345 -0.196527 -0.15634295
0.33690435 -0.22460288 -0.15633921
0.33690524 -0.25267887 -0.15633544
0.33690614 -0.2807551 -0.15633175
0.33690614 -0.30883062 -0.15633178
0.33690703 -0.33690691 -0.15632801
0.33690792 -0.36498347 -0.1563243
0.33690882 -0.3930603 -0.15632057
0.33690974 -0.42113715 -0.15631686
0.33690974 -0.44921291 -0.15631686
0.33691064 -0.47729003 -0.15631309
0.33691153 -0.50536716 -0.15630937
0.33691239 -0.53344464 -0.15630563
0.33691239 -0.56152064 -0.15630567
0.33691329 -0.58959818 -0.15630193
0.33802682 -0.61971587 -0.1516622
0.35150012 -0.67370856 -0.095523506
0.36609209 -0.73218411 -0.034723699
0.38194802 -0.79572487 0.031342655
0.3992396 -0.86501908 0.10339102
0.41817111 -0.94088483 0.18227214
0.4389874 -1.024304 0.26900688
0.48287904 1.0771917 0.29711971
0.4596495 0.99001431 0.20777535
0.43855378 0.9108426 0.12663811
0.41930953 0.83861893 0.052621424
0.40168193 0.77246529 -0.015176862
0.38547781 0.71165133 -0.077500433
0.38180026 0.67549282 -0.091644764
0.38180026 0.64612359 -0.091644794
0.38180134 0.61675608 -0.091640651
0.38180241 0.5873884 -0.091636524
0.38180345 0.55802047 -0.09163262
0.38180345 0.528651 -0.091632456
0.38180453 0.49928284 -0.091628373
0.38180557 0.46991459 -0.091624409
0.38180664 0.44054615 -0.091620266
0.38180771 0.41117764 -0.091616154
0.38180771 0.38180768 -0.091616213
