# .PCD v0.7 - Point Cloud Data file format
VERSION 0.7
FIELDS x y z
SIZE 4 4 4
TYPE F F F
COUNT 1 1 1
WIDTH 1369
HEIGHT 1
VIEWPOINT 0 0 0 1 0 0 0
POINTS 1369
DATA ascii
-0.7137323 0.10196181 0.13925523
-0.7227577 0.068834141 0.16074431
-0.73201424 0.034857824 0.18278372
-0.74150854 2.2351742e-08 0.20538913
-0.75125742 -0.035774179 0.22860068
-0.76126343 -0.072501145 0.2524246
-0.77154225 -0.11022031 0.27689803
-0.78209972 -0.1489713 0.30203485
-0.79295295 -0.18879822 0.32787582
-0.80410868 -0.22974539 0.35443723
-0.81558585 -0.27186185 0.38176373
-0.82739234 -0.31519705 0.4098742
-0.83954877 -0.3598066 0.43881834
-0.85206455 -0.405745 0.46861759
-0.8649624 -0.4530755 0.4993268
-0.87825328 -0.50185901 0.53097188
-0.89196265 -0.55216736 0.56361318
-0.90610301 -0.60406852 0.59728068
-0.92070282 -0.65764487 0.63204205
-0.93577683 -0.71297282 0.66793269
-0.95135677 -0.77014601 0.70502782
-0.96746004 -0.82925147 0.74336886
-0.57525009 0.46020004 -0.12198214
-0.58139414 0.43604565 -0.10662204
-0.58766919 0.41136849 -0.090934381
-0.59408283 0.38615388 -0.07490015
-0.60063809 0.36038291 -0.058512092
-0.60733783 0.3340359 -0.041762769
-0.61419052 0.30709526 -0.024631128
-0.62119961 0.27953982 -0.0071083754
-0.62837052 0.25134826 0.010818876
-0.63570696 0.22249743 0.029160015
-0.64321876 0.19296567 0.047939576
-0.65091014 0.16272758 0.067168139
-0.6587857 0.1317572 0.086856924
-0.66685629 0.10002841 0.10703333
-0.67512703 0.067512736 0.12771015
-0.68360329 0.03418025 0.1489009
-0.6922974 -7.4505806e-09 0.17063609
-0.70121545 -0.035060711 0.19293113
-0.71036625 -0.071036637 0.21580833
-0.71976155 -0.10796421 0.23929647
-0.72940612 -0.14588124 0.26340809
-0.73931533 -0.18482876 0.28818107
-0.74949485 -0.22484837 0.31362966
-0.75996125 -0.26598644 0.33979577
-0.77072132 -0.30828848 0.366696
-0.78179336 -0.35180694 0.39437607
-0.79318517 -0.3965925 0.42285565
-0.80491698 -0.44270441 0.45218518
-0.81699795 -0.4901987 0.48238739
-0.82945025 -0.53914261 0.51351827
-0.84228468 -0.58959919 0.54560423
-0.85552591 -0.6416443 0.5787074
-0.86918664 -0.69534928 0.61285937
-0.88329434 -0.75080019 0.64812863
-0.89786381 -0.80807734 0.68455213
-0.91292596 -0.86727953 0.72220731
-0.92849785 -0.92849773 0.76113731
-0.94461447 -0.99184513 0.80142879
-0.53769279 0.45279399 -0.14512627
-0.54334086 0.42895335 -0.13026299
-0.54911029 0.40460765 -0.11508015
-0.55500364 0.37973937 -0.099571586
-0.56102479 0.35433155 -0.083726287
-0.56717646 0.32836536 -0.067537799
-0.57346612 0.30182427 -0.05098597
-0.57989687 0.27468798 -0.034062922
-0.5864718 0.24693556 -0.016760536
-0.59319925 0.21854714 0.00094325095
-0.60008281 0.18949986 0.019058056
-0.60712624 0.15977007 0.037593149
-0.61433876 0.12933458 0.056573678
-0.62172478 0.098167136 0.076010525
-0.62929058 0.066241175 0.095920451
-0.63704067 0.033528514 0.11631551
-0.64498621 5.9604645e-08 0.13722473
-0.65313238 -0.034375325 0.15866205
-0.66148484 -0.069629975 0.18064219
-0.67005807 -0.10579868 0.20320345
-0.67885423 -0.14291671 0.22635113
-0.68788677 -0.18102273 0.25012091
-0.69716048 -0.22015585 0.27452546
-0.70669013 -0.2603595 0.29960352
-0.71648133 -0.30167633 0.32536978
-0.72655034 -0.34415534 0.35186723
-0.73690367 -0.38784397 0.37911281
-0.74755907 -0.43279725 0.40715328
-0.7585243 -0.47906792 0.43600923
-0.76981896 -0.52671814 0.46573207
-0.78145206 -0.5758068 0.49634555
-0.79344529 -0.62640411 0.52790648
-0.80580908 -0.67857593 0.56044275
-0.81856763 -0.73240262 0.59401792
-0.83173323 -0.78795779 0.62866437
-0.84533286 -0.84533286 0.66445285
-0.85938096 -0.90461159 0.7014215
-0.87390763 -0.96589792 0.73964953
-0.50132525 0.44562244 -0.16753727
-0.50650698 0.42208922 -0.15314347
-0.51179838 0.39806539 -0.13844529
-0.51720148 0.37353441 -0.12343668
-0.52271843 0.34847894 -0.10811175
-0.52835584 0.32288411 -0.092452265
-0.53411615 0.29673123 -0.076451428
-0.54000342 0.27000174 -0.060097769
-0.54602039 0.24267574 -0.043384038
-0.55217463 0.21473452 -0.026289053
-0.55846906 0.18615633 -0.0088044629
-0.56490707 0.15691866 0.0090788081
-0.5714969 0.12699935 0.027383942
-0.5782423 0.096373782 0.046121169
-0.58514702 0.065016396 0.065301031
-0.59222054 0.032901168 0.084949628
-0.5994671 5.9604645e-08 0.10507902
-0.60689121 -0.033716153 0.12570167
-0.61450362 -0.068278134 0.14684717
-0.62230939 -0.10371813 0.16852982
-0.63031602 -0.14007021 0.19077052
-0.63853347 -0.17737031 0.21359679
-0.64696586 -0.21565527 0.23701994
-0.65562618 -0.25496572 0.26107648
-0.66451919 -0.29534179 0.28577915
-0.67365909 -0.33682948 0.31116793
-0.68305159 -0.37947309 0.33725804
-0.69271213 -0.42332402 0.36409295
-0.70264727 -0.4684315 0.39169064
-0.71287423 -0.51485354 0.42009887
-0.72340053 -0.56264484 0.44933853
-0.73424518 -0.611871 0.47946274
-0.74541706 -0.66259283 0.51049548
-0.75693709 -0.714885 0.54249567
-0.76881576 -0.76881564 0.57549191
-0.78107631 -0.82446939 0.60954905
-0.79373103 -0.88192338 0.64470118
-0.80680591 -0.94127357 0.68102026
-0.82031524 -1.0026075 0.71854609
-0.46144333 0.46144336 -0.20292109
-0.46609047 0.43867338 -0.18925306
-0.47083336 0.41544127 -0.17530331
-0.47567382 0.39173135 -0.16106677
-0.4806135 0.36752805 -0.14653817
-0.4856582 0.3428176 -0.13170084
-0.49080992 0.31758294 -0.11654876
-0.49607214 0.29180717 -0.10107169
-0.50144696 0.26547194 -0.085263379
-0.50694096 0.2385605 -0.069104463
-0.51255673 0.21105278 -0.052587561
-0.51829678 0.18292835 -0.035704985
-0.52416837 0.15416718 -0.018435501
-0.53017455 0.12474699 -0.00077041984
-0.53631842 0.094644457 0.017299645
-0.5426079 0.063836306 0.035798259
-0.5490467 0.032296915 0.054735877
-0.55564004 7.0780516e-08 0.074128188
-0.56239206 -0.033081844 0.093986891
-0.56931186 -0.066977799 0.11433935
-0.57640415 -0.10171829 0.13519897
-0.58367348 -0.13733482 0.15657938
-0.5911324 -0.1738624 0.17851725
-0.59878236 -0.21133488 0.20101725
-0.60663503 -0.24979092 0.2241133
-0.6146943 -0.28926784 0.24781704
-0.62297273 -0.3298091 0.27216533
-0.63147497 -0.37145588 0.29717192
-0.64021474 -0.41425657 0.32287723
-0.64919752 -0.45825705 0.34929717
-0.65843838 -0.50351173 0.37647611
-0.6679436 -0.55007118 0.40443262
-0.67772985 -0.59799689 0.43321562
-0.68780452 -0.64734524 0.46284693
-0.69818586 -0.69818592 0.49338064
-0.70888269 -0.75058162 0.52484161
-0.71991521 -0.80461109 0.55729032
-0.73129362 -0.86034524 0.59075606
-0.74304056 -0.91787356 0.62530601
-0.75516784 -0.97727591 0.66097444
-0.42769766 0.45442882 -0.22355208
-0.43193886 0.43193895 -0.21029845
-0.43626609 0.4089995 -0.19677581
-0.44068089 0.3855958 -0.18297954
-0.44518477 0.36171263 -0.1689049
-0.44978294 0.33733726 -0.15453567
-0.45447701 0.31245297 -0.13986669
-0.4592689 0.28704301 -0.12489213
-0.46416411 0.26109236 -0.1095945
-0.46916485 0.23458253 -0.09396711
-0.4742732 0.20749456 -0.078003556
-0.47949538 0.17981079 -0.061684284
-0.48483378 0.15151054 -0.045001756
-0.49029246 0.1225732 -0.027943488
-0.49587393 0.092976391 -0.010501243
-0.50158548 0.062698185 0.0073472466
-0.50743014 0.031714439 0.025611779
-0.51341105 -0 0.044302084
-0.5195362 -0.032470979 0.063443303
-0.52580929 -0.065726124 0.083046667
-0.53223401 -0.099793851 0.10312396
-0.53881943 -0.1347048 0.12370334
-0.54556984 -0.1704905 0.14479846
-0.55249155 -0.20718424 0.16642877
-0.55959296 -0.24482189 0.18862078
-0.56687748 -0.28343862 0.21138474
-0.57435608 -0.32307521 0.23475529
-0.58203256 -0.36377031 0.25874445
-0.58991915 -0.40556931 0.28339007
-0.59802032 -0.44851527 0.30870613
-0.60634923 -0.49265862 0.33473384
-0.61491114 -0.53804725 0.36148995
-0.62372065 -0.58473814 0.38901967
-0.63278389 -0.63278377 0.41734219
-0.64211679 -0.68224895 0.44650763
-0.65172666 -0.73319238 0.47653845
-0.66163105 -0.78568691 0.5074898
-0.67183852 -0.83979809 0.53938794
-0.68236864 -0.89560872 0.57229471
-0.69323123 -0.95319289 0.60624015
-0.39496163 0.44762322 -0.24356849
-0.39881998 0.42540801 -0.23070745
-0.4027544 0.40275446 -0.21759272
-0.40676621 0.37964851 -0.20422006
-0.41085979 0.35607851 -0.19057469
-0.41503662 0.33202928 -0.17665204
-0.41929811 0.30748528 -0.16244702
-0.42364916 0.28243282 -0.14794342
-0.4280915 0.25685486 -0.13313583
-0.43262792 0.2307349 -0.11801424
-0.43726036 0.20405489 -0.10257287
-0.44199428 0.17679778 -0.08679305
-0.44683185 0.14894399 -0.070667818
-0.45177516 0.12047338 -0.05419004
-0.45683044 0.091366149 -0.03733914
-0.4620001 0.061600015 -0.020106934
-0.46728674 0.031152491 -0.0024848804
-0.4726972 -3.7718564e-08 0.015549919
-0.47823438 -0.031882335 0.034007177
-0.48390284 -0.064520359 0.05290205
-0.48970574 -0.097941019 0.072245158
-0.4956511 -0.13217357 0.092063002
-0.5017426 -0.16724747 0.11236794
-0.50798398 -0.20319352 0.13317268
-0.51438439 -0.24004593 0.15450722
-0.52094972 -0.27783987 0.17639181
-0.52768493 -0.31661087 0.19884233
-0.53459471 -0.35639638 0.22187506
-0.54168791 -0.39723772 0.24551882
-0.54897368 -0.43917882 0.26980492
-0.55645818 -0.48226374 0.2947531
-0.56414753 -0.52653766 0.32038444
-0.57205445 -0.57205439 0.34674081
-0.58018404 -0.61886311 0.3738395
-0.58855021 -0.66702342 0.40172669
-0.59715897 -0.71659076 0.43042246
-0.60602558 -0.76763231 0.45997787
-0.61515707 -0.8202095 0.49041635
-0.62457043 -0.87439859 0.52179414
-0.63427383 -0.93026817 0.55413878
-0.6442861 -0.98790544 0.58751321
-0.36319256 0.44101959 -0.26299101
-0.36668769 0.41907167 -0.25050846
-0.3702507 0.39669713 -0.23778342
-0.37388274 0.37388283 -0.22481182
-0.37758771 0.35061717 -0.21157987
-0.38136679 0.32688579 -0.1980831
-0.3852213 0.30267394 -0.18431689
-0.38915557 0.27796829 -0.17026606
-0.39317101 0.25275284 -0.15592507
-0.39726913 0.22701095 -0.14128903
-0.40145463 0.2007274 -0.12634072
-0.40572932 0.17388403 -0.11107409
-0.41009599 0.14646287 -0.095478818
-0.4145565 0.11844471 -0.079548381
-0.41911635 0.089810632 -0.063263349
-0.42377755 0.06053976 -0.04661607
-0.42854241 0.030610213 -0.029598705
-0.4334169 8.9872628e-08 -0.01218983
-0.43840355 -0.031314515 0.0056195315
-0.44350496 -0.063357808 0.023838921
-0.44872785 -0.096155941 0.042492025
-0.45407516 -0.12973578 0.06158971
-0.45955011 -0.16412507 0.081143029
-0.46516013 -0.19935429 0.10117874
-0.47090879 -0.23545438 0.12170985
-0.47680134 -0.27245796 0.14275461
-0.48284322 -0.31039929 0.16433276
-0.48904184 -0.34931555 0.1864706
-0.49540165 -0.38924411 0.20918429
-0.50192732 -0.43022338 0.23249027
-0.50862902 -0.47229832 0.25642473
-0.51551026 -0.51551014 0.28100064
-0.52258211 -0.55990928 0.30625728
-0.52984875 -0.60554129 0.33220959
-0.53732234 -0.65246284 0.35890099
-0.54500771 -0.70072424 0.3863489
-0.5529182 -0.75038904 0.41460067
-0.56105965 -0.80151367 0.44367704
-0.5694465 -0.85416973 0.47363031
-0.57808578 -0.90842038 0.50448465
-0.58699346 -0.96434641 0.53629786
-0.32925451 0.45589086 -0.29374391
-0.33234718 0.43460789 -0.28184888
-0.33549854 0.41292131 -0.2697283
-0.33870938 0.3908186 -0.25737888
-0.34198314 0.36828956 -0.24478754
-0.34532079 0.34532085 -0.2319504
-0.34872335 0.32189852 -0.21886371
-0.35219452 0.29801083 -0.20551297
-0.35573551 0.27364269 -0.19189391
-0.35934749 0.24877906 -0.17800166
-0.36303449 0.22340585 -0.16382088
-0.36679795 0.19750665 -0.1493459
-0.37064028 0.17106473 -0.13456783
-0.37456292 0.14406267 -0.11948072
-0.37857053 0.11648329 -0.10406682
-0.38266483 0.088307373 -0.088319585
-0.38684756 0.059515085 -0.07223215
-0.39112386 0.03008651 -0.055784807
-0.39549577 7.6368451e-08 -0.0389698
-0.39996532 -0.030766524 -0.02177923
-0.40453827 -0.062236682 -0.0041910224
-0.409217 -0.094434604 0.013804067
-0.41400516 -0.12738612 0.032220285
-0.41890553 -0.16111751 0.051067699
-0.42392451 -0.19565739 0.070371501
-0.42906526 -0.23103513 0.090143636
-0.43433082 -0.26728052 0.11039578
-0.43972865 -0.3044275 0.13115662
-0.44526377 -0.34251049 0.1524456
-0.45093855 -0.38156331 0.17427173
-0.45676133 -0.42162579 0.19666706
-0.46273646 -0.46273649 0.21964842
-0.46886843 -0.50493515 0.2432327
-0.47516507 -0.5482673 0.26745063
-0.4816348 -0.59278131 0.29233432
-0.48828322 -0.638524 0.31790489
-0.49511588 -0.68554497 0.34418452
-0.50214249 -0.73390043 0.37121004
-0.50937337 -0.78365135 0.39902097
-0.51681548 -0.83485568 0.42764446
-0.52447635 -0.88757521 0.45710915
-0.53236973 -0.94188482 0.48746848
-0.54050225 -0.9978503 0.51874733
-0.29961193 0.44941792 -0.31172436
-0.30238587 0.42838004 -0.30016616
-0.30521092 0.40694788 -0.28839529
-0.30808997 0.38511252 -0.27639905
-0.31102389 0.36286122 -0.26417446
-0.31401423 0.34018204 -0.2517148
-0.31706181 0.31706184 -0.23901646
-0.32016996 0.29348919 -0.22606584
-0.32333964 0.26944974 -0.21285889
-0.32657185 0.24492884 -0.19939132
-0.32987022 0.21991354 -0.18564813
-0.33323589 0.19438764 -0.17162453
-0.33667001 0.1683351 -0.1573156
-0.34017661 0.14174028 -0.14270476
-0.343757 0.11458565 -0.12778644
-0.3474136 0.086853363 -0.11255078
-0.3511478 0.058524646 -0.096991479
-0.3549642 0.029580425 -0.081089899
-0.35886443 5.5879354e-08 -0.064838924
-0.36285025 -0.030237447 -0.0482313
-0.36692673 -0.06115438 -0.031246075
-0.37109581 -0.092773885 -0.013874762
-0.37535959 -0.12511984 0.0038909465
-0.37972367 -0.15821812 0.022074655
-0.38419041 -0.19209522 0.040685996
-0.38876227 -0.22677799 0.059735514
-0.39344552 -0.26229692 0.079248928
-0.39824292 -0.29868221 0.099238232
-0.40315875 -0.33596557 0.11972091
-0.40819752 -0.37418097 0.14071572
-0.41336516 -0.41336513 0.16224751
-0.41866395 -0.45355257 0.18432572
-0.42410174 -0.49478531 0.20698318
-0.42968118 -0.53710139 0.23023088
-0.43541089 -0.58054793 0.25410485
-0.44129395 -0.6251663 0.27861744
-0.44733974 -0.6710096 0.30380827
-0.4535535 -0.71812642 0.32969892
-0.45994064 -0.76656759 0.35631192
-0.46651193 -0.81639588 0.38369232
-0.473272 -0.86766529 0.41185933
-0.48023263 -0.92044574 0.44086182
-0.48739922 -0.97479832 0.47072268
-0.27079934 0.44312623 -0.32920134
-0.27327108 0.42232808 -0.31796604
-0.27578774 0.40114579 -0.30652681
-0.27835181 0.37957069 -0.29487178
-0.28096402 0.35759062 -0.28299814
-0.28362504 0.33519328 -0.2709026
-0.28633764 0.31236842 -0.25857252
-0.28910264 0.28910261 -0.24600442
-0.29192084 0.26538256 -0.23319444
-0.29479524 0.24119611 -0.22012894
-0.29772684 0.21652865 -0.20680349
-0.30071655 0.19136505 -0.19321403
-0.30376771 0.16569148 -0.17934516
-0.30688137 0.1394916 -0.1651919
-0.31005958 0.11274896 -0.15074557
-0.31330344 0.085446432 -0.13600086
-0.31661674 0.057566743 -0.12094031
-0.32000092 0.029091042 -0.10555775
-0.32345727 1.8626451e-08 -0.089846931
-0.32699004 -0.029726304 -0.073789015
-0.33060083 -0.060109161 -0.057376228
-0.33429131 -0.091170266 -0.040601343
-0.33806607 -0.12293305 -0.023443345
-0.34192708 -0.15542133 -0.0058933422
-0.34587726 -0.18866035 0.012062103
-0.34991878 -0.22267559 0.03043253
-0.35405689 -0.25749588 0.049242355
-0.3582941 -0.29314965 0.068502083
-0.36263278 -0.32966605 0.088223509
-0.36707899 -0.3670789 0.10843356
-0.37163678 -0.40542185 0.12915078
-0.37630799 -0.44472754 0.15038346
-0.38109931 -0.48503542 0.17216225
-0.38601297 -0.52638125 0.19449706
-0.3910563 -0.56880903 0.21742123
-0.39623183 -0.61235827 0.24094629
-0.40154752 -0.65707773 0.2651087
-0.40700641 -0.70301104 0.28992164
-0.41261718 -0.75021309 0.31542528
-0.41838485 -0.79873455 0.3416419
-0.42431447 -0.84862888 0.36859483
-0.43041462 -0.89995778 0.39632273
-0.43669432 -0.95278764 0.42486686
-0.44316 -1.0071816 0.45425627
-0.24063581 0.45720801 -0.35692829
-0.24278231 0.43700826 -0.34619576
-0.24496692 0.41644371 -0.33527285
-0.24719174 0.39550686 -0.32414851
-0.24945737 0.37418613 -0.31282049
-0.2517643 0.35247004 -0.30128583
-0.25411493 0.33034939 -0.28953275
-0.25650984 0.30781189 -0.27755812
-0.25895032 0.28484541 -0.26535565
-0.26143706 0.26143706 -0.25292203
-0.26397267 0.23757543 -0.240244
-0.26655796 0.21324643 -0.22731753
-0.26919371 0.1884356 -0.21413888
-0.27188277 0.16312972 -0.20069352
-0.27462611 0.1373131 -0.18697676
-0.27742466 0.1109699 -0.17298405
-0.28028157 0.084084503 -0.15869951
-0.28319791 0.056639638 -0.14411777
-0.28617561 0.028617565 -0.12922926
-0.2892158 8.9406967e-08 -0.11402828
-0.29232207 -0.029232133 -0.098496974
-0.29549581 -0.059099108 -0.08262834
-0.29873836 -0.089621417 -0.066415489
-0.30205375 -0.12082142 -0.049838644
-0.30544353 -0.15272179 -0.032889739
-0.30890936 -0.18534553 -0.015560597
-0.31245565 -0.21871895 0.0021710321
-0.31608433 -0.25286749 0.020314336
-0.31979731 -0.28781757 0.038879216
-0.32359955 -0.32359943 0.05789049
-0.32749331 -0.36024261 0.07735914
-0.33148187 -0.39777821 0.097302049
-0.33556882 -0.43623933 0.11773674
-0.3397589 -0.47566235 0.13868707
-0.3440538 -0.51608062 0.16016161
-0.34845984 -0.55753565 0.18219174
-0.352979 -0.60006428 0.20478766
-0.35761815 -0.64371264 0.22798342
-0.36237958 -0.68852121 0.25179064
-0.36727083 -0.73454165 0.27624685
-0.3722946 -0.78181863 0.30136573
-0.37745908 -0.83040994 0.32718813
-0.38276747 -0.88036507 0.35373005
-0.38822868 -0.93174875 0.38103604
-0.39384654 -0.98461646 0.40912554
-0.2136486 0.45103592 -0.37317076
-0.21552841 0.43105689 -0.36272722
-0.21744111 0.41072217 -0.35210106
-0.21938859 0.39002416 -0.34128183
-0.22137126 0.36895207 -0.33026707
-0.22338957 0.3474949 -0.31905422
-0.22544555 0.3256436 -0.30763212
-0.22753972 0.3033863 -0.2959978
-0.2296726 0.280711 -0.28414845
-0.23184644 0.25760719 -0.27207157
-0.23406181 0.23406178 -0.25976402
-0.23631932 0.21006168 -0.24722223
-0.23862141 0.1855945 -0.23443283
-0.24096881 0.16064589 -0.2213918
-0.24336222 0.13520131 -0.20809504
-0.24580427 0.10924639 -0.19452807
-0.24829584 0.082765326 -0.18068594
-0.25083846 0.055741891 -0.16656038
-0.25343299 0.028159268 -0.15214631
-0.25608245 5.9604645e-08 -0.13742715
-0.25878787 -0.028754145 -0.12239695
-0.2615504 -0.058122292 -0.10704973
-0.26437321 -0.08812432 -0.091367178
-0.26725766 -0.1187811 -0.075342491
-0.27020499 -0.15011384 -0.058968548
-0.27321881 -0.1821458 -0.042225093
-0.27630064 -0.21490046 -0.025103882
-0.27945277 -0.24840239 -0.0075920075
-0.28267682 -0.28267679 0.010319322
-0.28597698 -0.31775212 0.028653607
-0.2893551 -0.35365617 0.047420919
-0.29281309 -0.39041737 0.066631973
-0.29635566 -0.42806926 0.086313084
-0.29998595 -0.4666447 0.10648118
-0.3037053 -0.5061754 0.12714431
-0.30751905 -0.54670048 0.14833175
-0.31142876 -0.58825433 0.17005242
-0.31544021 -0.63088042 0.19233829
-0.31955528 -0.67461663 0.21519975
-0.32378024 -0.71951157 0.23867169
-0.32811728 -0.76560688 0.2627663
-0.33257326 -0.81295675 0.28752184
-0.33715072 -0.86160737 0.31295222
-0.34185719 -0.91161901 0.3390992
-0.34669566 -0.96304345 0.36597964
-0.18738028 0.44502828 -0.38898048
-0.18900642 0.42526454 -0.37881714
-0.19066146 0.40515563 -0.36847317
-0.19234572 0.38469148 -0.3579466
-0.19405958 0.36386165 -0.34723502
-0.19580469 0.34265822 -0.33632803
-0.19758148 0.32106996 -0.32522309
-0.19939035 0.29908562 -0.31391764
-0.20123312 0.27669555 -0.30240038
-0.20311026 0.25388786 -0.29066825
-0.20502275 0.23065062 -0.2787151
-0.20697112 0.20697114 -0.26653796
-0.20895736 0.18283775 -0.25412381
-0.21098211 0.15823662 -0.24146917
-0.21304594 0.13315371 -0.22857031
-0.21515109 0.10757557 -0.21541311
-0.21729825 0.081486925 -0.2019932
-0.21948814 0.054872096 -0.18830645
-0.22172321 0.027715467 -0.17433727
-0.22400425 4.4703484e-08 -0.16008069
-0.22633272 -0.028291628 -0.14552781
-0.22870949 -0.057177365 -0.13067304
-0.23113735 -0.086676434 -0.11549908
-0.23361728 -0.11680856 -0.099999353
-0.23615035 -0.14759399 -0.084167555
-0.23873964 -0.17905465 -0.067984588
-0.24138634 -0.21121302 -0.05144272
-0.24409167 -0.24409166 -0.034534365
-0.24685906 -0.27771646 -0.017238244
-0.24968991 -0.31211245 0.00045460463
-0.25258568 -0.34730518 0.018553168
-0.25555021 -0.38332519 0.037081316
-0.2585851 -0.42020082 0.056049556
-0.26169297 -0.45796263 0.07547377
-0.26487646 -0.49664325 0.095370457
-0.26813918 -0.53627837 0.11576258
-0.27148244 -0.57690012 0.13665786
-0.27491099 -0.6185497 0.1580864
-0.27842635 -0.66126245 0.18005741
-0.28203374 -0.70508432 0.20260346
-0.28573483 -0.75005388 0.22573532
-0.28953534 -0.79622221 0.24948871
-0.29343733 -0.84363222 0.27387589
-0.29744697 -0.89234078 0.29893607
-0.3015666 -0.94239557 0.32468393
-0.30580306 -0.99385977 0.35116169
-0.16044001 0.45840013 -0.4141072
-0.16180223 0.43917742 -0.40437719
-0.16318813 0.41962662 -0.3944779
-0.16459796 0.39973792 -0.38440755
-0.16603239 0.37950262 -0.37416172
-0.16749166 0.35891065 -0.36373848
-0.16897717 0.33795434 -0.35312754
-0.17048928 0.31662297 -0.34232676
-0.1720283 0.29490566 -0.33133376
-0.17359577 0.27279335 -0.32013753
-0.17519207 0.25027442 -0.30873549
-0.17681757 0.22733694 -0.29712474
-0.17847393 0.20397025 -0.28529352
-0.18016164 0.18016163 -0.27323848
-0.18188111 0.15589818 -0.26095647
-0.18363419 0.13116734 -0.24843457
-0.18542139 0.10595514 -0.23566884
-0.18724325 0.080247112 -0.22265559
-0.18910174 0.054029107 -0.20938069
-0.19099748 0.027285405 -0.19583957
-0.19293164 6.7055225e-08 -0.1820243
-0.19490485 -0.027843527 -0.16792984
-0.19691935 -0.05626265 -0.15354049
-0.19897595 -0.085275367 -0.13885058
-0.20107539 -0.11490013 -0.12385443
-0.2032202 -0.1451572 -0.10853454
-0.20541124 -0.1760667 -0.092884302
-0.20764944 -0.20764941 -0.076896988
-0.20993757 -0.23992854 -0.060553305
-0.21227668 -0.27292711 -0.043845408
-0.21466851 -0.30666921 -0.026760802
-0.21711421 -0.34117937 -0.0092915595
-0.21961695 -0.37648618 0.0085850656
-0.22217803 -0.41261625 0.026878536
-0.22479889 -0.44959772 0.045598909
-0.227483 -0.48746347 0.064771235
-0.23023272 -0.52624607 0.084411994
-0.23304898 -0.56597602 0.10452814
-0.23593573 -0.60669184 0.12514786
-0.23889415 -0.64842695 0.14627944
-0.24192849 -0.69122422 0.16795322
-0.24504009 -0.73512012 0.19017878
-0.24823359 -0.78016263 0.21298975
-0.25151056 -0.82639188 0.23639679
-0.25487611 -0.87386107 0.26043648
-0.25833207 -0.92261446 0.28512165
-0.26188397 -0.9727118 0.31049225
-0.13575034 0.45250115 -0.42885453
-0.13688827 0.43347952 -0.41937181
-0.13804542 0.41413632 -0.40972883
-0.13922232 0.39446324 -0.39992136
-0.14041914 0.37445107 -0.38994783
-0.14163704 0.35409257 -0.3797988
-0.14287624 0.3333779 -0.36947206
-0.14413698 0.31229684 -0.35896584
-0.14542051 0.29084101 -0.34826976
-0.14672711 0.26899976 -0.33738142
-0.14805706 0.24676178 -0.32629851
-0.14941169 0.22411761 -0.31500992
-0.15079132 0.20105509 -0.30351299
-0.15219668 0.17756289 -0.29180163
-0.15362811 0.15362811 -0.27987307
-0.1550871 0.12923929 -0.2677148
-0.15657407 0.10438274 -0.2553235
-0.15808943 0.079044729 -0.24269545
-0.15963481 0.053211637 -0.22981721
-0.1612107 0.026868574 -0.21668476
-0.1628176 3.7252903e-08 -0.20329399
-0.16445729 -0.027409486 -0.18962994
-0.16613033 -0.05537679 -0.17568791
-0.16783777 -0.083918862 -0.16145919
-0.16958022 -0.11305344 -0.14693891
-0.17135967 -0.14279972 -0.13211004
-0.17317688 -0.17317684 -0.11696669
-0.17503257 -0.20420459 -0.10150261
-0.17692894 -0.2359052 -0.085699528
-0.17886685 -0.26830027 -0.069550246
-0.18084717 -0.30141187 -0.053047657
-0.18287235 -0.33526602 -0.036171034
-0.18494342 -0.36988676 -0.018912241
-0.18706137 -0.40529963 -0.0012625456
-0.18922897 -0.44153422 0.016800702
-0.19144738 -0.4786185 0.035287485
-0.19371842 -0.51658243 0.054212838
-0.196044 -0.55545789 0.073592633
-0.19842669 -0.59528011 0.093448579
-0.20086741 -0.63608015 0.11378781
-0.20336956 -0.67789847 0.13463902
-0.20593417 -0.72076952 0.15601066
-0.20856495 -0.7647382 0.17793402
-0.21126315 -0.80984193 0.20041877
-0.21403277 -0.85613096 0.22349903
-0.21687523 -0.90364671 0.24718621
-0.21979499 -0.95244485 0.27151743
-0.22279364 -1.0025712 0.29650623
-0.11168827 0.44675305 -0.4432247
-0.11261251 0.42792755 -0.43398237
-0.11355216 0.40878776 -0.42458573
-0.11450738 0.38932511 -0.41503352
-0.11547906 0.369533 -0.40531683
-0.11646736 0.34940216 -0.39543363
-0.11747275 0.32892376 -0.38537985
-0.11849537 0.30808794 -0.37515372
-0.11953622 0.28688693 -0.36474526
-0.12059551 0.26531011 -0.35415229
-0.12167347 0.24334696 -0.34337258
-0.12277116 0.22098814 -0.33239576
-0.12388884 0.1982221 -0.32121903
-0.12502675 0.1750375 -0.30983981
-0.12618607 0.15142328 -0.29824674
-0.12736708 0.12736708 -0.28643656
-0.12857011 0.1028561 -0.27440637
-0.12979637 0.07787782 -0.26214352
-0.13104628 0.05241853 -0.24964467
-0.13232048 0.026464067 -0.23690261
-0.13361937 5.9604645e-08 -0.22391361
-0.13494435 -0.026988849 -0.21066383
-0.13629587 -0.054518297 -0.19714864
-0.13767438 -0.082604632 -0.18336344
-0.13908143 -0.11126518 -0.169293
-0.14051755 -0.14051752 -0.1549319
-0.14198324 -0.17037983 -0.14027494
-0.14348021 -0.2008723 -0.12530524
-0.1450091 -0.23201454 -0.11001635
-0.1465705 -0.26382685 -0.094402239
-0.14816633 -0.29633254 -0.078444146
-0.14979728 -0.32955402 -0.062134609
-0.15146452 -0.36351481 -0.045462012
-0.15316887 -0.39823902 -0.028418735
-0.15491246 -0.43375492 -0.010982797
-0.1566962 -0.47008845 0.006854564
-0.15852101 -0.50726724 0.025102839
-0.16038932 -0.54532367 0.043785945
-0.1623027 -0.58428967 0.062919647
-0.16426177 -0.62419474 0.082510352
-0.16626923 -0.66507685 0.1025849
-0.16832583 -0.70696843 0.12315091
-0.17043449 -0.74991167 0.14423752
-0.17259608 -0.79394192 0.1658535
-0.17481381 -0.8391062 0.18803069
-0.17708866 -0.88544321 0.21077925
-0.17942411 -0.93300521 0.23413363
-0.18182135 -0.98183531 0.25810617
-0.087520555 0.45948294 -0.46610036
-0.088229842 0.44114926 -0.45723426
-0.088950723 0.42251599 -0.44822332
-0.089683287 0.40357482 -0.43906623
-0.090428211 0.38431996 -0.42975464
-0.091185614 0.36474243 -0.42028722
-0.091955818 0.34483433 -0.4106597
-0.092738926 0.3245863 -0.40087068
-0.093535706 0.30399105 -0.39091101
-0.094346292 0.28303897 -0.38077867
-0.095170833 0.26171982 -0.37047195
-0.096010141 0.24002543 -0.35998055
-0.096864372 0.21794491 -0.34930271
-0.097733721 0.19546752 -0.33843577
-0.098619051 0.17258339 -0.32736921
-0.099520557 0.14928089 -0.31610039
-0.10043871 0.12554838 -0.30462366
-0.1013737 0.10137371 -0.29293609
-0.10232652 0.076744944 -0.28102583
-0.10329742 0.051648676 -0.26888961
-0.10428666 0.02607169 -0.25652412
-0.1052953 2.2351742e-08 -0.24391608
-0.10632363 -0.026580893 -0.23106185
-0.10737198 -0.053685874 -0.21795753
-0.10844149 -0.081331067 -0.20458871
-0.10953252 -0.10953245 -0.1909509
-0.11064572 -0.13830705 -0.17703584
-0.11178149 -0.16767216 -0.16283874
-0.11294112 -0.19764695 -0.14834334
-0.11412506 -0.2282501 -0.13354406
-0.11533377 -0.25950092 -0.11843522
-0.11656868 -0.29142168 -0.10299882
-0.11783032 -0.32403338 -0.08722835
-0.11911923 -0.35735759 -0.071116894
-0.120437 -0.39142025 -0.054644838
-0.12178425 -0.4262448 -0.037804186
-0.12316163 -0.46185607 -0.020587027
-0.12457088 -0.49828336 -0.0029713959
-0.12601276 -0.53555423 0.01505205
-0.12748839 -0.57369775 0.033497721
-0.12899902 -0.61274529 0.052380323
-0.13054627 -0.6527313 0.071720868
-0.13213065 -0.69368589 0.091525853
-0.13375442 -0.73564923 0.11182287
-0.13541815 -0.77865422 0.13261938
-0.13712423 -0.82274532 0.15394545
-0.13887338 -0.86795866 0.17581004
-0.14066821 -0.91434348 0.19824547
-0.14250958 -0.96193951 0.22126225
-0.14440027 -1.0108018 0.24489594
-0.064833716 0.45383593 -0.4795455
-0.065352634 0.43568426 -0.47089675
-0.065879926 0.41723952 -0.46210861
-0.066415653 0.39849398 -0.45317969
-0.066960312 0.37944183 -0.44410211
-0.06751398 0.36007461 -0.43487433
-0.06807673 0.34038371 -0.42549515
-0.068649091 0.32036251 -0.41595584
-0.06923116 0.30000165 -0.40625477
-0.069823176 0.27929276 -0.3963877
-0.07042525 0.25822592 -0.38635319
-0.071037963 0.23679328 -0.37614131
-0.071661428 0.21498428 -0.36575031
-0.072295763 0.19278875 -0.35517791
-0.072941601 0.1701971 -0.34441397
-0.073599085 0.14719823 -0.33345592
-0.074268356 0.12378059 -0.32230154
-0.074950084 0.099933445 -0.3109394
-0.075644441 0.075644433 -0.29936665
-0.076351605 0.050901115 -0.28758061
-0.0770723 0.025690824 -0.27556902
-0.077806726 2.9802322e-08 -0.26332852
-0.0785551 -0.026184961 -0.25085568
-0.079318203 -0.052878752 -0.23813729
-0.080096275 -0.080096282 -0.22516944
-0.080889769 -0.10785294 -0.21194457
-0.081698924 -0.13616484 -0.19845858
-0.08252465 -0.16504933 -0.1846965
-0.083367236 -0.19452348 -0.17065334
-0.084226981 -0.22460525 -0.15632425
-0.085104875 -0.25531453 -0.14169271
-0.086001262 -0.28667086 -0.12675303
-0.086916491 -0.31869376 -0.11149908
-0.087851658 -0.35140666 -0.095913038
-0.088807166 -0.38483107 -0.079987928
-0.089783683 -0.41899055 -0.063712597
-0.090781659 -0.45390823 -0.047079712
-0.091802336 -0.48961234 -0.030068502
-0.092846215 -0.52612841 -0.012670428
-0.093913838 -0.56348306 0.005123347
-0.095006585 -0.60170835 0.023335725
-0.096125349 -0.64083564 0.041981906
-0.097270481 -0.6808933 0.061067343
-0.09844353 -0.72191924 0.080618143
-0.099644907 -0.76394421 0.10064101
-0.10087629 -0.80701017 0.12116402
-0.10213814 -0.85115117 0.14219511
-0.10343231 -0.89641333 0.1637646
-0.10475936 -0.94283426 0.18588206
-0.10612126 -0.99046499 0.20858017
-0.042697731 0.44832611 -0.4926641
-0.043035295 0.43035302 -0.48422498
-0.043378152 0.41209245 -0.47565371
-0.043726604 0.39353943 -0.46694237
-0.044080701 0.37468594 -0.45809001
-0.044440482 0.35552382 -0.44909531
-0.044806283 0.33604717 -0.43995023
-0.045178156 0.31624717 -0.43065345
-0.045556255 0.29611573 -0.42120102
-0.04594063 0.27564383 -0.4115915
-0.046331655 0.2548241 -0.40181601
-0.04672939 0.23364696 -0.39187258
-0.047133908 0.21210265 -0.38175958
-0.047545601 0.19018242 -0.37146738
-0.047964547 0.16787595 -0.36099371
-0.048390828 0.14517248 -0.3503367
-0.048824869 0.12206227 -0.33948553
-0.04926677 0.098533534 -0.3284381
-0.049716737 0.074575156 -0.31718892
-0.050174884 0.050174922 -0.30573523
-0.050641671 0.025320917 -0.29406551
-0.05111723 5.9604645e-08 -0.28217661
-0.051601674 -0.025800772 -0.27006537
-0.052095521 -0.052095436 -0.25771925
-0.052598909 -0.078898363 -0.24513456
-0.053111989 -0.10622397 -0.23230755
-0.053635314 -0.13408829 -0.21922445
-0.054169051 -0.16250716 -0.20588095
-0.054713525 -0.19149733 -0.19226921
-0.055268906 -0.22107552 -0.17838475
-0.055835824 -0.25126112 -0.16421178
-0.056414492 -0.28207234 -0.14974508
-0.057005126 -0.31352809 -0.13497923
-0.057608414 -0.34565049 -0.11989694
-0.058224615 -0.37845996 -0.10449201
-0.058853973 -0.4119778 -0.088758036
-0.059497248 -0.44622934 -0.072676122
-0.060154747 -0.48123792 -0.056238696
-0.06082676 -0.51702744 -0.039438292
-0.061514147 -0.55362719 -0.022253782
-0.062217239 -0.59106362 -0.0046764016
-0.062936589 -0.62936592 0.013307363
-0.063672766 -0.66856396 0.031711847
-0.064426571 -0.70869231 0.050556958
-0.065198235 -0.7497797 0.069848508
-0.065988809 -0.79186571 0.089612901
-0.066798583 -0.83498222 0.10985732
-0.067628704 -0.87917304 0.13061014
-0.068479478 -0.92447299 0.15187967
-0.069352165 -0.97093034 0.17369691
-0.020930579 0.46047279 -0.51357841
-0.021092787 0.44294852 -0.50546801
-0.021257529 0.4251506 -0.49723092
-0.021424821 0.40707159 -0.48886636
-0.021594811 0.38870668 -0.48036674
-0.021767519 0.37004787 -0.47173133
-0.021942968 0.35108748 -0.46295902
-0.022121312 0.33181971 -0.45404172
-0.022302583 0.31223625 -0.44497818
-0.022486798 0.29232842 -0.43576741
-0.022674132 0.2720896 -0.42640072
-0.022864612 0.25151077 -0.4168767
-0.023058321 0.23058331 -0.40719122
-0.023255289 0.20929763 -0.39734289
-0.023455702 0.18764564 -0.38732219
-0.0236596 0.16561726 -0.37712732
-0.02386702 0.14320213 -0.36675632
-0.024078164 0.12039088 -0.35619915
-0.024293076 0.09717232 -0.34545347
-0.024511805 0.073535472 -0.33451712
-0.024734562 0.049469188 -0.32337916
-0.02496141 0.024961457 -0.31203681
-0.025192395 1.4901161e-08 -0.30048758
-0.025427755 -0.025427774 -0.28871959
-0.025667554 -0.051335096 -0.27672958
-0.025911922 -0.077735677 -0.26451123
-0.02616092 -0.10464364 -0.25206134
-0.026414819 -0.13207409 -0.23936652
-0.026673691 -0.16004211 -0.22642277
-0.026937621 -0.1885633 -0.2132263
-0.027206894 -0.21765506 -0.19976258
-0.027481606 -0.24733445 -0.18602701
-0.027761851 -0.2776185 -0.17201486
-0.028047942 -0.30852735 -0.15771024
-0.028339993 -0.34007978 -0.1431077
-0.028638113 -0.37229544 -0.12820175
-0.028942648 -0.40519702 -0.11297493
-0.029253732 -0.43880591 -0.097420767
-0.029571574 -0.47314519 -0.081528634
-0.029896317 -0.50823724 -0.065291569
-0.030228354 -0.54411036 -0.048689574
-0.030567851 -0.58078915 -0.031714737
-0.030914972 -0.61829937 -0.014358819
-0.031270158 -0.65667325 0.0034005642
-0.031633601 -0.69593912 0.02157259
-0.032005686 -0.73613065 0.040176958
-0.032386631 -0.77727914 0.059224248
-0.032776654 -0.81941628 0.078725189
-0.033176284 -0.8625834 0.098706901
-0.033585675 -0.90681314 0.11917642
-0.034005404 -0.9521513 0.140163
-0.034435648 -0.99863374 0.16167504
0 0.45505634 -0.52588844
0 0.43769842 -0.51796836
0 0.42007172 -0.50992823
0 0.40217161 -0.50176102
0 0.383991 -0.49346563
0 0.36552244 -0.48504147
0 0.34676045 -0.47648093
0 0.32769737 -0.46778294
0 0.30832574 -0.45894423
0 0.2886374 -0.44996354
0 0.26862586 -0.44083297
0 0.24828246 -0.4315508
0 0.22759831 -0.42211592
0 0.2065659 -0.41251934
0 0.18517572 -0.40275967
0 0.16341814 -0.39283514
0 0.14128457 -0.38273627
0 0.11876468 -0.37246111
0 0.095848009 -0.36200786
0 0.072524488 -0.3513661
0 0.048782945 -0.34053355
0 0.024612099 -0.32950518
0 -0 -0.31827843
0 -0.025065213 -0.30684197
0 -0.050596572 -0.29519287
0 -0.076606646 -0.28332829
0 -0.10310965 -0.27123597
0 -0.13011941 -0.25891227
0 -0.15765035 -0.246354
0 -0.1857183 -0.23354757
0 -0.21433885 -0.22048901
0 -0.24352852 -0.20717086
0 -0.27330363 -0.19358875
0 -0.30368358 -0.17972752
0 -0.33468598 -0.16558221
0 -0.36632943 -0.15114778
0 -0.39863592 -0.13640751
0 -0.43162549 -0.12135561
0 -0.46531868 -0.10598603
0 -0.49974114 -0.090280458
0 -0.53491509 -0.074231967
0 -0.57086569 -0.057829052
0 -0.60761708 -0.041064441
0 -0.64520001 -0.023916841
0 -0.68364096 -0.0063777864
0 -0.72296989 0.01156646
0 -0.76322019 0.029934794
0 -0.80441999 0.048732668
0 -0.84660816 0.067985326
0 -0.88981545 0.087699175
0 -0.93408489 0.10790154
0 -0.97945023 0.12860009
0.020443905 0.44976592 -0.53791213
0.020598587 0.4325704 -0.53017795
0.020755671 0.41511351 -0.52232373
0.020915169 0.39738825 -0.51434886
0.021077137 0.37938851 -0.50625044
0.021241592 0.36110711 -0.49802774
0.021408675 0.34253886 -0.48967358
0.021578407 0.32367605 -0.48118696
0.02175081 0.30451143 -0.47256684
0.021926032 0.28503847 -0.46380568
0.022104101 0.26524928 -0.45490223
0.02228504 0.24513549 -0.44585535
0.022469014 0.22469015 -0.43665665
0.022656051 0.20390444 -0.42730483
0.022846228 0.18276983 -0.41779599
0.023039572 0.16127701 -0.4081288
0.023236269 0.13941769 -0.39829391
0.023436353 0.11718179 -0.38828972
0.02363986 0.094559491 -0.37811428
0.023846986 0.071540996 -0.36775804
0.024057774 0.048115641 -0.35721862
0.024272267 0.024272338 -0.34649399
0.024490673 8.9406967e-08 -0.33557361
0.024713047 -0.02471301 -0.32445499
0.024939498 -0.049878955 -0.31313246
0.025170077 -0.075510196 -0.30160359
0.025405018 -0.10162003 -0.28985649
0.025644388 -0.12822191 -0.27788806
0.025888247 -0.15532941 -0.26569504
0.026136853 -0.18295793 -0.25326473
0.026390281 -0.21112226 -0.24059328
0.026648603 -0.23983735 -0.22767712
0.026912104 -0.26912099 -0.21450225
0.027180864 -0.29898947 -0.20106405
0.027454978 -0.32945967 -0.1873585
0.027734747 -0.36055174 -0.17336991
0.028020281 -0.39228392 -0.15909337
0.028311675 -0.42467511 -0.14452356
0.028609272 -0.45774829 -0.12964378
0.028913192 -0.49152422 -0.11444764
0.02922364 -0.52602541 -0.098925397
0.029540742 -0.56127405 -0.083070204
0.029864889 -0.59729767 -0.066862911
0.030196225 -0.6341207 -0.050296098
0.03053491 -0.67176795 -0.033361912
0.030881368 -0.71027136 -0.016039044
0.03123587 -0.74966073 0.0016860366
0.031598508 -0.78996277 0.019818217
0.03196967 -0.83121133 0.038376093
0.032349754 -0.87344337 0.057380319
0.032738984 -0.91669136 0.076841712
0.033137586 -0.96098995 0.096771955
0.033546019 -1.0063806 0.11719355
0.040203579 0.46234119 -0.55501789
0.040417913 0.44459707 -0.54965955
0.040720183 0.42756197 -0.54210269
0.041027091 0.4102709 -0.53443015
0.04133866 0.3927173 -0.52664077
0.041654915 0.37489435 -0.5187344
0.041976131 0.35679707 -0.51070416
0.042302337 0.33841872 -0.50254893
0.042633567 0.31975186 -0.49426806
0.042970113 0.30079088 -0.48585451
0.043312017 0.28152815 -0.4773069
0.043659315 0.26195589 -0.46862447
0.044012316 0.24206772 -0.45979944
0.044371076 0.2218554 -0.45083046
0.04473573 0.20131078 -0.44171411
0.045106329 0.18042542 -0.43244904
0.04548322 0.15919133 -0.42302686
0.045866463 0.13759941 -0.41344574
0.046256118 0.11564028 -0.40370443
0.046652552 0.093305185 -0.39379352
0.04705584 0.070583805 -0.38371134
0.047466055 0.047466114 -0.37345594
0.047883593 0.02394183 -0.3630175
0.048308544 1.4901161e-08 -0.35239375
0.048741106 -0.024370536 -0.34157974
0.049181368 -0.049181372 -0.3305732
0.04962977 -0.074444585 -0.31936312
0.050086427 -0.10017283 -0.30794668
0.050551444 -0.12637854 -0.29632136
0.051025301 -0.15307587 -0.28447488
0.051508121 -0.18027839 -0.27240431
0.052000042 -0.20800012 -0.2601063
0.052501578 -0.23625709 -0.24756795
0.053012885 -0.26506436 -0.23478527
0.053534243 -0.29443827 -0.22175112
0.054065827 -0.32439494 -0.20846169
0.054608215 -0.35495338 -0.19490203
0.055161592 -0.38613105 -0.18106756
0.055726152 -0.41794604 -0.16695361
0.05630254 -0.45042023 -0.15254386
0.056890972 -0.48357323 -0.13783306
0.057491682 -0.51742506 -0.12281536
0.058105368 -0.552001 -0.10747306
0.058732305 -0.58732289 -0.091799855
0.059372742 -0.6234138 -0.075788736
0.060027473 -0.66030216 -0.059420466
0.06069681 -0.69801319 -0.042687088
0.061381236 -0.73657483 -0.025576383
0.062081281 -0.776016 -0.0080753565
0.062797472 -0.81636703 0.0098293722
0.063530572 -0.85766268 0.028156877
0.064280801 -0.89993107 0.046912462
0.065049149 -0.94321263 0.06612137
0.065836094 -0.98754132 0.085794955
0.06219263 0.47681013 -0.52356356
0.062192753 0.4560802 -0.52356148
0.062192876 0.43535012 -0.52355939
0.062192876 0.41461918 -0.52355939
0.062192876 0.39388824 -0.52355945
0.062192753 0.37315652 -0.52356148
0.062221557 0.35258883 -0.52308142
0.062699348 0.3343966 -0.51511812
0.06318441 0.31592202 -0.50703388
0.063677169 0.29716012 -0.49882129
0.064177662 0.27810323 -0.49047959
0.064685963 0.25874388 -0.48200795
0.065202504 0.23907588 -0.47339886
0.065727375 0.21909125 -0.46465117
0.066260614 0.19878188 -0.45576376
0.066802718 0.17814064 -0.44672865
0.067353778 0.15715888 -0.43754447
0.067913987 0.13582797 -0.42820752
0.068483457 0.11413911 -0.41871631
0.069062702 0.092083633 -0.40906227
0.069651842 0.069651857 -0.39924341
0.070250951 0.046834037 -0.38925818
0.070860617 0.023620218 -0.37909707
0.07148096 8.9406967e-08 -0.36875805
0.072112091 -0.024037346 -0.35823917
0.072754644 -0.048503056 -0.34753001
0.073408738 -0.073408656 -0.33662832
0.074074537 -0.098766036 -0.32553178
0.074752696 -0.12458775 -0.31422913
0.075443387 -0.15088668 -0.3027176
0.076146953 -0.17767622 -0.29099137
0.076863587 -0.20496951 -0.27904746
0.077594027 -0.23278207 -0.26687345
0.078338489 -0.26112816 -0.25446591
0.079097167 -0.29002294 -0.24182118
0.079870895 -0.31948355 -0.22892581
0.080659904 -0.34952623 -0.21577567
0.081464447 -0.38016737 -0.20236665
0.082285412 -0.41142708 -0.18868378
0.083123095 -0.44332314 -0.1747224
0.083977789 -0.47587401 -0.16047761
0.084850468 -0.50910276 -0.14593285
0.085741475 -0.54302931 -0.1310828
0.086651392 -0.57767594 -0.11591749
0.087580584 -0.61306405 -0.10043088
0.088530175 -0.6492213 -0.084604472
0.089500576 -0.68617111 -0.06843099
0.090492234 -0.72393787 -0.051903367
0.091506377 -0.76255304 -0.035001099
0.092543505 -0.80204368 -0.017715603
0.093604691 -0.84244215 -2.9206276e-05
0.094690211 -0.88377529 0.018062949
0.095801495 -0.92608106 0.036584169
0.096938871 -0.96938872 0.055540591
0.085602447 0.49221405 -0.49007678
0.085602626 0.47081447 -0.49007457
0.085602969 0.44941556 -0.49007028
0.08560314 0.4280158 -0.49006808
0.08560314 0.40661493 -0.49006808
0.08560314 0.38521415 -0.49006817
0.085602969 0.36381263 -0.49007025
0.085602969 0.34241188 -0.49007019
0.085602969 0.32101119 -0.49007019
0.085602969 0.29961041 -0.49007028
0.085602969 0.27820972 -0.49007022
0.08560279 0.25680846 -0.49007243
0.085875288 0.23615704 -0.48666632
0.086558051 0.21639517 -0.47813165
0.087251581 0.19631608 -0.46946251
0.087956503 0.17591298 -0.4606511
0.088672899 0.15517764 -0.45169601
0.08940088 0.13410142 -0.44259635
0.090141103 0.11267643 -0.43334353
0.090893686 0.090893716 -0.42393631
0.091658734 0.068744078 -0.4143731
0.092436984 0.046218544 -0.40464503
0.093228556 0.023307189 -0.39475036
0.094033591 4.4703484e-08 -0.38468736
0.094852872 -0.023713186 -0.37444645
0.095686547 -0.047843263 -0.36402547
0.096535012 -0.072401211 -0.35341969
0.097398438 -0.097398467 -0.34262693
0.098277666 -0.12284705 -0.33163655
0.099172913 -0.14875934 -0.32044587
0.10008439 -0.17514764 -0.30905244
0.10101301 -0.20202604 -0.29744461
0.10195903 -0.22940783 -0.28561944
0.10292269 -0.25730669 -0.27357373
0.103905 -0.28573865 -0.26129496
0.10490622 -0.3147186 -0.24877957
0.10592695 -0.34426245 -0.23602062
0.10696744 -0.37438595 -0.22301437
0.10802887 -0.40510821 -0.2097466
0.10911155 -0.43644619 -0.19621283
0.11021589 -0.46841756 -0.1824086
0.11134311 -0.50104386 -0.16831857
0.1124936 -0.53434455 -0.15393732
0.11366782 -0.56833911 -0.13925949
0.11486714 -0.60305238 -0.12426816
0.11609203 -0.63850611 -0.10895708
0.11734331 -0.67472392 -0.093316019
0.11862154 -0.71172917 -0.077338159
0.11992825 -0.74955148 -0.061004192
0.12126408 -0.78821653 -0.044306338
0.12263001 -0.82775235 -0.027232409
0.12402704 -0.86818922 -0.0097692907
0.12545666 -0.90956068 0.0081009269
0.12691922 -0.95189428 0.026383102
0.1284167 -0.99522936 0.045101374
0.11057556 0.50864756 -0.45435178
0.11057579 0.48653346 -0.45434946
0.11057601 0.46441925 -0.45434722
0.11057625 0.44230503 -0.45434484
0.11057648 0.4201906 -0.45434257
0.11057672 0.39807624 -0.45434019
0.11057672 0.37596086 -0.45434028
0.11057648 0.35384476 -0.45434257
0.11057648 0.33172941 -0.45434251
0.11057648 0.30961418 -0.45434254
0.11057648 0.28749889 -0.45434254
0.11057648 0.2653836 -0.45434254
0.11057625 0.24326777 -0.45434487
0.11057625 0.22115251 -0.45434493
0.11057625 0.19903728 -0.45434487
0.11057625 0.17692202 -0.45434487
0.11057625 0.15480678 -0.45434487
0.11057601 0.13269123 -0.45434719
0.11125067 0.11125073 -0.44760063
0.11216764 0.089734152 -0.43843091
0.11309962 0.067859814 -0.42911112
0.11404745 0.045618996 -0.41963285
0.11501131 0.023002252 -0.40999424
0.11599135 1.4901161e-08 -0.4001939
0.11698849 -0.023397714 -0.39022249
0.11800291 -0.047201157 -0.38007814
0.11903483 -0.071420863 -0.36975902
0.12008522 -0.096068144 -0.35925516
0.12115431 -0.1211543 -0.34856424
0.12224261 -0.14669104 -0.33768123
0.12335035 -0.17269041 -0.32660389
0.12447865 -0.19916575 -0.31532091
0.12562777 -0.22612998 -0.30382961
0.126798 -0.25359601 -0.29212725
0.12799056 -0.28157917 -0.28020185
0.12920576 -0.31009373 -0.26804984
0.13044393 -0.33915421 -0.25566807
0.13170639 -0.36877784 -0.24304345
0.13299352 -0.3989805 -0.23017214
0.13430573 -0.42977822 -0.21705022
0.13564442 -0.46119097 -0.20366317
0.13701007 -0.49323618 -0.19000657
0.13840315 -0.52593195 -0.17607588
0.13982521 -0.55930084 -0.16185522
0.14127681 -0.59336257 -0.14733934
0.14275883 -0.6281389 -0.13251895
0.14427191 -0.66365075 -0.11738819
0.1458178 -0.6999253 -0.10192934
0.14739719 -0.73698592 -0.086135507
0.14901073 -0.77485573 -0.069999993
0.15066043 -0.81356627 -0.053503066
0.15234706 -0.85314357 -0.03663671
0.15407233 -0.89361948 -0.019383997
0.15583667 -0.93501997 -0.0017406344
0.15764235 -0.97738254 0.016316146
0.13727351 0.52621514 -0.41616148
0.1372738 0.50333732 -0.416159
0.1372741 0.48045939 -0.41615644
0.1372744 0.45758134 -0.41615409
0.1372747 0.43470317 -0.41615161
0.137275 0.41182506 -0.41614902
0.13727529 0.38894665 -0.41614664
0.13727529 0.36606747 -0.41614664
0.13727529 0.34318829 -0.41614664
0.13727529 0.3203091 -0.41614658
0.13727529 0.29742983 -0.41614658
0.13727529 0.27455056 -0.41614664
0.13727529 0.25167137 -0.41614664
0.137275 0.22879173 -0.41614902
0.137275 0.20591258 -0.41614902
0.137275 0.18303335 -0.41614908
0.137275 0.16015419 -0.41614908
0.137275 0.13727504 -0.41614905
0.1372747 0.11439559 -0.41615155
0.1372747 0.091516435 -0.41615152
0.1372747 0.068637356 -0.41615152
0.1372747 0.045758247 -0.41615155
0.1372747 0.022879183 -0.41615152
0.13737729 4.4703484e-08 -0.41529658
0.13854279 -0.023090437 -0.40558422
0.13972789 -0.046575934 -0.3957082
0.14093377 -0.070466891 -0.38565925
0.14216065 -0.094773769 -0.37543523
0.14340907 -0.11950754 -0.36503172
0.14467929 -0.14467931 -0.35444668
0.14597254 -0.17030121 -0.34366959
0.14728911 -0.19638544 -0.33269802
0.14862932 -0.22294389 -0.32152978
0.14999449 -0.24999078 -0.31015334
0.15138495 -0.27753901 -0.29856604
0.1528011 -0.30560216 -0.28676492
0.15424433 -0.33419609 -0.27473786
0.15571511 -0.36333519 -0.26248145
0.15721421 -0.39303544 -0.24998897
0.15874204 -0.42331213 -0.23725694
0.16030027 -0.45418406 -0.22427174
0.16188939 -0.48566812 -0.21102908
0.16350992 -0.51778138 -0.19752467
0.16516365 -0.55054545 -0.18374355
0.16685118 -0.58397913 -0.16968085
0.1685731 -0.61810124 -0.15533161
0.17033137 -0.65293688 -0.14067927
0.17212673 -0.68850684 -0.12571803
0.17396031 -0.72483468 -0.11043805
0.17583291 -0.76194263 -0.094833106
0.17774676 -0.79986036 -0.078884333
0.17970273 -0.83861274 -0.062584609
0.18170223 -0.87822735 -0.04592219
0.18374673 -0.91873348 -0.028884709
0.1858383 -0.96016443 -0.01145497
0.18797746 -1.0025464 0.0063715279
0.16588162 0.54503959 -0.37523875
0.16588199 0.52134347 -0.37523606
0.16588235 0.49764711 -0.37523335
0.16588272 0.47395068 -0.37523073
0.16588311 0.45025408 -0.37522811
0.16588347 0.42655751 -0.37522548
0.16588384 0.40286082 -0.37522277
0.16588458 0.37916479 -0.3752175
0.16588458 0.35546699 -0.37521744
0.16588458 0.33176917 -0.37521741
0.16588458 0.30807143 -0.37521744
0.16588458 0.28437355 -0.3752175
0.16588458 0.26067582 -0.3752175
0.16588458 0.23697802 -0.37521747
0.16588421 0.21327978 -0.37522003
0.16588421 0.18958196 -0.37522012
0.16588421 0.1658842 -0.37522012
0.16588421 0.14218652 -0.37522012
0.16588421 0.11848876 -0.37522009
0.16588384 0.094790846 -0.37522271
0.16588384 0.071093142 -0.37522274
0.16588384 0.047395468 -0.37522274
0.16588384 0.023697719 -0.37522274
0.16588384 2.9802322e-08 -0.3752228
0.16588384 -0.023697689 -0.37522274
0.16588347 -0.047395214 -0.37522539
0.16588347 -0.071092904 -0.37522542
0.16588347 -0.094790488 -0.37522542
0.16588347 -0.11848816 -0.37522542
0.16650923 -0.14272217 -0.3707557
0.1679773 -0.16797727 -0.36026943
0.16947149 -0.19368173 -0.34959668
0.17099211 -0.21984695 -0.3387351
0.17254066 -0.24648662 -0.32767409
0.17411752 -0.27361321 -0.31641078
0.17572306 -0.30123949 -0.3049427
0.1773589 -0.32938081 -0.2932581
0.17902547 -0.35805094 -0.28135389
0.18072322 -0.38726401 -0.26922712
0.18245395 -0.41703755 -0.25686488
0.18421814 -0.44738686 -0.24426356
0.18601631 -0.47832757 -0.23141941
0.18785039 -0.50987959 -0.21831876
0.18972102 -0.54206002 -0.2049572
0.19162877 -0.57488632 -0.19133036
0.1935758 -0.60838103 -0.17742306
0.19556279 -0.6425634 -0.16323026
0.19759099 -0.67745483 -0.148743
0.19966117 -0.71307552 -0.13395613
0.20177574 -0.74945265 -0.11885205
0.20393558 -0.78660864 -0.10342461
0.20614158 -0.82456636 -0.087667435
0.20839642 -0.86335659 -0.071561486
0.21070112 -0.90300483 -0.055099279
0.21305799 -0.9435426 -0.038264453
0.21546754 -0.98499465 -0.021053314
0.19661246 0.56526089 -0.33127943
0.19661292 0.54068553 -0.3312766
0.19661337 0.51611018 -0.3312737
0.1966143 0.49153578 -0.33126801
0.19661476 0.46696004 -0.33126515
0.1966152 0.44238424 -0.33126235
0.19661567 0.41780829 -0.33125946
0.19661613 0.39323226 -0.3312566
0.19661658 0.36865616 -0.33125371
0.19661704 0.34407979 -0.33125091
0.19661704 0.31950277 -0.33125085
0.19661704 0.29492551 -0.33125091
0.19661704 0.27034849 -0.33125082
0.19661704 0.24577136 -0.33125085
0.19661658 0.22119363 -0.33125377
0.19661658 0.19661663 -0.33125371
0.19661658 0.17203951 -0.33125374
0.19661658 0.14746243 -0.3312538
0.19661658 0.1228854 -0.33125371
0.19661658 0.098308288 -0.33125374
0.19661658 0.073731214 -0.33125377
0.19661613 0.049154088 -0.33125654
0.19661613 0.024577066 -0.33125657
0.19661613 2.9802322e-08 -0.33125663
