# .PCD v0.7 - Point Cloud Data file format
VERSION 0.7
FIELDS x y z
SIZE 4 4 4
TYPE F F F
COUNT 1 1 1
WIDTH 1398
HEIGHT 1
VIEWPOINT 0 0 0 1 0 0 0
POINTS 1398
DATA ascii
-0.14970733 1.0479513 0.31123435
-0.14525366 0.98046219 0.2555635
-0.14105733 0.91687274 0.20310932
-0.13709666 0.85685414 0.15360081
-0.13335274 0.80011642 0.10680181
-0.12980747 0.74639308 0.062486112
-0.12644659 0.69545627 0.020475119
-0.12325535 0.64709061 -0.019415468
-0.12022123 0.60110611 -0.057342142
-0.11733289 0.5573312 -0.09344627
-0.11458008 0.51561046 -0.12785636
-0.11195349 0.47580236 -0.16068879
-0.10944462 0.4377785 -0.19204968
-0.10704572 0.40142149 -0.22203584
-0.10474974 0.36662412 -0.25073561
-0.10255018 0.33328807 -0.27823022
-0.10044108 0.30132329 -0.30459371
-0.098417006 0.27064675 -0.32989481
-0.096472882 0.24118225 -0.35419622
-0.094918251 0.21356611 -0.37362915
-0.094918251 0.18983658 -0.37362912
-0.094918251 0.16610691 -0.37362915
-0.094918042 0.14237714 -0.37363178
-0.094918042 0.11864753 -0.37363183
-0.094918042 0.094918087 -0.37363181
-0.094918042 0.071188554 -0.37363178
-0.094917834 0.047458932 -0.37363452
-0.094917834 0.023729488 -0.37363449
-0.094917834 -0 -0.37363452
-0.09491761 -0.023729384 -0.37363714
-0.09491761 -0.047458753 -0.37363708
-0.09491761 -0.071188182 -0.37363714
-0.094917402 -0.094917357 -0.37363979
-0.094917402 -0.11864672 -0.37363985
-0.094917402 -0.14237607 -0.37363979
-0.094917402 -0.16610542 -0.37363976
-0.094917193 -0.18983433 -0.37364244
-0.094917193 -0.21356359 -0.37364247
-0.094917193 -0.23729295 -0.37364244
-0.094916977 -0.26102167 -0.37364513
-0.094916977 -0.28475085 -0.37364516
-0.094916977 -0.30848017 -0.37364516
-0.094916761 -0.33220857 -0.37364784
-0.094916761 -0.3559379 -0.37364775
-0.094916761 -0.37966704 -0.37364781
-0.094916552 -0.4033953 -0.37365049
-0.094916552 -0.42712447 -0.37365043
-0.094916336 -0.45085257 -0.37365317
-0.094916336 -0.47458163 -0.37365314
-0.10719294 1.0004677 0.22644192
-0.10414444 0.93729997 0.17563331
-0.10126452 0.87762594 0.12763473
-0.098539911 0.82116592 0.082224458
-0.095957778 0.76766223 0.039188892
-0.093508072 0.71689522 -0.001639545
-0.091180317 0.66865563 -0.040435404
-0.088965647 0.62275958 -0.077346474
-0.086856015 0.57904005 -0.11250713
-0.084844112 0.53734601 -0.14603886
-0.082923308 0.49753979 -0.17805237
-0.081087545 0.45949611 -0.20864832
-0.079331301 0.42310032 -0.23791893
-0.077649519 0.38824764 -0.26594871
-0.076037571 0.35484204 -0.29281452
-0.07449118 0.32279515 -0.31858769
-0.073006436 0.29202574 -0.34333345
-0.072351359 0.26528832 -0.35425127
-0.072351359 0.24117127 -0.3542513
-0.072351359 0.21705416 -0.3542513
-0.072351195 0.19293657 -0.35425401
-0.072351195 0.16881949 -0.35425401
-0.072351195 0.1447024 -0.35425404
-0.072351195 0.12058538 -0.35425401
-0.072351031 0.096468106 -0.35425678
-0.072351031 0.072351038 -0.35425681
-0.072351031 0.048234016 -0.35425678
-0.072350867 0.024117023 -0.35425955
-0.072350867 -0 -0.35425955
-0.072350867 -0.024116933 -0.35425952
-0.072350703 -0.048233762 -0.35426226
-0.072350703 -0.072350681 -0.35426235
-0.072350703 -0.096467577 -0.35426226
-0.072350539 -0.12058423 -0.35426509
-0.072350539 -0.14470103 -0.35426509
-0.072350539 -0.16881785 -0.35426512
-0.072350539 -0.19293475 -0.35426506
-0.072350375 -0.21705109 -0.35426781
-0.072350375 -0.24116783 -0.35426781
-0.072350375 -0.26528463 -0.35426784
-0.072350204 -0.28940079 -0.35427061
-0.072350204 -0.31351754 -0.35427052
-0.072350204 -0.3376343 -0.35427055
-0.07235004 -0.36175013 -0.35427332
-0.07235004 -0.38586685 -0.35427332
-0.072349876 -0.40998262 -0.35427606
-0.072349876 -0.43409923 -0.35427609
-0.072349876 -0.4582158 -0.35427612
-0.072349712 -0.4823314 -0.35427883
-0.072349712 -0.50644797 -0.3542788
-0.070333876 1.0198412 0.19823962
-0.068364307 0.95710039 0.14900032
-0.066502042 0.89777768 0.10244375
-0.064738542 0.84160113 0.058356315
-0.063066348 0.78832936 0.016551346
-0.06147854 0.73774242 -0.023143917
-0.059968717 0.6896404 -0.060889274
-0.058531281 0.64384401 -0.096825391
-0.057161141 0.60019189 -0.13107897
-0.055853676 0.55853677 -0.16376546
-0.054604687 0.51874453 -0.19499022
-0.053410336 0.48069304 -0.22484902
-0.052267112 0.44427046 -0.25342953
-0.051171806 0.40937448 -0.28081217
-0.050121464 0.37591097 -0.30707079
-0.04911337 0.3437936 -0.33227304
-0.049035095 0.31872815 -0.33422998
-0.049035095 0.29421061 -0.33422992
-0.049035095 0.26969305 -0.33422998
-0.049034983 0.2451749 -0.33423284
-0.049034983 0.22065741 -0.33423281
-0.049034983 0.19613996 -0.33423281
-0.049034867 0.1716221 -0.33423561
-0.049034867 0.14710465 -0.33423564
-0.049034867 0.1225872 -0.33423564
-0.049034756 0.098069504 -0.3342385
-0.049034756 0.073552191 -0.33423847
-0.049034756 0.049034774 -0.33423853
-0.049034756 0.024517462 -0.33423847
-0.04903464 1.4901161e-08 -0.33424133
-0.04903464 -0.024517253 -0.33424133
-0.04903464 -0.049034655 -0.3342413
-0.049034525 -0.073551759 -0.33424419
-0.049034525 -0.098069035 -0.33424419
-0.049034525 -0.12258631 -0.33424422
-0.049034413 -0.14710321 -0.33424705
-0.049034413 -0.1716204 -0.33424696
-0.049034413 -0.19613764 -0.33424708
-0.049034413 -0.22065483 -0.33424699
-0.049034301 -0.2451715 -0.33424985
-0.049034301 -0.26968855 -0.33424988
-0.049034301 -0.29420581 -0.33424985
-0.049034186 -0.3187221 -0.33425272
-0.049034186 -0.34323922 -0.33425272
-0.04903407 -0.36775547 -0.33425558
-0.04903407 -0.39227259 -0.33425558
-0.04903407 -0.41678956 -0.33425558
-0.049033958 -0.44130564 -0.33425838
-0.049033958 -0.46582261 -0.33425838
-0.049033958 -0.49033946 -0.33425844
-0.049033847 -0.51485533 -0.33426121
-0.034620423 1.0386127 0.17091379
-0.033665594 0.97630227 0.12317237
-0.032762021 0.91733652 0.077993602
-0.031905681 0.86145341 0.035176635
-0.031093059 0.80841959 -0.0054543912
-0.03032089 0.75802225 -0.044062763
-0.029586144 0.71006751 -0.080800086
-0.028886167 0.66438186 -0.11579907
-0.028218543 0.62080795 -0.1491802
-0.027581153 0.5792042 -0.1810496
-0.026971858 0.53943712 -0.2115145
-0.026388897 0.50138903 -0.24066252
-0.025830602 0.46495086 -0.26857716
-0.025295442 0.4300226 -0.2953352
-0.024931496 0.39890394 -0.3135325
-0.024931496 0.37397239 -0.31353262
-0.024931496 0.34904101 -0.31353256
-0.024931496 0.32410949 -0.31353253
-0.024931436 0.29917732 -0.31353542
-0.024931436 0.27424589 -0.31353551
-0.024931436 0.24931441 -0.31353551
-0.024931379 0.22438242 -0.31353843
-0.024931379 0.19945109 -0.3135384
-0.024931379 0.17451964 -0.31353849
-0.024931319 0.14958796 -0.31354132
-0.024931319 0.12465665 -0.31354132
-0.024931319 0.099725351 -0.31354135
-0.024931319 0.074794039 -0.31354138
-0.024931261 0.049862579 -0.31354433
-0.024931261 0.024931312 -0.3135443
-0.024931261 8.9406967e-08 -0.31354433
-0.024931202 -0.024931163 -0.31354728
-0.024931202 -0.04986234 -0.31354725
-0.024931202 -0.07479357 -0.31354725
-0.024931144 -0.099724486 -0.31355023
-0.024931144 -0.12465572 -0.31355023
-0.024931144 -0.1495868 -0.31355017
-0.024931144 -0.17451799 -0.31355017
-0.024931084 -0.19944869 -0.31355312
-0.024931084 -0.2243797 -0.31355315
-0.024931084 -0.24931076 -0.31355315
-0.024931027 -0.2742413 -0.31355605
-0.024931027 -0.29917222 -0.3135561
-0.024930969 -0.32410252 -0.31355903
-0.024930969 -0.34903353 -0.313559
-0.024930969 -0.37396443 -0.313559
-0.024930906 -0.39889443 -0.31356198
-0.024930906 -0.42382541 -0.31356192
-0.024930906 -0.44875625 -0.31356201
-0.024930848 -0.47368601 -0.3135649
-0.024930848 -0.4986169 -0.3135649
-0.024930848 -0.52354777 -0.3135649
0 0.99493253 0.098113447
0 0.93632865 0.054252267
0 0.88074517 0.012651831
0 0.82795906 -0.026849836
0 0.77775961 -0.064415812
0 0.72996128 -0.10018486
0 0.68439567 -0.13428319
0 0.64090991 -0.16682495
0 0.59936482 -0.19791456
0 0.55963337 -0.22764692
0 0.52159935 -0.25610909
0 0.48515618 -0.28338078
0 0.45647392 -0.29212427
0 0.43111432 -0.29212424
0 0.40575463 -0.29212421
0 0.38039494 -0.29212427
0 0.35503444 -0.29212728
0 0.32967484 -0.29212734
0 0.30431524 -0.29212731
0 0.27895495 -0.29213035
0 0.25359538 -0.29213035
0 0.22823593 -0.29213035
0 0.20287579 -0.29213339
0 0.1775164 -0.29213339
0 0.15215683 -0.29213342
0 0.12679738 -0.29213339
0 0.10143771 -0.29213637
0 0.076078311 -0.29213637
0 0.050718866 -0.29213643
0 0.025359422 -0.29213947
0 1.4901161e-08 -0.29213941
0 -0.025359347 -0.29213947
0 -0.050718538 -0.29214254
0 -0.076077864 -0.29214254
0 -0.10143716 -0.29214251
0 -0.12679648 -0.29214251
0 -0.15215541 -0.29214555
0 -0.17751461 -0.29214549
0 -0.20287384 -0.29214558
0 -0.22823256 -0.29214856
0 -0.25359172 -0.29214856
0 -0.27895093 -0.29214859
0 -0.30430937 -0.29215157
0 -0.32966843 -0.29215166
0 -0.35502672 -0.29215467
0 -0.38038573 -0.2921547
0 -0.40574482 -0.29215461
0 -0.43110281 -0.29215765
0 -0.45646185 -0.29215771
0 -0.48182073 -0.29215774
0 -0.5071786 -0.29216081
0 -0.53253758 -0.29216075
0 -0.55789649 -0.29216072
0.032677941 1.0130162 0.073789686
0.031825934 0.95477808 0.031189322
0.031017227 0.8994996 -0.0092460513
0.030248772 0.84696555 -0.047668755
0.029517476 0.79697192 -0.084233582
0.028820705 0.74933827 -0.11907223
0.028156068 0.70390177 -0.15230393
0.027521396 0.66051352 -0.18403752
0.026914708 0.61903834 -0.21437198
0.026334189 0.5793522 -0.24339794
0.025802853 0.54185998 -0.26996461
0.025802791 0.51605588 -0.26996776
0.025802791 0.49025312 -0.26996771
0.025802791 0.46445027 -0.26996768
0.025802791 0.43864751 -0.26996776
0.02580273 0.41284364 -0.26997101
0.02580273 0.38704088 -0.26997092
0.02580273 0.36123821 -0.26997092
0.025802664 0.33543465 -0.26997411
0.025802664 0.30963197 -0.26997411
0.025802664 0.28382942 -0.26997402
0.025802603 0.25802603 -0.26997721
0.025802603 0.23222339 -0.26997724
0.025802603 0.20642088 -0.26997721
0.025802603 0.18061832 -0.26997715
0.02580254 0.15481524 -0.26998043
0.02580254 0.12901279 -0.26998031
0.02580254 0.1032102 -0.2699804
0.025802478 0.077407487 -0.26998353
0.025802478 0.051605023 -0.26998353
0.025802478 0.025802545 -0.26998347
0.025802413 1.4901161e-08 -0.26998666
0.025802413 -0.025802381 -0.26998666
0.025802413 -0.051604815 -0.26998663
0.025802413 -0.077407196 -0.26998663
0.025802352 -0.10320941 -0.26998982
0.025802352 -0.12901166 -0.26998988
0.025802352 -0.15481405 -0.26998979
0.025802286 -0.18061595 -0.26999298
0.025802286 -0.20641822 -0.26999295
0.025802286 -0.23222047 -0.26999298
0.025802225 -0.25802213 -0.26999617
0.025802225 -0.28382447 -0.26999611
0.025802225 -0.30962655 -0.26999617
0.025802162 -0.33542806 -0.2699993
0.025802162 -0.36123022 -0.26999927
0.0258021 -0.38703141 -0.27000242
0.0258021 -0.41283357 -0.27000237
0.0258021 -0.43863565 -0.27000237
0.025802035 -0.46443662 -0.27000549
0.025802035 -0.49023873 -0.27000552
0.025802035 -0.51604068 -0.27000558
0.025801973 -0.54184139 -0.2700088
0.025801973 -0.56764334 -0.27000868
0.064411059 1.0305769 0.05016917
0.062755339 0.97270775 0.0087760389
0.0611826 0.91773903 -0.030542403
0.059687104 0.86546302 -0.067929745
0.05826297 0.81568158 -0.10353306
0.056905217 0.76822042 -0.13747701
0.055609301 0.72292101 -0.16987476
0.054371096 0.67963874 -0.20082992
0.05318683 0.63824201 -0.23043652
0.052523494 0.60402024 -0.24701995
0.052523367 0.577757 -0.24702325
0.052523367 0.55149537 -0.24702322
0.052523367 0.52523375 -0.24702321
0.052523237 0.49897075 -0.24702647
0.052523237 0.47270918 -0.24702647
0.052523237 0.44644755 -0.24702644
0.052523237 0.42018595 -0.24702646
0.052523106 0.39392334 -0.24702974
0.052523106 0.36766174 -0.24702975
0.052523106 0.34140015 -0.24702977
0.052522972 0.3151378 -0.24703304
0.052522972 0.28887632 -0.24703301
0.052522972 0.26261497 -0.24703294
0.052522842 0.23635282 -0.24703625
0.052522842 0.21009138 -0.24703625
0.052522842 0.18382996 -0.24703626
0.052522842 0.15756854 -0.24703625
0.052522715 0.13130686 -0.2470395
0.052522715 0.10504547 -0.24703954
0.052522715 0.07878416 -0.2470395
0.052522585 0.052522674 -0.24704276
0.052522585 0.026261292 -0.2470428
0.052522585 7.4505806e-08 -0.24704275
0.052522451 -0.026261196 -0.24704613
0.052522451 -0.052522421 -0.24704607
0.052522451 -0.078783669 -0.24704607
0.05252232 -0.10504457 -0.2470493
0.05252232 -0.13130577 -0.24704932
0.05252232 -0.15756695 -0.24704932
0.05252232 -0.18382804 -0.24704929
0.052522194 -0.21008873 -0.24705254
0.052522194 -0.23634982 -0.2470526
0.052522194 -0.26261085 -0.24705261
0.052522063 -0.28887135 -0.2470558
0.052522063 -0.31513229 -0.24705589
0.052522063 -0.34139329 -0.24705589
0.052521929 -0.36765349 -0.24705908
0.052521929 -0.3939144 -0.24705914
0.052521799 -0.4201743 -0.24706241
0.052521799 -0.44643518 -0.24706241
0.052521799 -0.47269619 -0.24706234
0.052521668 -0.49895579 -0.24706565
0.052521668 -0.52521664 -0.24706565
0.052521668 -0.55147749 -0.24706562
0.052521542 -0.57773691 -0.24706885
0.095239751 1.0476372 0.027221799
0.092825562 0.99013931 -0.013014704
0.090530738 0.93548423 -0.051261842
0.08834713 0.88347137 -0.087655157
0.086266384 0.83390832 -0.12233439
0.084281385 0.78662634 -0.15541756
0.082385689 0.74147129 -0.18701246
0.080573395 0.69830269 -0.21721743
0.080211781 0.66843146 -0.22324447
0.08021158 0.64169264 -0.22324774
0.08021158 0.61495543 -0.22324774
0.08021158 0.58821833 -0.22324775
0.080211371 0.56147963 -0.22325116
0.080211371 0.53474253 -0.22325106
0.080211371 0.50800544 -0.2232511
0.080211371 0.48126826 -0.22325124
0.08021117 0.45452994 -0.22325453
0.08021117 0.42779285 -0.22325458
0.08021117 0.4010559 -0.22325441
0.080210969 0.37431788 -0.22325791
0.080210969 0.34758085 -0.2232579
0.080210969 0.32084388 -0.22325788
0.080210768 0.29410613 -0.22326133
0.080210768 0.26736924 -0.22326127
0.080210768 0.24063231 -0.2232613
0.080210559 0.21389484 -0.22326466
0.080210559 0.18715803 -0.22326463
0.080210559 0.16042113 -0.22326471
0.080210559 0.13368431 -0.22326468
0.080210358 0.10694723 -0.22326806
0.080210358 0.080210395 -0.22326803
0.080210358 0.053473569 -0.22326802
0.080210157 0.026736788 -0.22327134
0.080210157 -1.4901161e-08 -0.22327147
0.080210157 -0.026736677 -0.22327143
0.080209948 -0.053473286 -0.22327483
0.080209948 -0.080209933 -0.22327487
0.080209948 -0.10694656 -0.2232748
0.080209948 -0.1336832 -0.22327475
0.080209754 -0.16041948 -0.22327819
0.080209754 -0.18715605 -0.22327815
0.080209754 -0.21389258 -0.22327815
0.080209546 -0.24062859 -0.22328159
0.080209546 -0.26736513 -0.22328158
0.080209546 -0.29410166 -0.22328158
0.080209345 -0.32083732 -0.22328499
0.080209345 -0.34757373 -0.22328502
0.080209143 -0.37430921 -0.22328836
0.080209143 -0.40104568 -0.22328833
0.080209143 -0.42778194 -0.22328839
0.080208935 -0.4545173 -0.22329175
0.080208935 -0.48125362 -0.22329171
0.080208935 -0.50798988 -0.22329177
0.080208734 -0.53472477 -0.22329514
0.080208734 -0.56146109 -0.22329509
0.080208734 -0.58819735 -0.22329509
0.12207191 1.0070934 -0.034208298
0.11909441 0.95275515 -0.071427315
0.11625931 0.90100974 -0.10686585
0.11355639 0.85167289 -0.1406526
0.11097599 0.80457586 -0.17290762
0.10892123 0.76244861 -0.19859198
0.10892123 0.73521835 -0.19859195
0.10892095 0.70798618 -0.19859545
0.10892095 0.68075597 -0.19859549
0.10892095 0.65352571 -0.19859545
0.10892067 0.6262939 -0.19859895
0.10892067 0.59906369 -0.19859897
0.10892067 0.57183349 -0.19859903
0.10892039 0.54460204 -0.19860247
0.10892039 0.51737189 -0.19860242
0.10892039 0.49014184 -0.19860241
0.10892039 0.4629117 -0.19860245
0.1089201 0.43568054 -0.19860592
0.1089201 0.40845039 -0.198606
0.1089201 0.3812204 -0.19860601
0.10891984 0.35398942 -0.19860949
0.10891984 0.32675955 -0.19860946
0.10891984 0.29952952 -0.1986095
0.10891955 0.27229893 -0.19861296
0.10891955 0.24506898 -0.19861302
0.10891955 0.21783917 -0.19861291
0.10891955 0.19060922 -0.19861299
0.10891927 0.16337888 -0.19861652
0.10891927 0.13614917 -0.19861649
0.10891927 0.10891933 -0.1986165
0.10891899 0.081689276 -0.19861996
0.10891899 0.054459572 -0.19861993
0.10891899 0.027229786 -0.19862001
0.10891871 -7.4505806e-09 -0.19862352
0.10891871 -0.027229629 -0.19862357
0.10891871 -0.054459311 -0.19862349
0.10891871 -0.08168897 -0.19862351
0.10891843 -0.10891838 -0.19862705
0.10891843 -0.13614798 -0.19862698
0.10891843 -0.16337758 -0.19862702
0.10891815 -0.19060674 -0.19863045
0.10891815 -0.21783629 -0.1986305
0.10891815 -0.24506584 -0.19863054
0.10891786 -0.27229455 -0.19863403
0.10891786 -0.29952407 -0.19863404
0.10891786 -0.32675356 -0.19863403
0.10891759 -0.35398212 -0.19863752
0.10891759 -0.38121149 -0.19863755
0.1089173 -0.4084399 -0.198641
0.1089173 -0.43566912 -0.19864105
0.1089173 -0.46289849 -0.19864105
0.10891702 -0.49012661 -0.19864452
0.10891702 -0.5173558 -0.19864455
0.10891702 -0.54458511 -0.19864455
0.10891674 -0.57181287 -0.19864799
0.10891674 -0.599042 -0.1986481
0.10891674 -0.62627125 -0.19864804
0.15052781 1.0235891 -0.05482921
0.14690503 0.96957326 -0.091056973
0.14345294 0.91809893 -0.12557778
0.14015937 0.86898804 -0.15851375
0.13870941 0.83225644 -0.1730133
0.13870941 0.80451465 -0.17301321
0.13870905 0.77677071 -0.17301685
0.13870905 0.74902886 -0.17301688
0.13870905 0.72128707 -0.17301682
0.13870868 0.69354343 -0.17302051
0.13870868 0.66580176 -0.17302041
0.13870868 0.63805991 -0.1730205
0.13870832 0.61031663 -0.17302416
0.13870832 0.58257502 -0.17302409
0.13870832 0.55483329 -0.1730241
0.13870832 0.52709162 -0.17302412
0.13870797 0.4993487 -0.1730278
0.13870797 0.47160709 -0.17302775
0.13870797 0.44386554 -0.17302771
0.13870759 0.41612276 -0.17303142
0.13870759 0.38838136 -0.17303137
0.13870759 0.36063975 -0.17303145
0.13870724 0.33289731 -0.17303509
0.13870724 0.3051559 -0.17303503
0.13870724 0.2774145 -0.17303498
0.13870724 0.24967305 -0.17303507
0.13870686 0.22193106 -0.17303862
0.13870686 0.19418961 -0.17303871
0.13870686 0.16644831 -0.17303874
0.13870651 0.13870652 -0.17304231
0.13870651 0.1109652 -0.17304234
0.13870651 0.083223924 -0.1730424
0.13870615 0.055482533 -0.17304599
0.13870615 0.027741283 -0.17304593
0.13870615 -2.9802322e-08 -0.17304596
0.13870615 -0.027741186 -0.17304599
0.13870578 -0.05548232 -0.17304964
0.13870578 -0.083223388 -0.17304957
0.13870578 -0.1109646 -0.17304955
0.13870542 -0.13870542 -0.17305323
0.13870542 -0.16644646 -0.17305321
0.13870542 -0.19418757 -0.17305325
0.13870504 -0.22192799 -0.17305689
0.13870504 -0.24966905 -0.1730569
0.13870504 -0.27741009 -0.17305687
0.13870469 -0.30515021 -0.17306052
0.13870469 -0.33289117 -0.17306063
0.13870433 -0.36063123 -0.1730642
0.13870433 -0.38837203 -0.17306411
0.13870433 -0.41611284 -0.1730642
0.13870396 -0.44385263 -0.17306782
0.13870396 -0.47159338 -0.17306782
0.13870396 -0.49933422 -0.17306776
0.1387036 -0.52707362 -0.17307144
0.1387036 -0.55481434 -0.17307144
0.1387036 -0.58255494 -0.1730715
0.13870323 -0.61029422 -0.17307508
0.13870323 -0.63803482 -0.17307508
0.17822486 1.039645 -0.07490015
0.17399134 0.98595095 -0.11017948
0.16995473 0.93475109 -0.14381787
0.16963829 0.90473759 -0.14645493
0.16963829 0.87646449 -0.14645496
0.16963783 0.84818923 -0.14645875
0.16963783 0.81991619 -0.14645869
0.16963783 0.7916432 -0.14645875
0.16963737 0.76336831 -0.14646256
0.16963737 0.73509532 -0.14646253
0.16963737 0.70682245 -0.14646256
0.16963692 0.67854774 -0.14646623
0.16963692 0.65027493 -0.1464663
0.16963692 0.62200207 -0.14646623
0.16963692 0.59372926 -0.1464663
0.16963647 0.56545496 -0.14647004
0.16963647 0.53718215 -0.14647011
0.16963647 0.50890952 -0.14647007
0.16963601 0.4806354 -0.1464739
0.16963601 0.45236278 -0.14647385
0.16963601 0.42409009 -0.14647387
0.16963556 0.39581639 -0.14647759
0.16963556 0.36754382 -0.14647762
0.16963556 0.33927113 -0.14647765
0.1696351 0.31099766 -0.14648145
0.1696351 0.28272524 -0.14648142
0.1696351 0.25445271 -0.14648144
0.1696351 0.22618017 -0.14648145
0.16963466 0.19790719 -0.14648518
0.16963466 0.16963468 -0.14648522
0.16963466 0.14136226 -0.14648519
0.16963421 0.11308954 -0.14648899
0.16963421 0.084817171 -0.14648899
0.16963421 0.056544792 -0.14648899
0.16963421 0.028272346 -0.14648908
0.16963375 2.9802322e-08 -0.14649278
0.16963375 -0.028272219 -0.14649272
0.16963375 -0.05654458 -0.1464929
0.16963328 -0.084816635 -0.14649662
0.16963328 -0.11308888 -0.14649659
0.16963328 -0.14136101 -0.14649658
0.16963284 -0.16963276 -0.14650033
0.16963284 -0.19790497 -0.14650041
0.16963284 -0.22617719 -0.14650032
0.16963239 -0.2544485 -0.14650413
0.16963239 -0.28272063 -0.14650412
0.16963193 -0.31099188 -0.14650784
0.16963193 -0.33926386 -0.14650786
0.16963193 -0.3675358 -0.14650799
0.16963148 -0.39580673 -0.14651169
0.16963148 -0.4240787 -0.14651172
0.16963148 -0.45235056 -0.14651172
0.16963102 -0.48062122 -0.14651547
0.16963102 -0.50889301 -0.1465155
0.16963102 -0.53716493 -0.14651541
0.16963057 -0.56543517 -0.14651929
0.16963057 -0.59370697 -0.14651926
0.16963057 -0.6219787 -0.14651927
0.16963013 -0.65024877 -0.14652309
0.20519246 1.0552754 -0.094447047
0.20177464 1.0088732 -0.11885995
0.20177464 0.9800483 -0.11885986
0.20177464 0.95122331 -0.11885995
0.20177409 0.92239594 -0.11886379
0.20177409 0.89357114 -0.1188637
0.20177409 0.86474597 -0.11886388
0.20177354 0.83591902 -0.11886775
0.20177354 0.80709422 -0.11886773
0.20177354 0.77826941 -0.11886781
0.201773 0.74944246 -0.11887175
0.201773 0.72061789 -0.11887175
0.201773 0.69179308 -0.11887172
0.20177244 0.66296667 -0.11887562
0.20177244 0.63414198 -0.11887564
0.20177244 0.60531735 -0.11887561
0.20177244 0.57649267 -0.11887568
0.2017719 0.54766655 -0.11887954
0.2017719 0.51884198 -0.11887954
0.2017719 0.49001747 -0.11887959
0.20177133 0.46119162 -0.11888348
0.20177133 0.43236724 -0.11888351
0.20177133 0.4035427 -0.11888349
0.2017708 0.37471718 -0.11888742
0.2017708 0.34589279 -0.11888742
0.2017708 0.3170684 -0.11888742
0.2017708 0.28824401 -0.11888742
0.20177023 0.2594189 -0.11889136
0.20177023 0.23059452 -0.11889134
0.20177023 0.20177032 -0.11889133
0.20176969 0.1729455 -0.1188952
0.20176969 0.14412124 -0.11889533
0.20176969 0.11529703 -0.11889531
0.20176913 0.086472504 -0.11889929
0.20176913 0.057648364 -0.11889918
0.20176913 0.028824195 -0.11889921
0.20176913 -2.6077032e-08 -0.1188992
0.20176859 -0.028824035 -0.11890313
0.20176859 -0.057648085 -0.11890312
0.20176859 -0.086472094 -0.11890312
0.20176803 -0.11529606 -0.11890711
0.20176803 -0.14412002 -0.11890707
0.20176803 -0.17294402 -0.11890708
0.20176749 -0.20176747 -0.11891102
0.20176749 -0.23059142 -0.11891094
0.20176749 -0.25941533 -0.11891104
0.20176695 -0.28823841 -0.11891491
0.20176695 -0.31706226 -0.11891491
0.20176639 -0.3458851 -0.11891889
0.20176639 -0.37470895 -0.1189189
0.20176639 -0.40353274 -0.11891885
0.20176585 -0.43235528 -0.11892281
0.20176585 -0.46117899 -0.11892284
0.20176585 -0.49000275 -0.11892274
0.20176528 -0.51882499 -0.11892673
0.20176528 -0.54764855 -0.11892675
0.20176528 -0.57647228 -0.11892664
0.20176475 -0.60529417 -0.11893061
0.20176475 -0.63411772 -0.11893064
0.20176475 -0.66294122 -0.11893064
0.23518994 1.0289561 -0.090170115
0.23518994 0.99955726 -0.090170175
0.23518994 0.97015858 -0.090170175
0.23518929 0.94075733 -0.090174168
0.23518929 0.91135854 -0.090174258
0.23518929 0.88195992 -0.090174228
0.23518929 0.85256135 -0.090174139
0.23518866 0.82316023 -0.09017837
0.23518866 0.79376173 -0.090178311
0.23518866 0.76436317 -0.090178221
0.23518801 0.73496252 -0.090182334
0.23518801 0.70556402 -0.090182304
0.23518801 0.67616558 -0.090182304
0.23518735 0.64676523 -0.090186387
0.23518735 0.61736685 -0.090186447
0.23518735 0.58796841 -0.090186492
0.23518735 0.55856997 -0.090186372
0.23518668 0.5291701 -0.0901905
0.23518668 0.49977171 -0.090190604
0.23518668 0.47037339 -0.090190545
0.23518603 0.44097385 -0.090194643
0.23518603 0.41157556 -0.090194643
0.23518603 0.38217726 -0.090194643
0.23518537 0.35277811 -0.090198763
0.23518537 0.32337993 -0.090198711
0.23518537 0.29398173 -0.090198793
0.23518537 0.26458356 -0.090198725
0.23518471 0.23518482 -0.090202734
0.23518471 0.20578666 -0.090202853
0.23518471 0.17638861 -0.090202749
0.23518406 0.14699005 -0.090206906
0.23518406 0.11759205 -0.090207011
0.23518406 0.088194087 -0.090206817
0.23518343 0.058795895 -0.090210989
0.23518343 0.029397938 -0.090210959
0.23518343 7.8231096e-08 -0.090211004
0.23518343 -0.029397879 -0.090210982
0.23518276 -0.058795612 -0.090215072
0.23518276 -0.088193521 -0.090215087
0.23518276 -0.11759126 -0.090215087
0.23518211 -0.14698887 -0.09021914
0.23518211 -0.17638652 -0.090219215
0.23518211 -0.20578426 -0.090219207
0.23518145 -0.23518141 -0.090223268
0.23518145 -0.26457912 -0.090223216
0.2351808 -0.29397595 -0.090227298
0.2351808 -0.32337356 -0.090227321
0.2351808 -0.35277113 -0.090227321
0.23518014 -0.38216773 -0.090231448
0.23518014 -0.41156512 -0.090231434
0.23518014 -0.44096273 -0.090231448
0.23517948 -0.47035891 -0.090235487
0.23517948 -0.4997564 -0.090235516
0.23517948 -0.52915382 -0.090235502
0.23517883 -0.55854976 -0.090239614
0.23517883 -0.58794713 -0.090239584
0.23517883 -0.61734438 -0.090239584
0.23517819 -0.64673996 -0.090243667
0.23517819 -0.67613721 -0.090243727
0.23517819 -0.70553458 -0.090243667
0.26996264 1.0198588 -0.060314894
0.26996264 0.98986304 -0.060314953
0.26996264 0.95986712 -0.060314983
0.26996264 0.9298712 -0.060314983
0.26996186 0.89987302 -0.060319126
0.26996186 0.86987716 -0.060319155
0.26996186 0.83988142 -0.060319066
0.26996109 0.80988336 -0.060323477
0.26996109 0.77988768 -0.060323358
0.26996109 0.74989188 -0.060323477
0.26996034 0.71989429 -0.060327679
0.26996034 0.68989861 -0.060327709
0.26996034 0.65990305 -0.060327709
0.26996034 0.62990749 -0.060327679
0.26995957 0.5999102 -0.060332
0.26995957 0.56991464 -0.060331985
0.26995957 0.5399192 -0.060331911
0.26995882 0.50992221 -0.060336202
0.26995882 0.47992679 -0.060336158
0.26995882 0.44993138 -0.060336262
0.26995805 0.41993481 -0.060340419
0.26995805 0.38993946 -0.060340434
0.26995805 0.35994402 -0.060340539
0.26995805 0.32994875 -0.060340464
0.26995727 0.29995254 -0.060344756
0.26995727 0.2699573 -0.060344733
0.26995727 0.239962 -0.060344778
0.26995653 0.20996618 -0.060348958
0.26995653 0.17997101 -0.060348962
0.26995653 0.14997587 -0.060348999
0.26995575 0.11998037 -0.060353287
0.26995575 0.089985259 -0.060353197
0.26995575 0.059990168 -0.060353279
0.26995575 0.029995108 -0.060353227
0.26995498 3.3527613e-08 -0.060357571
0.26995498 -0.029994905 -0.060357466
0.26995498 -0.059990041 -0.060357507
0.2699542 -0.0899847 -0.060361732
0.2699542 -0.1199796 -0.060361668
0.2699542 -0.14997448 -0.060361773
0.26995343 -0.17996888 -0.060366072
0.26995343 -0.20996377 -0.060366012
0.26995343 -0.23995858 -0.060366012
0.26995265 -0.26995265 -0.060370296
0.26995265 -0.29994741 -0.060370266
0.26995191 -0.32994115 -0.060374513
0.26995191 -0.35993582 -0.060374558
0.26995191 -0.38993055 -0.060374483
0.26995113 -0.41992396 -0.060378745
0.26995113 -0.44991851 -0.060378805
0.26995113 -0.47991312 -0.060378775
0.26995036 -0.50990623 -0.060383052
0.26995036 -0.53990066 -0.060383067
0.26995036 -0.56989527 -0.060382962
0.26994962 -0.59988797 -0.060387313
0.26994962 -0.6298824 -0.060387254
0.26994962 -0.6598767 -0.060387284
0.26994884 -0.68986923 -0.060391545
0.26994884 -0.71986353 -0.060391545
0.30617711 0.97976667 -0.029221922
0.30617711 0.94914907 -0.029221803
0.30617711 0.9185313 -0.029221833
0.30617622 0.88791102 -0.029226273
0.30617622 0.85729349 -0.029226214
0.30617622 0.82667577 -0.029226333
0.30617532 0.79605591 -0.029230684
0.30617532 0.76543832 -0.029230714
0.30617532 0.73482084 -0.029230654
0.30617532 0.70420319 -0.029230803
0.30617443 0.67358387 -0.029235154
0.30617443 0.64296639 -0.029235095
0.30617443 0.61234891 -0.029235125
0.30617353 0.58172977 -0.029239625
0.30617353 0.55111241 -0.029239595
0.30617353 0.52049512 -0.02923952
0.30617267 0.48987627 -0.029244006
0.30617267 0.459259 -0.029243991
0.30617267 0.42864177 -0.029243991
0.30617267 0.3980245 -0.029243976
0.30617177 0.36740619 -0.029248461
0.30617177 0.33678898 -0.029248491
0.30617177 0.30617177 -0.029248536
0.30617088 0.27555382 -0.029252976
0.30617088 0.24493675 -0.029252827
0.30617088 0.21431974 -0.029252887
0.30616999 0.18370205 -0.029257394
0.30616999 0.15308507 -0.029257327
0.30616999 0.12246802 -0.029257357
0.30616999 0.091850966 -0.029257376
0.30616909 0.0612339 -0.029261798
0.30616909 0.030616928 -0.029261731
0.30616909 4.2840838e-08 -0.029261742
0.30616823 -0.030616766 -0.029266227
0.30616823 -0.061233647 -0.029266238
0.30616823 -0.091850363 -0.029266238
0.30616733 -0.12246692 -0.029270619
0.30616733 -0.15308364 -0.029270619
0.30616733 -0.18370035 -0.029270619
0.30616644 -0.21431649 -0.029275052
0.30616644 -0.24493311 -0.029275134
0.30616644 -0.27554977 -0.029275082
0.30616558 -0.30616546 -0.02927953
0.30616558 -0.33678204 -0.02927956
0.30616558 -0.36739865 -0.029279426
0.30616468 -0.39801407 -0.029283941
0.30616468 -0.42863044 -0.029283911
0.30616382 -0.45924562 -0.029288352
0.30616382 -0.48986202 -0.029288337
0.30616382 -0.52047831 -0.029288396
0.30616292 -0.5510931 -0.029292762
0.30616292 -0.58170938 -0.029292822
0.30616292 -0.61232579 -0.029292762
0.30616203 -0.64294022 -0.029297233
0.30616203 -0.67355633 -0.029297292
0.30616114 -0.70417058 -0.029301703
0.30616114 -0.73478663 -0.029301673
0.34392491 0.96924299 0.0031878054
0.34392491 0.93797696 0.0031876862
0.34392491 0.9067111 0.003187716
0.3439239 0.87544268 0.0031830966
0.3439239 0.84417683 0.0031831264
0.3439239 0.81291103 0.0031830966
0.3439239 0.78164524 0.0031831264
0.34392288 0.75037718 0.0031784475
0.34392288 0.7191115 0.0031785071
0.34392288 0.68784577 0.0031784773
0.34392187 0.65657818 0.0031738579
0.34392187 0.62531251 0.0031738877
0.34392187 0.59404683 0.0031737685
0.34392086 0.56277961 0.003169179
0.34392086 0.53151405 0.0031692386
0.34392086 0.50024849 0.0031692386
0.34392086 0.46898296 0.003169179
0.34391981 0.43771625 0.0031646341
0.34391981 0.40645069 0.0031645596
0.34391981 0.37518534 0.0031646341
0.34391883 0.34391886 0.0031600296
0.34391883 0.31265348 0.00315997
0.34391883 0.2813881 0.0031599104
0.34391782 0.25012204 0.0031554177
0.34391782 0.21885684 0.0031553805
0.34391782 0.1875916 0.0031553805
0.34391782 0.15632629 0.0031554252
0.34391677 0.12506075 0.0031507872
0.34391677 0.093795545 0.00315075
0.34391677 0.062530383 0.0031506736
0.34391576 0.031265084 0.0031461483
0.34391576 8.9639798e-08 0.0031460817
0.34391576 -0.031264994 0.0031460933
0.34391475 -0.062529989 0.0031414609
0.34391475 -0.093794905 0.0031414889
0.34391475 -0.12505981 0.003141515
0.34391373 -0.15632448 0.003136903
0.34391373 -0.18758923 0.0031369403
0.34391373 -0.21885413 0.0031367987
0.34391272 -0.25011829 0.0031322315
0.34391272 -0.28138307 0.0031322241
0.34391272 -0.31264794 0.0031322837
0.34391168 -0.34391162 0.0031275451
0.34391168 -0.37517634 0.0031276196
0.34391066 -0.40643987 0.0031230599
0.34391066 -0.43770444 0.0031229556
0.34391066 -0.46896905 0.0031229556
0.34390965 -0.5002321 0.0031183809
0.34390965 -0.53149664 0.0031184256
0.34390965 -0.56276125 0.0031183064
0.34390864 -0.594024 0.0031137168
0.34390864 -0.62528837 0.003113687
0.34390864 -0.65655279 0.0031137168
0.34390762 -0.68781519 0.0031091273
0.34390762 -0.71907949 0.0031091273
0.34390661 -0.75034165 0.0031045079
0.34390661 -0.78160596 0.0031045675
0.38330558 0.92632174 0.036999166
0.38330558 0.89437973 0.036999285
0.38330445 0.86243498 0.036994457
0.38330445 0.83049297 0.036994457
0.38330445 0.79855096 0.036994547
0.38330445 0.76660883 0.036994427
0.38330325 0.73466456 0.03698954
0.38330325 0.70272267 0.03698957
0.38330325 0.67078066 0.03698951
0.38330212 0.63883686 0.036984712
0.38330212 0.60689503 0.036984801
0.38330212 0.5749532 0.036984771
0.38330093 0.54300964 0.036979854
0.38330093 0.51106799 0.036980018
0.38330093 0.47912627 0.036979973
0.38330093 0.44718444 0.036979944
0.3832998 0.41524151 0.036975175
0.3832998 0.38329983 0.03697513
0.3832998 0.35135815 0.036975116
0.38329864 0.31941563 0.036970288
0.38329864 0.28747401 0.036970228
0.38329864 0.25553244 0.036970258
0.38329747 0.22359022 0.036965497
0.38329747 0.19164872 0.036965474
0.38329747 0.15970734 0.036965512
0.38329631 0.12776546 0.036960613
0.38329631 0.095824078 0.03696065
0.38329631 0.063882731 0.036960647
0.38329631 0.031941436 0.036960602
0.38329518 2.4214387e-08 0.036955778
0.38329518 -0.031941231 0.036955699
0.38329518 -0.063882418 0.036955874
0.38329399 -0.0958234 0.036950998
0.38329399 -0.12776464 0.036950912
0.38329399 -0.15970576 0.036951013
0.38329285 -0.1916464 0.036946163
0.38329285 -0.22358748 0.036946096
0.38329285 -0.25552857 0.036946192
0.38329169 -0.28746873 0.036941372
0.38329169 -0.31940964 0.03694132
0.38329053 -0.35134959 0.036936522
0.38329053 -0.38329047 0.036936551
0.38329053 -0.41523135 0.036936492
0.38328937 -0.44717091 0.036931634
0.38328937 -0.47911161 0.036931634
0.38328937 -0.51105249 0.036931679
0.3832882 -0.54299164 0.036926895
0.3832882 -0.57493222 0.036926806
0.3832882 -0.60687298 0.036926806
0.38328704 -0.63881171 0.036922008
0.38328704 -0.67075235 0.036922067
0.38328704 -0.70269281 0.036922008
0.38328591 -0.73463118 0.03691718
0.38328591 -0.76657164 0.03691712
0.38328591 -0.79851216 0.03691718
0.42442739 0.91415131 0.07230562
0.42442739 0.88150305 0.072305709
0.42442739 0.84885478 0.072305709
0.42442608 0.81620395 0.072300613
0.42442608 0.78355587 0.072300643
0.42442608 0.75090778 0.072300673
0.42442477 0.71825731 0.072295606
0.42442477 0.68560922 0.072295576
0.42442477 0.65296113 0.072295547
0.42442346 0.6203112 0.07229054
0.42442346 0.58766317 0.07229048
0.42442346 0.55501533 0.072290555
0.42442214 0.52236569 0.072285473
0.42442214 0.4897179 0.072285503
0.42442214 0.45707005 0.072285488
0.42442214 0.4244222 0.072285563
0.42442083 0.39177313 0.072280422
0.42442083 0.35912535 0.072280481
0.42442083 0.32647762 0.072280481
0.42441952 0.2938289 0.072275341
0.42441952 0.26118129 0.072275385
0.42441952 0.22853355 0.072275385
0.42441818 0.19588539 0.072270423
0.42441818 0.16323785 0.072270393
0.42441818 0.13059026 0.072270453
0.42441818 0.097942725 0.072270431
0.42441687 0.065294951 0.072265275
0.42441687 0.032647505 0.072265334
0.42441687 1.4901161e-07 0.072265327
0.42441556 -0.03264726 0.072260328
0.42441556 -0.065294616 0.07226032
0.42441556 -0.097941965 0.072260305
0.42441431 -0.13058895 0.072255254
0.42441431 -0.16323622 0.072255157
0.42441431 -0.19588348 0.072255239
0.424413 -0.22853005 0.072250307
0.424413 -0.26117715 0.072250217
0.42441168 -0.29382348 0.072245225
0.42441168 -0.32647038 0.072245158
0.42441168 -0.35911748 0.072245076
0.42441034 -0.39176333 0.07224007
0.42441034 -0.42441034 0.072240114
0.42441034 -0.45705718 0.072240099
0.42440903 -0.48970264 0.072235033
0.42440903 -0.52234948 0.072235063
0.42440903 -0.55499637 0.072235063
0.42440772 -0.58764142 0.072229996
0.42440772 -0.62028813 0.072230041
0.42440772 -0.65293491 0.07223013
0.42440641 -0.68557948 0.072224945
0.42440641 -0.71822608 0.072224915
0.42440641 -0.75087285 0.072225004
0.4244051 -0.78351706 0.072219908
0.4244051 -0.81616366 0.072219938
0.46740839 0.86804414 0.10920829
0.46740839 0.83465779 0.10920835
0.46740693 0.80126899 0.10920304
0.46740693 0.76788282 0.1092031
0.46740693 0.73449659 0.10920313
0.46740544 0.70110822 0.10919788
0.46740544 0.66772205 0.10919783
0.46740544 0.63433605 0.10919783
0.46740398 0.60094798 0.10919258
0.46740398 0.56756204 0.10919252
0.46740398 0.53417599 0.10919252
0.46740398 0.50078994 0.10919255
0.46740252 0.46740252 0.10918726
0.46740252 0.43401659 0.10918729
0.46740252 0.40063071 0.1091873
0.46740103 0.36724371 0.10918197
0.46740103 0.33385789 0.1091821
0.46740103 0.30047208 0.10918207
0.46739957 0.26708546 0.10917672
0.46739957 0.23369984 0.10917682
0.46739957 0.2003141 0.10917671
0.46739957 0.16692837 0.10917674
0.46739808 0.13354225 0.10917145
0.46739808 0.10015681 0.10917155
0.46739808 0.066771254 0.10917145
0.46739662 0.03338556 0.10916626
0.46739662 7.4505806e-08 0.10916625
0.46739662 -0.033385411 0.10916623
0.46739513 -0.066770762 0.10916089
0.46739513 -0.10015608 0.10916089
0.46739513 -0.13354148 0.10916096
0.46739367 -0.16692622 0.1091556
0.46739367 -0.20031147 0.10915568
0.46739215 -0.23369597 0.10915041
0.46739215 -0.26708114 0.10915041
0.46739215 -0.30046636 0.10915033
0.46739072 -0.33385044 0.10914518
0.46739072 -0.36723548 0.1091451
0.46739072 -0.40062046 0.10914513
0.4673892 -0.43400419 0.10913986
0.4673892 -0.4673892 0.10913984
0.4673892 -0.50077403 0.10913983
0.46738774 -0.5341574 0.10913447
0.46738774 -0.5675422 0.10913463
0.46738774 -0.600927 0.10913455
0.46738625 -0.63430989 0.10912931
0.46738625 -0.66769463 0.1091294
0.46738625 -0.70107937 0.10912934
0.46738479 -0.73446178 0.10912409
0.46738479 -0.76784635 0.10912406
0.46738479 -0.80123091 0.10912398
0.46738333 -0.83461308 0.10911876
0.51237768 0.85396278 0.14781812
0.51237768 0.81980419 0.14781815
0.51237601 0.78564322 0.14781263
0.51237601 0.75148475 0.1478126
0.51237601 0.7173264 0.14781272
0.51237434 0.68316585 0.14780715
0.51237434 0.64900756 0.14780715
0.51237434 0.61484921 0.14780703
0.51237434 0.58069098 0.14780711
0.51237267 0.54653084 0.14780158
0.51237267 0.51237279 0.14780167
0.51237267 0.47821462 0.14780171
0.51237106 0.4440549 0.14779599
0.51237106 0.40989685 0.14779605
0.51237106 0.37573886 0.14779614
0.51236939 0.34157962 0.14779049
0.51236939 0.30742165 0.14779064
0.51236939 0.27326375 0.14779061
0.51236939 0.23910576 0.14779064
0.51236773 0.20494714 0.14778508
0.51236773 0.17078933 0.14778511
0.51236773 0.1366315 0.14778502
0.51236606 0.10247328 0.14777958
0.51236606 0.068315521 0.14777958
0.51236606 0.034157768 0.14777958
0.51236445 7.4505806e-08 0.147774
0.51236445 -0.034157608 0.1477741
0.51236445 -0.068315201 0.1477741
0.51236272 -0.10247247 0.14776847
0.51236272 -0.13663006 0.14776847
0.51236272 -0.17078756 0.14776841
0.51236111 -0.20494433 0.147763
0.51236111 -0.23910175 0.147763
0.51235944 -0.27325836 0.14775743
0.51235944 -0.3074156 0.14775747
0.51235944 -0.34157294 0.14775741
0.51235783 -0.37572896 0.14775196
0.51235783 -0.40988612 0.14775191
0.51235783 -0.4440434 0.14775196
0.5123561 -0.47819898 0.14774641
0.5123561 -0.51235604 0.14774644
0.5123561 -0.54651314 0.14774649
0.51235449 -0.58066833 0.14774089
0.51235449 -0.61482531 0.14774092
0.51235449 -0.64898229 0.14774087
0.51235282 -0.683137 0.14773536
0.51235282 -0.71729392 0.14773536
0.51235282 -0.75145072 0.14773539
0.51235116 -0.78560507 0.14772987
0.51235116 -0.81976187 0.14772987
0.51234949 -0.85391587 0.14772439
0.51234949 -0.88807249 0.14772439
0.55947638 0.80424738 0.18825626
0.55947453 0.76927751 0.1882506
0.55947453 0.73431033 0.18825054
0.55947453 0.69934309 0.18825039
0.55947262 0.66437382 0.18824472
0.55947262 0.62940675 0.18824472
0.55947262 0.59443974 0.18824467
0.55947262 0.55947274 0.18824476
0.55947083 0.52450395 0.18823899
0.55947083 0.48953706 0.18823899
0.55947083 0.45457003 0.18823883
0.55946892 0.41960174 0.18823309
0.55946892 0.38463485 0.18823309
0.55946892 0.34966815 0.18823311
0.55946714 0.31470034 0.18822731
0.55946714 0.2797336 0.18822733
0.55946714 0.24476688 0.18822734
0.55946714 0.20980015 0.18822734
0.55946523 0.17483294 0.1882215
0.55946523 0.13986629 0.1882216
0.55946523 0.10489966 0.18822153
0.55946338 0.069932953 0.18821572
0.55946338 0.034966566 0.18821576
0.55946338 7.4505806e-09 0.18821579
0.55946153 -0.034966379 0.18821001
0.55946153 -0.069932669 0.18820997
0.55946153 -0.10489905 0.18821
0.55945969 -0.13986492 0.18820424
0.55945969 -0.17483106 0.18820423
0.55945784 -0.20979668 0.1881984
0.55945784 -0.24476279 0.18819839
0.55945784 -0.27972886 0.18819845
0.55945599 -0.31469396 0.18819267
0.55945599 -0.34965992 0.18819267
0.55945599 -0.38462588 0.18819264
0.55945414 -0.41959047 0.18818688
0.55945414 -0.45455644 0.18818688
0.55945414 -0.4895224 0.18818685
0.5594523 -0.52448654 0.18818118
0.5594523 -0.55945224 0.18818104
0.5594523 -0.59441811 0.18818118
0.55945045 -0.62938166 0.1881752
0.55945045 -0.66434735 0.18817529
0.55945045 -0.6993131 0.18817534
0.5594486 -0.73427612 0.18816942
0.5594486 -0.76924181 0.18816951
0.55944675 -0.80420458 0.18816367
0.55944675 -0.8391701 0.18816373
0.55944675 -0.87413555 0.18816376
0.5594449 -0.90909785 0.18815792
0.60885942 0.78793567 0.23065558
0.60885733 0.75211799 0.23064962
0.60885733 0.71630281 0.23064959
0.60885733 0.68048763 0.23064952
0.60885733 0.64467251 0.23064958
0.60885531 0.60885537 0.23064356
0.60885531 0.57304019 0.23064347
0.60885531 0.53722525 0.23064351
0.60885322 0.50140852 0.23063739
0.60885322 0.46559364 0.23063743
0.60885322 0.42977875 0.2306374
0.60885113 0.39396253 0.23063132
0.60885113 0.35814786 0.2306315
0.60885113 0.32233298 0.23063134
0.60884911 0.28651723 0.2306253
0.60884911 0.25070256 0.23062527
0.60884911 0.21488804 0.2306253
0.60884911 0.1790733 0.23062533
0.60884702 0.14325817 0.23061925
0.60884702 0.10744369 0.23061921
0.60884702 0.071629137 0.23061925
0.60884494 0.035814434 0.23061311
0.60884494 3.7252903e-08 0.23061317
0.60884494 -0.035814352 0.23061323
0.60884297 -0.071628548 0.23060714
0.60884297 -0.10744286 0.23060712
0.60884297 -0.14325717 0.23060709
0.60884088 -0.17907086 0.23060104
0.60884088 -0.21488498 0.23060103
0.6088388 -0.25069827 0.23059492
0.6088388 -0.28651229 0.23059499
0.6088388 -0.32232645 0.23059498
0.60883677 -0.35813922 0.23058891
0.60883677 -0.39395317 0.2305889
0.60883677 -0.42976707 0.23058882
0.60883468 -0.46557942 0.23058289
0.60883468 -0.5013932 0.23058289
0.60883468 -0.53720707 0.23058283
0.6088326 -0.57301885 0.2305768
0.6088326 -0.60883254 0.23057675
0.6088326 -0.64464629 0.23057686
0.60883057 -0.68045759 0.23057063
0.60883057 -0.71627134 0.23057073
0.60882849 -0.75208205 0.23056461
0.60882849 -0.78789556 0.23056459
0.60882849 -0.82370901 0.23056462
0.6088264 -0.8595196 0.23055854
0.6088264 -0.89533299 0.23055869
0.6088264 -0.93114626 0.2305586
0.6606949 0.73410547 0.27515626
0.6606949 0.69740015 0.2751562
0.6606949 0.66069496 0.2751562
0.6606949 0.6239897 0.27515626
0.66069257 0.58728236 0.27514988
0.66069257 0.55057728 0.27514994
0.66069257 0.51387209 0.27514991
0.66069031 0.47716528 0.27514359
0.66069031 0.44046023 0.27514347
0.66069031 0.40375531 0.27514356
0.66068798 0.36704898 0.27513713
0.66068798 0.33034402 0.27513704
0.66068798 0.29363912 0.2751371
0.66068798 0.25693426 0.27513716
0.66068572 0.22022863 0.27513075
0.66068572 0.18352388 0.27513081
0.66068572 0.14681913 0.27513072
0.66068339 0.11011393 0.27512425
0.66068339 0.073409341 0.27512437
0.66068339 0.036704689 0.27512437
0.66068113 -0 0.27511793
0.66068113 -0.036704496 0.27511796
0.66068113 -0.073408999 0.27511796
0.66067886 -0.11011302 0.27511162
0.66067886 -0.14681751 0.27511162
0.66067886 -0.18352184 0.27511165
0.66067654 -0.22022544 0.27510521
0.66067654 -0.25692976 0.27510524
0.66067654 -0.293634 0.27510521
0.66067427 -0.33033717 0.27509889
0.66067427 -0.36704117 0.27509895
0.66067195 -0.40374401 0.27509248
0.66067195 -0.4404479 0.27509248
0.66067195 -0.4771519 0.27509251
0.66066962 -0.51385421 0.2750861
0.66066962 -0.55055803 0.27508616
0.66066962 -0.58726192 0.27508616
0.66066736 -0.62396359 0.27507979
0.66066736 -0.6606673 0.27507979
0.66066736 -0.69737113 0.27507985
0.66066504 -0.73407233 0.27507353
0.66066504 -0.77077591 0.27507344
0.66066277 -0.80747664 0.275067
0.66066277 -0.84418017 0.275067
0.66066277 -0.88088363 0.275067
0.66066051 -0.91758394 0.27506059
0.66066051 -0.95428717 0.27506056
0.71517736 0.7151773 0.32193825
0.71517479 0.6775341 0.32193169
0.71517479 0.63989329 0.32193157
0.71517479 0.60225248 0.32193154
0.71517223 0.56460965 0.32192481
0.71517223 0.52696902 0.32192484
0.71517223 0.48932841 0.32192484
0.71516967 0.45168611 0.32191813
0.71516967 0.41404551 0.3219181
0.71516967 0.37640515 0.32191822
0.71516967 0.33876461 0.32191822
0.71516716 0.30112299 0.32191148
0.71516716 0.26348266 0.32191142
0.71516716 0.2258423 0.32191139
0.7151646 0.18820126 0.32190484
0.7151646 0.15056095 0.32190472
0.7151646 0.11292079 0.32190484
0.71516204 0.075280219 0.32189801
0.71516204 0.037640154 0.32189804
0.71516204 -0 0.3218981
0.71515954 -0.037639916 0.32189137
0.71515954 -0.075279891 0.32189131
0.71515954 -0.11291996 0.32189131
0.71515697 -0.15055937 0.32188463
0.71515697 -0.18819916 0.32188457
0.71515697 -0.22583897 0.32188469
0.71515447 -0.26347789 0.32187799
0.71515447 -0.30111769 0.32187796
0.71515185 -0.33875614 0.32187122
0.71515185 -0.37639564 0.32187119
0.71515185 -0.41403535 0.32187125
0.71514934 -0.45167324 0.32186449
0.71514934 -0.48931262 0.32186452
0.71514934 -0.52695209 0.32186452
0.71514678 -0.56458956 0.32185784
0.71514678 -0.60222882 0.32185775
0.71514678 -0.63986814 0.32185781
0.71514422 -0.67750502 0.32185116
0.71514422 -0.71514428 0.32185119
0.71514422 -0.75278342 0.32185119
0.71514165 -0.7904197 0.32184446
0.71514165 -0.82805884 0.32184446
0.71513915 -0.86569476 0.32183778
0.71513915 -0.90333366 0.32183778
0.71513915 -0.94097251 0.32183778
0.71513659 -0.97860789 0.32183096
0.71513659 -1.0162467 0.32183102
0.77250439 0.65662873 0.37115353
0.77250439 0.61800355 0.37115365
0.77250439 0.57937825 0.37115353
0.77250159 0.5407511 0.37114656
0.77250159 0.5021261 0.37114656
0.77250159 0.46350101 0.37114653
0.77249873 0.42487428 0.37113944
0.77249873 0.38624942 0.37113941
0.77249873 0.34762454 0.37113956
0.77249873 0.30899954 0.37113944
0.77249587 0.27037361 0.37113246
0.77249587 0.2317488 0.3711324
0.77249587 0.19312404 0.3711324
0.77249306 0.15449873 0.37112537
0.77249306 0.11587398 0.3711254
0.77249306 0.077249318 0.37112534
0.77249026 0.03862451 0.37111834
0.77249026 2.9802322e-08 0.37111831
0.77249026 -0.03862448 0.37111843
0.77248746 -0.077248693 0.37111121
0.77248746 -0.11587311 0.37111124
0.77248746 -0.15449743 0.37111121
0.7724846 -0.19312114 0.37110421
0.7724846 -0.2317453 0.37110418
0.7724818 -0.27036861 0.37109712
0.7724818 -0.30899268 0.37109718
0.7724818 -0.34761682 0.37109718
0.77247894 -0.38623953 0.37109005
0.77247894 -0.42486334 0.37109008
0.77247894 -0.46348733 0.37109005
0.77247614 -0.50210953 0.37108299
0.77247614 -0.54073334 0.37108302
0.77247614 -0.57935703 0.37108293
0.77247334 -0.61797863 0.37107599
0.77247334 -0.6566022 0.37107593
0.77247334 -0.69522607 0.37107596
0.77247047 -0.73384702 0.37106887
0.77247047 -0.77247047 0.37106887
0.77247047 -0.81109405 0.37106887
0.77246767 -0.84971446 0.37106186
0.77246767 -0.88833773 0.37106177
0.77246487 -0.92695779 0.37105483
0.77246487 -0.96558106 0.37105483
0.77246487 -1.0042042 0.37105474
0.83291322 0.63460058 0.42301947
0.83291322 0.59493798 0.42301935
0.83291322 0.55527556 0.42301935
0.83291012 0.51561105 0.42301193
0.83291012 0.47594863 0.42301202
0.83291012 0.43628621 0.42301193
0.83291012 0.39662385 0.42301199
0.83290702 0.35696024 0.4230046
0.83290702 0.317298 0.42300454
0.83290702 0.27763581 0.4230046
0.83290386 0.23797259 0.42299718
0.83290386 0.19831043 0.42299706
0.83290386 0.15864843 0.42299712
0.83290076 0.11898597 0.42298967
0.83290076 0.079323888 0.42298961
0.83290076 0.039661974 0.42298958
0.83289766 1.0430813e-07 0.42298213
0.83289766 -0.039661735 0.42298219
0.83289766 -0.07932356 0.42298225
0.83289444 -0.11898483 0.42297474
0.83289444 -0.15864651 0.42297482
0.83289135 -0.19830745 0.42296731
0.83289135 -0.23796892 0.42296726
0.83289135 -0.27763045 0.42296731
0.83288825 -0.31729069 0.42295986
0.83288825 -0.3569521 0.42295989
0.83288825 -0.39661336 0.42295992
0.83288515 -0.4362731 0.42295235
0.83288515 -0.47593424 0.42295247
0.83288515 -0.5155955 0.42295247
0.83288199 -0.5552547 0.42294505
0.83288199 -0.59491563 0.42294499
0.83288199 -0.63457674 0.42294502
0.83287889 -0.67423528 0.42293751
0.83287889 -0.71389616 0.4229376
0.83287889 -0.75355691 0.42293751
0.83287579 -0.79321492 0.42293012
0.83287579 -0.83287561 0.42293003
0.89665633 0.61135662 0.47774801
0.89665633 0.5705995 0.47774798
0.89665633 0.5298425 0.47774798
0.89665282 0.48908347 0.47774011
0.89665282 0.44832647 0.47774005
0.89665282 0.40756962 0.47774008
0.89665282 0.3668125 0.47774005
0.89664948 0.32605439 0.47773212
0.89664948 0.28529748 0.47773218
0.89664948 0.24454066 0.47773215
0.89664596 0.20378327 0.47772431
0.89664596 0.16302663 0.47772431
0.89664596 0.12227005 0.4777244
0.89664251 0.081512973 0.47771642
0.89664251 0.040756434 0.47771648
0.89664251 2.9802322e-08 0.47771642
0.89663905 -0.04075636 0.47770864
0.89663905 -0.081512585 0.47770858
0.89663553 -0.12226847 0.47770065
0.89663553 -0.1630246 0.47770071
0.89663553 -0.20378076 0.47770071
0.89663208 -0.24453597 0.4776929
0.89663208 -0.28529203 0.47769299
