# .PCD v0.7 - Point Cloud Data file format
VERSION 0.7
FIELDS x y z
SIZE 4 4 4
TYPE F F F
COUNT 1 1 1
WIDTH 1382
HEIGHT 1
VIEWPOINT 0 0 0 1 0 0 0
POINTS 1382
DATA ascii
-0.78445697 0.43145129 0.40103501
-0.74470991 0.37235501 0.30166751
-0.70879406 0.31895727 0.21187776
-0.67618746 0.270475 0.1303613
-0.64644694 0.22625647 0.056009956
-0.61921233 0.18576376 -0.012076519
-0.59417975 0.14854495 -0.074658111
-0.57109249 0.11421852 -0.13237627
-0.54973221 0.082459889 -0.1857768
-0.52991223 0.052991204 -0.23532686
-0.51147163 0.025573686 -0.28142822
-0.49641773 7.4505806e-08 -0.31906301
-0.51376665 -0.025688313 -0.27569076
-0.53237337 -0.053237267 -0.2291739
-0.55237848 -0.082856737 -0.1791611
-0.57394576 -0.1147891 -0.12524289
-0.59726572 -0.14931649 -0.066943139
-0.62256086 -0.18676817 -0.0037052482
-0.65009338 -0.22753263 0.065126032
-0.68017381 -0.27206951 0.14032708
-0.71317291 -0.32092774 0.22282502
-0.74952936 -0.37476468 0.31371602
-0.78979164 -0.43438536 0.41437182
-0.83462507 -0.50077504 0.52645528
-0.8848511 -0.57515311 0.65202045
-0.85590464 0.63066655 0.69227326
-0.80646604 0.55179262 0.5621717
-0.76242971 0.48153451 0.44628659
-0.72295356 0.4185521 0.34240204
-0.68736404 0.36177051 0.24874526
-0.65511405 0.31031728 0.16387711
-0.62575477 0.26347572 0.086615667
-0.59891409 0.22065264 0.015982345
-0.57428128 0.18135196 -0.04884091
-0.55159467 0.14515646 -0.10854254
-0.53063238 0.11171216 -0.16370641
-0.51120502 0.08071661 -0.21483111
-0.49314991 0.051910542 -0.26234442
-0.4763267 0.025069833 -0.30661607
-0.46257859 4.4703484e-08 -0.34279519
-0.47842625 -0.025180325 -0.30109084
-0.49539831 -0.052147105 -0.25642759
-0.51361883 -0.081097692 -0.20847888
-0.53322935 -0.11225878 -0.15687226
-0.5543983 -0.14589426 -0.10116434
-0.5773176 -0.18231076 -0.040850408
-0.60221362 -0.22186813 0.024665467
-0.62935364 -0.26499102 0.096086524
-0.65905535 -0.31218407 0.17424889
-0.69169939 -0.3640523 0.26015428
-0.72773522 -0.42132029 0.35498536
-0.76773512 -0.48488528 0.46024835
-0.81238461 -0.55584198 0.57774699
-0.86255193 -0.63556463 0.70976633
-0.83241922 0.69368279 0.75216836
-0.7831375 0.60910702 0.61527449
-0.7393648 0.53398573 0.49368387
-0.7002238 0.46681589 0.38495886
-0.66502094 0.40640178 0.28717306
-0.63318819 0.35177121 0.19874871
-0.60426372 0.30213189 0.11840298
-0.57786644 0.2568295 0.045077041
-0.55367887 0.21531957 -0.022110522
-0.53143483 0.177145 -0.083899565
-0.51090902 0.1419192 -0.14091557
-0.49190986 0.10931332 -0.19369119
-0.47427303 0.079045534 -0.24268229
-0.4578571 0.050873056 -0.28828198
-0.4425396 0.024585545 -0.33083063
-0.43000939 5.9604645e-08 -0.36563683
-0.4444555 -0.024691939 -0.32550865
-0.45990604 -0.051100664 -0.28259051
-0.47646943 -0.079411574 -0.23658112
-0.49427047 -0.10983783 -0.18713376
-0.51345325 -0.14262582 -0.13384828
-0.53418511 -0.17806163 -0.076259777
-0.55666161 -0.21647945 -0.013824984
-0.58111268 -0.25827223 0.054094568
-0.60780847 -0.30390424 0.12824939
-0.63707721 -0.35393178 0.20955162
-0.66930276 -0.40901825 0.2990669
-0.70495951 -0.46997306 0.39811346
-0.7446292 -0.53778774 0.50830716
-0.78902656 -0.61368728 0.63163298
-0.83905751 -0.69921452 0.77060771
-0.80765063 0.76014173 0.81533569
-0.75860834 0.6693604 0.67109364
-0.71518099 0.58897257 0.54336613
-0.67645401 0.51728833 0.42946318
-0.64170796 0.4529703 0.32726899
-0.61035699 0.39493689 0.23506017
-0.58192664 0.34230983 0.15144163
-0.556027 0.29436728 0.07526619
-0.53233457 0.25051045 0.0055824667
-0.51057863 0.21023826 -0.058405541
-0.49053121 0.17312872 -0.11736844
-0.47199857 0.13882314 -0.17187622
-0.4548153 0.10701539 -0.22241524
-0.43883923 0.077442266 -0.26940373
-0.42394745 0.049876243 -0.3132031
-0.41003317 0.024119645 -0.35412741
-0.39863989 7.4505806e-08 -0.38763714
-0.41177738 -0.02422215 -0.34899744
-0.42581031 -0.050095275 -0.30772406
-0.44083342 -0.077794075 -0.26353854
-0.45695534 -0.10751887 -0.21612096
-0.47430128 -0.13950026 -0.16510364
-0.49301606 -0.17400563 -0.11006011
-0.51326841 -0.21134573 -0.050494522
-0.53525585 -0.25188506 0.014174484
-0.55921143 -0.29605305 0.084632121
-0.58541173 -0.34435979 0.16169186
-0.61418784 -0.39741558 0.24632743
-0.64592987 -0.45595053 0.33968645
-0.68113434 -0.52086735 0.44322878
-0.72039729 -0.59326828 0.55870813
-0.76446044 -0.67452383 0.68830556
-0.81426871 -0.76637059 0.8348006
-0.78149438 0.83033782 0.88206255
-0.73278725 0.73278725 0.72985286
-0.68979818 0.64668572 0.59551173
-0.65157348 0.57012677 0.47605973
-0.61736047 0.50160533 0.36914408
-0.58656317 0.43992248 0.27290261
-0.55869257 0.38410112 0.18580696
-0.53335035 0.3333441 0.10661262
-0.51020747 0.28699169 0.034291074
-0.48898944 0.24449477 -0.032015257
-0.46946573 0.20539133 -0.093026802
-0.45144126 0.16929045 -0.14935344
-0.4347496 0.13585934 -0.20151478
-0.41924825 0.10481212 -0.2499565
-0.40481427 0.075902715 -0.29506269
-0.39134112 0.048917711 -0.33716637
-0.3787359 0.023671016 -0.37655765
-0.36840585 8.9406967e-08 -0.40883905
-0.38032031 -0.023769975 -0.37160635
-0.39303115 -0.049128816 -0.33188492
-0.40662104 -0.076241404 -0.28941667
-0.42118433 -0.10529604 -0.24390626
-0.43682843 -0.13650887 -0.19501843
-0.45368078 -0.17013018 -0.14235494
-0.47188556 -0.20644982 -0.085465051
-0.49161237 -0.24580613 -0.02381853
-0.51306051 -0.28859645 0.043206774
-0.53646553 -0.33529091 0.11634737
-0.56210804 -0.38644919 0.19648014
-0.59032285 -0.44274208 0.28465158
-0.62151295 -0.50497913 0.38212064
-0.65618539 -0.57416224 0.49047199
-0.69495207 -0.65151757 0.61161792
-0.73859018 -0.73859018 0.74798697
-0.7880758 -0.83733046 0.90262949
-0.75382262 0.90458703 0.95263451
-0.70557249 0.79964882 0.7918008
-0.6631248 0.70733315 0.65030849
-0.62549704 0.62549692 0.52488279
-0.59191024 0.55244958 0.41292679
-0.56174469 0.48684549 0.31237483
-0.53450638 0.42760515 0.22158065
-0.5097875 0.37384421 0.13918424
-0.48725384 0.32483593 0.064072073
-0.4666279 0.27997679 -0.0046810657
-0.44767728 0.23876119 -0.067849696
-0.43020585 0.20076279 -0.12608786
-0.41404688 0.16561881 -0.179951
-0.39905787 0.13301931 -0.2299144
-0.38511622 0.10269768 -0.27638662
-0.37211579 0.074423179 -0.31972137
-0.35996443 0.047995314 -0.36022586
-0.34858233 0.023238838 -0.39816621
-0.33924514 4.4703484e-08 -0.42929024
-0.35001543 -0.023334295 -0.39338923
-0.36149204 -0.048198894 -0.35513392
-0.37374672 -0.074749306 -0.31428492
-0.38686147 -0.10316302 -0.27056918
-0.40093008 -0.13364334 -0.22367381
-0.41606054 -0.16642411 -0.17323898
-0.43237776 -0.2017763 -0.11884807
-0.45002586 -0.24001375 -0.060021222
-0.46917731 -0.2815063 0.0038169473
-0.49003121 -0.32668737 0.073329993
-0.51282519 -0.37607178 0.1493099
-0.53784317 -0.43027455 0.23270322
-0.56542122 -0.49003169 0.32463005
-0.59598029 -0.55624825 0.42649364
-0.63003135 -0.63003135 0.5399971
-0.66820633 -0.7127533 0.667247
-0.71130913 -0.8061502 0.81092298
-0.76035243 -0.9124229 0.97440058
-0.72450393 0.98325527 1.0274066
-0.67684126 0.8702246 0.85718298
-0.63506269 0.77114755 0.70797354
-0.59813946 0.68358797 0.576105
-0.56527591 0.60565281 0.45873538
-0.53583562 0.53583562 0.35359129
-0.50930828 0.47292912 0.25885087
-0.48528522 0.41595885 0.17305432
-0.46342635 0.36412072 0.094986796
-0.44345179 0.31675136 0.023648992
-0.42512792 0.27329651 -0.041793376
-0.40825829 0.23329052 -0.10204189
-0.39267641 0.19633819 -0.15769163
-0.37824115 0.16210341 -0.20924601
-0.36482871 0.13029595 -0.25714767
-0.35233489 0.10066711 -0.30176851
-0.34066847 0.073000431 -0.3434343
-0.32974985 0.047107175 -0.3824293
-0.31950942 0.022822097 -0.41900235
-0.31110302 1.4901161e-08 -0.44902527
-0.32080141 -0.02291432 -0.414388
-0.33112469 -0.047303468 -0.37751916
-0.34213448 -0.073314458 -0.33819854
-0.35390157 -0.1011147 -0.29617316
-0.3665069 -0.13089524 -0.25115407
-0.38004339 -0.16287567 -0.20280951
-0.39461812 -0.19730909 -0.15075687
-0.4103553 -0.23448876 -0.094552606
-0.42739984 -0.27475703 -0.033679418
-0.44592163 -0.31851542 0.032469869
-0.46612146 -0.36623821 0.1046121
-0.48823816 -0.41848984 0.18360049
-0.51255649 -0.47594529 0.27045155
-0.5394184 -0.53941834 0.36638686
-0.56925374 -0.60991466 0.47294173
-0.60258025 -0.68866307 0.59196502
-0.64005435 -0.77720886 0.72580117
-0.68249857 -0.87749815 0.87738752
-0.73096818 -0.9920283 1.0504934
-0.69339037 1.0667545 1.1067787
-0.64646697 0.94483644 0.92630404
-0.6054945 0.83837718 0.76871777
-0.56940609 0.74460804 0.62991613
-0.53737551 0.6613853 0.5067215
-0.50875843 0.58702898 0.39665592
-0.48303524 0.52019179 0.29772031
-0.45978642 0.45978636 0.20830192
-0.43867421 0.40493011 0.1271012
-0.41941571 0.35489029 0.053030074
-0.40177712 0.30905932 -0.01481086
-0.38556325 0.26692837 -0.077171765
-0.37060627 0.22806543 -0.1346986
-0.3567664 0.192105 -0.1879289
-0.343923 0.15873373 -0.23732655
-0.33197218 0.12768164 -0.28329134
-0.320824 0.098715134 -0.32616889
-0.31040025 0.071630836 -0.36626029
-0.30063251 0.046251178 -0.40382838
-0.29146078 0.022420064 -0.43910432
-0.28392571 2.9802322e-08 -0.46808541
-0.29262102 -0.022509292 -0.4346419
-0.30186576 -0.04644081 -0.39908528
-0.31171367 -0.071933925 -0.36120868
-0.32222503 -0.099146158 -0.32078019
-0.33347091 -0.12825797 -0.277527
-0.34553009 -0.15947536 -0.23114546
-0.35849422 -0.19303529 -0.18128344
-0.37246907 -0.22921166 -0.12753408
-0.38757765 -0.26832294 -0.069424167
-0.40396374 -0.31074131 -0.0064005852
-0.42179659 -0.35690472 0.06218721
-0.44127658 -0.40733218 0.13711026
-0.46264297 -0.46264297 0.21928874
-0.48618034 -0.52357888 0.30981708
-0.51223725 -0.59104288 0.41003588
-0.54124749 -0.66615075 0.52161372
-0.57373852 -0.75027341 0.64657938
-0.61038232 -0.84514475 0.78751695
-0.65202314 -0.95295686 0.9476738
-0.61430442 1.0238408 0.99949443
-0.57429898 0.9093067 0.83280498
-0.53918552 0.80877835 0.68649912
-0.50811845 0.71983445 0.55705273
-0.4804346 0.64057946 0.44170332
-0.45561311 0.56951642 0.33828056
-0.4332304 0.50543541 0.24501926
-0.41294387 0.44735593 0.16049215
-0.39447227 0.39447224 0.083527043
-0.3775824 0.34611726 0.013152689
-0.36207953 0.30173299 -0.05144269
-0.34779945 0.26084965 -0.11094291
-0.33460304 0.22306877 -0.16592799
-0.32237142 0.18804999 -0.21689311
-0.31100252 0.15550131 -0.26426339
-0.30040821 0.12517016 -0.30840641
-0.29051191 0.096837386 -0.34964103
-0.28124684 0.07031171 -0.38824552
-0.27255446 0.045425817 -0.42446375
-0.26438329 0.022032008 -0.45851028
-0.25766513 2.9802322e-08 -0.48650271
-0.2654191 -0.022118241 -0.45419446
-0.27365422 -0.045609072 -0.41988137
-0.28241676 -0.070604175 -0.38337085
-0.29175901 -0.09725298 -0.34444472
-0.3017405 -0.12572518 -0.30285525
-0.31242913 -0.15621454 -0.25831926
-0.32390201 -0.18894285 -0.21051568
-0.33625048 -0.22416694 -0.1590637
-0.34957784 -0.26218331 -0.10353298
-0.36400524 -0.30333763 -0.043418854
-0.37967479 -0.34803522 0.021870941
-0.39675409 -0.39675403 0.0930347
-0.41544235 -0.45006254 0.17090258
-0.4359782 -0.50864112 0.25646853
-0.45864323 -0.573304 0.35090607
-0.48379582 -0.64506114 0.45570865
-0.51186532 -0.72514242 0.57266474
-0.54339486 -0.81509215 0.70403773
-0.57906359 -0.91685075 0.85265768
-0.6197409 -1.0329014 1.0221465
-0.58019388 1.1076428 1.0771375
-0.54133791 0.98425078 0.90051961
-0.50736189 0.87635249 0.7460832
-0.47739893 0.78119826 0.60988778
-0.45077583 0.6966536 0.48887378
-0.42696688 0.62104279 0.38065118
-0.40554681 0.55301839 0.28328717
-0.38617325 0.49149331 0.19522563
-0.36856633 0.43557835 0.11519408
-0.3524949 0.38453996 0.042142183
-0.3377665 0.3377665 -0.024805084
-0.32421955 0.29474503 -0.086382195
-0.31171736 0.25504154 -0.14321023
-0.30014357 0.21828625 -0.1958185
-0.28939846 0.18416266 -0.2446599
-0.27939609 0.15239792 -0.29012519
-0.27006206 0.12275554 -0.33255258
-0.2613315 0.095029682 -0.37223688
-0.25314775 0.069040328 -0.40943569
-0.245461 0.044629276 -0.44437546
-0.23822732 0.021657094 -0.47725591
-0.23227564 5.9604645e-08 -0.50430906
-0.2391462 -0.021740511 -0.47307926
-0.24643561 -0.044806406 -0.43994549
-0.25418338 -0.069322705 -0.40472841
-0.2624341 -0.095430493 -0.36722505
-0.27123845 -0.12329013 -0.32720527
-0.28065404 -0.15308399 -0.2844072
-0.29074684 -0.18502073 -0.23853071
-0.30159265 -0.21934003 -0.18923172
-0.31327894 -0.25631911 -0.13611214
-0.32590741 -0.29627943 -0.078709938
-0.33959681 -0.33959675 -0.016485587
-0.35448551 -0.38671145 0.051190406
-0.3707408 -0.4381482 0.12507805
-0.38855851 -0.49452901 0.20606783
-0.40817246 -0.55659878 0.29522216
-0.42987028 -0.62526584 0.39384854
-0.4540045 -0.70164329 0.50354928
-0.48100778 -0.78710353 0.62629163
-0.51142865 -0.88337666 0.76456845
-0.5459547 -0.99264467 0.92150468
-0.50645947 1.0635649 0.97219008
-0.47380427 0.94760847 0.80891383
-0.44510692 0.84570312 0.66542721
-0.41968733 0.7554372 0.53832924
-0.39701274 0.67492175 0.42495644
-0.37666401 0.60266244 0.32321274
-0.35829952 0.5374493 0.23139021
-0.34164253 0.4782995 0.14810525
-0.32646549 0.4244051 0.072219878
-0.31257948 0.37509549 0.0027901381
-0.29982659 0.32980928 -0.060974449
-0.28807348 0.28807351 -0.11973994
-0.27720708 0.24948645 -0.17407195
-0.26713064 0.21370457 -0.22445408
-0.25776109 0.18043283 -0.2713019
-0.24902651 0.14941594 -0.31497478
-0.2408645 0.12043229 -0.35578483
-0.23322056 0.093288273 -0.39400452
-0.22604683 0.067814097 -0.42987317
-0.21930128 0.043860316 -0.46360093
-0.21294665 0.021294698 -0.49537414
-0.207715 5.9604645e-08 -0.52153236
-0.21375594 -0.021375567 -0.4913277
-0.22015876 -0.044031695 -0.45931351
-0.22695656 -0.068086892 -0.42532459
-0.23418801 -0.093675166 -0.38916743
-0.24189545 -0.1209477 -0.35063016
-0.25012749 -0.15007639 -0.30947
-0.25893953 -0.18125756 -0.26540962
-0.26839522 -0.21471612 -0.21813136
-0.27856761 -0.25071082 -0.16726941
-0.28954145 -0.28954139 -0.11240005
-0.30141538 -0.33155683 -0.053030476
-0.31430486 -0.3771657 0.011416838
-0.32834592 -0.42684966 0.081622243
-0.34370023 -0.48118031 0.15839382
-0.36055976 -0.54083949 0.24269129
-0.37915587 -0.60664928 0.33567199
-0.39977455 -0.67961669 0.43876532
-0.42276466 -0.76097643 0.553716
-0.44855845 -0.85226101 0.68268484
-0.4777064 -0.95541263 0.82842451
-0.51090324 -1.0728966 0.99440873
-0.43836892 1.0228608 0.87527549
-0.41111854 0.91359669 0.72388428
-0.38705933 0.8171252 0.5902223
-0.36566043 0.7313208 0.47133943
-0.34650242 0.6545046 0.36490601
-0.32925311 0.58533883 0.26907635
-0.3136397 0.52273291 0.18233548
-0.29944009 0.46579579 0.10344869
-0.2864705 0.41379079 0.031395465
-0.27457777 0.36610371 -0.03467533
-0.26363313 0.32221833 -0.09547884
-0.25352755 0.28169727 -0.15162098
-0.2441681 0.24416816 -0.20361781
-0.23547509 0.20931119 -0.25191239
-0.2273798 0.17685099 -0.29688627
-0.2198226 0.14654842 -0.33887061
-0.2127516 0.11819537 -0.37815398
-0.20612133 0.091609538 -0.41498888
-0.19989182 0.066630602 -0.4495973
-0.1940278 0.043117344 -0.48217511
-0.18849841 0.020944327 -0.51289403
-0.18394248 2.9802322e-08 -0.53820479
-0.18920369 -0.021022558 -0.50897563
-0.19477476 -0.043283284 -0.47802538
-0.20068386 -0.066894606 -0.44519699
-0.20696272 -0.091983363 -0.4103145
-0.21364714 -0.11869283 -0.37317881
-0.22077778 -0.14718515 -0.3335641
-0.22840084 -0.17764503 -0.29121393
-0.23656853 -0.21028313 -0.24583767
-0.2453427 -0.24534273 -0.19709235
-0.25479278 -0.28310305 -0.14459187
-0.26500005 -0.32388884 -0.087884918
-0.27605924 -0.36807895 -0.026444912
-0.28808174 -0.416118 0.040346667
-0.30119905 -0.46853179 0.11322054
-0.31556788 -0.52594644 0.19304752
-0.33137521 -0.58911151 0.28086609
-0.34884581 -0.65893096 0.37792504
-0.36826256 -0.736525 0.48579562
-0.38996655 -0.82326275 0.60637355
-0.41439086 -0.92086869 0.7420643
-0.4420791 -1.0315177 0.89588767
-0.40088919 1.1024454 0.94545007
-0.37529811 0.98515749 0.78550565
-0.35277671 0.8819418 0.64474714
-0.33280662 0.79041559 0.51993382
-0.3149763 0.7086966 0.40849447
-0.29895836 0.63528651 0.30838227
-0.28449166 0.56898344 0.21796551
-0.27136046 0.5088008 0.13589542
-0.25938797 0.45392895 0.061067373
-0.24842727 0.40369427 -0.0074369758
-0.23835534 0.35753307 -0.07038644
-0.22906826 0.31496888 -0.12843068
-0.22047776 0.27559724 -0.18212132
-0.21250832 0.23907188 -0.23193046
-0.20509489 0.20509493 -0.2782644
-0.19818124 0.17340866 -0.32147455
-0.19171895 0.14378923 -0.36186385
-0.1856644 0.11604027 -0.39970481
-0.17998055 0.089990318 -0.43522891
-0.17463437 0.065487891 -0.46864253
-0.16959664 0.042399168 -0.50012839
-0.1648414 0.020605206 -0.52984864
-0.16092113 2.9802322e-08 -0.55435026
-0.16544913 -0.020681113 -0.52605027
-0.17023931 -0.042559803 -0.49611163
-0.17531516 -0.065743119 -0.46438766
-0.18070297 -0.090351477 -0.43071374
-0.18643245 -0.11652024 -0.39490452
-0.19253714 -0.14440283 -0.35675025
-0.19905518 -0.17417321 -0.3160125
-0.20602997 -0.20602997 -0.27241996
-0.21351132 -0.24020024 -0.22566159
-0.22155647 -0.27694553 -0.17537944
-0.23023099 -0.3165676 -0.1211637
-0.23961316 -0.35941976 -0.062525153
-0.24979246 -0.40591273 0.0010954887
-0.26087499 -0.45653117 0.070361406
-0.27298662 -0.51184988 0.14605902
-0.28627759 -0.57255512 0.2291276
-0.30092579 -0.63946724 0.32067883
-0.3171539 -0.71359617 0.42210448
-0.33523199 -0.79617596 0.53509259
-0.35549414 -0.88873523 0.66173083
-0.37836489 -0.99320799 0.80467331
-0.33748969 1.0606818 0.85053325
-0.3167116 0.95013499 0.70211864
-0.29834247 0.85240698 0.57091004
-0.28198835 0.76539707 0.45409521
-0.26733401 0.68743038 0.34942126
-0.25412667 0.61716473 0.25508311
-0.24216369 0.55351704 0.1696333
-0.23127636 0.4955923 0.091866791
-0.22132589 0.44265181 0.020791873
-0.21219631 0.39407885 -0.044419438
-0.20379008 0.34935445 -0.10446393
-0.19602451 0.30803856 -0.15993237
-0.18882902 0.26975572 -0.21132863
-0.18214354 0.23418453 -0.25908205
-0.17591484 0.20104557 -0.30357274
-0.17009807 0.1700981 -0.34512112
-0.16465364 0.14113177 -0.38400978
-0.15954696 0.11396216 -0.42048627
-0.15474749 0.088427126 -0.45476812
-0.15022834 0.064383611 -0.48704773
-0.14596567 0.041704506 -0.51749539
-0.14193821 0.020276934 -0.54626298
-0.13861619 5.9604645e-08 -0.56999177
-0.14245424 -0.020350575 -0.54257715
-0.14651085 -0.041860223 -0.51360118
-0.150805 -0.064630702 -0.48292881
-0.15535876 -0.088776425 -0.45040184
-0.16019613 -0.11442575 -0.41584927
-0.1653444 -0.14172374 -0.37907591
-0.17083456 -0.17083451 -0.33986047
-0.17670184 -0.20194493 -0.2979514
-0.18298648 -0.23526829 -0.25306115
-0.18973465 -0.27104947 -0.20485994
-0.19699959 -0.3095707 -0.15296745
-0.20484301 -0.35115939 -0.096942902
-0.21333694 -0.39619708 -0.036272198
-0.22256571 -0.44513142 0.029647782
-0.23262833 -0.4984892 0.10152352
-0.24364473 -0.55690229 0.18021218
-0.25575638 -0.62112266 0.26672405
-0.26913127 -0.69205189 0.36225897
-0.28398335 -0.7708118 0.46834505
-0.30056915 -0.85876894 0.58681512
-0.31921384 -0.95764154 0.71999156
-0.34032467 -1.0695918 0.87078309
-0.27871829 1.0219672 0.76254523
-0.26214769 0.91751707 0.62445682
-0.24743587 0.82478631 0.50185823
-0.23428844 0.74191344 0.39229628
-0.22246692 0.66740072 0.29378361
-0.21178176 0.60004824 0.20474041
-0.20207596 0.53886926 0.12385894
-0.19322082 0.48305205 0.050066084
-0.1851097 0.43192267 -0.017526507
-0.17765166 0.38491201 -0.079676896
-0.17077129 0.3415426 -0.13701332
-0.16440399 0.30140737 -0.19007409
-0.15849444 0.26415747 -0.23932023
-0.15299501 0.22949252 -0.28514892
-0.1478644 0.19715255 -0.32790399
-0.14306675 0.1669112 -0.36788452
-0.13857064 0.13857062 -0.40535206
-0.1343485 0.11195715 -0.44053644
-0.13037607 0.086917445 -0.47364017
-0.12663178 0.063315958 -0.50484246
-0.12309656 0.041032255 -0.53430265
-0.11975338 0.019958943 -0.56216252
-0.11699418 5.9604645e-08 -0.5851559
-0.12018258 -0.020030439 -0.55858588
-0.12354963 -0.041183174 -0.53052711
-0.12711078 -0.0635553 -0.50085086
-0.13088332 -0.087255493 -0.46941298
-0.13488664 -0.11240551 -0.43605202
-0.13914259 -0.13914251 -0.4005858
-0.14367552 -0.16762146 -0.36281133
-0.14851409 -0.19801876 -0.32248989
-0.15368992 -0.23053485 -0.27935794
-0.15923955 -0.26539925 -0.23311117
-0.16520496 -0.3028757 -0.18339938
-0.17163473 -0.34326938 -0.1298179
-0.17858525 -0.38693473 -0.071896881
-0.18612248 -0.4342857 -0.0090866685
-0.19432396 -0.4858098 0.059258863
-0.20328154 -0.54208404 0.13390553
-0.21310486 -0.60379714 0.21576661
-0.2239242 -0.67177254 0.30592772
-0.23589915 -0.74701381 0.40571892
-0.24922822 -0.8307606 0.5167945
-0.26415271 -0.9245342 0.64116484
-0.28097966 -1.0302587 0.78138983
-0.23863961 1.0977422 0.82628864
-0.22408615 0.98597908 0.68075407
-0.2112049 0.88706064 0.55194169
-0.19972484 0.79889935 0.43714091
-0.18942842 0.71982801 0.33417684
-0.18014097 0.6485076 0.24130242
-0.17172278 0.58385748 0.15712048
-0.16405573 0.5249784 0.080450073
-0.15704407 0.47113222 0.010333285
-0.15060718 0.42170015 -0.0540355
-0.14467719 0.37616077 -0.11333541
-0.13919647 0.33407152 -0.1681426
-0.13411586 0.29505491 -0.21894884
-0.12939306 0.25878605 -0.26617685
-0.12499156 0.22498484 -0.31019169
-0.12087966 0.19340745 -0.35131073
-0.11702968 0.16384161 -0.3898105
-0.11341738 0.1361009 -0.42593357
-0.1100214 0.11002143 -0.45989338
-0.10682287 0.085458338 -0.49187863
-0.10380507 0.062283039 -0.5220567
-0.10095309 0.040381253 -0.55057657
-0.098253623 0.019650787 -0.57757109
-0.096024476 -0 -0.59986258
-0.098600864 -0.019720107 -0.57409871
-0.10131932 -0.040527701 -0.54691422
-0.10419191 -0.062515065 -0.51818824
-0.10723215 -0.085785717 -0.48778594
-0.11045513 -0.11045511 -0.45555604
-0.11387788 -0.13665347 -0.42132863
-0.11751952 -0.16452733 -0.38491219
-0.12140176 -0.19424286 -0.34608972
-0.12554927 -0.22598866 -0.30461466
-0.12999019 -0.25998032 -0.26020548
-0.13475646 -0.2964642 -0.21254276
-0.13988592 -0.3357262 -0.16124821
-0.14542133 -0.37809545 -0.10589401
-0.15141287 -0.42395607 -0.045978546
-0.15791938 -0.4737581 0.019086361
-0.16501015 -0.52803242 0.089994177
-0.17276764 -0.58740991 0.16756912
-0.18129051 -0.65264589 0.25279772
-0.19069514 -0.7246415 0.34684402
-0.20112967 -0.8045187 0.45118952
-0.21277225 -0.89364338 0.56761515
-0.22584455 -0.99371594 0.69833815
-0.24062936 -1.106895 0.84618616
-0.18401098 1.0580633 0.74002999
-0.17317079 0.95243937 0.60452759
-0.16353612 0.8585645 0.48409393
-0.1549176 0.77458799 0.3763625
-0.14716201 0.69901955 0.27941763
-0.14014591 0.6306566 0.19171649
-0.13376839 0.56851566 0.1119975
-0.12794602 0.51178408 0.039217934
-0.12260937 0.45978516 -0.027490214
-0.11770008 0.41195035 -0.088856295
-0.11316879 0.3677986 -0.1454975
-0.10897346 0.32692036 -0.1979391
-0.10507806 0.28896469 -0.24663153
-0.10145155 0.25362891 -0.29196295
-0.098067001 0.22065079 -0.33426976
-0.094900995 0.18980199 -0.37384492
-0.091933019 0.16088276 -0.41094464
-0.089145049 0.13371764 -0.44579422
-0.086521201 0.10815153 -0.47859231
-0.084047399 0.084047377 -0.50951487
-0.081711128 0.06128335 -0.53871828
-0.079501219 0.039750665 -0.56634212
-0.077407703 0.019351929 -0.592511
-0.075678147 5.9604645e-08 -0.6141305
-0.077677667 -0.019419402 -0.58913648
-0.079785705 -0.039892823 -0.56278598
-0.0820112 -0.061508387 -0.5349673
-0.084364586 -0.084364563 -0.50555009
-0.086857013 -0.1085712 -0.47439474
-0.089501195 -0.13425174 -0.44134238
-0.092311427 -0.16154498 -0.40621442
-0.095303863 -0.19060773 -0.3688091
-0.098496802 -0.22161782 -0.3288973
-0.10191111 -0.2547777 -0.28621849
-0.10557061 -0.29031917 -0.24047472
-0.10950273 -0.3285082 -0.19132328
-0.11373908 -0.36965191 -0.13836876
-0.11831643 -0.41410744 -0.081152037
-0.12327728 -0.46228975 -0.019141465
-0.12867272 -0.51469082 0.048301697
-0.13456208 -0.5718888 0.12191854
-0.14101639 -0.6345737 0.20259756
-0.14812055 -0.70357269 0.29139963
-0.15597676 -0.77988362 0.38960207
-0.16471365 -0.86474657 0.4988133
-0.17448668 -0.95967674 0.62097609
-0.18549341 -1.0665871 0.7585603
-0.13319382 1.0211525 0.65978944
-0.12560542 0.92110646 0.53331637
-0.11883464 0.83184254 0.42046997
-0.11275687 0.75171256 0.31917399
-0.10727056 0.67938018 0.22773527
-0.10229336 0.61376011 0.14478192
-0.097757548 0.55395949 0.069185093
-0.093606904 0.49923682 7.6591969e-06
-0.08979436 0.44897181 -0.063534662
-0.086280234 0.40264115 -0.12210344
-0.083030798 0.3598001 -0.17626071
-0.080017239 0.32006902 -0.22648668
-0.077214763 0.28312084 -0.27319452
-0.074601948 0.24867322 -0.31674141
-0.072160177 0.21648063 -0.35743761
-0.069873184 0.1863285 -0.3955543
-0.067726701 0.15802898 -0.43132901
-0.065708168 0.1314164 -0.46497124
-0.063806467 0.10634416 -0.49666625
-0.062011749 0.082682341 -0.52657819
-0.060315236 0.060315281 -0.55485344
-0.05870907 0.03913942 -0.58162284
-0.057186332 0.019062191 -0.60700178
-0.055927508 -0 -0.62798226
-0.057382986 -0.019127667 -0.60372424
-0.058916245 -0.039277464 -0.57816994
-0.060533684 -0.060533673 -0.55121255
-0.062242441 -0.082989872 -0.52273327
-0.064050473 -0.10675079 -0.49259943
-0.065966688 -0.13193335 -0.46066245
-0.06800095 -0.15866882 -0.42675823
-0.070164822 -0.18710616 -0.39069366
-0.072470933 -0.21741273 -0.3522585
-0.074933782 -0.24977922 -0.3112109
-0.077569924 -0.28442308 -0.2672753
-0.080398299 -0.32159311 -0.22013575
-0.083440736 -0.3615765 -0.16942835
-0.086722501 -0.40470499 -0.11473235
-0.09027297 -0.45136487 -0.055557847
-0.094126575 -0.50200832 0.0086688548
-0.098323852 -0.55716848 0.078623578
-0.10291294 -0.61747766 0.15510832
-0.107951 -0.68368948 0.23907591
-0.11350691 -0.75671262 0.3316744
-0.11966574 -0.83766019 0.43432164
-0.12653127 -0.92789602 0.54874724
-0.13423197 -1.0291117 0.67709208
-0.09112218 1.0934659 0.71794683
-0.085802644 0.98673034 0.58495867
-0.081069939 0.89176941 0.46664113
-0.076831765 0.80673355 0.36068666
-0.073014945 0.73014951 0.26526636
-0.069559403 0.6608144 0.17887768
-0.066416159 0.59774542 0.10029671
-0.063544706 0.54013002 0.028510243
-0.060911253 0.48729008 -0.037325993
-0.058487389 0.43865544 -0.097922593
-0.056249049 0.39374331 -0.15388116
-0.054175716 0.35214221 -0.20571442
-0.0522498 0.31349882 -0.25386235
-0.05045611 0.27750868 -0.29870453
-0.048781488 0.2439075 -0.34057015
-0.047214452 0.21246499 -0.37974608
-0.045744963 0.18297987 -0.41648334
-0.04436418 0.15527469 -0.45100281
-0.043064319 0.12919296 -0.48349947
-0.041838452 0.10459621 -0.51414597
-0.040680528 0.081361145 -0.54309416
-0.039584897 0.059377342 -0.57048494
-0.038546734 0.038546771 -0.59643906
-0.037561633 0.018780857 -0.62106657
-0.03674693 5.9604645e-08 -0.64143413
-0.037689086 -0.018844485 -0.61788011
-0.038680833 -0.038680792 -0.59308654
-0.039726183 -0.059589237 -0.56695288
-0.040829599 -0.081659153 -0.53936738
-0.041996062 -0.10499011 -0.51020575
-0.043231141 -0.12969336 -0.47932887
-0.044541061 -0.15589362 -0.44658083
-0.045932844 -0.18373133 -0.41178626
-0.047414415 -0.21336481 -0.37474698
-0.048994742 -0.24497372 -0.33523872
-0.050683934 -0.27876166 -0.29300901
-0.052493885 -0.31496328 -0.24776019
-0.054437894 -0.35384628 -0.19915998
-0.056531426 -0.39571995 -0.14682168
-0.05879242 -0.44094312 -0.090296865
-0.061241806 -0.48993438 -0.029062137
-0.063904159 -0.54318529 0.037496641
-0.066808507 -0.60127664 0.11010541
-0.069989428 -0.66489947 0.18962826
-0.073488139 -0.7348814 0.27709597
-0.077354193 -0.81221902 0.3737475
-0.081649922 -0.89814913 0.48114073
-0.086450472 -0.99418026 0.60115433
-0.091851167 -1.1022139 0.73617172
-0.043986417 1.0556738 0.63921338
-0.041502316 0.95455319 0.51500833
-0.03928379 0.86424339 0.40408212
-0.037290283 0.78309602 0.30440679
-0.035489451 0.70978892 0.21436504
-0.033854537 0.64323616 0.13261944
-0.032363623 0.58254528 0.058073789
-0.030998485 0.52697432 -0.010183096
-0.029743852 0.47590169 -0.072914705
-0.028586829 0.42880255 -0.13076581
-0.027516454 0.38523036 -0.18428469
-0.026523339 0.34480345 -0.23394036
-0.025599414 0.30719301 -0.28013664
-0.02473769 0.27211469 -0.32322276
-0.023932094 0.23932099 -0.36350265
-0.023177359 0.20859623 -0.4012394
-0.022468727 0.17974985 -0.43667099
-0.02180214 0.152615 -0.47000027
-0.021173967 0.12704375 -0.50140899
-0.020580979 0.10290493 -0.53105849
-0.020020299 0.080081254 -0.55909246
-0.019489355 0.058468103 -0.58563948
-0.018985849 0.037971735 -0.61081487
-0.018507702 0.018507689 -0.63472223
-0.01811211 2.9802322e-08 -0.6545018
-0.018569719 -0.018569708 -0.63162148
-0.019051047 -0.038102061 -0.60755497
-0.019557955 -0.058673859 -0.58220959
-0.020092616 -0.080370426 -0.55547649
-0.020657331 -0.10328665 -0.52724075
-0.021254707 -0.12752816 -0.49737206
-0.021887662 -0.15321365 -0.46572426
-0.022559471 -0.18047571 -0.43213376
-0.023273828 -0.20946437 -0.39641595
-0.024034904 -0.24034901 -0.35836208
-0.024847439 -0.27332175 -0.31773537
-0.025716834 -0.30860198 -0.27426559
-0.026649278 -0.34644055 -0.22764358
-0.027651876 -0.38712627 -0.17751352
-0.028732788 -0.43099183 -0.12346794
-0.029901728 -0.47842765 -0.065020829
-0.031169815 -0.52988678 -0.0016166568
-0.032550219 -0.58590388 0.067403674
-0.034058556 -0.64711249 0.14282042
-0.035713475 -0.71426934 0.22556639
-0.037537165 -0.78828031 0.31675094
-0.039556835 -0.8702504 0.41773444
-0.041806366 -0.96154642 0.53021097
-0.044326987 -1.0638477 0.65624201
0 1.020407 0.56574059
0 0.92440844 0.44947618
0 0.83836269 0.34526259
0 0.76080406 0.251331
0 0.69053328 0.16622567
0 0.62656891 0.08875832
0 0.5680989 0.017944962
0 0.51444411 -0.047036454
0 0.46503347 -0.10687786
0 0.41938242 -0.16216597
0 0.3770777 -0.21340141
0 0.33776426 -0.26101401
0 0.30113649 -0.30537188
0 0.26692694 -0.34680337
0 0.23490427 -0.38558611
0 0.20486538 -0.42196643
0 0.17663148 -0.4561606
0 0.15004461 -0.48836011
0 0.12496474 -0.51873451
0 0.10126734 -0.54743457
0 0.078841001 -0.57459515
0 0.057586312 -0.60033691
0 0.037413627 -0.62476814
0 0.018356651 -0.64227664
0 -0 -0.64227664
0 -0.018356502 -0.64227831
0 -0.037540346 -0.6215986
0 -0.057786196 -0.5970028
0 -0.079121932 -0.57108319
0 -0.10163774 -0.5437299
0 -0.12543435 -0.51482052
0 -0.15062407 -0.48422062
0 -0.17733352 -0.45177272
0 -0.20570406 -0.41730684
0 -0.23589568 -0.38062868
0 -0.26808962 -0.34151798
0 -0.30249184 -0.29972446
0 -0.33933759 -0.25496256
0 -0.37889689 -0.20690399
0 -0.42148083 -0.15517105
0 -0.4674502 -0.099325255
0 -0.51722538 -0.038856015
0 -0.57129765 0.026830882
0 -0.63025248 0.098451734
0 -0.69477999 0.17684284
0 -0.76570988 0.26301169
0 -0.84403253 0.35814857
0 -0.93098319 0.46376911
0 -1.0280668 0.5816983
0.043582454 1.0895615 0.61901534
0.041142505 0.9874202 0.49701792
0.038961269 0.89610922 0.3879562
0.036999546 0.81399 0.28986987
0.035226017 0.73974633 0.20119333
0.033614732 0.67229462 0.12062919
0.032144405 0.6107437 0.047112972
0.030797314 0.55435169 -0.020241678
0.029558674 0.50249749 -0.082173735
0.028415734 0.45465171 -0.13932064
0.027357895 0.4103685 -0.19221263
0.026375987 0.36926389 -0.24130797
0.025462124 0.33100763 -0.28700116
0.024609463 0.29531369 -0.32963407
0.023812063 0.2619327 -0.36950421
0.023064712 0.23064718 -0.40687174
0.022362847 0.20126565 -0.44196504
0.021702437 0.17361952 -0.47498554
0.021079913 0.14755937 -0.50611174
0.020492107 0.12295271 -0.53550196
0.019936193 0.09968102 -0.56329769
0.019409645 0.077638656 -0.58962512
0.018910194 0.056730568 -0.61459768
0.018901909 0.037803888 -0.61501193
0.018901875 0.018901944 -0.6150136
0.018901875 -0 -0.61501366
0.018901842 -0.018901825 -0.61501527
0.018901806 -0.03780359 -0.61501706
0.018975008 -0.056925058 -0.61135691
0.019477861 -0.077911407 -0.58621424
0.020008095 -0.10004042 -0.55970263
0.020568 -0.12340795 -0.53170729
0.021160146 -0.148121 -0.50210005
0.021787399 -0.17429915 -0.47073737
0.022452975 -0.20207672 -0.43745863
0.023160497 -0.23160492 -0.40208253
0.023914006 -0.26305401 -0.36440709
0.024718251 -0.29661894 -0.32419482
0.025578473 -0.3325201 -0.28118375
0.026500726 -0.37101015 -0.235071
0.027491974 -0.41237956 -0.1855087
0.028560255 -0.45696408 -0.13209455
0.029714918 -0.50515348 -0.074361533
0.030966876 -0.5574038 -0.011763513
0.032328971 -0.61425036 0.056341261
0.033816405 -0.676328 0.13071281
0.035447311 -0.74439353 0.21225823
0.037243236 -0.8193512 0.30205458
0.039230566 -0.90230298 0.40142083
0.0414421 -0.99461031 0.51199758
0.043917689 -1.0979422 0.63577712
0.084278844 1.0534856 0.54686368
0.079708271 0.95649934 0.43259943
0.075607933 0.86949122 0.33009091
0.071908571 0.79099429 0.23760691
0.06855455 0.71982282 0.15375644
0.065499671 0.65499675 0.077384472
0.062705256 0.59570003 0.0075240433
0.060139515 0.54125559 -0.05661951
0.05777549 0.49109173 -0.11572003
0.055590287 0.44472229 -0.17035016
0.053564362 0.40173277 -0.22099823
0.051680911 0.36176646 -0.26808453
0.049925413 0.32451516 -0.31197205
0.048285257 0.28971156 -0.35297585
0.046749443 0.25712198 -0.39137131
0.045308311 0.22654156 -0.42739961
0.043953378 0.19779019 -0.46127295
0.042677123 0.17070854 -0.4931792
0.041472901 0.14515521 -0.52328485
0.040334769 0.12100433 -0.55173814
0.039257433 0.098143607 -0.57867146
0.038961183 0.077922404 -0.58607781
0.038961183 0.058441848 -0.58607781
0.038961109 0.038961142 -0.5860796
0.038961109 0.019480586 -0.5860796
0.038961038 5.9604645e-08 -0.58608139
0.038960963 -0.019480497 -0.58608317
0.038960896 -0.038960874 -0.58608496
0.038960822 -0.058441192 -0.58608675
0.038960751 -0.07792145 -0.58608854
0.039397046 -0.098492578 -0.57518125
0.040482007 -0.12144595 -0.5480572
0.041628417 -0.14569941 -0.5193969
0.042841651 -0.17136657 -0.48906609
0.044127721 -0.19857469 -0.45691428
0.045493402 -0.22746694 -0.42277229
0.04694631 -0.25820461 -0.38644961
0.04849508 -0.29097044 -0.34773034
0.05014953 -0.3259719 -0.3063691
0.051920719 -0.36344498 -0.26208931
0.053821739 -0.40366298 -0.21456391
0.055867255 -0.44693798 -0.16342598
0.0580744 -0.49363229 -0.10824743
0.060463108 -0.544168 -0.04852967
0.063056752 -0.59903896 0.016311407
0.065882884 -0.65882874 0.086964756
0.068974227 -0.72422934 0.16424841
0.072369963 -0.7960695 0.24914163
0.076116271 -0.875337 0.34279934
0.080271915 -0.9632628 0.44669038
0.084907532 -1.061344 0.56258082
0.12236664 1.019722 0.47933665
0.115932 0.92745602 0.37209269
0.1101403 0.84440899 0.27556425
0.10489973 0.76926476 0.1882216
0.10013523 0.70094669 0.10881302
0.095784709 0.63856483 0.036304504
0.09179648 0.58137774 -0.030165911
0.088127099 0.52876258 -0.091322377
0.084739797 0.48019227 -0.14777736
0.081603251 0.43521738 -0.20005319
0.078690603 0.39345303 -0.24859726
0.075978711 0.35456732 -0.2937955
0.073447511 0.31827259 -0.33598214
0.07107953 0.28431815 -0.37544852
0.068859458 0.25248468 -0.41244969
0.066773877 0.22257963 -0.44720936
0.064810917 0.19443281 -0.47992533
0.062960066 0.16789351 -0.51077288
0.061211996 0.14282808 -0.5399074
0.060287479 0.12057503 -0.55531597
0.060287479 0.10047917 -0.55531609
0.060287364 0.080383241 -0.55531788
0.060287364 0.060287446 -0.55531794
0.060287252 0.040191531 -0.55531991
0.060287252 0.020095795 -0.55531991
0.060287133 5.9604645e-08 -0.55532175
0.060287017 -0.020095646 -0.55532372
0.060286906 -0.040191233 -0.55532557
0.060286786 -0.060286731 -0.55532753
0.060286678 -0.080382183 -0.55532944
0.060286559 -0.10047761 -0.55533135
0.060286447 -0.12057285 -0.55533326
0.061438195 -0.14335577 -0.53613734
0.063199148 -0.16853106 -0.50678819
0.06506402 -0.19519201 -0.47570699
0.067042291 -0.22347422 -0.44273582
0.069144644 -0.25353026 -0.40769666
0.071383111 -0.28553236 -0.3703889
0.073771358 -0.31967589 -0.33058462
0.076324955 -0.35618308 -0.28802481
0.079061665 -0.39530826 -0.24241295
0.082001932 -0.43734363 -0.19340841
0.085169345 -0.48262632 -0.14061822
0.08859127 -0.53154767 -0.083586082
0.092299424 -0.5845629 -0.02178371
0.096331842 -0.64221221 0.045423359
0.10073269 -0.70512885 0.11877093
0.10555491 -0.77406919 0.199141
0.11086162 -0.84993911 0.28758648
0.11672889 -0.9338311 0.38537425
0.12325238 -1.0271032 0.49409914
0.16707477 1.0859859 0.52832717
0.15808888 0.98805559 0.41600373
0.15002078 0.90012479 0.3151525
0.14273621 0.82073325 0.22409526
0.13612631 0.74869466 0.14147142
0.1301015 0.68303299 0.066161484
0.12458739 0.62293696 -0.0027649403
0.11952169 0.5677281 -0.066086113
0.11485185 0.51683336 -0.12445934
0.11053319 0.46976599 -0.17844257
0.10652753 0.42611015 -0.2285132
0.10280205 0.38550776 -0.27508166
0.099328347 0.34764925 -0.31850308
0.096081711 0.31226557 -0.35908592
0.093040608 0.27912188 -0.39709979
0.090186104 0.24801178 -0.4327811
0.087501533 0.21875392 -0.46633816
0.084972173 0.19118746 -0.49795514
0.083004758 0.16600953 -0.52254784
0.083004758 0.14525832 -0.52254796
0.083004758 0.12450716 -0.52254796
0.083004594 0.10375579 -0.52254993
0.083004594 0.083004624 -0.52254993
0.08300443 0.062253386 -0.52255195
0.08300443 0.041502282 -0.52255195
0.083004266 0.020751074 -0.52255404
0.083004266 5.9604645e-08 -0.52255398
0.083004102 -0.020750985 -0.52255613
0.083003946 -0.041501954 -0.52255809
0.08300361 -0.062252715 -0.52256221
0.083003446 -0.083003402 -0.52256423
0.08300329 -0.1037541 -0.5225662
0.083003126 -0.12450463 -0.52256823
0.083002962 -0.14525518 -0.52257025
0.083002798 -0.16600558 -0.52257228
0.085299134 -0.19192299 -0.49386811
0.087847747 -0.21961933 -0.46201044
0.090553537 -0.24902223 -0.42818812
0.093431309 -0.28029394 -0.39221603
0.09649799 -0.31361851 -0.35388243
0.099772826 -0.3492049 -0.31294701
0.10327774 -0.38729149 -0.26913565
0.10703786 -0.42815143 -0.2221341
0.11108212 -0.47209895 -0.17158079
0.11544401 -0.51949799 -0.11705725
0.12016244 -0.57077152 -0.058076799
0.12528302 -0.62641513 0.0059305429
0.13085945 -0.68701196 0.075635672
0.13695498 -0.75325227 0.15182972
0.1436466 -0.82596791 0.23547497
0.15102409 -0.9061445 0.32769376
0.15920042 -0.99500251 0.42989767
0.16831271 -1.0940328 0.54380172
0.20220718 1.0514774 0.46196452
0.1916593 0.95829648 0.35648561
0.18215793 0.87435806 0.26147199
0.17355411 0.79834884 0.17543367
0.16572639 0.72919607 0.097156465
0.1585743 0.66601199 0.02563554
0.15201399 0.60805595 -0.039967567
0.1459749 0.55470467 -0.10035825
0.14039733 0.50543046 -0.1561341
0.13523029 0.45978302 -0.20780441
0.13043009 0.41737634 -0.25580654
0.12595898 0.37787697 -0.30051765
0.12178423 0.34099591 -0.34226504
0.11787736 0.30648118 -0.38133377
0.11421335 0.27411205 -0.41797385
0.11077027 0.2436946 -0.45240474
0.10752869 0.21505739 -0.48482049
0.10725369 0.19305667 -0.48757046
0.10725369 0.17160594 -0.48757046
0.10725348 0.15015486 -0.48757264
0.10725348 0.12870421 -0.48757261
0.10725325 0.10725324 -0.48757479
0.10725325 0.085802674 -0.48757482
0.10725304 0.064351857 -0.48757696
0.10725304 0.042901292 -0.48757696
0.10725304 0.021450594 -0.48757696
0.10725282 5.9604645e-08 -0.48757914
0.1072526 -0.021450475 -0.48758131
0.10725238 -0.04290098 -0.48758352
0.10725216 -0.064351261 -0.48758566
0.10725195 -0.085801512 -0.48758784
0.10725173 -0.10725167 -0.48759001
0.10725129 -0.12870152 -0.48759443
0.10725109 -0.15015149 -0.48759657
0.10725086 -0.1716014 -0.48759872
0.10725065 -0.19305113 -0.48760089
0.1079478 -0.21589556 -0.48062927
0.11121462 -0.24467215 -0.44796118
0.11468532 -0.27524471 -0.41325417
0.11837963 -0.30778694 -0.37631106
0.12231986 -0.34249553 -0.3369087
0.12653112 -0.37959331 -0.29479617
0.13104303 -0.41933757 -0.24967714
0.13588861 -0.46202123 -0.20122139
0.14110628 -0.50798255 -0.14904459
0.14674065 -0.55761445 -0.092700914
0.15284368 -0.61137474 -0.03167057
0.15947641 -0.66980088 0.034656763
0.16671091 -0.7335279 0.10700172
0.17463298 -0.80331159 0.18622243
0.18334489 -0.88005537 0.27334145
0.19296953 -0.96484756 0.36958787
0.20366144 -1.0590395 0.47650707
0.23517475 1.0190907 0.39968219
0.22326665 0.93027776 0.30044818
0.2125064 0.85002565 0.21077934
0.2027356 0.77715313 0.12935603
0.19382383 0.71068734 0.055091143
0.18566254 0.6498189 -0.012919575
0.17816077 0.59386921 -0.075434297
0.17124167 0.54226536 -0.13309334
0.16483991 0.4945198 -0.18644135
0.15889956 0.45021552 -0.2359443
0.15337247 0.40899318 -0.28200352
0.14821695 0.37054241 -0.32496622
0.14339675 0.33459246 -0.36513445
0.13888019 0.30090714 -0.40277246
0.13463975 0.26927957 -0.43810931
0.1331946 0.24419008 -0.45015252
0.1331946 0.22199099 -0.45015246
0.13319431 0.19979148 -0.45015478
0.13319431 0.17759247 -0.45015478
0.13319403 0.15539303 -0.45015714
0.13319403 0.13319407 -0.45015714
0.13319403 0.11099507 -0.45015717
0.13319375 0.08879593 -0.45015943
0.13319375 0.066596895 -0.45015949
0.13319346 0.044397861 -0.4501617
0.13319346 0.022198945 -0.45016176
0.13319319 2.9802322e-08 -0.45016411
0.13319291 -0.022198766 -0.45016646
0.13319263 -0.044397548 -0.45016879
0.13319235 -0.066596135 -0.45017105
0.13319206 -0.088794678 -0.45017347
0.13319178 -0.11099313 -0.45017576
0.13319151 -0.13319147 -0.45017809
0.13319094 -0.15538943 -0.45018274
0.13319068 -0.17758748 -0.45018506
0.13319039 -0.19978556 -0.45018739
0.13319011 -0.22198352 -0.45018974
0.13318983 -0.24418133 -0.45019203
0.13518687 -0.27037367 -0.43355018
0.13946208 -0.3021678 -0.39792341
0.14401652 -0.33603847 -0.35996971
0.14887847 -0.37219605 -0.31945342
0.15408017 -0.41088045 -0.27610588
0.15965852 -0.45236576 -0.22961965
0.16565554 -0.4969666 -0.17964453
0.17212111 -0.54505014 -0.1257647
0.17911188 -0.59703958 -0.06750831
0.18669458 -0.65343094 -0.0043192506
0.19494766 -0.71480799 0.064456493
0.20396417 -0.78186262 0.13959414
0.21385519 -0.85542071 0.22201917
0.2247528 -0.93646991 0.31283265
0.23681894 -1.0262152 0.41338366
0.28069797 1.0826924 0.44487834
0.26617306 0.98864275 0.34112865
0.25307825 0.90385085 0.24759436
0.24121144 0.82701075 0.16283163
0.23040769 0.75705385 0.085661858
0.22053021 0.69309497 0.015108436
0.21146481 0.63439447 -0.049644351
0.2031153 0.58032954 -0.1092838
0.19540009 0.53037173 -0.16439238
0.18824953 0.48407021 -0.21546784
0.1816043 0.44103909 -0.2629337
0.17541181 0.40094131 -0.30716586
0.16962771 0.36348802 -0.34848085
0.16421288 0.32842577 -0.38715827
0.16101094 0.29902035 -0.41002923
0.16101094 0.27601877 -0.41002923
0.16101059 0.25301665 -0.41003177
0.16101059 0.23001511 -0.4100318
0.16101059 0.20701364 -0.41003174
0.16101024 0.18401173 -0.41003424
0.16101024 0.1610103 -0.41003427
0.16100988 0.13800851 -0.41003677
0.16100988 0.11500709 -0.41003674
0.16100954 0.092005432 -0.41003931
0.16100954 0.069004133 -0.41003925
0.16100954 0.046002761 -0.41003925
0.16100918 0.023001358 -0.41004178
0.16100918 7.4505806e-08 -0.41004172
0.16100882 -0.023001239 -0.41004431
0.16100813 -0.046002254 -0.4100492
0.16100778 -0.069003269 -0.41005176
0.16100743 -0.09200421 -0.4100543
0.16100708 -0.11500506 -0.41005683
0.16100672 -0.13800572 -0.41005927
0.16100638 -0.1610063 -0.41006178
0.16100603 -0.18400687 -0.41006425
0.16100568 -0.20700727 -0.41006684
0.16100498 -0.23000702 -0.41007182
0.16100463 -0.25300723 -0.41007423
0.16100428 -0.27600729 -0.41007683
0.16100392 -0.29900727 -0.41007936
0.16491021 -0.32982039 -0.38217723
0.17037112 -0.36508089 -0.34317088
0.17620605 -0.4027566 -0.30149275
0.18245485 -0.44310457 -0.25685844
0.18916313 -0.4864195 -0.20894206
0.19638355 -0.533041 -0.15736775
0.20417704 -0.58336294 -0.1016999
0.21261467 -0.63784391 -0.041431159
0.22177906 -0.69701988 0.024028808
0.2317698 -0.76152921 0.095391154
0.24270314 -0.83212501 0.17348647
0.25471905 -0.90971082 0.25931448
0.26798284 -0.99536479 0.35405573
0.28270495 -1.0904334 0.45921373
0.31099883 1.0496211 0.38363531
0.29537281 0.95996165 0.28597263
0.28124285 0.8788839 0.19766054
0.26840305 0.80520928 0.11741188
0.25668445 0.73796791 0.044170618
0.24594633 0.6763525 -0.022942692
0.23607057 0.61968535 -0.084666193
0.22695792 0.56739473 -0.14162043
0.21852206 0.51898986 -0.19434458
0.21069083 0.47405446 -0.24328959
0.20340148 0.43222821 -0.28884804
0.19659966 0.39319932 -0.33135951
0.19091374 0.35796329 -0.36689639
0.19091374 0.33409908 -0.36689651
0.19091374 0.31023484 -0.36689648
0.1909133 0.28637001 -0.36689919
0.1909133 0.26250583 -0.36689919
0.19091287 0.23864114 -0.36690187
0.19091287 0.21477704 -0.36690179
0.19091287 0.1909129 -0.36690184
0.19091246 0.16704839 -0.36690456
0.19091246 0.14318438 -0.36690453
0.19091202 0.11932003 -0.3669073
0.19091202 0.095456064 -0.36690724
0.19091159 0.071591869 -0.36690989
0.19091159 0.047727913 -0.36690992
0.19091116 0.023863941 -0.3669126
0.19091116 2.9802322e-08 -0.36691269
0.19091073 -0.023863822 -0.36691532
0.19091029 -0.04772754 -0.366918
0.19090986 -0.071591094 -0.36692074
0.190909 -0.095454454 -0.3669261
0.19090857 -0.11931784 -0.36692882
0.19090813 -0.14318107 -0.36693147
0.19090772 -0.16704428 -0.36693418
0.19090728 -0.19090723 -0.36693686
0.19090684 -0.2147702 -0.36693957
0.19090641 -0.2386329 -0.36694226
0.19090599 -0.2624957 -0.36694497
0.19090512 -0.28635767 -0.36695033
0.19090469 -0.31022003 -0.36695307
0.19090426 -0.33408239 -0.36695576
0.1910574 -0.35823259 -0.36599854
0.19747396 -0.39494786 -0.32589504
0.20433648 -0.43421501 -0.28300428
0.21169314 -0.4763096 -0.23702514
0.21959932 -0.52154827 -0.18761165
0.22811894 -0.57029736 -0.13436393
0.23732631 -0.62298155 -0.07681787
0.24730821 -0.68009746 -0.014431119
0.25816661 -0.74222898 0.053434044
0.27002233 -0.81006694 0.12753227
0.28301936 -0.88443553 0.20876375
0.29732874 -0.96631825 0.29819733
0.31315982 -1.0569143 0.39714143
0.35787341 1.1133839 0.42807817
0.33950341 1.0185102 0.32602265
0.3229261 0.93289769 0.23392662
0.30789432 0.85526204 0.15041667
0.29419881 0.7845301 0.07433033
0.28166977 0.71982276 0.0047247112
0.27016431 0.6604017 -0.059194595
0.2595619 0.60564446 -0.11809693
0.24976021 0.55502272 -0.17255063
0.24067186 0.50808501 -0.2230414
0.23222174 0.46444348 -0.26998672
0.22434483 0.4237625 -0.31374711
0.2231469 0.39670569 -0.32040226
0.2231469 0.37191156 -0.32040223
0.22314638 0.34711665 -0.32040519
0.22314638 0.32232258 -0.32040519
0.22314587 0.29752788 -0.32040811
0.22314587 0.27273393 -0.32040808
0.22314587 0.24793985 -0.32040814
0.22314535 0.2231454 -0.32041097
0.22314535 0.19835141 -0.32041106
0.22314481 0.17355715 -0.32041392
0.22314481 0.14876324 -0.32041392
0.22314429 0.12396907 -0.32041687
0.22314429 0.099175289 -0.32041681
0.22314429 0.0743815 -0.32041684
0.22314379 0.049587533 -0.32041973
0.22314379 0.024793759 -0.32041976
0.22314323 -0 -0.32042259
0.22314273 -0.02479361 -0.32042551
0.22314221 -0.049587145 -0.32042843
0.22314167 -0.074380554 -0.32043132
0.22314115 -0.099173829 -0.32043424
0.22314064 -0.12396694 -0.32043713
0.22313958 -0.14875966 -0.32044297
0.22313906 -0.1735526 -0.32044595
0.22313854 -0.19834533 -0.32044879
0.223138 -0.22313796 -0.32045171
0.2231375 -0.2479305 -0.32045463
0.22313698 -0.27272287 -0.32045752
0.22313644 -0.29751521 -0.32046047
0.22313592 -0.32230741 -0.32046339
0.22313486 -0.34709862 -0.3204692
0.22313435 -0.37189052 -0.32047209
0.22313383 -0.39668232 -0.32047495
0.22535795 -0.42567602 -0.30811879
0.23330569 -0.46661133 -0.26396462
0.24183512 -0.51054078 -0.2165789
0.25101188 -0.55780417 -0.16559687
0.26091257 -0.60879594 -0.11059314
0.27162635 -0.66397536 -0.05107221
0.28325766 -0.72388053 0.013546258
0.2959297 -0.78914577 0.083946437
0.30978861 -0.86052394 0.1609405
0.32500938 -0.93891591 0.24550033
0.34179822 -1.0253947 0.33877173
0.38558987 1.0796515 0.36784175
0.36636689 0.98919058 0.27172703
0.34896955 0.90732086 0.18474051
0.33314958 0.83287406 0.10564056
0.31870177 0.76488429 0.033401519
0.305455 0.7025466 -0.032832325
0.29326546 0.64518404 -0.093780011
0.28201148 0.59222418 -0.15004988
0.27158931 0.54317874 -0.20216076
0.26191002 0.49762908 -0.25055718
0.25799391 0.46438903 -0.27013785
0.25799391 0.43858969 -0.27013785
0.25799391 0.4127903 -0.27013782
0.25799328 0.38698986 -0.27014104
0.25799328 0.36119059 -0.27014098
0.25799266 0.33539048 -0.27014413
0.25799266 0.30959123 -0.27014413
0.257992 0.28379118 -0.27014735
0.257992 0.25799209 -0.27014723
0.25799137 0.23219231 -0.27015039
0.25799137 0.20639315 -0.27015042
0.25799137 0.18059409 -0.27015039
0.25799075 0.15479442 -0.27015364
0.25799075 0.12899539 -0.27015361
0.25799012 0.10319609 -0.27015668
0.25799012 0.077397093 -0.27015668
0.2579895 0.05159793 -0.2701599
0.2579895 0.025798932 -0.2701599
0.25798887 5.9604645e-08 -0.27016306
0.25798824 -0.02579876 -0.27016622
0.25798759 -0.051597536 -0.27016935
0.25798696 -0.07739605 -0.27017245
0.25798634 -0.1031945 -0.27017564
0.25798571 -0.12899284 -0.27017882
0.25798509 -0.15479103 -0.27018198
0.25798446 -0.18058908 -0.27018511
0.25798318 -0.20638652 -0.27019143
0.25798255 -0.23218434 -0.27019453
0.25798196 -0.25798193 -0.27019775
0.2579813 -0.28377944 -0.27020085
0.25798067 -0.30957669 -0.27020404
0.25798005 -0.33537406 -0.27020717
0.25797942 -0.36117113 -0.2702103
0.25797877 -0.38696814 -0.27021345
