# .PCD v0.7 - Point Cloud Data file format
VERSION 0.7
FIELDS x y z
SIZE 4 4 4
TYPE F F F
COUNT 1 1 1
WIDTH 1391
HEIGHT 1
VIEWPOINT 0 0 0 1 0 0 0
POINTS 1391
DATA ascii
-0.43283656 0.36624634 0.10464877
-0.42388791 0.32606757 0.070230618
-0.41530421 0.28751832 0.037216499
-0.40706006 0.25049862 0.0055082664
-0.39913687 0.21491984 -0.024965607
-0.39151618 0.18069977 -0.0542759
-0.38418108 0.14776203 -0.082487851
-0.3771168 0.11603594 -0.1096581
-0.37030661 0.085455358 -0.1358511
-0.36373803 0.055959683 -0.1611149
-0.35739842 0.027492233 -0.18549788
-0.35127601 7.4505806e-08 -0.20904568
-0.3453607 -0.026566155 -0.23179686
-0.3396405 -0.052252345 -0.25379774
-0.33410668 -0.077101447 -0.27508172
-0.32875028 -0.10115386 -0.29568323
-0.32356369 -0.1244475 -0.31563163
-0.31853747 -0.14701724 -0.33496329
-0.32974285 -0.17755386 -0.29186556
-0.34255615 -0.21080373 -0.24258377
-0.35640547 -0.2467422 -0.18931706
-0.37142184 -0.28570908 -0.13156188
-0.38775924 -0.32810384 -0.068725765
-0.40559998 -0.37439996 -0.00010742247
-0.42516291 -0.42516282 0.07513456
-0.44670713 -0.48106918 0.15799704
-0.47055134 -0.54294384 0.24970548
-0.49708462 -0.61179632 0.35175642
-0.52678895 -0.68887782 0.46600401
-0.56027132 -0.77576017 0.59478211
-0.59829611 -0.8744328 0.74103171
-0.64185816 -0.98747414 0.90857798
-0.54469013 1.0893803 0.70943475
-0.52945447 1.0147878 0.64595294
-0.51504797 0.94425452 0.5859257
-0.50140464 0.87745816 0.52907866
-0.48846549 0.81410921 0.47516555
-0.47617736 0.75394762 0.42396519
-0.46449062 0.69673592 0.37527025
-0.45336542 0.64226776 0.32891518
-0.44276065 0.59034759 0.28472871
-0.43264067 0.54080093 0.24256219
-0.42297301 0.49346846 0.20228003
-0.41372794 0.44820529 0.16375899
-0.40487835 0.40487838 0.12688571
-0.39639819 0.36336505 0.091551736
-0.38826835 0.32355705 0.057677463
-0.38046414 0.28534812 0.025159925
-0.37296748 0.24864501 -0.0060761347
-0.36576054 0.21336043 -0.036105104
-0.35882685 0.17941351 -0.064995438
-0.35215211 0.14673007 -0.092806928
-0.34572023 0.11524013 -0.1196064
-0.33951908 0.084879801 -0.14544451
-0.33353648 0.055589486 -0.17037204
-0.32776105 0.027313463 -0.19443634
-0.32218307 5.2154064e-08 -0.21767798
-0.31679097 -0.02639921 -0.24014506
-0.31157634 -0.051929355 -0.26187256
-0.30653065 -0.076632626 -0.28289628
-0.30164579 -0.10054857 -0.30324993
-0.29691482 -0.12371443 -0.32296222
-0.29232934 -0.14616457 -0.34206846
-0.30191937 -0.1761196 -0.30210996
-0.31355307 -0.20903538 -0.25363627
-0.32611921 -0.24458939 -0.20127726
-0.33973557 -0.28311294 -0.14454255
-0.35453749 -0.3249926 -0.082867831
-0.37068796 -0.3706879 -0.015574127
-0.38838014 -0.42074513 0.058143154
-0.40784571 -0.47582 0.1392498
-0.42936552 -0.53670692 0.2289156
-0.45328438 -0.60437906 0.32857764
-0.48002359 -0.68003345 0.43999109
-0.51011527 -0.76517284 0.56537282
-0.54423195 -0.86170065 0.70752579
-0.58323926 -0.97206539 0.87005627
-0.62827301 -1.0994778 1.0576971
-0.49396145 1.0777342 0.68517214
-0.48028839 1.0042394 0.62302178
-0.46735185 0.93470383 0.56421942
-0.45509395 0.86881566 0.50850141
-0.44346264 0.80629569 0.45563173
-0.43240941 0.74688905 0.40538996
-0.42189533 0.6903742 0.35759863
-0.41188037 0.63654244 0.31207627
-0.40232992 0.58520716 0.26866499
-0.39321229 0.53619874 0.2272214
-0.38449878 0.48936209 0.1876144
-0.37616307 0.44455642 0.14972487
-0.36817995 0.40165091 0.11343789
-0.36052975 0.36052978 0.078664213
-0.35319209 0.32108375 0.045311153
-0.34614608 0.28321043 0.013283879
-0.33937573 0.24681869 -0.017490402
-0.33286512 0.21182334 -0.047084011
-0.32659963 0.17814532 -0.075563505
-0.32056651 0.14571212 -0.10298678
-0.31475142 0.11445507 -0.1294191
-0.30914351 0.084311947 -0.15490946
-0.30373198 0.055224054 -0.17950749
-0.29850736 0.027137071 -0.20325562
-0.29345876 5.9604645e-08 -0.22620404
-0.28857803 -0.026234366 -0.24838895
-0.28385705 -0.051610366 -0.26984811
-0.27928802 -0.076169416 -0.29061636
-0.27486441 -0.099950716 -0.31072372
-0.27057809 -0.12298999 -0.33020687
-0.2664234 -0.14532188 -0.34909177
-0.27454245 -0.1747088 -0.31218717
-0.28503323 -0.20729682 -0.26450175
-0.29635763 -0.24247442 -0.2130271
-0.30861911 -0.28056276 -0.15729329
-0.32193896 -0.32193893 -0.096748367
-0.33646047 -0.36704773 -0.030741513
-0.35235387 -0.41641816 0.04150115
-0.36982441 -0.47068554 0.12091267
-0.38911647 -0.53061336 0.20860392
-0.41053206 -0.59713745 0.3059476
-0.43444225 -0.67141068 0.41463006
-0.46130982 -0.75487041 0.53675532
-0.49172169 -0.84933734 0.67499125
-0.52642405 -0.95713454 0.83272928
-0.56639642 -1.0813023 1.0144218
-0.44430602 1.0663344 0.66142267
-0.43213394 0.99390805 0.60056227
-0.42061099 0.92534429 0.54294771
-0.4096866 0.86034179 0.48832566
-0.39931536 0.79863077 0.43646947
-0.38945478 0.73996407 0.3871665
-0.38007081 0.68412751 0.34024671
-0.37112844 0.63091844 0.29553485
-0.36259717 0.58015555 0.25287861
-0.35444933 0.53167403 0.21213935
-0.34665963 0.48532355 0.17319079
-0.33920494 0.44096649 0.13591731
-0.33206305 0.39847565 0.10020791
-0.32521772 0.35773951 0.065981284
-0.31864798 0.31864801 0.033132553
-0.31233838 0.28110456 0.0015844703
-0.30627382 0.24501909 -0.02873832
-0.30044028 0.21030822 -0.057906032
-0.29482561 0.17689544 -0.085979223
-0.28941619 0.14470816 -0.11302643
-0.28420168 0.11368071 -0.13909903
-0.27917174 0.083751485 -0.1642487
-0.27431673 0.054863356 -0.18852361
-0.26962844 0.026962914 -0.2119652
-0.26509699 -7.4505806e-09 -0.23462234
-0.26071537 -0.026071474 -0.25653052
-0.25647622 -0.051295184 -0.2777262
-0.25237271 -0.075711764 -0.29824376
-0.24839906 -0.099359609 -0.31811208
-0.24454802 -0.12227394 -0.3373673
-0.24081457 -0.14448875 -0.35603458
-0.24760003 -0.17331998 -0.32210717
-0.25698325 -0.20558655 -0.27519107
-0.26710567 -0.24039502 -0.22457895
-0.27805895 -0.27805895 -0.16981256
-0.28994817 -0.31894296 -0.11036636
-0.30289954 -0.36347938 -0.045609653
-0.31706202 -0.41218054 0.025202692
-0.3326138 -0.4656592 0.10296163
-0.34976992 -0.52465481 0.18874228
-0.36879212 -0.59006739 0.28385326
-0.3900038 -0.66300642 0.38991144
-0.41380274 -0.74484497 0.50890654
-0.44069505 -0.83732057 0.64336789
-0.4713257 -0.94265133 0.79652101
-0.50653231 -1.0637177 0.97255421
-0.39569002 1.0551734 0.63817054
-0.38496017 0.98378718 0.57856035
-0.3747969 0.91617036 0.52209783
-0.36515647 0.85203183 0.46853971
-0.35599819 0.79110718 0.41766047
-0.34728935 0.73316646 0.36927789
-0.33899641 0.67799288 0.32320607
-0.3310903 0.62539268 0.27928305
-0.32354453 0.57519025 0.23736225
-0.31633508 0.52722514 0.19730967
-0.3094399 0.48135096 0.15900311
-0.30283794 0.43743259 0.12232555
-0.29651272 0.39535034 0.087185532
-0.29044721 0.35499108 0.05348821
-0.28462401 0.31624901 0.021137193
-0.27902976 0.27902973 -0.0099420995
-0.27365112 0.24324545 -0.039823309
-0.26847672 0.20881525 -0.06857001
-0.26349363 0.17566247 -0.096253812
-0.25869215 0.14371794 -0.1229287
-0.25406253 0.11291668 -0.14864883
-0.24959572 0.083198592 -0.17346457
-0.24528386 0.054507524 -0.1974192
-0.24111785 0.026790895 -0.22056374
-0.23709099 1.4901161e-08 -0.24293515
-0.23319644 -0.025910713 -0.26457164
-0.22942775 -0.050983898 -0.28550875
-0.22577947 -0.07525976 -0.30577692
-0.2222449 -0.098775476 -0.32541353
-0.21881928 -0.12156621 -0.34444475
-0.21549766 -0.14366506 -0.36289817
-0.2210831 -0.17195353 -0.33186781
-0.22939289 -0.20390475 -0.28570244
-0.23835175 -0.23835175 -0.23593104
-0.24803878 -0.27559862 -0.18211415
-0.25854659 -0.31600139 -0.12373737
-0.2699841 -0.35997868 -0.060195774
-0.28248036 -0.40802711 0.0092279613
-0.29618955 -0.46073928 0.085390121
-0.31129828 -0.51883042 0.1693276
-0.32803014 -0.58316475 0.2622824
-0.34666282 -0.65480751 0.36579707
-0.36753967 -0.73507929 0.48177961
-0.39109218 -0.82563889 0.61262685
-0.41787177 -0.92860383 0.76140237
-0.4485862 -1.0467012 0.93203831
-0.34808117 1.0442435 0.6153999
-0.33873749 0.9738704 0.55700201
-0.32988232 0.90717626 0.50165701
-0.32147712 0.84387743 0.4491246
-0.31349075 0.78372681 0.3992098
-0.30589157 0.72649252 0.35171491
-0.29865208 0.67196733 0.30646825
-0.29174736 0.61996317 0.26331371
-0.2851547 0.57030934 0.22210938
-0.27885339 0.52285016 0.18272623
-0.27282366 0.47744143 0.14504053
-0.26705003 0.4339563 0.10895529
-0.26151651 0.39227483 0.074370831
-0.25620687 0.35228443 0.041185617
-0.25110856 0.31388575 0.0093211681
-0.2462092 0.27698541 -0.021299899
-0.24149737 0.2414974 -0.050748855
-0.23696314 0.20734273 -0.079087734
-0.23259538 0.17444661 -0.10638603
-0.22838578 0.14274119 -0.13269632
-0.22432581 0.11216289 -0.15807115
-0.22040765 0.082652986 -0.18255949
-0.21662459 0.054156192 -0.20620373
-0.21296866 0.026621155 -0.22905324
-0.20943408 2.2351742e-08 -0.25114435
-0.2060149 -0.025751844 -0.2725141
-0.20270558 -0.050676361 -0.29319739
-0.1995014 -0.074812964 -0.31322375
-0.19639644 -0.098198123 -0.33262956
-0.19338666 -0.12086666 -0.35144073
-0.19046775 -0.14285074 -0.36968395
-0.19498059 -0.17060795 -0.34147865
-0.2022498 -0.20224971 -0.2960462
-0.21008198 -0.23634216 -0.24709502
-0.21854521 -0.2731815 -0.19419974
-0.22771895 -0.31311351 -0.13686387
-0.23769729 -0.35654593 -0.074499354
-0.24858943 -0.40395778 -0.0064233989
-0.26052773 -0.45592356 0.068191022
-0.27367055 -0.51313221 0.15033357
-0.28820983 -0.57641971 0.24120423
-0.30438066 -0.64680892 0.3422718
-0.32247519 -0.72556919 0.45536265
-0.34285566 -0.81428224 0.58274066
-0.36598599 -0.91496497 0.72730517
-0.39246306 -1.0302154 0.8927868
-0.30144852 1.0335379 0.59309638
-0.29343736 0.96415126 0.53587365
-0.28583989 0.89835399 0.48160613
-0.27862695 0.83588088 0.43008503
-0.27176908 0.77648312 0.38110036
-0.2652407 0.71993899 0.33446884
-0.25901857 0.66604793 0.29002538
-0.25308168 0.61462694 0.24761906
-0.24741088 0.56551063 0.20711325
-0.24198863 0.51854706 0.16838282
-0.23679817 0.47359633 0.13130824
-0.23182717 0.43053618 0.095801041
-0.2270599 0.38924551 0.061748981
-0.22248472 0.34961891 0.029069245
-0.2180903 0.31155759 -0.0023195148
-0.21386608 0.27497068 -0.032492399
-0.20980301 0.23977487 -0.0615144
-0.20589086 0.20589086 -0.089458279
-0.20212194 0.17324732 -0.11637917
-0.19848853 0.14177755 -0.14233211
-0.19498344 0.11141916 -0.16736843
-0.19160049 0.082114525 -0.19153243
-0.18833244 0.05380933 -0.21487562
-0.18517402 0.026453428 -0.23743585
-0.18211977 4.4703484e-08 -0.25925177
-0.17916465 -0.025594935 -0.2803598
-0.17630431 -0.050372623 -0.30079079
-0.17353347 -0.074371442 -0.32058254
-0.17084837 -0.097627558 -0.33976191
-0.16824511 -0.12017504 -0.35835662
-0.16571996 -0.14204565 -0.37639326
-0.16928342 -0.16928333 -0.35094011
-0.17554417 -0.2006219 -0.30622041
-0.18228537 -0.23436686 -0.25806913
-0.18956496 -0.27080703 -0.20607185
-0.19745019 -0.31027883 -0.14974877
-0.20601988 -0.35317689 -0.088536784
-0.2153672 -0.39996767 -0.021770224
-0.22560301 -0.45120597 0.0513428
-0.23686036 -0.50755787 0.13175227
-0.24930097 -0.56983083 0.22061406
-0.26311997 -0.6390056 0.31932104
-0.27856085 -0.7162993 0.42961299
-0.29592699 -0.80323029 0.5536567
-0.31560236 -0.90172094 0.69419503
-0.33808196 -1.0142456 0.85476345
-0.26286599 1.0952752 0.63044286
-0.25576234 1.0230494 0.57124537
-0.24903247 0.95462453 0.51516318
-0.24264677 0.88970482 0.46194911
-0.23658125 0.8280344 0.41140312
-0.2308116 0.76937199 0.36332253
-0.22531663 0.71350271 0.31753123
-0.22007725 0.66023171 0.27386957
-0.21507597 0.60938197 0.23219238
-0.21029696 0.56079185 0.19236729
-0.20572504 0.51431262 0.15426795
-0.20134833 0.46981281 0.11779542
-0.19715457 0.42716837 0.082847461
-0.19313136 0.38626271 0.049320653
-0.18926907 0.34699333 0.017134935
-0.18555821 0.30926371 -0.013788849
-0.18199009 0.2729851 -0.043523349
-0.1785571 0.23807614 -0.072131522
-0.17525074 0.20445922 -0.099684566
-0.1720646 0.17206466 -0.12623568
-0.16899225 0.14082691 -0.15183869
-0.16602768 0.11068511 -0.1765434
-0.16316576 0.081582911 -0.20039271
-0.16040042 0.053466804 -0.2234371
-0.15772726 0.026287898 -0.24571343
-0.15514174 -2.9802322e-08 -0.26725954
-0.15263999 -0.025439963 -0.28810754
-0.15021728 -0.050072417 -0.30829674
-0.14787027 -0.073935062 -0.32785514
-0.14559548 -0.097063601 -0.34681171
-0.14338961 -0.11949128 -0.36519387
-0.14124991 -0.14124984 -0.38302481
-0.1439825 -0.16797954 -0.3602531
-0.14926466 -0.19901954 -0.31623513
-0.15494916 -0.23242363 -0.26886439
-0.16108376 -0.26847294 -0.21774274
-0.16772412 -0.30749416 -0.16240621
-0.1749355 -0.34987092 -0.10231143
-0.18279539 -0.39605665 -0.036812395
-0.19139422 -0.44658646 0.034844428
-0.20084198 -0.50210488 0.11357571
-0.21127088 -0.563389 0.20048334
-0.22284219 -0.63138616 0.29691085
-0.23575443 -0.70726317 0.404513
-0.25025609 -0.79247755 0.52535999
-0.26665759 -0.88885856 0.66203928
-0.28535977 -0.99875915 0.81789064
-0.21679386 1.0839694 0.60783124
-0.21099408 1.0127716 0.54983342
-0.20549574 0.94528043 0.49484995
-0.20027742 0.8812207 0.44266701
-0.19531758 0.82033384 0.39306831
-0.19059747 0.76238996 0.34586746
-0.18610011 0.70718038 0.30089366
-0.1818101 0.65451634 0.25799352
-0.17771341 0.60422564 0.21702667
-0.1737967 0.55614948 0.17785963
-0.17004947 0.51014841 0.14038728
-0.16646093 0.46609059 0.10450192
-0.16302022 0.42385262 0.070094854
-0.15971887 0.38332534 0.037081316
-0.15654857 0.34440684 0.0053783208
-0.15350167 0.30700341 -0.025090501
-0.15057155 0.27102882 -0.054391712
-0.14775079 0.23640132 -0.082599416
-0.14503378 0.20304731 -0.10976963
-0.14241488 0.17089783 -0.13595861
-0.13988888 0.13988893 -0.16121855
-0.13745129 0.10996106 -0.18559459
-0.13509683 0.081058145 -0.20913893
-0.13282169 0.053128645 -0.23189041
-0.13062192 0.026124403 -0.25388822
-0.12849382 1.4901161e-08 -0.27516919
-0.12643425 -0.025286779 -0.29576495
-0.12443936 -0.049775764 -0.31571367
-0.12250645 -0.073503777 -0.33504277
-0.12063268 -0.096506149 -0.35378051
-0.11881536 -0.11881533 -0.37195373
-0.11705223 -0.14046265 -0.38958499
-0.11906809 -0.1666953 -0.36942643
-0.12340163 -0.1974425 -0.32609108
-0.12806283 -0.23051305 -0.27947903
-0.13308966 -0.26617923 -0.22921076
-0.13852723 -0.30475986 -0.17483494
-0.14442807 -0.34662741 -0.11582667
-0.15085398 -0.39222026 -0.051567659
-0.15787831 -0.44205928 0.018675745
-0.16558877 -0.49676621 0.095780313
-0.17409101 -0.55709118 0.1808027
-0.18351425 -0.6239484 0.27503517
-0.19401528 -0.69845498 0.38004547
-0.20579104 -0.78200585 0.49780303
-0.21908863 -0.87635434 0.63077867
-0.23422445 -0.98374259 0.78213704
-0.17166312 1.0728947 0.58568174
-0.16711637 1.0026984 0.52884752
-0.16280365 0.93612093 0.47493824
-0.15870851 0.87289679 0.423749
-0.15481433 0.81277537 0.37507194
-0.15110667 0.75553334 0.32872611
-0.14757246 0.70096922 0.2845484
-0.14419979 0.64889896 0.24238996
-0.14097783 0.59915578 0.20211551
-0.13789625 0.55158508 0.16359591
-0.13494696 0.50605106 0.12672956
-0.13212158 0.4624255 0.091412306
-0.12941168 0.42058799 0.057538763
-0.12681073 0.38043219 0.025026709
-0.12431225 0.3418588 -0.0062040985
-0.12191034 0.30477586 -0.036228195
-0.11959981 0.26909968 -0.065109663
-0.11737492 0.23474982 -0.092920996
-0.11523129 0.20165479 -0.11971636
-0.11316454 0.16974682 -0.14555053
-0.11117093 0.13896368 -0.17047071
-0.10924607 0.10924606 -0.19453155
-0.10738672 0.080540076 -0.21777347
-0.10558961 0.052794784 -0.24023734
-0.10385165 0.025962956 -0.26196182
-0.10217022 2.9802322e-08 -0.28297958
-0.10054214 -0.025135502 -0.30333066
-0.098965123 -0.049482539 -0.32304326
-0.097436823 -0.073077574 -0.34214705
-0.095955007 -0.09595497 -0.36066985
-0.09451779 -0.11814716 -0.37863493
-0.093122795 -0.13968411 -0.39607245
-0.094531946 -0.16543084 -0.37845802
-0.097945444 -0.19589081 -0.33578929
-0.10161469 -0.22863303 -0.28992364
-0.10556956 -0.26392385 -0.24048787
-0.10984474 -0.30207294 -0.18704821
-0.11448079 -0.34344232 -0.12909755
-0.11952542 -0.3884576 -0.066039622
-0.12503549 -0.43762422 0.0028363168
-0.13107775 -0.49154148 0.078364402
-0.13773362 -0.55093437 0.16156286
-0.14510161 -0.61668164 0.25366259
-0.15330243 -0.68986082 0.35617298
-0.16248576 -0.77180731 0.47096479
-0.17284015 -0.86420053 0.60039437
-0.18460321 -0.96916687 0.74743277
-0.19808432 -1.0894636 0.91594642
-0.12744525 1.0620437 0.56398004
-0.12410244 0.99281955 0.50826669
-0.12093097 0.92713749 0.45540872
-0.11791755 0.86472881 0.40518522
-0.11505067 0.8053546 0.35740364
-0.11231987 0.7487992 0.31189054
-0.10971571 0.69486618 0.26848778
-0.10722956 0.64337754 0.22705212
-0.10485325 0.59416842 0.1874467
-0.10258031 0.547095 0.14956445
-0.10040413 0.50202072 0.1132948
-0.098318063 0.45881772 0.078527063
-0.096316919 0.4173733 0.045174628
-0.0943956 0.37758249 0.013152704
-0.092549451 0.33934802 -0.017616495
-0.09077438 0.30258131 -0.047200985
-0.089065872 0.26719764 -0.075676218
-0.087420478 0.23312132 -0.10309928
-0.085834786 0.20028116 -0.12952761
-0.084305592 0.16861124 -0.15501405
-0.082830153 0.13805036 -0.17960484
-0.081405252 0.10854036 -0.20335326
-0.080028549 0.080028541 -0.22629821
-0.078697637 0.052465133 -0.24848005
-0.077410452 0.025803477 -0.2699331
-0.076164521 2.9802322e-08 -0.29069871
-0.074958056 -0.024986014 -0.31080639
-0.073789217 -0.049192801 -0.33028701
-0.072656274 -0.072656229 -0.34916949
-0.071557589 -0.095410064 -0.36748081
-0.070491798 -0.11748628 -0.38524407
-0.069457136 -0.13891417 -0.40248841
-0.070365079 -0.16418515 -0.38735604
-0.072886102 -0.19436288 -0.34533906
-0.075594477 -0.22678337 -0.30019933
-0.07851211 -0.26170698 -0.25157219
-0.08166378 -0.29943383 -0.19904426
-0.085079066 -0.34031627 -0.14212283
-0.088792495 -0.38476735 -0.080232546
-0.092844859 -0.43327597 -0.012693048
-0.097284809 -0.48642397 0.061306149
-0.10217074 -0.54491043 0.14273816
-0.10757337 -0.60958242 0.23278226
-0.1135797 -0.68147814 0.33288759
-0.12029594 -0.7618742 0.44482502
-0.1278564 -0.85237604 0.57083279
-0.13643095 -0.95501649 0.71374166
-0.14623822 -1.0724134 0.87719631
-0.084112488 1.0514061 0.54270482
-0.081928112 0.98313725 0.48809534
-0.079854317 0.91832471 0.4362506
-0.077882916 0.85671198 0.38696542
-0.076006509 0.7980684 0.34005544
-0.074218385 0.74218398 0.29535246
-0.07251247 0.68886852 0.25270441
-0.070882976 0.63794678 0.21196696
-0.069325328 0.58926523 0.1730258
-0.067834675 0.54267734 0.13575938
-0.066406973 0.49805233 0.10006708
-0.065037943 0.45526564 0.065841228
-0.063724212 0.4142074 0.032997981
-0.062462509 0.37477511 0.0014553666
-0.061249971 0.33687484 -0.028858095
-0.060083445 0.30041721 -0.058021352
-0.05896052 0.26532245 -0.086094335
-0.057878796 0.23151523 -0.11313742
-0.056836054 0.1989262 -0.13920599
-0.055830367 0.16749109 -0.16434823
-0.054859504 0.13714881 -0.1886197
-0.053921834 0.10784367 -0.21206149
-0.053015679 0.079523504 -0.23471539
-0.052139472 0.052139558 -0.25662053
-0.051291883 0.025645912 -0.27781025
-0.050471295 1.4901161e-08 -0.29832506
-0.049676545 -0.024838224 -0.31819373
-0.048906434 -0.048906401 -0.33744648
-0.048159838 -0.072239757 -0.35611135
-0.047435801 -0.094871566 -0.37421227
-0.046733107 -0.11683276 -0.39177963
-0.046050932 -0.13815273 -0.40883404
-0.04655955 -0.16295838 -0.39611861
-0.048214767 -0.19285901 -0.35473821
-0.04999201 -0.22496405 -0.31030706
-0.051905289 -0.25952646 -0.26247507
-0.053970847 -0.29683965 -0.21083611
-0.056207612 -0.33724567 -0.15491697
-0.058637798 -0.38114563 -0.09416236
-0.061287802 -0.42901459 -0.027912349
-0.064188465 -0.48141342 0.044604212
-0.067377336 -0.53901863 0.12432599
-0.070899621 -0.60264671 0.21238297
-0.074810483 -0.67329425 0.31015462
-0.079177983 -0.75219071 0.41934216
-0.084087394 -0.84087396 0.54207754
-0.089645483 -0.94127744 0.68102974
-0.095990352 -1.0558937 0.83965135
-0.041639343 1.0409836 0.52185977
-0.040568426 0.97364223 0.46831387
-0.03955121 0.90967798 0.41745332
-0.038583759 0.84884274 0.36908069
-0.03766251 0.79091275 0.32301816
-0.036784224 0.73568445 0.27910385
-0.035945971 0.68297338 0.23719111
-0.035144951 0.63260913 0.19714028
-0.034378968 0.58444256 0.15884107
-0.033645768 0.53833222 0.12218097
-0.032943085 0.49414623 0.087046862
-0.032269154 0.4517681 0.05335021
-0.031622242 0.41108912 0.021004751
-0.031000759 0.3720091 -0.010069489
-0.03040332 0.33443654 -0.039941311
-0.02982839 0.2982839 -0.068687864
-0.029274801 0.26347321 -0.096367337
-0.028741386 0.2299311 -0.12303817
-0.028227061 0.19758946 -0.14875431
-0.02773089 0.16638537 -0.17356275
-0.027251795 0.13625902 -0.19751765
-0.02678897 0.10715593 -0.22065875
-0.026341606 0.079024896 -0.24302709
-0.025909001 0.051818043 -0.26465738
-0.025490314 0.025490344 -0.28559172
-0.025084939 4.4703484e-08 -0.30586025
-0.024692262 -0.024692178 -0.32549429
-0.024311686 -0.048623398 -0.34452301
-0.023942718 -0.071828082 -0.3629714
-0.023584731 -0.094338864 -0.38087079
-0.02323729 -0.11618643 -0.39824283
-0.022899939 -0.13739957 -0.41511041
-0.023107072 -0.16174953 -0.40475366
-0.023922233 -0.19137782 -0.3639957
-0.024797009 -0.22317302 -0.32025683
-0.025738191 -0.25738186 -0.27319768
-0.026753705 -0.29429066 -0.22242202
-0.027852574 -0.33423084 -0.16747862
-0.029045578 -0.3775925 -0.10782845
-0.030345354 -0.42483503 -0.042839602
-0.031766906 -0.47650355 0.028238118
-0.033328198 -0.53325111 0.10630248
-0.035050888 -0.59586495 0.19243692
-0.036961369 -0.66530466 0.28796127
-0.039092273 -0.74275303 0.39450616
-0.041483745 -0.82967484 0.51407981
-0.044186879 -0.92792434 0.6492365
-0.047266845 -1.0398705 0.80323488
0 1.100769 0.55675602
0 1.0307658 0.50142401
0 0.96432865 0.44891074
0 0.90119243 0.39900637
0 0.84111667 0.35152128
0 0.78388417 0.30628359
0 0.72929788 0.26313737
0 0.67717624 0.22193512
0 0.62736011 0.18255959
0 0.57969975 0.14489189
0 0.53405464 0.10881306
0 0.49030101 0.0742293
0 0.44832408 0.041049838
0 0.40801746 0.0091906339
0 0.36928481 -0.021420822
0 0.33203328 -0.050865337
0 0.2961807 -0.079203986
0 0.26164976 -0.10649803
0 0.22836854 -0.13280432
0 0.19627105 -0.15817155
0 0.16529416 -0.18265645
0 0.13538072 -0.2063008
0 0.10647681 -0.22914709
0 0.07853239 -0.25123513
0 0.051500343 -0.2725988
0 0.025336608 -0.29327935
0 4.4703484e-08 -0.31330612
0 -0.024547994 -0.33270943
0 -0.048343539 -0.35151806
0 -0.071421042 -0.3697564
0 -0.093812183 -0.38745499
0 -0.11554717 -0.40463492
0 -0.13665456 -0.42131889
0 -0.16055837 -0.41326159
0 -0.18991967 -0.37310943
0 -0.2214109 -0.33004656
0 -0.2552731 -0.28374162
0 -0.29178452 -0.23381394
0 -0.33126861 -0.17982115
0 -0.3741039 -0.12124592
0 -0.42073596 -0.057478786
0 -0.47169292 0.012202486
0 -0.52760738 0.088665813
0 -0.58923632 0.17294063
0 -0.65750474 0.26629466
0 -0.73354661 0.37027872
0 -0.81877017 0.48681805
0 -0.91494465 0.61833268
0 -1.0243309 0.76791751
0.041914802 1.0897849 0.53563279
0.040829852 1.0207465 0.48138535
0.039799653 0.95519161 0.4298752
0.038820162 0.89286375 0.38090077
0.037887722 0.83352995 0.3342787
0.036999024 0.77697951 0.28984392
0.03615094 0.72301883 0.24743974
0.035340983 0.67147881 0.20694195
0.034566525 0.62219745 0.16821885
0.03382539 0.5750317 0.13116214
0.033115264 0.52984428 0.095655799
0.032434341 0.48651516 0.061609641
0.031780854 0.44493198 0.028935447
0.031153277 0.40499264 -0.0024434477
0.030549914 0.36659899 -0.032611653
0.029969478 0.32966432 -0.061633334
0.029410688 0.2941069 -0.089572899
0.028872354 0.25985122 -0.1164896
0.028353374 0.22682704 -0.14243859
0.027852796 0.19496953 -0.16746765
0.027369514 0.16421708 -0.19163164
0.026902717 0.13451365 -0.21497147
0.026451577 0.1058064 -0.23752847
0.026015382 0.078046188 -0.2593382
0.025593277 0.051186644 -0.28044361
0.025184652 0.025184616 -0.30087483
0.024788868 2.9802322e-08 -0.32066399
0.024405332 -0.024405316 -0.33984077
0.024033539 -0.048067003 -0.35843039
0.023672849 -0.071018547 -0.3764649
0.023322826 -0.093291268 -0.39396602
0.022983005 -0.11491497 -0.41095707
0.022652943 -0.13591762 -0.42746025
0.022769293 -0.15938501 -0.42164263
0.023560386 -0.18848306 -0.38208804
0.024408432 -0.21967587 -0.33968574
0.025319805 -0.25319803 -0.29411709
0.026301878 -0.28932056 -0.24501349
0.027363278 -0.32835931 -0.19194345
0.028513867 -0.37068027 -0.13441393
0.029765468 -0.41671652 -0.071833953
0.031131987 -0.46697968 -0.003508091
0.032630015 -0.52208024 0.071393445
0.034279499 -0.58275139 0.15386756
0.036104631 -0.64988339 0.24512407
0.038135037 -0.72456568 0.34664446
0.040407576 -0.80815142 0.46027142
0.042967953 -0.90232688 0.5882901
0.045874748 -1.0092443 0.73362994
0.083001375 1.0790179 0.51492691
0.080873594 1.0109199 0.46173242
0.078852177 0.94622618 0.41119713
0.076929353 0.8846876 0.36312649
0.075098075 0.82607883 0.31734452
0.073351949 0.77019548 0.27369139
0.071684942 0.71684945 0.23201606
0.070092246 0.66587639 0.19219875
0.068569005 0.61712104 0.15411778
0.06711036 0.57043803 0.11765146
0.065712474 0.52569979 0.08270438
0.064371631 0.48278725 0.049183413
0.063084416 0.44159096 0.017003089
0.061847854 0.40201104 -0.013910979
0.06065866 0.36395204 -0.043640792
0.05951434 0.32732892 -0.072248884
0.058412392 0.29206192 -0.099797606
0.057350509 0.25807738 -0.12634459
0.056326695 0.22530678 -0.15194005
0.055338647 0.19368531 -0.17664106
0.054384667 0.16315407 -0.20049065
0.053463023 0.13365756 -0.2235318
0.052572094 0.10514423 -0.24580501
0.051710494 0.077565767 -0.26734486
0.050876565 0.050876625 -0.2881932
0.050069105 0.025034547 -0.30837977
0.049286876 -0 -0.32793552
0.048528709 -0.024264321 -0.34688967
0.047793619 -0.047793612 -0.3652668
0.047080368 -0.070620522 -0.38309819
0.04638809 -0.092776105 -0.40040514
0.045715872 -0.11428963 -0.41721049
0.045062959 -0.13518883 -0.43353337
0.045208111 -0.15822832 -0.42990458
0.046767026 -0.18706805 -0.39093173
0.048437402 -0.21796827 -0.34917226
0.050231401 -0.25115693 -0.30432227
0.052163407 -0.28689864 -0.25602221
0.054249968 -0.32549983 -0.20385814
0.056510419 -0.36731768 -0.14734697
0.058967426 -0.41277191 -0.08592169
0.061647803 -0.4623585 -0.018912196
0.064583458 -0.51666766 0.054479182
0.067812905 -0.57640958 0.13521528
0.071382083 -0.64243865 0.22444473
0.075347841 -0.7158044 0.32358861
0.079780169 -0.79780173 0.43439689
0.084766559 -0.89004898 0.55905664
0.090418197 -0.99460018 0.7003476
0.12328401 1.0684615 0.49462634
0.1201537 1.0012808 0.44245434
0.11717843 0.9374274 0.39286643
0.11434693 0.87665987 0.34567487
0.11164906 0.81875968 0.30071011
0.10907517 0.76352626 0.2578122
0.10661764 0.71078426 0.21685335
0.10426842 0.66036677 0.17769969
0.10202081 0.61212492 0.14023952
0.099867746 0.56591725 0.10435511
0.09780369 0.52161968 0.069953993
0.095823213 0.47911608 0.036946118
0.093921632 0.43830094 0.005253166
0.092093788 0.39907306 -0.025210947
0.090335727 0.36134291 -0.05451189
0.088643536 0.32502627 -0.082715102
0.087013572 0.29004535 -0.10988103
0.085442707 0.25632814 -0.13606226
0.083927326 0.22380625 -0.16131854
0.082464769 0.19241776 -0.18569469
0.081052303 0.16210467 -0.20923561
0.079687417 0.13281237 -0.2319839
0.078367919 0.10449059 -0.25397539
0.077091224 0.077091277 -0.27525353
0.075855464 0.050570391 -0.29584956
0.074658692 0.024886265 -0.31579578
0.073499098 -1.4901161e-08 -0.33512229
0.072375141 -0.024124965 -0.35385486
0.07128489 -0.04752326 -0.37202591
0.07022699 -0.070226982 -0.38965756
0.069200031 -0.092266679 -0.40677354
0.068202674 -0.11367103 -0.42339617
0.067233801 -0.13446756 -0.43954405
0.067323737 -0.15708865 -0.43804505
0.06962797 -0.18567455 -0.3996411
0.072095528 -0.21628654 -0.35851517
0.074744411 -0.24914803 -0.31436715
0.077595361 -0.28451625 -0.26685137
0.080672421 -0.32268965 -0.21556702
0.084003821 -0.36401656 -0.16004363
0.087621979 -0.40890247 -0.099741057
0.09156584 -0.45782918 -0.034009993
0.095881455 -0.5113678 0.037916973
0.100624 -0.57020265 0.11695926
0.10586011 -0.63516062 0.20422792
0.11167107 -0.70725006 0.30107713
0.11815749 -0.78771651 0.40918425
0.1254434 -0.87810385 0.53061616
0.13368692 -0.98037058 0.66800785
0.14309007 -1.0970236 0.824727
0.1627861 1.0581095 0.47471884
0.15869182 0.99182391 0.4235405
0.15479846 0.92879081 0.37487346
0.15109156 0.86877644 0.32853708
0.14755753 0.81156635 0.28436172
0.14418553 0.75697404 0.24221176
0.1409642 0.70482111 0.20194525
0.13788411 0.65494955 0.16344404
0.13493532 0.60720897 0.12658417
0.13211001 0.56146759 0.091267914
0.1294006 0.51760244 0.057400107
0.12680008 0.47550029 0.024893597
0.12430239 0.43505847 -0.0063274503
0.12190085 0.39617783 -0.036346734
0.11959033 0.35877103 -0.06522809
0.11736579 0.32275599 -0.093034975
0.11522248 0.28805622 -0.11982625
0.11315636 0.25460181 -0.1456528
0.11116274 0.22232552 -0.17057306
0.10923816 0.19116679 -0.19463038
0.10737908 0.1610686 -0.21786894
0.10558248 0.13197809 -0.2403264
0.10384476 0.10384484 -0.26204789
0.10216331 0.076622471 -0.28306603
0.10053544 0.050267816 -0.30341434
0.098958634 0.024739638 -0.32312435
0.097430527 2.9802322e-08 -0.34222567
0.095949121 -0.023987249 -0.36074334
0.094511874 -0.047255918 -0.37870896
0.093117051 -0.069837719 -0.39614421
0.091762789 -0.091762826 -0.41307244
0.09044756 -0.11305939 -0.42951283
0.089169309 -0.13375393 -0.44549096
0.089122877 -0.15596497 -0.44607142
0.092150651 -0.18430129 -0.40822423
0.095391385 -0.2146306 -0.36771494
0.098868601 -0.24717145 -0.32424974
0.10260867 -0.28217387 -0.27749896
0.10664282 -0.31992844 -0.22707208
0.11100716 -0.36077321 -0.17251779
0.11574397 -0.40510386 -0.1133078
0.12090304 -0.45338631 -0.048819333
0.12654349 -0.50617391 0.021686211
0.13273597 -0.5641278 0.099092305
0.13956617 -0.62804765 0.18446964
0.1471369 -0.69890016 0.27910388
0.15557608 -0.77788031 0.3845937
0.16504227 -0.86647177 0.50292075
0.17573503 -0.9665426 0.63658035
0.18791012 -1.0804831 0.78876919
0.2015301 1.0479565 0.45519361
0.1965088 0.98254389 0.40498045
0.19173163 0.92031193 0.35720897
0.18718122 0.86103356 0.31170481
0.18284117 0.80450118 0.26830426
0.17869842 0.75053334 0.2268768
0.17473924 0.69895697 0.18728504
0.17095225 0.64961863 0.14941508
0.16732538 0.60237139 0.11314645
0.1638492 0.55708736 0.078384712
0.16051455 0.51364654 0.045038015
0.15731336 0.4719401 0.013026282
0.15423693 0.43186337 -0.017738119
0.15127851 0.39332414 -0.047322348
0.14843144 0.35623544 -0.075792968
0.14568955 0.32051712 -0.10321172
0.14304753 0.28609508 -0.12963206
0.14049923 0.25289866 -0.15511501
0.13804016 0.22086428 -0.17970583
0.13566566 0.18993196 -0.20345074
0.13337149 0.1600458 -0.22639248
0.13115393 0.13115397 -0.24856806
0.12900861 0.10320692 -0.27002132
0.12693232 0.076159477 -0.290784
0.12492181 0.049968794 -0.3108891
0.12297402 0.024594828 -0.33036715
0.12108629 2.9802322e-08 -0.34924448
0.11925539 -0.023851052 -0.36755353
0.11747902 -0.046991602 -0.38531718
0.1157548 -0.069452852 -0.40255943
0.11408045 -0.091264293 -0.41930285
0.1124541 -0.1124541 -0.43556637
0.11087322 -0.13304782 -0.45137513
0.11061259 -0.15485764 -0.45398146
0.11434286 -0.18294856 -0.41667873
0.1183335 -0.2130003 -0.37677234
0.12261277 -0.24522549 -0.33397964
0.12721317 -0.27986887 -0.28797582
0.13217221 -0.31721318 -0.23838533
0.13753356 -0.35758728 -0.18477169
0.14334865 -0.40137616 -0.12662083
0.14967677 -0.44903028 -0.063339666
0.1565894 -0.501086 0.0057865679
0.16417144 -0.55818284 0.081607044
0.17252509 -0.62109029 0.16514353
0.18177444 -0.69074285 0.25763711
0.19207172 -0.76828682 0.36060983
0.2036065 -0.85514724 0.47595757
0.21661435 -0.95310295 0.60603595
0.23139769 -1.0644293 0.75386953
0.24575767 1.1059096 0.48787332
0.23953761 1.0379963 0.43603933
0.23362465 0.973436 0.38676471
0.22799659 0.91198635 0.33986408
0.2226325 0.85342455 0.29516348
0.21751577 0.79755777 0.25252405
0.21262896 0.74420142 0.21180058
0.20795758 0.69319189 0.17287239
0.20348638 0.6443736 0.13561252
0.19920342 0.59761035 0.099921107
0.19509701 0.55277491 0.065701127
0.19115651 0.50975078 0.032863542
0.18737257 0.46843141 0.0013307035
0.18373501 0.42871508 -0.028982267
0.18023598 0.3905113 -0.058140829
0.17686774 0.35373557 -0.086209446
0.17362309 0.31830904 -0.11324829
0.17049578 0.28415963 -0.13930917
0.16747871 0.25121814 -0.16445139
0.16456656 0.21942215 -0.18871936
0.16175394 0.18871298 -0.21215785
0.15903626 0.15903622 -0.23480524
0.15640801 0.13034002 -0.25670737
0.1538652 0.10257687 -0.27789733
0.15140375 0.075701959 -0.2984094
0.14901982 0.049673349 -0.31827545
0.14671014 0.024451733 -0.33752286
0.14447063 2.9802322e-08 -0.35618541
0.14229847 -0.02371645 -0.37428683
0.14019065 -0.046730146 -0.3918519
0.13814437 -0.069072098 -0.40890425
0.13615726 -0.090771466 -0.4254635
0.13422622 -0.11185515 -0.4415555
0.13234919 -0.13234913 -0.45719743
0.13179901 -0.15376548 -0.46178228
0.13621137 -0.18161514 -0.42501262
0.1409294 -0.21139404 -0.38569579
0.14598632 -0.2433105 -0.34355474
0.1514193 -0.27760196 -0.29827988
0.15727229 -0.31454456 -0.24950485
0.16359599 -0.35445794 -0.19680756
0.1704495 -0.39771545 -0.13969487
0.17790234 -0.44475585 -0.077587828
0.18603675 -0.49609795 -0.0098011047
0.19495067 -0.55236018 0.064481437
0.20476243 -0.61428726 0.14624628
0.21561348 -0.68277591 0.23667167
0.22767894 -0.75892967 0.33721715
0.24117477 -0.8441118 0.44968247
0.25637138 -0.94002825 0.57632077
0.27361187 -1.0488454 0.71999162
0.28394845 1.0952296 0.46809578
0.27682948 1.0282238 0.41724601
0.27005872 0.96449542 0.36888352
0.2636103 0.90380692 0.32282349
0.2574636 0.8459518 0.2789183
0.25159699 0.79073334 0.23701382
0.24599259 0.73797774 0.19698247
0.24063164 0.68751889 0.15868995
0.23549938 0.63921261 0.122031
0.23058145 0.59292376 0.086903065
0.22586475 0.54852873 0.05321236
0.22133781 0.50591505 0.020877019
0.21698812 0.46497455 -0.010192171
0.21280611 0.42561224 -0.040063798
0.20878223 0.38773853 -0.068805695
0.20490772 0.35127041 -0.096480817
0.20117491 0.31613207 -0.12314358
0.19757517 0.28225029 -0.1488561
0.19410197 0.24955979 -0.17366461
0.19074878 0.21799871 -0.19761598
0.18750949 0.18750957 -0.22075385
0.18437883 0.15803905 -0.24311568
0.18135056 0.12953615 -0.26474622
0.17842013 0.10195442 -0.28567785
0.17558292 0.075249851 -0.30594367
0.17283453 0.049381331 -0.32557502
0.17017123 0.024310261 -0.3445985
0.1675884 5.9604645e-08 -0.3630473
0.1650828 -0.023583218 -0.38094443
0.16265102 -0.0464717 -0.39831442
0.16029018 -0.068695739 -0.41517752
0.15799658 -0.090283707 -0.43156046
0.15576766 -0.11126259 -0.44748116
0.15360078 -0.13165772 -0.46295899
0.15268901 -0.152689 -0.46947148
0.15776373 -0.18030137 -0.43322346
0.1631874 -0.20981237 -0.39448303
0.16899724 -0.24142459 -0.35298413
0.17523606 -0.2753709 -0.30842128
0.18195315 -0.3119196 -0.26044208
0.18920572 -0.35138199 -0.20863801
0.19706047 -0.39412084 -0.15253261
0.20559619 -0.44056326 -0.09156315
0.21490423 -0.49120969 -0.02507709
0.22509506 -0.54665941 0.047714472
0.2363005 -0.60762984 0.12775323
0.24868001 -0.67498857 0.21617849
0.26242834 -0.7497952 0.31438076
0.27778578 -0.83335721 0.42407677
0.2950536 -0.92731118 0.54741824
0.31460914 -1.0337157 0.68710089
0.32140869 1.0847543 0.44869688
0.31342566 1.0186335 0.39880317
0.30582961 0.95571756 0.35132769
0.29859197 0.89577591 0.3060925
0.29168999 0.83860868 0.26295504
0.28509986 0.78402472 0.22176695
0.27880189 0.73185492 0.1824044
0.27277526 0.68193817 0.14473793
0.26700366 0.6341337 0.10866544
0.26147121 0.58831024 0.074087769
0.25616419 0.5443489 0.040918797
0.25106755 0.5021351 0.0090648532
0.24616976 0.46156833 -0.021546289
0.24145941 0.42255402 -0.050985917
0.23692594 0.38500473 -0.079320148
0.23255958 0.3488394 -0.10661004
0.22835185 0.3139838 -0.13290837
0.22429307 0.28036636 -0.15827571
0.22037606 0.24792311 -0.18275701
0.21659352 0.21659358 -0.20639786
0.21293916 0.18632182 -0.2292376
0.20940554 0.15705425 -0.25132263
0.2059873 0.1287421 -0.27268666
0.20267887 0.10133944 -0.29336438
0.19947504 0.074803151 -0.31338847
0.19637135 0.049092889 -0.33278641
0.19336233 0.02417028 -0.35159272
0.19044414 4.4703484e-08 -0.36983144
0.18761273 -0.023451522 -0.38752776
0.18486425 -0.046215996 -0.40470564
0.18219556 -0.068323255 -0.42138514
0.17960243 -0.089801177 -0.43759218
0.17708208 -0.11067627 -0.45334435
0.17463148 -0.13097356 -0.46866059
0.1732882 -0.15162717 -0.47705615
0.17900617 -0.17900616 -0.44131869
0.1851144 -0.20825367 -0.40314233
0.19165422 -0.2395677 -0.36226857
0.19867302 -0.27317542 -0.31840098
0.20622596 -0.3093389 -0.27119505
0.21437535 -0.34835994 -0.22026137
0.22319528 -0.39059174 -0.16513669
0.23277214 -0.43644777 -0.10528147
0.24320766 -0.48641536 -0.040059358
0.25462279 -0.54107344 0.031285271
0.26716226 -0.60111499 0.10965678
0.28100076 -0.66737676 0.1961474
0.29635221 -0.74088049 0.29209399
0.3134768 -0.82287645 0.3991226
0.33270183 -0.91493005 0.51927906
0.35443899 -1.019012 0.65513623
0.35815912 1.0744774 0.42966557
0.34934551 1.0092205 0.38070109
0.34095404 0.94709468 0.33408183
0.33295742 0.88788652 0.28965619
0.32532734 0.83139211 0.24726668
0.31804013 0.77743137 0.20678222
0.31107125 0.72583288 0.1680662
0.30440122 0.67644715 0.1310105
0.29801121 0.62913471 0.095510423
0.29188398 0.58376789 0.06147027
0.28600448 0.54023075 0.028806418
0.28035635 0.49841133 -0.0025720447
0.27492699 0.45821166 -0.032735214
0.26970389 0.41953942 -0.061752319
0.26467559 0.38230917 -0.089687482
0.25983202 0.34644276 -0.11659602
0.25516188 0.31186458 -0.14254123
0.25065666 0.27850744 -0.16757029
0.24630776 0.24630783 -0.19173089
0.24210721 0.21520649 -0.21506733
0.23804811 0.18514854 -0.23761792
0.23412231 0.15608159 -0.25942793
0.23032387 0.12795773 -0.28053027
0.22664672 0.10073191 -0.30095893
0.22308517 0.074361771 -0.32074535
0.21963429 0.048807636 -0.33991688
0.21628807 0.024032071 -0.35850692
0.21304227 -0 -0.37653911
0.20989247 -0.023321331 -0.39403808
0.2068349 -0.045963272 -0.41102457
0.20386468 -0.067954883 -0.42752579
0.20097858 -0.089323744 -0.44355983
0.19817303 -0.1100961 -0.45914602
0.19544475 -0.13029644 -0.47430322
0.19360285 -0.15058 -0.48453593
0.199946 -0.1777297 -0.44929612
0.20671847 -0.20671844 -0.4116714
0.21396579 -0.23773971 -0.37140852
0.22173974 -0.2710152 -0.32821989
0.23009987 -0.30679977 -0.28177467
0.23911513 -0.34538844 -0.23169008
0.2488656 -0.38712418 -0.17752078
0.25944507 -0.43240836 -0.11874583
0.27096474 -0.48171505 -0.054747716
0.28355405 -0.53560209 0.015192956
0.29737023 -0.59474039 0.091949344
0.31260172 -0.65993685 0.17656873
0.32947776 -0.73217285 0.27032477
0.34827995 -0.81265324 0.37478131
0.36935797 -0.90287501 0.49188137
0.39315325 -1.004725 0.6240775
0.39421973 1.0643933 0.41099125
0.38460615 0.99997616 0.36292353
0.37545165 0.93862927 0.3171511
0.36672285 0.88013482 0.27350682
0.35839066 0.8242985 0.23184589
0.35042986 0.77094555 0.19204181
0.34281391 0.71990919 0.15396208
0.33552197 0.67104399 0.11750239
0.32853377 0.62421405 0.082561314
0.32183167 0.57929707 0.049051017
0.31539667 0.53617436 0.016875982
0.30921394 0.49474233 -0.014037669
0.30326894 0.45490342 -0.043762624
0.29754823 0.41656756 -0.072366163
0.29204017 0.3796522 -0.099906534
0.28673154 0.34407786 -0.12644973
0.28161246 0.30977374 -0.15204507
0.27667296 0.27667299 -0.17674255
0.27190375 0.24471338 -0.20058858
0.26729685 0.21383756 -0.22362302
0.26284283 0.18399006 -0.24589323
0.25853479 0.15512095 -0.26743343
0.25436568 0.12718287 -0.28827897
0.25032893 0.10013156 -0.30846283
0.24641885 0.073925719 -0.32801312
0.24262848 0.048525706 -0.3469649
0.23895298 0.023895308 -0.3653425
0.23538716 -0 -0.38317162
0.2319262 -0.02319254 -0.4004764
0.22856602 -0.045713216 -0.41727728
0.22530136 -0.067590341 -0.43360063
0.22212863 -0.088851377 -0.44946426
0.21904401 -0.10952199 -0.46488726
0.2160439 -0.12962632 -0.47988784
0.21363926 -0.14954749 -0.49191105
0.22058888 -0.17647105 -0.45716295
0.22800586 -0.20520528 -0.42007813
0.23593892 -0.23593888 -0.38041276
0.24444395 -0.26888824 -0.33788764
0.25358507 -0.30430207 -0.29218203
0.26343706 -0.3424682 -0.24292195
0.27408481 -0.38371867 -0.18968326
0.28562957 -0.4284443 -0.13195953
0.29818964 -0.47710332 -0.06915912
0.31190515 -0.53023875 -0.00058165193
0.32694319 -0.58849764 0.07460846
0.34350473 -0.652659 0.15741634
0.36183369 -0.72366738 0.24906117
0.38223034 -0.80268365 0.3510443
0.40506226 -0.89113706 0.46520424
0.43079519 -0.99082887 0.59386873
0.42960975 1.0544968 0.39266434
0.41922823 0.9909032 0.34547564
0.40933809 0.93031377 0.30052015
0.3999038 0.87251729 0.25763708
0.39089587 0.81732774 0.21669203
0.3822836 0.76456714 0.17754528
0.37404263 0.71408141 0.14008635
0.36614946 0.66572636 0.1042085
0.35858256 0.6193698 0.069813251
0.3513231 0.57489228 0.036815763
0.34435076 0.5321784 0.0051233172
0.33764976 0.49112689 -0.025335699
0.33120459 0.45164269 -0.054631889
0.32500085 0.41363746 -0.082830772
0.31902614 0.37703097 -0.10998847
0.31326628 0.34174508 -0.13616967
0.30771074 0.30771077 -0.16142228
0.30234879 0.27486253 -0.18579474
0.29717126 0.24314019 -0.20932892
0.29216734 0.21248536 -0.23207396
0.28732917 0.18284586 -0.25406575
0.28264859 0.154172 -0.27534097
0.27811807 0.1264174 -0.2959342
0.27373049 0.099538468 -0.31587774
0.26947984 0.073494524 -0.335199
0.26535857 0.048247084 -0.35393196
0.26136145 0.0237602 -0.37210071
0.25748298 -1.4901161e-08 -0.38973019
0.25371847 -0.023065299 -0.40684158
0.25006193 -0.045465782 -0.42346221
0.2465093 -0.067229763 -0.43961054
0.24305616 -0.088384017 -0.45530659
0.23969845 -0.10895377 -0.47056895
0.23643273 -0.12896329 -0.4854131
0.2334023 -0.1485287 -0.49918774
0.24094142 -0.17523007 -0.46491906
0.24898437 -0.20371443 -0.42836019
0.25758225 -0.23416567 -0.38927895
0.26679516 -0.26679516 -0.34740198
0.27669159 -0.30184531 -0.30241841
0.28735048 -0.33959591 -0.25396889
0.29886344 -0.38037163 -0.2016371
0.3113375 -0.42455116 -0.14493683
0.32489821 -0.47257912 -0.083297193
0.33969504 -0.52498329 -0.016038984
0.35590285 -0.58238643 0.057632864
0.37373477 -0.64554173 0.13868706
0.39344785 -0.71535975 0.22829205
0.41535631 -0.7929529 0.32787579
0.43984848 -0.87969691 0.43920389
0.46741015 -0.97731197 0.564484
0.49865893 -1.0879831 0.70652401
0.46434608 1.0447787 0.37466797
0.4532277 0.98199332 0.32834131
0.44262934 0.92214441 0.28418142
0.43251526 0.86503065 0.24203971
0.42285454 0.81047112 0.20178649
0.4136146 0.75829339 0.16328666
0.40476978 0.7083472 0.12643349
0.39629537 0.6604923 0.091123402
0.38816971 0.61460203 0.057266295
0.38036942 0.57055426 0.024765313
0.37287647 0.52824175 -0.0064553618
0.36567301 0.48756403 -0.036469802
0.35874259 0.44842821 -0.065346569
0.35207096 0.41074952 -0.093144983
0.34564203 0.37444559 -0.1199322
0.33944365 0.33944371 -0.14575872
0.3334637 0.30567509 -0.17067537
0.32769078 0.27307564 -0.19472919
0.32211512 0.24158642 -0.217961
0.31672528 0.2111502 -0.2404187
0.31151283 0.18171585 -0.2621372
0.30646917 0.15323466 -0.28315243
0.30158624 0.12566094 -0.30349803
0.29685715 0.09895236 -0.32320261
0.2922734 0.073068365 -0.34230149
0.28782907 0.047971547 -0.36081955
0.28351787 0.023626536 -0.3787829
0.27933392 4.4703484e-08 -0.39621603
0.27527225 -0.022939265 -0.41313964
0.27132645 -0.045221061 -0.42958054
0.26749212 -0.066872999 -0.44555682
0.26376468 -0.087921545 -0.46108782
0.26014024 -0.10839173 -0.47618973
0.25661352 -0.12830676 -0.4908843
0.25318113 -0.14768897 -0.5051859
0.26101026 -0.17400685 -0.47256464
0.2696597 -0.2022447 -0.43652532
0.27890208 -0.2324183 -0.39801547
0.28880045 -0.2647337 -0.35677207
0.2994273 -0.29942724 -0.31249362
0.31086606 -0.33677155 -0.26483196
0.32321438 -0.37708342 -0.21338081
0.33658338 -0.42072916 -0.15767665
0.35110602 -0.46814132 -0.097165644
0.36693838 -0.51982933 -0.031197369
0.38426608 -0.57639903 0.04100126
0.40331134 -0.63857621 0.12035656
0.42434296 -0.70723832 0.20798831
0.44768873 -0.78345519 0.30526245
0.47375464 -0.86855006 0.41387025
0.50304145 -0.96416271 0.53589869
0.53618783 -1.0723757 0.67400861
0.51086777 1.1003305 0.40476853
0.4984498 1.0352418 0.35700718
0.48662117 0.9732424 0.31151271
0.47534096 0.91411734 0.26812717
0.46457347 0.85767412 0.2267136
0.45428145 0.8037287 0.1871289
0.44443554 0.75212175 0.14926019
0.43500739 0.70270431 0.11299801
0.42597097 0.65534002 0.07824257
0.41730356 0.60990524 0.044906408
0.40898064 0.56628084 0.012895167
0.40098324 0.52436274 -0.017864183
0.39329258 0.48405242 -0.047443628
0.38589141 0.44525924 -0.075909719
0.37876466 0.40790045 -0.10332017
0.37189537 0.37189543 -0.12974054
0.36527082 0.3371731 -0.15521957
0.35887814 0.30366617 -0.17980684
0.35270628 0.27131251 -0.2035448
0.34674221 0.24005237 -0.22648333
0.34097654 0.20983168 -0.24865922
0.33539945 0.18059973 -0.27010944
0.33000186 0.15230852 -0.29086947
0.32477602 0.12491387 -0.31096885
0.31971237 0.09837307 -0.33044446
0.31480417 0.072647184 -0.34932208
0.31004441 0.047699213 -0.36762887
0.30542645 0.023494422 -0.38539028
0.30094466 1.0430813e-07 -0.40262783
0.29659188 -0.022814736 -0.41936928
0.29236323 -0.044978946 -0.43563342
0.28825346 -0.066519991 -0.45144027
0.28425762 -0.087463886 -0.46680886
0.28037161 -0.10783525 -0.48175499
0.27658987 -0.12765685 -0.49630013
0.27290881 -0.14695086 -0.51045811
0.28080025 -0.17280009 -0.48010638
0.29003885 -0.20079607 -0.44457334
0.29990673 -0.23069744 -0.40662
0.310469 -0.26270443 -0.36599594
0.32180241 -0.2970483 -0.32240579
0.33399457 -0.33399448 -0.27551278
0.34714699 -0.37385061 -0.22492656
0.36137775 -0.41697431 -0.1701929
0.37682509 -0.46378464 -0.11078002
0.39365205 -0.51477569 -0.046061024
0.41205329 -0.57053524 0.024713039
0.43225786 -0.63176137 0.10242277
0.45454594 -0.69930142 0.18814635
0.47925752 -0.77418512 0.28319064
0.50681043 -0.85767901 0.38916343
0.53772467 -0.9513588 0.50806421
0.5726552 -1.0572096 0.64241284
0.54506594 1.090132 0.38655686
0.53193653 1.0258776 0.33966598
0.51942474 0.96464604 0.29498115
0.5074898 0.90623176 0.2523562
0.49608931 0.85043883 0.21164021
0.48518977 0.79709756 0.17271331
0.47475892 0.74604964 0.13546008
0.46476707 0.69715059 0.099775016
0.45518854 0.65026939 0.065566123
0.44599554 0.60527968 0.032733977
0.43716651 0.5620712 0.0012015402
0.42868021 0.5205403 -0.029106587
0.42051715 0.48059106 -0.058260381
0.4126603 0.44213608 -0.08632046
0.40509057 0.40509063 -0.11335525
0.39779356 0.36937979 -0.13941604
0.39075476 0.33493266 -0.16455464
0.38396072 0.30168349 -0.18881905
0.37739986 0.26957136 -0.21225059
0.37105855 0.23853767 -0.2348983
0.36492682 0.20852964 -0.25679728
0.35899439 0.17949721 -0.2779845
0.35325181 0.15139365 -0.29849374
0.34769085 0.1241753 -0.31835431
0.34230149 0.097800463 -0.33760205
0.33707663 0.072230697 -0.35626224
0.3320089 0.047429875 -0.37436134
0.32709199 0.023363739 -0.39192167
0.3223179 7.4505806e-08 -0.40897194
0.31768119 -0.022691503 -0.42553174
0.31317595 -0.04473938 -0.44162184
0.30879673 -0.066170678 -0.45726189
0.30453828 -0.08701092 -0.47247061
0.30039629 -0.10728438 -0.48726344
0.2963649 -0.12701346 -0.5016613
0.29244024 -0.14622001 -0.51567793
0.30031824 -0.17161043 -0.48754209
0.31012878 -0.19936848 -0.45250461
0.32060191 -0.22900137 -0.41510051
0.33180711 -0.26070553 -0.37508196
0.34382394 -0.29470626 -0.3321647
0.3567439 -0.33126214 -0.28602198
0.37067369 -0.37067363 -0.23627275
0.3857345 -0.41328698 -0.18248409
0.402071 -0.45950967 -0.12413943
0.41985252 -0.50982082 -0.060634106
0.4392795 -0.56478786 0.0087480843
0.46059155 -0.62508845 0.084862471
0.48407701 -0.69153857 0.16873908
0.51008618 -0.76512921 0.2616289
0.53905088 -0.84707987 0.3650744
0.5715009 -0.93889433 0.48096728
0.60810804 -1.0424707 0.61170709
0.57863599 1.0801206 0.36867926
0.56482291 1.0166812 0.32263565
0.55165392 0.95620012 0.27873895
0.53908688 0.89847809 0.23684886
0.52707785 0.8433246 0.19681886
0.51559228 0.79057491 0.15853357
0.50459653 0.74007493 0.12188107
0.49406159 0.69168615 0.086764455
0.48395601 0.64527476 0.053079426
0.47425556 0.60072374 0.020744562
0.46493635 0.55792361 -0.010319531
0.45597637 0.51677322 -0.040186182
0.44735515 0.47717887 -0.068923518
0.43905511 0.43905514 -0.096590325
0.43105626 0.40231922 -0.12325311
0.42334372 0.36689794 -0.14896166
0.41590223 0.33272186 -0.17376652
0.40871894 0.29972726 -0.19771083
0.40177858 0.26785246 -0.22084551
0.3950699 0.23704197 -0.24320762
0.38858166 0.20724358 -0.26483515
0.38230303 0.17840813 -0.28576389
0.37622499 0.15049008 -0.30602399
0.37033635 0.12344544 -0.3256529
0.36462915 0.097234443 -0.34467682
0.35909525 0.071819127 -0.36312327
0.35372677 0.047163561 -0.38101816
0.34851721 0.023234516 -0.39838338
0.34345812 4.4703484e-08 -0.41524684
0.33854383 -0.022569537 -0.43162787
0.33376816 -0.044502363 -0.44754672
0.32912537 -0.065825015 -0.46302277
0.32461065 -0.086562827 -0.47807184
0.32021746 -0.10673912 -0.49271584
0.31594157 -0.12637666 -0.50696874
