# .PCD v0.7 - Point Cloud Data file format
VERSION 0.7
FIELDS x y z
SIZE 4 4 4
TYPE F F F
COUNT 1 1 1
WIDTH 1375
HEIGHT 1
VIEWPOINT 0 0 0 1 0 0 0
POINTS 1375
DATA ascii
-0.92650586 0.42761815 0.22163466
-0.88024896 0.37241304 0.13267916
-0.8383913 0.32245815 0.052183539
-0.80033135 0.27703783 -0.021008492
-0.7655791 0.23556282 -0.087839819
-0.73371929 0.19753985 -0.14910862
-0.70440531 0.1625551 -0.20548174
-0.7026329 0.13512178 -0.20889021
-0.71488053 0.1099817 -0.18533701
-0.72756279 0.083949558 -0.16094816
-0.74070305 0.056977179 -0.13567841
-0.75432676 0.029012669 -0.10947897
-0.76846099 1.4901161e-08 -0.08229769
-0.78313506 -0.030120539 -0.05407846
-0.79838037 -0.06141381 -0.024760455
-0.81423104 -0.093949653 0.0057216175
-0.83072388 -0.12780361 0.037438612
-0.84789866 -0.16305739 0.070467167
-0.86579865 -0.19979967 0.10489009
-0.8844707 -0.2381267 0.14079785
-0.90396583 -0.27814323 0.17828853
-0.92433977 -0.31996375 0.2174691
-0.9456532 -0.36371273 0.25845659
-0.96797282 -0.40952694 0.30137879
-0.92906415 0.48311329 0.29802084
-0.88079423 0.42278135 0.20148119
-0.83729231 0.36840865 0.11447735
-0.7978853 0.31915414 0.035663307
-0.76202089 0.27432752 -0.036065638
-0.72924197 0.23335749 -0.10162337
-0.69916493 0.19576621 -0.16177754
-0.67147231 0.16115341 -0.21716273
-0.67129141 0.13425833 -0.21752448
-0.6829167 0.10926664 -0.19427393
-0.69495177 0.083394274 -0.17020383
-0.70741856 0.0565935 -0.14527032
-0.72034079 0.028813649 -0.11942576
-0.73374397 -2.9802322e-08 -0.092619427
-0.74765533 -0.029906154 -0.064796656
-0.76210225 -0.060968168 -0.035902876
-0.77712071 -0.09325444 -0.005865857
-0.79274297 -0.12683888 0.025378644
-0.80900633 -0.16180113 0.057905309
-0.82595086 -0.19822821 0.091794454
-0.84362048 -0.23621365 0.1271335
-0.86206251 -0.27585995 0.16401771
-0.881329 -0.31727839 0.2025506
-0.9014762 -0.36059049 0.24284512
-0.92256624 -0.40592912 0.28502512
-0.94466668 -0.45343986 0.3292259
-0.93185496 0.54358214 0.38125721
-0.88138878 0.47741899 0.27611926
-0.83610785 0.41805404 0.18178403
-0.7952522 0.36449069 0.096668154
-0.758201 0.31591713 0.019478098
-0.72445065 0.27166903 -0.050835133
-0.69357699 0.23119232 -0.11515538
-0.66522717 0.19402462 -0.17421734
-0.63910401 0.15977608 -0.22864068
-0.64034641 0.13340557 -0.2260524
-0.65136409 0.10856076 -0.20309877
-0.66276759 0.082845971 -0.17934147
-0.67457747 0.056214806 -0.15473758
-0.68681592 0.028617363 -0.1292409
-0.69950658 7.8231096e-08 -0.10280194
-0.71267509 -0.029694753 -0.075367592
-0.72634894 -0.060529083 -0.046880454
-0.74055773 -0.092569634 -0.017278716
-0.75533348 -0.12588891 0.013504125
-0.77071095 -0.16056478 0.045540441
-0.78672749 -0.19668183 0.078908257
-0.80342382 -0.23433182 0.11369228
-0.82084429 -0.27361465 0.14998479
-0.83903682 -0.31463885 0.1878861
-0.85805124 -0.35752141 0.22749949
-0.87795049 -0.40239394 0.26895612
-0.89879465 -0.44939727 0.31238154
-0.92065257 -0.49868673 0.3579188
-0.94360018 -0.55043346 0.40572625
-0.88203591 0.5368914 0.35736194
-0.83482134 0.47185558 0.25472161
-0.79240721 0.41342992 0.16251694
-0.75409454 0.36065391 0.079228491
-0.71931577 0.31274608 0.003622666
-0.68760359 0.26906234 -0.065316923
-0.65856951 0.2290677 -0.12843454
-0.63188636 0.19231324 -0.18644136
-0.60728276 0.15842162 -0.2399274
-0.60979193 0.13256347 -0.23447272
-0.62021661 0.10786381 -0.21181044
-0.63100386 0.08230491 -0.18835986
-0.64217299 0.055841178 -0.16407898
-0.6537447 0.028423674 -0.13892321
-0.66574109 1.1920929e-07 -0.11284412
-0.67818594 -0.029486252 -0.08579006
-0.69110495 -0.060096093 -0.057705238
-0.70452577 -0.091894716 -0.028529685
-0.71847808 -0.12495269 0.0018014424
-0.7329942 -0.15934652 0.033358235
-0.74810898 -0.19515887 0.066216424
-0.76386023 -0.23247921 0.10045843
-0.78028905 -0.27140492 0.1361731
-0.79743999 -0.31204173 0.17345801
-0.81536198 -0.35450518 0.21241865
-0.83410805 -0.39892122 0.25317097
-0.85373628 -0.44542757 0.29584113
-0.87431067 -0.49417561 0.34056801
-0.89590114 -0.54533106 0.38750368
-0.91858488 -0.59907705 0.43681633
-0.8827396 0.60186791 0.44611895
-0.83342534 0.53036165 0.33404118
-0.78932935 0.46642202 0.23382303
-0.74966514 0.40890831 0.14367707
-0.71379429 0.35689718 0.062152445
-0.68120146 0.30963707 -0.011922285
-0.65145504 0.26650441 -0.079527631
-0.62419796 0.22698113 -0.14147569
-0.59913003 0.19063233 -0.19844809
-0.57599795 0.15709037 -0.25102109
-0.57962078 0.13173202 -0.24278742
-0.58946645 0.10717575 -0.22041088
-0.59965235 0.081770845 -0.19726102
-0.61019647 0.055472501 -0.17329714
-0.62111807 0.028232668 -0.14847541
-0.63243777 5.9604645e-08 -0.12274891
-0.64417768 -0.029280759 -0.096067287
-0.6563617 -0.059669182 -0.06837631
-0.66901547 -0.091229349 -0.039617635
-0.68216676 -0.12403029 -0.0097283944
-0.69584543 -0.1581466 0.021359541
-0.71008396 -0.19365926 0.053719819
-0.72491735 -0.23065549 0.087431982
-0.74038363 -0.2692304 0.12258276
-0.75652432 -0.30948713 0.15926608
-0.77338445 -0.35153839 0.19758451
-0.79101312 -0.39550647 0.23764977
-0.80946428 -0.44152588 0.27958411
-0.82879674 -0.48974338 0.32352147
-0.8490752 -0.54032052 0.36960891
-0.87037092 -0.59343475 0.41800845
-0.89276236 -0.64928168 0.46889803
-0.88351512 0.67315429 0.54350007
-0.83190173 0.59421551 0.42061093
-0.78598297 0.5239886 0.31128058
-0.74487072 0.46111053 0.21339439
-0.70784557 0.40448323 0.12523931
-0.67432702 0.35321897 0.045433104
-0.64383924 0.30659014 -0.027156785
-0.61598909 0.26399535 -0.093466684
-0.59044689 0.22493225 -0.15428141
-0.56694001 0.18898012 -0.21025017
-0.54523319 0.15578097 -0.26193309
-0.54982573 0.1309109 -0.25099847
-0.55910611 0.10649645 -0.22890237
-0.56870514 0.081243575 -0.20604756
-0.57863951 0.055108517 -0.18239433
-0.58892709 0.028044134 -0.15790001
-0.59958714 5.2154064e-08 -0.13251896
-0.61064017 -0.029078055 -0.10620213
-0.62210846 -0.059248377 -0.078896783
-0.63401568 -0.090573601 -0.050546292
-0.64638764 -0.12312146 -0.021089252
-0.65925199 -0.15696472 0.0095403045
-0.67263889 -0.19218245 0.041413732
-0.68658066 -0.22886015 0.074608408
-0.70111263 -0.26709047 0.10920839
-0.71627301 -0.30697405 0.14530462
-0.73210359 -0.34862062 0.18299644
-0.74864972 -0.39214978 0.22239199
-0.76596105 -0.43769205 0.26360947
-0.78409189 -0.48539028 0.30677825
-0.80310196 -0.53540123 0.35204008
-0.8230567 -0.58789772 0.39955136
-0.84402823 -0.64306909 0.44948366
-0.86609656 -0.70112568 0.50202727
-0.88934982 -0.76229978 0.55739224
-0.83022887 0.66418296 0.51546478
-0.78233743 0.58675295 0.39573604
-0.7396698 0.51776886 0.28906709
-0.7014156 0.4559201 0.19343145
-0.6669215 0.40015283 0.10719632
-0.63566303 0.34961468 0.029050216
-0.60720348 0.30360174 -0.042098641
-0.58118308 0.26153246 -0.10714959
-0.55730122 0.22292052 -0.16685435
-0.53530449 0.18735662 -0.22184606
-0.51497829 0.1544935 -0.27266163
-0.52039981 0.13009997 -0.25910777
-0.52912819 0.10582566 -0.23728688
-0.53815436 0.080723114 -0.21472147
-0.54749376 0.054749422 -0.1913729
-0.55716306 0.027858235 -0.16719964
-0.5671801 8.9406967e-08 -0.14215712
-0.57756388 -0.028878137 -0.1161976
-0.58833498 -0.058833513 -0.089269958
-0.59951538 -0.089927405 -0.061318871
-0.61112905 -0.12222569 -0.032284826
-0.62320149 -0.15580028 -0.002103731
-0.63576049 -0.19072817 0.029293969
-0.64883614 -0.22709267 0.061983019
-0.66246092 -0.26498431 0.09604501
-0.67667019 -0.3045015 0.13156812
-0.69150239 -0.34575111 0.16864851
-0.70699936 -0.38884962 0.20739096
-0.72320682 -0.43392405 0.24790977
-0.74017489 -0.48111358 0.29032975
-0.75795823 -0.53057081 0.33478817
-0.77661717 -0.58246279 0.38143545
-0.79621798 -0.63697428 0.43043759
-0.81683379 -0.69430864 0.48197693
-0.83854544 -0.75469083 0.53625631
-0.86144292 -0.8183707 0.5934999
-0.82839113 0.74119216 0.61986941
-0.77834725 0.65545034 0.4881748
-0.73400253 0.5794757 0.37147832
-0.69444078 0.51169318 0.26736838
-0.65892565 0.45084387 0.17390734
-0.62686628 0.39591554 0.089540765
-0.5977819 0.3460843 0.013002917
-0.57127661 0.30067196 -0.056747735
-0.54702055 0.25911501 -0.12057962
-0.52474171 0.22094391 -0.17920804
-0.50420666 0.18576038 -0.2332477
-0.48521823 0.15322691 -0.28321722
-0.49133629 0.12929904 -0.2671172
-0.49952558 0.10516325 -0.24556637
-0.50799251 0.080209404 -0.22328497
-0.51675141 0.054394856 -0.20023528
-0.52581763 0.027674586 -0.1763767
-0.53520769 7.4505806e-08 -0.15166597
-0.54493928 -0.02868095 -0.12605672
-0.55503124 -0.058424331 -0.099498883
-0.56550401 -0.08929009 -0.071938768
-0.57637966 -0.12134312 -0.043318663
-0.58768183 -0.15465307 -0.013576113
-0.59943616 -0.18929556 0.017356187
-0.6116702 -0.22535211 0.049551062
-0.62441409 -0.26291117 0.083087571
-0.6377002 -0.30206841 0.11805119
-0.65156412 -0.34292841 0.15453498
-0.66604418 -0.3856045 0.19264039
-0.68118244 -0.43022051 0.23247805
-0.69702494 -0.47691178 0.27416879
-0.71362185 -0.52582657 0.31784487
-0.73102844 -0.5771277 0.3636516
-0.74930537 -0.63099396 0.41174889
-0.76851964 -0.68762285 0.46231288
-0.78874534 -0.74723232 0.51553816
-0.81006426 -0.81006426 0.57164085
-0.83256781 -0.87638718 0.63086069
-0.85635728 -0.94650018 0.69346458
-0.82635522 0.82635528 0.73532397
-0.77395803 0.73096037 0.5897761
-0.72780937 0.64694172 0.46158537
-0.68685448 0.5723787 0.34782177
-0.65026319 0.50576031 0.24617928
-0.61737341 0.44588089 0.15481883
-0.58764869 0.39176592 0.072250277
-0.56065655 0.34262347 -0.0027281642
-0.53603506 0.29779726 -0.071121119
-0.51348513 0.25674263 -0.1337598
-0.49275592 0.21900266 -0.19134094
-0.47363535 0.18419158 -0.24445356
-0.45594221 0.15198079 -0.29360121
-0.46262833 0.12850794 -0.27502853
-0.4702912 0.10450922 -0.25374287
-0.47821218 0.079702049 -0.23174013
-0.4864046 0.054045022 -0.20898348
-0.49488258 0.027493507 -0.18543363
-0.50366127 -1.4901161e-08 -0.16104816
-0.51275712 -0.028486516 -0.135782
-0.52218753 -0.058020901 -0.10958649
-0.53197128 -0.08866182 -0.082409322
-0.54212868 -0.12047297 -0.05419426
-0.55268151 -0.1535226 -0.024881005
-0.56365335 -0.18788436 0.0055963472
-0.57506961 -0.22363824 0.037308246
-0.58695787 -0.2608701 0.070331283
-0.59934813 -0.29967394 0.10474847
-0.61227262 -0.34015143 0.14065
-0.62576693 -0.38241309 0.1781341
-0.63986939 -0.42657956 0.21730758
-0.6546222 -0.47278252 0.25828758
-0.6700713 -0.52116644 0.30120182
-0.6862672 -0.57188928 0.34619039
-0.70326549 -0.62512475 0.39340782
-0.72112721 -0.68106455 0.4430238
-0.73991984 -0.7399199 0.49522558
-0.75971818 -0.80192482 0.55022097
-0.7806052 -0.86733907 0.60824043
-0.8026731 -0.93645197 0.66954023
-0.82602519 -1.0095863 0.73440695
-0.76911402 0.81435597 0.70199257
-0.72101021 0.72101021 0.56051081
-0.67856944 0.63865364 0.43568504
-0.640845 0.56545156 0.32473096
-0.60709625 0.49996164 0.2254699
-0.57672423 0.44102442 0.13614047
-0.54924643 0.38770342 0.055323288
-0.52426779 0.33923209 -0.018143162
-0.50146234 0.29497793 -0.085218035
-0.48055694 0.25441256 -0.14670452
-0.46132606 0.21709466 -0.20326604
-0.44357502 0.18264855 -0.2554749
-0.42734981 0.15082929 -0.30319619
-0.43427065 0.12772673 -0.28284073
-0.44141936 0.10386349 -0.26181507
-0.44880733 0.079201363 -0.24008563
-0.45644686 0.053699657 -0.2176165
-0.46435097 0.027314864 -0.19436921
-0.47253358 8.1956387e-08 -0.17030251
-0.48100984 -0.028294615 -0.14537251
-0.48979434 -0.057622802 -0.11953567
-0.49890712 -0.088042386 -0.092733532
-0.50836539 -0.11961538 -0.064915091
-0.51818913 -0.1524086 -0.036021631
-0.52840012 -0.18649417 -0.0059893057
-0.53902161 -0.22195005 0.025250249
-0.55007881 -0.25886056 0.057771482
-0.5615992 -0.29731721 0.091655098
-0.57361245 -0.33741912 0.12698808
-0.58615088 -0.37927404 0.16386586
-0.59924972 -0.42299974 0.2023918
-0.6129474 -0.46872443 0.24267906
-0.6272859 -0.51658827 0.28485107
-0.64231133 -0.56674528 0.32904357
-0.6580742 -0.61936396 0.37540495
-0.67463022 -0.67463022 0.42409924
-0.6920408 -0.7327491 0.47530681
-0.71037382 -0.7939471 0.52922726
-0.72970462 -0.85847598 0.5860827
-0.75011688 -0.92661488 0.6461187
-0.77170402 -0.99867576 0.70961022
-0.79457045 -1.075007 0.77686453
-0.76373297 0.90693289 0.82655811
-0.71350831 0.80269694 0.66960609
-0.66948181 0.71132457 0.53202337
-0.6305728 0.63057274 0.41043252
-0.59593803 0.55869186 0.30219883
-0.56490982 0.49429607 0.20523576
-0.53695107 0.43627277 0.11786468
-0.51163083 0.38372314 0.038738921
-0.48859099 0.33590645 -0.033260405
-0.46753687 0.29221055 -0.099054672
-0.44822228 0.25212502 -0.15941283
-0.43044019 0.21522009 -0.21498176
-0.41401419 0.18113121 -0.26631311
-0.39981884 0.14993209 -0.31067351
-0.40625468 0.12695459 -0.2905615
-0.41290113 0.10322536 -0.26979131
-0.41976866 0.078706704 -0.24833035
-0.42686847 0.053358637 -0.22614338
-0.4342126 0.027138337 -0.20319295
-0.44181389 2.9802322e-08 -0.17943895
-0.44968602 -0.028105408 -0.15483852
-0.45784378 -0.057230487 -0.12934555
-0.46630299 -0.087431766 -0.10291048
-0.4750807 -0.11877013 -0.075480133
-0.48419517 -0.15131095 -0.04699745
-0.4936662 -0.18512478 -0.017400354
-0.50351518 -0.22028789 0.013377629
-0.51376516 -0.25688252 0.045408726
-0.52444106 -0.29499802 0.078770965
-0.53556842 -0.33473024 0.11354391
-0.54717994 -0.37618616 0.14982989
-0.55930609 -0.41947952 0.18772429
-0.57198191 -0.46473533 0.22733617
-0.58524567 -0.51208985 0.26878518
-0.59913909 -0.56169289 0.31220227
-0.61370826 -0.61370814 0.35773081
-0.62900358 -0.66831619 0.40552881
-0.6450808 -0.72571582 0.45577016
-0.66200143 -0.78612679 0.50864732
-0.67983371 -0.849792 0.56437302
-0.69865322 -0.91698241 0.62318403
-0.71854442 -0.98799849 0.6853438
-0.73960137 -1.063177 0.75114685
-0.7577284 1.0103045 0.9656539
-0.70519584 0.89324808 0.7905454
-0.65947509 0.79137021 0.638143
-0.61932194 0.70189816 0.5042991
-0.58377558 0.6226939 0.38581121
-0.55209005 0.55209005 0.28019285
-0.52366704 0.48875582 0.18544933
-0.49802729 0.4316237 0.099983603
-0.47478113 0.37982491 0.022496328
-0.45360696 0.33264512 -0.04808414
-0.43424198 0.28949463 -0.11263406
-0.41646275 0.24987775 -0.1718981
-0.40008214 0.21337722 -0.22650015
-0.38494134 0.17963934 -0.27696952
-0.37261349 0.14904539 -0.31806245
-0.37857538 0.12619184 -0.29818949
-0.38473114 0.10259501 -0.2776702
-0.39109042 0.078218102 -0.25647265
-0.39766344 0.053021766 -0.23456252
-0.40446121 0.026964143 -0.21190329
-0.41149539 5.9604645e-08 -0.18845595
-0.4187786 -0.02791851 -0.16417862
-0.42632428 -0.05684315 -0.13902645
-0.43414685 -0.08682923 -0.11295118
-0.44226184 -0.11793648 -0.085901156
-0.45068607 -0.15022863 -0.057820573
-0.45943734 -0.18377492 -0.028649546
-0.46853524 -0.21864974 0.0016767755
-0.47800076 -0.25493371 0.033228524
-0.48785663 -0.29271394 0.066081345
-0.49812746 -0.33208495 0.10031746
-0.50884002 -0.37314928 0.13602611
-0.52002352 -0.41601878 0.17330444
-0.53170967 -0.46081501 0.21225826
-0.54393309 -0.50767082 0.253003
-0.55673176 -0.5567317 0.29566526
-0.57014722 -0.60815698 0.34038335
-0.58422518 -0.66212177 0.38731003
-0.59901375 -0.7188164 0.43660516
-0.61457282 -0.77845889 0.48846868
-0.63096172 -0.84128213 0.54309821
-0.64824861 -0.90754807 0.60072136
-0.66650945 -0.97754711 0.66159075
-0.68582892 -1.0516043 0.7259891
-0.69592667 0.99418104 0.92534506
-0.64839619 0.87996626 0.75559324
-0.60694313 0.78035539 0.60754663
-0.57047188 0.69271582 0.47729212
-0.53813529 0.61501181 0.36180449
-0.50926799 0.54564422 0.25870687
-0.48333851 0.48333859 0.16610171
-0.45992294 0.42707133 0.082474574
-0.43867132 0.37600404 0.0065758824
-0.41929683 0.32944754 -0.062618509
-0.40156141 0.28682962 -0.12595943
-0.38526544 0.24767067 -0.18415934
-0.37023959 0.21156548 -0.23782308
-0.35634267 0.17817137 -0.28745496
-0.34572801 0.14816913 -0.3253645
-0.35122669 0.12543809 -0.30572638
-0.35690311 0.10197237 -0.28545338
-0.36276603 0.077735536 -0.26451445
-0.36882475 0.052689292 -0.24287602
-0.37508932 0.026792094 -0.22050259
-0.3815704 9.6857548e-08 -0.19735599
-0.38827935 -0.027734213 -0.1733954
-0.39522845 -0.056461163 -0.14857723
-0.40243083 -0.086235136 -0.1228544
-0.40990058 -0.11711439 -0.096176803
-0.41765288 -0.14916167 -0.068489984
-0.42570406 -0.18244457 -0.039735779
-0.43407175 -0.21703586 -0.0098510832
-0.44277498 -0.25301427 0.021231838
-0.45183435 -0.29046482 0.053586759
-0.46127221 -0.32948017 0.087293342
-0.4711127 -0.37015995 0.12243814
-0.48138225 -0.41261345 0.15911505
-0.49210951 -0.45695883 0.19742666
-0.50332576 -0.5033257 0.23748457
-0.51506519 -0.55185556 0.27941123
-0.52736533 -0.60270315 0.32334024
-0.54026735 -0.65603876 0.3694188
-0.55381644 -0.71204966 0.41780853
-0.5680626 -0.77094209 0.46868765
-0.5830611 -0.83294433 0.52225363
-0.59887302 -0.89830941 0.57872474
-0.61556393 -0.96731472 0.63833511
-0.63321453 -1.0402809 0.70137298
-0.63606948 0.97856843 0.88631374
-0.59326345 0.86707729 0.72167504
-0.55585563 0.76964617 0.57779884
-0.52288342 0.68377072 0.45098281
-0.49360567 0.60751474 0.33837605
-0.46743277 0.5393455 0.23771097
-0.44389564 0.47804153 0.14718363
-0.42261526 0.42261532 0.065336004
-0.40328193 0.37226027 -0.0090229958
-0.38563901 0.32630998 -0.076880321
-0.36947608 0.28421241 -0.13904551
-0.35461348 0.24550164 -0.1962094
-0.34090039 0.20978488 -0.24895199
-0.32820839 0.17672768 -0.2977674
-0.31915683 0.14730319 -0.33258116
-0.32420275 0.12469334 -0.31317371
-0.32941082 0.10135727 -0.29314265
-0.33478892 0.077259079 -0.27245763
-0.34034556 0.052360855 -0.25108594
-0.34608975 0.026622288 -0.22899297
-0.3520312 8.1956387e-08 -0.2061412
-0.35818017 -0.027552277 -0.18249127
-0.36454779 -0.056084253 -0.1580005
-0.3711459 -0.085649006 -0.13262305
-0.3779873 -0.11630371 -0.10631002
-0.38508561 -0.14810976 -0.079008952
-0.39245564 -0.18113324 -0.050662652
-0.40011325 -0.21544564 -0.021210209
-0.40807569 -0.25112352 0.0094144195
-0.41636142 -0.28825021 0.041282684
-0.42499062 -0.32691583 0.074471958
-0.43398508 -0.36721808 0.109066
-0.44336849 -0.40926313 0.14515606
-0.45316663 -0.45316654 0.18284118
-0.46340761 -0.49905425 0.22222963
-0.47412217 -0.54706389 0.26343948
-0.48534396 -0.59734631 0.30660009
-0.49710977 -0.65006655 0.35185328
-0.50946027 -0.70540643 0.39935511
-0.52244008 -0.7635662 0.44927737
-0.53609854 -0.82476681 0.5018099
-0.55048811 -0.88924998 0.5571546
-0.56567383 -0.95729399 0.61556107
-0.58172107 -1.0291989 0.67728162
-0.6222648 1.0889635 1.0326627
-0.57806063 0.96343428 0.8484785
-0.53972018 0.85455704 0.68872672
-0.50614929 0.75922406 0.54884815
-0.47651017 0.67505616 0.42535174
-0.45015022 0.60020024 0.31551853
-0.42655379 0.53319234 0.2172001
-0.40530664 0.47285783 0.12867036
-0.38607693 0.41824999 0.048546523
-0.36858928 0.36858925 -0.02431874
-0.3526172 0.32323241 -0.090869062
-0.33797187 0.28164324 -0.15189117
-0.32449457 0.24337099 -0.20804662
-0.31205013 0.20803344 -0.25989836
-0.30052567 0.17530665 -0.30791706
-0.29289442 0.14644723 -0.33971399
-0.29749781 0.12395748 -0.32053313
-0.30224821 0.10074946 -0.30073977
-0.30715281 0.076788194 -0.28030407
-0.31221917 0.052036591 -0.25919414
-0.31745547 0.02645462 -0.23737624
-0.32287043 -1.4901161e-08 -0.21481392
-0.3284733 -0.02737274 -0.19146857
-0.33427408 -0.055712335 -0.16729872
-0.34028339 -0.085070811 -0.14225984
-0.34651276 -0.11550421 -0.11630419
-0.35297444 -0.14707269 -0.08938051
-0.3596817 -0.17984083 -0.061433531
-0.36664879 -0.21387842 -0.032404006
-0.37389112 -0.24926075 -0.0022277236
-0.38142535 -0.28606895 0.029164806
-0.38926944 -0.32439119 0.061848573
-0.39744291 -0.36432269 0.095904812
-0.40596703 -0.405967 0.13142189
-0.41486478 -0.44943678 0.16849592
-0.42416134 -0.49485481 0.20723146
-0.43388402 -0.54235494 0.24774282
-0.44406295 -0.59208381 0.29015487
-0.4547309 -0.64420211 0.33460474
-0.46592405 -0.69888598 0.38124287
-0.47768217 -0.75633001 0.43023509
-0.49004909 -0.81674844 0.4817639
-0.50307143 -0.88037491 0.5360235
-0.51680678 -0.94747889 0.59325415
-0.53131324 -1.0183504 0.65369797
-0.54665762 -1.0933154 0.71763277
-0.5610714 1.0711362 0.99021685
-0.52182102 0.94876552 0.81180638
-0.48770326 0.8423965 0.65672541
-0.45777306 0.74908316 0.52067918
-0.43130243 0.66655838 0.40035832
-0.40772724 0.59305799 0.29319841
-0.38659576 0.52717602 0.19714607
-0.36754671 0.46778679 0.11055946
-0.35028675 0.4139753 0.032105222
-0.33457416 0.36499006 -0.039315701
-0.32021156 0.32021159 -0.10460023
-0.30703133 0.27911943 -0.16451037
-0.29489323 0.24127634 -0.21968359
-0.28367832 0.20631155 -0.2706604
-0.27328524 0.17390878 -0.31790179
-0.26693547 0.1456012 -0.34676439
-0.27110624 0.12323012 -0.3278062
-0.27540943 0.10014892 -0.30824634
-0.27985144 0.076323181 -0.28805542
-0.28443906 0.051716268 -0.26720262
-0.28917959 0.026289105 -0.24565464
-0.29408085 4.4703484e-08 -0.22337624
-0.29915109 -0.027195536 -0.20032966
-0.30439922 -0.055345286 -0.17647448
-0.30983478 -0.084500358 -0.1517673
-0.31546801 -0.11471561 -0.12616172
-0.32130989 -0.14604995 -0.099607915
-0.32737219 -0.17856658 -0.072051927
-0.33366764 -0.21233381 -0.043436252
-0.34020996 -0.24742541 -0.013698354
-0.34701401 -0.28392053 0.01722911
-0.35409573 -0.3219052 0.049418688
-0.36147252 -0.36147252 0.082949549
-0.36916322 -0.40272343 0.11790724
-0.37718827 -0.44576785 0.15438487
-0.38556999 -0.49072537 0.19248354
-0.39433268 -0.53772634 0.23231387
-0.40350294 -0.58691335 0.27399689
-0.41310984 -0.63844246 0.3176648
-0.42318538 -0.69248521 0.36346263
-0.43376467 -0.74922985 0.41155019
-0.44488648 -0.80888444 0.46210378
-0.45659178 -0.87167507 0.51530981
-0.46893165 -0.93786323 0.57140011
-0.48195699 -1.0077282 0.63060623
-0.49572662 -1.0815854 0.69319552
-0.50184679 1.0538783 0.94912654
-0.46726623 0.93453252 0.7762239
-0.43714416 0.83057386 0.62561339
-0.41067046 0.73920679 0.49324489
-0.38722017 0.65827423 0.37599349
-0.36630338 0.58608544 0.27140954
-0.34752941 0.52129412 0.17753966
-0.33058703 0.46282193 0.092827857
-0.31521982 0.40978572 0.015991658
-0.30121779 0.3614614 -0.054018348
-0.28840682 0.31724748 -0.1180733
-0.2766411 0.2766411 -0.17690194
-0.26579705 0.2392174 -0.23112202
-0.25577173 0.20461743 -0.28124875
-0.24647518 0.17253263 -0.32773149
-0.24127471 0.14476489 -0.35373372
-0.24502258 0.12251136 -0.33499444
-0.24888869 0.099555477 -0.31566393
-0.25287879 0.075863622 -0.29571354
-0.25699887 0.051399916 -0.27511293
-0.26125547 0.02612561 -0.25383008
-0.2656554 2.9802322e-08 -0.23183033
-0.27020609 -0.027020559 -0.20907676
-0.27491543 -0.054982983 -0.1855301
-0.27979183 -0.083937541 -0.16114819
-0.28484434 -0.11393769 -0.13588566
-0.29008269 -0.14504124 -0.10969394
-0.2955173 -0.17731035 -0.082520775
-0.30115944 -0.21081153 -0.054310232
-0.3070212 -0.24561685 -0.02500134
-0.31311569 -0.28180408 0.0054710805
-0.31945705 -0.31945699 0.037177876
-0.32606056 -0.3586666 0.070195422
-0.33294284 -0.39953136 0.10460684
-0.3401219 -0.4421584 0.14050213
-0.34761739 -0.48666432 0.17797966
-0.35545072 -0.533176 0.21714623
-0.3636452 -0.58183223 0.25811851
-0.37222642 -0.63278478 0.30102482
-0.38122246 -0.68620038 0.34600484
-0.39066407 -0.74226165 0.39321291
-0.4005852 -0.80117047 0.44281879
-0.41102183 -0.86314571 0.49500167
-0.42201847 -0.92844057 0.54998505
-0.43361974 -0.9973253 0.60799128
-0.44587687 -1.0701045 0.66927695
-0.44450247 1.0371726 0.90935093
-0.41432592 0.92072427 0.74170321
-0.38798612 0.81908178 0.59537113
-0.36479375 0.72958738 0.46652451
-0.34421894 0.65019131 0.35222012
-0.3258411 0.57927305 0.25012094
-0.30932617 0.51554358 0.15837139
-0.2944046 0.45796269 0.075473696
-0.28085554 0.40568024 0.00020119548
-0.26849946 0.35799932 -0.068443686
-0.2571848 0.31433702 -0.13130295
-0.24678513 0.27420571 -0.18907878
-0.23719387 0.23719391 -0.24236365
-0.22832023 0.2029514 -0.29166156
-0.22008608 0.1711781 -0.33740681
-0.21590756 0.14393842 -0.36062086
-0.21924195 0.12180103 -0.3420966
-0.22268091 0.098969325 -0.32299116
-0.22622949 0.075409859 -0.30327684
-0.229893 0.051087417 -0.28292409
-0.23367709 0.025964148 -0.2619012
-0.23758787 2.2351742e-08 -0.24017474
-0.24163178 -0.026847936 -0.21770871
-0.24581507 -0.054625541 -0.1944681
-0.25014645 -0.083382174 -0.17040496
-0.25463316 -0.11317032 -0.14547856
-0.25928381 -0.14404649 -0.11964173
-0.2641075 -0.1760716 -0.092843637
-0.26911405 -0.20931089 -0.06502939
-0.27431408 -0.24383472 -0.036140226
-0.27971902 -0.27971897 -0.006112799
-0.28534126 -0.31704581 0.025121853
-0.29119411 -0.3559038 0.057637781
-0.29729211 -0.39638942 0.091515511
-0.30365101 -0.43860689 0.12684256
-0.31028783 -0.48266995 0.16371405
-0.31722128 -0.52870214 0.20223309
-0.32447168 -0.57683837 0.24251294
-0.33206123 -0.62722659 0.28467721
-0.34001434 -0.68002856 0.32886121
-0.34835777 -0.73542196 0.37521356
-0.35712096 -0.79360199 0.42389807
-0.36633503 -0.85478175 0.47508729
-0.37603861 -0.91920543 0.52899617
-0.38627025 -0.98713505 0.58583856
-0.39707425 -1.0588646 0.64586073
-0.38894603 1.0209832 0.87080526
-0.36292565 0.90731418 0.70817804
-0.34016851 0.80790031 0.5659458
-0.32009691 0.72021812 0.44049835
-0.30226198 0.6423068 0.32903016
-0.28630862 0.57261729 0.2293216
-0.27195573 0.50991708 0.13961607
-0.25897321 0.4532032 0.058475301
-0.24717373 0.40165731 -0.015271574
-0.2364026 0.35460395 -0.082591057
-0.22653104 0.31148019 -0.14428836
-0.21745028 0.27181283 -0.20104322
-0.20907 0.23520383 -0.25341982
-0.20131171 0.20131171 -0.30190924
-0.19410859 0.16984503 -0.34692866
-0.190828 0.14312103 -0.36743242
-0.19375804 0.12109883 -0.34911954
-0.19677949 0.098389804 -0.33023554
-0.19989665 0.074961305 -0.31075329
-0.20311415 0.050778583 -0.29064387
-0.20643695 0.025804639 -0.26987648
-0.20987025 -2.9802322e-08 -0.24841821
-0.21341971 -0.026677445 -0.22623426
-0.21709126 -0.054272771 -0.20328704
-0.22089136 -0.082834184 -0.17953633
-0.22482689 -0.11241338 -0.1549394
-0.22890516 -0.14306572 -0.12945008
-0.23313415 -0.17485055 -0.10301895
-0.23752232 -0.20783196 -0.075592861
-0.24207886 -0.24207881 -0.047114439
-0.24681365 -0.27766532 -0.017522007
-0.25173661 -0.31467074 0.013246447
-0.25686073 -0.35318345 0.045272216
-0.26219776 -0.3932966 0.078628719
-0.26776132 -0.43511206 0.11340073
-0.27356607 -0.47874057 0.14968058
-0.27962807 -0.5243026 0.18756822
-0.28596485 -0.57192969 0.22717306
-0.29259548 -0.62176538 0.26861435
-0.29954088 -0.67396688 0.31202313
-0.30682406 -0.72870708 0.3575429
-0.31446904 -0.78617263 0.40532422
-0.32250595 -0.84657818 0.45555487
-0.33096445 -0.9101522 0.50842059
-0.33987862 -0.97715092 0.56413388
-0.34928623 -1.0478586 0.6229316
-0.33509877 1.0052963 0.83345544
-0.31300253 0.89429307 0.67562509
-0.29363886 0.79701972 0.53731298
-0.27653247 0.71108347 0.41512454
-0.2613095 0.63460886 0.30638915
-0.24767511 0.56611454 0.20900054
-0.23539299 0.50441349 0.12127094
-0.22427142 0.44854289 0.041831374
-0.21415272 0.3977122 -0.030444965
-0.20490828 0.3512713 -0.096476875
-0.19642892 0.30867407 -0.15704361
-0.18862343 0.26946211 -0.212797
-0.18141459 0.23324738 -0.26428884
-0.17473647 0.19969882 -0.31198967
-0.16853218 0.16853224 -0.35630605
-0.16603164 0.14231285 -0.37416705
-0.16856636 0.12040456 -0.35606194
-0.17117965 0.097816914 -0.33739555
-0.17387526 0.07451798 -0.31814122
-0.17665711 0.050473481 -0.29827082
-0.17952943 0.025647148 -0.27775425
-0.18249671 7.4505806e-08 -0.2565594
-0.18556371 -0.026509121 -0.2346523
-0.18873557 -0.053924404 -0.21199614
-0.19201773 -0.082293302 -0.18855204
-0.19541609 -0.11166631 -0.16427819
-0.19893688 -0.14209771 -0.13912962
-0.20258689 -0.17364591 -0.11305816
-0.20637333 -0.20637333 -0.086012147
-0.21030401 -0.24034742 -0.057935871
-0.21438731 -0.27564073 -0.028769359
-0.21863234 -0.31233191 0.0015522242
-0.22304887 -0.35050529 0.033098847
-0.2276475 -0.3902528 0.065946221
-0.23243976 -0.43167388 0.10017663
-0.2374381 -0.47487611 0.13587917
-0.24265616 -0.51997745 0.17315096
-0.24810787 -0.56710374 0.21209185
-0.25381106 -0.6163981 0.25282872
-0.25978261 -0.66801232 0.2954827
-0.26604193 -0.72211373 0.34019205
-0.27260929 -0.77888364 0.3871018
-0.27951017 -0.83853054 0.43639392
-0.28676951 -0.90127546 0.4882462
-0.29441598 -0.9673667 0.54286379
-0.30248138 -1.037079 0.600474
-0.28287992 0.99007976 0.79722524
-0.26449093 0.88163656 0.6439839
-0.24834681 0.78643149 0.50944924
-0.23406014 0.7021805 0.39039385
-0.22132778 0.62709546 0.28429088
-0.2099085 0.55975604 0.18913017
-0.19961038 0.499026 0.10331251
-0.19027546 0.44397607 0.025521368
-0.18177463 0.39384508 -0.045318767
-0.17400089 0.34800181 -0.11009989
-0.16686435 0.30591798 -0.16957116
-0.16029054 0.26715094 -0.22435279
-0.15421508 0.23132265 -0.27498177
-0.14858335 0.19811112 -0.32191283
-0.14334846 0.16723983 -0.36553696
-0.14151375 0.14151378 -0.38082609
-0.14366184 0.11971819 -0.36292529
-0.14587615 0.097250804 -0.34447265
-0.1481598 0.074079916 -0.32544237
-0.15051608 0.050172031 -0.30580667
-0.15294851 0.025491461 -0.28553638
-0.15546085 2.9802322e-08 -0.26460025
-0.15805712 -0.026342787 -0.2429647
-0.16074157 -0.053580537 -0.22059429
-0.16351879 -0.081759319 -0.19745085
-0.16639365 -0.11092905 -0.17349367
-0.16937141 -0.14114286 -0.14867897
-0.17245768 -0.17245765 -0.12295996
-0.17565854 -0.20493488 -0.096286237
-0.17898045 -0.23864059 -0.068603627
-0.18243042 -0.27364561 -0.039853893
-0.18601601 -0.31002665 -0.0099739581
-0.18974538 -0.34786636 0.021104053
-0.19362733 -0.38725463 0.053453758
-0.19767146 -0.42828807 0.087154746
-0.20188811 -0.4710722 0.12229352
-0.20628858 -0.51572132 0.15896405
-0.21088444 -0.5623585 0.19726291
-0.21569051 -0.61112309 0.23731349
-0.22072071 -0.66216207 0.27923188
-0.22599117 -0.71563858 0.32315236
-0.23151863 -0.77172863 0.36921448
-0.23732415 -0.83063442 0.41759381
-0.24342829 -0.8925705 0.46846187
-0.24985476 -0.95777667 0.52201575
-0.25662974 -1.0265188 0.57847369
-0.26378128 -1.0990887 0.63806987
-0.24929333 1.0968907 0.93282598
-0.23221831 0.975317 0.7620759
-0.21733332 0.86933321 0.61322564
-0.20424157 0.77611804 0.48230845
-0.19263749 0.69349492 0.3662675
-0.18228109 0.61975563 0.26270348
-0.17298141 0.55354047 0.16970679
-0.16458461 0.49375385 0.085738659
-0.15696476 0.43950135 0.0095403045
-0.15001969 0.39005119 -0.059910476
-0.14366315 0.34479159 -0.12347572
-0.1378234 0.30321151 -0.18187328
-0.13243987 0.26487973 -0.23570868
-0.12746109 0.22943 -0.28549644
-0.1228428 0.19654849 -0.3316794
-0.11854774 0.16596685 -0.37462997
-0.11726966 0.14072357 -0.3874107
-0.11903966 0.11903967 -0.36971086
-0.1208639 0.096691161 -0.35146832
-0.12274493 0.073646948 -0.33265811
-0.12468543 0.049874216 -0.3132531
-0.12668826 0.025337711 -0.29322481
-0.12875649 1.4901161e-08 -0.27254239
-0.13089338 -0.026178665 -0.25117356
-0.13310239 -0.053240895 -0.22908339
-0.13538724 -0.081232287 -0.2062349
-0.13775192 -0.1102015 -0.18258828
-0.14020064 -0.14020056 -0.15810089
-0.14273801 -0.17128563 -0.13272715
-0.14536892 -0.20351647 -0.10641819
-0.14809863 -0.23695782 -0.079120986
-0.15093282 -0.2716791 -0.050779089
-0.15387762 -0.30775511 -0.021331251
-0.1569396 -0.34526703 0.0092885643
-0.1601259 -0.38430217 0.041151747
-0.16344428 -0.42495504 0.074335426
-0.16690311 -0.46732855 0.10892364
-0.17051148 -0.51153445 0.14500751
-0.17427877 -0.55769199 0.18268026
-0.17821687 -0.6059373 0.22206134
-0.18233708 -0.65641332 0.26326334
-0.18665229 -0.70927876 0.30641553
-0.191176 -0.76470393 0.35165274
-0.19592518 -0.82288563 0.39914447
-0.20091632 -0.88403165 0.44905585
-0.2061684 -0.94837469 0.50157678
-0.21170244 -1.0161716 0.55691707
-0.21754088 -1.0877043 0.61530137
-0.19629258 1.0796093 0.89354992
-0.18304609 0.9609921 0.72796887
-0.17147443 0.85737211 0.58332288
-0.16127881 0.76607442 0.45587784
-0.15222706 0.68502176 0.3427307
-0.14413784 0.61258578 0.24161559
-0.13686496 0.54745984 0.15070465
-0.13029076 0.48859045 0.068527266
-0.1243192 0.43511724 -0.0061172545
-0.11887103 0.38633084 -0.074219435
-0.11388003 0.34164008 -0.13660698
-0.10929153 0.30055165 -0.1939632
-0.10505848 0.26264626 -0.24687633
-0.1011411 0.22756752 -0.29584351
-0.097505368 0.19501072 -0.3412903
-0.094121948 0.16471344 -0.38358301
-0.093294807 0.13994226 -0.39392227
-0.094695009 0.11836879 -0.37641978
-0.096137866 0.096137926 -0.35838395
-0.097625382 0.073219061 -0.33979005
-0.099159658 0.049579859 -0.32061166
-0.10074292 0.025185719 -0.30082083
-0.10237757 7.4505806e-08 -0.28038776
-0.10406614 -0.026016548 -0.25928062
-0.10581134 -0.052905567 -0.23746562
-0.10761607 -0.08071202 -0.21490644
-0.10948344 -0.10948342 -0.19156434
-0.11141676 -0.13927089 -0.16739784
-0.11341958 -0.17012933 -0.14236252
-0.11549573 -0.20211747 -0.11641064
-0.11764931 -0.23529859 -0.08949101
-0.11988472 -0.26974058 -0.061548419
-0.12220672 -0.30551675 -0.032523304
-0.12462045 -0.34270626 -0.0023517162
-0.12713145 -0.38139427 0.029035866
-0.12974572 -0.4216736 0.061714172
-0.13246977 -0.46364421 0.095764726
-0.13531022 -0.50741327 0.13127036
-0.13827559 -0.55310237 0.16833758
-0.14137386 -0.6008389 0.20706594
-0.14461416 -0.65076363 0.24756956
-0.14800647 -0.70303065 0.28997344
-0.15156122 -0.757806 0.33440781
-0.15529148 -0.8152802 0.3810361
-0.15921 -0.87565488 0.43001768
-0.1633314 -0.93915546 0.48153511
-0.16767119 -1.006027 0.53578222
-0.17224857 -1.0765536 0.59299982
-0.14493598 1.0628637 0.85549217
-0.13529682 0.94707781 0.69483972
-0.12685984 0.84573227 0.55422342
-0.11941335 0.75628459 0.43011507
-0.11279257 0.67675549 0.31976891
-0.1068674 0.60558212 0.22101617
-0.10153368 0.54151303 0.13212079
-0.09670677 0.4835338 0.051672056
-0.092318237 0.43081844 -0.021470129
-0.088310711 0.38267982 -0.088262111
-0.084636644 0.3385466 -0.14949656
-0.081256084 0.297939 -0.20583926
-0.0781352 0.26045069 -0.25785407
-0.075245 0.22573504 -0.30602404
-0.072561152 0.19349644 -0.35075471
-0.070062175 0.16347846 -0.39240438
-0.069584735 0.13916945 -0.4003619
-0.070623226 0.11770543 -0.38305366
-0.071693189 0.095590994 -0.36522093
-0.072796069 0.072796166 -0.34683955
-0.073933415 0.049288958 -0.32788384
-0.075106859 0.02503565 -0.30832639
-0.076318152 -0 -0.28813809
-0.077569157 -0.025856353 -0.26728803
-0.078861862 -0.052574545 -0.24574292
-0.080198385 -0.080198415 -0.22346753
-0.081580997 -0.1087746 -0.20042416
-0.083012104 -0.1383535 -0.17657232
-0.084494323 -0.16898857 -0.15186867
-0.086030431 -0.2007376 -0.12626682
-0.087623432 -0.23366247 -0.099716827
-0.08927653 -0.26782954 -0.072165094
-0.090993218 -0.30331063 -0.043553829
-0.092777207 -0.34018311 -0.013820469
-0.094632559 -0.37853014 0.017101899
-0.096563622 -0.41844231 0.04928638
-0.098575145 -0.46001729 0.082811728
-0.10067192 -0.50335968 0.1177581
-0.10286019 -0.54858762 0.15422909
-0.10514569 -0.59582555 0.1923209
-0.10753506 -0.64521027 0.23214366
-0.11003556 -0.6968919 0.27381867
-0.11265472 -0.75103146 0.31747127
-0.11540201 -0.80781412 0.36325949
-0.11828666 -0.86743546 0.41133684
-0.12131921 -0.93011391 0.46187949
-0.12451085 -0.99608684 0.5150736
-0.12787549 -1.065629 0.57115072
-0.095148608 1.0466347 0.81860781
-0.088910915 0.9335646 0.66266561
-0.083440766 0.83440757 0.52591169
-0.078604393 0.74674177 0.40500244
-0.074298218 0.66868395 0.29734808
-0.070439354 0.59873456 0.20087646
-0.066961534 0.53569221 0.11393087
-0.063810974 0.47858235 0.035167083
-0.060943566 0.42660493 -0.036518201
-0.05832278 0.37909803 -0.10203795
-0.055917948 0.33550775 -0.16215852
-0.053703725 0.29537052 -0.21751425
-0.051658176 0.25829092 -0.26865298
-0.049762737 0.2239323 -0.31603894
-0.048001472 0.1920059 -0.36007053
-0.046360619 0.16226219 -0.4010919
-0.046135064 0.13840522 -0.40673083
-0.046819754 0.11704941 -0.38961348
-0.047525074 0.095050141 -0.37198049
-0.048251972 0.072377965 -0.35380808
-0.049001448 0.04900147 -0.33507118
-0.049774576 0.024887368 -0.31574303
-0.050572488 8.9406967e-08 -0.29579517
-0.051396403 -0.02569811 -0.27519727
-0.052247606 -0.052247562 -0.25391722
-0.053127479 -0.079691127 -0.23192038
-0.054037493 -0.10807487 -0.20917004
-0.054979224 -0.13744806 -0.18562676
-0.055954363 -0.1678631 -0.16124821
-0.056964722 -0.19937648 -0.13598931
-0.058012236 -0.2320489 -0.10980145
-0.059098996 -0.26594537 -0.082632467
-0.060227253 -0.30113623 -0.054426029
-0.061399423 -0.33769685 -0.025121704
-0.062618136 -0.37570867 0.005345881
-0.063886195 -0.4152602 0.037047461
-0.065206684 -0.45644671 0.070059687
-0.066582695 -0.49937013 0.10446003
-0.068018258 -0.54414594 0.140349
-0.069517076 -0.59089518 0.17781967
-0.071083449 -0.63975102 0.21697886
-0.072721787 -0.69085681 0.25793731
-0.074437678 -0.74437678 0.30083472
-0.076236516 -0.80048329 0.34580547
-0.078124434 -0.85936868 0.39300355
-0.080108233 -0.92124474 0.44259858
-0.082195096 -0.986341 0.49477005
-0.084393919 -1.0549241 0.54974079
-0.046858598 1.0308892 0.78282243
-0.043829899 0.9204278 0.63138753
-0.04116895 0.82337904 0.49834013
-0.038812604 0.73743951 0.38052285
-0.036711391 0.66080511 0.2754623
-0.034826003 0.59204215 0.18119295
-0.033124812 0.52999699 0.096133173
-0.031581987 0.47372982 0.018991932
-0.030176567 0.42247197 -0.051278993
-0.028890904 0.37558177 -0.11556209
-0.027710313 0.33252379 -0.17459163
-0.026622422 0.29284668 -0.22898623
-0.025616726 0.25616729 -0.27927116
-0.024684187 0.22215769 -0.32589796
-0.023817213 0.19053772 -0.36924672
-0.023009073 0.16106357 -0.40965372
-0.022941595 0.13764964 -0.41302758
-0.023280185 0.11640093 -0.39609808
-0.023628918 0.094515711 -0.37866139
-0.02398826 0.07196486 -0.36069432
-0.024358701 0.048717424 -0.34217238
-0.024740761 0.024740785 -0.32306936
-0.025134997 4.4703484e-08 -0.30335751
-0.025541998 -0.025542021 -0.28300741
-0.025962336 -0.051924713 -0.26199055
-0.026396805 -0.079190388 -0.2402671
-0.026846064 -0.10738418 -0.21780409
-0.02731088 -0.13655433 -0.19456336
-0.027792076 -0.1667524 -0.17050359
-0.028290531 -0.1980336 -0.1455809
-0.028807191 -0.23045751 -0.11974775
-0.029343076 -0.26408765 -0.092953593
-0.029899277 -0.29899272 -0.065143533
-0.030476969 -0.33524662 -0.036258936
-0.031077424 -0.37292898 -0.006236136
-0.031702016 -0.41212615 0.024993449
-0.032352231 -0.45293114 0.057504103
-0.033029571 -0.49544346 0.091371045
-0.033735983 -0.53977573 0.12669182
-0.034473278 -0.58604562 0.16355649
-0.035243519 -0.63438332 0.20206855
-0.036048841 -0.68492794 0.24233475
-0.036891956 -0.7378391 0.28449053
-0.037775453 -0.79328448 0.32866538
-0.038702305 -0.8514508 0.37500802
-0.039675787 -0.91254294 0.42368197
-0.040699344 -0.97678435 0.47485995
-0.041777279 -1.0444319 0.52875662
0 1.0156147 0.74810791
0 0.90765566 0.6009776
0 0.81263828 0.471488
0 0.72836351 0.35663867
0 0.6531074 0.25407982
0 0.58549565 0.16193871
0 0.52441996 0.078704923
0 0.46897608 0.0031461418
0 0.41841942 -0.065752387
0 0.3721301 -0.12883788
0 0.32959163 -0.18680906
0 0.29036489 -0.24026701
0 0.25407767 -0.28971905
0 0.22041148 -0.33559921
0 0.18909228 -0.37828088
0 0.15988247 -0.41808981
0 0.13690187 -0.41925853
0 0.11575939 -0.40251374
0 0.093987003 -0.38527018
0 0.071556211 -0.36750507
0 0.048436537 -0.34919444
0 0.024595931 -0.33031279
0 -1.4901161e-08 -0.31083304
0 -0.02538757 -0.29072613
0 -0.051605769 -0.26996148
0 -0.078696072 -0.2485061
0 -0.1067025 -0.22632514
0 -0.13567254 -0.20338106
0 -0.16565676 -0.17963374
0 -0.19670933 -0.15504023
0 -0.22888833 -0.1295546
0 -0.26225641 -0.10312738
0 -0.29687941 -0.075709552
0 -0.33283168 -0.047235757
0 -0.3701902 -0.017648041
0 -0.40903908 0.013119891
0 -0.4494693 0.04514046
0 -0.4915781 0.078486368
0 -0.53547508 0.11325236
0 -0.58127517 0.14952561
0 -0.62910485 0.18740635
0 -0.67909986 0.22699767
0 -0.73141515 0.26843083
0 -0.78621399 0.31183085
0 -0.84367728 0.35734117
0 -0.90400434 0.40511945
0 -0.96741092 0.4553321
0 -1.0341464 0.50818568
0.045490094 1.0007821 0.71439743
0.042630322 0.89523673 0.57140857
0.040108845 0.80217683 0.44533476
0.037868988 0.71951067 0.33334202
0.035866067 0.64558917 0.23319598
0.034064375 0.57909441 0.14311139
0.032434937 0.51895905 0.061639577
0.030954361 0.46431544 -0.012389362
0.029603051 0.41444272 -0.079954788
0.028364791 0.36874226 -0.14186788
0.027225958 0.32671157 -0.19880942
0.026174981 0.28792483 -0.2513583
0.025202187 0.25202194 -0.29999804
0.024299109 0.218692 -0.34515187
0.023458512 0.18766817 -0.38718164
0.022674132 0.15871902 -0.42640072
0.022693705 0.1361623 -0.42542207
0.023024965 0.11512491 -0.40885907
0.023366038 0.093464211 -0.39180541
0.02371737 0.071152136 -0.37423897
0.024079425 0.048158899 -0.35613608
0.024452709 0.024452731 -0.33747196
0.024837745 1.4901161e-08 -0.31822002
0.025235103 -0.025235087 -0.29835212
0.025645383 -0.05129078 -0.27783826
0.026069224 -0.078207627 -0.25664628
0.026507305 -0.10602915 -0.23474199
0.026960365 -0.13480181 -0.21208902
0.027429182 -0.16457503 -0.18864825
0.027914595 -0.19540213 -0.16437773
0.028417494 -0.22733991 -0.13923278
0.028938843 -0.26044953 -0.11316515
0.029479602 -0.29479593 -0.086127304
0.030041039 -0.33045134 -0.058055431
0.030624276 -0.3674913 -0.028893545
0.031230606 -0.40599787 0.0014230758
0.031861432 -0.44606006 0.032964364
0.032518171 -0.48777252 0.065801173
0.033202656 -0.53124243 0.10002543
0.033916574 -0.57658178 0.13572139
0.03466187 -0.62391365 0.17298611
0.035440538 -0.67337006 0.21191947
0.036255118 -0.72510231 0.25264847
0.037108023 -0.77926838 0.29529372
0.038002025 -0.83604449 0.33999386
0.038940169 -0.89562392 0.38690108
0.03992565 -0.95821553 0.43617514
0.040962469 -1.0240617 0.48801613
0.042054571 -1.0934188 0.54262125
0.096019566 1.1042249 0.84038174
0.089670584 0.9863764 0.68165725
0.084109478 0.8831495 0.5426296
0.079197854 0.79197854 0.41983902
0.074828222 0.71086812 0.31059819
0.07091555 0.6382401 0.21278153
0.067391723 0.57282972 0.12468585
0.064201519 0.51361227 0.044930801
0.061299708 0.45974779 -0.027614638
0.058648698 0.410541 -0.093889773
0.056217633 0.36541471 -0.15466648
0.053980082 0.32388055 -0.21060525
0.051913831 0.28552613 -0.26226154
0.049999937 0.24999967 -0.31010899
0.048222136 0.21699968 -0.35455382
0.046566319 0.18626538 -0.39594933
0.045020536 0.15757191 -0.43459395
0.045143515 0.13543059 -0.43151945
0.045798883 0.11449724 -0.4151352
0.046473559 0.092947155 -0.3982684
0.047168411 0.070752621 -0.38089716
0.047884353 0.047884434 -0.36299849
0.048622366 0.024311185 -0.34454817
0.049383484 2.9802322e-08 -0.32552028
0.050168812 -0.025084347 -0.30588704
0.050979517 -0.050979465 -0.28561941
0.051816858 -0.077725224 -0.2646859
0.052682161 -0.10536426 -0.24305332
0.053576853 -0.13394204 -0.22068599
0.054502461 -0.16350739 -0.19754569
0.055460621 -0.19411211 -0.17359188
0.056453064 -0.22581223 -0.14878081
0.057481673 -0.25866753 -0.12306549
0.058548305 -0.29274154 -0.096399717
0.059655432 -0.32810491 -0.068721533
0.060805243 -0.36483148 -0.039976344
0.062000245 -0.40300155 -0.010101274
0.063242964 -0.44270065 0.020966858
0.064536728 -0.48402542 0.053310886
0.065884523 -0.52707613 0.087005824
0.067289814 -0.57196343 0.12213804
0.068756364 -0.61880726 0.15880181
0.07028804 -0.66773623 0.19709341
0.071889743 -0.71889728 0.23713599
0.073566146 -0.77244443 0.27904618
0.075322606 -0.82854855 0.32295766
0.077164702 -0.88739401 0.36901021
0.079099461 -0.94919348 0.41737914
0.081133738 -1.0141717 0.46823594
0.083275408 -1.0825802 0.52177769
0.14184304 1.0874634 0.8039434
0.13259777 0.97238374 0.64985561
0.12448397 0.8713879 0.51462561
0.11730589 0.78203928 0.39499074
0.11091049 0.70243317 0.28840089
0.10517603 0.63105631 0.19282657
0.10000572 0.56669915 0.1066547
0.095319919 0.5083729 0.028558031
0.091053575 0.45526794 -0.042547673
0.087152787 0.40671304 -0.10756093
0.083572477 0.36214748 -0.16723265
0.080274738 0.32109898 -0.2221951
0.077227175 0.28316632 -0.27298766
0.074402727 0.24800915 -0.32006186
0.071777582 0.21533278 -0.36381429
0.069331378 0.18488367 -0.40458447
0.067046404 0.15644163 -0.44266725
0.067353338 0.13470675 -0.43755162
0.068325832 0.11387643 -0.42134339
0.069326833 0.092435837 -0.4046602
0.070357576 0.070357561 -0.38748097
0.071419448 0.04761298 -0.36978316
0.072513856 0.024171352 -0.35154295
0.073642336 4.4703484e-08 -0.332735
0.074806482 -0.024935439 -0.31333262
0.076008037 -0.05067195 -0.29330668
0.077248812 -0.077248782 -0.27262703
0.078530781 -0.10470767 -0.25126109
0.079856008 -0.13309328 -0.22917388
0.081226729 -0.16245341 -0.20632853
0.082645327 -0.19283904 -0.18268521
0.084114358 -0.22430487 -0.15820131
0.085636564 -0.25690967 -0.13283125
0.087214634 -0.2907154 -0.10653008
0.088852204 -0.32579136 -0.079237178
0.090552457 -0.36220971 -0.050899774
0.092319041 -0.40004915 -0.021456659
0.094155639 -0.43939292 0.0091533661
0.096067101 -0.48033547 0.041011035
0.098057777 -0.52297473 0.074188873
0.10013269 -0.56741858 0.10877082
0.10229731 -0.61378384 0.14484796
0.10455725 -0.66219592 0.18251367
0.10691967 -0.71279764 0.22188698
0.1093913 -0.76573896 0.26308089
0.1119799 -0.82118577 0.30622432
0.11469357 -0.87931734 0.35145217
0.11754247 -0.94033968 0.39893383
0.1205365 -1.0044707 0.4488343
0.12368705 -1.0719544 0.50134355
0.18629615 1.071203 0.76859462
0.17432335 0.95877844 0.61893451
0.16379656 0.85993189 0.48734951
0.1544687 0.77234352 0.37075132
0.14614601 0.69419348 0.26671773
0.1386743 0.6240344 0.17332144
0.13192943 0.56070012 0.089010552
0.12581024 0.503241 0.012520671
0.12023319 0.45087448 -0.057192504
0.11512991 0.4029547 -0.12098339
0.11044222 0.35893726 -0.17957966
0.10612132 0.31836399 -0.23359087
0.10212579 0.28084597 -0.283535
0.09842021 0.24605057 -0.32985473
0.09497413 0.2136918 -0.37293082
0.091761 0.18352202 -0.41309488
0.088758357 0.15532714 -0.45062783
0.089327015 0.13399056 -0.44351971
0.090609826 0.11326228 -0.42748454
0.091930017 0.091930032 -0.41098216
0.093289249 0.069966972 -0.3939918
0.094689272 0.0473447 -0.37649137
0.096131966 0.02403298 -0.35845777
0.097619303 5.9604645e-08 -0.33986616
0.099153377 -0.02478829 -0.32069016
0.10073643 -0.050368205 -0.30090189
0.10237087 -0.076778188 -0.28047147
0.10405922 -0.10405917 -0.25936705
0.10580419 -0.13225527 -0.237555
0.10760868 -0.161413 -0.21499895
0.10947579 -0.19158264 -0.19166003
0.11140884 -0.22281761 -0.16749692
0.11341137 -0.25517559 -0.14246525
0.1154869 -0.28871724 -0.11652113
0.11764014 -0.32351035 -0.089605555
0.11987521 -0.35962552 -0.061667323
0.12219683 -0.39713967 -0.032646999
0.1246098 -0.43613428 -0.0024847835
0.12712038 -0.47670138 0.028897181
0.12973417 -0.51893669 0.061569825
0.13245773 -0.56294525 0.095614299
0.13529809 -0.6088413 0.13111882
0.13826248 -0.65674675 0.16817372
0.14136015 -0.7068007 0.20689455
0.14459981 -0.75914896 0.24739023
0.14799145 -0.81395286 0.28978562
0.15154545 -0.87138629 0.33421081
0.15527494 -0.93164963 0.38082939
0.15919261 -0.99495375 0.42980021
0.16331309 -1.0615351 0.48130631
0.22944047 1.0554261 0.73429722
0.2148983 0.94555247 0.58887553
0.20208964 0.84877658 0.46078917
0.19072199 0.76288795 0.34711242
0.18056448 0.68614507 0.24553743
0.17143476 0.61716515 0.15424016
0.16318384 0.55482507 0.071730942
0.15569066 0.4982101 -0.0032007992
0.14885543 0.44656637 -0.071553096
0.14259511 0.39926642 -0.13415611
0.13684013 0.35578433 -0.19170612
0.13153133 0.3156752 -0.24479413
0.12661935 0.27856264 -0.29391378
0.12206105 0.24412221 -0.33949688
0.11781954 0.21207516 -0.38191205
0.1138629 0.18218066 -0.4214783
0.11016338 0.15422875 -0.45847356
0.11106828 0.13328195 -0.44942462
0.11265476 0.11265481 -0.43355975
0.11428721 0.091429815 -0.41723526
0.11596768 0.069580629 -0.40043059
0.1176983 0.047079369 -0.38312441
0.11948135 0.023896322 -0.36529386
0.12131926 5.9604645e-08 -0.3469148
0.12321459 -0.0246429 -0.32796144
0.1251701 -0.050068021 -0.30840644
0.12718865 -0.07631316 -0.28822073
0.1292734 -0.10341871 -0.26737338
0.13142762 -0.13142756 -0.24583116
0.13365485 -0.16038585 -0.22355884
0.13595887 -0.19034238 -0.20051856
0.13834372 -0.22134991 -0.1766701
0.14081335 -0.25346401 -0.15197369
0.14337316 -0.2867462 -0.12637578
0.14602774 -0.32126105 -0.099829815
0.14878249 -0.35707796 -0.072282404
0.15164317 -0.39427221 -0.043675616
0.15461557 -0.43292356 -0.013951734
0.15770727 -0.47312176 0.016965449
0.16092515 -0.51496047 0.049144268
0.16427709 -0.55854213 0.082663521
0.16777164 -0.60397774 0.11760895
0.1714175 -0.6513865 0.15406777
0.17522596 -0.70090377 0.19215231
0.17920749 -0.75267136 0.23196742
0.18337414 -0.8068462 0.27363402
0.18773851 -0.86359704 0.31727779
0.19231638 -0.92311871 0.36305648
0.1971231 -0.98561537 0.41112354
0.20217626 -1.0513164 0.46165511
0.27133119 1.040103 0.70098603
0.25436804 0.93268281 0.5596261
0.23940106 0.83790374 0.43490151
0.22609752 0.75365847 0.32403871
0.2141947 0.67828333 0.22484861
0.20348246 0.61044747 0.13557988
