# .PCD v0.7 - Point Cloud Data file format
VERSION 0.7
FIELDS x y z
SIZE 4 4 4
TYPE F F F
COUNT 1 1 1
WIDTH 1368
HEIGHT 1
VIEWPOINT 0 0 0 1 0 0 0
POINTS 1368
DATA ascii
-0.32606283 -0.6521256 -0.078003645
-0.32738233 -0.68452656 -0.072005868
-0.32871348 -0.71719301 -0.065955162
-0.33005455 -0.75012392 -0.059859395
-0.33140665 -0.78332466 -0.05371356
-0.33276984 -0.81679869 -0.047517091
-0.33414525 -0.85055155 -0.041265219
-0.33553112 -0.8845821 -0.034965783
-0.25053424 0.62633562 -0.30743617
-0.25139061 0.60333753 -0.30315429
-0.25225347 0.58018303 -0.29884002
-0.25312164 0.55686766 -0.29449907
-0.25399584 0.53339124 -0.29012826
-0.25487667 0.50975335 -0.28572392
-0.25576305 0.48594981 -0.28129208
-0.2566556 0.4619801 -0.2768293
-0.25755504 0.43784362 -0.27233216
-0.25846016 0.41353631 -0.26780653
-0.2593717 0.38905752 -0.26324895
-0.26029029 0.36440647 -0.25865597
-0.26121476 0.33957925 -0.25403351
-0.26214588 0.31457511 -0.24937803
-0.26308361 0.28939196 -0.24468935
-0.26402873 0.26402873 -0.23996367
-0.26498002 0.23848204 -0.23520723
-0.26593819 0.21275054 -0.23041652
-0.26690331 0.18683234 -0.22559083
-0.26787612 0.16072565 -0.22072674
-0.26885539 0.13442771 -0.21583037
-0.26984185 0.10793676 -0.21089813
-0.27083555 0.081250638 -0.20592961
-0.27183729 0.054367483 -0.20092082
-0.2728458 0.027284585 -0.19587839
-0.27386183 2.9802322e-08 -0.19079831
-0.27488539 -0.027488515 -0.18568031
-0.27591667 -0.055183306 -0.18052387
-0.27695644 -0.083086848 -0.17532507
-0.27800336 -0.11120129 -0.17009059
-0.27905822 -0.13952911 -0.16481628
-0.28012112 -0.16807255 -0.1595019
-0.28119287 -0.19683504 -0.15414304
-0.2822721 -0.22581768 -0.1487468
-0.28335965 -0.25502369 -0.14330909
-0.28445563 -0.2844556 -0.13782917
-0.28556091 -0.31411693 -0.13230291
-0.28667396 -0.34400871 -0.1267374
-0.28779578 -0.37413448 -0.12112843
-0.28892642 -0.40449697 -0.11547521
-0.29006675 -0.43510002 -0.10977364
-0.29121533 -0.4659445 -0.1040307
-0.29237303 -0.49703413 -0.098242179
-0.29353997 -0.52837193 -0.09240748
-0.2947171 -0.55996245 -0.086521849
-0.29590288 -0.5918057 -0.08059302
-0.29709822 -0.62390614 -0.074616283
-0.29830328 -0.65626717 -0.068591028
-0.299519 -0.68889362 -0.062512457
-0.30074379 -0.72178507 -0.056388468
-0.30197865 -0.75494659 -0.050214142
-0.3032237 -0.78838146 -0.043988943
-0.30447993 -0.82209563 -0.037707746
-0.30574572 -0.85608804 -0.031378657
-0.30702209 -0.89036399 -0.024996847
-0.22668995 0.62969428 -0.30071878
-0.22746953 0.60658544 -0.2963877
-0.22825395 0.58331567 -0.29202986
-0.22904377 0.55988473 -0.28764194
-0.22983912 0.53629136 -0.28322339
-0.23064055 0.5125345 -0.27877107
-0.23144701 0.48861039 -0.27429059
-0.23225972 0.4645195 -0.26977551
-0.23307757 0.44025767 -0.26523194
-0.23390122 0.41582447 -0.26065612
-0.23473069 0.39121786 -0.25604793
-0.23556666 0.36643705 -0.25140363
-0.23640803 0.34147832 -0.24672942
-0.23725541 0.3163406 -0.2420218
-0.23810889 0.291022 -0.23728016
-0.23896915 0.26552129 -0.23250107
-0.23983501 0.2398351 -0.22769055
-0.2407072 0.21396196 -0.22284518
-0.24158575 0.18790011 -0.21796435
-0.24247134 0.1616476 -0.21304435
-0.24336283 0.13520163 -0.20809157
-0.24426091 0.10856046 -0.20310232
-0.24516563 0.081721827 -0.19807604
-0.24607772 0.054683976 -0.19300887
-0.24699599 0.027444042 -0.18790746
-0.24792112 3.7252903e-08 -0.18276775
-0.24885321 -0.027650282 -0.17758954
-0.24979302 -0.055509534 -0.1723685
-0.25073925 -0.083579771 -0.16711152
-0.25169271 -0.11186337 -0.1618146
-0.25265342 -0.14036289 -0.15647717
-0.2536222 -0.16908145 -0.15109512
-0.25459772 -0.19802043 -0.14567548
-0.25558081 -0.22718292 -0.14021397
-0.2565715 -0.25657147 -0.13471007
-0.25757059 -0.28618956 -0.12915948
-0.25857681 -0.31603831 -0.12356939
-0.25959092 -0.34612116 -0.11793554
-0.26061302 -0.37644106 -0.11225721
-0.26164389 -0.40700155 -0.10653007
-0.26268226 -0.43780375 -0.10076143
-0.26372889 -0.46885139 -0.094946831
-0.26478389 -0.50014722 -0.089085802
-0.26584736 -0.53169471 -0.083177507
-0.26692018 -0.56349814 -0.077217519
-0.26800093 -0.59555757 -0.071213335
-0.26909044 -0.62787765 -0.065160483
-0.27018887 -0.66046166 -0.05905807
-0.27129707 -0.69331473 -0.052901447
-0.27241361 -0.72643614 -0.046698391
-0.27353939 -0.75983155 -0.040444046
-0.2746745 -0.793504 -0.034137934
-0.2758199 -0.82745957 -0.027774662
-0.27697405 -0.86169696 -0.021362692
-0.27813792 -0.89622217 -0.014896631
-0.203289 0.60986698 -0.28955108
-0.20399384 0.58648235 -0.28514588
-0.20470358 0.56293488 -0.28071001
-0.20541877 0.53922433 -0.27623999
-0.20613848 0.51534623 -0.27174193
-0.20686324 0.49130026 -0.26721203
-0.20759363 0.46708572 -0.26264715
-0.20832869 0.44269848 -0.25805297
-0.20906897 0.41813797 -0.25342631
-0.20981506 0.39340332 -0.24876329
-0.21056595 0.36849043 -0.24407017
-0.21132223 0.34339863 -0.23934333
-0.21208398 0.31812599 -0.23458247
-0.21285178 0.29267126 -0.22978368
-0.21362461 0.26703078 -0.22495355
-0.21440306 0.24120347 -0.22008821
-0.21518722 0.21518721 -0.21518719
-0.21597771 0.18898053 -0.21024676
-0.21677344 0.16258016 -0.20527333
-0.21757506 0.13598448 -0.20026319
-0.21838264 0.10919134 -0.19521585
-0.2191968 0.082198828 -0.19012734
-0.22001648 0.055004127 -0.18500435
-0.22084232 0.027605303 -0.17984286
-0.22167438 3.7252903e-08 -0.17464241
-0.2225133 -0.027814142 -0.16939917
-0.22335804 -0.055839512 -0.16411966
-0.2242092 -0.084078386 -0.15879984
-0.22506687 -0.11253335 -0.15343939
-0.22593173 -0.14120731 -0.14803395
-0.22680266 -0.17010196 -0.14259066
-0.22768033 -0.19922027 -0.13710532
-0.22856483 -0.22856483 -0.13157727
-0.22945683 -0.25813884 -0.12600219
-0.23035519 -0.28794402 -0.12038736
-0.23126061 -0.31798327 -0.11472853
-0.2321732 -0.34825975 -0.10902491
-0.23309365 -0.37877712 -0.10327201
-0.23402078 -0.4095363 -0.097477481
-0.23495531 -0.44054115 -0.091636613
-0.23589735 -0.47179466 -0.085748926
-0.23684695 -0.50329971 -0.079813808
-0.23780493 -0.53506106 -0.073826522
-0.23876998 -0.56707859 -0.067794949
-0.23974292 -0.59935731 -0.061714053
-0.24072382 -0.63189995 -0.055583566
-0.24171345 -0.66471201 -0.049398243
-0.24271058 -0.69779277 -0.04316628
-0.24371594 -0.73114789 -0.036882699
-0.2447297 -0.76478016 -0.030546784
-0.24575262 -0.79869592 -0.024153531
-0.24678341 -0.83289391 -0.017711073
-0.24782287 -0.86737996 -0.011214405
-0.24887113 -0.90215778 -0.0046626627
-0.17884544 0.61318433 -0.28263998
-0.1794689 0.58968359 -0.27818662
-0.18009673 0.56601834 -0.27370214
-0.1807294 0.54218823 -0.26918298
-0.18136612 0.51818889 -0.26463509
-0.18200731 0.4940199 -0.26005512
-0.18265352 0.46968046 -0.25543943
-0.18330386 0.44516653 -0.25079405
-0.18395886 0.42047745 -0.24611554
-0.18461901 0.39561224 -0.24140011
-0.18528347 0.37056693 -0.23665404
-0.18595271 0.34534076 -0.23187375
-0.18662728 0.31993255 -0.22705527
-0.18730628 0.29433852 -0.22220524
-0.18799026 0.26855758 -0.21731973
-0.18867925 0.24258763 -0.21239841
-0.18937379 0.21642716 -0.20743753
-0.19007295 0.19007297 -0.20244333
-0.19077732 0.16352344 -0.19741221
-0.19148692 0.13677639 -0.19234358
-0.19220231 0.10983001 -0.18723361
-0.19292258 0.082681134 -0.18208891
-0.19364826 0.055328071 -0.17690548
-0.19437942 0.027768545 -0.17168295
-0.19511612 4.4703484e-08 -0.16642071
-0.19585894 -0.027979888 -0.1611149
-0.19660692 -0.056173384 -0.15577206
-0.19736065 -0.084583089 -0.15038845
-0.19812016 -0.11321151 -0.14496334
-0.19888608 -0.14206141 -0.13949247
-0.19965741 -0.17113487 -0.13398306
-0.20043474 -0.20043473 -0.12843059
-0.20121814 -0.22996353 -0.12283488
-0.20200826 -0.2597248 -0.11719124
-0.20280404 -0.28972 -0.11150704
-0.2036061 -0.31995246 -0.10577796
-0.20441458 -0.35042495 -0.10000332
-0.20523003 -0.38114142 -0.094178662
-0.20605144 -0.41210282 -0.088311374
-0.20687945 -0.44331312 -0.082396924
-0.20771416 -0.47477525 -0.076434776
-0.20855622 -0.50649369 -0.070420071
-0.20940453 -0.53846872 -0.064360663
-0.21025977 -0.57070506 -0.058251828
-0.21112204 -0.6032058 -0.05209282
-0.21199201 -0.63597596 -0.045878798
-0.21286856 -0.66901541 -0.039617717
-0.21375239 -0.70232928 -0.033304513
-0.2146436 -0.73592079 -0.026938796
-0.2155429 -0.76979595 -0.020515293
-0.21644913 -0.80395389 -0.014042169
-0.217363 -0.83840013 -0.0075144768
-0.21828464 -0.87313855 -0.00093138218
-0.21921475 -0.90817535 0.0057123601
-0.15413448 0.61653793 -0.2756533
-0.15467475 0.59291995 -0.27115101
-0.15521884 0.56913584 -0.26661703
-0.15576713 0.54518503 -0.26204792
-0.15631893 0.52106303 -0.25744966
-0.15687466 0.49676973 -0.25281858
-0.15743475 0.47230422 -0.24815127
-0.15799844 0.4476622 -0.24345371
-0.15856619 0.42284322 -0.23872238
-0.15913844 0.3978461 -0.23395379
-0.15971442 0.37266704 -0.22915387
-0.16029461 0.34730503 -0.22431901
-0.1608794 0.32175884 -0.21944557
-0.1614681 0.29602486 -0.21453983
-0.16206111 0.27010185 -0.2095982
-0.16265848 0.24398772 -0.20462
-0.1632607 0.21768098 -0.19960156
-0.16386698 0.19117817 -0.1945492
-0.16447777 0.16447783 -0.18945929
-0.16509312 0.13757762 -0.18433122
-0.16571355 0.11047571 -0.17916109
-0.16633821 0.08316917 -0.17395559
-0.1669676 0.055655893 -0.16871077
-0.16760176 0.02793365 -0.16342594
-0.16824122 -5.2154064e-08 -0.15809721
-0.16888513 -0.028147493 -0.15273127
-0.16953397 -0.056511294 -0.14732429
-0.17018783 -0.085093878 -0.14187545
-0.17084719 -0.11389802 -0.13638075
-0.17151125 -0.14292604 -0.13084695
-0.17218046 -0.17218049 -0.12527013
-0.17285493 -0.20166403 -0.11964951
-0.17353518 -0.23138022 -0.11398084
-0.17422032 -0.26133043 -0.10827132
-0.17491089 -0.29151809 -0.10251658
-0.17560697 -0.32194608 -0.096715935
-0.17630909 -0.3526181 -0.090864927
-0.17701636 -0.38353539 -0.084971115
-0.17772932 -0.4147017 -0.079029664
-0.17844805 -0.44612014 -0.073040232
-0.17917313 -0.47779495 -0.066997945
-0.1799036 -0.50972676 -0.060910657
-0.18064006 -0.54192007 -0.054773539
-0.18138257 -0.57437813 -0.048585862
-0.18213175 -0.60710573 -0.042342782
-0.1828866 -0.64010304 -0.036052406
-0.18364774 -0.67337495 -0.029709637
-0.18441524 -0.70692503 -0.023313761
-0.18518971 -0.7407589 -0.01685971
-0.18597019 -0.77487564 -0.01035586
-0.18675725 -0.80928147 -0.0037968159
-0.18755102 -0.8439796 0.0028178692
-0.18835157 -0.87897384 0.0094889402
-0.18915954 -0.91427106 0.016222119
-0.12915175 0.61992848 -0.26858982
-0.12960695 0.596192 -0.26403779
-0.13006569 0.57228911 -0.25945041
-0.13052738 0.54821491 -0.25483358
-0.13099235 0.52396947 -0.25018382
-0.13146065 0.49955052 -0.24550092
-0.13193263 0.47495753 -0.24078107
-0.13240768 0.45018613 -0.23603056
-0.13288616 0.42523584 -0.23124567
-0.13336845 0.40010539 -0.22642282
-0.13385393 0.374791 -0.22156812
-0.13434294 0.34929165 -0.21667795
-0.13483588 0.32360622 -0.21174847
-0.13533211 0.29773065 -0.2067862
-0.13583201 0.27166405 -0.20178728
-0.13633597 0.24540474 -0.19674771
-0.13684332 0.21894932 -0.1916742
-0.13735446 0.19229628 -0.18656276
-0.13786943 0.16544336 -0.18141299
-0.13838865 0.13838874 -0.17622082
-0.13891143 0.11112922 -0.17099312
-0.13943817 0.083662927 -0.16572568
-0.13996892 0.055987664 -0.16041824
-0.14050409 0.028100908 -0.1550664
-0.14104301 5.9604645e-08 -0.14967722
-0.14158607 -0.028317202 -0.14424679
-0.14213333 -0.05685332 -0.1387741
-0.1426852 -0.085611127 -0.13325514
-0.14324102 -0.11459282 -0.12769715
-0.14380118 -0.14380112 -0.12209567
-0.14436571 -0.17323887 -0.1164501
-0.14493512 -0.20290919 -0.11075614
-0.14550863 -0.23281372 -0.10502108
-0.14608669 -0.26295599 -0.099240385
-0.14666937 -0.29333866 -0.093413673
-0.1472567 -0.32396472 -0.087540209
-0.14784919 -0.35483801 -0.081615523
-0.14844604 -0.38595957 -0.075646982
-0.14904772 -0.41733354 -0.069630101
-0.1496543 -0.44896287 -0.06356433
-0.15026627 -0.48085195 -0.057444632
-0.15088283 -0.51300156 -0.051279113
-0.15150447 -0.54541612 -0.045062572
-0.15213126 -0.57809877 -0.038794637
-0.15276371 -0.61105478 -0.032470345
-0.15340097 -0.64428407 -0.026097655
-0.15404359 -0.67779171 -0.01967153
-0.15469161 -0.71158123 -0.013191342
-0.15534556 -0.74565864 -0.0066518486
-0.15600459 -0.78002286 -6.1422586e-05
-0.15666924 -0.81468004 0.006585151
-0.1573396 -0.84963375 0.013288528
-0.15801618 -0.8848905 0.0200544
-0.10389274 0.62335646 -0.26144814
-0.10426094 0.59950042 -0.25684559
-0.10463203 0.57547623 -0.25220698
-0.1050055 0.55127895 -0.24753852
-0.10538165 0.52690834 -0.24283659
-0.10576078 0.5023638 -0.23809761
-0.10614236 0.47764063 -0.23332779
-0.10652672 0.45273861 -0.22852331
-0.10691415 0.42765662 -0.22368053
-0.10730412 0.40239045 -0.21880588
-0.10769696 0.37693936 -0.21389547
-0.10809267 0.35130119 -0.20894895
-0.10849158 0.3254748 -0.20396252
-0.10889318 0.29945627 -0.19894259
-0.10929775 0.27324444 -0.19388542
-0.10970563 0.24683772 -0.18878703
-0.11011627 0.22023262 -0.18365395
-0.11053 0.19342753 -0.17848234
-0.11094715 0.16642076 -0.17326799
-0.11136716 0.13920902 -0.16801788
-0.11179036 0.1117904 -0.16272783
-0.11221679 0.084162563 -0.15739754
-0.11264678 0.056323431 -0.15202254
-0.11307978 0.02827001 -0.14661005
-0.11351613 -0 -0.14115568
-0.11395586 -0.028488971 -0.1356591
-0.114399 -0.05719946 -0.13011989
-0.11484592 -0.086134396 -0.12453344
-0.11529602 -0.11529606 -0.11890711
-0.11574967 -0.14468706 -0.11323654
-0.1162069 -0.17431036 -0.10752095
-0.11666809 -0.20416915 -0.10175623
-0.11713262 -0.23426519 -0.095949523
-0.11760087 -0.26460192 -0.090096556
-0.11807287 -0.29518214 -0.084196433
-0.11854901 -0.32600972 -0.078244671
-0.11902868 -0.357086 -0.072248846
-0.11951224 -0.38841474 -0.066204369
-0.11999974 -0.41999912 -0.060110554
-0.12049159 -0.45184344 -0.053962559
-0.12098712 -0.48394841 -0.04776828
-0.12148676 -0.51631868 -0.041522712
-0.12199055 -0.54895735 -0.03522557
-0.12249888 -0.58186966 -0.028871387
-0.1230111 -0.6150555 -0.022468567
-0.12352763 -0.64851999 -0.016011983
-0.12404852 -0.68226683 -0.0095008612
-0.12457418 -0.71630144 -0.0029301047
-0.12510395 -0.7506237 0.0036920607
-0.12563825 -0.78523892 0.010370612
-0.12617712 -0.82015115 0.017106622
-0.12672102 -0.85536683 0.023905307
-0.12726924 -0.89088464 0.030758053
-0.078352816 0.62682247 -0.25422716
-0.078632057 0.60284579 -0.24957313
-0.078913495 0.57869899 -0.24488255
-0.079196751 0.5543772 -0.24016151
-0.079482049 0.5298804 -0.23540653
-0.079769611 0.50520754 -0.23061386
-0.080059059 0.48035437 -0.22578967
-0.080350623 0.45532021 -0.22093034
-0.080644511 0.43010408 -0.21603212
-0.080940358 0.40470186 -0.21110135
-0.081238382 0.37911248 -0.20613427
-0.081538819 0.3533349 -0.20112698
-0.081841275 0.32736513 -0.19608609
-0.082145981 0.30120194 -0.19100763
-0.082453184 0.27484399 -0.18588768
-0.082762472 0.24828747 -0.18073279
-0.083074093 0.22153093 -0.17553912
-0.083388068 0.1945722 -0.17030625
-0.083704643 0.16740932 -0.16502997
-0.084023409 0.14003907 -0.1597171
-0.084344618 0.11245956 -0.15436363
-0.084668294 0.084668353 -0.14896922
-0.084994681 0.05666317 -0.14352936
-0.085323371 0.028441153 -0.13805121
-0.085654609 5.2154064e-08 -0.13253045
-0.085988432 -0.028662704 -0.12696677
-0.086325102 -0.057550028 -0.1213556
-0.086664185 -0.086664118 -0.11570433
-0.087005936 -0.11600788 -0.1100084
-0.087350391 -0.14558393 -0.10426743
-0.087697834 -0.17539562 -0.098476768
-0.08804781 -0.20544484 -0.092643872
-0.088400587 -0.23573482 -0.086764298
-0.088756204 -0.26626849 -0.080837429
-0.089114934 -0.29704976 -0.074858457
-0.089476332 -0.32807982 -0.068835139
-0.089840673 -0.35936269 -0.062762856
-0.090207994 -0.3909013 -0.056640819
-0.090578586 -0.42269999 -0.050464362
-0.090951972 -0.45475978 -0.044241115
-0.09132845 -0.48708504 -0.037966385
-0.091708072 -0.51967895 -0.03163965
-0.092091113 -0.55254662 -0.025255412
-0.092477106 -0.58568823 -0.018822312
-0.092866346 -0.61910886 -0.012334943
-0.093258873 -0.65281206 -0.0057927668
-0.093654737 -0.68680137 0.00080499053
-0.094054259 -0.72108257 0.0074635148
-0.094456919 -0.75565529 0.014174581
-0.094863035 -0.7905252 0.020943165
-0.09527266 -0.82569635 0.02777043
-0.09568613 -0.86117518 0.034661531
-0.096102916 -0.89696062 0.041608036
-0.052715532 0.60622871 -0.24221902
-0.052905269 0.581958 -0.23747557
-0.05309625 0.55751061 -0.23270111
-0.053288609 0.53288609 -0.22789215
-0.053482503 0.50808382 -0.2230448
-0.053677678 0.4830991 -0.21816546
-0.05387428 0.45793143 -0.21325035
-0.054072466 0.43257976 -0.20829563
-0.054271981 0.40703994 -0.20330784
-0.054472964 0.38131082 -0.19828318
-0.05467559 0.35539141 -0.19321743
-0.054879591 0.3292776 -0.18811765
-0.055085111 0.30296817 -0.1829796
-0.055292323 0.27646169 -0.1777992
-0.055500958 0.24975435 -0.17258343
-0.055711169 0.22284473 -0.16732807
-0.05592313 0.19573098 -0.16202915
-0.056136556 0.16840976 -0.15669338
-0.056351621 0.14087914 -0.15131676
-0.056568343 0.11313673 -0.1458988
-0.056786887 0.085180297 -0.1404352
-0.057006974 0.057006933 -0.13493305
-0.05722877 0.028614428 -0.12938811
-0.057452299 2.6077032e-08 -0.12379986
-0.057677742 -0.028838873 -0.11816385
-0.057904802 -0.05790475 -0.11248727
-0.058133658 -0.087200433 -0.1067659
-0.058364328 -0.1167286 -0.10099919
-0.058596995 -0.14649245 -0.095182464
-0.058831368 -0.17649403 -0.089323208
-0.059067614 -0.20673656 -0.083416902
-0.059305776 -0.23722313 -0.077462964
-0.059546024 -0.26795706 -0.071456693
-0.059788063 -0.2989403 -0.065405741
-0.060032077 -0.33017641 -0.059305429
-0.060278095 -0.36166847 -0.053155154
-0.060526304 -0.39342093 -0.046949759
-0.06077639 -0.42543477 -0.040697485
-0.061028562 -0.45771414 -0.03439346
-0.061282825 -0.49026263 -0.028036729
-0.061539218 -0.52308333 -0.021626964
-0.061797947 -0.55618143 -0.015158683
-0.062058676 -0.58955741 -0.0086404383
-0.062321618 -0.62321615 -0.0020669401
-0.062586792 -0.65716124 0.0045625567
-0.062854432 -0.69139868 0.011253387
-0.063124165 -0.72592783 0.017996818
-0.063396238 -0.76075482 0.024798542
-0.063670658 -0.79588318 0.031659067
-0.063947655 -0.83131951 0.038584113
-0.064226881 -0.86706293 0.045564771
-0.064508565 -0.90311986 0.052606702
-0.026506508 0.60964972 -0.23478195
-0.026602453 0.58525401 -0.22998464
-0.026699029 0.56067955 -0.22515593
-0.026796373 0.53592753 -0.2202886
-0.026894366 0.51099294 -0.2153891
-0.026993075 0.48587534 -0.21045357
-0.027092511 0.46057269 -0.20548181
-0.027192753 0.43508404 -0.20046969
-0.027293671 0.40940505 -0.19542384
-0.027395338 0.38353482 -0.19034037
-0.027497839 0.35747191 -0.1852154
-0.027601035 0.33121246 -0.18005559
-0.027705012 0.30475521 -0.17485674
-0.027809845 0.27809849 -0.16961506
-0.027915403 0.25123867 -0.16433717
-0.028021766 0.22417408 -0.15901913
-0.028129015 0.19690314 -0.15365651
-0.028237013 0.16942213 -0.14825657
-0.028345848 0.14172927 -0.14281507
-0.028455596 0.11382247 -0.13732752
-0.028566124 0.085698448 -0.13180122
-0.02867751 0.057355106 -0.12623176
-0.02878977 0.028789848 -0.12061885
-0.028902914 2.6077032e-08 -0.11496174
-0.029017027 -0.029016986 -0.10925598
-0.029131969 -0.058263928 -0.10350896
-0.029247822 -0.087743424 -0.097716227
-0.029364601 -0.11745837 -0.091877319
-0.029482398 -0.14741197 -0.085987434
-0.029601062 -0.17760633 -0.080054328
-0.029720683 -0.20804471 -0.074073181
-0.029841276 -0.2387301 -0.068043508
-0.029962938 -0.26966637 -0.061960578
-0.030085508 -0.30085507 -0.055831924
-0.030209085 -0.33229989 -0.049653038
-0.030333683 -0.36400416 -0.043423176
-0.030459402 -0.39597219 -0.037137285
-0.030586075 -0.42820507 -0.030803517
-0.03071381 -0.46070707 -0.024416834
-0.030842613 -0.49348176 -0.017976657
-0.030972594 -0.52653402 -0.011477709
-0.031103583 -0.55986446 -0.0049281716
-0.031235684 -0.59347796 0.0016768575
-0.031368911 -0.62737823 0.0083382726
-0.031503376 -0.66157085 0.015061498
-0.031638905 -0.69605577 0.021837771
-0.031775601 -0.73083878 0.028672755
-0.031913485 -0.76592362 0.035566896
-0.032052666 -0.80131674 0.042526066
-0.032192972 -0.83701718 0.049541295
-0.03233451 -0.87303174 0.056618154
-0.032477301 -0.90936428 0.063757598
0 0.61311114 -0.22725706
0 0.58858758 -0.22240846
0 0.56388485 -0.21752448
0 0.53900248 -0.21260124
0 0.51393557 -0.20764522
0 0.48868364 -0.20265266
0 0.46324462 -0.19762304
0 0.43761763 -0.19255249
0 0.41179794 -0.18744762
0 0.38578486 -0.18230453
0 0.35957694 -0.17711914
0 0.33317029 -0.1718981
0 0.30656344 -0.16663758
0 0.27975485 -0.16133335
0 0.25274077 -0.15599227
0 0.22551951 -0.15061036
0 0.19808939 -0.14518315
0 0.17044677 -0.13971777
0 0.14258975 -0.13421005
0 0.11451615 -0.1286556
0 0.086222813 -0.12306157
0 0.057707403 -0.11742365
0 0.028967366 -0.11174132
0 -7.4505806e-09 -0.10601006
0 -0.029197376 -0.10023733
0 -0.058627479 -0.094418563
0 -0.088293254 -0.088553123
0 -0.11819758 -0.082636625
0 -0.14834306 -0.076676428
0 -0.17873272 -0.070667863
0 -0.20936951 -0.064610466
0 -0.24025722 -0.058499366
0 -0.27139759 -0.052342422
0 -0.30279446 -0.046134785
0 -0.33445093 -0.039875776
0 -0.36637121 -0.033560365
0 -0.39855668 -0.027196765
0 -0.43101168 -0.020779863
0 -0.46373945 -0.014309049
0 -0.49674505 -0.0077789873
0 -0.530029 -0.001198262
0 -0.56359655 0.0054386854
0 -0.59745097 0.012132347
0 -0.63159811 0.018888086
0 -0.66603792 0.0256975
0 -0.70077616 0.032565802
0 -0.73581654 0.039493948
0 -0.77116549 0.04648748
0 -0.80682242 0.053537518
0 -0.84279352 0.060649663
0 -0.87908334 0.067824811
0 -0.91569579 0.075063765
0.026809154 0.61661059 -0.21964967
0.026907237 0.5919593 -0.21474539
0.027006043 0.56712687 -0.20980527
0.027105646 0.54211289 -0.20482513
0.027205914 0.5169124 -0.19981161
0.027306929 0.49152482 -0.1947609
0.027408767 0.46594906 -0.18966907
0.027511295 0.44018078 -0.1845426
0.027614594 0.41421896 -0.17937759
0.027718747 0.38806248 -0.17417012
0.027823612 0.36170697 -0.16892681
0.027929273 0.33515134 -0.1636437
0.028035739 0.30839318 -0.15832032
0.028143099 0.28143102 -0.15295239
0.028251205 0.25426084 -0.14754714
0.028360223 0.22688174 -0.14209627
0.028470008 0.19929008 -0.13660699
0.028580647 0.17148396 -0.13107502
0.028692147 0.1434608 -0.12549999
0.0288046 0.11521845 -0.11987723
0.028917862 0.086753607 -0.11421429
0.029032014 0.058064111 -0.10850661
0.029147154 0.029147174 -0.10274974
0.029263128 2.9802322e-08 -0.096950918
0.029380029 -0.029380029 -0.091105893
0.029497869 -0.058995683 -0.085213944
0.029616741 -0.088850193 -0.079270355
0.029736489 -0.11894587 -0.073282912
0.029857209 -0.149286 -0.067246862
0.029978916 -0.17987353 -0.061161585
0.030101703 -0.21071184 -0.055022247
0.030225415 -0.24180332 -0.048836567
0.030350147 -0.27315134 -0.042600006
0.030475913 -0.30475914 -0.036311656
0.030602729 -0.33662996 -0.029970989
0.030730687 -0.36876827 -0.023572817
0.030859636 -0.4011752 -0.017125592
0.030989669 -0.43385538 -0.010623872
0.031120801 -0.4668119 -0.0040672719
0.031253144 -0.50005025 0.0025497526
0.031386521 -0.53357077 0.0092186332
0.031521041 -0.56737864 0.01594469
0.03165672 -0.60147762 0.022728652
0.031793669 -0.6358732 0.029576004
0.031931709 -0.67056578 0.036478072
0.032070953 -0.70556092 0.043440342
0.032211419 -0.74086255 0.050463557
0.032353219 -0.77647716 0.05755356
0.032496173 -0.81240433 0.064701319
0.032640394 -0.84865034 0.071912467
0.032785904 -0.8852194 0.07918787
0.053926099 0.62015015 -0.21195495
0.05412453 0.59536982 -0.20699413
0.054324422 0.5704065 -0.20199673
0.054525945 0.54525948 -0.19695868
0.054728825 0.51992387 -0.19188669
0.054933216 0.49439901 -0.18677688
0.055139288 0.46868396 -0.18162516
0.055346765 0.44277415 -0.17643829
0.055555809 0.41666853 -0.1712122
0.055766586 0.39036614 -0.16594276
0.055978816 0.36386237 -0.16063686
0.05619267 0.33715609 -0.15529051
0.05640832 0.31024584 -0.14989935
0.056625474 0.2831274 -0.14447045
0.056844309 0.25579944 -0.13899961
0.057064991 0.22826001 -0.1334825
0.057287242 0.20050542 -0.12792619
0.057511237 0.17253374 -0.12232643
0.057736982 0.14434256 -0.11668281
0.057964671 0.11592939 -0.11099061
0.058193997 0.08729101 -0.10525744
0.058425147 0.058425158 -0.099478684
0.058658302 0.029329136 -0.093649812
0.058893166 8.1956387e-08 -0.087778255
0.059129912 -0.029564848 -0.081859536
0.059368741 -0.05936861 -0.075888887
0.059609335 -0.089413986 -0.069873981
0.059851892 -0.11970377 -0.06381005
0.060096428 -0.15024096 -0.05769673
0.060342968 -0.18102883 -0.051533058
0.060591716 -0.21207093 -0.045314409
0.06084235 -0.24336937 -0.039048702
0.061095059 -0.27492779 -0.03273081
0.06134988 -0.30674937 -0.026360288
0.061607018 -0.33883858 -0.019931883
0.061866134 -0.37119681 -0.013453916
0.062127445 -0.40382835 -0.0069212168
0.062390972 -0.43673676 -0.00033307076
0.062656924 -0.46992689 0.0063157231
0.062924966 -0.50339967 0.013016894
0.063195318 -0.53716016 0.019775659
0.063468002 -0.57121193 0.026592672
0.063743241 -0.60556072 0.033473611
0.064020678 -0.64020681 0.040409654
0.064300545 -0.67515576 0.047406346
0.064582869 -0.71041155 0.05446437
0.064867884 -0.7459805 0.061589718
0.065155223 -0.78186268 0.06877327
0.065445118 -0.81806397 0.076020658
0.065737613 -0.85458887 0.083332866
0.066032931 -0.89144444 0.090715766
0.08135616 0.62373066 -0.20417129
0.081657268 0.59881991 -0.19915304
0.081960596 0.57372421 -0.19409737
0.082266413 0.54844278 -0.1890005
0.082574293 0.52297056 -0.18386905
0.082884498 0.49730706 -0.17869897
0.083197258 0.4714511 -0.1734864
0.083512165 0.44539821 -0.16823795
0.08382947 0.41914737 -0.16294953
0.084149413 0.3926973 -0.15761708
0.084471583 0.36604357 -0.15224761
0.084796228 0.33918497 -0.14683679
0.085123613 0.31211987 -0.1413805
0.085453302 0.28484437 -0.13588566
0.085785553 0.25735664 -0.13034815
0.086120628 0.22965503 -0.12476352
0.086458109 0.20173562 -0.11913884
0.086798236 0.17359649 -0.1134702
0.087141283 0.14523554 -0.10775252
0.087486818 0.11664911 -0.10199364
0.087835103 0.087835148 -0.096188955
0.088186421 0.058790982 -0.090333655
0.088540308 0.029513545 -0.08443547
0.088897049 5.2154064e-08 -0.078489803
0.089256682 -0.029752161 -0.072496086
0.08961948 -0.05974634 -0.066449314
0.089984991 -0.089985013 -0.060357533
0.090353496 -0.12047121 -0.05421577
0.090725027 -0.15120836 -0.048023596
0.091099888 -0.18219978 -0.04177577
0.091477595 -0.21344766 -0.035480656
0.091858454 -0.24495584 -0.029133208
0.092242494 -0.27672744 -0.022732496
0.092630029 -0.30876672 -0.016273573
0.093020558 -0.34107533 -0.0097647458
0.093414396 -0.37365752 -0.0032007694
0.093811586 -0.40651685 0.0034190416
0.094212443 -0.43965799 0.010100022
0.094616458 -0.47308224 0.016833663
0.09502396 -0.50679433 0.02362518
0.095434979 -0.54079813 0.030475527
0.095849864 -0.57509911 0.037390381
0.096268073 -0.60969776 0.044360608
0.096689954 -0.64459968 0.0513919
0.097115554 -0.67980874 0.058485121
0.097544909 -0.71532923 0.065641105
0.097978376 -0.75116754 0.072865635
0.098415412 -0.78732336 0.080149651
0.098856367 -0.82380307 0.087498844
0.099301286 -0.8606112 0.094914228
0.099750556 -0.89775491 0.10240185
0.1091048 0.62735265 -0.19629735
0.10951095 0.60231024 -0.19122042
0.10992043 0.57708216 -0.18610203
0.11033269 0.5516634 -0.18094887
0.11074805 0.52605319 -0.17575687
0.11116683 0.50025088 -0.17052183
0.11158852 0.47425127 -0.16525084
0.11201341 0.4480536 -0.15993983
0.11244184 0.42165694 -0.15458435
0.11287326 0.39505646 -0.14919153
0.11330802 0.36825103 -0.14375715
0.11374612 0.34123838 -0.13828078
0.11418795 0.31401688 -0.13275802
0.1146329 0.28658226 -0.1271961
0.11508134 0.25893307 -0.12159058
0.11553361 0.23106724 -0.1159372
0.11598913 0.202981 -0.11024319
0.11644827 0.17467237 -0.10450404
0.11691137 0.14613922 -0.098715246
0.11737784 0.11737788 -0.092884324
0.11784806 0.088386029 -0.087006621
0.11832239 0.05916113 -0.081077568
0.11880021 0.029700151 -0.075104624
0.11928192 4.8428774e-08 -0.069083445
0.11976788 -0.029941916 -0.063008823
0.12025747 -0.060128737 -0.056888882
0.12075109 -0.090563282 -0.050718635
0.12124877 -0.12124878 -0.044497643
0.12175093 -0.1521886 -0.038220666
0.12225691 -0.18338531 -0.031895995
0.12276711 -0.21484238 -0.025518492
0.12328158 -0.24656311 -0.019087449
0.12380075 -0.27855164 -0.012597829
0.12432395 -0.31080985 -0.0060579479
0.12485159 -0.34334189 0.00053752959
0.12538373 -0.37615106 0.0071891844
0.12592079 -0.40924251 0.013902545
0.1264621 -0.4426173 0.020668924
0.12700808 -0.47628021 0.027493685
0.1275588 -0.51023519 0.034377649
0.12811431 -0.54448575 0.041321501
0.12867507 -0.57903779 0.048331112
0.12924038 -0.61389178 0.055397332
0.12981066 -0.64905322 0.062526017
0.13038601 -0.68452656 0.069717765
0.13096687 -0.72031784 0.076978713
0.13155255 -0.75642717 0.084299535
0.13214347 -0.79286081 0.09168604
0.13273972 -0.82962322 0.099139214
0.1333418 -0.86672157 0.1066651
0.13394895 -0.90415537 0.11425453
0.13769124 0.60584152 -0.18319494
0.13820912 0.58047831 -0.1780162
0.13873054 0.55492222 -0.17280196
0.1392559 0.52917242 -0.1675483
0.13978563 0.50322831 -0.16225104
0.14031903 0.47708476 -0.15691696
0.14085652 0.45074093 -0.15154202
0.14139852 0.42419562 -0.14612204
0.14194433 0.39744416 -0.14066401
0.14249437 0.37048542 -0.13516358
0.14304908 0.3433179 -0.12961659
0.14360772 0.31593695 -0.12403013
0.14417075 0.28834152 -0.11839986
0.14473821 0.26052886 -0.11272524
0.14531057 0.23249695 -0.10700174
0.14588705 0.2042419 -0.10123687
0.14646813 0.17576173 -0.095426083
0.14705427 0.14705431 -0.089564711
0.1476447 0.11811579 -0.083660424
0.1482399 0.088943966 -0.077708356
0.14884032 0.059536204 -0.071704023
0.14944522 0.029889127 -0.06565506
0.15005505 1.8626451e-08 -0.059556767
0.1506703 -0.030134097 -0.053404208
0.15129019 -0.060516063 -0.047205325
0.15191521 -0.091149107 -0.040955283
0.15254541 -0.12203633 -0.034653302
0.1531813 -0.15318123 -0.02829431
0.15382206 -0.18458641 -0.021886609
0.15446821 -0.21625546 -0.015425228
0.15511982 -0.24819171 -0.008909151
0.15577741 -0.2803992 -0.0023333281
0.15644012 -0.31288028 0.0042938888
0.1571085 -0.34563869 0.010977715
0.15778261 -0.3786782 0.017718822
0.15846303 -0.41200382 0.024522841
0.15914883 -0.44561666 0.031381011
0.15984061 -0.47952175 0.038298786
0.16053843 -0.51372302 0.045277014
0.16124287 -0.5482257 0.052321255
0.161953 -0.5830307 0.059422702
0.16266944 -0.6181438 0.066587001
0.16339223 -0.65356886 0.073814899
0.16412199 -0.68931222 0.081112355
0.16485777 -0.72537416 0.08847031
0.16560018 -0.76176071 0.095894396
0.16634931 -0.79847658 0.10338578
0.16710578 -0.83552885 0.11095047
0.16786863 -0.87291676 0.11857897
0.16863847 -0.91064769 0.12627733
0.16620392 0.6094144 -0.17507458
0.16683275 0.58391464 -0.16983448
0.16746588 0.55821961 -0.16455832
0.16810384 0.5323289 -0.15924194
0.16874716 0.50624156 -0.15388112
0.16939493 0.47995234 -0.14848292
0.1700477 0.45346057 -0.14304313
0.170706 0.42676505 -0.13755733
0.17136894 0.39986098 -0.13203281
0.17203707 0.37274697 -0.1264652
0.17271087 0.34542176 -0.12085013
0.17338951 0.31788075 -0.11519485
0.1740735 0.29012248 -0.10949491
0.1747629 0.26214439 -0.10374983
0.17545828 0.23394442 -0.097955018
0.17615873 0.20551851 -0.092117995
0.17686528 0.17686531 -0.086230025
0.17757702 0.14798088 -0.080298886
0.17829451 0.11886307 -0.074319735
0.17901835 0.089509182 -0.068287887
0.17974755 0.05991587 -0.062211003
0.18048273 0.030080482 -0.056084581
0.18122396 -1.8626451e-08 -0.049907748
0.1819718 -0.030328564 -0.043675605
0.18272533 -0.060908407 -0.037396204
0.18348512 -0.09174253 -0.031064611
0.1842518 -0.12283453 -0.02467569
0.18502437 -0.15418692 -0.01823765
0.18580343 -0.18580347 -0.011745356
0.18658909 -0.21768725 -0.0051981956
0.18738198 -0.24984264 0.001409173
0.18818109 -0.28227165 0.0080682486
0.18898702 -0.31497836 0.014784455
0.1897999 -0.34796643 0.021558508
0.19062036 -0.38124067 0.028395638
0.19144738 -0.41480258 0.035287485
0.1922816 -0.44865704 0.042239338
0.19312313 -0.48280779 0.049251989
0.19397265 -0.51726031 0.056331366
0.19482906 -0.55201554 0.063468233
0.19569309 -0.58707923 0.070668444
0.19656481 -0.62245518 0.077932686
0.19744493 -0.65814972 0.085267216
0.19833237 -0.69416326 0.092662394
0.19922781 -0.73050201 0.10012445
0.20013139 -0.76717019 0.10765412
0.20104381 -0.8041752 0.11525777
0.20196398 -0.84151661 0.12292585
0.20289259 -0.87920105 0.13066417
0.2038298 -0.91723394 0.13847417
0.19505543 0.61303133 -0.1668544
0.19579726 0.58739179 -0.16155545
0.19654478 0.56155652 -0.1562161
0.19729801 0.53552318 -0.15083587
0.19805758 0.50929093 -0.14541043
0.19882248 0.4828546 -0.13994688
0.19959331 0.4562133 -0.13444093
0.20037068 0.42936578 -0.12888817
0.20115359 0.40230721 -0.12329599
0.20194264 0.37503633 -0.11765995
0.20273846 0.3475517 -0.11197552
0.20354 0.31984866 -0.10625015
0.20434792 0.29192567 -0.10047925
0.20516287 0.26378083 -0.094658352
0.20598374 0.23540998 -0.088794962
0.20681122 0.20681123 -0.082884386
0.20764594 0.17798227 -0.076922074
0.20848686 0.14891919 -0.070915513
0.20933461 0.11961979 -0.064860135
0.21018988 0.090081461 -0.058751017
0.21105157 0.060300473 -0.052596122
0.21192035 0.030274322 -0.046390604
0.21279693 5.5879354e-08 -0.040129401
0.21368016 -0.030525669 -0.033820491
0.21457076 -0.061305866 -0.027459068
0.21546881 -0.092343718 -0.021044437
0.21637504 -0.12364283 -0.014571283
0.2172883 -0.15520595 -0.0080480948
0.2182093 -0.18703644 -0.0014694557
0.2191388 -0.21913882 0.0051696301
0.22007558 -0.25151491 0.011860989
0.2210204 -0.28416908 0.018609822
0.22197337 -0.31710488 0.025416747
0.2229346 -0.35032576 0.032282665
0.22390486 -0.38383687 0.039213106
0.22488295 -0.41763967 0.046199322
0.2258696 -0.45173913 0.053246781
0.22686492 -0.48613909 0.060356393
0.22786979 -0.52084517 0.067534015
0.22888289 -0.55585837 0.074770302
0.22990501 -0.59118426 0.082071364
0.23093632 -0.62682706 0.089437813
0.23197766 -0.66279328 0.096875906
0.23302768 -0.69908303 0.10437611
0.23408726 -0.73570275 0.11194459
0.23515654 -0.7726571 0.11958206
0.23623636 -0.80995309 0.12729514
0.23732539 -0.84759057 0.13507396
0.23842448 -0.88557661 0.14292479
0.22425084 0.61668974 -0.15853971
0.22510882 0.59091067 -0.15317717
0.22597341 0.56493354 -0.14777361
0.22684525 0.53875744 -0.14232454
0.22772324 0.51237726 -0.13683705
0.22860807 0.48579222 -0.13130686
0.2294998 0.45899963 -0.12573361
0.23039915 0.43199837 -0.12011282
0.2313049 0.40478361 -0.11445166
0.23221783 0.37735409 -0.10874581
0.23313864 0.34970802 -0.10299075
0.23406614 0.321841 -0.097193979
0.23500104 0.29375136 -0.09135092
0.23594409 0.26543719 -0.085456774
0.23689409 0.23689413 -0.079519309
0.23785174 0.20812032 -0.073533893
0.23881787 0.17911345 -0.067495681
0.2397912 0.14986958 -0.061412334
0.24077249 0.12038624 -0.055279344
0.24176253 0.090661064 -0.049091522
0.24276005 0.060690045 -0.042857047
0.24376583 0.030470777 -0.036570877
0.24478072 2.7939677e-08 -0.030227998
0.24580333 -0.030725416 -0.02383651
0.24683456 -0.061708551 -0.017391307
0.24787445 -0.09295287 -0.010892063
0.2489239 -0.12446184 -0.0043329298
0.24998152 -0.15623844 0.0022771433
0.25104892 -0.18828663 0.0089483708
0.2521247 -0.22060907 0.015672162
0.25320977 -0.25320971 0.022453658
0.2543042 -0.28609216 0.029293947
0.25540814 -0.31926018 0.036193565
0.25652248 -0.35271835 0.043158174
0.25764582 -0.38646865 0.050178945
0.25877899 -0.42051584 0.057261497
0.25992224 -0.45486385 0.064406604
0.26107642 -0.48951817 0.071620151
0.26224005 -0.52447999 0.078892976
0.26341414 -0.55975503 0.086230919
0.26459876 -0.59534711 0.093634769
0.2657949 -0.6312629 0.10111094
0.26700112 -0.66750276 0.10864964
0.26821828 -0.70407301 0.11625701
0.26944664 -0.74097818 0.12393409
0.27068713 -0.77822554 0.13168728
0.27193826 -0.81581473 0.13950673
0.27320099 -0.85375297 0.14739874
0.27447549 -0.89204526 0.15536442
0.25379679 0.62039214 -0.15012515
0.25477368 0.59447199 -0.14469801
0.25575814 0.56835145 -0.13922884
0.25675088 0.54202962 -0.1337136
0.25775069 0.51550138 -0.12815905
0.25875831 0.48876578 -0.12256116
0.25977457 0.4618215 -0.11691535
0.2607981 0.43466353 -0.11122906
0.26182973 0.4072907 -0.10549778
0.26287031 0.37970152 -0.099716872
0.26391843 0.35189125 -0.093893953
0.26497492 0.32385832 -0.088024408
0.26604071 0.2956008 -0.082103439
0.26711431 0.26711434 -0.076138906
0.26819664 0.23839696 -0.070126116
0.26928774 0.20944607 -0.064064264
0.27038854 0.18025905 -0.057948712
0.27149764 0.15083206 -0.051787186
0.27261582 0.12116268 -0.045574918
0.27374408 0.091248065 -0.039306931
0.27488089 0.061084609 -0.03299129
0.2760272 0.030669754 -0.026622953
0.27718392 -1.5832484e-08 -0.020196684
0.27834955 -0.030927671 -0.013720944
0.27952504 -0.062116556 -0.0071904808
0.28071129 -0.093570434 -0.00060016662
0.28190684 -0.12529191 0.0060418621
0.28311265 -0.15728483 0.012740657
0.28432962 -0.18955305 0.019501746
0.28555629 -0.22209923 0.026316412
0.28679353 -0.25492758 0.033190168
0.28804156 -0.28804147 0.040123709
0.28930143 -0.32144606 0.047122732
0.29057142 -0.35514283 0.054178342
0.29185262 -0.38913676 0.06129612
0.29314518 -0.4234319 0.068477049
0.29445016 -0.4580335 0.075726792
0.29576588 -0.49294311 0.083036467
0.29709342 -0.52816606 0.090411589
0.29843292 -0.56370658 0.097853318
0.29978549 -0.59957087 0.10536763
0.30114943 -0.63575989 0.11294511
0.30252585 -0.67227972 0.12059182
0.3039149 -0.7091347 0.1283088
0.30531675 -0.74632972 0.13609684
0.30673262 -0.78387225 0.14396283
0.30816066 -0.82176173 0.15189636
0.30960205 -0.86000562 0.15990403
0.311057 -0.89860904 0.16798714
0.28369969 0.62413919 -0.14160901
0.28479829 0.59807646 -0.13611595
0.28590542 0.57181096 -0.13058017
0.28702199 0.54534185 -0.12499733
0.28814653 0.51866376 -0.11937463
0.28927991 0.49177593 -0.11370772
0.29042307 0.46467698 -0.10799204
0.29157448 0.43736172 -0.10223505
0.29273504 0.40982908 -0.096432209
0.29390568 0.38207749 -0.090578839
0.29508492 0.35410193 -0.084682748
0.29627365 0.32590106 -0.07873901
0.29747286 0.29747289 -0.072743058
0.29868096 0.26881289 -0.066702634
0.29989892 0.23991913 -0.060612783
0.30112767 0.21078932 -0.054468974
0.30236569 0.18141943 -0.048278775
0.30361393 0.15180705 -0.042037591
0.30487254 0.12194908 -0.03574463
0.30614251 0.091842741 -0.029394822
0.30742222 0.061484415 -0.022996373
0.30871263 0.030871313 -0.016544212
0.31001484 8.8941306e-08 -0.010033084
0.31132722 -0.031132694 -0.0034713596
0.31265068 -0.062530078 0.0031461064
0.31398642 -0.09419585 0.0098247789
0.31533265 -0.12613308 0.016555984
0.31669053 -0.15834522 0.02334521
0.31806108 -0.19083658 0.030197896
0.31944257 -0.22360969 0.037105389
0.32083613 -0.25666881 0.044073209
0.32224286 -0.29001853 0.05110696
0.323661 -0.32366091 0.058197677
0.32509169 -0.35760084 0.065351024
0.32653505 -0.39184201 0.072567999
0.32799235 -0.42638993 0.07985431
0.32946166 -0.46124631 0.087200865
0.33094421 -0.49641621 0.094613522
0.33244014 -0.5319041 0.10209328
0.33395073 -0.56771612 0.1096462
0.33547401 -0.60385323 0.11726278
0.33701131 -0.64032137 0.12494895
0.3385627 -0.67712533 0.13270608
0.34012848 -0.71426976 0.14053509
0.34170991 -0.75176179 0.14844221
0.34330499 -0.78960156 0.1564177
0.34491503 -0.82779598 0.16446784
0.34654027 -0.86635053 0.17259392
0.34818202 -0.90527314 0.18080273
0.31396595 0.62793195 -0.13298932
0.31518918 0.60172486 -0.1274291
0.31642288 0.57531428 -0.12182166
0.31766534 0.54869467 -0.11617409
0.31891763 0.52186519 -0.11048181
0.32017982 0.4948234 -0.10474458
0.32145295 0.46756792 -0.098957628
0.32273531 0.44009364 -0.093128636
0.32402799 0.41239923 -0.087252989
0.32533193 0.38448328 -0.081325799
0.32664549 0.35634059 -0.075354964
0.32796973 0.32796973 -0.069335841
0.32930568 0.29936886 -0.063263305
0.33065161 0.27053317 -0.057145461
0.3320086 0.24146077 -0.050977357
0.33337772 0.21214956 -0.044754021
0.33475721 0.1825949 -0.038483605
0.33614817 0.15279469 -0.03216112
0.33755171 0.1227461 -0.025781326
0.33896604 0.092445299 -0.019352525
0.34039229 0.061889566 -0.012869723
0.34183156 0.031075647 -0.0063275807
0.34328204 5.3056283e-08 0.00026557181
0.34474492 -0.031340346 0.0069149565
0.34622133 -0.062949337 0.013626039
0.34770942 -0.09482982 0.020389989
0.34921032 -0.12698549 0.027212366
0.35072425 -0.15942012 0.034093738
0.35225242 -0.19213761 0.041040152
0.35379291 -0.22514084 0.048042268
0.35534692 -0.25843412 0.055106036
0.35691574 -0.29202193 0.062237024
0.35849738 -0.32590672 0.069426194
0.36009309 -0.360093 0.076679453
0.36170307 -0.39458513 0.083997548
0.36332867 -0.4293884 0.091386631
0.36496776 -0.46450442 0.098837122
0.36662173 -0.49993867 0.10635513
0.36829075 -0.53569567 0.11394155
0.36997622 -0.57178134 0.12160274
0.371676 -0.60819709 0.129329
0.37339145 -0.6449489 0.1371267
0.37512285 -0.68204147 0.14499646
0.37687159 -0.71948195 0.15294522
0.37863544 -0.75727087 0.16096288
0.38041592 -0.7954151 0.16905594
0.38221321 -0.83391976 0.17722544
0.38402882 -0.87279278 0.18547818
0.3858605 -0.91203386 0.193804
0.34595317 0.60541809 -0.1186358
0.34731558 0.57885933 -0.11295909
0.34868783 0.55208898 -0.10724148
0.35007092 0.52510643 -0.10147853
0.35146508 0.49790886 -0.095669612
0.35287133 0.47049505 -0.089810252
0.35428789 0.44285989 -0.083907783
0.35571587 0.41500187 -0.077957854
0.35715643 0.38691947 -0.071955577
0.35860768 0.35860771 -0.065908745
0.36007079 0.33006492 -0.059812486
0.3615469 0.30128911 -0.053662047
0.36303413 0.27227557 -0.047465213
0.36453363 0.24302252 -0.04121726
0.36604664 0.2135272 -0.034913018
0.36757118 0.18378565 -0.028560698
0.3691085 0.1537953 -0.022155263
0.3706598 0.12355329 -0.015691537
0.37222311 0.093055844 -0.0091777816
0.37379965 0.062299967 -0.0026088841
0.37539074 0.031282589 0.0040206332
0.37699428 9.2666596e-08 0.010702088
0.37861159 -0.031550933 0.017440939
0.38024399 -0.063373916 0.024242509
0.38188934 -0.095472291 0.031098265
0.38354903 -0.12784958 0.038013607
0.38522437 -0.16051018 0.04499422
0.38691321 -0.19345655 0.05203104
0.38861695 -0.22669315 0.059129819
0.39033574 -0.26022372 0.066291563
0.39207104 -0.29405332 0.073521905
0.39382058 -0.32818377 0.080811724
0.39558583 -0.36262029 0.088166922
0.39736819 -0.39736807 0.095593482
0.39916548 -0.43242919 0.10308209
0.40097907 -0.46780884 0.11063872
0.4028092 -0.50351143 0.11826433
0.40465742 -0.53954321 0.1259653
0.40652141 -0.5759052 0.1337318
0.40840262 -0.6126039 0.14157026
0.41030127 -0.64964366 0.14948134
0.41221911 -0.68703187 0.15747216
0.41415352 -0.72476864 0.16553229
0.41610622 -0.76286125 0.17366835
0.41807738 -0.80131483 0.18188167
0.42006871 -0.8401373 0.19017881
0.42207772 -0.87932837 0.19854963
0.37709713 0.60915685 -0.10973383
0.37859139 0.58244836 -0.10398662
0.38009652 0.55552566 -0.098197713
0.38161364 0.52838808 -0.092362627
0.38314396 0.5010345 -0.086476639
0.38468558 0.47345924 -0.080547452
0.38623965 0.44566113 -0.074570328
0.38780737 0.41763878 -0.068540514
0.3893868 0.38938683 -0.062465817
0.39097917 0.3609038 -0.05634141
0.39258456 0.33218694 -0.050166726
0.39420438 0.30323416 -0.043936685
0.39583644 0.27404064 -0.037659504
0.3974821 0.24460433 -0.031330124
0.39914262 0.21492296 -0.024943277
0.40081593 0.18499202 -0.018507533
0.40250334 0.154809 -0.012017563
0.40420622 0.12437122 -0.0054680556
0.40592232 0.093674421 0.001132369
0.40765309 0.062715858 0.0077890772
0.4093999 0.031492326 0.014507668
0.41116047 9.3132257e-09 0.021279156
0.41293633 -0.03176422 0.028109226
0.41472879 -0.063804388 0.035003245
0.41653559 -0.096123591 0.041952703
0.41835827 -0.12872559 0.048962899
0.42019823 -0.16161463 0.056039695
0.42205316 -0.19479367 0.063173994
0.42392451 -0.22826695 0.070371486
0.42581382 -0.26203921 0.077638328
0.42771879 -0.29611295 0.084964864
0.42964089 -0.33049291 0.092357539
0.43158028 -0.36518329 0.099816665
0.43353865 -0.40018952 0.10734899
0.4355135 -0.43551344 0.11494452
0.43750638 -0.47116077 0.12260953
0.43951765 -0.50713575 0.13034514
0.44154885 -0.54344475 0.13815752
0.44359753 -0.58008903 0.14603695
0.44566527 -0.61707485 0.15398987
0.44775242 -0.65440738 0.16201735
0.44986069 -0.69209325 0.17012595
0.45198736 -0.73013341 0.17830563
0.45413432 -0.76853484 0.18656299
0.45630172 -0.80730295 0.1948992
0.45849141 -0.84644556 0.20332104
0.46070072 -0.88596272 0.21181834
0.40862814 0.61294222 -0.10072111
0.41025746 0.58608204 -0.094902217
0.41189867 0.55900544 -0.089040652
0.41355306 0.5317111 -0.083132118
0.41522196 0.50419807 -0.077171773
0.41690323 0.47646087 -0.071167216
0.41859815 0.44849801 -0.065113947
0.42030811 0.42030811 -0.059006944
0.42203093 0.39188585 -0.052854225
0.42376783 0.36322957 -0.046650738
0.42552042 0.33433747 -0.040391639
0.42728627 0.30520451 -0.034084976
0.42906684 0.27582872 -0.027725786
0.43086356 0.24620774 -0.021308877
0.4326742 0.21633714 -0.014842525
0.43450001 0.18621443 -0.0083214492
0.43634138 0.15583625 -0.0017452762
0.43819967 0.12519999 0.0048915483
0.44007257 0.094301358 0.011580478
0.44196159 0.06313739 0.018326867
0.44386819 0.031704918 0.02513615
0.44578993 2.0489097e-08 0.031999581
0.44772846 -0.0319806 0.038922835
0.44968522 -0.064240724 0.045911383
0.4516578 -0.096783839 0.052956257
0.45364779 -0.12961367 0.060063362
0.45565677 -0.16273458 0.067238197
0.45768219 -0.1961495 0.074471928
0.45972574 -0.22986279 0.081770249
0.46178904 -0.26387933 0.089139216
0.46386948 -0.29820174 0.096569322
0.46596879 -0.33283478 0.10406684
0.46808863 -0.36778384 0.11163768
0.47022635 -0.4030512 0.11927247
0.47238371 -0.43864194 0.12697732
0.47456095 -0.47456086 0.13475312
0.47675985 -0.51081419 0.1426065
0.47897771 -0.54740304 0.15052737
0.48121631 -0.58433402 0.15852232
0.48347592 -0.62161183 0.16659233
0.48575845 -0.65924358 0.17474435
0.48806104 -0.69722986 0.18296766
0.49038553 -0.7355783 0.19126952
0.49273226 -0.77429354 0.19965076
0.49510324 -0.81338382 0.20811853
0.49749547 -0.85284925 0.2166622
0.49991095 -0.89269793 0.22528875
0.44055346 0.61677492 -0.091595799
0.44232112 0.58976144 -0.085703701
0.44410175 0.56252885 -0.079768181
0.44589674 0.53507614 -0.073784754
0.44770765 0.50740206 -0.067748532
0.44953197 0.47950083 -0.061667353
0.45137128 0.45137131 -0.055536389
0.45322698 0.42301184 -0.049350768
0.45509669 0.39441717 -0.043118402
0.4569819 0.36558557 -0.036834344
0.45888409 0.33651507 -0.030493602
0.46080086 0.30720061 -0.024104372
0.46273375 0.27764028 -0.017661527
0.46468422 0.24783166 -0.011159845
0.46664986 0.21776992 -0.0046077818
0.46863222 0.1874529 0.0020000264
0.47063288 0.15687764 0.0086689442
0.47264928 0.1260398 0.015390117
0.47468302 0.094936684 0.02216934
0.47673577 0.063564852 0.029011954
0.47880495 0.0319204 0.035909038
0.48089209 -9.3132257e-09 0.042866308
0.4829976 -0.03219986 0.049884565
0.48512304 -0.064683028 0.056969356
0.4872658 -0.097453088 0.064111963
0.48942757 -0.13051392 0.071317933
0.49161014 -0.16386993 0.078593113
0.49381071 -0.19752418 0.085928321
0.49603108 -0.23148113 0.093329646
0.49827304 -0.26574561 0.10080282
0.50053382 -0.3003203 0.10833878
0.50281519 -0.33521003 0.11594332
0.50511909 -0.37042066 0.12362286
0.50744253 -0.40595394 0.13136782
0.5097875 -0.44181579 0.13918424
0.51215583 -0.47801214 0.14707881
0.51454467 -0.51454461 0.1550415
0.51695585 -0.5514195 0.16307873
0.51938975 -0.58864176 0.17119178
0.52184838 -0.62621802 0.17938721
0.52432865 -0.66414952 0.18765476
0.52683264 -0.7024436 0.19600151
0.52936065 -0.74110496 0.20442823
0.53191304 -0.78013903 0.21293613
0.53449196 -0.81955427 0.22153252
0.53709418 -0.85935074 0.23020676
0.53972191 -0.89953649 0.23896569
0.47288057 0.62065578 -0.082355589
0.47478989 0.59348732 -0.076389
0.47671333 0.56609714 -0.07037808
0.47865382 0.53848559 -0.064314127
0.48060882 0.51064688 -0.058204845
0.4825798 0.48257989 -0.052045465
0.48456845 0.45428291 -0.04583098
0.48657209 0.42575067 -0.039569512
0.48859245 0.39698136 -0.033256054
0.49062961 0.36797225 -0.026889861
0.49268526 0.33872119 -0.020465866
0.49475679 0.30922306 -0.013992459
0.49684578 0.27947581 -0.0074642301
0.498954 0.24947694 -0.00087619573
0.50107867 0.21922196 0.0057634041
0.50322151 0.18870811 0.012459785
0.50538427 0.15793264 0.019218475
0.50756419 0.12689108 0.026030716
0.509763 0.09558057 0.032901976
0.51198244 0.063997842 0.039837755
0.51421976 0.032138795 0.046829462
0.51647675 -5.4016709e-08 0.053882472
0.5187552 -0.032422099 0.061002694
0.52105224 -0.065131485 0.068180956
0.52336973 -0.098131754 0.075423002
0.52570957 -0.13142735 0.082735002
0.52806872 -0.16502152 0.090107515
0.53044921 -0.19891834 0.097546391
0.53285122 -0.23312241 0.10505276
0.53527677 -0.26763827 0.1126326
0.53772283 -0.30246904 0.12027647
0.54019135 -0.33761954 0.12799063
0.54268432 -0.37309548 0.13578114
0.54519868 -0.40889892 0.14363858
0.54773647 -0.44503587 0.15156916
0.55029976 -0.48151225 0.15957937
