# .PCD v0.7 - Point Cloud Data file format
VERSION 0.7
FIELDS x y z rgb
SIZE 4 4 4 4
TYPE F F F F
COUNT 1 1 1 1
WIDTH 972
HEIGHT 1
VIEWPOINT 0 0 0 1 0 0 0
POINTS 972
DATA ascii
0.021068022 0.027774015 0.27200001 -3.0850592e+38
0.021508407 0.027774015 0.27200001 -3.1250924e+38
0.022389175 0.027774015 0.27200001 -3.1119567e+38
0.022829561 0.027774015 0.27200001 -3.0854766e+38
0.023269944 0.027774015 0.27200001 -3.1388542e+38
0.024150714 0.027774015 0.27200001 -3.1258747e+38
-0.011202256 0.028525589 0.27500001 nan
0.025494276 0.030911366 0.29800001 -3.125666e+38
0.026151098 0.031118823 0.30000001 -3.0859976e+38
0.02450587 0.02862932 0.27600002 -3.1126864e+38
0.027122535 0.031118823 0.30000001 -3.1130513e+38
0.027608253 0.031118823 0.30000001 -3.1797733e+38
-0.010757014 0.02897083 0.27500001 nan
-0.0097588962 0.028654784 0.27200001 nan
-0.0092842514 0.028549438 0.27100003 nan
-0.0084067211 0.028549438 0.27100003 -3.3642488e+38
-0.0079385536 0.028444089 0.27000001 -3.3907814e+38
-0.0075014075 0.028444089 0.27000001 -3.3907814e+38
-0.0066025695 0.02833874 0.26900002 nan
-0.0061670425 0.02833874 0.26900002 nan
-0.0052763 0.028233392 0.26800001 -3.3905212e+38
-0.0048423917 0.028233392 0.26800001 nan
-0.003527455 0.028128043 0.26700002 nan
-0.0030951661 0.028128043 0.26700002 nan
-0.0026628769 0.028128043 0.26700002 -3.3770725e+38
-0.0017982984 0.028128043 0.26700002 -3.3770725e+38
-0.001360893 0.028022693 0.266 nan
-0.00093022286 0.028022693 0.266 -3.3770725e+38
-6.8882517e-05 0.028022693 0.266 -3.3637281e+38
0.00036178765 0.028022693 0.266 -3.3637281e+38
0.00079245778 0.028022693 0.266 -3.3637281e+38
0.0012231279 0.028022693 0.266 -3.3637281e+38
0.0020844685 0.028022693 0.266 -3.3637281e+38
0.0025056831 0.027917346 0.26500002 -3.3503837e+38
0.0033637853 0.027917346 0.26500002 -3.3504352e+38
0.0037928363 0.027917346 0.26500002 -3.3370908e+38
0.0042218873 0.027917346 0.26500002 -3.3237464e+38
0.0046509388 0.027917346 0.26500002 -3.3237464e+38
0.0055090408 0.027917346 0.26500002 -3.3370908e+38
0.0059380918 0.027917346 0.26500002 -3.3104547e+38
0.0063671428 0.027917346 0.26500002 -3.3104547e+38
0.0067961942 0.027917346 0.26500002 -3.2972148e+38
0.0076542962 0.027917346 0.26500002 -3.28387e+38
0.0080833472 0.027917346 0.26500002 -3.28387e+38
0.0085123982 0.027917346 0.26500002 -3.2972659e+38
0.0093705002 0.027917346 0.26500002 -3.2839215e+38
0.0097995522 0.027917346 0.26500002 -3.2839215e+38
0.010267201 0.028022693 0.266 -3.2573373e+38
0.010697871 0.028022693 0.266 -3.2706817e+38
0.011128541 0.028022693 0.266 -3.2441495e+38
0.011989881 0.028022693 0.266 -3.2308051e+38
0.012420552 0.028022693 0.266 -3.2441495e+38
0.012851222 0.028022693 0.266 -3.2175132e+38
0.013331824 0.028128043 0.26700002 -3.2175132e+38
0.014196402 0.028128043 0.26700002 -3.2308576e+38
0.014628692 0.028128043 0.26700002 -3.204325e+38
0.015060981 0.028128043 0.26700002 -3.204325e+38
0.015551298 0.028233392 0.26800001 -3.2043771e+38
0.016419115 0.028233392 0.26800001 -3.1645001e+38
0.016853023 0.028233392 0.26800001 -3.1645001e+38
0.017351435 0.02833874 0.26900002 -3.1379679e+38
0.017786961 0.02833874 0.26900002 -3.1379679e+38
0.018290231 0.028444089 0.27000001 -3.1380723e+38
0.021068022 0.028654784 0.27200001 -3.0985082e+38
0.021508407 0.028654784 0.27200001 -3.1118526e+38
0.022389175 0.028654784 0.27200001 -3.0987684e+38
0.022913491 0.028760133 0.273 -3.0457553e+38
0.023526598 0.02897083 0.27500001 -3.1124773e+38
0.026151098 0.031604543 0.30000001 -3.0861532e+38
0.027032126 0.031499196 0.29900002 -3.1264998e+38
0.027608253 0.031604543 0.30000001 -3.2065662e+38
-0.01373861 0.031127552 0.29100001 -3.3652917e+38
-0.010311773 0.029416071 0.27500001 nan
-0.009318511 0.029095169 0.27200001 -3.3910931e+38
-0.0084067211 0.028988203 0.27100003 -3.3643003e+38
-0.0079679554 0.028988203 0.27100003 nan
-0.0075014075 0.028881235 0.27000001 -3.3908329e+38
-0.0066271145 0.028881235 0.27000001 -3.3774885e+38
-0.0061670425 0.028774267 0.26900002 nan
-0.0057315151 0.028774267 0.26900002 nan
-0.0048604603 0.028774267 0.26900002 -3.3906252e+38
-0.0044084834 0.028667301 0.26800001 -3.3905212e+38
-0.0039745751 0.028667301 0.26800001 -3.3771768e+38
-0.0031067585 0.028667301 0.26800001 nan
-0.0026628769 0.028560333 0.26700002 nan
-0.0017982984 0.028560333 0.26700002 -3.3770725e+38
-0.0013660092 0.028560333 0.26700002 nan
-0.00093371997 0.028560333 0.26700002 nan
-6.8882517e-05 0.028453363 0.266 -3.3770725e+38
0.00036178765 0.028453363 0.266 -3.3637281e+38
0.00079245778 0.028453363 0.266 -3.3637281e+38
0.0012231279 0.028453363 0.266 -3.3637281e+38
0.0020844685 0.028453363 0.266 -3.3637281e+38
0.0025151386 0.028453363 0.266 -3.3637281e+38
0.0029458087 0.028453363 0.266 -3.3503837e+38
0.0038071491 0.028453363 0.266 -3.3503837e+38
0.004237819 0.028453363 0.266 -3.3370908e+38
0.0046684896 0.028453363 0.266 -3.3504352e+38
0.0055090408 0.028346397 0.26500002 -3.3104547e+38
0.0059380918 0.028346397 0.26500002 -3.3104547e+38
0.0063671428 0.028346397 0.26500002 -3.3104547e+38
0.0067961942 0.028346397 0.26500002 -3.3105592e+38
0.0076831803 0.028453363 0.266 -3.2972144e+38
0.0081138499 0.028453363 0.266 -3.2972144e+38
0.0085445205 0.028453363 0.266 -3.2972144e+38
0.0089751901 0.028453363 0.266 -3.2972144e+38
0.0098365312 0.028453363 0.266 -3.28387e+38
0.010267201 0.028453363 0.266 -3.2573373e+38
0.010697871 0.028453363 0.266 -3.2840261e+38
0.011128541 0.028453363 0.266 -3.2574939e+38
0.011989881 0.028453363 0.266 -3.2175647e+38
0.012467247 0.028560333 0.26700002 -3.2309092e+38
0.012899536 0.028560333 0.26700002 -3.2308576e+38
0.013331824 0.028560333 0.26700002 -3.2175132e+38
0.014196402 0.028560333 0.26700002 -3.2308576e+38
0.014683481 0.028667301 0.26800001 -3.1910327e+38
0.01511739 0.028667301 0.26800001 -3.1910327e+38
0.015551298 0.028667301 0.26800001 -3.1778445e+38
0.016044853 0.028774267 0.26900002 -3.1778445e+38
0.016915908 0.028774267 0.26900002 -3.1645001e+38
0.017351435 0.028774267 0.26900002 -3.1379679e+38
0.017853085 0.028881235 0.27000001 -3.1513123e+38
0.018290231 0.028881235 0.27000001 -3.1380723e+38
0.021068022 0.029095169 0.27200001 -3.0985082e+38
0.021508407 0.029095169 0.27200001 -3.1118526e+38
0.022471488 0.029202137 0.273 -3.1121128e+38
0.025237624 0.031555422 0.29500002 -3.1258217e+38
0.026063927 0.031983294 0.29900002 -3.1261864e+38
-0.009524066 0.030187074 0.27800003 nan
-0.0084687639 0.029644141 0.273 -3.3644043e+38
-0.0075291898 0.02942697 0.27100003 -3.3643003e+38
-0.0066271145 0.029318381 0.27000001 -3.3774885e+38
-0.006189968 0.029318381 0.27000001 nan
-0.0057315151 0.029209793 0.26900002 nan
-0.0048604603 0.029209793 0.26900002 -3.3906252e+38
-0.0044249329 0.029209793 0.26900002 nan
-0.0039745751 0.02910121 0.26800001 -3.3905212e+38
-0.0031067585 0.02910121 0.26800001 nan
-0.0026728502 0.02910121 0.26800001 nan
-0.0017982984 0.028992621 0.26700002 nan
-0.0013660092 0.028992621 0.26700002 nan
-0.00093371997 0.028992621 0.26700002 -3.3770725e+38
-0.00050143071 0.028992621 0.26700002 -3.3770725e+38
0.00036314776 0.028992621 0.26700002 -3.3637281e+38
0.00079543696 0.028992621 0.26700002 -3.3637281e+38
0.0012231279 0.028884033 0.266 -3.3637281e+38
0.0020844685 0.028884033 0.266 -3.3637281e+38
0.0025151386 0.028884033 0.266 -3.3637281e+38
0.0029458087 0.028884033 0.266 -3.3503837e+38
0.0038071491 0.028884033 0.266 -3.3637281e+38
0.004237819 0.028884033 0.266 -3.3238507e+38
0.0046684896 0.028884033 0.266 -3.3371951e+38
0.0050991597 0.028884033 0.266 -3.3104547e+38
0.0059604999 0.028884033 0.266 -3.3104547e+38
0.00639117 0.028884033 0.266 -3.3104547e+38
0.0068218396 0.028884033 0.266 -3.3105592e+38
0.0076831803 0.028884033 0.266 -3.2972148e+38
0.0081138499 0.028884033 0.266 -3.2972148e+38
0.0085445205 0.028884033 0.266 -3.3105588e+38
0.0089751901 0.028884033 0.266 -3.2972144e+38
0.0098365312 0.028884033 0.266 -3.2972144e+38
0.010267201 0.028884033 0.266 -3.2706821e+38
0.010738089 0.028992621 0.26700002 -3.2840266e+38
0.011170379 0.028992621 0.26700002 -3.2574939e+38
0.012034957 0.028992621 0.26700002 -3.2308576e+38
0.012467247 0.028992621 0.26700002 -3.244202e+38
0.012899536 0.028992621 0.26700002 -3.2308576e+38
0.013331824 0.028992621 0.26700002 -3.2308576e+38
0.013815666 0.02910121 0.26800001 -3.204325e+38
0.014683481 0.02910121 0.26800001 -3.1910327e+38
0.01511739 0.02910121 0.26800001 -3.1910327e+38
0.015609325 0.029209793 0.26900002 -3.1645001e+38
0.016044853 0.029209793 0.26900002 -3.1778445e+38
0.016915908 0.029209793 0.26900002 -3.1379674e+38
0.017415937 0.029318381 0.27000001 -3.1247275e+38
0.017853085 0.029318381 0.27000001 -3.1380719e+38
0.018290231 0.029318381 0.27000001 -3.1115397e+38
0.018796736 0.02942697 0.27100003 -3.1115397e+38
0.021068022 0.029535554 0.27200001 -3.1118526e+38
0.021587482 0.029644141 0.273 -3.1118526e+38
0.022271566 0.029969901 0.27600002 -3.098821e+38
-0.013927456 0.032510668 0.29500002 -3.3658653e+38
-0.013313056 0.032180052 0.29200003 nan
0.023724059 0.032400463 0.294 -3.0856327e+38
0.024282377 0.032510668 0.29500002 -3.125666e+38
0.024843933 0.032620877 0.296 -3.0861532e+38
0.025889587 0.032731079 0.29700002 -3.1265509e+38
0.026459236 0.032841288 0.29800001 -3.1799285e+38
-0.013449834 0.032988291 0.29500002 nan
-0.012928237 0.032876465 0.294 -3.3519469e+38
-0.011894759 0.032652818 0.29200003 -3.3650826e+38
-0.0091066081 0.031199098 0.27900001 -3.3779049e+38
-0.0075847567 0.030528149 0.273 -3.3644043e+38
-0.0070904242 0.030304499 0.27100003 -3.3776447e+38
-0.006189968 0.030192673 0.27000001 -3.3908329e+38
-0.0057528219 0.030192673 0.27000001 nan
-0.0048604603 0.030080847 0.26900002 -3.3774885e+38
-0.0044249329 0.030080847 0.26900002 nan
-0.0039894055 0.030080847 0.26900002 -3.3906767e+38
-0.0031067585 0.029969025 0.26800001 -3.3905727e+38
-0.0026728502 0.029969025 0.26800001 nan
-0.0022389418 0.029969025 0.26800001 -3.3905212e+38
-0.0013711252 0.029969025 0.26800001 -3.3771768e+38
-0.00093371997 0.0298572 0.26700002 -3.3771768e+38
-0.00050143071 0.0298572 0.26700002 -3.3771768e+38
0.00036314776 0.0298572 0.26700002 -3.3371435e+38
0.00079543696 0.0298572 0.26700002 -3.350488e+38
0.0012277261 0.0298572 0.26700002 -3.350488e+38
0.0020923046 0.0298572 0.26700002 -3.3371435e+38
0.0025245938 0.0298572 0.26700002 -3.3371435e+38
0.0029458087 0.029745374 0.266 -3.3237991e+38
0.0038071491 0.029745374 0.266 -3.3371435e+38
0.004237819 0.029745374 0.266 -3.3239032e+38
0.0046684896 0.029745374 0.266 -3.3239032e+38
0.0050991597 0.029745374 0.266 -3.3105592e+38
0.0059604999 0.029745374 0.266 -3.3105592e+38
0.00639117 0.029745374 0.266 -3.3105592e+38
0.0068218396 0.029745374 0.266 -3.3105592e+38
0.0076831803 0.029745374 0.266 -3.2840266e+38
0.0081138499 0.029745374 0.266 -3.2840266e+38
0.0085445205 0.029745374 0.266 -3.297371e+38
0.0090089319 0.0298572 0.26700002 -3.2706821e+38
0.0094412211 0.0298572 0.26700002 -3.2706821e+38
0.0103058 0.0298572 0.26700002 -3.2441495e+38
0.010738089 0.0298572 0.26700002 -3.2574939e+38
0.011170379 0.0298572 0.26700002 -3.244202e+38
0.012034957 0.0298572 0.26700002 -3.204325e+38
0.012467247 0.0298572 0.26700002 -3.2176694e+38
0.012947848 0.029969025 0.26800001 -3.2176694e+38
0.013381757 0.029969025 0.26800001 -3.204325e+38
0.013815666 0.029969025 0.26800001 -3.204325e+38
0.014683481 0.029969025 0.26800001 -3.1645001e+38
0.015173797 0.030080847 0.26900002 -3.1778445e+38
0.015609325 0.030080847 0.26900002 -3.1379674e+38
0.016044853 0.030080847 0.26900002 -3.1513119e+38
0.016541645 0.030192673 0.27000001 -3.1380715e+38
0.017415937 0.030192673 0.27000001 -3.1380719e+38
0.017853085 0.030192673 0.27000001 -3.1514163e+38
0.018357972 0.030304499 0.27100003 -3.1115918e+38
0.018796736 0.030304499 0.27100003 -3.1249362e+38
0.020187253 0.030416323 0.27200001 -3.0986123e+38
0.020627636 0.030416323 0.27200001 -3.0986123e+38
0.021145478 0.030528149 0.273 -3.0854244e+38
0.021666555 0.030639974 0.27400002 -3.1121133e+38
0.023804754 0.032988291 0.29500002 -3.0991333e+38
0.024282377 0.032988291 0.29500002 -3.1258221e+38
0.025237624 0.032988291 0.29500002 -3.1662196e+38
0.025802417 0.033100117 0.296 -3.1267596e+38
0.026370447 0.033211939 0.29700002 -3.1667928e+38
-0.013495427 0.033579361 0.296 nan
-0.012972211 0.033465914 0.29500002 -3.3523122e+38
-0.01197623 0.033352468 0.294 -3.3651351e+38
-0.011421993 0.033125583 0.29200003 -3.3648739e+38
-0.0081149656 0.031310484 0.27600002 nan
-0.0071165888 0.030856706 0.27200001 -3.3775932e+38
-0.0062128939 0.030743266 0.27100003 -3.3643003e+38
-0.0057528219 0.030629821 0.27000001 -3.3776447e+38
-0.0053156754 0.030629821 0.27000001 -3.3643003e+38
-0.0044413824 0.030629821 0.27000001 -3.3774885e+38
-0.0039894055 0.030516375 0.26900002 -3.3774885e+38
-0.0031183506 0.030516375 0.26900002 -3.3773323e+38
-0.0026828235 0.030516375 0.26900002 nan
-0.0022389418 0.030402934 0.26800001 -3.3905212e+38
-0.0013711252 0.030402934 0.26800001 -3.3771768e+38
-0.00093721697 0.030402934 0.26800001 -3.3771768e+38
-0.00050330872 0.030402934 0.26800001 -3.3771768e+38
-6.9400434e-05 0.030402934 0.26800001 -3.3771768e+38
0.00079543696 0.030289488 0.26700002 -3.350488e+38
0.0012277261 0.030289488 0.26700002 -3.350488e+38
0.0020923046 0.030289488 0.26700002 -3.3371435e+38
0.0025245938 0.030289488 0.26700002 -3.3371435e+38
0.0029568831 0.030289488 0.26700002 -3.3371435e+38
0.0033891725 0.030289488 0.26700002 -3.350488e+38
0.0042537507 0.030289488 0.26700002 -3.3239032e+38
0.0046860403 0.030289488 0.26700002 -3.3239032e+38
0.0051183295 0.030289488 0.26700002 -3.3239036e+38
0.0055506187 0.030289488 0.26700002 -3.3105592e+38
0.0064151972 0.030289488 0.26700002 -3.3105592e+38
0.0068474864 0.030289488 0.26700002 -3.3105592e+38
0.0072797756 0.030289488 0.26700002 -3.3105592e+38
0.0081443535 0.030289488 0.26700002 -3.2840266e+38
0.0085766427 0.030289488 0.26700002 -3.2574939e+38
0.0090089319 0.030289488 0.26700002 -3.2441495e+38
0.0094412211 0.030289488 0.26700002 -3.2441495e+38
0.0103058 0.030289488 0.26700002 -3.2309092e+38
0.010738089 0.030289488 0.26700002 -3.2442536e+38
0.011170379 0.030289488 0.26700002 -3.2310138e+38
0.011646123 0.030402934 0.26800001 -3.2176694e+38
0.012513939 0.030402934 0.26800001 -3.2176694e+38
0.012947848 0.030402934 0.26800001 -3.2176694e+38
0.013381757 0.030402934 0.26800001 -3.204325e+38
0.013867216 0.030516375 0.26900002 -3.1910327e+38
0.01473827 0.030516375 0.26900002 -3.1645001e+38
0.015173797 0.030516375 0.26900002 -3.1778445e+38
0.015609325 0.030516375 0.26900002 -3.1379674e+38
0.016104499 0.030629821 0.27000001 -3.1513119e+38
0.016541645 0.030629821 0.27000001 -3.1380715e+38
0.017415937 0.030629821 0.27000001 -3.1248837e+38
0.017919207 0.030743266 0.27100003 -3.1248837e+38
0.018357972 0.030743266 0.27100003 -3.1249362e+38
0.018796736 0.030743266 0.27100003 -3.151625e+38
0.023724059 0.033352468 0.294 -3.1125303e+38
0.024282377 0.033465914 0.29500002 -3.1392191e+38
0.025237624 0.033465914 0.29500002 -3.1662724e+38
0.025715247 0.033465914 0.29500002 -3.1268638e+38
-0.012494588 0.033943538 0.29500002 -3.3655004e+38
-0.011500225 0.033828475 0.294 -3.3650826e+38
-0.010476462 0.033598348 0.29200003 -3.3780621e+38
-0.0087169325 0.032332659 0.28100002 -3.3645615e+38
-0.0071689165 0.031527221 0.27400002 -3.3910416e+38
-0.006676204 0.031297091 0.27200001 -3.3643528e+38
-0.005795435 0.031297091 0.27200001 -3.3776447e+38
-0.0053353631 0.03118203 0.27100003 -3.3643003e+38
-0.0044413824 0.031066967 0.27000001 -3.3774885e+38
-0.0040042358 0.031066967 0.27000001 -3.3774885e+38
-0.0035670896 0.031066967 0.27000001 -3.3906767e+38
-0.0026828235 0.030951902 0.26900002 -3.3906767e+38
-0.002247296 0.030951902 0.26900002 -3.3906767e+38
-0.0018117687 0.030951902 0.26900002 -3.3773323e+38
-0.00093721697 0.030836841 0.26800001 -3.3639364e+38
-0.00050330872 0.030836841 0.26800001 -3.3639364e+38
-6.9400434e-05 0.030836841 0.26800001 -3.3639879e+38
0.00079841615 0.030836841 0.26800001 -3.3372991e+38
0.0012323244 0.030836841 0.26800001 -3.3372991e+38
0.0016662327 0.030836841 0.26800001 -3.3239032e+38
0.0025245938 0.030721778 0.26700002 -3.3372476e+38
0.0029568831 0.030721778 0.26700002 -3.3239032e+38
0.0033891725 0.030721778 0.26700002 -3.3372476e+38
0.0042537507 0.030721778 0.26700002 -3.337248e+38
0.0046860403 0.030721778 0.26700002 -3.337248e+38
0.0051183295 0.030721778 0.26700002 -3.297371e+38
0.0055506187 0.030721778 0.26700002 -3.297371e+38
0.0064151972 0.030721778 0.26700002 -3.2840266e+38
0.0068474864 0.030721778 0.26700002 -3.2840266e+38
0.0072797756 0.030721778 0.26700002 -3.297371e+38
0.0103058 0.030721778 0.26700002 -3.2308576e+38
0.010778306 0.030836841 0.26800001 -3.244202e+38
0.011212215 0.030836841 0.26800001 -3.2310138e+38
0.011646123 0.030836841 0.26800001 -3.2176694e+38
0.012513939 0.030836841 0.26800001 -3.2176694e+38
0.012947848 0.030836841 0.26800001 -3.2176694e+38
0.013431689 0.030951902 0.26900002 -3.2176694e+38
0.013867216 0.030951902 0.26900002 -3.1778445e+38
0.01473827 0.030951902 0.26900002 -3.1379674e+38
0.015230206 0.031066967 0.27000001 -3.1513119e+38
0.015667353 0.031066967 0.27000001 -3.1379674e+38
0.016104499 0.031066967 0.27000001 -3.1646563e+38
0.016541645 0.031066967 0.27000001 -3.1514159e+38
0.017041676 0.03118203 0.27100003 -3.1647603e+38
0.017919207 0.03118203 0.27100003 -3.1249358e+38
0.018357972 0.03118203 0.27100003 -3.0984036e+38
0.018796736 0.03118203 0.27100003 -3.1250924e+38
0.019674268 0.03118203 0.27100003 -3.125197e+38
0.023724059 0.033828475 0.294 -3.1258747e+38
0.024676068 0.033828475 0.294 -3.1130509e+38
0.025237624 0.033943538 0.29500002 -3.1664285e+38
-0.0067007495 0.03185416 0.273 -3.3643532e+38
-0.0053550508 0.031737477 0.27200001 -3.3642488e+38
-0.0044578318 0.031620797 0.27100003 -3.377437e+38
-0.0040190667 0.031620797 0.27100003 -3.377437e+38
-0.0035803011 0.031620797 0.27100003 -3.3640926e+38
-0.0026927968 0.031504113 0.27000001 -3.3906252e+38
-0.0022556505 0.031504113 0.27000001 -3.3906252e+38
-0.0018117687 0.03138743 0.26900002 -3.3772808e+38
-0.00094071403 0.03138743 0.26900002 -3.3639364e+38
-0.00050518673 0.03138743 0.26900002 -3.3639364e+38
-6.9659385e-05 0.03138743 0.26900002 -3.3639364e+38
0.00079841615 0.03127075 0.26800001 -3.3372476e+38
0.0012323244 0.03127075 0.26800001 -3.3372476e+38
0.0016662327 0.03127075 0.26800001 -3.3239032e+38
0.0025340493 0.03127075 0.26800001 -3.3372476e+38
0.0029679576 0.03127075 0.26800001 -3.3372476e+38
0.0034018657 0.03127075 0.26800001 -3.337248e+38
0.0038357738 0.03127075 0.26800001 -3.337248e+38
0.0047035906 0.03127075 0.26800001 -3.3107154e+38
0.005137499 0.03127075 0.26800001 -3.297371e+38
0.0055714073 0.03127075 0.26800001 -3.297371e+38
0.0064151972 0.031154066 0.26700002 -3.297371e+38
0.0068474864 0.031154066 0.26700002 -3.297371e+38
0.0072797756 0.031154066 0.26700002 -3.297371e+38
0.010778306 0.03127075 0.26800001 -3.244202e+38
0.011212215 0.03127075 0.26800001 -3.2310138e+38
0.011646123 0.03127075 0.26800001 -3.2176694e+38
0.012125107 0.03138743 0.26900002 -3.2176694e+38
0.012996161 0.03138743 0.26900002 -3.2043771e+38
0.013431689 0.03138743 0.26900002 -3.2043771e+38
0.013867216 0.03138743 0.26900002 -3.1911889e+38
0.014355913 0.031504113 0.27000001 -3.1778445e+38
0.015230206 0.031504113 0.27000001 -3.1513119e+38
0.015667353 0.031504113 0.27000001 -3.1380715e+38
0.016164145 0.031620797 0.27100003 -3.1514159e+38
0.016602909 0.031620797 0.27100003 -3.1382277e+38
0.017041676 0.031620797 0.27100003 -3.1382277e+38
0.017919207 0.031620797 0.27100003 -3.1249358e+38
0.018357972 0.031620797 0.27100003 -3.1250924e+38
0.018796736 0.031620797 0.27100003 -3.1384368e+38
0.019674268 0.031620797 0.27100003 -3.125197e+38
0.020187253 0.031737477 0.27200001 -3.1121133e+38
-0.01197623 0.03478048 0.294 -3.3259882e+38
-0.011500225 0.03478048 0.294 -3.3521034e+38
-0.010986725 0.034662183 0.29300001 -3.3120702e+38
-0.0099694366 0.034425579 0.29100001 -3.3250493e+38
-0.0082619758 0.033242568 0.28100002 -3.36451e+38
0.020981045 0.034188978 0.289 -3.1386455e+38
0.022220211 0.034662183 0.29300001 -3.1654909e+38
0.023724059 0.03478048 0.294 -3.1395835e+38
0.024676068 0.03478048 0.294 -3.1267596e+38
0.02515207 0.03478048 0.294 -3.1534484e+38
-0.011500225 0.035256486 0.294 -3.3523122e+38
-0.011024222 0.035256486 0.294 -3.2989345e+38
-0.010037955 0.035136566 0.29300001 -3.3384463e+38
-0.0094982907 0.034896724 0.29100001 -3.338238e+38
-0.0073520639 0.033697527 0.28100002 -3.3645615e+38
-0.0063275225 0.033097927 0.27600002 -3.3643532e+38
-0.0053944257 0.032858089 0.27400002 -3.3510084e+38
-0.0049146661 0.032618243 0.27200001 -3.3510084e+38
-0.0040338971 0.032618243 0.27200001 -3.3509044e+38
-0.0035803011 0.032498326 0.27100003 -3.3640926e+38
-0.0031415357 0.032498326 0.27100003 -3.3640926e+38
-0.0022640047 0.032498326 0.27100003 -3.3640926e+38
-0.0018185041 0.032378405 0.27000001 -3.3507482e+38
-0.0013813575 0.032378405 0.27000001 -3.3374038e+38
-0.00050518673 0.032258485 0.26900002 -3.3374038e+38
-6.9659385e-05 0.032258485 0.26900002 -3.3507482e+38
0.00080139528 0.032258485 0.26900002 -3.3374038e+38
0.0012369227 0.032258485 0.26900002 -3.3374038e+38
0.00167245 0.032258485 0.26900002 -3.3374038e+38
0.0021079774 0.032258485 0.26900002 -3.310715e+38
0.002979032 0.032258485 0.26900002 -3.310715e+38
0.0034018657 0.032138567 0.26800001 -3.3107154e+38
0.0038357738 0.032138567 0.26800001 -3.3107154e+38
0.0047035906 0.032138567 0.26800001 -3.3107154e+38
0.005137499 0.032138567 0.26800001 -3.297371e+38
0.0055714073 0.032138567 0.26800001 -3.297371e+38
0.0064392234 0.032138567 0.26800001 -3.2708383e+38
0.0094765816 0.032138567 0.26800001 -3.2575464e+38
0.0099104894 0.032138567 0.26800001 -3.244202e+38
0.010778306 0.032138567 0.26800001 -3.2176694e+38
0.011254052 0.032258485 0.26900002 -3.2043771e+38
0.011689579 0.032258485 0.26900002 -3.2043771e+38
0.012125107 0.032258485 0.26900002 -3.1778449e+38
0.012996161 0.032258485 0.26900002 -3.1513123e+38
0.01348162 0.032378405 0.27000001 -3.1646567e+38
0.013918767 0.032378405 0.27000001 -3.1646567e+38
0.014355913 0.032378405 0.27000001 -3.1646567e+38
0.014847848 0.032498326 0.27100003 -3.1380719e+38
0.01572538 0.032498326 0.27100003 -3.1248837e+38
0.016164145 0.032498326 0.27100003 -3.1382281e+38
0.016602909 0.032498326 0.27100003 -3.1249358e+38
0.017041676 0.032498326 0.27100003 -3.1516246e+38
0.017985331 0.032618243 0.27200001 -3.1384368e+38
0.018425714 0.032618243 0.27200001 -3.125197e+38
0.018866099 0.032618243 0.27200001 -3.1385414e+38
0.019448442 0.032858089 0.27400002 -3.1386455e+38
0.021198843 0.035016645 0.29200003 -3.1786787e+38
0.022220211 0.035136566 0.29300001 -3.1655426e+38
0.022694595 0.035136566 0.29300001 -3.1258747e+38
0.023248056 0.035256486 0.294 -3.1925967e+38
0.023724059 0.035256486 0.294 -3.1264998e+38
-0.010037955 0.035610951 0.29300001 -3.2987784e+38
-0.0095309298 0.03548941 0.29200003 -3.351739e+38
-0.0085265944 0.035246335 0.29000002 -3.3247895e+38
-0.0074305562 0.034517098 0.28400001 -3.3779059e+38
-0.0064192261 0.03403094 0.28 -3.3645094e+38
-0.0049508032 0.033301711 0.27400002 -3.3244762e+38
-0.0040338971 0.033058628 0.27200001 -3.337664e+38
-0.0035935123 0.033058628 0.27200001 -3.3509044e+38
-0.0031531279 0.033058628 0.27200001 -3.3509044e+38
-0.0022640047 0.032937091 0.27100003 -3.3242155e+38
-0.0018252392 0.032937091 0.27100003 -3.3507482e+38
-0.0013813575 0.032815553 0.27000001 -3.3374038e+38
-0.00050706475 0.032815553 0.27000001 -3.3374038e+38
-6.9918344e-05 0.032815553 0.27000001 -3.3640926e+38
0.00036722806 0.032815553 0.27000001 -3.3374038e+38
0.0012415209 0.032815553 0.27000001 -3.3507482e+38
0.0016786671 0.032815553 0.27000001 -3.3374038e+38
0.0021079774 0.032694012 0.26900002 -3.310715e+38
0.002979032 0.032694012 0.26900002 -3.310715e+38
0.0034145592 0.032694012 0.26900002 -3.3107154e+38
0.0038500866 0.032694012 0.26900002 -3.3107154e+38
0.004285614 0.032694012 0.26900002 -3.2841827e+38
0.0051566684 0.032694012 0.26900002 -3.2708383e+38
0.0055714073 0.032572474 0.26800001 -3.2708383e+38
0.0064392234 0.032572474 0.26800001 -3.2841827e+38
0.0077409483 0.032572474 0.26800001 -3.2575464e+38
0.008608765 0.032572474 0.26800001 -3.244202e+38
0.0090426737 0.032572474 0.26800001 -3.244202e+38
0.009511942 0.032694012 0.26900002 -3.2310138e+38
0.0099474695 0.032694012 0.26900002 -3.2310138e+38
0.010818524 0.032694012 0.26900002 -3.2043771e+38
0.012170181 0.032815553 0.27000001 -3.1778449e+38
0.012607328 0.032815553 0.27000001 -3.1778449e+38
0.01348162 0.032815553 0.27000001 -3.1646567e+38
0.013918767 0.032815553 0.27000001 -3.1514163e+38
0.014409083 0.032937091 0.27100003 -3.1514163e+38
0.014847848 0.032937091 0.27100003 -3.1115393e+38
0.01572538 0.032937091 0.27100003 -3.1115914e+38
0.016164145 0.032937091 0.27100003 -3.1249358e+38
0.016664177 0.033058628 0.27200001 -3.1516246e+38
0.017104561 0.033058628 0.27200001 -3.1516246e+38
0.017609449 0.03318017 0.273 -3.1119041e+38
0.018183697 0.033423245 0.27500001 -3.1252485e+38
0.020253312 0.03548941 0.29200003 -3.1386455e+38
0.020726077 0.03548941 0.29200003 -3.1254573e+38
0.021198843 0.03548941 0.29200003 -3.1654905e+38
0.022220211 0.035610951 0.29300001 -3.1656988e+38
0.022694595 0.035610951 0.29300001 -3.1394268e+38
0.023168981 0.035610951 0.29300001 -3.1928044e+38
0.023643365 0.035610951 0.29300001 -3.1531886e+38
-0.010986725 0.036085337 0.29300001 -3.2862682e+38
-0.0080570672 0.035715863 0.29000002 -3.3115496e+38
-0.0055125519 0.034484278 0.28 -3.3245283e+38
-0.0045071808 0.033745334 0.27400002 -3.337664e+38
-0.0035935123 0.033499014 0.27200001 -3.3509044e+38
-0.0031531279 0.033499014 0.27200001 -3.3509044e+38
-0.0027127434 0.033499014 0.27200001 -3.3509044e+38
-0.0018252392 0.033375859 0.27100003 -3.3507482e+38
-0.0013864738 0.033375859 0.27100003 -3.3374038e+38
-0.00050894276 0.033375859 0.27100003 -3.3507482e+38
-6.9918344e-05 0.033252697 0.27000001 -3.3640926e+38
0.00036722806 0.033252697 0.27000001 -3.3507482e+38
0.0012415209 0.033252697 0.27000001 -3.3374038e+38
0.0016786671 0.033252697 0.27000001 -3.3374038e+38
0.0021158135 0.033252697 0.27000001 -3.3374038e+38
0.0025529601 0.033252697 0.27000001 -3.3374038e+38
0.0034272529 0.033252697 0.27000001 -3.310715e+38
0.0038643992 0.033252697 0.27000001 -3.310715e+38
0.004285614 0.033129539 0.26900002 -3.2841827e+38
0.0051566684 0.033129539 0.26900002 -3.2841827e+38
0.0055921958 0.033129539 0.26900002 -3.2708383e+38
0.0060277232 0.033129539 0.26900002 -3.2708383e+38
0.0068987785 0.033129539 0.26900002 -3.2575464e+38
0.0073343059 0.033129539 0.26900002 -3.2575464e+38
0.0077698329 0.033129539 0.26900002 -3.2575464e+38
0.0082053607 0.033129539 0.26900002 -3.2575464e+38
0.0090764146 0.033129539 0.26900002 -3.244202e+38
0.009511942 0.033129539 0.26900002 -3.2310138e+38
0.0099474695 0.033129539 0.26900002 -3.2310138e+38
0.011295888 0.033252697 0.27000001 -3.1778449e+38
0.011733035 0.033252697 0.27000001 -3.1778449e+38
0.013531552 0.033375859 0.27100003 -3.1514167e+38
0.013970317 0.033375859 0.27100003 -3.1380719e+38
0.014409083 0.033375859 0.27100003 -3.1514163e+38
0.014847848 0.033375859 0.27100003 -3.1115393e+38
0.01572538 0.033375859 0.27100003 -3.1249358e+38
0.016223792 0.033499014 0.27200001 -3.1516246e+38
0.016725441 0.033622172 0.273 -3.125092e+38
0.017293213 0.033868488 0.27500001 -3.125092e+38
0.01818998 0.034730598 0.28200001 -3.1119041e+38
0.019109411 0.035592701 0.289 -3.1252485e+38
0.019645061 0.035715863 0.29000002 -3.1254573e+38
0.020253312 0.035962176 0.29200003 -3.1521461e+38
0.020726077 0.035962176 0.29200003 -3.1521982e+38
0.021198843 0.035962176 0.29200003 -3.1655426e+38
0.022144375 0.035962176 0.29200003 -3.1791994e+38
0.022694595 0.036085337 0.29300001 -3.17946e+38
0.023168981 0.036085337 0.29300001 -3.1928044e+38
0.023643365 0.036085337 0.29300001 -3.1266559e+38
-0.010003696 0.03690771 0.29200003 -3.3263014e+38
-0.0095309298 0.03690771 0.29200003 -3.3391765e+38
-0.0090581644 0.03690771 0.29200003 -3.25911e+38
-0.0080848504 0.036781311 0.29100001 -3.2586411e+38
-0.0075875395 0.036654916 0.29000002 -3.3117053e+38
-0.0066026323 0.036402121 0.28800002 -3.3115488e+38
-0.0050772838 0.03551735 0.28100002 -3.2981518e+38
-0.0046058781 0.035390951 0.28 -3.2979957e+38
-0.0036727812 0.03513816 0.27800003 -3.3111318e+38
-0.0027426635 0.03475897 0.27500001 -3.3244762e+38
-0.0018387095 0.034506179 0.273 -3.32432e+38
-0.0013915899 0.034379784 0.27200001 -3.3109756e+38
-0.00050894276 0.034253389 0.27100003 -3.3109756e+38
-7.0177302e-05 0.034253389 0.27100003 -3.32432e+38
0.00036858817 0.034253389 0.27100003 -3.3109756e+38
0.00080735364 0.034253389 0.27100003 -3.3109756e+38
0.0016848845 0.034253389 0.27100003 -3.2976312e+38
0.0021236499 0.034253389 0.27100003 -3.2976312e+38
0.0025624153 0.034253389 0.27100003 -3.2976312e+38
0.0030011809 0.034253389 0.27100003 -3.2709424e+38
0.0038643992 0.03412699 0.27000001 -3.2709424e+38
0.0043015457 0.03412699 0.27000001 -3.2709424e+38
0.0051758382 0.03412699 0.27000001 -3.2709424e+38
0.0056129848 0.03412699 0.27000001 -3.2709424e+38
0.0060501313 0.03412699 0.27000001 -3.2709424e+38
0.0064872778 0.03412699 0.27000001 -3.2709424e+38
0.0073615704 0.03412699 0.27000001 -3.2443582e+38
0.0095473025 0.03412699 0.27000001 -3.2045337e+38
0.0099844486 0.03412699 0.27000001 -3.1911893e+38
0.010421596 0.03412699 0.27000001 -3.2045337e+38
0.01089896 0.034253389 0.27100003 -3.1911893e+38
0.01177649 0.034253389 0.27100003 -3.1646567e+38
0.012215256 0.034253389 0.27100003 -3.1514167e+38
0.012654021 0.034253389 0.27100003 -3.1514167e+38
0.013141099 0.034379784 0.27200001 -3.1248841e+38
0.01402187 0.034379784 0.27200001 -3.1249362e+38
0.014462254 0.034379784 0.27200001 -3.1249362e+38
0.014902638 0.034379784 0.27200001 -3.0984036e+38
0.015343023 0.034379784 0.27200001 -3.0984036e+38
0.015841434 0.034506179 0.273 -3.0985597e+38
0.016522024 0.035011765 0.27700001 -3.1119041e+38
0.017460626 0.036022935 0.28500003 -3.1120082e+38
0.018110711 0.036402121 0.28800002 -3.1253526e+38
0.018641504 0.03652852 0.289 -3.1254573e+38
0.019175535 0.036654916 0.29000002 -3.1654905e+38
0.019712804 0.036781311 0.29100001 -3.178887e+38
0.020183951 0.036781311 0.29100001 -3.1922314e+38
0.020726077 0.03690771 0.29200003 -3.1391661e+38
0.021198843 0.03690771 0.29200003 -3.1791994e+38
0.022144375 0.03690771 0.29200003 -3.1661156e+38
0.022617141 0.03690771 0.29200003 -3.1130509e+38
0.023089906 0.03690771 0.29200003 -3.1130509e+38
-0.0095309298 0.037380476 0.29200003 -3.3661255e+38
-0.0085559972 0.037252456 0.29100001 -3.2989345e+38
-0.0080848504 0.037252456 0.29100001 -3.2589013e+38
-0.0075875395 0.037124444 0.29000002 -3.3117579e+38
-0.0066484842 0.037124444 0.29000002 -3.2983609e+38
-0.0061363429 0.036868412 0.28800002 -3.2716721e+38
-0.0051856954 0.0367404 0.287 -3.2982044e+38
-0.004721025 0.0367404 0.287 -3.2714115e+38
-0.0037652613 0.036484368 0.28500003 -3.3111324e+38
-0.0027825567 0.035716277 0.27900001 -3.3244247e+38
-0.0014018221 0.035076201 0.27400002 -3.2977874e+38
-0.00095120532 0.034820165 0.27200001 -3.3109756e+38
-7.0436261e-05 0.034820165 0.27200001 -3.3109756e+38
0.00036858817 0.034692153 0.27100003 -3.3109756e+38
0.00080735364 0.034692153 0.27100003 -3.32432e+38
0.0016848845 0.034692153 0.27100003 -3.3109756e+38
0.0021236499 0.034692153 0.27100003 -3.3109756e+38
0.0025624153 0.034692153 0.27100003 -3.2976312e+38
0.0030011809 0.034692153 0.27100003 -3.2709424e+38
0.0038787117 0.034692153 0.27100003 -3.2709424e+38
0.0043174773 0.034692153 0.27100003 -3.2709424e+38
0.004756243 0.034692153 0.27100003 -3.2709424e+38
0.0056337737 0.034692153 0.27100003 -3.2709424e+38
0.0060725394 0.034692153 0.27100003 -3.2444097e+38
0.0065113045 0.034692153 0.27100003 -3.2444097e+38
0.0069500706 0.034692153 0.27100003 -3.2310659e+38
0.0078276014 0.034692153 0.27100003 -3.2045337e+38
0.008266367 0.034692153 0.27100003 -3.1911893e+38
0.0087051326 0.034692153 0.27100003 -3.2045337e+38
0.009582663 0.034692153 0.27100003 -3.1780011e+38
0.010021429 0.034692153 0.27100003 -3.1780011e+38
0.010460194 0.034692153 0.27100003 -3.1780011e+38
0.01089896 0.034692153 0.27100003 -3.1646567e+38
0.011379561 0.034820165 0.27200001 -3.1646567e+38
0.012260331 0.034820165 0.27200001 -3.1514167e+38
0.012700715 0.034820165 0.27200001 -3.1514167e+38
0.013189412 0.034948185 0.273 -3.1382285e+38
0.013631416 0.034948185 0.273 -3.1649173e+38
0.014124971 0.035076201 0.27400002 -3.1249362e+38
0.014621763 0.035204213 0.27500001 -3.1249362e+38
0.015176584 0.035460245 0.27700001 -3.0985082e+38
0.015794287 0.035844289 0.28 -3.0985082e+38
0.016421705 0.036228336 0.28300002 -3.1118526e+38
0.017178131 0.036868412 0.28800002 -3.125197e+38
0.018110711 0.036868412 0.28800002 -3.1254573e+38
0.018641504 0.036996428 0.289 -3.1521982e+38
0.019175535 0.037124444 0.29000002 -3.178887e+38
0.019645061 0.037124444 0.29000002 -3.1525109e+38
0.020183951 0.037252456 0.29100001 -3.1791998e+38
0.020655097 0.037252456 0.29100001 -3.1393752e+38
0.021597391 0.037252456 0.29100001 -3.1394793e+38
0.022144375 0.037380476 0.29200003 -3.1394793e+38
0.022617141 0.037380476 0.29200003 -3.0465895e+38
0.023089906 0.037380476 0.29200003 -3.0465895e+38
-0.0094982907 0.037723605 0.29100001 -3.353094e+38
-0.0076137036 0.037723605 0.29100001 -3.2987258e+38
-0.0066484842 0.037593972 0.29000002 -3.2984135e+38
-0.0061789565 0.037593972 0.29000002 -3.2850691e+38
-0.0057094288 0.037593972 0.29000002 -3.3115492e+38
-0.0052399011 0.037593972 0.29000002 -3.3115492e+38
-0.0042860154 0.037464336 0.289 -3.2981003e+38
-0.0033270137 0.03720507 0.287 -3.2845997e+38
-0.0023559013 0.036556896 0.28200001 -3.297788e+38
-0.0014171705 0.035908721 0.27700001 -3.2844436e+38
-0.00052021089 0.035908721 0.27700001 -3.284443e+38
-7.1472088e-05 0.035779089 0.27600002 -3.3109756e+38
0.0003781089 0.036038358 0.27800003 -3.3109756e+38
0.0012691102 0.035779089 0.27600002 -3.3109756e+38
0.0016973192 0.035390187 0.273 -3.3109756e+38
0.0025718708 0.035260551 0.27200001 -3.2710985e+38
0.0030122555 0.035260551 0.27200001 -3.2710985e+38
0.0038930245 0.035260551 0.27200001 -3.2444097e+38
0.004333409 0.035260551 0.27200001 -3.2444097e+38
0.004756243 0.035130918 0.27100003 -3.2710985e+38
0.0056337737 0.035130918 0.27100003 -3.2710985e+38
0.0060725394 0.035130918 0.27100003 -3.2444097e+38
0.0065113045 0.035130918 0.27100003 -3.2444097e+38
0.0069500706 0.035130918 0.27100003 -3.2045333e+38
0.0078276014 0.035130918 0.27100003 -3.2045337e+38
0.0082968697 0.035260551 0.27200001 -3.1911893e+38
0.008737254 0.035260551 0.27200001 -3.1780011e+38
0.0091776391 0.035260551 0.27200001 -3.1780011e+38
0.010058408 0.035260551 0.27200001 -3.1647607e+38
0.010498792 0.035260551 0.27200001 -3.1647607e+38
0.010939177 0.035260551 0.27200001 -3.1647607e+38
0.011421397 0.035390187 0.273 -3.1647611e+38
0.011906858 0.035519823 0.27400002 -3.1647611e+38
0.012395554 0.035649456 0.27500001 -3.1382285e+38
0.01288749 0.035779089 0.27600002 -3.1382285e+38
0.013430977 0.036038358 0.27800003 -3.1249362e+38
0.013980939 0.036297627 0.28 -3.1649694e+38
0.014537379 0.036556896 0.28200001 -3.1250924e+38
0.015100294 0.036816165 0.28400001 -3.1250924e+38
0.015669687 0.037075434 0.28600001 -3.125197e+38
0.016189145 0.03720507 0.287 -3.125197e+38
0.016711842 0.037334699 0.28800002 -3.1119567e+38
0.017178131 0.037334699 0.28800002 -3.1253011e+38
0.018110711 0.037334699 0.28800002 -3.1788349e+38
0.018641504 0.037464336 0.289 -3.1523548e+38
0.019109411 0.037464336 0.289 -3.1790436e+38
0.019645061 0.037593972 0.29000002 -3.1659079e+38
0.020183951 0.037723605 0.29100001 -3.1659079e+38
0.021597391 0.037723605 0.29100001 -3.0730181e+38
0.022068538 0.037723605 0.29100001 -3.0329849e+38
0.022539685 0.037723605 0.29100001 -2.9135103e+38
0.0012875032 0.036750965 0.28 -3.2843914e+38
0.0021706682 0.036357202 0.27700001 -3.2843914e+38
0.0030454788 0.036094695 0.27500001 -3.2710992e+38
0.0034653335 0.035832189 0.273 -3.2711507e+38
0.0043493407 0.035832189 0.273 -3.2311175e+38
0.0047913441 0.035832189 0.273 -3.2578063e+38
0.0052333479 0.035832189 0.273 -3.2578063e+38
0.0056753512 0.035832189 0.273 -3.2578063e+38
0.0065593584 0.035832189 0.273 -3.2578063e+38
0.0070013618 0.035832189 0.273 -3.2312221e+38
0.007470631 0.035963446 0.27400002 -3.2045333e+38
0.0079142535 0.035963446 0.27400002 -3.1780011e+38
0.0084188823 0.036225952 0.27600002 -3.1780011e+38
0.0088657439 0.036225952 0.27600002 -3.1780011e+38
0.0097594652 0.036225952 0.27600002 -3.1647607e+38
0.010169346 0.036094695 0.27500001 -3.1914495e+38
0.010691784 0.036357202 0.27700001 -3.1647607e+38
0.011180483 0.036488459 0.27800003 -3.1647607e+38
0.011714254 0.036750965 0.28 -3.1382285e+38
0.012211047 0.036882218 0.28100002 -3.1382285e+38
-0.0057094288 0.038533028 0.29000002 -3.2852252e+38
-0.0052399011 0.038533028 0.29000002 -3.2852252e+38
-0.0042860154 0.038400155 0.289 -3.2583794e+38
-0.0038048956 0.038267281 0.28800002 -3.28486e+38
-0.0028623433 0.038134411 0.287 -3.2981003e+38
-0.0023893185 0.038001537 0.28600001 -3.2714115e+38
-0.0014580996 0.037868664 0.28500003 -3.2714115e+38
-0.00099666731 0.037868664 0.28500003 -3.2579109e+38
-0.00053711305 0.038001537 0.28600001 -3.2579109e+38
0.0003862695 0.03773579 0.28400001 -3.2844436e+38
0.013817481 0.038001537 0.28600001 -3.1384368e+38
0.014330463 0.038134411 0.287 -3.1517812e+38
0.014795134 0.038134411 0.287 -3.138593e+38
0.015724475 0.038134411 0.287 -3.1521465e+38
0.016245553 0.038267281 0.28800002 -3.1521465e+38
0.016711842 0.038267281 0.28800002 -3.1388542e+38
0.017178131 0.038267281 0.28800002 -3.165543e+38
0.018110711 0.038267281 0.28800002 -3.1790436e+38
0.019577321 0.038400155 0.289 -3.1393752e+38
0.020114589 0.038533028 0.29000002 -3.099342e+38
0.021053644 0.038533028 0.29000002 -2.9396781e+38
0.021523172 0.038533028 0.29000002 -2.8202035e+38
0.022068538 0.038665898 0.29100001 -2.8202035e+38
-0.004753924 0.038868062 0.289 -3.2718808e+38
-0.004271185 0.038733568 0.28800002 -3.2585364e+38
-0.0038048956 0.038733568 0.28800002 -3.2717247e+38
-0.0028723166 0.038733568 0.28800002 -3.2716725e+38
-0.0023976727 0.038599081 0.287 -3.2316393e+38
-0.0019397376 0.038733568 0.28800002 -3.2581716e+38
-0.0010036615 0.038599081 0.287 -3.2580671e+38
-0.00053899107 0.038599081 0.287 -3.2580671e+38
-7.4320611e-05 0.038599081 0.287 -3.2579109e+38
0.00085204112 0.038464587 0.28600001 -3.2845997e+38
0.0013104943 0.038330097 0.28500003 -3.2579109e+38
0.002217686 0.038061112 0.28300002 -3.2579109e+38
0.0031008511 0.037657637 0.28 -3.2579109e+38
0.0035541882 0.037657637 0.28 -3.2447227e+38
0.0044449307 0.037523147 0.27900001 -3.2046895e+38
0.0048966482 0.037523147 0.27900001 -3.2180339e+38
0.0053483662 0.037523147 0.27900001 -3.2046895e+38
0.0058000842 0.037523147 0.27900001 -3.2180339e+38
0.0067275469 0.037657637 0.28 -3.2047935e+38
0.007180884 0.037657637 0.28 -3.2047939e+38
0.0076614865 0.037792131 0.28100002 -3.2047939e+38
0.0081742108 0.038061112 0.28300002 -3.1647607e+38
0.0086324047 0.038061112 0.28300002 -3.1914495e+38
0.0090905996 0.038061112 0.28300002 -3.1782617e+38
0.010006987 0.038061112 0.28300002 -3.1649694e+38
0.010502161 0.038195606 0.28400001 -3.1649694e+38
0.011000573 0.038330097 0.28500003 -3.1649694e+38
0.011462006 0.038330097 0.28500003 -3.1649694e+38
0.013865793 0.038599081 0.287 -3.1385414e+38
0.014330463 0.038599081 0.287 -3.1518858e+38
0.014795134 0.038599081 0.287 -3.1254573e+38
0.015312973 0.038733568 0.28800002 -3.1521461e+38
0.016711842 0.038733568 0.28800002 -3.1523548e+38
0.017178131 0.038733568 0.28800002 -3.1656992e+38
0.018110711 0.038733568 0.28800002 -3.1525109e+38
0.018577 0.038733568 0.28800002 -3.1392191e+38
0.019109411 0.038868062 0.289 -3.1659079e+38
0.019577321 0.038868062 0.289 -3.0461727e+38
0.020045228 0.038868062 0.289 -2.9794507e+38
0.021053644 0.039002556 0.29000002 -2.8332873e+38
0.021523172 0.039002556 0.29000002 -2.7536902e+38
0.0219927 0.039002556 0.29000002 -2.7536902e+38
-0.0038048956 0.039199859 0.28800002 -3.2452967e+38
-0.0028723166 0.039199859 0.28800002 -3.245192e+38
-0.0023976727 0.039063752 0.287 -3.2318476e+38
-0.0019330024 0.039063752 0.287 -3.2583277e+38
-0.0010036615 0.039063752 0.287 -3.2581716e+38
-0.00053899107 0.039063752 0.287 -3.2581716e+38
-7.4320611e-05 0.039063752 0.287 -3.2448271e+38
0.00085502019 0.039063752 0.287 -3.2714115e+38
0.0013150924 0.038927637 0.28600001 -3.2447227e+38
0.0017781438 0.038927637 0.28600001 -3.2447227e+38
0.0027042464 0.038927637 0.28600001 -3.2447227e+38
0.0031562236 0.03879153 0.28500003 -3.2447227e+38
0.0036176557 0.03879153 0.28500003 -3.2448267e+38
0.0045405203 0.03879153 0.28500003 -3.2047939e+38
0.0050019524 0.03879153 0.28500003 -3.2181383e+38
0.005463385 0.03879153 0.28500003 -3.2181383e+38
0.0063862498 0.03879153 0.28500003 -3.2049497e+38
0.0068476824 0.03879153 0.28500003 -3.1916053e+38
0.0073091146 0.03879153 0.28500003 -3.1782613e+38
0.0077978116 0.038927637 0.28600001 -3.1782613e+38
0.0082608629 0.038927637 0.28600001 -3.1649169e+38
0.0091869654 0.038927637 0.28600001 -3.1783138e+38
0.0096500171 0.038927637 0.28600001 -3.1783138e+38
0.010113069 0.038927637 0.28600001 -3.1517812e+38
0.011965274 0.038927637 0.28600001 -3.1385414e+38
0.012471781 0.039063752 0.287 -3.1385414e+38
0.013401123 0.039063752 0.287 -3.1518858e+38
0.013865793 0.039063752 0.287 -3.1786787e+38
0.014330463 0.039063752 0.287 -3.1920231e+38
0.014795134 0.039063752 0.287 -3.1521986e+38
0.015312973 0.039199859 0.28800002 -3.165543e+38
0.018110711 0.039199859 0.28800002 -3.1392191e+38
0.018577 0.039199859 0.28800002 -3.0861021e+38
0.019043289 0.039199859 0.28800002 -3.0327245e+38
0.019577321 0.03933597 0.289 -2.8732163e+38
0.020045228 0.03933597 0.289 -2.8465275e+38
0.020981045 0.03933597 0.289 -2.7402933e+38
-0.005203764 0.03966615 0.28800002 -3.2860075e+38
-0.0038048956 0.03966615 0.28800002 -3.2455573e+38
-0.0028623433 0.039528422 0.287 -3.2452967e+38
-0.0023976727 0.039528422 0.287 -3.2319523e+38
-0.0019330024 0.039528422 0.287 -3.2585364e+38
-0.0010036615 0.039528422 0.287 -3.2583803e+38
-0.00053899107 0.039528422 0.287 -3.2583803e+38
-7.4320611e-05 0.039528422 0.287 -3.2316393e+38
0.00085204112 0.039390691 0.28600001 -3.2316389e+38
0.0013150924 0.039390691 0.28600001 -3.2316389e+38
0.0017781438 0.039390691 0.28600001 -3.2448267e+38
0.0027042464 0.039390691 0.28600001 -3.2448267e+38
0.0031672979 0.039390691 0.28600001 -3.2448267e+38
0.0036303492 0.039390691 0.28600001 -3.2182941e+38
0.0040934007 0.039390691 0.28600001 -3.2182941e+38
0.0050195032 0.039390691 0.28600001 -3.2182945e+38
0.0054825549 0.039390691 0.28600001 -3.1916578e+38
0.0059456062 0.039390691 0.28600001 -3.1916578e+38
0.0068717087 0.039390691 0.28600001 -3.1916578e+38
0.0073347604 0.039390691 0.28600001 -3.1783134e+38
0.0077978116 0.039390691 0.28600001 -3.1783134e+38
0.0082608629 0.039390691 0.28600001 -3.1783134e+38
0.0091869654 0.039390691 0.28600001 -3.1651256e+38
0.0096500171 0.039390691 0.28600001 -3.1651256e+38
0.010113069 0.039390691 0.28600001 -3.1651256e+38
0.011039171 0.039390691 0.28600001 -3.1518858e+38
0.011502223 0.039390691 0.28600001 -3.1518858e+38
0.011965274 0.039390691 0.28600001 -3.1519899e+38
0.012471781 0.039528422 0.287 -3.1519899e+38
0.013401123 0.039528422 0.287 -3.2053675e+38
0.013865793 0.039528422 0.287 -3.1788874e+38
0.014330463 0.039528422 0.287 -3.1922318e+38
0.014795134 0.039528422 0.287 -3.1656992e+38
0.016711842 0.03966615 0.28800002 -3.1792523e+38
0.017178131 0.03966615 0.28800002 -3.1659079e+38
0.018110711 0.03966615 0.28800002 -3.0460689e+38
0.018577 0.03966615 0.28800002 -2.9129897e+38
0.019043289 0.03966615 0.28800002 -2.8863009e+38
0.01950958 0.03966615 0.28800002 -2.7400856e+38
0.020442158 0.03966615 0.28800002 -2.6737284e+38
0.020908447 0.03966615 0.28800002 -2.7004173e+38
-0.004721025 0.040457763 0.287 -3.3529898e+38
-0.0042563546 0.040457763 0.287 -3.2862678e+38
-0.0033270137 0.040457763 0.287 -3.2860075e+38
-0.0019330024 0.040457763 0.287 -3.2722983e+38
-0.0010036615 0.040457763 0.287 -3.2188681e+38
-0.00053899107 0.040457763 0.287 -3.2188681e+38
0.00085204112 0.040316794 0.28600001 -3.2186594e+38
0.0013150924 0.040316794 0.28600001 -3.205315e+38
0.0017781438 0.040316794 0.28600001 -3.2318476e+38
0.0036303492 0.040316794 0.28600001 -3.2318476e+38
0.0040934007 0.040316794 0.28600001 -3.2185032e+38
0.0050195032 0.040316794 0.28600001 -3.205315e+38
0.0054825549 0.040316794 0.28600001 -3.1919706e+38
0.0059456062 0.040316794 0.28600001 -3.1919706e+38
0.0068717087 0.040316794 0.28600001 -3.1787302e+38
0.0073347604 0.040316794 0.28600001 -3.1520414e+38
0.0077978116 0.040316794 0.28600001 -3.1520414e+38
0.0082608629 0.040316794 0.28600001 -3.1520414e+38
0.0091869654 0.040316794 0.28600001 -3.1787302e+38
0.0096500171 0.040316794 0.28600001 -3.1787302e+38
0.010113069 0.040316794 0.28600001 -3.1787302e+38
0.011039171 0.040316794 0.28600001 -3.1654905e+38
0.011502223 0.040316794 0.28600001 -3.1921793e+38
0.011965274 0.040316794 0.28600001 -3.165543e+38
0.012428326 0.040316794 0.28600001 -3.1922318e+38
0.013401123 0.040457763 0.287 -3.2057324e+38
0.013865793 0.040457763 0.287 -3.2190768e+38
0.014330463 0.040457763 0.287 -3.2190768e+38
0.014795134 0.040457763 0.287 -3.1925442e+38
0.015724475 0.040457763 0.287 -3.099342e+38
0.016189145 0.040457763 0.287 -3.0593088e+38
0.016653815 0.040457763 0.287 -2.9129893e+38
0.017178131 0.040598728 0.28800002 -2.8863005e+38
0.018110711 0.040598728 0.28800002 -2.7930987e+38
0.018577 0.040598728 0.28800002 -2.7002085e+38
0.019043289 0.040598728 0.28800002 -2.6868641e+38
0.01950958 0.040598728 0.28800002 -2.6470396e+38
0.020442158 0.040598728 0.28800002 -2.620611e+38
0.020908447 0.040598728 0.28800002 -2.6339554e+38
-0.0033154213 0.040779844 0.28600001 -3.3130608e+38
-0.00285237 0.040779844 0.28600001 -3.2996122e+38
-0.0023893185 0.040779844 0.28600001 -3.2595789e+38
-0.0014632158 0.040779844 0.28600001 -3.2593187e+38
-0.0010001644 0.040779844 0.28600001 -3.25911e+38
-0.00053711305 0.040779844 0.28600001 -3.2324212e+38
0.00038898972 0.040779844 0.28600001 -3.232265e+38
0.00085204112 0.040779844 0.28600001 -3.2188685e+38
0.0013150924 0.040779844 0.28600001 -3.2055241e+38
0.0017781438 0.040779844 0.28600001 -3.2321078e+38
0.0036303492 0.040779844 0.28600001 -3.2053675e+38
0.0040934007 0.040779844 0.28600001 -3.2187119e+38
0.0050195032 0.040779844 0.28600001 -3.2187119e+38
0.0054825549 0.040779844 0.28600001 -3.205419e+38
0.0059456062 0.040779844 0.28600001 -3.205419e+38
0.0068717087 0.040779844 0.28600001 -3.1788864e+38
0.0073347604 0.040779844 0.28600001 -3.1788864e+38
0.0077978116 0.040779844 0.28600001 -3.165542e+38
0.0082608629 0.040779844 0.28600001 -3.165542e+38
0.0091869654 0.040779844 0.28600001 -3.1788349e+38
0.0096500171 0.040779844 0.28600001 -3.1921793e+38
0.010113069 0.040779844 0.28600001 -3.1922308e+38
0.011039171 0.040779844 0.28600001 -3.2055758e+38
0.011502223 0.040779844 0.28600001 -3.245609e+38
0.011965274 0.040779844 0.28600001 -3.1790436e+38
0.012428326 0.040779844 0.28600001 -3.2057324e+38
0.013354429 0.040779844 0.28600001 -3.2190768e+38
0.013865793 0.040922433 0.287 -3.1925442e+38
0.014330463 0.040922433 0.287 -3.1791998e+38
0.014795134 0.040922433 0.287 -3.1258747e+38
0.015724475 0.040922433 0.287 -2.9527623e+38
0.016189145 0.040922433 0.287 -2.9260735e+38
0.016653815 0.040922433 0.287 -2.7665142e+38
0.017118486 0.040922433 0.287 -2.7531698e+38
0.018047826 0.040922433 0.287 -2.6735197e+38
0.018512497 0.040922433 0.287 -2.6470392e+38
0.018977167 0.040922433 0.287 -2.6470392e+38
0.019906508 0.040922433 0.287 -2.6338514e+38
0.020371178 0.040922433 0.287 -2.6339554e+38
-0.0014632158 0.041242894 0.28600001 -3.2596832e+38
-0.0010001644 0.041242894 0.28600001 -3.2861637e+38
-0.00053711305 0.041242894 0.28600001 -3.2461305e+38
0.00038762961 0.041098692 0.28500003 -3.2059411e+38
0.00084906199 0.041098692 0.28500003 -3.2457656e+38
0.0013104943 0.041098692 0.28500003 -3.2190768e+38
0.002233359 0.041098692 0.28500003 -3.232265e+38
0.0026947912 0.041098692 0.28500003 -3.232265e+38
0.0031562236 0.041098692 0.28500003 -3.232265e+38
0.0036176557 0.041098692 0.28500003 -3.2055762e+38
0.0045405203 0.041098692 0.28500003 -3.2055762e+38
0.0050019524 0.041098692 0.28500003 -3.2055762e+38
0.005463385 0.041098692 0.28500003 -3.1922318e+38
0.0063862498 0.041098692 0.28500003 -3.1922318e+38
0.0068476824 0.041098692 0.28500003 -3.2055762e+38
0.0073091146 0.041098692 0.28500003 -3.1922318e+38
