# .PCD v0.7 - Point Cloud Data file format
VERSION 0.7
FIELDS x y z rgb
SIZE 4 4 4 4
TYPE F F F F
COUNT 1 1 1 1
WIDTH 160
HEIGHT 1
VIEWPOINT 0 0 0 1 0 0 0
POINTS 160
DATA ascii
-0.016396381 -0.12573475 0.45700002 -3.0600361e+38
-0.014916559 -0.12573475 0.45700002 -3.0868306e+38
-0.016396381 -0.12499484 0.45700002 -3.0733805e+38
-0.014916559 -0.12499484 0.45700002 -3.1268111e+38
-0.01420767 -0.12526836 0.45800003 -3.0867779e+38
-0.017876202 -0.12351502 0.45700002 -3.193063e+38
-0.017136291 -0.12351502 0.45700002 -3.126341e+38
-0.016396381 -0.12351502 0.45700002 -3.0999128e+38
-0.014916559 -0.12351502 0.45700002 -3.1400511e+38
-0.01420767 -0.12378529 0.45800003 -3.1267067e+38
-0.013466139 -0.12378529 0.45800003 -3.1000182e+38
-0.012724609 -0.12378529 0.45800003 -3.1000182e+38
-0.01124155 -0.12378529 0.45800003 -3.1132065e+38
-0.016396381 -0.12277511 0.45700002 -3.1264971e+38
-0.014916559 -0.12277511 0.45700002 -3.1666352e+38
-0.01420767 -0.12304377 0.45800003 -3.1666352e+38
-0.013466139 -0.12304377 0.45800003 -3.1400511e+38
-0.012724609 -0.12304377 0.45800003 -3.1267067e+38
-0.01124155 -0.12304377 0.45800003 -3.1665837e+38
-0.01050002 -0.12304377 0.45800003 -3.1665837e+38
-0.017876202 -0.1220352 0.45700002 -3.2196991e+38
-0.017136291 -0.1220352 0.45700002 -3.2330435e+38
-0.016396381 -0.1220352 0.45700002 -3.1930103e+38
-0.015690729 -0.12230224 0.45800003 -3.1930103e+38
-0.01420767 -0.12230224 0.45800003 -3.1798752e+38
-0.013466139 -0.12230224 0.45800003 -3.1799796e+38
-0.012724609 -0.12230224 0.45800003 -3.1799796e+38
-0.01124155 -0.12230224 0.45800003 -3.19322e+38
-0.01050002 -0.12230224 0.45800003 -3.2065644e+38
-0.0097584901 -0.12230224 0.45800003 -3.1798756e+38
-0.019398378 -0.12081918 0.45800003 -3.1528215e+38
-0.017876202 -0.12055537 0.45700002 -3.2594721e+38
-0.017173788 -0.12081918 0.45800003 -3.2728165e+38
-0.016432259 -0.12081918 0.45800003 -3.2327828e+38
-0.015690729 -0.12081918 0.45800003 -3.2194384e+38
-0.01420767 -0.12081918 0.45800003 -3.219648e+38
-0.013466139 -0.12081918 0.45800003 -3.2197526e+38
-0.012724609 -0.12081918 0.45800003 -3.233097e+38
-0.01124155 -0.12081918 0.45800003 -3.233097e+38
-0.01050002 -0.12081918 0.45800003 -3.233097e+38
-0.0097584901 -0.12081918 0.45800003 -3.2197526e+38
-0.019398378 -0.12007765 0.45800003 -3.0462745e+38
-0.017915318 -0.12007765 0.45800003 -3.1929062e+38
-0.017173788 -0.12007765 0.45800003 -3.2329394e+38
-0.016432259 -0.12007765 0.45800003 -3.2327828e+38
-0.015690729 -0.12007765 0.45800003 -3.2194384e+38
-0.01420767 -0.12007765 0.45800003 -3.2462323e+38
-0.013466139 -0.12007765 0.45800003 -3.2463368e+38
-0.012724609 -0.12007765 0.45800003 -3.2463368e+38
-0.01124155 -0.12007765 0.45800003 -3.2596812e+38
-0.01050002 -0.12007765 0.45800003 -3.2596812e+38
-0.017915318 -0.11933612 0.45800003 -3.0996526e+38
-0.017173788 -0.11933612 0.45800003 -3.1396858e+38
-0.016432259 -0.11933612 0.45800003 -3.2060944e+38
-0.015690729 -0.11933612 0.45800003 -3.2194388e+38
-0.01420767 -0.11933612 0.45800003 -3.2328883e+38
-0.013466139 -0.11933612 0.45800003 -3.2463368e+38
-0.023743419 -0.1092172 0.45600003 -3.0334534e+38
-0.023743419 -0.10847891 0.45600003 -3.0733828e+38
-0.023005126 -0.10847891 0.45600003 -3.0600384e+38
-0.025109388 -0.10653302 0.45400003 -3.0868817e+38
-0.024428021 -0.10676768 0.45500001 -3.0868817e+38
-0.023691349 -0.10676768 0.45500001 -3.0868306e+38
-0.023005126 -0.10700233 0.45600003 -3.0601418e+38
-0.022315666 -0.10723698 0.45700002 -3.0732779e+38
-0.020790251 -0.10700233 0.45600003 -3.0463289e+38
-0.02005196 -0.10700233 0.45600003 -3.0329845e+38
-0.019313669 -0.10700233 0.45600003 -3.0063997e+38
-0.025109388 -0.10579797 0.45400003 -3.0867775e+38
-0.024428021 -0.106031 0.45500001 -3.1134663e+38
-0.023691349 -0.106031 0.45500001 -3.1134667e+38
-0.022954676 -0.106031 0.45500001 -3.1134667e+38
-0.021481331 -0.106031 0.45500001 -3.0865177e+38
-0.020744659 -0.106031 0.45500001 -3.0730177e+38
-0.02005196 -0.10626404 0.45600003 -3.0463289e+38
-0.019313669 -0.10626404 0.45600003 -3.0329845e+38
-0.017837085 -0.10626404 0.45600003 -3.0197956e+38
-0.023691349 -0.10529433 0.45500001 -3.1268111e+38
-0.022954676 -0.10529433 0.45500001 -3.1134667e+38
-0.021481331 -0.10529433 0.45500001 -3.0998621e+38
-0.020744659 -0.10529433 0.45500001 -3.0864136e+38
-0.020007987 -0.10529433 0.45500001 -3.0864136e+38
-0.01853464 -0.10529433 0.45500001 -3.0730692e+38
-0.017837085 -0.10552575 0.45600003 -3.0730692e+38
-0.017098794 -0.10552575 0.45600003 -3.0730692e+38
-0.025109388 -0.10359281 0.45400003 -3.1132572e+38
-0.024374336 -0.10359281 0.45400003 -3.1532904e+38
-0.023691349 -0.10382099 0.45500001 -3.1400511e+38
-0.022954676 -0.10382099 0.45500001 -3.1267067e+38
-0.021481331 -0.10382099 0.45500001 -3.1265509e+38
-0.020744659 -0.10382099 0.45500001 -3.1264468e+38
-0.020007987 -0.10382099 0.45500001 -3.1264468e+38
-0.01853464 -0.10382099 0.45500001 -3.1529791e+38
-0.017797967 -0.10382099 0.45500001 -3.1262903e+38
-0.017098794 -0.10404917 0.45600003 -3.1129458e+38
-0.023691349 -0.10308431 0.45500001 -3.1532393e+38
-0.022954676 -0.10308431 0.45500001 -3.1532393e+38
-0.021481331 -0.10308431 0.45500001 -3.1532393e+38
-0.020744659 -0.10308431 0.45500001 -3.1664796e+38
-0.020007987 -0.10308431 0.45500001 -3.1397908e+38
-0.01853464 -0.10308431 0.45500001 -3.1529791e+38
-0.017797967 -0.10308431 0.45500001 -3.1396347e+38
-0.023691349 -0.10234764 0.45500001 -3.1530306e+38
-0.022954676 -0.10234764 0.45500001 -3.166375e+38
-0.021481331 -0.10234764 0.45500001 -3.1930123e+38
-0.020744659 -0.10234764 0.45500001 -3.2064082e+38
-0.020007987 -0.10234764 0.45500001 -3.2064082e+38
-0.01853464 -0.10234764 0.45500001 -3.166375e+38
-0.023691349 -0.10161097 0.45500001 -3.1796147e+38
-0.022954676 -0.10161097 0.45500001 -3.1662703e+38
-0.021481331 -0.10161097 0.45500001 -3.219648e+38
-0.020744659 -0.10161097 0.45500001 -3.2197526e+38
-0.023691349 -0.10013762 0.45500001 -3.2594721e+38
-0.022954676 -0.10013762 0.45500001 -3.2194388e+38
-0.040511966 -0.091954127 0.46200001 -2.9799697e+38
-0.039850026 -0.092153162 0.46300003 -2.9666253e+38
-0.039184853 -0.092352189 0.46400002 -2.9666253e+38
-0.038516439 -0.092551231 0.46500003 -2.9933141e+38
-0.040511966 -0.091206118 0.46200001 -3.0331912e+38
-0.039850026 -0.091403536 0.46300003 -3.0065023e+38
-0.039184853 -0.091600947 0.46400002 -3.0064508e+38
-0.038516439 -0.091798365 0.46500003 -3.0197952e+38
-0.040511966 -0.09045811 0.46200001 -3.0731729e+38
-0.039850026 -0.090653911 0.46300003 -3.0598284e+38
-0.039269302 -0.091045506 0.46500003 -3.0197952e+38
-0.038599271 -0.0912413 0.46600002 -3.0197952e+38
-0.037844788 -0.0912413 0.46600002 -3.0331912e+38
-0.040599652 -0.089904286 0.46300003 -3.0865688e+38
-0.039850026 -0.089904286 0.46300003 -3.0732244e+38
-0.039269302 -0.09029264 0.46500003 -3.0331396e+38
-0.038599271 -0.090486817 0.46600002 -3.0598284e+38
-0.037844788 -0.090486817 0.46600002 -3.0331912e+38
-0.040599652 -0.088405035 0.46300003 -3.0999128e+38
-0.039936095 -0.088595971 0.46400002 -3.0999128e+38
-0.039438203 -0.089168794 0.46700001 -3.0864647e+38
-0.038682103 -0.089168794 0.46700001 -3.0998091e+38
-0.037926003 -0.089168794 0.46700001 -3.0998087e+38
-0.042098902 -0.08765541 0.46300003 -3.1398415e+38
-0.040599652 -0.08765541 0.46300003 -3.1131531e+38
-0.040022168 -0.088034049 0.46500003 -3.1131531e+38
-0.039438203 -0.088412687 0.46700001 -3.0998091e+38
-0.038682103 -0.088412687 0.46700001 -3.0998091e+38
-0.038088426 -0.088791333 0.46900001 -3.0998087e+38
-0.042098902 -0.086905785 0.46300003 -3.1396854e+38
-0.040599652 -0.086905785 0.46300003 -3.1396858e+38
-0.040022168 -0.08728119 0.46500003 -3.1396858e+38
-0.039438203 -0.087656587 0.46700001 -3.1396858e+38
-0.038847767 -0.088031992 0.46900001 -3.1263414e+38
-0.038088426 -0.088031992 0.46900001 -3.1396858e+38
-0.042189829 -0.085590996 0.46400002 -3.1663214e+38
-0.041438587 -0.085590996 0.46400002 -3.152977e+38
-0.040022168 -0.085775465 0.46500003 -3.1396854e+38
-0.039522655 -0.086328849 0.46800002 -3.1530298e+38
-0.038847767 -0.086513318 0.46900001 -3.1530298e+38
-0.040108237 -0.085205443 0.46600002 -3.1530298e+38
-0.039522655 -0.085571133 0.46800002 -3.1663742e+38
-0.042189829 -0.084088504 0.46400002 -3.152977e+38
-0.041438587 -0.084088504 0.46400002 -3.152977e+38
-0.040108237 -0.08445096 0.46600002 -3.1796658e+38
-0.039522655 -0.084813409 0.46800002 -3.1796658e+38
