# .PCD v0.7 - Point Cloud Data file format
VERSION 0.7
FIELDS x y z rgb
SIZE 4 4 4 4
TYPE F F F F
COUNT 1 1 1 1
WIDTH 1002
HEIGHT 1
VIEWPOINT 0 0 0 1 0 0 0
POINTS 1002
DATA ascii
0.10255159 0.0034214465 0.29900002 nan
0.10317357 0.0034100036 0.29800001 nan
0.10365605 0.0034100036 0.29800001 nan
0.10413853 0.0034100036 0.29800001 nan
0.1047508 0.0033985607 0.29700002 nan
0.10523166 0.0033985607 0.29700002 nan
0.10571252 0.0033985607 0.29700002 nan
0.10619339 0.0033985607 0.29700002 nan
0.10679431 0.0033871178 0.296 nan
0.10727355 0.0033871178 0.296 nan
0.10786639 0.0033756748 0.29500002 -3.3898429e+38
0.10834402 0.0033756748 0.29500002 nan
0.10882164 0.0033756748 0.29500002 -3.3898429e+38
0.10929926 0.0033756748 0.29500002 -3.3764987e+38
0.11025451 0.0033756748 0.29500002 -3.3764987e+38
0.11073213 0.0033756748 0.29500002 -3.3898949e+38
0.11120976 0.0033756748 0.29500002 -3.3898949e+38
0.112165 0.0033756748 0.29500002 -3.3765506e+38
0.11226078 0.0033642319 0.294 -3.3632064e+38
0.11273678 0.0033642319 0.294 -3.3765506e+38
0.11368879 0.0033642319 0.294 -3.3632064e+38
0.11416479 0.0033642319 0.294 -3.3632064e+38
0.11464079 0.0033642319 0.294 -3.3632064e+38
0.1151168 0.0033642319 0.294 -3.3498622e+38
0.11646361 0.0033756748 0.29500002 -3.3499661e+38
0.11694123 0.0033756748 0.29500002 -3.3499661e+38
0.11741886 0.0033756748 0.29500002 -3.3499661e+38
0.11789647 0.0033756748 0.29500002 -3.3099335e+38
0.11885172 0.0033756748 0.29500002 -3.3232258e+38
0.11932934 0.0033756748 0.29500002 -3.3099854e+38
0.11980697 0.0033756748 0.29500002 -3.3233296e+38
0.12069233 0.0033871178 0.296 -3.2834528e+38
0.12165082 0.0033871178 0.296 -3.2834528e+38
0.12213005 0.0033871178 0.296 -3.2834528e+38
0.12260929 0.0033871178 0.296 -3.2701086e+38
0.12350439 0.0033985607 0.29700002 -3.2834528e+38
0.12446611 0.0033985607 0.29700002 -3.2834528e+38
0.12494697 0.0033985607 0.29700002 -3.2435759e+38
0.12585014 0.0034100036 0.29800001 -3.2435759e+38
0.12633261 0.0034100036 0.29800001 -3.2303356e+38
0.12729758 0.0034100036 0.29800001 -3.1904068e+38
0.12820886 0.0034214465 0.29900002 -3.1904068e+38
0.12912336 0.0034328897 0.30000001 -3.150478e+38
0.095282406 0.0045511369 0.31 -3.2850691e+38
0.095166348 0.0045217746 0.30800003 -3.2717247e+38
0.095851474 0.0045070932 0.30700001 -3.2712557e+38
0.096034683 0.0044924123 0.30600002 -3.337664e+38
0.096708469 0.0044777314 0.30500001 -3.3375599e+38
0.097202286 0.0044777314 0.30500001 -3.3242155e+38
0.097375788 0.00446305 0.30400002 -3.3639364e+38
0.098360173 0.00446305 0.30400002 -3.3639364e+38
0.098527193 0.0044483691 0.303 -3.3639364e+38
0.099179938 0.0044336882 0.30200002 -3.3772283e+38
0.09966889 0.0044336882 0.30200002 nan
0.099826194 0.0044190073 0.30100003 -3.377124e+38
0.10080087 0.0044190073 0.30100003 -3.3903644e+38
0.10128821 0.0044190073 0.30100003 -3.3903644e+38
0.10143742 0.004404326 0.30000001 -3.3903644e+38
0.10240886 0.004404326 0.30000001 nan
0.10255159 0.0043896446 0.29900002 nan
0.10303569 0.0043896446 0.29900002 -3.390364e+38
0.10365605 0.0043749637 0.29800001 nan
0.10413853 0.0043749637 0.29800001 nan
0.10462101 0.0043749637 0.29800001 nan
0.10523166 0.0043602828 0.29700002 nan
0.10571252 0.0043602828 0.29700002 nan
0.10619339 0.0043602828 0.29700002 nan
0.10715511 0.0043602828 0.29700002 nan
0.10727355 0.0043456014 0.296 nan
0.10775279 0.0043456014 0.296 -3.3900512e+38
0.10871128 0.0043456014 0.296 nan
0.10882164 0.0043309205 0.29500002 -3.3899472e+38
0.10929926 0.0043309205 0.29500002 -3.3632584e+38
0.11025451 0.0043309205 0.29500002 -3.3632584e+38
0.11073213 0.0043309205 0.29500002 -3.3899987e+38
0.11120976 0.0043309205 0.29500002 -3.3633103e+38
0.112165 0.0043309205 0.29500002 -3.3499661e+38
0.11264262 0.0043309205 0.29500002 -3.3499661e+38
0.11312024 0.0043309205 0.29500002 -3.3499661e+38
0.11359787 0.0043309205 0.29500002 -3.3499661e+38
0.11455312 0.0043309205 0.29500002 -3.3366219e+38
0.11503074 0.0043309205 0.29500002 -3.3499661e+38
0.11550836 0.0043309205 0.29500002 -3.3366219e+38
0.11646361 0.0043309205 0.29500002 -3.3366219e+38
0.11694123 0.0043309205 0.29500002 -3.3366219e+38
0.11741886 0.0043309205 0.29500002 -3.3366219e+38
0.11789647 0.0043309205 0.29500002 -3.3232777e+38
0.11885172 0.0043309205 0.29500002 -3.33657e+38
0.11932934 0.0043309205 0.29500002 -3.2834528e+38
0.11980697 0.0043309205 0.29500002 -3.296797e+38
0.12069233 0.0043456014 0.296 -3.2834528e+38
0.12165082 0.0043456014 0.296 -3.283453e+38
0.12213005 0.0043456014 0.296 -3.283453e+38
0.12302352 0.0043602828 0.29700002 -3.2701086e+38
0.12350439 0.0043602828 0.29700002 -3.283453e+38
0.12446611 0.0043602828 0.29700002 -3.2569201e+38
0.12536766 0.0043749637 0.29800001 -3.2303356e+38
0.12585014 0.0043749637 0.29800001 -3.2303356e+38
0.12633261 0.0043749637 0.29800001 -3.203751e+38
0.12729758 0.0043749637 0.29800001 -3.203751e+38
0.12820886 0.0043896446 0.29900002 -3.1904068e+38
0.12912336 0.004404326 0.30000001 -3.1771664e+38
0.09616369 0.0050204452 0.30800003 -3.2580675e+38
0.096348524 0.0050041447 0.30700001 -3.337664e+38
0.097025551 0.0049878447 0.30600002 -3.3243196e+38
0.097202286 0.0049715447 0.30500001 -3.3109752e+38
0.097375788 0.0049552447 0.30400002 -3.3374038e+38
0.098360173 0.0049552447 0.30400002 -3.3639364e+38
0.098527193 0.0049389447 0.303 -3.3639364e+38
0.099017769 0.0049389447 0.303 -3.3772283e+38
0.09966889 0.0049226442 0.30200002 nan
0.10015785 0.0049226442 0.30200002 -3.377124e+38
0.10080087 0.0049063442 0.30100003 nan
0.10128821 0.0049063442 0.30100003 -3.3903644e+38
0.10177554 0.0049063442 0.30100003 -3.3903644e+38
0.10240886 0.0048900442 0.30000001 nan
0.10289457 0.0048900442 0.30000001 nan
0.10303569 0.0048737437 0.29900002 -3.3903644e+38
0.10400389 0.0048737437 0.29900002 nan
0.10413853 0.0048574437 0.29800001 nan
0.10462101 0.0048574437 0.29800001 nan
0.10558597 0.0048574437 0.29800001 nan
0.10571252 0.0048411437 0.29700002 nan
0.10619339 0.0048411437 0.29700002 nan
0.10715511 0.0048411437 0.29700002 nan
0.10763597 0.0048411437 0.29700002 -3.3902589e+38
0.10775279 0.0048248433 0.296 -3.3769145e+38
0.10871128 0.0048248433 0.296 nan
0.10919052 0.0048248433 0.296 -3.3767068e+38
0.10966976 0.0048248433 0.296 -3.3900512e+38
0.11025451 0.0048085432 0.29500002 -3.3767072e+38
0.11073213 0.0048085432 0.29500002 -3.3767068e+38
0.11120976 0.0048085432 0.29500002 -3.3767068e+38
0.112165 0.0048085432 0.29500002 -3.350018e+38
0.11264262 0.0048085432 0.29500002 -3.3500699e+38
0.11312024 0.0048085432 0.29500002 -3.3500699e+38
0.11359787 0.0048085432 0.29500002 -3.3500699e+38
0.11455312 0.0048085432 0.29500002 -3.3367257e+38
0.11503074 0.0048085432 0.29500002 -3.3367257e+38
0.11550836 0.0048085432 0.29500002 -3.3367257e+38
0.11646361 0.0048085432 0.29500002 -3.3367257e+38
0.11694123 0.0048085432 0.29500002 -3.3367257e+38
0.11741886 0.0048085432 0.29500002 -3.3367257e+38
0.11789647 0.0048085432 0.29500002 -3.3233815e+38
0.11885172 0.0048085432 0.29500002 -3.3233296e+38
0.11973384 0.0048248433 0.296 -3.2834528e+38
0.12021308 0.0048248433 0.296 -3.296797e+38
0.12069233 0.0048248433 0.296 -3.296797e+38
0.12158094 0.0048411437 0.29700002 -3.296797e+38
0.12254266 0.0048411437 0.29700002 -3.2569203e+38
0.12302352 0.0048411437 0.29700002 -3.2569203e+38
0.12350439 0.0048411437 0.29700002 -3.2569203e+38
0.12446611 0.0048411437 0.29700002 -3.2436798e+38
0.12536766 0.0048574437 0.29800001 -3.203751e+38
0.12585014 0.0048574437 0.29800001 -3.2170952e+38
0.12633261 0.0048574437 0.29800001 -3.203751e+38
0.12724066 0.0048737437 0.29900002 -3.203751e+38
0.12820886 0.0048737437 0.29900002 -3.1905107e+38
0.09616369 0.0055191158 0.30800003 -3.258172e+38
0.096348524 0.0055011967 0.30700001 -3.3244762e+38
0.097025551 0.0054832771 0.30600002 -3.3111314e+38
0.097520985 0.0054832771 0.30600002 -3.297787e+38
0.097696096 0.005465358 0.30500001 -3.3242155e+38
0.098360173 0.0054474389 0.30400002 -3.3639364e+38
0.098852366 0.0054474389 0.30400002 -3.3639364e+38
0.099017769 0.0054295198 0.303 -3.3771768e+38
0.099998921 0.0054295198 0.303 nan
0.10015785 0.0054116007 0.30200002 -3.377124e+38
0.10064681 0.0054116007 0.30200002 nan
0.10162472 0.0054116007 0.30200002 -3.3903644e+38
0.10177554 0.0053936816 0.30100003 -3.3903644e+38
0.10275022 0.0053936816 0.30100003 nan
0.10289457 0.0053757625 0.30000001 nan
0.10338029 0.0053757625 0.30000001 -3.3903644e+38
0.10400389 0.0053578429 0.29900002 nan
0.10448799 0.0053578429 0.29900002 nan
0.10462101 0.0053399238 0.29800001 nan
0.10558597 0.0053399238 0.29800001 nan
0.10606845 0.0053399238 0.29800001 nan
0.10655093 0.0053399238 0.29800001 nan
0.10715511 0.0053220047 0.29700002 nan
0.10763597 0.0053220047 0.29700002 -3.3902589e+38
0.10775279 0.0053040856 0.296 -3.3769145e+38
0.10871128 0.0053040856 0.296 nan
0.10919052 0.0053040856 0.296 nan
0.10966976 0.0053040856 0.296 nan
0.11062825 0.0053040856 0.296 -3.3900516e+38
0.11110749 0.0053040856 0.296 -3.3900516e+38
0.11158673 0.0053040856 0.296 -3.3900516e+38
0.112165 0.0052861664 0.29500002 -3.3767068e+38
0.11264262 0.0052861664 0.29500002 -3.3767068e+38
0.11312024 0.0052861664 0.29500002 -3.3767068e+38
0.11359787 0.0052861664 0.29500002 -3.3500699e+38
0.11455312 0.0052861664 0.29500002 -3.3500699e+38
0.11503074 0.0052861664 0.29500002 -3.3767583e+38
0.11550836 0.0052861664 0.29500002 -3.3501742e+38
0.11637915 0.0053040856 0.296 -3.3234854e+38
0.11733764 0.0053040856 0.296 -3.3234854e+38
0.11781687 0.0053040856 0.296 -3.3234854e+38
0.11829612 0.0053040856 0.296 -3.3101412e+38
0.1192546 0.0053040856 0.296 -3.3101931e+38
0.11973384 0.0053040856 0.296 -3.296797e+38
0.12061922 0.0053220047 0.29700002 -3.296797e+38
0.12110008 0.0053220047 0.29700002 -3.2836087e+38
0.12158094 0.0053220047 0.29700002 -3.2836087e+38
0.12254266 0.0053220047 0.29700002 -3.2570244e+38
0.12302352 0.0053220047 0.29700002 -3.2570244e+38
0.12350439 0.0053220047 0.29700002 -3.2570244e+38
0.12440269 0.0053399238 0.29800001 -3.2437838e+38
0.12536766 0.0053399238 0.29800001 -3.2171991e+38
0.12585014 0.0053399238 0.29800001 -3.2171991e+38
0.12633261 0.0053399238 0.29800001 -3.1905107e+38
0.12724066 0.0053578429 0.29900002 -3.2038549e+38
0.096348524 0.0059982482 0.30700001 -3.3244762e+38
0.096845575 0.0059982482 0.30700001 -3.3244762e+38
0.097520985 0.00597871 0.30600002 -3.297787e+38
0.097696096 0.0059591718 0.30500001 -3.3242155e+38
0.09868373 0.0059591718 0.30500001 -3.3374038e+38
0.098852366 0.0059396336 0.30400002 -3.3507482e+38
0.099344559 0.0059396336 0.30400002 -3.3771768e+38
0.099998921 0.0059200954 0.303 nan
0.1004895 0.0059200954 0.303 -3.3770725e+38
0.10064681 0.0059005572 0.30200002 nan
0.10162472 0.0059005572 0.30200002 -3.3903644e+38
0.10211367 0.0059005572 0.30200002 nan
0.10275022 0.0058810189 0.30100003 nan
0.10323755 0.0058810189 0.30100003 nan
0.10338029 0.0058614807 0.30000001 -3.3903644e+38
0.10435173 0.0058614807 0.30000001 nan
0.10448799 0.005841942 0.29900002 nan
0.10497209 0.005841942 0.29900002 nan
0.10594029 0.005841942 0.29900002 nan
0.10606845 0.0058224038 0.29800001 nan
0.10655093 0.0058224038 0.29800001 nan
0.10751589 0.0058224038 0.29800001 nan
0.10763597 0.0058028656 0.29700002 nan
0.10811683 0.0058028656 0.29700002 -3.3902589e+38
0.10907855 0.0058028656 0.29700002 nan
0.10919052 0.0057833274 0.296 nan
0.10966976 0.0057833274 0.296 nan
0.11062825 0.0057833274 0.296 nan
0.11110749 0.0057833274 0.296 nan
0.11158673 0.0057833274 0.296 -3.3900516e+38
0.11206597 0.0057833274 0.296 -3.3900512e+38
0.11302446 0.0057833274 0.296 -3.3900512e+38
0.11350369 0.0057833274 0.296 -3.3767068e+38
0.11398294 0.0057833274 0.296 -3.3767583e+38
0.11494143 0.0057833274 0.296 -3.3767068e+38
0.11542066 0.0057833274 0.296 -3.3900512e+38
0.11589991 0.0057833274 0.296 -3.3635186e+38
0.11637915 0.0057833274 0.296 -3.3501742e+38
0.11733764 0.0057833274 0.296 -3.3234854e+38
0.11781687 0.0057833274 0.296 -3.3501742e+38
0.11829612 0.0057833274 0.296 -3.3234854e+38
0.1192546 0.0057833274 0.296 -3.3101412e+38
0.11973384 0.0057833274 0.296 -3.2702643e+38
0.12061922 0.0058028656 0.29700002 -3.2836085e+38
0.12110008 0.0058028656 0.29700002 -3.2837128e+38
0.12158094 0.0058028656 0.29700002 -3.2837128e+38
0.12254266 0.0058028656 0.29700002 -3.2703688e+38
0.12343773 0.0058224038 0.29800001 -3.2437842e+38
0.12392022 0.0058224038 0.29800001 -3.2437842e+38
0.12440269 0.0058224038 0.29800001 -3.2305439e+38
0.12536766 0.0058224038 0.29800001 -3.2040108e+38
0.12627245 0.005841942 0.29900002 -3.2040108e+38
0.12675656 0.005841942 0.29900002 -3.1906664e+38
0.096475907 0.0065376144 0.30900002 -3.2583799e+38
0.096475907 0.0070379041 0.30900002 -3.2585364e+38
0.096662357 0.0070151277 0.30800003 -3.3246845e+38
0.096845575 0.0069923517 0.30700001 -3.2979957e+38
0.097520985 0.0069695748 0.30600002 -3.3111318e+38
0.098016411 0.0069695748 0.30600002 -3.3375604e+38
0.09868373 0.0069467989 0.30500001 -3.3374038e+38
0.099177539 0.0069467989 0.30500001 -3.3507482e+38
0.099344559 0.0069240225 0.30400002 -3.3639364e+38
0.099998921 0.0069012456 0.303 -3.3771768e+38
0.1004895 0.0069012456 0.303 -3.3771768e+38
0.10098007 0.0069012456 0.303 nan
0.10196123 0.0069012456 0.303 -3.377124e+38
0.10211367 0.0068784696 0.30200002 nan
0.10260263 0.0068784696 0.30200002 nan
0.10323755 0.0068556927 0.30100003 nan
0.10338029 0.0068329168 0.30000001 -3.377124e+38
0.10435173 0.0068329168 0.30000001 -3.390364e+38
0.10483745 0.0068329168 0.30000001 nan
0.10497209 0.0068101403 0.29900002 nan
0.10594029 0.0068101403 0.29900002 nan
0.10642439 0.0068101403 0.29900002 nan
0.10655093 0.0067873644 0.29800001 nan
0.10751589 0.0067873644 0.29800001 nan
0.10799837 0.0067873644 0.29800001 -3.3770192e+38
0.10811683 0.0067645875 0.29700002 -3.3770192e+38
0.10907855 0.0067645875 0.29700002 -3.3770196e+38
0.10955941 0.0067645875 0.29700002 -3.3636752e+38
0.11004028 0.0067645875 0.29700002 -3.3770196e+38
0.11052114 0.0067645875 0.29700002 -3.3636752e+38
0.11110749 0.0067418106 0.296 -3.3636752e+38
0.11158673 0.0067418106 0.296 -3.3503308e+38
0.11206597 0.0067418106 0.296 -3.3503304e+38
0.11302446 0.0067418106 0.296 -3.3503304e+38
0.11350369 0.0067418106 0.296 -3.3503304e+38
0.11398294 0.0067418106 0.296 -3.336986e+38
0.11494143 0.0067418106 0.296 -3.336986e+38
0.11542066 0.0067418106 0.296 -3.336986e+38
0.11589991 0.0067418106 0.296 -3.3503304e+38
0.11637915 0.0067418106 0.296 -3.3503304e+38
0.11733764 0.0067418106 0.296 -3.336986e+38
0.11821491 0.0067645875 0.29700002 -3.336986e+38
0.11869577 0.0067645875 0.29700002 -3.336986e+38
0.11917663 0.0067645875 0.29700002 -3.3369864e+38
0.12013835 0.0067645875 0.29700002 -3.2837128e+38
0.12061922 0.0067645875 0.29700002 -3.3104016e+38
0.12110008 0.0067645875 0.29700002 -3.283817e+38
0.12199029 0.0067873644 0.29800001 -3.283817e+38
0.12295526 0.0067873644 0.29800001 -3.2438883e+38
0.12343773 0.0067873644 0.29800001 -3.2438883e+38
0.12392022 0.0067873644 0.29800001 -3.2438883e+38
0.12440269 0.0067873644 0.29800001 -3.2440444e+38
0.12536766 0.0067873644 0.29800001 -3.190823e+38
0.12627245 0.0068101403 0.29900002 -3.2175118e+38
0.12675656 0.0068101403 0.29900002 -3.2042715e+38
0.096662357 0.0075137983 0.30800003 -3.3114447e+38
0.097161032 0.0075137983 0.30800003 -3.2714115e+38
0.097839676 0.0074894032 0.30700001 -3.2978395e+38
0.098016411 0.0074650072 0.30600002 -3.3375604e+38
0.098511845 0.0074650072 0.30600002 -3.3375604e+38
0.099177539 0.0074406127 0.30500001 -3.3242159e+38
0.099344559 0.0074162167 0.30400002 -3.3639364e+38
0.10032895 0.0074162167 0.30400002 -3.3771768e+38
0.10082114 0.0074162167 0.30400002 -3.3905212e+38
0.10131334 0.0074162167 0.30400002 -3.3771768e+38
0.10196123 0.0073918207 0.303 nan
0.1024518 0.0073918207 0.303 nan
0.10260263 0.0073674256 0.30200002 nan
0.10323755 0.0073430301 0.30100003 nan
0.1037249 0.0073430301 0.30100003 -3.377124e+38
0.10435173 0.007318635 0.30000001 -3.390364e+38
0.10483745 0.007318635 0.30000001 nan
0.10532317 0.007318635 0.30000001 nan
0.10594029 0.007294239 0.29900002 nan
0.10642439 0.007294239 0.29900002 nan
0.10690849 0.007294239 0.29900002 nan
0.10739259 0.007294239 0.29900002 nan
0.10799837 0.0072698444 0.29800001 -3.3903636e+38
0.10848086 0.0072698444 0.29800001 -3.3903636e+38
0.10907855 0.0072454484 0.29700002 -3.3770196e+38
0.10955941 0.0072454484 0.29700002 -3.3636752e+38
0.11004028 0.0072454484 0.29700002 -3.3636752e+38
0.11052114 0.0072454484 0.29700002 -3.3636752e+38
0.11148286 0.0072454484 0.29700002 -3.3636752e+38
0.11196372 0.0072454484 0.29700002 -3.3636752e+38
0.11244458 0.0072454484 0.29700002 -3.3503308e+38
0.1134063 0.0072454484 0.29700002 -3.3636748e+38
0.11388716 0.0072454484 0.29700002 -3.3503304e+38
0.11436802 0.0072454484 0.29700002 -3.336986e+38
0.11484888 0.0072454484 0.29700002 -3.3236415e+38
0.1158106 0.0072454484 0.29700002 -3.3503304e+38
0.11629147 0.0072454484 0.29700002 -3.3503304e+38
0.11677233 0.0072454484 0.29700002 -3.3503304e+38
0.11773405 0.0072454484 0.29700002 -3.33709e+38
0.11821491 0.0072454484 0.29700002 -3.33709e+38
0.11869577 0.0072454484 0.29700002 -3.3237456e+38
0.11917663 0.0072454484 0.29700002 -3.3370904e+38
0.12013835 0.0072454484 0.29700002 -3.3104016e+38
0.12102534 0.0072698444 0.29800001 -3.3104016e+38
0.12150782 0.0072698444 0.29800001 -3.283817e+38
0.12199029 0.0072698444 0.29800001 -3.2971614e+38
0.12295526 0.0072698444 0.29800001 -3.2705771e+38
0.12343773 0.0072698444 0.29800001 -3.2440444e+38
0.12392022 0.0072698444 0.29800001 -3.2440444e+38
0.12440269 0.0072698444 0.29800001 -3.2573889e+38
0.12536766 0.0072698444 0.29800001 -3.2175118e+38
0.097100347 0.0080905128 0.31100002 -3.2722457e+38
0.097161032 0.0080124689 0.30800003 -3.2583281e+38
0.097839676 0.0079864552 0.30700001 -3.2978395e+38
0.098336726 0.0079864552 0.30700001 -3.32432e+38
0.098511845 0.0079604397 0.30600002 -3.32432e+38
0.099177539 0.007934426 0.30500001 -3.3242159e+38
0.099671356 0.007934426 0.30500001 -3.3374038e+38
0.10016517 0.007934426 0.30500001 -3.3374038e+38
0.10082114 0.0079084113 0.30400002 -3.3772808e+38
0.10131334 0.0079084113 0.30400002 -3.3905212e+38
0.10180554 0.0079084113 0.30400002 -3.3771768e+38
0.1024518 0.0078823958 0.303 -3.3772279e+38
0.10294238 0.0078823958 0.303 nan
0.10358054 0.0078563821 0.30200002 nan
0.1037249 0.0078303674 0.30100003 -3.3771236e+38
0.10421223 0.0078303674 0.30100003 -3.390364e+38
0.10483745 0.0078043533 0.30000001 -3.390364e+38
0.10532317 0.0078043533 0.30000001 -3.390364e+38
0.10580888 0.0078043533 0.30000001 -3.390364e+38
0.10642439 0.0077783382 0.29900002 -3.390364e+38
0.10690849 0.0077783382 0.29900002 -3.390364e+38
0.10739259 0.0077783382 0.29900002 -3.390364e+38
0.10799837 0.0077523245 0.29800001 -3.3771232e+38
0.10848086 0.0077523245 0.29800001 -3.3771232e+38
0.10896333 0.0077523245 0.29800001 -3.3771236e+38
0.1099283 0.0077523245 0.29800001 -3.3636752e+38
0.11004028 0.0077263094 0.29700002 -3.3636752e+38
0.11052114 0.0077263094 0.29700002 -3.3636756e+38
0.11148286 0.0077263094 0.29700002 -3.3770196e+38
0.11196372 0.0077263094 0.29700002 -3.3636752e+38
0.11244458 0.0077263094 0.29700002 -3.3636752e+38
0.1134063 0.0077263094 0.29700002 -3.3636748e+38
0.11388716 0.0077263094 0.29700002 -3.3503304e+38
0.11436802 0.0077263094 0.29700002 -3.336986e+38
0.11484888 0.0077263094 0.29700002 -3.336986e+38
0.1158106 0.0077263094 0.29700002 -3.3503308e+38
0.11629147 0.0077263094 0.29700002 -3.3370904e+38
0.11677233 0.0077263094 0.29700002 -3.3370904e+38
0.11773405 0.0077263094 0.29700002 -3.33709e+38
0.11821491 0.0077263094 0.29700002 -3.33709e+38
0.11909541 0.0077523245 0.29800001 -3.33709e+38
0.11957789 0.0077523245 0.29800001 -3.3370904e+38
0.12006038 0.0077523245 0.29800001 -3.323746e+38
0.12102534 0.0077523245 0.29800001 -3.283817e+38
0.12150782 0.0077523245 0.29800001 -3.2839215e+38
0.12199029 0.0077523245 0.29800001 -3.2839215e+38
0.12295526 0.0077523245 0.29800001 -3.28387e+38
0.12343773 0.0077523245 0.29800001 -3.2439929e+38
0.12392022 0.0077523245 0.29800001 -3.2439929e+38
0.12440269 0.0077523245 0.29800001 -3.2308562e+38
0.12578836 0.0077783382 0.29900002 -3.2175118e+38
0.098158374 0.0090098102 0.30800003 -3.2316385e+38
0.098336726 0.0089805583 0.30700001 -3.3245283e+38
0.098511845 0.0089513054 0.30600002 -3.2978395e+38
0.099502712 0.0089513054 0.30600002 -3.32432e+38
0.099671356 0.0089220526 0.30500001 -3.3375604e+38
0.10016517 0.0089220526 0.30500001 -3.3242159e+38
0.10115279 0.0089220526 0.30500001 -3.3507482e+38
0.10164661 0.0089220526 0.30500001 -3.3507997e+38
0.10180554 0.0088927997 0.30400002 -3.3507997e+38
0.10278992 0.0088927997 0.30400002 -3.3772279e+38
0.10294238 0.0088635469 0.303 -3.3772279e+38
0.10343295 0.0088635469 0.303 -3.3772279e+38
0.1040695 0.008834295 0.30200002 -3.3772279e+38
0.10421223 0.0088050421 0.30100003 -3.3771236e+38
0.1051869 0.0088050421 0.30100003 nan
0.10532317 0.0087757893 0.30000001 -3.3771236e+38
0.10580888 0.0087757893 0.30000001 nan
0.10678032 0.0087757893 0.30000001 -3.3771232e+38
0.10726604 0.0087757893 0.30000001 -3.3771232e+38
0.10739259 0.0087465364 0.29900002 -3.3771232e+38
0.10836079 0.0087465364 0.29900002 -3.3771232e+38
0.10848086 0.0087172845 0.29800001 -3.3771232e+38
0.10896333 0.0087172845 0.29800001 -3.3771236e+38
0.1099283 0.0087172845 0.29800001 -3.3504352e+38
0.11041077 0.0087172845 0.29800001 -3.3504352e+38
0.11089325 0.0087172845 0.29800001 -3.3504352e+38
0.11185821 0.0087172845 0.29800001 -3.3637796e+38
0.1123407 0.0087172845 0.29800001 -3.3637796e+38
0.11282317 0.0087172845 0.29800001 -3.3504352e+38
0.11330565 0.0087172845 0.29800001 -3.3504352e+38
0.11427061 0.0087172845 0.29800001 -3.3504348e+38
0.1147531 0.0087172845 0.29800001 -3.33709e+38
0.11523557 0.0087172845 0.29800001 -3.3237456e+38
0.11620054 0.0087172845 0.29800001 -3.3370904e+38
0.11668301 0.0087172845 0.29800001 -3.3504348e+38
0.11716549 0.0087172845 0.29800001 -3.3370904e+38
0.11764798 0.0087172845 0.29800001 -3.3238503e+38
0.11861294 0.0087172845 0.29800001 -3.3238503e+38
0.11909541 0.0087172845 0.29800001 -3.3105058e+38
0.11957789 0.0087172845 0.29800001 -3.2972655e+38
0.12006038 0.0087172845 0.29800001 -3.2972655e+38
0.12102534 0.0087172845 0.29800001 -3.2839215e+38
0.12150782 0.0087172845 0.29800001 -3.28387e+38
0.12199029 0.0087172845 0.29800001 -3.28387e+38
0.12288377 0.0087465364 0.29900002 -3.2573373e+38
0.12385196 0.0087465364 0.29900002 -3.2308047e+38
0.12433606 0.0087465364 0.29900002 -3.2174603e+38
0.12482016 0.0087465364 0.29900002 -3.2175643e+38
0.12578836 0.0087465364 0.29900002 -3.1910317e+38
0.12627245 0.0087465364 0.29900002 -3.1910317e+38
0.098293856 0.0095702242 0.31 -3.2984131e+38
0.098336726 0.0094776098 0.30700001 -3.2714115e+38
0.098833777 0.0094776098 0.30700001 -3.2580671e+38
0.099502712 0.0094467374 0.30600002 -3.2977358e+38
0.099998146 0.0094467374 0.30600002 -3.32432e+38
0.10049358 0.0094467374 0.30600002 -3.3109756e+38
0.10115279 0.0094158659 0.30500001 -3.3242155e+38
0.10164661 0.0094158659 0.30500001 -3.3242155e+38
0.10214042 0.0094158659 0.30500001 -3.3242155e+38
0.10312805 0.0094158659 0.30500001 -3.3639879e+38
0.10328212 0.0093849944 0.30400002 -3.3772283e+38
0.10343295 0.009354122 0.303 -3.3772283e+38
0.1044141 0.009354122 0.303 -3.3772279e+38
0.10455845 0.0093232505 0.30200002 -3.3505391e+38
0.1051869 0.009292379 0.30100003 nan
0.10567424 0.009292379 0.30100003 -3.3771236e+38
0.10616159 0.009292379 0.30100003 nan
0.10678032 0.0092615075 0.30000001 -3.3771747e+38
0.10726604 0.0092615075 0.30000001 -3.3771747e+38
0.10775176 0.0092615075 0.30000001 nan
0.10836079 0.0092306361 0.29900002 -3.3771236e+38
0.10884489 0.0092306361 0.29900002 -3.3771236e+38
0.10932899 0.0092306361 0.29900002 -3.3637792e+38
0.1099283 0.0091997646 0.29800001 -3.3504348e+38
0.11041077 0.0091997646 0.29800001 -3.3504348e+38
0.11089325 0.0091997646 0.29800001 -3.3504352e+38
0.11185821 0.0091997646 0.29800001 -3.3637796e+38
0.1123407 0.0091997646 0.29800001 -3.3504352e+38
0.11282317 0.0091997646 0.29800001 -3.3504352e+38
0.11330565 0.0091997646 0.29800001 -3.3504352e+38
0.11427061 0.0091997646 0.29800001 -3.3504348e+38
0.1147531 0.0091997646 0.29800001 -3.3370904e+38
0.11523557 0.0091997646 0.29800001 -3.323746e+38
0.11620054 0.0091997646 0.29800001 -3.3370904e+38
0.11668301 0.0091997646 0.29800001 -3.3238503e+38
0.11716549 0.0091997646 0.29800001 -3.3238503e+38
0.11764798 0.0091997646 0.29800001 -3.3238503e+38
0.11861294 0.0091997646 0.29800001 -3.3106099e+38
0.11909541 0.0091997646 0.29800001 -3.2972655e+38
0.11957789 0.0091997646 0.29800001 -3.2972655e+38
0.12006038 0.0091997646 0.29800001 -3.2972655e+38
0.12143147 0.0092306361 0.29900002 -3.2839211e+38
0.12191556 0.0092306361 0.29900002 -3.2573889e+38
0.12239967 0.0092306361 0.29900002 -3.2573889e+38
0.12288377 0.0092306361 0.29900002 -3.2308047e+38
0.12385196 0.0092306361 0.29900002 -3.2308047e+38
0.12433606 0.0092306361 0.29900002 -3.2174603e+38
0.12482016 0.0092306361 0.29900002 -3.2175643e+38
0.12578836 0.0092306361 0.29900002 -3.1910317e+38
0.12627245 0.0092306361 0.29900002 -3.1910317e+38
0.098977357 0.010039642 0.30900002 -3.3115488e+38
0.098833777 0.0099746613 0.30700001 -3.28486e+38
0.099502712 0.0099421702 0.30600002 -3.2845997e+38
0.099998146 0.0099421702 0.30600002 -3.3111318e+38
0.10049358 0.0099421702 0.30600002 -3.284443e+38
0.10148444 0.0099421702 0.30600002 -3.3243196e+38
0.10197987 0.0099421702 0.30600002 -3.3109752e+38
0.10214042 0.0099096801 0.30500001 -3.3109752e+38
0.10312805 0.0099096801 0.30500001 -3.3109227e+38
0.10362186 0.0099096801 0.30500001 -3.3639879e+38
0.10377431 0.0098771891 0.30400002 -3.3639879e+38
0.1044141 0.0098446971 0.303 -3.3639875e+38
0.10490467 0.0098446971 0.303 -3.3772279e+38
0.10504741 0.009812207 0.30200002 -3.3772279e+38
0.10567424 0.0097797159 0.30100003 -3.3772279e+38
0.10616159 0.0097797159 0.30100003 -3.3905719e+38
0.10664892 0.0097797159 0.30100003 -3.3905719e+38
0.1076236 0.0097797159 0.30100003 -3.3505902e+38
0.10775176 0.0097472258 0.30000001 -3.3505902e+38
0.10823748 0.0097472258 0.30000001 -3.377279e+38
0.10884489 0.0097147347 0.29900002 -3.3505387e+38
0.10932899 0.0097147347 0.29900002 -3.3371947e+38
0.11029719 0.0097147347 0.29900002 -3.3371947e+38
0.11078128 0.0097147347 0.29900002 -3.3238503e+38
0.11089325 0.0096822446 0.29800001 -3.3238507e+38
0.11185821 0.0096822446 0.29800001 -3.3238507e+38
0.1123407 0.0096822446 0.29800001 -3.3238507e+38
0.11282317 0.0096822446 0.29800001 -3.3238507e+38
0.11330565 0.0096822446 0.29800001 -3.3238507e+38
0.11416998 0.0097147347 0.29900002 -3.3504352e+38
0.11513818 0.0097147347 0.29900002 -3.3370904e+38
0.11562227 0.0097147347 0.29900002 -3.323746e+38
0.11620054 0.0096822446 0.29800001 -3.3370904e+38
0.11668301 0.0096822446 0.29800001 -3.3238503e+38
0.11716549 0.0096822446 0.29800001 -3.3238503e+38
0.11764798 0.0096822446 0.29800001 -3.3106099e+38
0.11861294 0.0096822446 0.29800001 -3.3106099e+38
0.11909541 0.0096822446 0.29800001 -3.3106099e+38
0.11957789 0.0096822446 0.29800001 -3.2707329e+38
0.12006038 0.0096822446 0.29800001 -3.2707329e+38
0.12143147 0.0097147347 0.29900002 -3.2573884e+38
0.12191556 0.0097147347 0.29900002 -3.2573889e+38
0.12239967 0.0097147347 0.29900002 -3.2573889e+38
0.12288377 0.0097147347 0.29900002 -3.2308047e+38
0.12385196 0.0097147347 0.29900002 -3.2308047e+38
0.12433606 0.0097147347 0.29900002 -3.2308047e+38
0.12482016 0.0097147347 0.29900002 -3.2175643e+38
0.10065173 0.010505822 0.30800003 -3.3111839e+38
0.10082199 0.010471713 0.30700001 -3.2711507e+38
0.10148444 0.010437602 0.30600002 -3.2977874e+38
0.10197987 0.010437602 0.30600002 -3.3243196e+38
0.10247531 0.010437602 0.30600002 -3.3109752e+38
0.10297074 0.010437602 0.30600002 -3.3242155e+38
0.10362186 0.010403493 0.30500001 -3.3374553e+38
0.10411567 0.010403493 0.30500001 -3.3374553e+38
0.1047587 0.010369383 0.30400002 -3.3639875e+38
0.10490467 0.010335273 0.303 -3.3772279e+38
0.10539525 0.010335273 0.303 -3.3772279e+38
0.10602532 0.010301163 0.30200002 -3.3772279e+38
0.10651428 0.010301163 0.30200002 -3.3905719e+38
0.10664892 0.010267054 0.30100003 -3.3772275e+38
0.1076236 0.010267054 0.30100003 -3.3505387e+38
0.10811093 0.010267054 0.30100003 -3.3505387e+38
0.10823748 0.010232944 0.30000001 -3.3772275e+38
0.10920891 0.010232944 0.30000001 -3.3371947e+38
0.10969463 0.010232944 0.30000001 -3.3371947e+38
0.11029719 0.010198833 0.29900002 -3.3238503e+38
0.11078128 0.010198833 0.29900002 -3.3238503e+38
0.11126538 0.010198833 0.29900002 -3.3371951e+38
0.11174949 0.010198833 0.29900002 -3.3238507e+38
0.11271768 0.010198833 0.29900002 -3.3238507e+38
0.11320178 0.010198833 0.29900002 -3.3238507e+38
0.11368588 0.010198833 0.29900002 -3.3238507e+38
0.11416998 0.010198833 0.29900002 -3.3238507e+38
0.11513818 0.010198833 0.29900002 -3.3105063e+38
0.11562227 0.010198833 0.29900002 -3.2971618e+38
0.11610638 0.010198833 0.29900002 -3.3238507e+38
0.11707457 0.010198833 0.29900002 -3.3238503e+38
0.11755867 0.010198833 0.29900002 -3.3238503e+38
0.11804277 0.010198833 0.29900002 -3.3239543e+38
0.11852687 0.010198833 0.29900002 -3.3106099e+38
0.11949507 0.010198833 0.29900002 -3.2840773e+38
0.11997917 0.010198833 0.29900002 -3.2707333e+38
0.12046327 0.010198833 0.29900002 -3.2707333e+38
0.12143147 0.010198833 0.29900002 -3.2573889e+38
0.12191556 0.010198833 0.29900002 -3.2573373e+38
0.12280902 0.010232944 0.30000001 -3.2573373e+38
0.12329474 0.010232944 0.30000001 -3.2308047e+38
0.12426618 0.010232944 0.30000001 -3.2308047e+38
0.1247519 0.010232944 0.30000001 -3.2308047e+38
0.10136995 0.011540426 0.32300001 -3.3929705e+38
0.10241586 0.012063383 0.32300001 -3.352572e+38
0.10230143 0.011988687 0.32100001 -3.2725055e+38
0.10131904 0.011465816 0.30700001 -3.2713068e+38
0.10231314 0.011465816 0.30700001 -3.2978395e+38
0.1028102 0.011465816 0.30700001 -3.2844951e+38
0.10297074 0.011428468 0.30600002 -3.2977874e+38
0.1039616 0.011428468 0.30600002 -3.3109752e+38
0.10411567 0.01139112 0.30500001 -3.2976308e+38
0.10460949 0.01139112 0.30500001 -3.3109227e+38
0.1052509 0.011353772 0.30400002 -3.3374549e+38
0.10539525 0.011316423 0.303 -3.3507993e+38
0.1063764 0.011316423 0.303 -3.3372987e+38
0.10651428 0.011279076 0.30200002 -3.3639875e+38
0.10700323 0.011279076 0.30200002 -3.3639875e+38
0.1076236 0.011241728 0.30100003 -3.3372983e+38
0.10811093 0.011241728 0.30100003 -3.3372983e+38
0.10859827 0.011241728 0.30100003 -3.3372983e+38
0.10920891 0.011204381 0.30000001 -3.3372987e+38
0.10969463 0.011204381 0.30000001 -3.3239543e+38
0.11018035 0.011204381 0.30000001 -3.3239543e+38
0.11115178 0.011204381 0.30000001 -3.3238503e+38
0.11126538 0.011167032 0.29900002 -3.3371947e+38
0.11174949 0.011167032 0.29900002 -3.3238503e+38
0.11260894 0.011204381 0.30000001 -3.3238503e+38
0.11320178 0.011167032 0.29900002 -3.3238507e+38
0.11368588 0.011167032 0.29900002 -3.3238507e+38
0.11416998 0.011167032 0.29900002 -3.3238507e+38
0.11513818 0.011167032 0.29900002 -3.3238507e+38
0.11562227 0.011167032 0.29900002 -3.3105063e+38
0.11610638 0.011167032 0.29900002 -3.3105063e+38
0.11707457 0.011167032 0.29900002 -3.3106103e+38
0.11755867 0.011167032 0.29900002 -3.3106103e+38
0.11804277 0.011167032 0.29900002 -3.2840777e+38
0.11852687 0.011167032 0.29900002 -3.2840777e+38
0.11949507 0.011167032 0.29900002 -3.2442006e+38
0.11997917 0.011167032 0.29900002 -3.2442006e+38
0.12046327 0.011167032 0.29900002 -3.2442006e+38
0.12143147 0.011167032 0.29900002 -3.2442006e+38
0.1223233 0.011204381 0.30000001 -3.2441491e+38
0.12280902 0.011204381 0.30000001 -3.2308047e+38
0.12329474 0.011204381 0.30000001 -3.2309092e+38
0.12426618 0.011204381 0.30000001 -3.2175643e+38
0.13650706 0.012026034 0.32200003 -3.19124e+38
0.13754973 0.012026034 0.32200003 -3.151363e+38
0.13807108 0.012026034 0.32200003 -3.1780518e+38
0.13859241 0.012026034 0.32200003 -3.1649165e+38
0.13954577 0.012063383 0.32300001 -3.1782609e+38
0.14059168 0.012063383 0.32300001 -3.1918136e+38
0.14111464 0.012063383 0.32300001 -3.1654909e+38
0.14163759 0.012063383 0.32300001 -3.2055241e+38
0.10293882 0.012586339 0.32300001 -3.2461816e+38
0.10314146 0.012547372 0.32200003 -3.3390185e+38
0.10386058 0.012508405 0.32100001 -3.2983605e+38
0.1044345 0.012391504 0.31800002 -3.271463e+38
0.10314508 0.012001834 0.30800003 -3.2579624e+38
0.10330725 0.011962867 0.30700001 -3.2844951e+38
0.10430135 0.011962867 0.30700001 -3.3109756e+38
0.1047984 0.011962867 0.30700001 -3.2976312e+38
0.10495247 0.0119239 0.30600002 -3.3242671e+38
0.10559712 0.011884933 0.30500001 -3.3374553e+38
0.10574309 0.011845966 0.30400002 -3.3507997e+38
0.1063764 0.011806999 0.303 -3.3107661e+38
0.10686698 0.011806999 0.303 -3.3374549e+38
0.10700323 0.011768033 0.30200002 -3.3374549e+38
0.10798115 0.011768033 0.30200002 -3.3107657e+38
0.1084701 0.011768033 0.30200002 -3.3372983e+38
0.10859827 0.011729065 0.30100003 -3.3372983e+38
0.10957295 0.011729065 0.30100003 -3.3372987e+38
0.11006028 0.011729065 0.30100003 -3.3239543e+38
0.11054762 0.011729065 0.30100003 -3.3239543e+38
0.11115178 0.011690099 0.30000001 -3.3106099e+38
0.11126538 0.011651131 0.29900002 -3.3371947e+38
0.11174949 0.011651131 0.29900002 -3.3238503e+38
0.11260894 0.011690099 0.30000001 -3.3238503e+38
0.11358038 0.011690099 0.30000001 -3.3105063e+38
0.11406609 0.011690099 0.30000001 -3.3238507e+38
0.11455181 0.011690099 0.30000001 -3.3238507e+38
0.11552325 0.011690099 0.30000001 -3.3238507e+38
0.11600897 0.011690099 0.30000001 -3.3238507e+38
0.11649469 0.011690099 0.30000001 -3.3105063e+38
0.1169804 0.011690099 0.30000001 -3.3105063e+38
0.11795184 0.011690099 0.30000001 -3.3106103e+38
0.11843756 0.011690099 0.30000001 -3.2840777e+38
0.11892328 0.011690099 0.30000001 -3.2840777e+38
0.11989471 0.011690099 0.30000001 -3.257545e+38
0.12038043 0.011690099 0.30000001 -3.2309603e+38
0.12086615 0.011690099 0.30000001 -3.2309603e+38
0.12135187 0.011690099 0.30000001 -3.2309087e+38
0.13504368 0.012508405 0.32100001 -3.1778956e+38
0.1355634 0.012508405 0.32100001 -3.19124e+38
0.13650706 0.012547372 0.32200003 -3.1647074e+38
0.13754973 0.012547372 0.32200003 -3.151467e+38
0.13807108 0.012547372 0.32200003 -3.1915002e+38
0.13859241 0.012547372 0.32200003 -3.1649686e+38
0.13954577 0.012586339 0.32300001 -3.1916574e+38
0.14059168 0.012586339 0.32300001 -3.2054186e+38
0.10241586 0.013109296 0.32300001 -3.3130608e+38
0.10293882 0.013109296 0.32300001 -3.2463388e+38
0.10346177 0.013109296 0.32300001 -3.3524154e+38
0.10418413 0.01306871 0.32200003 -3.3119137e+38
0.10438029 0.013028124 0.32100001 -3.258536e+38
0.10490002 0.013028124 0.32100001 -3.3115488e+38
0.10527939 0.012946951 0.31900001 -3.2714115e+38
0.1057925 0.012459919 0.30700001 -3.2976308e+38
0.10643876 0.012419333 0.30600002 -3.3242671e+38
0.10623528 0.012338161 0.30400002 -3.3109227e+38
0.10721967 0.012338161 0.30400002 -3.3374553e+38
0.10735755 0.012297574 0.303 -3.3374553e+38
0.10784813 0.012297574 0.303 -3.3107661e+38
0.1084701 0.012256988 0.30200002 -3.3107661e+38
0.10895906 0.012256988 0.30200002 -3.3107661e+38
0.10944802 0.012256988 0.30200002 -3.3239543e+38
0.11042593 0.012256988 0.30200002 -3.3239543e+38
0.11054762 0.012216402 0.30100003 -3.3239543e+38
0.11115178 0.012175817 0.30000001 -3.3106099e+38
0.1116375 0.012175817 0.30000001 -3.3239543e+38
0.11212322 0.012175817 0.30000001 -3.3106099e+38
0.11260894 0.012175817 0.30000001 -3.3106099e+38
0.11358038 0.012175817 0.30000001 -3.3106103e+38
0.11444632 0.012216402 0.30100003 -3.3106103e+38
0.11493365 0.012216402 0.30100003 -3.3106103e+38
0.115421 0.012216402 0.30100003 -3.3106103e+38
0.11639567 0.012216402 0.30100003 -3.3106103e+38
0.11688301 0.012216402 0.30100003 -3.3106103e+38
0.11737034 0.012216402 0.30100003 -3.2972659e+38
0.11834501 0.012216402 0.30100003 -3.3106103e+38
0.11883236 0.012216402 0.30100003 -3.2840777e+38
0.11931969 0.012216402 0.30100003 -3.2707333e+38
0.11980703 0.012216402 0.30100003 -3.257545e+38
0.12038043 0.012175817 0.30000001 -3.2443047e+38
0.12126904 0.012216402 0.30100003 -3.2309603e+38
0.1304782 0.012987537 0.32000002 -3.2177209e+38
0.1315144 0.012987537 0.32000002 -3.1910842e+38
0.13452396 0.013028124 0.32100001 -3.2044282e+38
0.13504368 0.013028124 0.32100001 -3.1778956e+38
0.1355634 0.013028124 0.32100001 -3.19124e+38
0.13660283 0.013028124 0.32100001 -3.1915002e+38
0.13754973 0.01306871 0.32200003 -3.1649676e+38
0.13807108 0.01306871 0.32200003 -3.178312e+38
0.13859241 0.01306871 0.32200003 -3.1651252e+38
0.13954577 0.013109296 0.32300001 -3.191814e+38
0.14059168 0.013109296 0.32300001 -3.2189196e+38
0.14111464 0.013109296 0.32300001 -3.1394793e+38
0.14163759 0.013109296 0.32300001 -3.2862678e+38
0.10314146 0.014111386 0.32200003 -3.2463388e+38
0.10418413 0.014111386 0.32200003 -3.3256755e+38
0.10470547 0.014111386 0.32200003 -3.2722978e+38
0.10522681 0.014111386 0.32200003 -3.3119141e+38
0.10593946 0.01406756 0.32100001 -3.2716725e+38
0.10612752 0.014023736 0.32000002 -3.2583281e+38
0.10631235 0.013979913 0.31900001 -3.2448271e+38
0.10734531 0.013979913 0.31900001 -3.2712553e+38
0.10752367 0.013936087 0.31800002 -3.2712553e+38
0.10698199 0.013541671 0.30900002 -3.2844425e+38
0.10728366 0.013454021 0.30700001 -3.2976308e+38
0.10757237 0.013366374 0.30500001 -3.3109227e+38
0.10771186 0.01332255 0.30400002 -3.3109227e+38
0.10820406 0.01332255 0.30400002 -3.2842334e+38
0.10882928 0.013278725 0.303 -3.2842334e+38
0.10895906 0.013234901 0.30200002 -3.2842334e+38
0.10944802 0.013234901 0.30200002 -3.2842338e+38
0.11042593 0.013234901 0.30200002 -3.2708894e+38
0.11091489 0.013234901 0.30200002 -3.2708894e+38
0.11103496 0.013191077 0.30100003 -3.2974221e+38
0.11200964 0.013191077 0.30100003 -3.2974221e+38
0.11249697 0.013191077 0.30100003 -3.2974221e+38
0.11298431 0.013191077 0.30100003 -3.2840777e+38
0.11395898 0.013191077 0.30100003 -3.2840777e+38
0.11444632 0.013191077 0.30100003 -3.2974221e+38
0.11493365 0.013191077 0.30100003 -3.2840777e+38
0.115421 0.013191077 0.30100003 -3.2974221e+38
0.11678236 0.013234901 0.30200002 -3.2708894e+38
0.11727131 0.013234901 0.30200002 -3.2708894e+38
0.11776027 0.013234901 0.30200002 -3.2442006e+38
0.11824923 0.013234901 0.30200002 -3.2442006e+38
0.11922714 0.013234901 0.30200002 -3.257545e+38
0.1197161 0.013234901 0.30200002 -3.2442006e+38
0.12020505 0.013234901 0.30200002 -3.2443047e+38
0.12118296 0.013234901 0.30200002 -3.2177209e+38
0.12955396 0.013979913 0.31900001 -3.2177209e+38
0.1304782 0.014023736 0.32000002 -3.2044286e+38
0.1315144 0.014023736 0.32000002 -3.177896e+38
0.1320325 0.014023736 0.32000002 -3.177896e+38
0.1325506 0.014023736 0.32000002 -3.1513634e+38
0.13358679 0.014023736 0.32000002 -3.1513634e+38
0.13452396 0.01406756 0.32100001 -3.1780522e+38
0.13504368 0.01406756 0.32100001 -3.1648118e+38
0.1355634 0.01406756 0.32100001 -3.204845e+38
0.13660283 0.01406756 0.32100001 -3.2050012e+38
0.13712256 0.01406756 0.32100001 -3.1519365e+38
0.13764228 0.01406756 0.32100001 -3.165281e+38
0.13859241 0.014111386 0.32200003 -3.1390607e+38
0.13963509 0.014111386 0.32200003 -3.1795111e+38
0.14015642 0.014111386 0.32200003 -3.2595775e+38
0.10418413 0.014632722 0.32200003 -3.2727146e+38
0.10438029 0.014587278 0.32100001 -3.2326814e+38
0.10490002 0.014587278 0.32100001 -3.3122789e+38
0.10664562 0.014541836 0.32000002 -3.2583277e+38
0.10734531 0.014496393 0.31900001 -3.2447227e+38
0.10786179 0.014496393 0.31900001 -3.2447227e+38
0.10803853 0.014450949 0.31800002 -3.2579624e+38
0.10872526 0.014405506 0.317 -3.2844951e+38
0.10889392 0.014360063 0.31600001 -3.2844951e+38
0.10883393 0.014087403 0.31 -3.2976308e+38
0.10863045 0.013996517 0.30800003 -3.2976823e+38
0.10820406 0.013814745 0.30400002 -3.2709931e+38
0.10882928 0.013769301 0.303 -3.2842334e+38
0.10931986 0.013769301 0.303 -3.3109222e+38
0.10981043 0.013769301 0.303 -3.2842338e+38
0.11079158 0.013769301 0.303 -3.2708894e+38
0.11091489 0.013723858 0.30200002 -3.2708894e+38
0.11140384 0.013723858 0.30200002 -3.2708894e+38
0.11238175 0.013723858 0.30200002 -3.2708894e+38
0.11287071 0.013723858 0.30200002 -3.257545e+38
0.11335967 0.013723858 0.30200002 -3.2974221e+38
0.11384862 0.013723858 0.30200002 -3.2974221e+38
0.11482653 0.013723858 0.30200002 -3.2708894e+38
0.11531549 0.013723858 0.30200002 -3.257545e+38
0.11580445 0.013723858 0.30200002 -3.2708894e+38
0.11678236 0.013723858 0.30200002 -3.2443047e+38
0.11765964 0.013769301 0.303 -3.2575976e+38
0.11815021 0.013769301 0.303 -3.2309087e+38
0.11864079 0.013769301 0.303 -3.2442532e+38
0.11962194 0.013769301 0.303 -3.2442532e+38
0.12011252 0.013769301 0.303 -3.2442532e+38
0.12100111 0.013814745 0.30400002 -3.2177205e+38
0.12149331 0.013814745 0.30400002 -3.2177205e+38
0.12811813 0.014450949 0.31800002 -3.2044286e+38
0.12903748 0.014496393 0.31900001 -3.1910327e+38
0.12955396 0.014496393 0.31900001 -3.2043771e+38
0.1304782 0.014541836 0.32000002 -3.2177215e+38
0.1315144 0.014541836 0.32000002 -3.1912404e+38
0.1320325 0.014541836 0.32000002 -3.1912404e+38
0.1325506 0.014541836 0.32000002 -3.1647078e+38
0.13358679 0.014541836 0.32000002 -3.1647603e+38
0.13410489 0.014541836 0.32000002 -3.1914491e+38
0.13462299 0.014541836 0.32000002 -3.1649165e+38
0.1355634 0.014587278 0.32100001 -3.1916053e+38
0.13660283 0.014587278 0.32100001 -3.2185024e+38
0.13712256 0.014587278 0.32100001 -3.1522493e+38
0.13764228 0.014587278 0.32100001 -3.1789381e+38
0.13859241 0.014632722 0.32200003 -3.1660101e+38
0.13963509 0.014632722 0.32200003 -3.1930123e+38
0.14015642 0.014632722 0.32200003 -3.2597343e+38
0.10386058 0.015106997 0.32100001 -3.2063056e+38
0.10438029 0.015106997 0.32100001 -3.2063056e+38
0.10490002 0.015106997 0.32100001 -3.3124872e+38
0.10593946 0.015106997 0.32100001 -3.2720895e+38
0.10645916 0.015106997 0.32100001 -3.2454007e+38
0.10664562 0.015059935 0.32000002 -3.2717243e+38
0.10768182 0.015059935 0.32000002 -3.2448267e+38
0.10786179 0.015012873 0.31900001 -3.2448267e+38
0.10837827 0.015012873 0.31900001 -3.2447742e+38
0.10941123 0.015012873 0.31900001 -3.2713068e+38
0.10958312 0.01496581 0.31800002 -3.2579624e+38
0.11009797 0.01496581 0.31800002 -3.2711507e+38
0.10883393 0.014589312 0.31 -3.2710981e+38
0.10863045 0.014495188 0.30800003 -3.2976308e+38
0.10891593 0.014401062 0.30600002 -3.2709935e+38
0.10905381 0.014354001 0.30500001 -3.2709935e+38
0.11004144 0.014354001 0.30500001 -3.2976819e+38
0.11053525 0.014354001 0.30500001 -3.2842338e+38
0.11102907 0.014354001 0.30500001 -3.2842338e+38
0.11201669 0.014354001 0.30500001 -3.2574935e+38
0.11214161 0.014306939 0.30400002 -3.2708379e+38
0.11263381 0.014306939 0.30400002 -3.2708379e+38
0.11324446 0.014259876 0.303 -3.257545e+38
0.11373504 0.014259876 0.303 -3.2708894e+38
0.11422561 0.014259876 0.303 -3.2708894e+38
0.11520676 0.014259876 0.303 -3.2708894e+38
0.11569733 0.014259876 0.303 -3.2574935e+38
0.11618791 0.014259876 0.303 -3.2708379e+38
0.11667848 0.014259876 0.303 -3.2177205e+38
0.11765964 0.014259876 0.303 -3.2310653e+38
0.11854014 0.014306939 0.30400002 -3.2177209e+38
0.11903234 0.014306939 0.30400002 -3.2177209e+38
0.11991771 0.014354001 0.30500001 -3.2310653e+38
0.12080631 0.014401062 0.30600002 -3.2310653e+38
0.1262891 0.014871686 0.31600001 -3.2044286e+38
0.12760326 0.01496581 0.31800002 -3.1778445e+38
0.12852101 0.015012873 0.31900001 -3.1778445e+38
0.12903748 0.015012873 0.31900001 -3.1911889e+38
0.12996009 0.015059935 0.32000002 -3.1911889e+38
0.1304782 0.015059935 0.32000002 -3.1911889e+38
0.1315144 0.015059935 0.32000002 -3.1646563e+38
0.1320325 0.015059935 0.32000002 -3.1646563e+38
0.1325506 0.015059935 0.32000002 -3.1514159e+38
0.13358679 0.015059935 0.32000002 -3.1649169e+38
0.13410489 0.015059935 0.32000002 -3.1916057e+38
0.13462299 0.015059935 0.32000002 -3.1783134e+38
0.13514109 0.015059935 0.32000002 -3.2050022e+38
0.13617729 0.015059935 0.32000002 -3.2054186e+38
0.13669538 0.015059935 0.32000002 -3.1790947e+38
0.13764228 0.015106997 0.32100001 -3.2191279e+38
0.13816199 0.015106997 0.32100001 -3.1662707e+38
0.13920143 0.015106997 0.32100001 -3.1932729e+38
0.13972116 0.015106997 0.32100001 -3.2599949e+38
0.11048403 0.01504254 0.30900002 -3.2444608e+38
0.11387025 0.014896495 0.30600002 -3.2575976e+38
0.11448576 0.014847814 0.30500001 -3.2576491e+38
0.11460259 0.014799134 0.30400002 -3.2576491e+38
0.11509478 0.014799134 0.30400002 -3.2576491e+38
0.11607917 0.014799134 0.30400002 -3.2442532e+38
0.11657136 0.014799134 0.30400002 -3.2575976e+38
0.11706356 0.014799134 0.30400002 -3.2177205e+38
0.11794245 0.014847814 0.30500001 -3.2310649e+38
0.11882458 0.014896495 0.30600002 -3.217773e+38
0.120207 0.014945176 0.30700001 -3.2044286e+38
0.12475424 0.015383309 0.31600001 -3.217773e+38
0.10490002 0.016146434 0.32100001 -3.139584e+38
0.10560942 0.016096134 0.32000002 -3.2059397e+38
0.10612752 0.016096134 0.32000002 -3.2059397e+38
0.10664562 0.016096134 0.32000002 -3.2987258e+38
0.10768182 0.016096134 0.32000002 -3.2718808e+38
0.10786179 0.016045833 0.31900001 -3.2318476e+38
0.10837827 0.016045833 0.31900001 -3.2316385e+38
0.10941123 0.016045833 0.31900001 -3.2448783e+38
0.10958312 0.015995532 0.31800002 -3.2315339e+38
0.11009797 0.015995532 0.31800002 -3.2314294e+38
0.11077823 0.015945232 0.317 -3.2711507e+38
0.12566227 0.015945232 0.317 -3.1912404e+38
0.12657353 0.015995532 0.31800002 -3.1780522e+38
0.12748805 0.016045833 0.31900001 -3.1780522e+38
0.12852101 0.016045833 0.31900001 -3.1514159e+38
0.12944199 0.016096134 0.32000002 -3.1647607e+38
0.12996009 0.016096134 0.32000002 -3.1647607e+38
0.1304782 0.016096134 0.32000002 -3.1647607e+38
0.1315144 0.016096134 0.32000002 -3.1782613e+38
0.1320325 0.016096134 0.32000002 -3.1782613e+38
0.1325506 0.016096134 0.32000002 -3.164969e+38
0.13358679 0.016096134 0.32000002 -3.1519374e+38
0.13410489 0.016096134 0.32000002 -3.1919706e+38
0.13462299 0.016096134 0.32000002 -3.1788864e+38
0.13514109 0.016096134 0.32000002 -3.2055752e+38
0.13617729 0.016096134 0.32000002 -3.2191279e+38
0.13669538 0.016096134 0.32000002 -3.2193366e+38
0.13721348 0.016096134 0.32000002 -3.2193366e+38
0.13816199 0.016146434 0.32100001 -3.113155e+38
0.10457323 0.016614232 0.32000002 -3.0864666e+38
0.10560942 0.016614232 0.32000002 -3.0994972e+38
0.10612752 0.016614232 0.32000002 -3.1395304e+38
0.10664562 0.016614232 0.32000002 -3.2456606e+38
0.10734531 0.016562315 0.31900001 -3.2853814e+38
0.10786179 0.016562315 0.31900001 -3.2453482e+38
0.10837827 0.016562315 0.31900001 -3.2451912e+38
0.10941123 0.016562315 0.31900001 -3.2583788e+38
0.10992771 0.016562315 0.31900001 -3.23169e+38
0.11009797 0.016510393 0.31800002 -3.2448779e+38
0.1111277 0.016510393 0.31800002 -3.2579624e+38
0.11129148 0.016458474 0.317 -3.2579624e+38
0.11145203 0.016406555 0.31600001 -3.257962e+38
0.11211934 0.016354637 0.31500003 -3.2578574e+38
0.1129869 0.016406555 0.31600001 -3.2712018e+38
0.11349852 0.016406555 0.31600001 -3.2712018e+38
0.11452177 0.016406555 0.31600001 -3.2711507e+38
0.1150334 0.016406555 0.31600001 -3.2578063e+38
0.11517936 0.016354637 0.31500003 -3.2311175e+38
0.11583049 0.016302716 0.31400001 -3.2311175e+38
0.11596836 0.016250797 0.31300002 -3.2578063e+38
0.12360929 0.016458474 0.317 -3.1911889e+38
0.12463578 0.016458474 0.317 -3.1911889e+38
0.12554382 0.016510393 0.31800002 -3.1912404e+38
0.12645508 0.016562315 0.31900001 -3.2045848e+38
0.12697156 0.016562315 0.31900001 -3.204741e+38
0.12748805 0.016562315 0.31900001 -3.204741e+38
0.12852101 0.016562315 0.31900001 -3.1649165e+38
0.12903748 0.016562315 0.31900001 -3.1649169e+38
0.12996009 0.016614232 0.32000002 -3.1649169e+38
0.1304782 0.016614232 0.32000002 -3.1782613e+38
0.1315144 0.016614232 0.32000002 -3.1916578e+38
0.1320325 0.016614232 0.32000002 -3.1916578e+38
0.1325506 0.016614232 0.32000002 -3.1385925e+38
0.13358679 0.016614232 0.32000002 -3.1788864e+38
0.13410489 0.016614232 0.32000002 -3.2055752e+38
0.13462299 0.016614232 0.32000002 -3.1790947e+38
0.13523525 0.016562315 0.31900001 -3.2059397e+38
0.13575172 0.016562315 0.31900001 -3.2192841e+38
0.13626821 0.016562315 0.31900001 -3.1662192e+38
0.13721348 0.016614232 0.32000002 -3.1395304e+38
0.13824968 0.016614232 0.32000002 -3.0467978e+38
0.10527939 0.017078795 0.31900001 -3.033036e+38
0.10579587 0.017078795 0.31900001 -3.0196916e+38
0.10664562 0.017132333 0.32000002 -3.0993935e+38
0.10734531 0.017078795 0.31900001 -3.2456606e+38
0.10786179 0.017078795 0.31900001 -3.2323161e+38
0.10837827 0.017078795 0.31900001 -3.2453478e+38
0.10941123 0.017078795 0.31900001 -3.2451912e+38
0.10992771 0.017078795 0.31900001 -3.2318468e+38
