# .PCD v0.7 - Point Cloud Data file format
VERSION 0.7
FIELDS x y z rgb
SIZE 4 4 4 4
TYPE F F F F
COUNT 1 1 1 1
WIDTH 224
HEIGHT 1
VIEWPOINT 0 0 0 1 0 0 0
POINTS 224
DATA ascii
0.037629467 -0.10055032 0.35300002 -2.8202542e+38
0.038309213 -0.10083517 0.354 -2.8335987e+38
0.037629467 -0.099978797 0.35300002 -2.8335987e+38
0.038309213 -0.10026202 0.354 -2.8335987e+38
0.037629467 -0.099407271 0.35300002 -2.8335987e+38
0.038309213 -0.09968888 0.354 -2.8202542e+38
0.037736066 -0.098542579 0.354 -2.8202542e+38
0.038417432 -0.098820947 0.35500002 -2.8202542e+38
0.038992196 -0.098820947 0.35500002 -2.8069098e+38
0.035914883 -0.097692683 0.35300002 -2.8468386e+38
0.036589772 -0.097969435 0.354 -2.8334946e+38
0.037736066 -0.097969435 0.354 -2.8334946e+38
0.038417432 -0.09824618 0.35500002 -2.8201502e+38
0.038992196 -0.09824618 0.35500002 -2.7935654e+38
0.039678421 -0.098522931 0.35600001 -2.7935654e+38
0.035914883 -0.097121157 0.35300002 -2.8334942e+38
0.036589772 -0.097396284 0.354 -2.8334942e+38
0.037736066 -0.097396284 0.354 -2.8334946e+38
0.038417432 -0.097671412 0.35500002 -2.8201502e+38
0.038992196 -0.097671412 0.35500002 -2.8068058e+38
0.039566964 -0.097671412 0.35500002 -2.7934614e+38
0.036589772 -0.09624999 0.354 -2.8201498e+38
0.037736066 -0.09624999 0.354 -2.8068054e+38
0.038417432 -0.096521884 0.35500002 -2.8068054e+38
0.038992196 -0.096521884 0.35500002 -2.8068054e+38
0.039566964 -0.096521884 0.35500002 -2.793461e+38
0.036589772 -0.095676847 0.354 -2.8201498e+38
0.037736066 -0.095676847 0.354 -2.8068058e+38
0.038309213 -0.095676847 0.354 -2.7934614e+38
0.038992196 -0.095947117 0.35500002 -2.8068054e+38
0.039566964 -0.095947117 0.35500002 -2.8068054e+38
0.037736066 -0.095103696 0.354 -2.8067543e+38
0.038417432 -0.095372349 0.35500002 -2.7934099e+38
0.038992196 -0.095372349 0.35500002 -2.7935654e+38
0.039566964 -0.095372349 0.35500002 -2.7935654e+38
0.037736066 -0.094530553 0.354 -2.7935139e+38
0.038417432 -0.094797581 0.35500002 -2.7801695e+38
0.038992196 -0.094797581 0.35500002 -2.7935139e+38
0.039566964 -0.094797581 0.35500002 -2.8068583e+38
0.037736066 -0.093384258 0.354 -2.8068587e+38
0.038417432 -0.093648046 0.35500002 -2.8068587e+38
0.038992196 -0.093648046 0.35500002 -2.7803261e+38
0.039566964 -0.093648046 0.35500002 -2.7936705e+38
0.03669313 -0.093073279 0.35500002 -2.8201498e+38
0.037267897 -0.093073279 0.35500002 -2.8201498e+38
0.038417432 -0.093073279 0.35500002 -2.8202031e+38
0.039102033 -0.093335465 0.35600001 -2.7936709e+38
0.03669313 -0.092498519 0.35500002 -2.8466824e+38
0.037267897 -0.092498519 0.35500002 -2.8466824e+38
0.038525648 -0.09275908 0.35600001 -2.8334435e+38
0.037372876 -0.091606304 0.35600001 -2.8599226e+38
0.038375657 -0.092052728 0.36000001 -2.8732159e+38
0.039066736 -0.092308424 0.36100003 -2.8865603e+38
0.038482256 -0.091723949 0.36100003 -2.8866118e+38
0.039066736 -0.091723949 0.36100003 -2.8866118e+38
0.037897777 -0.091139466 0.36100003 -2.8866114e+38
0.038482256 -0.091139466 0.36100003 -2.8999562e+38
0.039066736 -0.091139466 0.36100003 -2.8999562e+38
0.04112735 -0.093159184 0.36900002 -2.8866118e+38
0.038588859 -0.090219729 0.36200002 -2.939885e+38
0.039174959 -0.090219729 0.36200002 -2.9131962e+38
0.04112735 -0.091964312 0.36900002 -2.9131966e+38
0.041611709 -0.091715083 0.36800003 -2.8999562e+38
0.042436909 -0.092213534 0.37 -2.8999562e+38
0.04112735 -0.09136688 0.36900002 -2.9131966e+38
0.041724782 -0.09136688 0.36900002 -2.9131962e+38
0.042322215 -0.09136688 0.36900002 -2.9131962e+38
0.040040702 -0.091015428 0.37 -2.9398854e+38
0.041350264 -0.091261417 0.37100002 -2.9398854e+38
0.041950937 -0.091261417 0.37100002 -2.939885e+38
0.041950937 -0.090060078 0.37100002 -3.0064508e+38
0.042803336 -0.089331828 0.36800003 -3.0065023e+38
0.042322215 -0.088977151 0.36900002 -3.0197952e+38
0.041724782 -0.088379711 0.36900002 -3.0198467e+38
0.042322215 -0.088379711 0.36900002 -3.0331912e+38
0.041238807 -0.088020168 0.37 -3.0330871e+38
0.041724782 -0.087782279 0.36900002 -3.0464311e+38
0.042322215 -0.087782279 0.36900002 -3.0731199e+38
0.030047728 -0.07994885 0.35800001 -2.9135606e+38
0.030627351 -0.07994885 0.35800001 -2.9135606e+38
0.031786598 -0.07994885 0.35800001 -2.9669383e+38
0.028807787 -0.078569524 0.35700002 -2.9666778e+38
0.029468104 -0.078789599 0.35800001 -2.9666778e+38
0.030047728 -0.078789599 0.35800001 -2.9534377e+38
0.030712903 -0.079009689 0.35900003 -2.9534377e+38
0.031875387 -0.079009689 0.35900003 -2.9534377e+38
0.032456633 -0.079009689 0.35900003 -3.0200559e+38
0.033037875 -0.079009689 0.35900003 -3.0467447e+38
0.028807787 -0.077991515 0.35700002 -2.9800222e+38
0.029468104 -0.078209974 0.35800001 -2.9800222e+38
0.030047728 -0.078209974 0.35800001 -2.9666782e+38
0.030712903 -0.07842844 0.35900003 -2.9666782e+38
0.031875387 -0.07842844 0.35900003 -2.9534381e+38
0.032456633 -0.07842844 0.35900003 -2.993367e+38
0.033129901 -0.078646906 0.36000001 -3.0200559e+38
0.028807787 -0.077413514 0.35700002 -2.9800226e+38
0.029468104 -0.077630356 0.35800001 -2.9800226e+38
0.030047728 -0.077630356 0.35800001 -2.9666782e+38
0.030712903 -0.077847198 0.35900003 -2.9666782e+38
0.031875387 -0.077847198 0.35900003 -2.9800226e+38
0.032456633 -0.077847198 0.35900003 -2.993367e+38
0.033129901 -0.078064047 0.36000001 -2.993367e+38
0.033712763 -0.078064047 0.36000001 -3.0333999e+38
0.028807787 -0.076257505 0.35700002 -2.993367e+38
0.029468104 -0.076471105 0.35800001 -2.993367e+38
0.03013166 -0.076684713 0.35900003 -2.993367e+38
0.030712903 -0.076684713 0.35900003 -2.9800226e+38
0.031875387 -0.076684713 0.35900003 -2.9800226e+38
0.032547038 -0.076898322 0.36000001 -2.993367e+38
0.033129901 -0.076898322 0.36000001 -2.993367e+38
0.03380641 -0.077111922 0.36100003 -3.0200559e+38
0.028807787 -0.075679496 0.35700002 -2.9933666e+38
0.029468104 -0.07589148 0.35800001 -3.0200555e+38
0.03013166 -0.076103471 0.35900003 -3.0200559e+38
0.030712903 -0.076103471 0.35900003 -2.9800226e+38
0.031381316 -0.076315463 0.36000001 -2.9800226e+38
0.032547038 -0.076315463 0.36000001 -2.993263e+38
0.033221927 -0.076527447 0.36100003 -3.0066074e+38
0.03380641 -0.076527447 0.36100003 -3.0066074e+38
0.028888481 -0.075311862 0.35800001 -2.9933666e+38
0.029550416 -0.075522229 0.35900003 -3.0200555e+38
0.03013166 -0.075522229 0.35900003 -2.9933666e+38
0.030712903 -0.075522229 0.35900003 -2.9800222e+38
0.031381316 -0.075732596 0.36000001 -2.9800226e+38
0.032547038 -0.075732596 0.36000001 -2.993263e+38
0.033221927 -0.075942963 0.36100003 -2.993263e+38
0.03380641 -0.075942963 0.36100003 -3.006607e+38
0.027729234 -0.074732237 0.35800001 -3.0066585e+38
0.028387932 -0.074940987 0.35900003 -3.0066585e+38
0.029550416 -0.074940987 0.35900003 -3.0200555e+38
0.03013166 -0.074940987 0.35900003 -3.0200559e+38
0.030712903 -0.074940987 0.35900003 -2.993367e+38
0.031875387 -0.074940987 0.35900003 -2.993367e+38
0.032547038 -0.075149737 0.36000001 -2.993263e+38
0.033221927 -0.07535848 0.36100003 -2.993263e+38
0.03380641 -0.07535848 0.36100003 -3.006607e+38
0.027806688 -0.073778503 0.35900003 -3.0066585e+38
0.028467007 -0.073984012 0.36000001 -3.0066585e+38
0.029550416 -0.073778503 0.35900003 -3.0333473e+38
0.03013166 -0.073778503 0.35900003 -3.0332958e+38
0.030712903 -0.073778503 0.35900003 -3.0332958e+38
0.031875387 -0.073778503 0.35900003 -3.0332962e+38
0.032547038 -0.073984012 0.36000001 -3.006607e+38
0.033129901 -0.073984012 0.36000001 -3.0332958e+38
0.03380641 -0.074189521 0.36100003 -3.0333473e+38
0.027884144 -0.073401153 0.36000001 -3.0331912e+38
0.028387932 -0.07319726 0.35900003 -3.0331912e+38
0.029550416 -0.07319726 0.35900003 -3.0333473e+38
0.03013166 -0.07319726 0.35900003 -3.006607e+38
0.030712903 -0.07319726 0.35900003 -3.0332958e+38
0.031875387 -0.07319726 0.35900003 -3.0332962e+38
0.032547038 -0.073401153 0.36000001 -3.0332962e+38
0.033129901 -0.073401153 0.36000001 -3.0332962e+38
0.03380641 -0.073605038 0.36100003 -3.0332958e+38
0.03448616 -0.073808931 0.36200002 -3.0466402e+38
0.028467007 -0.072818294 0.36000001 -3.0331912e+38
0.029550416 -0.072616018 0.35900003 -3.0331396e+38
0.030047728 -0.072413743 0.35800001 -3.0331396e+38
0.030712903 -0.072616018 0.35900003 -3.0598284e+38
0.031875387 -0.072616018 0.35900003 -3.0731729e+38
0.032547038 -0.072818294 0.36000001 -3.0731729e+38
0.033221927 -0.073020563 0.36100003 -3.0598284e+38
0.03390006 -0.073222831 0.36200002 -3.0598284e+38
0.034581423 -0.073425107 0.36300001 -3.0731729e+38
0.03013166 -0.071453527 0.35900003 -3.0864647e+38
0.030712903 -0.071453527 0.35900003 -3.0731203e+38
0.031875387 -0.071453527 0.35900003 -3.0864132e+38
0.032637447 -0.071851596 0.36100003 -3.0731729e+38
0.03331396 -0.072050631 0.36200002 -3.0731729e+38
0.03390006 -0.072050631 0.36200002 -3.0732244e+38
0.030712903 -0.070872284 0.35900003 -3.1129974e+38
0.031468485 -0.071267121 0.36100003 -3.1129974e+38
0.012146875 -0.068738259 0.36000001 -2.9134045e+38
0.012729737 -0.068738259 0.36000001 -2.9267489e+38
0.011564014 -0.068155393 0.36000001 -2.9134045e+38
0.012146875 -0.068155393 0.36000001 -2.9134045e+38
0.012765097 -0.068344712 0.36100003 -2.9267493e+38
0.011564014 -0.067572534 0.36000001 -2.9267489e+38
0.012146875 -0.067572534 0.36000001 -2.9267489e+38
0.012765097 -0.067760229 0.36100003 -2.9400937e+38
0.015186694 -0.068135642 0.36300001 -2.8869763e+38
0.011564014 -0.066406809 0.36000001 -2.9666778e+38
0.012180616 -0.06659127 0.36100003 -2.9666778e+38
0.012765097 -0.06659127 0.36100003 -2.9666782e+38
0.013386557 -0.066775739 0.36200002 -2.9666782e+38
0.014558757 -0.066775739 0.36200002 -2.9400933e+38
0.015186694 -0.066960201 0.36300001 -2.8734763e+38
0.015817869 -0.067144662 0.36400002 -2.7934099e+38
0.011596135 -0.066006787 0.36100003 -2.9800222e+38
0.012180616 -0.066006787 0.36100003 -2.9666778e+38
0.012800457 -0.066189639 0.36200002 -2.9800226e+38
0.013386557 -0.066189639 0.36200002 -2.9666782e+38
0.014558757 -0.066189639 0.36200002 -2.9666778e+38
0.015186694 -0.066372484 0.36300001 -2.9000601e+38
0.015817869 -0.066555321 0.36400002 -2.8466824e+38
0.011596135 -0.065422311 0.36100003 -2.9800222e+38
0.012214357 -0.065603539 0.36200002 -2.9800222e+38
0.012800457 -0.065603539 0.36200002 -2.9800226e+38
0.013386557 -0.065603539 0.36200002 -2.9666782e+38
0.014598974 -0.06578476 0.36300001 -2.9666778e+38
0.015228531 -0.06596598 0.36400002 -2.939989e+38
0.015817869 -0.06596598 0.36400002 -2.9533334e+38
0.011628257 -0.065017439 0.36200002 -2.9933666e+38
0.012214357 -0.065017439 0.36200002 -2.9800222e+38
0.012800457 -0.065017439 0.36200002 -2.9800222e+38
0.013423536 -0.065197043 0.36300001 -2.9666778e+38
0.014598974 -0.065197043 0.36300001 -2.9666778e+38
0.015228531 -0.065376647 0.36400002 -2.9666778e+38
0.015817869 -0.065376647 0.36400002 -2.9933666e+38
0.011628257 -0.06384524 0.36200002 -2.9933666e+38
0.012214357 -0.06384524 0.36200002 -2.9800222e+38
0.012800457 -0.06384524 0.36200002 -2.9800222e+38
0.013423536 -0.06402161 0.36300001 -2.9800222e+38
0.014049855 -0.064197972 0.36400002 -2.9800222e+38
0.015228531 -0.064197972 0.36400002 -2.9933666e+38
0.015861325 -0.064374343 0.36500001 -3.0467443e+38
0.012835818 -0.063433886 0.36300001 -2.9800222e+38
0.013423536 -0.063433886 0.36300001 -2.9800222e+38
0.014049855 -0.063608631 0.36400002 -2.9800222e+38
0.011628257 -0.06267304 0.36200002 -2.9933141e+38
0.012248099 -0.062846169 0.36300001 -2.9933141e+38
0.012835818 -0.062846169 0.36300001 -3.006607e+38
0.013423536 -0.062846169 0.36300001 -2.9932626e+38
0.014088453 -0.063192427 0.36500001 -2.9932626e+38
