# .PCD v0.7 - Point Cloud Data file format
VERSION 0.7
FIELDS x y z rgb
SIZE 4 4 4 4
TYPE F F F F
COUNT 1 1 1 1
WIDTH 219
HEIGHT 1
VIEWPOINT 0 0 0 1 0 0 0
POINTS 219
DATA ascii
-0.054577336 -0.10139492 0.35800001 nan
-0.053997714 -0.10139492 0.35800001 nan
-0.053418089 -0.10139492 0.35800001 nan
-0.05211287 -0.1011117 0.35700002 nan
-0.051534865 -0.1011117 0.35700002 nan
-0.050814122 -0.10082848 0.35600001 nan
-0.049661353 -0.10082848 0.35600001 nan
-0.048947088 -0.10054524 0.35500002 nan
-0.057054758 -0.10109691 0.35900003 nan
-0.056473516 -0.10109691 0.35900003 nan
-0.055892274 -0.10109691 0.35900003 nan
-0.054577336 -0.1008153 0.35800001 nan
-0.053997714 -0.1008153 0.35800001 nan
-0.053268876 -0.10053369 0.35700002 nan
-0.05211287 -0.10053369 0.35700002 nan
-0.05139051 -0.10025209 0.35600001 nan
-0.050814122 -0.10025209 0.35600001 nan
-0.049521852 -0.099970482 0.35500002 nan
-0.048947088 -0.099970482 0.35500002 nan
-0.057054758 -0.099934421 0.35900003 nan
-0.056473516 -0.099934421 0.35900003 nan
-0.055736583 -0.099656053 0.35800001 nan
-0.054577336 -0.099656053 0.35800001 nan
-0.053997714 -0.099656053 0.35800001 nan
-0.053268876 -0.099377692 0.35700002 nan
-0.05211287 -0.099377692 0.35700002 nan
-0.05139051 -0.099099316 0.35600001 nan
-0.050814122 -0.099099316 0.35600001 nan
-0.049521852 -0.098820947 0.35500002 nan
-0.048947088 -0.098820947 0.35500002 nan
-0.057054758 -0.099353179 0.35900003 nan
-0.056316208 -0.099076428 0.35800001 nan
-0.055736583 -0.099076428 0.35800001 nan
-0.054577336 -0.099076428 0.35800001 nan
-0.053997714 -0.099076428 0.35800001 nan
-0.053268876 -0.098799683 0.35700002 nan
-0.051966894 -0.098522931 0.35600001 nan
-0.05139051 -0.098522931 0.35600001 nan
-0.05009662 -0.09824618 0.35500002 nan
-0.049521852 -0.09824618 0.35500002 nan
-0.048947088 -0.09824618 0.35500002 -3.3933852e+38
-0.048372321 -0.09824618 0.35500002 nan
-0.058217246 -0.098771937 0.35900003 nan
-0.057054758 -0.098771937 0.35900003 nan
-0.056316208 -0.098496802 0.35800001 nan
-0.055736583 -0.098496802 0.35800001 nan
-0.054577336 -0.098496802 0.35800001 nan
-0.053846881 -0.098221682 0.35700002 nan
-0.053268876 -0.098221682 0.35700002 nan
-0.051966894 -0.097946547 0.35600001 nan
-0.05139051 -0.097946547 0.35600001 nan
-0.049521852 -0.097671412 0.35500002 nan
-0.048947088 -0.097671412 0.35500002 nan
-0.048372321 -0.097671412 0.35500002 -3.3933852e+38
-0.058217246 -0.097609453 0.35900003 nan
-0.05689583 -0.097337559 0.35800001 nan
-0.056316208 -0.097337559 0.35800001 nan
-0.055736583 -0.097337559 0.35800001 nan
-0.054577336 -0.097337559 0.35800001 nan
-0.053846881 -0.097065672 0.35700002 nan
-0.053268876 -0.097065672 0.35700002 nan
-0.051966894 -0.096793778 0.35600001 nan
-0.05139051 -0.096793778 0.35600001 nan
-0.05009662 -0.096521884 0.35500002 nan
-0.048372321 -0.096521884 0.35500002 nan
-0.047222789 -0.096521884 0.35500002 nan
-0.035626814 -0.09624999 0.354 -2.8732145e+38
-0.03448052 -0.09624999 0.354 -2.8732145e+38
-0.033907373 -0.09624999 0.354 -2.8598701e+38
-0.057475455 -0.096757933 0.35800001 nan
-0.05689583 -0.096757933 0.35800001 nan
-0.056316208 -0.096757933 0.35800001 nan
-0.055736583 -0.096757933 0.35800001 nan
-0.054424886 -0.096487664 0.35700002 nan
-0.053846881 -0.096487664 0.35700002 nan
-0.052543279 -0.096217386 0.35600001 nan
-0.051966894 -0.096217386 0.35600001 nan
-0.051246155 -0.095947117 0.35500002 nan
-0.05009662 -0.095947117 0.35500002 nan
-0.049521852 -0.095947117 0.35500002 nan
-0.048947088 -0.095947117 0.35500002 nan
-0.048372321 -0.095947117 0.35500002 nan
-0.037346259 -0.095676847 0.354 -2.8730579e+38
-0.036773112 -0.095676847 0.354 -2.793148e+38
-0.036199965 -0.095676847 0.354 -2.793148e+38
-0.035626814 -0.095676847 0.354 -2.7664077e+38
-0.03448052 -0.095676847 0.354 -2.7664077e+38
-0.033907373 -0.095676847 0.354 -2.7664077e+38
-0.033334225 -0.095676847 0.354 -2.7664077e+38
-0.032761078 -0.095676847 0.354 -2.7664077e+38
-0.031614784 -0.095676847 0.354 -2.7798036e+38
-0.031041635 -0.095676847 0.354 -2.7664592e+38
-0.030468488 -0.095676847 0.354 -2.7798036e+38
-0.057475455 -0.096178308 0.35800001 nan
-0.05689583 -0.096178308 0.35800001 nan
-0.056316208 -0.096178308 0.35800001 nan
-0.055002891 -0.095909663 0.35700002 nan
-0.054424886 -0.095909663 0.35700002 nan
-0.053846881 -0.095909663 0.35700002 nan
-0.052543279 -0.095641002 0.35600001 nan
-0.051966894 -0.095641002 0.35600001 nan
-0.051246155 -0.095372349 0.35500002 nan
-0.05009662 -0.095372349 0.35500002 nan
-0.049521852 -0.095372349 0.35500002 nan
-0.048947088 -0.095372349 0.35500002 nan
-0.048372321 -0.095372349 0.35500002 nan
-0.037346259 -0.095103696 0.354 -2.8196803e+38
-0.036773112 -0.095103696 0.354 -2.7531148e+38
-0.036199965 -0.095103696 0.354 -2.7531148e+38
-0.035626814 -0.095103696 0.354 -2.6997897e+38
-0.03448052 -0.095103696 0.354 -2.6996857e+38
-0.033907373 -0.095103696 0.354 -2.6996857e+38
-0.033334225 -0.095103696 0.354 -2.6996857e+38
-0.032761078 -0.095103696 0.354 -2.6996857e+38
-0.031614784 -0.095103696 0.354 -2.6997897e+38
-0.031041635 -0.095103696 0.354 -2.6997897e+38
-0.030468488 -0.095103696 0.354 -2.7131341e+38
-0.029322192 -0.095103696 0.354 -2.6865496e+38
-0.028749045 -0.095103696 0.354 -2.6600173e+38
-0.028175898 -0.095103696 0.354 -2.6600173e+38
-0.058634702 -0.09559869 0.35800001 nan
-0.057475455 -0.09559869 0.35800001 nan
-0.05689583 -0.09559869 0.35800001 nan
-0.056316208 -0.09559869 0.35800001 nan
-0.055002891 -0.095331654 0.35700002 nan
-0.054424886 -0.095331654 0.35700002 nan
-0.053696055 -0.095064618 0.35600001 nan
-0.052543279 -0.095064618 0.35600001 nan
-0.051820919 -0.094797581 0.35500002 nan
-0.051246155 -0.094797581 0.35500002 nan
-0.05009662 -0.094797581 0.35500002 nan
-0.049521852 -0.094797581 0.35500002 nan
-0.048947088 -0.094797581 0.35500002 nan
-0.037346259 -0.094530553 0.354 -2.8063359e+38
-0.036773112 -0.094530553 0.354 -2.7531148e+38
-0.036199965 -0.094530553 0.354 -2.7130816e+38
-0.035626814 -0.094530553 0.354 -2.6731009e+38
-0.03448052 -0.094530553 0.354 -2.6597565e+38
-0.033907373 -0.094530553 0.354 -2.6197233e+38
-0.033334225 -0.094530553 0.354 -2.6464125e+38
-0.032761078 -0.094530553 0.354 -2.6464125e+38
-0.031614784 -0.094530553 0.354 -2.6465168e+38
-0.031041635 -0.094530553 0.354 -2.6465168e+38
-0.030468488 -0.094530553 0.354 -2.6598612e+38
-0.029322192 -0.094530553 0.354 -2.6199841e+38
-0.028749045 -0.094530553 0.354 -2.5668152e+38
-0.028175898 -0.094530553 0.354 -2.5534708e+38
-0.057475455 -0.094439439 0.35800001 nan
-0.05689583 -0.094439439 0.35800001 nan
-0.0561589 -0.094175644 0.35700002 nan
-0.055002891 -0.094175644 0.35700002 nan
-0.054424886 -0.094175644 0.35700002 nan
-0.053696055 -0.093911849 0.35600001 nan
-0.052543279 -0.093911849 0.35600001 nan
-0.051966894 -0.093911849 0.35600001 nan
-0.051246155 -0.093648046 0.35500002 nan
-0.05009662 -0.093648046 0.35500002 nan
-0.03448052 -0.093384258 0.354 -2.659704e+38
-0.033907373 -0.093384258 0.354 -2.6063263e+38
-0.033334225 -0.093384258 0.354 -2.5663988e+38
-0.032761078 -0.093384258 0.354 -2.5663988e+38
-0.031614784 -0.093384258 0.354 -2.5797432e+38
-0.031041635 -0.093384258 0.354 -2.566555e+38
-0.030468488 -0.093384258 0.354 -2.566555e+38
-0.029322192 -0.093384258 0.354 -2.5000932e+38
-0.057475455 -0.093859814 0.35800001 nan
-0.05689583 -0.093859814 0.35800001 nan
-0.0561589 -0.093597643 0.35700002 nan
-0.055002891 -0.093597643 0.35700002 nan
-0.054424886 -0.093597643 0.35700002 nan
-0.053696055 -0.093335465 0.35600001 nan
-0.052543279 -0.093335465 0.35600001 nan
-0.033334225 -0.092811108 0.354 -2.5530013e+38
-0.032761078 -0.092811108 0.354 -2.5930345e+38
-0.031614784 -0.092811108 0.354 -2.5663988e+38
-0.031041635 -0.092811108 0.354 -2.5398662e+38
-0.030468488 -0.092811108 0.354 -2.5398662e+38
-0.029239362 -0.092548929 0.35300002 -2.4735084e+38
-0.054424886 -0.093019634 0.35700002 nan
-0.053696055 -0.09275908 0.35600001 nan
-0.052543279 -0.09275908 0.35600001 nan
-0.030953947 -0.091977403 0.35300002 -2.5265733e+38
-0.030382419 -0.091977403 0.35300002 -2.5399177e+38
-0.029239362 -0.091977403 0.35300002 -2.460164e+38
-0.054272439 -0.091606304 0.35600001 nan
-0.053696055 -0.091606304 0.35600001 nan
-0.052543279 -0.091606304 0.35600001 nan
-0.054848827 -0.09102992 0.35600001 nan
-0.054272439 -0.09102992 0.35600001 nan
-0.053696055 -0.09102992 0.35600001 nan
-0.052543279 -0.09102992 0.35600001 nan
-0.051966894 -0.09102992 0.35600001 nan
-0.051246155 -0.090774216 0.35500002 nan
-0.055002891 -0.090707622 0.35700002 nan
-0.054272439 -0.090453535 0.35600001 nan
-0.053696055 -0.090453535 0.35600001 nan
-0.052543279 -0.090453535 0.35600001 nan
-0.051966894 -0.090453535 0.35600001 nan
-0.051246155 -0.090199448 0.35500002 nan
-0.054272439 -0.089877151 0.35600001 nan
-0.053696055 -0.089877151 0.35600001 nan
-0.052543279 -0.089877151 0.35600001 nan
-0.051966894 -0.089877151 0.35600001 nan
-0.051246155 -0.089624681 0.35500002 nan
-0.023324156 -0.077028945 0.35000002 -3.3801453e+38
-0.022190813 -0.077028945 0.35000002 -3.3934897e+38
-0.023324156 -0.076462269 0.35000002 -3.3668009e+38
-0.022190813 -0.076462269 0.35000002 -3.3801453e+38
-0.021624142 -0.076462269 0.35000002 -3.3668009e+38
-0.020997308 -0.076243803 0.34900001 -3.3668009e+38
-0.019867204 -0.076243803 0.34900001 -3.3534565e+38
-0.019302152 -0.076243803 0.34900001 -3.3534565e+38
-0.023390796 -0.076112449 0.35100001 -3.3534565e+38
-0.022190813 -0.0758956 0.35000002 -3.3668009e+38
-0.021624142 -0.0758956 0.35000002 -3.3534565e+38
-0.020997308 -0.075678751 0.34900001 -3.3534565e+38
-0.019867204 -0.075678751 0.34900001 -3.3267677e+38
-0.019302152 -0.075678751 0.34900001 -3.3267677e+38
-0.0187371 -0.075678751 0.34900001 -3.3267677e+38
