# .PCD v0.7 - Point Cloud Data file format
VERSION 0.7
FIELDS x y z rgb
SIZE 4 4 4 4
TYPE F F F F
COUNT 1 1 1 1
WIDTH 990
HEIGHT 1
VIEWPOINT 0 0 0 1 0 0 0
POINTS 990
DATA ascii
0.0024363832 0.05523406 0.22000001 -3.3233296e+38
0.0027925763 0.05523406 0.22000001 -3.3101418e+38
0.0035049629 0.05523406 0.22000001 -3.2702647e+38
0.0038611563 0.05523406 0.22000001 -3.2836091e+38
0.0042173495 0.05523406 0.22000001 -3.2570244e+38
0.0045943321 0.055485129 0.22100002 -3.2570244e+38
0.0049521443 0.055485129 0.22100002 -3.2570244e+38
0.0056677694 0.055485129 0.22100002 -3.2570244e+38
0.0060255816 0.055485129 0.22100002 -3.2570244e+38
0.0063833939 0.055485129 0.22100002 -3.2570244e+38
0.0070990194 0.055485129 0.22100002 -3.2304398e+38
0.0074568316 0.055485129 0.22100002 -3.2304398e+38
0.0078146439 0.055485129 0.22100002 -3.2304398e+38
0.0082094353 0.055736192 0.22200002 -3.2304398e+38
0.0085688671 0.055736192 0.22200002 -3.2171479e+38
0.0092877299 0.055736192 0.22200002 -3.2039597e+38
0.0096471617 0.055736192 0.22200002 -3.2039597e+38
0.010006594 0.055736192 0.22200002 -3.1774275e+38
0.010366024 0.055736192 0.22200002 -3.1774275e+38
0.01077377 0.055987254 0.223 -3.2042203e+38
0.011495871 0.055987254 0.223 -3.1776877e+38
0.011856921 0.055987254 0.223 -3.1910321e+38
0.012217971 0.055987254 0.223 -3.1777398e+38
0.01263543 0.05623832 0.22400001 -3.1777398e+38
0.012998099 0.05623832 0.22400001 -3.1511557e+38
0.013420415 0.056489382 0.22500001 -3.1511557e+38
0.014148992 0.056489382 0.22500001 -3.1379679e+38
0.014513281 0.056489382 0.22500001 -3.1380723e+38
0.014943692 0.056740444 0.22600001 -3.1380723e+38
0.0153096 0.056740444 0.22600001 -3.1248841e+38
0.015744869 0.056991514 0.22700001 -3.1382285e+38
0.016112396 0.056991514 0.22700001 -3.1649694e+38
0.01684745 0.056991514 0.22700001 -3.1250924e+38
0.017214976 0.056991514 0.22700001 -3.1517812e+38
0.017659958 0.057242576 0.22800002 -3.09882e+38
0.018317556 0.056991514 0.22700001 -3.1256656e+38
-0.012922221 0.05735904 0.22700001 nan
-0.012187168 0.05735904 0.22700001 nan
-0.011767572 0.057106353 0.22600001 nan
-0.011401664 0.057106353 0.22600001 nan
-0.010669848 0.057106353 0.22600001 nan
-0.010258349 0.056853671 0.22500001 nan
-0.0095297713 0.056853671 0.22500001 nan
-0.0091247465 0.056600992 0.22400001 nan
-0.0083994074 0.056600992 0.22400001 nan
-0.0080008591 0.056348301 0.223 nan
-0.0076398086 0.056348301 0.223 nan
-0.0069177076 0.056348301 0.223 nan
-0.0065272553 0.056095622 0.22200002 -3.3902082e+38
-0.0058083925 0.056095622 0.22200002 nan
-0.0054489607 0.056095622 0.22200002 nan
-0.0050895293 0.056095622 0.22200002 -3.390052e+38
-0.0047300979 0.056095622 0.22200002 -3.390052e+38
-0.0040112347 0.056095622 0.22200002 -3.3900512e+38
-0.0036353539 0.05584294 0.22100002 -3.3767068e+38
-0.0029197289 0.05584294 0.22100002 -3.3767072e+38
-0.0025619164 0.05584294 0.22100002 -3.3500184e+38
-0.0022041039 0.05584294 0.22100002 -3.3767072e+38
-0.0018462916 0.05584294 0.22100002 -3.3900516e+38
-0.0011306667 0.05584294 0.22100002 -3.3500184e+38
-0.00077285431 0.05584294 0.22100002 -3.3500184e+38
-0.0004150419 0.05584294 0.22100002 -3.3500184e+38
-5.7229459e-05 0.05584294 0.22100002 -3.336674e+38
0.00065839541 0.05584294 0.22100002 -3.3500184e+38
0.0010116096 0.055590253 0.22000001 -3.336674e+38
0.0017239964 0.055590253 0.22000001 -3.3233296e+38
0.0020801898 0.055590253 0.22000001 -3.3233296e+38
0.0024363832 0.055590253 0.22000001 -3.336674e+38
0.0027925763 0.055590253 0.22000001 -3.3101418e+38
0.0031630825 0.05584294 0.22100002 -3.3101418e+38
0.0038787071 0.05584294 0.22100002 -3.2836091e+38
0.0042365193 0.05584294 0.22100002 -3.2703688e+38
0.0045943321 0.05584294 0.22100002 -3.2703688e+38
0.0049521443 0.05584294 0.22100002 -3.2570244e+38
0.0056677694 0.05584294 0.22100002 -3.2570244e+38
0.0060255816 0.05584294 0.22100002 -3.2570244e+38
0.0063833939 0.05584294 0.22100002 -3.2569729e+38
0.0070990194 0.05584294 0.22100002 -3.2303883e+38
0.0074568316 0.05584294 0.22100002 -3.2303883e+38
0.0078500044 0.056095622 0.22200002 -3.2304924e+38
0.0082094353 0.056095622 0.22200002 -3.2304924e+38
0.0085688671 0.056095622 0.22200002 -3.1906153e+38
0.0092877299 0.056095622 0.22200002 -3.1907719e+38
0.0096471617 0.056095622 0.22200002 -3.1907719e+38
0.010051669 0.056348301 0.223 -3.1775315e+38
0.010412719 0.056348301 0.223 -3.1775315e+38
0.01077377 0.056348301 0.223 -3.1776877e+38
0.011495871 0.056348301 0.223 -3.1777398e+38
0.011856921 0.056348301 0.223 -3.1777398e+38
0.01227276 0.056600992 0.22400001 -3.1511557e+38
0.01263543 0.056600992 0.22400001 -3.1511557e+38
0.012998099 0.056600992 0.22400001 -3.1511557e+38
0.013420415 0.056853671 0.22500001 -3.1645001e+38
0.014148992 0.056853671 0.22500001 -3.1379679e+38
0.014577785 0.057106353 0.22600001 -3.1380723e+38
0.014943692 0.057106353 0.22600001 -3.1514167e+38
0.015377343 0.05735904 0.22700001 -3.1115918e+38
0.015744869 0.05735904 0.22700001 -3.1249362e+38
0.016112396 0.05735904 0.22700001 -3.1384368e+38
0.016552521 0.057611719 0.22800002 -3.1384368e+38
0.017290814 0.057611719 0.22800002 -3.138593e+38
0.017659958 0.057611719 0.22800002 -3.1121128e+38
0.018029105 0.057611719 0.22800002 -3.1521461e+38
0.018767396 0.057611719 0.22800002 -3.1525109e+38
-0.019165058 0.063829809 0.25100002 nan
-0.012187168 0.057726566 0.22700001 nan
-0.011819641 0.057726566 0.22700001 nan
-0.011401664 0.057472259 0.22600001 nan
-0.010669848 0.057472259 0.22600001 nan
-0.010303941 0.057472259 0.22600001 nan
-0.0099380333 0.057472259 0.22600001 nan
-0.0091654826 0.057217959 0.22500001 nan
-0.0083994074 0.05696366 0.22400001 nan
-0.0080367373 0.05696366 0.22400001 nan
-0.0076398086 0.056709353 0.223 nan
-0.0069177076 0.056709353 0.223 nan
-0.0065566571 0.056709353 0.223 nan
-0.0061956067 0.056709353 0.223 -3.3902082e+38
-0.0054489607 0.056455053 0.22200002 -3.3902082e+38
-0.0050895293 0.056455053 0.22200002 nan
-0.0047300979 0.056455053 0.22200002 nan
-0.0040112347 0.056455053 0.22200002 -3.3900516e+38
-0.0036518034 0.056455053 0.22200002 -3.3900516e+38
-0.003292372 0.056455053 0.22200002 -3.3900516e+38
-0.0029329404 0.056455053 0.22200002 -3.3767072e+38
-0.0022041039 0.056200754 0.22100002 -3.3767072e+38
-0.0018462916 0.056200754 0.22100002 -3.3900516e+38
-0.0011306667 0.056200754 0.22100002 -3.3500184e+38
-0.00077285431 0.056200754 0.22100002 -3.3500184e+38
-0.0004150419 0.056200754 0.22100002 -3.3500184e+38
-5.7229459e-05 0.056200754 0.22100002 -3.336674e+38
0.00065839541 0.056200754 0.22100002 -3.3500184e+38
0.0010162079 0.056200754 0.22100002 -3.3500184e+38
0.0013740202 0.056200754 0.22100002 -3.336674e+38
0.0020896452 0.056200754 0.22100002 -3.3101414e+38
0.0024474575 0.056200754 0.22100002 -3.3101414e+38
0.00280527 0.056200754 0.22100002 -3.2836091e+38
0.0031630825 0.056200754 0.22100002 -3.2836091e+38
0.0038787071 0.056200754 0.22100002 -3.2703688e+38
0.0042365193 0.056200754 0.22100002 -3.2703688e+38
0.0045943321 0.056200754 0.22100002 -3.2837132e+38
0.0049521443 0.056200754 0.22100002 -3.2703688e+38
0.0056677694 0.056200754 0.22100002 -3.2570244e+38
0.0060255816 0.056200754 0.22100002 -3.2570244e+38
0.0063833939 0.056200754 0.22100002 -3.2437327e+38
0.0067717098 0.056455053 0.22200002 -3.2437327e+38
0.0074905725 0.056455053 0.22200002 -3.2303883e+38
0.0078500044 0.056455053 0.22200002 -3.2304924e+38
0.0082094353 0.056455053 0.22200002 -3.2304924e+38
0.0085688671 0.056455053 0.22200002 -3.2039597e+38
0.0092877299 0.056455053 0.22200002 -3.1907719e+38
0.0096906181 0.056709353 0.223 -3.1907719e+38
0.010051669 0.056709353 0.223 -3.2041688e+38
0.010412719 0.056709353 0.223 -3.2041688e+38
0.01077377 0.056709353 0.223 -3.1909806e+38
0.011184752 0.05696366 0.22400001 -3.1909806e+38
0.011910091 0.05696366 0.22400001 -3.1776883e+38
0.01227276 0.05696366 0.22400001 -3.1511557e+38
0.01263543 0.05696366 0.22400001 -3.1645001e+38
0.013056126 0.057217959 0.22500001 -3.1379674e+38
0.013420415 0.057217959 0.22500001 -3.1513119e+38
0.013845969 0.057472259 0.22600001 -3.1113831e+38
0.014577785 0.057472259 0.22600001 -3.1248841e+38
0.015009816 0.057726566 0.22700001 -3.1248841e+38
0.015377343 0.057726566 0.22700001 -3.1249362e+38
0.015744869 0.057726566 0.22700001 -3.1249362e+38
0.016183376 0.057980865 0.22800002 -3.1384368e+38
0.016552521 0.057980865 0.22800002 -3.1517812e+38
0.017290814 0.057980865 0.22800002 -3.138697e+38
0.017737415 0.058235165 0.22900002 -3.112165e+38
0.01810818 0.058235165 0.22900002 -3.1521982e+38
0.018478945 0.058235165 0.22900002 -3.1125818e+38
0.019220475 0.058235165 0.22900002 -3.1529795e+38
-0.019165058 0.064236194 0.25100002 nan
-0.019165058 0.064642578 0.25100002 nan
-0.018352289 0.064642578 0.25100002 nan
-0.011819641 0.058461618 0.22700001 nan
-0.011452114 0.058461618 0.22700001 nan
-0.011084587 0.058461618 0.22700001 nan
-0.010303941 0.058204073 0.22600001 nan
-0.0099380333 0.058204073 0.22600001 nan
-0.0092062177 0.058204073 0.22600001 nan
-0.0088011939 0.057946537 0.22500001 nan
-0.0080367373 0.057689 0.22400001 nan
-0.0076740682 0.057689 0.22400001 nan
-0.0073113986 0.057689 0.22400001 nan
-0.0065566571 0.057431456 0.223 nan
-0.0061956067 0.057431456 0.223 nan
-0.0058345562 0.057431456 0.223 nan
-0.0051124552 0.057431456 0.223 nan
-0.0047300979 0.057173915 0.22200002 -3.3902082e+38
-0.0040112347 0.057173915 0.22200002 -3.3768638e+38
-0.0036518034 0.057173915 0.22200002 -3.3768638e+38
-0.003292372 0.057173915 0.22200002 -3.3635194e+38
-0.0029329404 0.057173915 0.22200002 -3.3635194e+38
-0.0022140774 0.057173915 0.22200002 -3.3635194e+38
-0.0018546459 0.057173915 0.22200002 -3.3635194e+38
-0.0014952144 0.057173915 0.22200002 -3.350175e+38
-0.00077635137 0.057173915 0.22200002 -3.350175e+38
-0.00041691991 0.057173915 0.22200002 -3.350175e+38
-5.7488418e-05 0.057173915 0.22200002 -3.3234862e+38
0.00065839541 0.056916378 0.22100002 -3.3234862e+38
0.0010162079 0.056916378 0.22100002 -3.3234862e+38
0.0013740202 0.056916378 0.22100002 -3.2969535e+38
0.0017396689 0.057173915 0.22200002 -3.2836091e+38
0.0024585319 0.057173915 0.22200002 -3.2969535e+38
0.0028179635 0.057173915 0.22200002 -3.2836617e+38
0.0031773949 0.057173915 0.22200002 -3.2836617e+38
0.0035368265 0.057173915 0.22200002 -3.2703173e+38
0.0042556892 0.057173915 0.22200002 -3.2437842e+38
0.0046151206 0.057173915 0.22200002 -3.2571286e+38
0.0049745524 0.057173915 0.22200002 -3.2571286e+38
0.0053339838 0.057173915 0.22200002 -3.2571286e+38
0.0060528466 0.057173915 0.22200002 -3.2437327e+38
0.0064122784 0.057173915 0.22200002 -3.2304924e+38
0.0067717098 0.057173915 0.22200002 -3.2304924e+38
0.0074905725 0.057173915 0.22200002 -3.2304928e+38
0.0078500044 0.057173915 0.22200002 -3.2173045e+38
0.0082094353 0.057173915 0.22200002 -3.2173045e+38
0.0086074658 0.057431456 0.223 -3.1907719e+38
0.0089685163 0.057431456 0.223 -3.2174607e+38
0.0096906181 0.057431456 0.223 -3.17748e+38
0.010051669 0.057431456 0.223 -3.1776362e+38
0.010412719 0.057431456 0.223 -3.1909806e+38
0.010822082 0.057689 0.22400001 -3.1910327e+38
0.011184752 0.057689 0.22400001 -3.1910327e+38
0.011910091 0.057689 0.22400001 -3.1645001e+38
0.01227276 0.057689 0.22400001 -3.1379679e+38
0.012691838 0.057946537 0.22500001 -3.1246234e+38
0.013056126 0.057946537 0.22500001 -3.1380719e+38
0.013480061 0.058204073 0.22600001 -3.1380719e+38
0.013845969 0.058204073 0.22600001 -3.0981949e+38
0.014274762 0.058461618 0.22700001 -3.1248837e+38
0.015009816 0.058461618 0.22700001 -3.1249362e+38
0.015377343 0.058461618 0.22700001 -3.0984036e+38
0.01581423 0.058719158 0.22800002 -3.0984036e+38
0.016183376 0.058719158 0.22800002 -3.1120082e+38
0.016552521 0.058719158 0.22800002 -3.1253526e+38
0.016995884 0.058976695 0.22900002 -3.1121644e+38
0.017442485 0.059234239 0.23 -3.1521976e+38
0.018187255 0.059234239 0.23 -3.1523544e+38
0.018559638 0.059234239 0.23 -3.1395308e+38
0.018932022 0.059234239 0.23 -3.1662196e+38
-0.018352289 0.065048963 0.25100002 nan
-0.017874407 0.064789809 0.25 nan
-0.011502563 0.059088305 0.22800002 nan
-0.011084587 0.058829147 0.22700001 nan
-0.010349534 0.058829147 0.22700001 nan
-0.0099820066 0.058829147 0.22700001 nan
-0.0092062177 0.058569983 0.22600001 nan
-0.0088403095 0.058569983 0.22600001 nan
-0.0084369052 0.058310825 0.22500001 nan
-0.0077083278 0.058310825 0.22500001 nan
-0.0073113986 0.058051668 0.22400001 nan
-0.0065860595 0.058051668 0.22400001 nan
-0.0062233899 0.058051668 0.22400001 nan
-0.0058345562 0.057792503 0.223 nan
-0.0051124552 0.057792503 0.223 nan
-0.0047514047 0.057792503 0.223 -3.3902082e+38
-0.0043903538 0.057792503 0.223 -3.3902082e+38
-0.0036518034 0.057533346 0.22200002 -3.3902082e+38
-0.003292372 0.057533346 0.22200002 -3.3768638e+38
-0.0029329404 0.057533346 0.22200002 -3.3635194e+38
-0.0022140774 0.057533346 0.22200002 -3.3635194e+38
-0.0018546459 0.057533346 0.22200002 -3.3635194e+38
-0.0014952144 0.057533346 0.22200002 -3.3635194e+38
-0.00077635137 0.057533346 0.22200002 -3.3635194e+38
-0.00041691991 0.057533346 0.22200002 -3.350175e+38
-5.7488418e-05 0.057533346 0.22200002 -3.3234862e+38
0.00030194307 0.057533346 0.22200002 -3.350175e+38
0.001020806 0.057533346 0.22200002 -3.350175e+38
0.0013802375 0.057533346 0.22200002 -3.3236424e+38
0.0017396689 0.057533346 0.22200002 -3.2969535e+38
0.0024585319 0.057533346 0.22200002 -3.2969535e+38
0.0028179635 0.057533346 0.22200002 -3.2836617e+38
0.0031773949 0.057533346 0.22200002 -3.2836617e+38
0.0035368265 0.057533346 0.22200002 -3.2570771e+38
0.0042556892 0.057533346 0.22200002 -3.2438368e+38
0.0046151206 0.057533346 0.22200002 -3.2438368e+38
0.0049745524 0.057533346 0.22200002 -3.2438368e+38
0.0053339838 0.057533346 0.22200002 -3.2438368e+38
0.0057190615 0.057792503 0.223 -3.2304924e+38
0.0064411624 0.057792503 0.223 -3.2173041e+38
0.0068022134 0.057792503 0.223 -3.2173041e+38
0.0071632639 0.057792503 0.223 -3.2173045e+38
0.0075243143 0.057792503 0.223 -3.2173045e+38
0.0082464153 0.057792503 0.223 -3.2174607e+38
0.0086074658 0.057792503 0.223 -3.1775315e+38
0.0089685163 0.057792503 0.223 -3.2042203e+38
0.0096906181 0.057792503 0.223 -3.17748e+38
0.010051669 0.057792503 0.223 -3.1776362e+38
0.010459412 0.058051668 0.22400001 -3.1909806e+38
0.010822082 0.058051668 0.22400001 -3.1776883e+38
0.011184752 0.058051668 0.22400001 -3.1910327e+38
0.011910091 0.058051668 0.22400001 -3.1645001e+38
0.012327549 0.058310825 0.22500001 -3.1379679e+38
0.012691838 0.058310825 0.22500001 -3.1379679e+38
0.013114154 0.058569983 0.22600001 -3.1380723e+38
0.013480061 0.058569983 0.22600001 -3.1380723e+38
0.013845969 0.058569983 0.22600001 -3.1115397e+38
0.014274762 0.058829147 0.22700001 -3.1248841e+38
0.015445083 0.059088305 0.22800002 -3.0718194e+38
0.01581423 0.059088305 0.22800002 -3.0985082e+38
0.016183376 0.059088305 0.22800002 -3.1253011e+38
0.016625119 0.059347462 0.22900002 -3.1253011e+38
0.016995884 0.059347462 0.22900002 -3.1521461e+38
0.017442485 0.059606623 0.23 -3.1788349e+38
0.01810818 0.059347462 0.22900002 -3.1791998e+38
-0.011133417 0.059457447 0.22800002 nan
-0.010349534 0.059196673 0.22700001 nan
-0.0099820066 0.059196673 0.22700001 nan
-0.0096144797 0.059196673 0.22700001 nan
-0.0088403095 0.058935892 0.22600001 nan
-0.0084744021 0.058935892 0.22600001 nan
-0.0077083278 0.058675114 0.22500001 nan
-0.0073440392 0.058675114 0.22500001 -3.3903644e+38
-0.0065860595 0.058414336 0.22400001 -3.3903644e+38
-0.0062233899 0.058414336 0.22400001 -3.37702e+38
-0.0058345562 0.058153555 0.223 -3.3769685e+38
-0.0051124552 0.058153555 0.223 nan
-0.0047514047 0.058153555 0.223 -3.3902082e+38
-0.0043903538 0.058153555 0.223 -3.3902082e+38
-0.0036682528 0.058153555 0.223 -3.3902082e+38
-0.0033072024 0.058153555 0.223 -3.3768638e+38
-0.0029461519 0.058153555 0.223 -3.3635194e+38
-0.0025851012 0.058153555 0.223 -3.3768638e+38
-0.0018630002 0.058153555 0.223 -3.3768638e+38
-0.0014952144 0.057892777 0.22200002 -3.3768638e+38
-0.00077635137 0.057892777 0.22200002 -3.3635194e+38
-0.00041691991 0.057892777 0.22200002 -3.3635194e+38
-5.7488418e-05 0.057892777 0.22200002 -3.350175e+38
0.00030194307 0.057892777 0.22200002 -3.350175e+38
0.001020806 0.057892777 0.22200002 -3.350175e+38
0.0013802375 0.057892777 0.22200002 -3.3235908e+38
0.0017396689 0.057892777 0.22200002 -3.296902e+38
0.0024585319 0.057892777 0.22200002 -3.296902e+38
0.0028179635 0.057892777 0.22200002 -3.3103505e+38
0.0031773949 0.057892777 0.22200002 -3.2836617e+38
0.0035368265 0.057892777 0.22200002 -3.2570771e+38
0.0042556892 0.057892777 0.22200002 -3.2438368e+38
0.0046359096 0.058153555 0.223 -3.2705256e+38
0.0049969601 0.058153555 0.223 -3.2438372e+38
0.005358011 0.058153555 0.223 -3.2438372e+38
0.0057190615 0.058153555 0.223 -3.2438372e+38
0.0064411624 0.058153555 0.223 -3.2174607e+38
0.0068022134 0.058153555 0.223 -3.2174607e+38
0.0071632639 0.058153555 0.223 -3.1907719e+38
0.0075580557 0.058414336 0.22400001 -3.2174607e+38
0.0079207253 0.058414336 0.22400001 -3.2174607e+38
0.0086460644 0.058414336 0.22400001 -3.2042203e+38
0.0090087336 0.058414336 0.22400001 -3.2175647e+38
0.0093714036 0.058414336 0.22400001 -3.1776362e+38
0.010096743 0.058414336 0.22400001 -3.1776883e+38
0.010506106 0.058675114 0.22500001 -3.1910327e+38
0.010870394 0.058675114 0.22500001 -3.1645001e+38
0.011234683 0.058675114 0.22500001 -3.1645001e+38
0.011598972 0.058675114 0.22500001 -3.1645001e+38
0.012327549 0.058675114 0.22500001 -3.1247279e+38
0.012748246 0.058935892 0.22600001 -3.1380723e+38
0.013114154 0.058935892 0.22600001 -3.1380723e+38
0.013480061 0.058935892 0.22600001 -3.1514167e+38
0.013907235 0.059196673 0.22700001 -3.1115918e+38
0.014274762 0.059196673 0.22700001 -3.1115918e+38
0.015445083 0.059457447 0.22800002 -3.0985082e+38
0.01581423 0.059457447 0.22800002 -3.125197e+38
0.016254354 0.059718225 0.22900002 -3.1253011e+38
0.016625119 0.059718225 0.22900002 -3.1386455e+38
0.017070102 0.059979007 0.23 -3.1521986e+38
0.017442485 0.059979007 0.23 -3.1788874e+38
-0.019571442 0.065861732 0.25100002 nan
-0.019165058 0.065861732 0.25100002 nan
-0.018279172 0.065599337 0.25 nan
-0.017874407 0.065599337 0.25 nan
-0.0073440392 0.059039403 0.22500001 -3.3903644e+38
-0.0069797505 0.059039403 0.22500001 nan
-0.0062233899 0.058777008 0.22400001 -3.3903644e+38
-0.0058607203 0.058777008 0.22400001 -3.3769685e+38
-0.0054980502 0.058777008 0.22400001 -3.3769685e+38
-0.0047727111 0.058777008 0.22400001 -3.37702e+38
-0.0043903538 0.058514606 0.223 -3.3636756e+38
-0.0036682528 0.058514606 0.223 -3.3636756e+38
-0.0033072024 0.058514606 0.223 -3.3636756e+38
-0.0029461519 0.058514606 0.223 -3.3369868e+38
-0.0025851012 0.058514606 0.223 -3.3503312e+38
-0.0018630002 0.058514606 0.223 -3.3503312e+38
-0.0015019496 0.058514606 0.223 -3.3503312e+38
-0.001140899 0.058514606 0.223 -3.3369868e+38
-0.00041879792 0.058514606 0.223 -3.3369868e+38
-5.7747373e-05 0.058514606 0.223 -3.3369352e+38
0.00030330318 0.058514606 0.223 -3.3369352e+38
0.00066435372 0.058514606 0.223 -3.3235908e+38
0.0013864548 0.058514606 0.223 -3.3235908e+38
0.0017475053 0.058514606 0.223 -3.296902e+38
0.0021085558 0.058514606 0.223 -3.3235908e+38
0.0024696065 0.058514606 0.223 -3.296902e+38
0.0031917074 0.058514606 0.223 -3.2836617e+38
0.0035527581 0.058514606 0.223 -3.2570771e+38
0.0039138086 0.058514606 0.223 -3.2837659e+38
0.0046359096 0.058514606 0.223 -3.2705256e+38
0.0049969601 0.058514606 0.223 -3.2438372e+38
0.005358011 0.058514606 0.223 -3.2438372e+38
0.0057190615 0.058514606 0.223 -3.2173045e+38
0.0061073769 0.058777008 0.22400001 -3.2439933e+38
0.0068327161 0.058777008 0.22400001 -3.2308051e+38
0.0071953856 0.058777008 0.22400001 -3.2174607e+38
0.0075580557 0.058777008 0.22400001 -3.2308051e+38
0.0079207253 0.058777008 0.22400001 -3.2309092e+38
0.0086460644 0.058777008 0.22400001 -3.1910321e+38
0.0090087336 0.058777008 0.22400001 -3.1910321e+38
0.0093714036 0.058777008 0.22400001 -3.1909806e+38
0.0097775282 0.059039403 0.22500001 -3.1776362e+38
0.010506106 0.059039403 0.22500001 -3.1645001e+38
0.010870394 0.059039403 0.22500001 -3.1645001e+38
0.02017352 0.065599337 0.25 -3.1797729e+38
0.020578286 0.065599337 0.25 -3.2198062e+38
-0.019493468 0.066004105 0.25 nan
-0.018683938 0.066004105 0.25 nan
-0.018279172 0.066004105 0.25 nan
-0.017874407 0.066004105 0.25 nan
-0.017469643 0.066004105 0.25 nan
-0.010764272 0.06019574 0.22800002 nan
-0.0099820066 0.059931725 0.22700001 nan
-0.0096144797 0.059931725 0.22700001 nan
-0.0088794269 0.059931725 0.22700001 nan
-0.0084744021 0.059667706 0.22600001 nan
-0.0081084939 0.059667706 0.22600001 nan
0.011284616 0.059667706 0.22600001 -3.1778445e+38
0.011650523 0.059667706 0.22600001 -3.1513123e+38
0.01201643 0.059667706 0.22600001 -3.1513123e+38
0.016625119 0.060459755 0.22900002 -3.1521465e+38
0.019286534 0.065740086 0.24900001 -3.1661156e+38
0.020092824 0.065740086 0.24900001 -3.179877e+38
0.020578286 0.066004105 0.25 -3.2332546e+38
-0.017874407 0.066408865 0.25 nan
-0.016996618 0.06614323 0.24900001 nan
-0.016593473 0.06614323 0.24900001 nan
-0.015723778 0.065877594 0.24800001 nan
-0.0099820066 0.060299251 0.22700001 nan
-0.0096144797 0.060299251 0.22700001 nan
-0.0088794269 0.060299251 0.22700001 nan
-0.0085119 0.060299251 0.22700001 -3.3905212e+38
-0.0081084939 0.060033612 0.22600001 -3.3905212e+38
-0.0073440392 0.05976798 0.22500001 -3.3771768e+38
-0.0069797505 0.05976798 0.22500001 -3.3771768e+38
-0.0062511726 0.05976798 0.22500001 nan
-0.0058868839 0.05976798 0.22500001 -3.3770725e+38
-0.0054980502 0.059502345 0.22400001 -3.3770725e+38
-0.0047727111 0.059502345 0.22400001 -3.3637281e+38
-0.0044100415 0.059502345 0.22400001 -3.3637796e+38
-0.0040473719 0.059502345 0.22400001 -3.3637796e+38
-0.0033220327 0.059502345 0.22400001 -3.3504352e+38
-0.0029593632 0.059502345 0.22400001 -3.3370908e+38
-0.0025851012 0.059236705 0.223 -3.3370908e+38
-0.0018630002 0.059236705 0.223 -3.3636756e+38
-0.0015019496 0.059236705 0.223 -3.3503312e+38
-0.001140899 0.059236705 0.223 -3.3369868e+38
-0.00041879792 0.059236705 0.223 -3.3369352e+38
-5.7747373e-05 0.059236705 0.223 -3.3369352e+38
0.00030330318 0.059236705 0.223 -3.3369352e+38
0.00066435372 0.059236705 0.223 -3.3236949e+38
0.0013864548 0.059236705 0.223 -3.3103505e+38
0.0017475053 0.059236705 0.223 -3.3103505e+38
0.0021085558 0.059236705 0.223 -3.3236949e+38
0.0024696065 0.059236705 0.223 -3.3103505e+38
0.0031917074 0.059236705 0.223 -3.2837659e+38
0.0035527581 0.059236705 0.223 -3.270526e+38
0.0039138086 0.059236705 0.223 -3.270526e+38
0.0046359096 0.059236705 0.223 -3.2573373e+38
0.0049969601 0.059236705 0.223 -3.2439933e+38
0.0053820377 0.059502345 0.22400001 -3.2439933e+38
0.0057447073 0.059502345 0.22400001 -3.2174607e+38
0.0061073769 0.059502345 0.22400001 -3.2308051e+38
0.0068327161 0.059502345 0.22400001 -3.2308576e+38
0.0071953856 0.059502345 0.22400001 -3.2175132e+38
0.0075580557 0.059502345 0.22400001 -3.2308576e+38
0.0079207253 0.059502345 0.22400001 -3.2176694e+38
0.0083203735 0.05976798 0.22500001 -3.204325e+38
0.0090489509 0.05976798 0.22500001 -3.1910327e+38
0.0094132395 0.05976798 0.22500001 -3.1910327e+38
0.0097775282 0.05976798 0.22500001 -3.1910327e+38
0.010506106 0.05976798 0.22500001 -3.1778445e+38
0.011284616 0.060033612 0.22600001 -3.1513119e+38
0.011650523 0.060033612 0.22600001 -3.1513123e+38
0.012069601 0.060299251 0.22700001 -3.1513123e+38
0.017602969 0.065877594 0.24800001 -3.1521986e+38
0.018004496 0.065877594 0.24800001 -3.165543e+38
0.018406024 0.065877594 0.24800001 -3.1391665e+38
0.018883387 0.06614323 0.24900001 -3.1925442e+38
0.019286534 0.06614323 0.24900001 -3.1929084e+38
0.020092824 0.06614323 0.24900001 -3.1800847e+38
0.020495972 0.06614323 0.24900001 -3.2468067e+38
-0.015723778 0.066279121 0.24800001 nan
-0.01532225 0.066279121 0.24800001 nan
-0.0088794269 0.060666781 0.22700001 nan
-0.0085119 0.060666781 0.22700001 nan
-0.0081084939 0.060399521 0.22600001 nan
-0.0077768462 0.060666781 0.22700001 -3.3905212e+38
-0.0069797505 0.060132269 0.22500001 -3.3771768e+38
-0.0062511726 0.060132269 0.22500001 -3.3771768e+38
-0.0058868839 0.060132269 0.22500001 -3.3770725e+38
-0.0055225953 0.060132269 0.22500001 nan
-0.0047727111 0.059865016 0.22400001 -3.3770725e+38
-0.0044100415 0.059865016 0.22400001 -3.3637281e+38
-0.0040473719 0.059865016 0.22400001 -3.3637281e+38
-0.0033220327 0.059865016 0.22400001 -3.3637281e+38
-0.0029593632 0.059865016 0.22400001 -3.3504352e+38
-0.0025966936 0.059865016 0.22400001 -3.3370908e+38
-0.002234024 0.059865016 0.22400001 -3.3504352e+38
-0.0015086847 0.059865016 0.22400001 -3.3504352e+38
-0.0011460151 0.059865016 0.22400001 -3.3370908e+38
-0.00078334555 0.059865016 0.22400001 -3.3370393e+38
-0.00042067593 0.059865016 0.22400001 -3.3370393e+38
0.00030466329 0.059865016 0.22400001 -3.3236949e+38
0.0006673329 0.059865016 0.22400001 -3.3104547e+38
0.0010300025 0.059865016 0.22400001 -3.2971103e+38
0.0017475053 0.059597757 0.223 -3.2971103e+38
0.0021085558 0.059597757 0.223 -3.2971103e+38
0.0024696065 0.059597757 0.223 -3.2971103e+38
0.0028433506 0.059865016 0.22400001 -3.2705256e+38
0.0035686898 0.059865016 0.22400001 -3.270526e+38
0.0039313594 0.059865016 0.22400001 -3.270526e+38
0.004294029 0.059865016 0.22400001 -3.2573377e+38
0.0050193681 0.059865016 0.22400001 -3.2439929e+38
0.0053820377 0.059865016 0.22400001 -3.2573373e+38
0.0057447073 0.059865016 0.22400001 -3.2308051e+38
0.0061073769 0.059865016 0.22400001 -3.2441495e+38
0.0068327161 0.059865016 0.22400001 -3.204325e+38
0.0071953856 0.059865016 0.22400001 -3.204325e+38
0.0075917966 0.060132269 0.22500001 -3.2176694e+38
0.0079560848 0.060132269 0.22500001 -3.2176694e+38
0.0083203735 0.060132269 0.22500001 -3.2176694e+38
0.0090489509 0.060132269 0.22500001 -3.2043771e+38
0.010186892 0.060399521 0.22600001 -3.1645005e+38
0.0105528 0.060399521 0.22600001 -3.1778449e+38
0.011284616 0.060399521 0.22600001 -3.1646567e+38
0.011702074 0.060666781 0.22700001 -3.1380719e+38
0.012069601 0.060666781 0.22700001 -3.1380719e+38
0.015867855 0.065744616 0.24600001 -3.1118526e+38
0.016332265 0.066011868 0.24700001 -3.125197e+38
0.017132081 0.066011868 0.24700001 -3.1521465e+38
0.017602969 0.066279121 0.24800001 -3.1523548e+38
0.018004496 0.066279121 0.24800001 -3.1656992e+38
0.018406024 0.066279121 0.24800001 -3.1392706e+38
-0.018609203 0.066949524 0.24900001 nan
-0.018206056 0.066949524 0.24900001 nan
-0.016996618 0.066949524 0.24900001 nan
-0.016593473 0.066949524 0.24900001 nan
-0.0077768462 0.061034307 0.22700001 nan
-0.0069797505 0.060496558 0.22500001 -3.3905212e+38
-0.0062511726 0.060496558 0.22500001 -3.3771768e+38
-0.0058868839 0.060496558 0.22500001 -3.3637281e+38
-0.0051583066 0.060496558 0.22500001 -3.3770725e+38
-0.0044297292 0.060496558 0.22500001 -3.3770725e+38
-0.0040654405 0.060496558 0.22500001 -3.3770725e+38
-0.0033220327 0.060227685 0.22400001 -3.3637281e+38
-0.0029593632 0.060227685 0.22400001 -3.3504352e+38
-0.0025966936 0.060227685 0.22400001 -3.3504352e+38
-0.002234024 0.060227685 0.22400001 -3.3371951e+38
-0.0015086847 0.060227685 0.22400001 -3.3371951e+38
-0.0011460151 0.060227685 0.22400001 -3.3238507e+38
-0.00078334555 0.060227685 0.22400001 -3.3237991e+38
-0.00042067593 0.060227685 0.22400001 -3.3104547e+38
0.00030466329 0.060227685 0.22400001 -3.3104547e+38
0.0006673329 0.060227685 0.22400001 -3.3104547e+38
0.0010300025 0.060227685 0.22400001 -3.3104547e+38
0.0017553418 0.060227685 0.22400001 -3.2971103e+38
0.0021180112 0.060227685 0.22400001 -3.3104547e+38
0.0024806808 0.060227685 0.22400001 -3.2971103e+38
0.0028433506 0.060227685 0.22400001 -3.28387e+38
0.0035686898 0.060227685 0.22400001 -3.2573377e+38
0.0039313594 0.060227685 0.22400001 -3.2573377e+38
0.004294029 0.060227685 0.22400001 -3.2706821e+38
0.0050193681 0.060227685 0.22400001 -3.2308047e+38
0.0053820377 0.060227685 0.22400001 -3.2308047e+38
0.0057703536 0.060496558 0.22500001 -3.2175647e+38
0.0061346423 0.060496558 0.22500001 -3.2309092e+38
0.006498931 0.060496558 0.22500001 -3.204325e+38
0.0072275079 0.060496558 0.22500001 -3.204325e+38
0.0075917966 0.060496558 0.22500001 -3.2176694e+38
0.0079560848 0.060496558 0.22500001 -3.2043771e+38
0.0083203735 0.060496558 0.22500001 -3.2043771e+38
0.0087232618 0.06076543 0.22600001 -3.2043771e+38
0.010186892 0.06076543 0.22600001 -3.1645005e+38
0.0105528 0.06076543 0.22600001 -3.1778449e+38
0.01096702 0.061034307 0.22700001 -3.1646567e+38
0.011702074 0.061034307 0.22700001 -3.1514163e+38
0.012069601 0.061034307 0.22700001 -3.1380719e+38
0.018883387 0.066949524 0.24900001 -3.2326299e+38
0.019286534 0.066949524 0.24900001 -3.1797729e+38
-0.018609203 0.067352675 0.24900001 nan
-0.018206056 0.067352675 0.24900001 nan
-0.016996618 0.067352675 0.24900001 nan
-0.016593473 0.067352675 0.24900001 nan
-0.016190326 0.067352675 0.24900001 nan
-0.015384034 0.067352675 0.24900001 nan
-0.014920724 0.067082174 0.24800001 nan
-0.014060742 0.066811681 0.24700001 nan
0.014613342 0.066270694 0.245 -3.1649694e+38
0.015010011 0.066270694 0.245 -3.1120082e+38
0.015469566 0.066541195 0.24600001 -3.1253526e+38
0.015932357 0.066811681 0.24700001 -3.1255088e+38
0.016332265 0.066811681 0.24700001 -3.1521976e+38
0.017132081 0.066811681 0.24700001 -3.1524059e+38
0.017602969 0.067082174 0.24800001 -3.165959e+38
0.018004496 0.067082174 0.24800001 -3.1926478e+38
0.018406024 0.067082174 0.24800001 -3.1927529e+38
0.018807551 0.067082174 0.24800001 -3.2327861e+38
0.019610604 0.067082174 0.24800001 -3.2731838e+38
0.020495972 0.067352675 0.24900001 -3.1936374e+38
-0.015723778 0.067483701 0.24800001 nan
-0.01532225 0.067483701 0.24800001 nan
-0.014920724 0.067483701 0.24800001 nan
-0.014519196 0.067483701 0.24800001 nan
-0.013660834 0.067211591 0.24700001 nan
-0.013207238 0.066939481 0.24600001 nan
-0.0066448632 0.061497245 0.22600001 -3.3772808e+38
-0.0051583066 0.061225135 0.22500001 -3.3771768e+38
-0.0044297292 0.061225135 0.22500001 -3.3771768e+38
-0.0040654405 0.061225135 0.22500001 -3.350488e+38
-0.003701152 0.061225135 0.22500001 -3.3371435e+38
-0.0029725747 0.061225135 0.22500001 -3.3371435e+38
-0.002608286 0.061225135 0.22500001 -3.3371435e+38
-0.0022439973 0.061225135 0.22500001 -3.3371435e+38
-0.0015086847 0.060953025 0.22400001 -3.3371435e+38
-0.0011460151 0.060953025 0.22400001 -3.3237991e+38
-0.00078334555 0.060953025 0.22400001 -3.3237991e+38
-0.00042067593 0.060953025 0.22400001 -3.3237991e+38
0.00030466329 0.060953025 0.22400001 -3.3237991e+38
0.0006673329 0.060953025 0.22400001 -3.3104547e+38
0.0010300025 0.060953025 0.22400001 -3.3237991e+38
0.0017553418 0.060953025 0.22400001 -3.3237991e+38
0.0021180112 0.060953025 0.22400001 -3.2972144e+38
0.0024806808 0.060953025 0.22400001 -3.2972144e+38
0.0028433506 0.060953025 0.22400001 -3.2706821e+38
0.0032203328 0.061225135 0.22500001 -3.2840266e+38
0.0043131988 0.061225135 0.22500001 -3.2574939e+38
0.0046774875 0.061225135 0.22500001 -3.2574939e+38
0.0050417762 0.061225135 0.22500001 -3.2309092e+38
0.0057703536 0.061225135 0.22500001 -3.2442536e+38
0.0061346423 0.061225135 0.22500001 -3.2309092e+38
0.006498931 0.061225135 0.22500001 -3.204325e+38
0.0068937228 0.061497245 0.22600001 -3.2176694e+38
0.0076255384 0.061497245 0.22600001 -3.2176694e+38
0.0079914462 0.061497245 0.22600001 -3.2043771e+38
0.0083573535 0.061497245 0.22600001 -3.2043771e+38
0.0094550764 0.061497245 0.22600001 -3.1778449e+38
0.0098209847 0.061497245 0.22600001 -3.1645005e+38
0.010186892 0.061497245 0.22600001 -3.1513123e+38
0.010599493 0.061769359 0.22700001 -3.1513123e+38
0.01096702 0.061769359 0.22700001 -3.1514163e+38
0.011702074 0.061769359 0.22700001 -3.1248837e+38
0.014613342 0.066667363 0.245 -3.1517812e+38
0.015071277 0.066939481 0.24600001 -3.1253526e+38
0.015469566 0.066939481 0.24600001 -3.138697e+38
0.015867855 0.066939481 0.24600001 -3.1389053e+38
0.016332265 0.067211591 0.24700001 -3.1522497e+38
0.017132081 0.067211591 0.24700001 -3.1525105e+38
0.017531989 0.067211591 0.24700001 -3.1661156e+38
0.018004496 0.067483701 0.24800001 -3.17946e+38
0.018406024 0.067483701 0.24800001 -3.2195457e+38
0.018807551 0.067483701 0.24800001 -3.2328901e+38
0.019610604 0.067483701 0.24800001 -3.2599434e+38
0.02041366 0.067483701 0.24800001 -3.1404159e+38
-0.017329885 0.067885228 0.24800001 nan
-0.015723778 0.067885228 0.24800001 nan
-0.01532225 0.067885228 0.24800001 nan
-0.014920724 0.067885228 0.24800001 -3.3913554e+38
-0.013660834 0.067611501 0.24700001 nan
-0.013260927 0.067611501 0.24700001 nan
-0.012861019 0.067611501 0.24700001 nan
-0.012012372 0.067337774 0.24600001 nan
-0.011614082 0.067337774 0.24600001 -3.3775936e+38
-0.0051812325 0.06186315 0.22600001 -3.3771768e+38
-0.0048153247 0.06186315 0.22600001 -3.3771768e+38
-0.0040654405 0.061589424 0.22500001 -3.3771768e+38
-0.003701152 0.061589424 0.22500001 -3.350488e+38
-0.0029725747 0.061589424 0.22500001 -3.3371435e+38
-0.002608286 0.061589424 0.22500001 -3.3371435e+38
-0.0022439973 0.061589424 0.22500001 -3.3371435e+38
-0.0018797086 0.061589424 0.22500001 -3.3371435e+38
-0.0011511312 0.061589424 0.22500001 -3.3237991e+38
-0.0007868426 0.061589424 0.22500001 -3.3371435e+38
-0.00042255395 0.061589424 0.22500001 -3.3237991e+38
-5.8265286e-05 0.061589424 0.22500001 -3.3237991e+38
0.00067031203 0.061589424 0.22500001 -3.3105588e+38
0.0010346008 0.061589424 0.22500001 -3.3105588e+38
0.0013988895 0.061589424 0.22500001 -3.3105588e+38
0.0021274667 0.061589424 0.22500001 -3.2972148e+38
0.0024917554 0.061589424 0.22500001 -3.3105592e+38
0.0028560441 0.061589424 0.22500001 -3.2840266e+38
0.0032203328 0.061589424 0.22500001 -3.2840266e+38
0.0043131988 0.061589424 0.22500001 -3.244202e+38
0.0046982765 0.06186315 0.22600001 -3.244202e+38
0.0050641843 0.06186315 0.22600001 -3.2442536e+38
0.0054300916 0.06186315 0.22600001 -3.2442536e+38
0.0061619072 0.06186315 0.22600001 -3.2043765e+38
0.006527815 0.06186315 0.22600001 -3.204325e+38
0.0068937228 0.06186315 0.22600001 -3.2176694e+38
0.0076255384 0.06186315 0.22600001 -3.2176694e+38
0.0079914462 0.06186315 0.22600001 -3.2043771e+38
0.0083573535 0.06186315 0.22600001 -3.2043771e+38
0.0087618595 0.062136889 0.22700001 -3.1911893e+38
0.0091293864 0.062136889 0.22700001 -3.1911893e+38
0.0098644402 0.062136889 0.22700001 -3.1645005e+38
0.010231967 0.062136889 0.22700001 -3.1646567e+38
0.010599493 0.062136889 0.22700001 -3.1513123e+38
0.011015333 0.062410615 0.22800002 -3.1514163e+38
0.012973492 0.066790305 0.24400002 -3.1649169e+38
0.013423332 0.067064039 0.245 -3.151625e+38
0.013820002 0.067064039 0.245 -3.151625e+38
0.014274699 0.067337774 0.24600001 -3.1517812e+38
0.015071277 0.067337774 0.24600001 -3.1121644e+38
0.015469566 0.067337774 0.24600001 -3.1521976e+38
0.015867855 0.067337774 0.24600001 -3.1257171e+38
0.016332265 0.067611501 0.24700001 -3.1390615e+38
0.017132081 0.067611501 0.24700001 -3.1925438e+38
0.017531989 0.067611501 0.24700001 -3.1661681e+38
0.017931897 0.067611501 0.24700001 -3.2195457e+38
0.018406024 0.067885228 0.24800001 -3.2064618e+38
0.018807551 0.067885228 0.24800001 -3.2198062e+38
0.019610604 0.067885228 0.24800001 -3.2332546e+38
-0.0048153247 0.06222906 0.22600001 -3.3771768e+38
-0.0040654405 0.061953712 0.22500001 -3.3771768e+38
-0.003701152 0.061953712 0.22500001 -3.350488e+38
-0.0029725747 0.061953712 0.22500001 -3.3371435e+38
-0.002608286 0.061953712 0.22500001 -3.3371435e+38
-0.0022439973 0.061953712 0.22500001 -3.3371435e+38
-0.0018797086 0.061953712 0.22500001 -3.3371435e+38
-0.0011511312 0.061953712 0.22500001 -3.3237991e+38
-0.0007868426 0.061953712 0.22500001 -3.3371435e+38
-0.00042255395 0.061953712 0.22500001 -3.3371435e+38
-5.8265286e-05 0.061953712 0.22500001 -3.3239032e+38
0.00067031203 0.061953712 0.22500001 -3.3105588e+38
0.0010346008 0.061953712 0.22500001 -3.3105588e+38
0.0013988895 0.061953712 0.22500001 -3.3105588e+38
0.0021274667 0.061953712 0.22500001 -3.2840266e+38
0.0024917554 0.061953712 0.22500001 -3.2840266e+38
0.0043323687 0.06222906 0.22600001 -3.244202e+38
0.0046982765 0.06222906 0.22600001 -3.244202e+38
0.0050641843 0.06222906 0.22600001 -3.2442536e+38
0.0054300916 0.06222906 0.22600001 -3.2442536e+38
0.0061619072 0.06222906 0.22600001 -3.2177209e+38
0.006527815 0.06222906 0.22600001 -3.2176694e+38
0.0068937228 0.06222906 0.22600001 -3.2176694e+38
0.0087618595 0.062504411 0.22700001 -3.1778449e+38
-0.015260466 0.068411313 0.24700001 nan
-0.014860558 0.068411313 0.24700001 nan
-0.014060742 0.068411313 0.24700001 -3.378011e+38
-0.013660834 0.068411313 0.24700001 nan
-0.013260927 0.068411313 0.24700001 nan
-0.012861019 0.068411313 0.24700001 nan
-0.012061203 0.068411313 0.24700001 nan
-0.011614082 0.068134345 0.24600001 -3.3909905e+38
-0.010419216 0.068134345 0.24600001 -3.3907818e+38
-0.010020927 0.068134345 0.24600001 -3.3774374e+38
-0.0037176015 0.062594965 0.22600001 -3.3639364e+38
-0.0029725747 0.062318001 0.22500001 -3.3372476e+38
-0.002608286 0.062318001 0.22500001 -3.3239032e+38
-0.0022439973 0.062318001 0.22500001 -3.3239032e+38
-0.0018797086 0.062318001 0.22500001 -3.3239032e+38
-0.0011511312 0.062318001 0.22500001 -3.3239032e+38
-0.0007868426 0.062318001 0.22500001 -3.337248e+38
-0.00042255395 0.062318001 0.22500001 -3.3239036e+38
-5.8265286e-05 0.062318001 0.22500001 -3.3239036e+38
0.00067031203 0.062318001 0.22500001 -3.3105588e+38
0.0010346008 0.062318001 0.22500001 -3.3105588e+38
0.0013988895 0.062318001 0.22500001 -3.2840261e+38
0.0021274667 0.062318001 0.22500001 -3.2574939e+38
0.00250283 0.062594965 0.22600001 -3.2574939e+38
0.004719065 0.06287194 0.22700001 -3.244202e+38
0.0050865919 0.06287194 0.22700001 -3.2176694e+38
0.0054541188 0.06287194 0.22700001 -3.2176694e+38
0.0058216457 0.06287194 0.22700001 -3.2310138e+38
0.0065566991 0.06287194 0.22700001 -3.2043771e+38
0.0069242255 0.06287194 0.22700001 -3.2043771e+38
0.012578441 0.067580409 0.24400002 -3.1250924e+38
0.013026661 0.067857377 0.245 -3.1384368e+38
0.013423332 0.067857377 0.245 -3.1118526e+38
0.013820002 0.067857377 0.245 -3.1385414e+38
0.014274699 0.068134345 0.24600001 -3.1519899e+38
0.015071277 0.068134345 0.24600001 -3.1123216e+38
0.015469566 0.068134345 0.24600001 -3.1390104e+38
0.015867855 0.068134345 0.24600001 -3.1391665e+38
0.016664432 0.068134345 0.24600001 -3.1528237e+38
0.017132081 0.068411313 0.24700001 -3.2195457e+38
0.017531989 0.068411313 0.24700001 -3.1797733e+38
0.017931897 0.068411313 0.24700001 -3.2198066e+38
-0.016060283 0.068811223 0.24700001 nan
-0.015660375 0.068811223 0.24700001 -3.3790014e+38
-0.015260466 0.068811223 0.24700001 nan
-0.014860558 0.068811223 0.24700001 -3.3918243e+38
-0.014060742 0.068811223 0.24700001 -3.3915116e+38
-0.013660834 0.068811223 0.24700001 -3.3911988e+38
-0.013260927 0.068811223 0.24700001 -3.3911988e+38
-0.012861019 0.068811223 0.24700001 nan
-0.012061203 0.068811223 0.24700001 nan
-0.011614082 0.068532638 0.24600001 nan
-0.010817504 0.068532638 0.24600001 -3.3643017e+38
-0.010419216 0.068532638 0.24600001 -3.3642492e+38
-0.010020927 0.068532638 0.24600001 -3.3642492e+38
-0.0091868518 0.068254046 0.245 -3.3907818e+38
0.011393289 0.067975461 0.24400002 -3.1647607e+38
0.012183391 0.067975461 0.24400002 -3.151625e+38
0.012629991 0.068254046 0.245 -3.0985082e+38
0.013026661 0.068254046 0.245 -3.1118526e+38
0.014613342 0.068254046 0.245 -3.1654909e+38
0.015867855 0.068532638 0.24600001 -3.1659079e+38
0.016664432 0.068532638 0.24600001 -3.1929616e+38
0.017062722 0.068532638 0.24600001 -3.2329948e+38
0.017531989 0.068811223 0.24700001 -3.1932218e+38
0.017931897 0.068811223 0.24700001 -3.2065662e+38
-0.015198683 0.068930924 0.24600001 nan
-0.014402105 0.068930924 0.24600001 -3.3784274e+38
-0.014003816 0.068930924 0.24600001 -3.3784274e+38
-0.013605528 0.068930924 0.24600001 -3.391355e+38
-0.013207238 0.068930924 0.24600001 -3.3780106e+38
-0.01241066 0.068930924 0.24600001 -3.3778544e+38
-0.012012372 0.068930924 0.24600001 -3.3911467e+38
-0.011614082 0.068930924 0.24600001 -3.3911467e+38
-0.010817504 0.068930924 0.24600001 -3.3909905e+38
-0.0091868518 0.068650715 0.245 -3.3642492e+38
-0.0087901819 0.068650715 0.245 -3.3907818e+38
-0.0083935121 0.068650715 0.245 -3.3774374e+38
-0.007569151 0.068370514 0.24400002 -3.364093e+38
0.0036164848 0.063606992 0.22700001 -3.244202e+38
0.0039840117 0.063606992 0.22700001 -3.244202e+38
0.0043707085 0.063887201 0.22800002 -3.244202e+38
0.005109 0.063887201 0.22800002 -3.2176694e+38
0.005478146 0.063887201 0.22800002 -3.2176694e+38
0.0058472916 0.063887201 0.22800002 -3.2177215e+38
0.0062164376 0.063887201 0.22800002 -3.2177215e+38
0.009772867 0.068090305 0.24300002 -3.1646563e+38
0.010208136 0.068370514 0.24400002 -3.1514163e+38
0.010603187 0.068370514 0.24400002 -3.1514163e+38
0.010998238 0.068370514 0.24400002 -3.1382281e+38
0.011393289 0.068370514 0.24400002 -3.1382281e+38
0.012183391 0.068370514 0.24400002 -3.1649694e+38
0.014613342 0.068650715 0.245 -3.1922318e+38
0.015867855 0.068930924 0.24600001 -3.1661685e+38
0.016664432 0.068930924 0.24600001 -3.1931182e+38
-0.015198683 0.069329217 0.24600001 nan
-0.014402105 0.069329217 0.24600001 nan
-0.014003816 0.069329217 0.24600001 -3.3784799e+38
-0.013605528 0.069329217 0.24600001 -3.3916152e+38
-0.013207238 0.069329217 0.24600001 -3.351582e+38
-0.01241066 0.069329217 0.24600001 -3.3780106e+38
-0.012012372 0.069329217 0.24600001 -3.3911467e+38
-0.011614082 0.069329217 0.24600001 -3.3911467e+38
-0.010817504 0.069329217 0.24600001 -3.3778023e+38
-0.010419216 0.069329217 0.24600001 -3.3644579e+38
-0.0099801915 0.069047384 0.245 -3.3244247e+38
-0.0091868518 0.069047384 0.245 -3.3643532e+38
-0.0087901819 0.069047384 0.245 -3.3642492e+38
-0.0083935121 0.069047384 0.245 -3.3642492e+38
-0.007569151 0.068765558 0.24400002 -3.3375599e+38
-0.0071741003 0.068765558 0.24400002 -3.3509044e+38
0.0032489579 0.063974522 0.22700001 -3.2575464e+38
0.0036324165 0.064256348 0.22800002 -3.2575464e+38
0.0040015625 0.064256348 0.22800002 -3.244202e+38
0.0043707085 0.064256348 0.22800002 -3.2575464e+38
0.005109 0.064256348 0.22800002 -3.2176694e+38
0.005478146 0.064256348 0.22800002 -3.2176694e+38
0.0058472916 0.064256348 0.22800002 -3.2310659e+38
0.0062164376 0.064256348 0.22800002 -3.2177215e+38
0.0085925721 0.06848374 0.24300002 -3.1647603e+38
0.0089860037 0.06848374 0.24300002 -3.1647603e+38
0.0094180349 0.068765558 0.24400002 -3.1647603e+38
0.010208136 0.068765558 0.24400002 -3.1647607e+38
0.010603187 0.068765558 0.24400002 -3.1647607e+38
0.010998238 0.068765558 0.24400002 -3.1249358e+38
0.011393289 0.068765558 0.24400002 -3.164969e+38
0.012183391 0.068765558 0.24400002 -3.1384368e+38
0.014613342 0.069047384 0.245 -3.2057324e+38
0.015010011 0.069047384 0.245 -3.1527197e+38
0.015406682 0.069047384 0.245 -3.1927529e+38
0.016200021 0.069047384 0.245 -3.206306e+38
-0.014285016 0.069555663 0.24400002 nan
-0.01394689 0.069840722 0.245 -3.3656566e+38
-0.01355022 0.069840722 0.245 -3.3652913e+38
-0.012756881 0.069840722 0.245 -3.3650826e+38
-0.012360211 0.069840722 0.245 -3.3250493e+38
-0.011963541 0.069840722 0.245 -3.3648223e+38
-0.011170201 0.069840722 0.245 -3.3647177e+38
-0.010773531 0.069840722 0.245 -3.3513733e+38
-0.010376861 0.069840722 0.245 -3.3513733e+38
-0.0099801915 0.069840722 0.245 -3.3380289e+38
-0.0091868518 0.069840722 0.245 -3.3512171e+38
-0.0087901819 0.069840722 0.245 -3.3378206e+38
-0.0083935121 0.069840722 0.245 -3.3378206e+38
-0.0076001724 0.069840722 0.245 -3.337664e+38
-0.0071741003 0.069555663 0.24400002 -3.337664e+38
-0.0067790491 0.069555663 0.24400002 -3.337664e+38
-0.0059889476 0.069555663 0.24400002 -3.337664e+38
-0.0055938968 0.069555663 0.24400002 -3.3243196e+38
-0.0051988461 0.069555663 0.24400002 -3.3109752e+38
-0.0043906756 0.069270603 0.24300002 -3.3242155e+38
-0.0039972439 0.069270603 0.24300002 -3.3242155e+38
-0.0036038123 0.069270603 0.24300002 -3.3242155e+38
-0.0028169488 0.069270603 0.24300002 -3.3108711e+38
0.0085925721 0.069270603 0.24300002 -3.1649165e+38
0.0089860037 0.069270603 0.24300002 -3.1649165e+38
0.0094180349 0.069555663 0.24400002 -3.164969e+38
0.010208136 0.069555663 0.24400002 -3.1384364e+38
0.010603187 0.069555663 0.24400002 -3.1517808e+38
0.010998238 0.069555663 0.24400002 -3.1517812e+38
0.011393289 0.069555663 0.24400002 -3.1517812e+38
0.012183391 0.069555663 0.24400002 -3.1652818e+38
0.012578441 0.069555663 0.24400002 -3.1920231e+38
0.012973492 0.069555663 0.24400002 -3.1920231e+38
0.014613342 0.069840722 0.245 -3.2061488e+38
0.015010011 0.069840722 0.245 -3.1663239e+38
0.015406682 0.069840722 0.245 -3.2197015e+38
0.016200021 0.069840722 0.245 -3.1931178e+38
0.016993361 0.069840722 0.245 -2.9933163e+38
-0.014285016 0.069950715 0.24400002 nan
-0.013889965 0.069950715 0.24400002 nan
-0.013099862 0.069950715 0.24400002 -3.3655004e+38
-0.012704812 0.069950715 0.24400002 -3.3784799e+38
-0.012360211 0.070237391 0.245 -3.3517911e+38
-0.011963541 0.070237391 0.245 -3.3916156e+38
-0.011170201 0.070237391 0.245 -3.3382376e+38
-0.010773531 0.070237391 0.245 -3.3248932e+38
-0.010376861 0.070237391 0.245 -3.3381335e+38
-0.0099801915 0.070237391 0.245 -3.3247891e+38
-0.0091868518 0.070237391 0.245 -3.324633e+38
-0.0087901819 0.070237391 0.245 -3.3378206e+38
-0.0083935121 0.070237391 0.245 -3.3645094e+38
-0.007569151 0.069950715 0.24400002 -3.3244762e+38
-0.0071741003 0.069950715 0.24400002 -3.3510088e+38
-0.0067790491 0.069950715 0.24400002 -3.3376644e+38
-0.0059889476 0.069950715 0.24400002 -3.337664e+38
-0.0055938968 0.069950715 0.24400002 -3.3243196e+38
-0.0051988461 0.069950715 0.24400002 -3.3243196e+38
-0.0043906756 0.069664031 0.24300002 -3.3109752e+38
-0.0039972439 0.069664031 0.24300002 -3.3109752e+38
-0.0036038123 0.069664031 0.24300002 -3.3109752e+38
-0.0028169488 0.069664031 0.24300002 -3.2976308e+38
-0.0024235172 0.069664031 0.24300002 -3.2976308e+38
-0.0020300853 0.069664031 0.24300002 -3.2976308e+38
0.0065981485 0.069377348 0.24200001 -3.1780007e+38
0.0070188451 0.069664031 0.24300002 -3.1780011e+38
0.0074122767 0.069664031 0.24300002 -3.2046899e+38
0.0081991404 0.069664031 0.24300002 -3.1647607e+38
0.0085925721 0.069664031 0.24300002 -3.1649169e+38
0.0089860037 0.069664031 0.24300002 -3.1782613e+38
0.0094180349 0.069950715 0.24400002 -3.164969e+38
0.010208136 0.069950715 0.24400002 -3.1384364e+38
0.010603187 0.069950715 0.24400002 -3.1651252e+38
0.010998238 0.069950715 0.24400002 -3.1519374e+38
0.011393289 0.069950715 0.24400002 -3.1519374e+38
0.012183391 0.069950715 0.24400002 -3.205419e+38
0.012578441 0.069950715 0.24400002 -3.1788353e+38
0.012973492 0.069950715 0.24400002 -3.2188685e+38
0.014613342 0.070237391 0.245 -3.2328901e+38
0.015010011 0.070237391 0.245 -3.1797729e+38
0.015406682 0.070237391 0.245 -3.1931173e+38
0.016200021 0.070237391 0.245 -3.1264998e+38
-0.011865879 0.070057467 0.24300002 -3.3918239e+38
-0.011472448 0.070057467 0.24300002 -3.3651351e+38
-0.011079016 0.070057467 0.24300002 -3.3517382e+38
-0.010685585 0.070057467 0.24300002 -3.3117049e+38
-0.010334507 0.070345767 0.24400002 -3.2983609e+38
-0.0095444052 0.070345767 0.24400002 -3.3114451e+38
-0.009149354 0.070345767 0.24400002 -3.2981007e+38
-0.0087543037 0.070345767 0.24400002 -3.3644579e+38
-0.0079642022 0.070345767 0.24400002 -3.3378206e+38
-0.007569151 0.070345767 0.24400002 -3.3244762e+38
-0.0071741003 0.070345767 0.24400002 -3.3244762e+38
-0.0067790491 0.070345767 0.24400002 -3.3111318e+38
-0.0059889476 0.070345767 0.24400002 -3.3111318e+38
-0.0055938968 0.070345767 0.24400002 -3.3111314e+38
-0.0051988461 0.070345767 0.24400002 -3.3111314e+38
-0.0043906756 0.070057467 0.24300002 -3.3243196e+38
-0.0039972439 0.070057467 0.24300002 -3.3243196e+38
-0.0036038123 0.070057467 0.24300002 -3.3109752e+38
-0.0028169488 0.070057467 0.24300002 -3.3109752e+38
-0.0024235172 0.070057467 0.24300002 -3.2975797e+38
-0.0020300853 0.070057467 0.24300002 -3.3109241e+38
0.0042472724 0.069769166 0.24200001 -3.2312221e+38
0.0046582548 0.070057467 0.24300002 -3.2312221e+38
0.0050516864 0.070057467 0.24300002 -3.2045333e+38
0.0054451185 0.070057467 0.24300002 -3.2045337e+38
0.0062319818 0.070057467 0.24300002 -3.2180339e+38
0.0066254134 0.070057467 0.24300002 -3.2046895e+38
0.0070188451 0.070057467 0.24300002 -3.1649169e+38
0.0074122767 0.070057467 0.24300002 -3.1649169e+38
0.0081991404 0.070057467 0.24300002 -3.1649173e+38
0.0085925721 0.070057467 0.24300002 -3.151625e+38
0.0089860037 0.070057467 0.24300002 -3.1783138e+38
0.009772867 0.070057467 0.24300002 -3.1517812e+38
