# .PCD v0.7 - Point Cloud Data file format
VERSION 0.7
FIELDS x y z rgb
SIZE 4 4 4 4
TYPE F F F F
COUNT 1 1 1 1
WIDTH 1015
HEIGHT 1
VIEWPOINT 0 0 0 1 0 0 0
POINTS 1015
DATA ascii
0.10518645 0.033994641 0.259 -3.2837132e+38
0.10560579 0.033994641 0.259 -3.2838174e+38
0.10602512 0.033994641 0.259 -3.2971618e+38
0.1068638 0.033994641 0.259 -3.2839215e+38
0.10728314 0.033994641 0.259 -3.2573889e+38
0.10811831 0.034125898 0.26000002 -3.2573889e+38
0.10853927 0.034125898 0.26000002 -3.2442006e+38
0.10896022 0.034125898 0.26000002 -3.257545e+38
0.10980213 0.034125898 0.26000002 -3.2309087e+38
0.12298511 0.038400155 0.289 -3.2310653e+38
0.12302585 0.038267281 0.28800002 -3.217773e+38
0.12349214 0.038267281 0.28800002 -3.217773e+38
0.12442472 0.038267281 0.28800002 -3.2311175e+38
0.12489101 0.038267281 0.28800002 -3.204741e+38
0.1253573 0.038267281 0.28800002 -3.2180854e+38
0.12585136 0.038134411 0.287 -3.2049497e+38
0.12675616 0.038267281 0.28800002 -3.1916578e+38
0.12722245 0.038267281 0.28800002 -3.2183466e+38
0.12768875 0.038267281 0.28800002 -3.1922825e+38
0.12862132 0.038267281 0.28800002 -3.1929084e+38
0.081201233 0.035909247 0.26700002 -3.391042e+38
0.081633523 0.035909247 0.26700002 -3.3510088e+38
0.081758454 0.035774756 0.266 -3.3642488e+38
0.082309186 0.035640266 0.26500002 -3.377437e+38
0.08305046 0.035774756 0.266 -3.377437e+38
0.083481133 0.035774756 0.266 nan
0.083911799 0.035774756 0.266 nan
0.08445444 0.035640266 0.26500002 nan
0.084883489 0.035640266 0.26500002 nan
0.085312545 0.035640266 0.26500002 nan
0.08584547 0.035505772 0.264 nan
0.086272903 0.035505772 0.264 nan
0.086797737 0.035371281 0.26300001 nan
0.087223552 0.035371281 0.26300001 nan
0.087740295 0.035236791 0.26200002 nan
0.088164486 0.035236791 0.26200002 nan
0.088250555 0.035102297 0.26100001 nan
0.089095704 0.035102297 0.26100001 nan
0.089518279 0.035102297 0.26100001 nan
0.089596257 0.03496781 0.26000002 nan
0.090438165 0.03496781 0.26000002 -3.390364e+38
0.090859123 0.03496781 0.26000002 nan
0.09128008 0.03496781 0.26000002 nan
0.091767676 0.034833316 0.259 nan
0.09218701 0.034833316 0.259 nan
0.092606351 0.034833316 0.259 nan
0.093445018 0.034833316 0.259 nan
0.093864359 0.034833316 0.259 nan
0.094283693 0.034833316 0.259 -3.3902074e+38
0.094755098 0.034698822 0.25800002 nan
0.095172815 0.034698822 0.25800002 nan
0.095590539 0.034698822 0.25800002 nan
0.096008256 0.034698822 0.25800002 -3.3768634e+38
0.09684369 0.034698822 0.25800002 -3.3902078e+38
0.097261406 0.034698822 0.25800002 nan
0.097679123 0.034698822 0.25800002 -3.3770196e+38
0.098514557 0.034698822 0.25800002 -3.3636752e+38
0.098932274 0.034698822 0.25800002 -3.3503308e+38
0.099349998 0.034698822 0.25800002 -3.3503312e+38
0.099767715 0.034698822 0.25800002 -3.3369868e+38
0.10060315 0.034698822 0.25800002 -3.3369868e+38
0.10102087 0.034698822 0.25800002 -3.3369868e+38
0.10143858 0.034698822 0.25800002 -3.3503312e+38
0.10225109 0.034833316 0.259 -3.3370393e+38
0.10308976 0.034833316 0.259 -3.3236949e+38
0.10350911 0.034833316 0.259 -3.3236949e+38
0.10392844 0.034833316 0.259 -3.3236949e+38
0.10434777 0.034833316 0.259 -3.3236949e+38
0.10518645 0.034833316 0.259 -3.2971103e+38
0.10601353 0.03496781 0.26000002 -3.28387e+38
0.10643449 0.03496781 0.26000002 -3.3105588e+38
0.10685544 0.03496781 0.26000002 -3.2707333e+38
0.10769735 0.03496781 0.26000002 -3.2442006e+38
0.10811831 0.03496781 0.26000002 -3.2442006e+38
0.10853927 0.03496781 0.26000002 -3.2309603e+38
0.12162698 0.038733568 0.28800002 -3.2310649e+38
0.12255956 0.038733568 0.28800002 -3.2310653e+38
0.12302585 0.038733568 0.28800002 -3.217773e+38
0.12349214 0.038733568 0.28800002 -3.2311175e+38
0.12442472 0.038733568 0.28800002 -3.2312736e+38
0.12489101 0.038733568 0.28800002 -3.2180854e+38
0.12492202 0.038599081 0.287 -3.2180854e+38
0.12585136 0.038599081 0.287 -3.2050018e+38
0.12631604 0.038599081 0.287 -3.1652814e+38
0.1267807 0.038599081 0.287 -3.218659e+38
0.12724538 0.038599081 0.287 -3.1525105e+38
0.081633523 0.036341537 0.26700002 -3.3378206e+38
0.082065813 0.036341537 0.26700002 -3.3642492e+38
0.082498103 0.036341537 0.26700002 -3.3775936e+38
0.08305046 0.036205426 0.266 -3.3907818e+38
0.083481133 0.036205426 0.266 -3.3908329e+38
0.083911799 0.036205426 0.266 -3.3774885e+38
0.084773146 0.036205426 0.266 -3.3906767e+38
0.084883489 0.036069315 0.26500002 nan
0.085312545 0.036069315 0.26500002 nan
0.086170644 0.036069315 0.26500002 -3.3905727e+38
0.086272903 0.035933204 0.264 nan
0.087127768 0.035933204 0.264 nan
0.087223552 0.035797093 0.26300001 nan
0.087649368 0.035797093 0.26300001 nan
0.088164486 0.035660986 0.26200002 nan
0.088588677 0.035660986 0.26200002 nan
0.089095704 0.035524871 0.26100001 nan
0.089518279 0.035524871 0.26100001 nan
0.089940853 0.035524871 0.26100001 nan
0.090438165 0.035388764 0.26000002 -3.3903644e+38
0.090859123 0.035388764 0.26000002 nan
0.09128008 0.035388764 0.26000002 -3.3903644e+38
0.091701031 0.035388764 0.26000002 -3.3903644e+38
0.092542946 0.035388764 0.26000002 nan
0.092606351 0.035252653 0.259 nan
0.093445018 0.035252653 0.259 nan
0.093864359 0.035252653 0.259 nan
0.094283693 0.035252653 0.259 -3.3902074e+38
0.094703034 0.035252653 0.259 nan
0.095541708 0.035252653 0.259 nan
0.095961042 0.035252653 0.259 nan
0.096380375 0.035252653 0.259 -3.3902078e+38
0.09721905 0.035252653 0.259 -3.3770196e+38
0.097638391 0.035252653 0.259 -3.3770196e+38
0.098057725 0.035252653 0.259 -3.3636752e+38
0.098477066 0.035252653 0.259 -3.3636752e+38
0.098932274 0.035116542 0.25800002 -3.3503308e+38
0.099349998 0.035116542 0.25800002 -3.3503312e+38
0.099767715 0.035116542 0.25800002 -3.3369868e+38
0.10060315 0.035116542 0.25800002 -3.3503312e+38
0.10141242 0.035252653 0.259 -3.3503312e+38
0.10183176 0.035252653 0.259 -3.3503312e+38
0.10225109 0.035252653 0.259 -3.3503837e+38
0.10306684 0.035388764 0.26000002 -3.3370393e+38
0.10390875 0.035388764 0.26000002 -3.3370393e+38
0.10432971 0.035388764 0.26000002 -3.3104547e+38
0.10475066 0.035388764 0.26000002 -3.3104547e+38
0.10517162 0.035388764 0.26000002 -3.2971103e+38
0.10601353 0.035388764 0.26000002 -3.2972144e+38
0.10643449 0.035388764 0.26000002 -3.3105588e+38
0.10685544 0.035388764 0.26000002 -3.2840777e+38
0.10769735 0.035388764 0.26000002 -3.2443047e+38
0.10811831 0.035388764 0.26000002 -3.2443047e+38
0.12073999 0.039063752 0.287 -3.2310649e+38
0.12166933 0.039063752 0.287 -3.2310653e+38
0.122134 0.039063752 0.287 -3.2444097e+38
0.12259867 0.039063752 0.287 -3.2045844e+38
0.12352801 0.039063752 0.287 -3.204741e+38
0.12399268 0.039063752 0.287 -3.2180854e+38
0.12445735 0.039063752 0.287 -3.2181379e+38
0.12492202 0.039063752 0.287 -3.2181379e+38
0.12541287 0.038927637 0.28600001 -3.2183466e+38
0.12587592 0.038927637 0.28600001 -3.1920746e+38
0.12633896 0.038927637 0.28600001 -3.2321078e+38
0.083362684 0.036773827 0.26700002 -3.3775936e+38
0.083794966 0.036773827 0.26700002 -3.3774885e+38
0.083911799 0.036636095 0.266 -3.3774885e+38
0.084773146 0.036636095 0.266 -3.3906767e+38
0.085203812 0.036636095 0.266 nan
0.085634485 0.036636095 0.266 nan
0.086170644 0.036498368 0.26500002 nan
0.086599693 0.036498368 0.26500002 nan
0.087028749 0.036498368 0.26500002 nan
0.0875552 0.036360636 0.264 nan
0.087982632 0.036360636 0.264 nan
0.088500991 0.036222905 0.26300001 nan
0.088588677 0.036085177 0.26200002 nan
0.089012876 0.036085177 0.26200002 nan
0.089861259 0.036085177 0.26200002 nan
0.089940853 0.035947446 0.26100001 nan
0.090363428 0.035947446 0.26100001 nan
0.091208577 0.035947446 0.26100001 nan
0.09128008 0.035809718 0.26000002 nan
0.091701031 0.035809718 0.26000002 -3.3903644e+38
0.092542946 0.035809718 0.26000002 -3.3903644e+38
0.092963904 0.035809718 0.26000002 -3.3903644e+38
0.093384854 0.035809718 0.26000002 -3.390364e+38
0.093864359 0.03567199 0.259 -3.3770192e+38
0.094283693 0.03567199 0.259 -3.3636748e+38
0.094703034 0.03567199 0.259 -3.3902074e+38
0.095541708 0.03567199 0.259 -3.3902078e+38
0.095961042 0.03567199 0.259 -3.3902078e+38
0.096380375 0.03567199 0.259 -3.3902078e+38
0.09721905 0.03567199 0.259 -3.3770196e+38
0.097638391 0.03567199 0.259 -3.390364e+38
0.098057725 0.03567199 0.259 -3.3504348e+38
0.098477066 0.03567199 0.259 -3.3504348e+38
0.099315733 0.03567199 0.259 -3.3370904e+38
0.099735074 0.03567199 0.259 -3.3504352e+38
0.10015441 0.03567199 0.259 -3.3370908e+38
0.10057375 0.03567199 0.259 -3.3370908e+38
0.10141242 0.03567199 0.259 -3.3504352e+38
0.10222493 0.035809718 0.26000002 -3.3370908e+38
0.10264588 0.035809718 0.26000002 -3.3504352e+38
0.10306684 0.035809718 0.26000002 -3.3370908e+38
0.10390875 0.035809718 0.26000002 -3.3370393e+38
0.10432971 0.035809718 0.26000002 -3.3104547e+38
0.10475066 0.035809718 0.26000002 -3.3104547e+38
0.10517162 0.035809718 0.26000002 -3.28387e+38
0.10601353 0.035809718 0.26000002 -3.2706817e+38
0.10643449 0.035809718 0.26000002 -3.2840261e+38
0.10685544 0.035809718 0.26000002 -3.2442006e+38
0.10769735 0.035809718 0.26000002 -3.2443047e+38
0.10811831 0.035809718 0.26000002 -3.2443047e+38
0.11985625 0.039390691 0.28600001 -3.2311164e+38
0.12073999 0.039528422 0.287 -3.2310649e+38
0.12166933 0.039528422 0.287 -3.2177726e+38
0.122134 0.039528422 0.287 -3.231117e+38
0.12217151 0.039390691 0.28600001 -3.2045844e+38
0.12309761 0.039390691 0.28600001 -3.2047406e+38
0.12356066 0.039390691 0.28600001 -3.218085e+38
0.12402371 0.039390691 0.28600001 -3.2181894e+38
0.12494981 0.039390691 0.28600001 -3.2185028e+38
0.12541287 0.039390691 0.28600001 -3.191814e+38
0.12587592 0.039390691 0.28600001 -3.1922308e+38
0.12633896 0.039390691 0.28600001 -3.2456084e+38
0.084227256 0.037206117 0.26700002 -3.377437e+38
0.084659547 0.037206117 0.26700002 nan
0.085203812 0.037066765 0.266 nan
0.085634485 0.037066765 0.266 nan
0.086495824 0.037066765 0.266 nan
0.08692649 0.037066765 0.266 nan
0.087028749 0.036927417 0.26500002 nan
0.087886848 0.036927417 0.26500002 nan
0.087982632 0.036788069 0.264 nan
0.088410065 0.036788069 0.264 nan
0.088926807 0.036648721 0.26300001 nan
0.089352615 0.036648721 0.26300001 nan
0.089861259 0.036509372 0.26200002 nan
0.090285458 0.036509372 0.26200002 nan
0.090363428 0.036370024 0.26100001 -3.3903644e+38
0.091208577 0.036370024 0.26100001 nan
0.091631152 0.036370024 0.26100001 nan
0.092053726 0.036370024 0.26100001 nan
0.092898875 0.036370024 0.26100001 -3.3903644e+38
0.092963904 0.036230676 0.26000002 -3.3903644e+38
0.093384854 0.036230676 0.26000002 -3.3903644e+38
0.09422677 0.036230676 0.26000002 -3.3770196e+38
0.09464772 0.036230676 0.26000002 -3.3770196e+38
0.095068678 0.036230676 0.26000002 -3.3636748e+38
0.095489636 0.036230676 0.26000002 -3.3770192e+38
0.096331544 0.036230676 0.26000002 -3.3636752e+38
0.096752502 0.036230676 0.26000002 -3.3636752e+38
0.09717346 0.036230676 0.26000002 -3.3770196e+38
0.097638391 0.036091324 0.259 -3.390364e+38
0.098057725 0.036091324 0.259 -3.3504344e+38
0.098477066 0.036091324 0.259 -3.3504344e+38
0.099315733 0.036091324 0.259 -3.33709e+38
0.099735074 0.036091324 0.259 -3.3504348e+38
0.10015441 0.036091324 0.259 -3.3504348e+38
0.10057375 0.036091324 0.259 -3.3370908e+38
0.10141242 0.036091324 0.259 -3.3504352e+38
0.10222493 0.036230676 0.26000002 -3.3370908e+38
0.10264588 0.036230676 0.26000002 -3.3504352e+38
0.10306684 0.036230676 0.26000002 -3.3370908e+38
0.10390875 0.036230676 0.26000002 -3.3105063e+38
0.10432971 0.036230676 0.26000002 -3.3106103e+38
0.10475066 0.036230676 0.26000002 -3.2972659e+38
0.10517162 0.036230676 0.26000002 -3.2972144e+38
0.10601353 0.036230676 0.26000002 -3.2441491e+38
0.10643449 0.036230676 0.26000002 -3.2574935e+38
0.10685544 0.036230676 0.26000002 -3.257545e+38
0.10769735 0.036230676 0.26000002 -3.2576491e+38
0.10811831 0.036230676 0.26000002 -3.2576491e+38
0.1185143 0.040175825 0.28500003 -3.2310649e+38
0.11897573 0.040175825 0.28500003 -3.231117e+38
0.11985625 0.040316794 0.28600001 -3.231117e+38
0.12078235 0.040316794 0.28600001 -3.2045844e+38
0.1212454 0.040316794 0.28600001 -3.19124e+38
0.12170845 0.040316794 0.28600001 -3.2446176e+38
0.12217151 0.040316794 0.28600001 -3.2047406e+38
0.12309761 0.040316794 0.28600001 -3.204845e+38
0.12312862 0.040175825 0.28500003 -3.2181894e+38
0.12359005 0.040175825 0.28500003 -3.2450354e+38
0.12451292 0.040175825 0.28500003 -3.1922308e+38
0.12497435 0.040175825 0.28500003 -3.2456084e+38
0.12543578 0.040175825 0.28500003 -3.2058882e+38
0.08515083 0.040352084 0.28300002 -3.3787923e+38
0.085306518 0.040209498 0.28200001 -3.3254146e+38
0.085524127 0.038070694 0.26700002 -3.3774374e+38
0.085634485 0.037928104 0.266 -3.3774374e+38
0.086495824 0.037928104 0.266 -3.3906256e+38
0.08692649 0.037928104 0.266 nan
0.087357163 0.037928104 0.266 nan
0.087787837 0.037928104 0.266 nan
0.088315897 0.037785519 0.26500002 nan
0.088744953 0.037785519 0.26500002 -3.3905727e+38
0.089264929 0.037642933 0.264 -3.3905727e+38
0.089352615 0.037500344 0.26300001 -3.3905727e+38
0.089778431 0.037500344 0.26300001 -3.3905727e+38
0.090285458 0.037357759 0.26200002 -3.3772283e+38
0.090709649 0.037357759 0.26200002 -3.3903644e+38
0.09113384 0.037357759 0.26200002 nan
0.091982231 0.037357759 0.26200002 nan
0.092053726 0.037215173 0.26100001 nan
0.092898875 0.037215173 0.26100001 -3.3903129e+38
0.093321458 0.037215173 0.26100001 nan
0.093744032 0.037215173 0.26100001 -3.3903644e+38
0.094166607 0.037215173 0.26100001 -3.3903644e+38
0.09464772 0.037072588 0.26000002 -3.37702e+38
0.095068678 0.037072588 0.26000002 -3.3770196e+38
0.095489636 0.037072588 0.26000002 -3.3770196e+38
0.096331544 0.037072588 0.26000002 -3.390364e+38
0.096752502 0.037072588 0.26000002 -3.3770196e+38
0.09717346 0.037072588 0.26000002 -3.3770196e+38
0.098015368 0.037072588 0.26000002 -3.3771232e+38
0.098436326 0.037072588 0.26000002 -3.3371943e+38
0.098857284 0.037072588 0.26000002 -3.3371943e+38
0.099278241 0.037072588 0.26000002 -3.3504344e+38
0.10012015 0.037072588 0.26000002 -3.3504348e+38
0.10054111 0.037072588 0.26000002 -3.3637792e+38
0.10096206 0.037072588 0.26000002 -3.3504348e+38
0.10180397 0.037072588 0.26000002 -3.3504348e+38
0.10222493 0.037072588 0.26000002 -3.3370904e+38
0.10264588 0.037072588 0.26000002 -3.3238507e+38
0.10346325 0.037215173 0.26100001 -3.3238507e+38
0.10388582 0.037215173 0.26100001 -3.3105588e+38
0.10473098 0.037215173 0.26100001 -3.2973706e+38
0.10475066 0.037072588 0.26000002 -3.2973706e+38
0.10517162 0.037072588 0.26000002 -3.2574935e+38
0.10601353 0.037072588 0.26000002 -3.2575976e+38
0.10684386 0.037215173 0.26100001 -3.2575976e+38
0.11717884 0.040494669 0.28400001 -3.2444093e+38
0.11763866 0.040494669 0.28400001 -3.2444093e+38
0.1185143 0.040637258 0.28500003 -3.2444093e+38
0.11897573 0.040637258 0.28500003 -3.2045844e+38
0.11985625 0.040779844 0.28600001 -3.2045844e+38
0.12036002 0.040637258 0.28500003 -3.2312732e+38
0.12082146 0.040637258 0.28500003 -3.1780522e+38
0.12128289 0.040637258 0.28500003 -3.2180854e+38
0.12220576 0.040637258 0.28500003 -3.204845e+38
0.12266719 0.040637258 0.28500003 -3.2049497e+38
0.12312862 0.040637258 0.28500003 -3.2182941e+38
0.12359005 0.040637258 0.28500003 -3.205315e+38
0.12451292 0.040637258 0.28500003 -3.2323161e+38
0.12497435 0.040637258 0.28500003 -3.259005e+38
0.12499566 0.040494669 0.28400001 -3.2195968e+38
0.08515083 0.040810276 0.28300002 -3.3923965e+38
0.085609026 0.040810276 0.28300002 -3.3390189e+38
0.085763097 0.040666074 0.28200001 -3.3254142e+38
0.086676247 0.040666074 0.28200001 -3.3117049e+38
0.086388707 0.038502984 0.26700002 nan
0.08692649 0.038358774 0.266 nan
0.087357163 0.038358774 0.266 nan
0.087787837 0.038358774 0.266 nan
0.088649176 0.038358774 0.266 nan
0.088744953 0.038214572 0.26500002 nan
0.089174002 0.038214572 0.26500002 nan
0.089692362 0.038070366 0.264 -3.3905727e+38
0.090119794 0.038070366 0.264 -3.3905727e+38
0.090630054 0.037926156 0.26300001 -3.3505395e+38
0.090709649 0.037781954 0.26200002 -3.377124e+38
0.09113384 0.037781954 0.26200002 nan
0.091982231 0.037781954 0.26200002 nan
0.092406422 0.037781954 0.26200002 nan
0.092830621 0.037781954 0.26200002 nan
0.093321458 0.037637748 0.26100001 nan
0.093744032 0.037637748 0.26100001 nan
0.094166607 0.037637748 0.26100001 nan
0.095011756 0.037637748 0.26100001 -3.3637796e+38
0.09543433 0.037637748 0.26100001 -3.3637796e+38
0.095489636 0.037493542 0.26000002 -3.3637796e+38
0.096331544 0.037493542 0.26000002 -3.377124e+38
0.096752502 0.037493542 0.26000002 -3.3637796e+38
0.09717346 0.037493542 0.26000002 -3.3637796e+38
0.098015368 0.037493542 0.26000002 -3.3771236e+38
0.098436326 0.037493542 0.26000002 -3.3371943e+38
0.098857284 0.037493542 0.26000002 -3.3371943e+38
0.099278241 0.037493542 0.26000002 -3.3504344e+38
0.10012015 0.037493542 0.26000002 -3.3504348e+38
0.1009278 0.037637748 0.26100001 -3.3504348e+38
0.10135037 0.037637748 0.26100001 -3.3504348e+38
0.10177295 0.037637748 0.26100001 -3.3504348e+38
0.1026181 0.037637748 0.26100001 -3.3105058e+38
0.10304067 0.037637748 0.26100001 -3.3106103e+38
0.10346325 0.037637748 0.26100001 -3.3106103e+38
0.11717884 0.040954486 0.28400001 -3.2444093e+38
0.11763866 0.040954486 0.28400001 -3.231117e+38
0.11809847 0.040954486 0.28400001 -3.231117e+38
0.11855828 0.040954486 0.28400001 -3.2045844e+38
0.11947791 0.040954486 0.28400001 -3.2047406e+38
0.11993772 0.040954486 0.28400001 -3.218085e+38
0.12039753 0.040954486 0.28400001 -3.204845e+38
0.12085734 0.040954486 0.28400001 -3.2181894e+38
0.12177697 0.040954486 0.28400001 -3.1916568e+38
0.12223679 0.040954486 0.28400001 -3.2183462e+38
0.1226966 0.040954486 0.28400001 -3.245035e+38
0.12361623 0.040954486 0.28400001 -3.2454523e+38
0.12407604 0.040954486 0.28400001 -3.2059922e+38
0.12453585 0.040954486 0.28400001 -3.2860586e+38
0.12499566 0.040954486 0.28400001 -3.2465465e+38
0.08515083 0.041268472 0.28300002 nan
0.085609026 0.041268472 0.28300002 -3.3392276e+38
0.085763097 0.041122649 0.28200001 -3.31233e+38
0.086676247 0.041122649 0.28200001 -3.3252577e+38
0.087132819 0.041122649 0.28200001 -3.2852244e+38
0.087787837 0.038789447 0.266 -3.3906252e+38
0.088649176 0.038789447 0.266 -3.3906252e+38
0.089079842 0.038789447 0.266 -3.3906252e+38
0.089174002 0.038643625 0.26500002 -3.3906252e+38
0.090032101 0.038643625 0.26500002 -3.3639364e+38
0.089778431 0.038351972 0.26300001 -3.3772808e+38
0.090630054 0.038351972 0.26300001 -3.3639879e+38
0.09105587 0.038351972 0.26300001 -3.3505395e+38
0.091481686 0.038351972 0.26300001 -3.3505395e+38
0.092333309 0.038351972 0.26300001 nan
0.092406422 0.038206149 0.26200002 nan
0.092830621 0.038206149 0.26200002 nan
0.093679003 0.038206149 0.26200002 nan
0.094103202 0.038206149 0.26200002 -3.377124e+38
0.094166607 0.038060322 0.26100001 -3.377124e+38
0.095011756 0.038060322 0.26100001 -3.3637796e+38
0.09543433 0.038060322 0.26100001 -3.3637796e+38
0.095856905 0.038060322 0.26100001 -3.3637796e+38
0.09627948 0.038060322 0.26100001 -3.377124e+38
0.097124629 0.038060322 0.26100001 -3.3770725e+38
0.097547203 0.038060322 0.26100001 -3.3637281e+38
0.097969778 0.038060322 0.26100001 -3.3505391e+38
0.098814927 0.038060322 0.26100001 -3.3505391e+38
0.099237502 0.038060322 0.26100001 -3.3371947e+38
0.099660076 0.038060322 0.26100001 -3.3238503e+38
0.10008265 0.038060322 0.26100001 -3.3238503e+38
0.1009278 0.038060322 0.26100001 -3.3238503e+38
0.10135037 0.038060322 0.26100001 -3.3238503e+38
0.10216288 0.038206149 0.26200002 -3.3371947e+38
0.10258708 0.038206149 0.26200002 -3.3238507e+38
0.10343546 0.038206149 0.26200002 -3.3105588e+38
0.11717884 0.041414298 0.28400001 -3.2444097e+38
0.11722443 0.041268472 0.28300002 -3.2311175e+38
0.11768262 0.041268472 0.28300002 -3.2578063e+38
0.11855828 0.041414298 0.28400001 -3.2312736e+38
0.11947791 0.041414298 0.28400001 -3.2180854e+38
0.11993772 0.041414298 0.28400001 -3.2180854e+38
0.12039753 0.041414298 0.28400001 -3.2181894e+38
0.12085734 0.041414298 0.28400001 -3.2448783e+38
0.12177697 0.041414298 0.28400001 -3.2049497e+38
0.12180637 0.041268472 0.28300002 -3.1652814e+38
0.12272275 0.041268472 0.28300002 -3.1922314e+38
0.12318095 0.041268472 0.28300002 -3.245609e+38
0.12363914 0.041268472 0.28300002 -3.2195457e+38
0.085306518 0.042035799 0.28200001 -3.3398012e+38
0.085763097 0.042035799 0.28200001 -3.3661762e+38
0.086676247 0.042035799 0.28200001 -3.3388627e+38
0.087132819 0.042035799 0.28200001 -3.3121739e+38
0.087278798 0.041886736 0.28100002 -3.2852248e+38
0.088188708 0.041886736 0.28100002 -3.3115488e+38
0.090032101 0.039501727 0.26500002 -3.3507482e+38
0.090119794 0.039352659 0.264 -3.3640926e+38
0.090547226 0.039352659 0.264 -3.3906252e+38
0.09105587 0.039203595 0.26300001 -3.3639364e+38
0.091481686 0.039203595 0.26300001 -3.3639364e+38
0.092333309 0.039203595 0.26300001 -3.3771768e+38
0.092759117 0.039203595 0.26300001 -3.3771768e+38
0.092830621 0.039054535 0.26200002 -3.3771768e+38
0.093679003 0.039054535 0.26200002 -3.3772283e+38
0.094103202 0.039054535 0.26200002 -3.3505395e+38
0.094166607 0.038905472 0.26100001 -3.3772283e+38
0.095011756 0.038905472 0.26100001 -3.3505395e+38
0.09543433 0.038905472 0.26100001 -3.377124e+38
0.095856905 0.038905472 0.26100001 -3.377124e+38
0.09627948 0.038905472 0.26100001 -3.350488e+38
0.097969778 0.038905472 0.26100001 -3.3371951e+38
0.098814927 0.038905472 0.26100001 -3.3505395e+38
0.099237502 0.038905472 0.26100001 -3.3505395e+38
0.099660076 0.038905472 0.26100001 -3.3238507e+38
0.10046611 0.039054535 0.26200002 -3.3505395e+38
0.1013145 0.039054535 0.26200002 -3.3239547e+38
0.10173869 0.039054535 0.26200002 -3.3239547e+38
0.10216288 0.039054535 0.26200002 -3.3239547e+38
0.11184642 0.041886736 0.28100002 -3.2708379e+38
0.11270104 0.042035799 0.28200001 -3.2708379e+38
0.11361419 0.042035799 0.28200001 -3.2708379e+38
0.11407076 0.042035799 0.28200001 -3.2442532e+38
0.11452734 0.042035799 0.28200001 -3.2442532e+38
0.11539165 0.04218486 0.28300002 -3.2444093e+38
0.11584985 0.04218486 0.28300002 -3.2444093e+38
0.11635364 0.042035799 0.28200001 -3.2578063e+38
0.11681021 0.042035799 0.28200001 -3.2312736e+38
0.11726679 0.042035799 0.28200001 -3.2312736e+38
0.11859901 0.04218486 0.28300002 -3.2314298e+38
0.1190572 0.04218486 0.28300002 -3.2314823e+38
0.1195154 0.04218486 0.28300002 -3.2314823e+38
0.11997359 0.04218486 0.28300002 -3.1916574e+38
0.12088998 0.04218486 0.28300002 -3.2053146e+38
0.12134817 0.04218486 0.28300002 -3.218659e+38
0.12180637 0.04218486 0.28300002 -3.2055758e+38
0.12272275 0.04218486 0.28300002 -3.1928573e+38
0.085763097 0.042492375 0.28200001 -3.3664368e+38
0.086676247 0.042492375 0.28200001 -3.3392272e+38
0.087132819 0.042492375 0.28200001 -3.2991939e+38
0.087589398 0.042492375 0.28200001 -3.3255183e+38
0.08804597 0.042492375 0.28200001 -3.2721407e+38
0.08895912 0.042492375 0.28200001 -3.2983609e+38
0.089415699 0.042492375 0.28200001 -3.3115496e+38
0.08955358 0.042341691 0.28100002 -3.2982052e+38
0.091402091 0.039780091 0.264 -3.3639364e+38
0.091829523 0.039780091 0.264 -3.3639364e+38
0.092256956 0.039780091 0.264 -3.3639364e+38
0.093111821 0.039780091 0.264 -3.3772808e+38
0.093184933 0.039629411 0.26300001 -3.3639364e+38
0.093679003 0.03947873 0.26200002 -3.3639879e+38
0.094103202 0.03947873 0.26200002 -3.3639879e+38
0.094527394 0.03947873 0.26200002 -3.3639879e+38
0.094951592 0.03947873 0.26200002 -3.3772283e+38
0.095799975 0.03947873 0.26200002 -3.3505395e+38
0.096224174 0.03947873 0.26200002 -3.3505395e+38
0.096648365 0.03947873 0.26200002 -3.350488e+38
0.098345138 0.03947873 0.26200002 -3.3371435e+38
0.098769337 0.03947873 0.26200002 -3.3371435e+38
0.09961772 0.03947873 0.26200002 -3.3505395e+38
0.10004192 0.03947873 0.26200002 -3.3106103e+38
0.10046611 0.03947873 0.26200002 -3.3372991e+38
0.1013145 0.03947873 0.26200002 -3.2973706e+38
0.11139147 0.042341691 0.28100002 -3.2973706e+38
0.11184642 0.042341691 0.28100002 -3.2575976e+38
0.11230138 0.042341691 0.28100002 -3.2575976e+38
0.11361419 0.042492375 0.28200001 -3.2575976e+38
0.11407076 0.042492375 0.28200001 -3.2442532e+38
0.11452734 0.042492375 0.28200001 -3.2442532e+38
0.11498391 0.042492375 0.28200001 -3.2444097e+38
0.11589706 0.042492375 0.28200001 -3.2445665e+38
0.11635364 0.042492375 0.28200001 -3.2445665e+38
0.11681021 0.042492375 0.28200001 -3.2180339e+38
0.11726679 0.042492375 0.28200001 -3.2180339e+38
0.11817994 0.042492375 0.28200001 -3.2181379e+38
0.11863651 0.042492375 0.28200001 -3.2049497e+38
0.11909309 0.042492375 0.28200001 -3.2182941e+38
0.12000624 0.042492375 0.28200001 -3.2451916e+38
0.12046281 0.042492375 0.28200001 -3.1788864e+38
0.12091939 0.042492375 0.28200001 -3.2055752e+38
0.085763097 0.04294895 0.28200001 -3.3132685e+38
0.086676247 0.04294895 0.28200001 -3.3395924e+38
0.087132819 0.04294895 0.28200001 -3.2862148e+38
0.087589398 0.04294895 0.28200001 -3.325727e+38
0.08804597 0.04294895 0.28200001 -3.2856938e+38
0.088643663 0.042796645 0.28100002 -3.2852248e+38
0.089098617 0.042796645 0.28100002 -3.3117058e+38
0.08955358 0.042796645 0.28100002 -3.2850169e+38
0.093184933 0.040055223 0.26300001 -3.3639364e+38
0.093610749 0.040055223 0.26300001 -3.3639364e+38
0.094462372 0.040055223 0.26300001 -3.3639364e+38
0.094888188 0.040055223 0.26300001 -3.3639364e+38
0.095313996 0.040055223 0.26300001 -3.3772283e+38
0.095739812 0.040055223 0.26300001 -3.3505395e+38
0.096591435 0.040055223 0.26300001 -3.3505395e+38
0.097017251 0.040055223 0.26300001 -3.337248e+38
0.097496755 0.039902922 0.26200002 -3.337248e+38
0.09829469 0.040055223 0.26300001 -3.337248e+38
0.098720506 0.040055223 0.26300001 -3.3239032e+38
0.099146314 0.040055223 0.26300001 -3.3239032e+38
0.09957213 0.040055223 0.26300001 -3.3372991e+38
0.10042375 0.040055223 0.26300001 -3.3239032e+38
0.10084957 0.040055223 0.26300001 -3.3372476e+38
0.11093652 0.042796645 0.28100002 -3.2708379e+38
0.11139147 0.042796645 0.28100002 -3.2708379e+38
0.11184642 0.042796645 0.28100002 -3.2575976e+38
0.11230138 0.042796645 0.28100002 -3.2575976e+38
0.11361419 0.04294895 0.28200001 -3.2575976e+38
0.11366625 0.042796645 0.28100002 -3.2310649e+38
0.11412121 0.042796645 0.28100002 -3.2310649e+38
0.11503112 0.042796645 0.28100002 -3.2711503e+38
0.11548607 0.042796645 0.28100002 -3.2180339e+38
0.11594103 0.042796645 0.28100002 -3.2180339e+38
0.11639599 0.042796645 0.28100002 -3.2047939e+38
0.1173059 0.042796645 0.28100002 -3.2047935e+38
0.11776085 0.042796645 0.28100002 -3.2181379e+38
0.11821581 0.042796645 0.28100002 -3.2050022e+38
0.11867077 0.042796645 0.28100002 -3.2183466e+38
0.11958068 0.042796645 0.28100002 -3.2320034e+38
0.12003563 0.042796645 0.28100002 -3.2055758e+38
0.12049059 0.042796645 0.28100002 -3.245609e+38
0.097443067 0.040481035 0.26300001 -3.3639368e+38
0.09829469 0.040481035 0.26300001 -3.337248e+38
0.098720506 0.040481035 0.26300001 -3.3239032e+38
0.086676247 0.043862097 0.28200001 -3.2733393e+38
0.086823843 0.043706559 0.28100002 -3.2599949e+38
0.087278798 0.043706559 0.28100002 -3.2996107e+38
0.088188708 0.043706559 0.28100002 -3.339071e+38
0.088643663 0.043706559 0.28100002 -3.2990378e+38
0.089098617 0.043706559 0.28100002 -3.3120698e+38
0.08955358 0.043706559 0.28100002 -3.2586922e+38
0.090463489 0.043706559 0.28100002 -3.3115496e+38
0.093433365 0.043395478 0.27900001 -3.3377691e+38
0.093548581 0.04323994 0.27800003 -3.2977874e+38
0.10918172 0.043551017 0.28 -3.2841823e+38
0.1100266 0.043706559 0.28100002 -3.2708379e+38
0.11093652 0.043706559 0.28100002 -3.270942e+38
0.11139147 0.043706559 0.28100002 -3.270942e+38
0.11184642 0.043706559 0.28100002 -3.2444093e+38
0.11230138 0.043706559 0.28100002 -3.2444093e+38
0.11321129 0.043706559 0.28100002 -3.2444093e+38
0.11366625 0.043706559 0.28100002 -3.2578059e+38
0.11412121 0.043706559 0.28100002 -3.231117e+38
0.11503112 0.043706559 0.28100002 -3.2446176e+38
0.11548607 0.043706559 0.28100002 -3.2313783e+38
0.11594103 0.043706559 0.28100002 -3.2447227e+38
0.11639599 0.043706559 0.28100002 -3.2049501e+38
0.11688845 0.043551017 0.28 -3.2050026e+38
0.11776085 0.043706559 0.28100002 -3.218347e+38
0.11821581 0.043706559 0.28100002 -3.2052635e+38
0.11867077 0.043706559 0.28100002 -3.2319523e+38
0.11958068 0.043706559 0.28100002 -3.25911e+38
0.12003563 0.043706559 0.28100002 -3.2461305e+38
0.086823843 0.044161513 0.28100002 -3.1934816e+38
0.087278798 0.044161513 0.28100002 -3.2997148e+38
0.088188708 0.044161513 0.28100002 -3.3393833e+38
0.088643663 0.044161513 0.28100002 -3.3126945e+38
0.089098617 0.044161513 0.28100002 -3.3388627e+38
0.08955358 0.044161513 0.28100002 -3.2854851e+38
0.090141557 0.044004355 0.28 -3.3117579e+38
0.090594895 0.044004355 0.28 -3.3382384e+38
0.091048226 0.044004355 0.28 -3.3115496e+38
0.09240824 0.044004355 0.28 -3.3246334e+38
0.092981644 0.0438472 0.27900001 -3.3244768e+38
0.093433365 0.0438472 0.27900001 -3.3244768e+38
0.093885086 0.0438472 0.27900001 -3.3111839e+38
0.0943368 0.0438472 0.27900001 -3.2978395e+38
0.10736836 0.044004355 0.28 -3.3108711e+38
0.10827504 0.044004355 0.28 -3.2708379e+38
0.10872838 0.044004355 0.28 -3.2841823e+38
0.10918172 0.044004355 0.28 -3.2841823e+38
0.1100266 0.044161513 0.28100002 -3.270942e+38
0.11093652 0.044161513 0.28100002 -3.270942e+38
0.11139147 0.044161513 0.28100002 -3.270942e+38
0.11184642 0.044161513 0.28100002 -3.2578059e+38
0.11230138 0.044161513 0.28100002 -3.231117e+38
0.11321129 0.044161513 0.28100002 -3.2578059e+38
0.11366625 0.044161513 0.28100002 -3.2446176e+38
0.11412121 0.044161513 0.28100002 -3.2446176e+38
0.11503112 0.044161513 0.28100002 -3.2314294e+38
0.1150751 0.044004355 0.28 -3.2181894e+38
0.11552843 0.044004355 0.28 -3.2448783e+38
0.11643511 0.044004355 0.28 -3.2450354e+38
0.11688845 0.044004355 0.28 -3.2318476e+38
0.11734178 0.044004355 0.28 -3.245192e+38
0.11779512 0.044004355 0.28 -3.2055758e+38
0.11870179 0.044004355 0.28 -3.2326814e+38
0.11915513 0.044004355 0.28 -3.2860591e+38
0.11960847 0.044004355 0.28 -3.2463388e+38
0.087421536 0.044457693 0.28 -3.2199613e+38
0.087874867 0.044457693 0.28 -3.2863704e+38
0.088328205 0.044457693 0.28 -3.273026e+38
0.088781543 0.044457693 0.28 -3.3258832e+38
0.089688219 0.044457693 0.28 -3.3254146e+38
0.090141557 0.044457693 0.28 -3.2853814e+38
0.090594895 0.044457693 0.28 -3.3117579e+38
0.091048226 0.044457693 0.28 -3.2850691e+38
0.091954902 0.044457693 0.28 -3.3115496e+38
0.09240824 0.044457693 0.28 -3.3247895e+38
0.092981644 0.044298917 0.27900001 -3.324633e+38
0.093433365 0.044298917 0.27900001 -3.324633e+38
0.093885086 0.044298917 0.27900001 -3.2979957e+38
0.0943368 0.044298917 0.27900001 -3.2979957e+38
0.095240235 0.044298917 0.27900001 -3.2978395e+38
0.095691957 0.044298917 0.27900001 -3.3244762e+38
0.09614367 0.044298917 0.27900001 -3.3111318e+38
0.096699268 0.044140138 0.27800003 -3.2977874e+38
0.097149372 0.044140138 0.27800003 -3.3109756e+38
0.10562975 0.044298917 0.27900001 -3.2841823e+38
0.10608147 0.044298917 0.27900001 -3.2841823e+38
0.10691503 0.044457693 0.28 -3.270942e+38
0.10736836 0.044457693 0.28 -3.2976308e+38
0.10827504 0.044457693 0.28 -3.2575976e+38
0.10872838 0.044457693 0.28 -3.270942e+38
0.10918172 0.044457693 0.28 -3.270942e+38
0.10963506 0.044457693 0.28 -3.270942e+38
0.11054172 0.044457693 0.28 -3.2710985e+38
0.11099506 0.044457693 0.28 -3.2710985e+38
0.1114484 0.044457693 0.28 -3.2711507e+38
0.11235508 0.044457693 0.28 -3.2312736e+38
0.11280841 0.044457693 0.28 -3.2312736e+38
0.11326175 0.044457693 0.28 -3.2180854e+38
0.11371509 0.044457693 0.28 -3.2314298e+38
0.11462176 0.044457693 0.28 -3.2315334e+38
0.1150751 0.044457693 0.28 -3.1916568e+38
0.11552843 0.044457693 0.28 -3.23169e+38
0.11601926 0.044298917 0.27900001 -3.2451916e+38
0.11647098 0.044298917 0.27900001 -3.2055752e+38
0.1169227 0.044298917 0.27900001 -3.2189196e+38
0.11782613 0.044298917 0.27900001 -3.2726106e+38
0.11827786 0.044298917 0.27900001 -3.2596305e+38
0.11872957 0.044298917 0.27900001 -3.2863193e+38
0.087421536 0.044911027 0.28 -3.1668443e+38
0.087874867 0.044911027 0.28 -3.2198573e+38
0.088328205 0.044911027 0.28 -3.2198573e+38
0.088781543 0.044911027 0.28 -3.312799e+38
0.089367904 0.044750635 0.27900001 -3.2990382e+38
0.089819625 0.044750635 0.27900001 -3.2856938e+38
0.090271339 0.044750635 0.27900001 -3.2988299e+38
0.091174774 0.044750635 0.27900001 -3.3117575e+38
0.091626495 0.044750635 0.27900001 -3.2984131e+38
0.092078209 0.044750635 0.27900001 -3.2983609e+38
0.092981644 0.044750635 0.27900001 -3.2981003e+38
0.093433365 0.044750635 0.27900001 -3.3114447e+38
0.093885086 0.044750635 0.27900001 -3.2981518e+38
0.0943368 0.044750635 0.27900001 -3.2981518e+38
0.095240235 0.044750635 0.27900001 -3.2846513e+38
0.095691957 0.044750635 0.27900001 -3.3111324e+38
0.09614367 0.044750635 0.27900001 -3.297788e+38
0.097047105 0.044750635 0.27900001 -3.297788e+38
0.097149372 0.044590235 0.27800003 -3.2977358e+38
0.097599469 0.044590235 0.27800003 -3.3110802e+38
0.098499663 0.044590235 0.27800003 -3.2977358e+38
0.098949768 0.044590235 0.27800003 -3.284443e+38
0.099399865 0.044590235 0.27800003 -3.284443e+38
0.099849962 0.044590235 0.27800003 -3.2977874e+38
0.10075016 0.044590235 0.27800003 -3.2976312e+38
0.10120026 0.044590235 0.27800003 -3.2976312e+38
0.10165036 0.044590235 0.27800003 -3.3109752e+38
0.10255056 0.044590235 0.27800003 -3.3109756e+38
0.10337116 0.044750635 0.27900001 -3.3109756e+38
0.10382288 0.044750635 0.27900001 -3.2976312e+38
0.10427459 0.044750635 0.27900001 -3.2709424e+38
0.10472631 0.044750635 0.27900001 -3.2976308e+38
0.10562975 0.044750635 0.27900001 -3.270942e+38
0.10608147 0.044750635 0.27900001 -3.270942e+38
0.10691503 0.044911027 0.28 -3.2444093e+38
0.10736836 0.044911027 0.28 -3.2844425e+38
0.10827504 0.044911027 0.28 -3.2444093e+38
0.10872838 0.044911027 0.28 -3.2444093e+38
0.10918172 0.044911027 0.28 -3.2444093e+38
0.10963506 0.044911027 0.28 -3.2578059e+38
0.11054172 0.044911027 0.28 -3.2578063e+38
0.11099506 0.044911027 0.28 -3.2578063e+38
0.1114484 0.044911027 0.28 -3.2579624e+38
0.11235508 0.044911027 0.28 -3.2180339e+38
0.11280841 0.044911027 0.28 -3.2180339e+38
0.11326175 0.044911027 0.28 -3.2181379e+38
0.11371509 0.044911027 0.28 -3.2181379e+38
0.11421239 0.044750635 0.27900001 -3.2583273e+38
0.11466411 0.044750635 0.27900001 -3.2185024e+38
0.11511583 0.044750635 0.27900001 -3.2318468e+38
0.11601926 0.044750635 0.27900001 -3.2721407e+38
0.11647098 0.044750635 0.27900001 -3.1925438e+38
0.1169227 0.044750635 0.27900001 -3.1925438e+38
0.11782613 0.044750635 0.27900001 -3.2594749e+38
0.11827786 0.044750635 0.27900001 -3.2331506e+38
0.11872957 0.044750635 0.27900001 -3.2731838e+38
0.088916183 0.04565407 0.27900001 -3.1000182e+38
0.089367904 0.04565407 0.27900001 -3.2063567e+38
0.089819625 0.04565407 0.27900001 -3.2330455e+38
0.090271339 0.04565407 0.27900001 -3.2993505e+38
0.091174774 0.04565407 0.27900001 -3.2990378e+38
0.091626495 0.04565407 0.27900001 -3.2990378e+38
0.092078209 0.04565407 0.27900001 -3.3255183e+38
0.092981644 0.04565407 0.27900001 -3.2852248e+38
0.093433365 0.04565407 0.27900001 -3.2852248e+38
0.093885086 0.04565407 0.27900001 -3.2851198e+38
0.0943368 0.04565407 0.27900001 -3.2717754e+38
0.095240235 0.04565407 0.27900001 -3.2849115e+38
0.095691957 0.04565407 0.27900001 -3.2981007e+38
0.09614367 0.04565407 0.27900001 -3.2714119e+38
0.097047105 0.04565407 0.27900001 -3.2981007e+38
0.097149372 0.045490433 0.27800003 -3.2979445e+38
0.097599469 0.045490433 0.27800003 -3.2979445e+38
0.098499663 0.045490433 0.27800003 -3.2845997e+38
0.098949768 0.045490433 0.27800003 -3.2846513e+38
0.099399865 0.045490433 0.27800003 -3.2846513e+38
0.099849962 0.045490433 0.27800003 -3.2713068e+38
0.10075016 0.045490433 0.27800003 -3.2579624e+38
0.10120026 0.045490433 0.27800003 -3.244618e+38
0.10165036 0.045490433 0.27800003 -3.2844951e+38
0.10246772 0.04565407 0.27900001 -3.2711507e+38
0.10337116 0.04565407 0.27900001 -3.2844951e+38
0.10382288 0.04565407 0.27900001 -3.2711507e+38
0.10427459 0.04565407 0.27900001 -3.2711507e+38
0.10472631 0.04565407 0.27900001 -3.2711507e+38
0.10562975 0.04565407 0.27900001 -3.2711507e+38
0.10608147 0.04565407 0.27900001 -3.2578063e+38
0.10653318 0.04565407 0.27900001 -3.2711507e+38
0.10736836 0.045817703 0.28 -3.2978395e+38
0.10827504 0.045817703 0.28 -3.2312736e+38
0.10834005 0.04565407 0.27900001 -3.2579624e+38
0.10879178 0.04565407 0.27900001 -3.244618e+38
0.10969521 0.04565407 0.27900001 -3.2180854e+38
0.11014693 0.04565407 0.27900001 -3.2313783e+38
0.11059865 0.04565407 0.27900001 -3.2313783e+38
0.11150208 0.04565407 0.27900001 -3.2182941e+38
0.1119538 0.04565407 0.27900001 -3.2316385e+38
0.11240552 0.04565407 0.27900001 -3.2316385e+38
0.11285724 0.04565407 0.27900001 -3.2583799e+38
0.11376067 0.04565407 0.27900001 -3.258536e+38
0.11421239 0.04565407 0.27900001 -3.258536e+38
0.11466411 0.04565407 0.27900001 -3.2454523e+38
0.11511583 0.04565407 0.27900001 -3.3121743e+38
0.11601926 0.04565407 0.27900001 -3.2459214e+38
0.11647098 0.04565407 0.27900001 -3.2197015e+38
0.1169227 0.04565407 0.27900001 -3.2330459e+38
0.088597491 0.045940533 0.27800003 -3.0335045e+38
0.089047588 0.045940533 0.27800003 -3.0866738e+38
0.089497685 0.045940533 0.27800003 -3.1267071e+38
0.090397887 0.045940533 0.27800003 -3.2330455e+38
0.091174774 0.046105787 0.27900001 -3.2993505e+38
0.091626495 0.046105787 0.27900001 -3.2860061e+38
0.092078209 0.046105787 0.27900001 -3.3390714e+38
0.092981644 0.046105787 0.27900001 -3.3121743e+38
0.093433365 0.046105787 0.27900001 -3.2854855e+38
0.093885086 0.046105787 0.27900001 -3.2852244e+38
0.0943368 0.046105787 0.27900001 -3.27188e+38
0.095240235 0.046105787 0.27900001 -3.2583794e+38
0.095691957 0.046105787 0.27900001 -3.2716725e+38
0.09614367 0.046105787 0.27900001 -3.2583281e+38
0.096699268 0.045940533 0.27800003 -3.2982048e+38
0.097149372 0.045940533 0.27800003 -3.2848604e+38
0.097599469 0.045940533 0.27800003 -3.2581716e+38
0.098499663 0.045940533 0.27800003 -3.2581711e+38
0.098949768 0.045940533 0.27800003 -3.2448783e+38
0.099399865 0.045940533 0.27800003 -3.2448783e+38
0.099849962 0.045940533 0.27800003 -3.2448779e+38
0.10075016 0.045940533 0.27800003 -3.2447742e+38
0.10120026 0.045940533 0.27800003 -3.2314298e+38
0.10201601 0.046105787 0.27900001 -3.2844951e+38
0.10246772 0.046105787 0.27900001 -3.2844951e+38
0.10337116 0.046105787 0.27900001 -3.2844951e+38
0.10382288 0.046105787 0.27900001 -3.2711507e+38
0.10427459 0.046105787 0.27900001 -3.2711507e+38
0.10472631 0.046105787 0.27900001 -3.2579624e+38
0.10562975 0.046105787 0.27900001 -3.2713068e+38
0.10608147 0.046105787 0.27900001 -3.244618e+38
0.10653318 0.046105787 0.27900001 -3.244618e+38
0.10743662 0.046105787 0.27900001 -3.2314298e+38
0.10788834 0.046105787 0.27900001 -3.2180854e+38
0.10834005 0.046105787 0.27900001 -3.2314823e+38
0.10879178 0.046105787 0.27900001 -3.2181379e+38
0.10930204 0.045940533 0.27800003 -3.2314823e+38
0.10975214 0.045940533 0.27800003 -3.2182945e+38
0.11020225 0.045940533 0.27800003 -3.2182945e+38
0.11110244 0.045940533 0.27800003 -3.2450354e+38
0.11155254 0.045940533 0.27800003 -3.2318472e+38
0.11200264 0.045940533 0.27800003 -3.258536e+38
0.11290284 0.045940533 0.27800003 -3.2586926e+38
0.11335293 0.045940533 0.27800003 -3.2721411e+38
0.11380304 0.045940533 0.27800003 -3.2988299e+38
0.11425313 0.045940533 0.27800003 -3.2722978e+38
0.11515333 0.045940533 0.27800003 -3.2728708e+38
0.11560343 0.045940533 0.27800003 -3.2728708e+38
0.11605353 0.045940533 0.27800003 -3.1932214e+38
0.089047588 0.04639063 0.27800003 -3.0201601e+38
0.089497685 0.04639063 0.27800003 -3.0201601e+38
0.090397887 0.04639063 0.27800003 -3.0866223e+38
0.090847984 0.04639063 0.27800003 -3.2195968e+38
0.091298081 0.04639063 0.27800003 -3.2462857e+38
0.091748185 0.04639063 0.27800003 -3.339176e+38
0.09264838 0.04639063 0.27800003 -3.325727e+38
0.093098477 0.04639063 0.27800003 -3.2723494e+38
0.093548581 0.04639063 0.27800003 -3.2988295e+38
0.094448775 0.04639063 0.27800003 -3.285381e+38
0.094898872 0.04639063 0.27800003 -3.2453478e+38
0.096699268 0.04639063 0.27800003 -3.2850169e+38
0.097149372 0.04639063 0.27800003 -3.2850169e+38
0.097599469 0.04639063 0.27800003 -3.2716725e+38
0.098499663 0.04639063 0.27800003 -3.2583277e+38
0.098949768 0.04639063 0.27800003 -3.2316385e+38
0.099399865 0.04639063 0.27800003 -3.2583273e+38
0.099849962 0.04639063 0.27800003 -3.2583784e+38
0.10075016 0.04639063 0.27800003 -3.2448783e+38
0.10120026 0.04639063 0.27800003 -3.2315339e+38
0.10165036 0.04639063 0.27800003 -3.2313783e+38
0.10255056 0.04639063 0.27800003 -3.2712553e+38
0.10337116 0.046557505 0.27900001 -3.2712553e+38
0.10382288 0.046557505 0.27900001 -3.2579109e+38
0.10427459 0.046557505 0.27900001 -3.2579109e+38
0.10472631 0.046557505 0.27900001 -3.2447227e+38
0.10562975 0.046557505 0.27900001 -3.2447227e+38
0.10570125 0.04639063 0.27800003 -3.2313783e+38
0.10615135 0.04639063 0.27800003 -3.2313783e+38
0.10705155 0.04639063 0.27800003 -3.2314823e+38
0.10750165 0.04639063 0.27800003 -3.2314823e+38
0.10795175 0.04639063 0.27800003 -3.2182945e+38
0.10885195 0.04639063 0.27800003 -3.2183466e+38
0.10930204 0.04639063 0.27800003 -3.2183466e+38
0.10975214 0.04639063 0.27800003 -3.2318472e+38
0.11020225 0.04639063 0.27800003 -3.2318472e+38
0.11110244 0.04639063 0.27800003 -3.2451916e+38
0.11155254 0.04639063 0.27800003 -3.2321074e+38
0.11159974 0.046223756 0.27700001 -3.2454518e+38
0.1124967 0.046223756 0.27700001 -3.2723494e+38
0.11294518 0.046223756 0.27700001 -3.2591611e+38
0.11339366 0.046223756 0.27700001 -3.2991943e+38
0.11429062 0.046223756 0.27700001 -3.3259878e+38
0.11473911 0.046223756 0.27700001 -3.2329944e+38
0.11518759 0.046223756 0.27700001 -3.1929612e+38
0.11253744 0.046503749 0.27600002 -3.2727142e+38
0.11343117 0.046503749 0.27600002 -3.2596301e+38
0.11387803 0.046503749 0.27600002 -3.2329412e+38
0.11432489 0.046503749 0.27600002 -3.0333492e+38
0.11477175 0.046503749 0.27600002 -2.9799715e+38
0.090397887 0.047290828 0.27800003 -2.8869252e+38
0.090847984 0.047290828 0.27800003 -2.9666267e+38
0.091298081 0.047290828 0.27800003 -2.9666267e+38
0.091748185 0.047290828 0.27800003 -3.0197445e+38
0.09264838 0.047290828 0.27800003 -3.1528237e+38
0.093098477 0.047290828 0.27800003 -3.1795125e+38
0.093548581 0.047290828 0.27800003 -3.2727146e+38
0.094448775 0.047290828 0.27800003 -3.2726106e+38
0.094898872 0.047290828 0.27800003 -3.2459218e+38
0.095348977 0.047290828 0.27800003 -3.2724544e+38
0.095799074 0.047290828 0.27800003 -3.2457656e+38
0.096699268 0.047290828 0.27800003 -3.2589013e+38
0.097149372 0.047290828 0.27800003 -3.2986743e+38
0.097599469 0.047290828 0.27800003 -3.2986743e+38
0.098499663 0.047290828 0.27800003 -3.2586926e+38
0.098949768 0.047290828 0.27800003 -3.2453478e+38
0.099399865 0.047290828 0.27800003 -3.2453478e+38
0.099849962 0.047290828 0.27800003 -3.258536e+38
0.10075016 0.047290828 0.27800003 -3.2451916e+38
0.10120026 0.047290828 0.27800003 -3.2451916e+38
0.10165036 0.047290828 0.27800003 -3.2583803e+38
0.10345075 0.047290828 0.27800003 -3.2717247e+38
0.10390085 0.047290828 0.27800003 -3.2717247e+38
0.10480105 0.047290828 0.27800003 -3.2583803e+38
0.10525115 0.047290828 0.27800003 -3.2583803e+38
0.10570125 0.047290828 0.27800003 -3.2450359e+38
0.10615135 0.047290828 0.27800003 -3.2450359e+38
0.10705155 0.047290828 0.27800003 -3.245192e+38
0.10711495 0.047120716 0.27700001 -3.245192e+38
0.10801191 0.047120716 0.27700001 -3.2186079e+38
0.11070278 0.047120716 0.27700001 -3.2722983e+38
0.1124967 0.047120716 0.27700001 -3.3126963e+38
0.090521194 0.047569197 0.27700001 -2.9268543e+38
0.090969674 0.047569197 0.27700001 -2.9001655e+38
0.091866635 0.047569197 0.27700001 -2.9265943e+38
0.092315115 0.047569197 0.27700001 -2.9796077e+38
0.093098477 0.047740929 0.27800003 -2.9929521e+38
0.093548581 0.047740929 0.27800003 -3.0995507e+38
0.095348977 0.047740929 0.27800003 -3.2593187e+38
0.095799074 0.047740929 0.27800003 -3.2326299e+38
0.096699268 0.047740929 0.27800003 -3.2724544e+38
0.097149372 0.047740929 0.27800003 -3.2989345e+38
0.097599469 0.047740929 0.27800003 -3.2855901e+38
0.098499663 0.047740929 0.27800003 -3.2988299e+38
0.098949768 0.047740929 0.27800003 -3.2721411e+38
0.099399865 0.047740929 0.27800003 -3.2721411e+38
0.099849962 0.047740929 0.27800003 -3.2721411e+38
0.10075016 0.047740929 0.27800003 -3.2454523e+38
0.10120026 0.047740929 0.27800003 -3.2321078e+38
0.10165036 0.047740929 0.27800003 -3.2452967e+38
0.10255056 0.047740929 0.27800003 -3.2452967e+38
0.10300066 0.047740929 0.27800003 -3.2319523e+38
0.10345075 0.047740929 0.27800003 -3.2319523e+38
0.10397559 0.047569197 0.27700001 -3.2321078e+38
0.10442407 0.047569197 0.27700001 -3.2321078e+38
0.10487255 0.047569197 0.27700001 -3.2321078e+38
0.10532103 0.047569197 0.27700001 -3.2321078e+38
0.10621799 0.047569197 0.27700001 -3.2454007e+38
0.10666647 0.047569197 0.27700001 -3.2720895e+38
0.10711495 0.047569197 0.27700001 -3.2720895e+38
0.11164372 0.047397468 0.27600002 -3.1928573e+38
0.11209059 0.047397468 0.27600002 -3.1795129e+38
0.11253744 0.047397468 0.27600002 -2.9933159e+38
0.11302018 0.047225736 0.27500001 -2.8335475e+38
0.11346542 0.047225736 0.27500001 -2.8068587e+38
0.11391066 0.047225736 0.27500001 -2.7670861e+38
0.091866635 0.048017677 0.27700001 -2.8734256e+38
0.093212076 0.048017677 0.27700001 -2.8998015e+38
0.094109029 0.048017677 0.27700001 -2.9929521e+38
0.094557509 0.048017677 0.27700001 -3.0463297e+38
0.095005989 0.048017677 0.27700001 -3.1394793e+38
0.09590295 0.048017677 0.27700001 -3.2061488e+38
0.09635143 0.048017677 0.27700001 -3.2061488e+38
0.09679991 0.048017677 0.27700001 -3.2991432e+38
0.09724839 0.048017677 0.27700001 -3.2724544e+38
0.098145351 0.048017677 0.27700001 -3.3123305e+38
0.098593831 0.048017677 0.27700001 -3.2856416e+38
0.099042311 0.048017677 0.27700001 -3.2856416e+38
0.099849962 0.048191026 0.27800003 -3.298986e+38
0.10075016 0.048191026 0.27800003 -3.2855901e+38
0.10120026 0.048191026 0.27800003 -3.2589013e+38
0.10165036 0.048191026 0.27800003 -3.2589013e+38
0.10255056 0.048191026 0.27800003 -3.2987784e+38
0.10225964 0.047844328 0.27600002 -3.2720895e+38
0.10270651 0.047844328 0.27600002 -3.2720895e+38
0.10360023 0.047844328 0.27600002 -3.2722457e+38
0.10404709 0.047844328 0.27600002 -3.2589013e+38
0.10449395 0.047844328 0.27600002 -3.2589017e+38
0.10538767 0.047844328 0.27600002 -3.2589017e+38
0.10583453 0.047844328 0.27600002 -3.2722461e+38
0.1062814 0.047844328 0.27600002 -3.2722983e+38
0.10672826 0.047844328 0.27600002 -3.3256759e+38
0.11123921 0.047670979 0.27500001 -2.9532831e+38
0.11168446 0.047670979 0.27500001 -2.8999055e+38
0.1121297 0.047670979 0.27500001 -2.8202035e+38
0.11302018 0.047670979 0.27500001 -2.7669306e+38
0.11346542 0.047670979 0.27500001 -2.7669306e+38
0.11391066 0.047670979 0.27500001 -2.7536902e+38
0.093212076 0.048466157 0.27700001 -2.8465806e+38
0.094109029 0.048466157 0.27700001 -2.8465279e+38
0.094557509 0.048466157 0.27700001 -2.8465279e+38
0.095005989 0.048466157 0.27700001 -2.8864562e+38
0.09590295 0.048466157 0.27700001 -2.9262807e+38
0.09635143 0.048466157 0.27700001 -3.0063472e+38
0.09679991 0.048466157 0.27700001 -3.1794085e+38
0.09724839 0.048466157 0.27700001 -3.1927529e+38
0.098145351 0.048466157 0.27700001 -3.2459214e+38
0.098593831 0.048466157 0.27700001 -3.2725055e+38
0.099042311 0.048466157 0.27700001 -3.2991943e+38
0.099939272 0.048466157 0.27700001 -3.2991943e+38
0.10038775 0.048466157 0.27700001 -3.2991428e+38
0.10083623 0.048466157 0.27700001 -3.2591096e+38
0.10099865 0.048116222 0.27500001 -3.272454e+38
0.10144389 0.048116222 0.27500001 -3.272454e+38
0.10188914 0.048116222 0.27500001 -3.2457652e+38
0.10277962 0.048116222 0.27500001 -3.2856423e+38
0.10322487 0.048116222 0.27500001 -3.272454e+38
0.10367011 0.048116222 0.27500001 -3.2591096e+38
0.10411534 0.048116222 0.27500001 -3.2724544e+38
0.10500583 0.048116222 0.27500001 -3.25911e+38
0.10545107 0.048116222 0.27500001 -3.2991432e+38
0.11123921 0.048116222 0.27500001 -2.8067036e+38
0.11127833 0.047941256 0.27400002 -2.7933592e+38
0.11216557 0.047941256 0.27400002 -2.7669306e+38
0.11260919 0.047941256 0.27400002 -2.7403458e+38
0.11305282 0.047941256 0.27400002 -2.7536902e+38
0.094216153 0.049184911 0.27600002 -2.7936709e+38
0.095109873 0.049184911 0.27600002 -2.7668255e+38
0.095556729 0.049184911 0.27600002 -2.7400322e+38
0.096003592 0.049184911 0.27600002 -2.7266878e+38
0.096450455 0.049184911 0.27600002 -2.7664614e+38
0.097344175 0.049184911 0.27600002 -2.7797014e+38
