# .PCD v0.7 - Point Cloud Data file format
VERSION 0.7
FIELDS x y z rgb
SIZE 4 4 4 4
TYPE F F F F
COUNT 1 1 1 1
WIDTH 1113
HEIGHT 1
VIEWPOINT 0 0 0 1 0 0 0
POINTS 1113
DATA ascii
0.10397481 0.025625281 0.25500003 -3.33657e+38
0.10438767 0.025625281 0.25500003 -3.33657e+38
0.10480053 0.025625281 0.25500003 -3.3366738e+38
0.10562599 0.025725771 0.25600001 -3.3366738e+38
0.10604047 0.025725771 0.25600001 -3.3233296e+38
0.10686943 0.025725771 0.25600001 -3.3367257e+38
0.10770299 0.025826262 0.257 -3.3367257e+38
0.10811909 0.025826262 0.257 -3.3101931e+38
0.10853519 0.025826262 0.257 -3.3235373e+38
0.10936739 0.025826262 0.257 -3.2836085e+38
0.11021066 0.025926754 0.25800002 -3.257024e+38
0.11062837 0.025926754 0.25800002 -3.2703684e+38
0.11147651 0.026027245 0.259 -3.24368e+38
0.1354377 0.030147389 0.30000001 -3.1776873e+38
0.13547035 0.030046899 0.29900002 -3.1115904e+38
0.13598222 0.029946405 0.29800001 -3.205732e+38
0.078447722 0.027059244 0.26500002 -3.3907818e+38
0.079558916 0.026855022 0.26300001 nan
0.080104798 0.026752913 0.26200002 nan
0.080528997 0.026752913 0.26200002 nan
0.080644205 0.026650801 0.26100001 nan
0.081489354 0.026650801 0.26100001 nan
0.081598096 0.026548693 0.26000002 nan
0.082019053 0.026548693 0.26000002 nan
0.082860962 0.026548693 0.26000002 nan
0.082961604 0.026446583 0.259 nan
0.083800279 0.026446583 0.259 nan
0.083894439 0.026344473 0.25800002 nan
0.084312156 0.026344473 0.25800002 -3.3898433e+38
0.085147597 0.026344473 0.25800002 nan
0.085565314 0.026344473 0.25800002 nan
0.085649759 0.02624236 0.257 nan
0.086481959 0.02624236 0.257 nan
0.086898059 0.02624236 0.257 nan
0.086974412 0.02614025 0.25600001 nan
0.087803371 0.02614025 0.25600001 nan
0.088217854 0.02614025 0.25600001 nan
0.08863233 0.02614025 0.25600001 nan
0.089937553 0.02603814 0.25500003 nan
0.091229826 0.02593603 0.25400001 nan
0.092052303 0.02593603 0.25400001 nan
0.092463546 0.02593603 0.25400001 nan
0.092874788 0.02593603 0.25400001 nan
0.093697272 0.02593603 0.25400001 nan
0.094108514 0.02593603 0.25400001 nan
0.094519757 0.02593603 0.25400001 nan
0.094930999 0.02593603 0.25400001 nan
0.095753476 0.02593603 0.25400001 nan
0.096164718 0.02593603 0.25400001 nan
0.096575961 0.02593603 0.25400001 nan
0.096987203 0.02593603 0.25400001 nan
0.097809687 0.02593603 0.25400001 nan
0.09822093 0.02593603 0.25400001 nan
0.098632172 0.02593603 0.25400001 nan
0.099454649 0.02593603 0.25400001 nan
0.099865891 0.02593603 0.25400001 nan
0.10027713 0.02593603 0.25400001 nan
0.10068838 0.02593603 0.25400001 nan
0.10151086 0.02593603 0.25400001 -3.3897391e+38
0.1019221 0.02593603 0.25400001 -3.3897391e+38
0.10233334 0.02593603 0.25400001 -3.3763949e+38
0.10314909 0.02603814 0.25500003 -3.3631545e+38
0.10397481 0.02603814 0.25500003 -3.33657e+38
0.10438767 0.02603814 0.25500003 -3.33657e+38
0.10480053 0.02603814 0.25500003 -3.3233296e+38
0.10562599 0.02614025 0.25600001 -3.3366738e+38
0.10604047 0.02614025 0.25600001 -3.3233296e+38
0.10686943 0.02614025 0.25600001 -3.3366738e+38
0.10770299 0.02624236 0.257 -3.3366738e+38
0.10811909 0.02624236 0.257 -3.2836085e+38
0.10853519 0.02624236 0.257 -3.2969527e+38
0.10936739 0.02624236 0.257 -3.2836085e+38
0.11021066 0.026344473 0.25800002 -3.257024e+38
0.11062837 0.026344473 0.25800002 -3.257024e+38
0.13501726 0.030911366 0.29800001 -3.1516246e+38
0.079984732 0.027706647 0.26300001 nan
0.080528997 0.027601302 0.26200002 nan
0.080644205 0.027495952 0.26100001 nan
0.081489354 0.027495952 0.26100001 nan
0.081911936 0.027495952 0.26100001 nan
0.082019053 0.027390605 0.26000002 nan
0.082860962 0.027390605 0.26000002 nan
0.082961604 0.027285255 0.259 nan
0.083800279 0.027285255 0.259 nan
0.083894439 0.027179906 0.25800002 nan
0.084312156 0.027179906 0.25800002 nan
0.085147597 0.027179906 0.25800002 nan
0.085565314 0.027179906 0.25800002 nan
0.085649759 0.027074559 0.257 nan
0.086481959 0.027074559 0.257 nan
0.086898059 0.027074559 0.257 nan
0.086974412 0.026969209 0.25600001 nan
0.087803371 0.026969209 0.25600001 nan
0.088217854 0.026969209 0.25600001 nan
0.08863233 0.026969209 0.25600001 nan
0.089111835 0.02686386 0.25500003 nan
0.089524694 0.02686386 0.25500003 nan
0.090763278 0.02686386 0.25500003 nan
0.091176137 0.02686386 0.25500003 nan
0.091229826 0.026758514 0.25400001 nan
0.092052303 0.026758514 0.25400001 nan
0.092463546 0.026758514 0.25400001 nan
0.092874788 0.026758514 0.25400001 nan
0.094108514 0.026758514 0.25400001 nan
0.094519757 0.026758514 0.25400001 nan
0.094930999 0.026758514 0.25400001 nan
0.095753476 0.026758514 0.25400001 nan
0.096164718 0.026758514 0.25400001 nan
0.096575961 0.026758514 0.25400001 nan
0.096987203 0.026758514 0.25400001 nan
0.097809687 0.026758514 0.25400001 nan
0.09822093 0.026758514 0.25400001 nan
0.098632172 0.026758514 0.25400001 nan
0.099454649 0.026758514 0.25400001 -3.389791e+38
0.099865891 0.026758514 0.25400001 nan
0.10027713 0.026758514 0.25400001 -3.3765506e+38
0.10068838 0.026758514 0.25400001 -3.3898949e+38
0.10151086 0.026758514 0.25400001 -3.3764987e+38
0.1019221 0.026758514 0.25400001 -3.3631545e+38
0.10233334 0.026758514 0.25400001 -3.3764987e+38
0.10314909 0.02686386 0.25500003 -3.3631545e+38
0.10397481 0.02686386 0.25500003 -3.33657e+38
0.10438767 0.02686386 0.25500003 -3.33657e+38
0.10521151 0.026969209 0.25600001 -3.3366738e+38
0.10562599 0.026969209 0.25600001 -3.3366738e+38
0.10604047 0.026969209 0.25600001 -3.3366738e+38
0.10728689 0.027074559 0.257 -3.3101412e+38
0.10770299 0.027074559 0.257 -3.3101412e+38
0.10811909 0.027074559 0.257 -3.2836085e+38
0.10853519 0.027074559 0.257 -3.2836085e+38
0.10937522 0.027179906 0.25800002 -3.2836085e+38
0.11021066 0.027179906 0.25800002 -3.257024e+38
0.13405229 0.031393845 0.29800001 -3.0846409e+38
0.13408333 0.031288497 0.29700002 -3.1647074e+38
0.13456419 0.031288497 0.29700002 -3.1651252e+38
0.078447722 0.028346397 0.26500002 -3.3774374e+38
0.079984732 0.028132461 0.26300001 nan
0.080528997 0.028025495 0.26200002 nan
0.080953188 0.028025495 0.26200002 nan
0.081489354 0.027918527 0.26100001 nan
0.081911936 0.027918527 0.26100001 nan
0.082019053 0.027811561 0.26000002 nan
0.082860962 0.027811561 0.26000002 nan
0.082961604 0.027704593 0.259 nan
0.083800279 0.027704593 0.259 nan
0.084219612 0.027704593 0.259 nan
0.084312156 0.027597623 0.25800002 nan
0.085147597 0.027597623 0.25800002 nan
0.085565314 0.027597623 0.25800002 nan
0.08598303 0.027597623 0.25800002 nan
0.086481959 0.027490659 0.257 nan
0.086898059 0.027490659 0.257 nan
0.087314159 0.027490659 0.257 nan
0.087803371 0.027383689 0.25600001 nan
0.088217854 0.027383689 0.25600001 nan
0.08863233 0.027383689 0.25600001 -3.3897393e+38
0.089461289 0.027383689 0.25600001 nan
0.089524694 0.027276721 0.25500003 nan
0.091176137 0.027276721 0.25500003 nan
0.091229826 0.027169755 0.25400001 nan
0.092001855 0.027276721 0.25500003 nan
0.092827573 0.027276721 0.25500003 nan
0.09324044 0.027276721 0.25500003 nan
0.093697272 0.027169755 0.25400001 nan
0.094108514 0.027169755 0.25400001 nan
0.094930999 0.027169755 0.25400001 nan
0.095753476 0.027169755 0.25400001 nan
0.096164718 0.027169755 0.25400001 nan
0.096575961 0.027169755 0.25400001 nan
0.096987203 0.027169755 0.25400001 nan
0.097809687 0.027169755 0.25400001 nan
0.09822093 0.027169755 0.25400001 nan
0.098632172 0.027169755 0.25400001 nan
0.099454649 0.027169755 0.25400001 -3.389791e+38
0.099865891 0.027169755 0.25400001 -3.389791e+38
0.10027713 0.027169755 0.25400001 -3.3765506e+38
0.10068838 0.027169755 0.25400001 -3.3898949e+38
0.10149765 0.027276721 0.25500003 -3.3499142e+38
0.10232337 0.027276721 0.25500003 -3.3499142e+38
0.10273623 0.027276721 0.25500003 -3.3499142e+38
0.10314909 0.027276721 0.25500003 -3.3499142e+38
0.10397481 0.027276721 0.25500003 -3.33657e+38
0.10479704 0.027383689 0.25600001 -3.3499142e+38
0.10521151 0.027383689 0.25600001 -3.3366738e+38
0.10562599 0.027383689 0.25600001 -3.3366738e+38
0.1064547 0.027490659 0.257 -3.3366738e+38
0.10728689 0.027490659 0.257 -3.3101412e+38
0.10770299 0.027490659 0.257 -3.3101412e+38
0.10853978 0.027597623 0.25800002 -3.2836087e+38
0.1089575 0.027597623 0.25800002 -3.2836087e+38
0.10937522 0.027597623 0.25800002 -3.2836087e+38
0.1102185 0.027704593 0.259 -3.2702643e+38
0.13312161 0.031769358 0.29700002 -3.1776877e+38
0.13315262 0.031662393 0.296 -3.1381226e+38
0.13363186 0.031662393 0.296 -3.2048446e+38
0.077882417 0.028884033 0.266 -3.3642492e+38
0.078447722 0.028775448 0.26500002 -3.3774374e+38
0.078876778 0.028775448 0.26500002 nan
0.080528997 0.028449688 0.26200002 nan
0.080953188 0.028449688 0.26200002 nan
0.081489354 0.028341101 0.26100001 nan
0.081911936 0.028341101 0.26100001 nan
0.082334511 0.028341101 0.26100001 nan
0.082860962 0.028232517 0.26000002 nan
0.083281919 0.028232517 0.26000002 nan
0.083800279 0.028123928 0.259 nan
0.084219612 0.028123928 0.259 nan
0.084312156 0.028015342 0.25800002 nan
0.085147597 0.028015342 0.25800002 nan
0.085565314 0.028015342 0.25800002 nan
0.08598303 0.028015342 0.25800002 nan
0.086481959 0.027906757 0.257 nan
0.086898059 0.027906757 0.257 nan
0.087314159 0.027906757 0.257 nan
0.087730259 0.027906757 0.257 nan
0.088217854 0.027798168 0.25600001 nan
0.08863233 0.027798168 0.25600001 -3.3897393e+38
0.089461289 0.027798168 0.25600001 nan
0.089875773 0.027798168 0.25600001 nan
0.090763278 0.027689582 0.25500003 nan
0.091533691 0.027798168 0.25600001 nan
0.091588996 0.027689582 0.25500003 nan
0.092001855 0.027689582 0.25500003 nan
0.092827573 0.027689582 0.25500003 nan
0.09324044 0.027689582 0.25500003 nan
0.093653299 0.027689582 0.25500003 nan
0.094479017 0.027689582 0.25500003 nan
0.095304742 0.027689582 0.25500003 nan
0.096164718 0.027580997 0.25400001 nan
0.096575961 0.027580997 0.25400001 nan
0.096987203 0.027580997 0.25400001 nan
0.097809687 0.027580997 0.25400001 nan
0.09822093 0.027580997 0.25400001 nan
0.098632172 0.027580997 0.25400001 -3.3897391e+38
0.099454649 0.027580997 0.25400001 -3.389791e+38
0.099865891 0.027580997 0.25400001 -3.389791e+38
0.10067192 0.027689582 0.25500003 -3.3898949e+38
0.10108478 0.027689582 0.25500003 -3.3898949e+38
0.10149765 0.027689582 0.25500003 -3.3499142e+38
0.10232337 0.027689582 0.25500003 -3.3499142e+38
0.10273623 0.027689582 0.25500003 -3.3499142e+38
0.10314909 0.027689582 0.25500003 -3.3499142e+38
0.10396808 0.027798168 0.25600001 -3.33657e+38
0.10479704 0.027798168 0.25600001 -3.3499142e+38
0.10521151 0.027798168 0.25600001 -3.3366738e+38
0.10562599 0.027798168 0.25600001 -3.3366738e+38
0.1064547 0.027906757 0.257 -3.3366738e+38
0.10728689 0.027906757 0.257 -3.3101412e+38
0.10812207 0.028015342 0.25800002 -3.3101412e+38
0.10853978 0.028015342 0.25800002 -3.2836087e+38
0.1089575 0.028015342 0.25800002 -3.2702643e+38
0.10979916 0.028123928 0.259 -3.2702643e+38
0.1102185 0.028123928 0.259 -3.2569201e+38
0.081911936 0.028763676 0.26100001 nan
0.082334511 0.028763676 0.26100001 nan
0.082860962 0.028653473 0.26000002 nan
0.083281919 0.028653473 0.26000002 nan
0.083800279 0.028543266 0.259 nan
0.084219612 0.028543266 0.259 nan
0.084638953 0.028543266 0.259 nan
0.085058287 0.028543266 0.259 nan
0.085565314 0.028433058 0.25800002 nan
0.08598303 0.028433058 0.25800002 nan
0.086400747 0.028433058 0.25800002 nan
0.086898059 0.028322855 0.257 nan
0.087314159 0.028322855 0.257 nan
0.087730259 0.028322855 0.257 nan
0.088217854 0.028212648 0.25600001 nan
0.08863233 0.028212648 0.25600001 -3.3897391e+38
0.089461289 0.028212648 0.25600001 nan
0.089875773 0.028212648 0.25600001 nan
0.090290248 0.028212648 0.25600001 -3.3897393e+38
0.090704732 0.028212648 0.25600001 -3.3897393e+38
0.091176137 0.028102441 0.25500003 nan
0.091588996 0.028102441 0.25500003 nan
0.092001855 0.028102441 0.25500003 nan
0.092827573 0.028102441 0.25500003 nan
0.09324044 0.028102441 0.25500003 nan
0.093653299 0.028102441 0.25500003 nan
0.095304742 0.028102441 0.25500003 nan
0.09654332 0.028102441 0.25500003 nan
0.096956179 0.028102441 0.25500003 nan
0.097369045 0.028102441 0.25500003 nan
0.098194763 0.028102441 0.25500003 -3.3897391e+38
0.098607622 0.028102441 0.25500003 -3.3897391e+38
0.099020481 0.028102441 0.25500003 -3.3897391e+38
0.099433348 0.028102441 0.25500003 -3.3763949e+38
0.10025907 0.028102441 0.25500003 -3.3897391e+38
0.10067192 0.028102441 0.25500003 -3.3898429e+38
0.10108478 0.028102441 0.25500003 -3.3898429e+38
0.10149765 0.028102441 0.25500003 -3.3499142e+38
0.10232337 0.028102441 0.25500003 -3.3499142e+38
0.10273623 0.028102441 0.25500003 -3.3499142e+38
0.10355359 0.028212648 0.25600001 -3.3499144e+38
0.10396808 0.028212648 0.25600001 -3.33657e+38
0.10479704 0.028212648 0.25600001 -3.3366738e+38
0.10521151 0.028212648 0.25600001 -3.3366738e+38
0.10603859 0.028322855 0.257 -3.3366738e+38
0.1064547 0.028322855 0.257 -3.3366738e+38
0.10728663 0.028433058 0.25800002 -3.3767068e+38
0.10812207 0.028433058 0.25800002 -3.296797e+38
0.10853978 0.028433058 0.25800002 -3.2702643e+38
0.1089575 0.028433058 0.25800002 -3.2702643e+38
0.10979916 0.028543266 0.259 -3.2569201e+38
0.1102185 0.028543266 0.259 -3.2569201e+38
0.13267338 0.032620877 0.296 -3.1647078e+38
0.13315262 0.032620877 0.296 -3.1650201e+38
0.077742919 0.0298572 0.26700002 -3.3910931e+38
0.077882417 0.029745374 0.266 -3.3510599e+38
0.078743763 0.029745374 0.266 -3.3907814e+38
0.078876778 0.029633552 0.26500002 nan
0.079305828 0.029633552 0.26500002 -3.3907814e+38
0.079861425 0.029521724 0.264 -3.3906252e+38
0.079984732 0.029409898 0.26300001 nan
0.080836356 0.029409898 0.26300001 nan
0.080953188 0.029298076 0.26200002 nan
0.081377387 0.029298076 0.26200002 nan
0.13222516 0.032988291 0.29500002 -3.2047935e+38
0.077742919 0.030289488 0.26700002 -3.3910931e+38
0.077882417 0.030176044 0.266 -3.3510599e+38
0.078743763 0.030176044 0.266 -3.3907814e+38
0.078876778 0.030062603 0.26500002 nan
0.079305828 0.030062603 0.26500002 -3.3907814e+38
0.079861425 0.029949157 0.264 -3.3906252e+38
0.079984732 0.029835712 0.26300001 nan
0.080836356 0.029835712 0.26300001 nan
0.080953188 0.02972227 0.26200002 nan
0.081377387 0.02972227 0.26200002 nan
0.08222577 0.02972227 0.26200002 nan
0.082334511 0.029608825 0.26100001 nan
0.08317966 0.029608825 0.26100001 nan
0.083281919 0.029495385 0.26000002 nan
0.08370287 0.029495385 0.26000002 nan
0.084219612 0.029381938 0.259 nan
0.084638953 0.029381938 0.259 nan
0.085058287 0.029381938 0.259 nan
0.085565314 0.029268494 0.25800002 nan
0.08598303 0.029268494 0.25800002 nan
0.086400747 0.029268494 0.25800002 nan
0.086898059 0.029155051 0.257 nan
0.087314159 0.029155051 0.257 nan
0.087730259 0.029155051 0.257 nan
0.088562451 0.029155051 0.257 nan
0.08863233 0.029041607 0.25600001 nan
0.089461289 0.029041607 0.25600001 nan
0.089875773 0.029041607 0.25600001 nan
0.090290248 0.029041607 0.25600001 -3.3897393e+38
0.090704732 0.029041607 0.25600001 -3.3897393e+38
0.091533691 0.029041607 0.25600001 nan
0.091588996 0.028928163 0.25500003 nan
0.092001855 0.028928163 0.25500003 nan
0.092827573 0.028928163 0.25500003 nan
0.09324044 0.028928163 0.25500003 nan
0.094479017 0.028928163 0.25500003 nan
0.095304742 0.028928163 0.25500003 nan
0.09654332 0.028928163 0.25500003 nan
0.096956179 0.028928163 0.25500003 nan
0.097369045 0.028928163 0.25500003 -3.3897391e+38
0.098194763 0.028928163 0.25500003 -3.3764987e+38
0.098607622 0.028928163 0.25500003 -3.3898429e+38
0.099020481 0.028928163 0.25500003 -3.3632584e+38
0.099433348 0.028928163 0.25500003 -3.3499142e+38
0.10025907 0.028928163 0.25500003 -3.3632584e+38
0.10067192 0.028928163 0.25500003 -3.3632584e+38
0.10108478 0.028928163 0.25500003 -3.3632584e+38
0.10149765 0.028928163 0.25500003 -3.3499142e+38
0.10232337 0.028928163 0.25500003 -3.3499142e+38
0.10313912 0.029041607 0.25600001 -3.3499142e+38
0.10355359 0.029041607 0.25600001 -3.33657e+38
0.10396808 0.029041607 0.25600001 -3.33657e+38
0.10479704 0.029041607 0.25600001 -3.3233296e+38
0.10562249 0.029155051 0.257 -3.3233296e+38
0.10603859 0.029155051 0.257 -3.3233296e+38
0.1064547 0.029155051 0.257 -3.3101412e+38
0.10728663 0.029268494 0.25800002 -3.3234854e+38
0.10812207 0.029268494 0.25800002 -3.2702643e+38
0.10853978 0.029268494 0.25800002 -3.2569201e+38
0.1089575 0.029268494 0.25800002 -3.2702643e+38
0.10979916 0.029381938 0.259 -3.2303356e+38
0.1102185 0.029381938 0.259 -3.2436798e+38
0.13227749 0.033239029 0.29300001 -3.2320038e+38
0.077742919 0.030721778 0.26700002 nan
0.077882417 0.030606713 0.266 -3.3510084e+38
0.078743763 0.030606713 0.266 -3.3907814e+38
0.078876778 0.030491654 0.26500002 nan
0.079305828 0.030491654 0.26500002 nan
0.079861425 0.030376589 0.264 -3.3906252e+38
0.080288857 0.030376589 0.264 nan
0.080836356 0.030261526 0.26300001 nan
0.081262171 0.030261526 0.26300001 nan
0.081377387 0.030146465 0.26200002 nan
0.08222577 0.030146465 0.26200002 nan
0.082334511 0.0300314 0.26100001 nan
0.08317966 0.0300314 0.26100001 nan
0.083281919 0.029916339 0.26000002 nan
0.08370287 0.029916339 0.26000002 nan
0.084544785 0.029916339 0.26000002 nan
0.084965743 0.029916339 0.26000002 nan
0.085058287 0.029801276 0.259 nan
0.085896961 0.029801276 0.259 nan
0.08598303 0.029686211 0.25800002 nan
0.086400747 0.029686211 0.25800002 nan
0.087236181 0.029686211 0.25800002 nan
0.087314159 0.029571151 0.257 nan
0.087730259 0.029571151 0.257 nan
0.088562451 0.029571151 0.257 nan
0.088978551 0.029571151 0.257 nan
0.089394651 0.029571151 0.257 nan
0.090226844 0.029571151 0.257 nan
0.090642944 0.029571151 0.257 -3.3897391e+38
0.090704732 0.029456086 0.25600001 -3.3897391e+38
0.091533691 0.029456086 0.25600001 nan
0.091948166 0.029456086 0.25600001 nan
0.09236265 0.029456086 0.25600001 nan
0.092827573 0.029341023 0.25500003 nan
0.09324044 0.029341023 0.25500003 nan
0.094479017 0.029341023 0.25500003 nan
0.094891876 0.029341023 0.25500003 nan
0.095304742 0.029341023 0.25500003 nan
0.09654332 0.029341023 0.25500003 -3.3897391e+38
0.096956179 0.029341023 0.25500003 -3.3897391e+38
0.097369045 0.029341023 0.25500003 -3.3764987e+38
0.098194763 0.029341023 0.25500003 -3.3499142e+38
0.098607622 0.029341023 0.25500003 -3.3632584e+38
0.099020481 0.029341023 0.25500003 -3.3632584e+38
0.099433348 0.029341023 0.25500003 -3.3499142e+38
0.10025907 0.029341023 0.25500003 -3.3632584e+38
0.10067192 0.029341023 0.25500003 -3.3632584e+38
0.10108478 0.029341023 0.25500003 -3.3632584e+38
0.10189568 0.029456086 0.25600001 -3.3499142e+38
0.10272463 0.029456086 0.25600001 -3.3499142e+38
0.10313912 0.029456086 0.25600001 -3.3499142e+38
0.10355359 0.029456086 0.25600001 -3.33657e+38
0.10396808 0.029456086 0.25600001 -3.33657e+38
0.1047903 0.029571151 0.257 -3.3099854e+38
0.10562249 0.029571151 0.257 -3.3233296e+38
0.10603859 0.029571151 0.257 -3.3233296e+38
0.10686892 0.029686211 0.25800002 -3.3101412e+38
0.10728663 0.029686211 0.25800002 -3.3101412e+38
0.10812207 0.029686211 0.25800002 -3.2702643e+38
0.10853978 0.029686211 0.25800002 -3.2569201e+38
0.10937982 0.029801276 0.259 -3.2569201e+38
0.10979916 0.029801276 0.259 -3.2303356e+38
0.11064404 0.029916339 0.26000002 -3.2436798e+38
0.13132872 0.033713412 0.29300001 -3.2050022e+38
0.13227749 0.033713412 0.29300001 -3.2188681e+38
0.1322988 0.033598348 0.29200003 -3.1794085e+38
0.078034095 0.03127075 0.26800001 -3.3911982e+38
0.078175209 0.031154066 0.26700002 -3.3378206e+38
0.078743763 0.031037385 0.266 -3.3642492e+38
0.079174429 0.031037385 0.266 -3.3907818e+38
0.079305828 0.030920705 0.26500002 -3.3907818e+38
0.080163926 0.030920705 0.26500002 -3.3906256e+38
0.080288857 0.030804021 0.264 nan
0.08071629 0.030804021 0.264 nan
0.081262171 0.030687338 0.26300001 nan
0.081687987 0.030687338 0.26300001 nan
0.08222577 0.030570658 0.26200002 nan
0.082649969 0.030570658 0.26200002 nan
0.08317966 0.030453974 0.26100001 nan
0.083602235 0.030453974 0.26100001 nan
0.08370287 0.030337295 0.26000002 nan
0.084544785 0.030337295 0.26000002 nan
0.084965743 0.030337295 0.26000002 nan
0.085386693 0.030337295 0.26000002 nan
0.085896961 0.030220613 0.259 nan
0.086316295 0.030220613 0.259 nan
0.086400747 0.030103929 0.25800002 nan
0.087236181 0.030103929 0.25800002 nan
0.087653898 0.030103929 0.25800002 nan
0.088071615 0.030103929 0.25800002 nan
0.088907056 0.030103929 0.25800002 nan
0.088978551 0.02998725 0.257 nan
0.089394651 0.02998725 0.257 nan
0.090226844 0.02998725 0.257 nan
0.090642944 0.02998725 0.257 nan
0.090704732 0.029870566 0.25600001 -3.3897391e+38
0.091533691 0.029870566 0.25600001 nan
0.091948166 0.029870566 0.25600001 nan
0.09236265 0.029870566 0.25600001 -3.3897391e+38
0.093191609 0.029870566 0.25600001 -3.3897391e+38
0.093606085 0.029870566 0.25600001 -3.3897391e+38
0.094020568 0.029870566 0.25600001 -3.3897391e+38
0.094435044 0.029870566 0.25600001 nan
0.094891876 0.029753882 0.25500003 -3.3897391e+38
0.095304742 0.029753882 0.25500003 -3.3897391e+38
0.095717601 0.029753882 0.25500003 -3.3763949e+38
0.09654332 0.029753882 0.25500003 -3.3897391e+38
0.096956179 0.029753882 0.25500003 -3.3897391e+38
0.097369045 0.029753882 0.25500003 -3.3764987e+38
0.098194763 0.029753882 0.25500003 -3.3499142e+38
0.098607622 0.029753882 0.25500003 -3.3632584e+38
0.099020481 0.029753882 0.25500003 -3.3499142e+38
0.099433348 0.029753882 0.25500003 -3.3499142e+38
0.10023776 0.029870566 0.25600001 -3.3632584e+38
0.10106672 0.029870566 0.25600001 -3.3632584e+38
0.1014812 0.029870566 0.25600001 -3.3632584e+38
0.10189568 0.029870566 0.25600001 -3.3499142e+38
0.10272463 0.029870566 0.25600001 -3.3499142e+38
0.10313912 0.029870566 0.25600001 -3.33657e+38
0.1039581 0.02998725 0.257 -3.33657e+38
0.1043742 0.02998725 0.257 -3.33657e+38
0.1047903 0.02998725 0.257 -3.3099854e+38
0.10562249 0.02998725 0.257 -3.3233296e+38
0.1064512 0.030103929 0.25800002 -3.3233296e+38
0.10686892 0.030103929 0.25800002 -3.296797e+38
0.10728663 0.030103929 0.25800002 -3.3101412e+38
0.10812207 0.030103929 0.25800002 -3.2569201e+38
0.10896049 0.030220613 0.259 -3.2569201e+38
0.10937982 0.030220613 0.259 -3.2569201e+38
0.11022308 0.030337295 0.26000002 -3.2303356e+38
0.1110696 0.030453974 0.26100001 -3.2303356e+38
0.13040774 0.034543879 0.29200003 -3.1651256e+38
0.13088049 0.034543879 0.29200003 -3.2185032e+38
0.13182603 0.034543879 0.29200003 -3.245609e+38
0.1322988 0.034543879 0.29200003 -3.1929616e+38
0.078175209 0.032018647 0.26700002 -3.3511656e+38
0.078743763 0.031898726 0.266 -3.3643017e+38
0.079174429 0.031898726 0.266 -3.3642492e+38
0.079305828 0.031778805 0.26500002 -3.3642492e+38
0.080163926 0.031778805 0.26500002 -3.3774374e+38
0.080288857 0.031658884 0.264 nan
0.08071629 0.031658884 0.264 nan
0.081262171 0.031538963 0.26300001 nan
0.081687987 0.031538963 0.26300001 nan
0.082539611 0.031538963 0.26300001 nan
0.082649969 0.031419046 0.26200002 nan
0.08307416 0.031419046 0.26200002 nan
0.083602235 0.031299125 0.26100001 nan
0.084024809 0.031299125 0.26100001 nan
0.084447384 0.031299125 0.26100001 nan
0.084965743 0.031179206 0.26000002 nan
0.085386693 0.031179206 0.26000002 nan
0.085896961 0.031059286 0.259 nan
0.086316295 0.031059286 0.259 nan
0.086735636 0.031059286 0.259 nan
0.087236181 0.030939365 0.25800002 nan
0.087993644 0.031059286 0.259 nan
0.088071615 0.030939365 0.25800002 nan
0.088907056 0.030939365 0.25800002 nan
0.089324772 0.030939365 0.25800002 nan
0.089394651 0.030819446 0.257 nan
0.090226844 0.030819446 0.257 nan
0.090642944 0.030819446 0.257 nan
0.091059044 0.030819446 0.257 nan
0.091533691 0.030699525 0.25600001 nan
0.091948166 0.030699525 0.25600001 -3.3898429e+38
0.09236265 0.030699525 0.25600001 -3.3764987e+38
0.093191609 0.030699525 0.25600001 -3.3764987e+38
0.093606085 0.030699525 0.25600001 -3.3764987e+38
0.094020568 0.030699525 0.25600001 -3.3764987e+38
0.094435044 0.030699525 0.25600001 -3.3898429e+38
0.095264003 0.030699525 0.25600001 -3.3764987e+38
0.095678486 0.030699525 0.25600001 -3.3764987e+38
0.096092962 0.030699525 0.25600001 -3.3631545e+38
0.096507445 0.030699525 0.25600001 -3.3631545e+38
0.097336404 0.030699525 0.25600001 -3.3764987e+38
0.09775088 0.030699525 0.25600001 -3.3764987e+38
0.098165363 0.030699525 0.25600001 -3.3764987e+38
0.098994322 0.030699525 0.25600001 -3.3898429e+38
0.099408798 0.030699525 0.25600001 -3.3499142e+38
0.099823281 0.030699525 0.25600001 -3.3499142e+38
0.10023776 0.030699525 0.25600001 -3.33657e+38
0.10106672 0.030699525 0.25600001 -3.350018e+38
0.1014812 0.030699525 0.25600001 -3.3366738e+38
0.10189568 0.030699525 0.25600001 -3.3233296e+38
0.10270981 0.030819446 0.257 -3.3233296e+38
0.103542 0.030819446 0.257 -3.3233296e+38
0.1039581 0.030819446 0.257 -3.3233296e+38
0.1043742 0.030819446 0.257 -3.3233296e+38
0.1047903 0.030819446 0.257 -3.3099854e+38
0.10561576 0.030939365 0.25800002 -3.3233296e+38
0.1064512 0.030939365 0.25800002 -3.3099854e+38
0.10686892 0.030939365 0.25800002 -3.296797e+38
0.10770248 0.031059286 0.259 -3.3101412e+38
0.10812181 0.031059286 0.259 -3.2569201e+38
0.10896049 0.031059286 0.259 -3.2436798e+38
0.10980213 0.031179206 0.26000002 -3.2436798e+38
0.11064703 0.031299125 0.26100001 -3.2436798e+38
0.1110696 0.031299125 0.26100001 -3.2436798e+38
0.1294622 0.035016645 0.29200003 -3.204741e+38
0.12993497 0.035016645 0.29200003 -3.2447742e+38
0.13040774 0.035016645 0.29200003 -3.1918144e+38
0.13090341 0.034896724 0.29100001 -3.1656988e+38
0.13137457 0.034896724 0.29100001 -3.2324208e+38
0.13184571 0.034896724 0.29100001 -3.2064622e+38
0.078175209 0.032450933 0.26700002 -3.324633e+38
0.078743763 0.032329395 0.266 -3.3643017e+38
0.079174429 0.032329395 0.266 -3.3775936e+38
0.079305828 0.032207858 0.26500002 -3.3775936e+38
0.080163926 0.032207858 0.26500002 -3.3774374e+38
0.080288857 0.032086316 0.264 nan
0.08071629 0.032086316 0.264 nan
0.081571154 0.032086316 0.264 nan
0.081687987 0.031964775 0.26300001 nan
0.082539611 0.031964775 0.26300001 nan
0.082649969 0.031843241 0.26200002 nan
0.08307416 0.031843241 0.26200002 nan
0.08392255 0.031843241 0.26200002 nan
0.084024809 0.0317217 0.26100001 nan
0.084447384 0.0317217 0.26100001 nan
0.085292533 0.0317217 0.26100001 nan
0.085386693 0.031600162 0.26000002 nan
0.085807651 0.031600162 0.26000002 nan
0.086316295 0.031478621 0.259 nan
0.087070517 0.031600162 0.26000002 nan
0.08715497 0.031478621 0.259 nan
0.087993644 0.031478621 0.259 nan
0.088412978 0.031478621 0.259 nan
0.088907056 0.031357083 0.25800002 nan
0.089324772 0.031357083 0.25800002 nan
0.089742489 0.031357083 0.25800002 nan
0.090226844 0.031235546 0.257 nan
0.090642944 0.031235546 0.257 nan
0.091059044 0.031235546 0.257 nan
0.091475144 0.031235546 0.257 nan
0.091948166 0.031114005 0.25600001 -3.3899472e+38
0.09236265 0.031114005 0.25600001 -3.3632584e+38
0.093191609 0.031114005 0.25600001 -3.3898429e+38
0.093606085 0.031114005 0.25600001 -3.3764987e+38
0.094020568 0.031114005 0.25600001 -3.3764987e+38
0.094435044 0.031114005 0.25600001 -3.3898429e+38
0.095264003 0.031114005 0.25600001 -3.3764987e+38
0.095678486 0.031114005 0.25600001 -3.3764987e+38
0.096092962 0.031114005 0.25600001 -3.3631545e+38
0.096507445 0.031114005 0.25600001 -3.3764987e+38
0.097336404 0.031114005 0.25600001 -3.3764987e+38
0.09775088 0.031114005 0.25600001 -3.3764987e+38
0.098165363 0.031114005 0.25600001 -3.3764987e+38
0.098994322 0.031114005 0.25600001 -3.3632584e+38
0.099408798 0.031114005 0.25600001 -3.3499142e+38
0.099823281 0.031114005 0.25600001 -3.3499142e+38
0.10023776 0.031114005 0.25600001 -3.33657e+38
0.10106672 0.031114005 0.25600001 -3.350018e+38
0.1014812 0.031114005 0.25600001 -3.3366738e+38
0.10229371 0.031235546 0.257 -3.3233296e+38
0.10270981 0.031235546 0.257 -3.3233296e+38
0.103542 0.031235546 0.257 -3.3233296e+38
0.1039581 0.031235546 0.257 -3.3099854e+38
0.1043742 0.031235546 0.257 -3.3233296e+38
0.1047903 0.031235546 0.257 -3.3099854e+38
0.10561576 0.031357083 0.25800002 -3.3099854e+38
0.1064512 0.031357083 0.25800002 -3.3099854e+38
0.10686892 0.031357083 0.25800002 -3.296797e+38
0.10770248 0.031478621 0.259 -3.296797e+38
0.10812181 0.031478621 0.259 -3.2569201e+38
0.10896049 0.031478621 0.259 -3.257024e+38
0.10980213 0.031600162 0.26000002 -3.257024e+38
0.11064703 0.0317217 0.26100001 -3.2304394e+38
0.12713425 0.035367873 0.29100001 -3.2176694e+38
0.12760539 0.035367873 0.29100001 -3.2176694e+38
0.12807654 0.035367873 0.29100001 -3.1911889e+38
0.12901883 0.035367873 0.29100001 -3.2047935e+38
0.12948997 0.035367873 0.29100001 -3.2448267e+38
0.12996112 0.035367873 0.29100001 -3.2185032e+38
0.13090341 0.035367873 0.29100001 -3.1791998e+38
0.13137457 0.035367873 0.29100001 -3.2325774e+38
0.13184571 0.035367873 0.29100001 -3.2332546e+38
0.078175209 0.032883223 0.26700002 -3.3114447e+38
0.078743763 0.032760065 0.266 -3.3644579e+38
0.079174429 0.032760065 0.266 -3.3643532e+38
0.079305828 0.032636907 0.26500002 -3.3643532e+38
0.080163926 0.032636907 0.26500002 -3.3642492e+38
0.080592982 0.032636907 0.26500002 nan
0.08071629 0.032513749 0.264 -3.3906252e+38
0.081571154 0.032513749 0.264 nan
0.081998587 0.032513749 0.264 nan
0.082539611 0.032390591 0.26300001 nan
0.082965426 0.032390591 0.26300001 nan
0.083391234 0.032390591 0.26300001 nan
0.08392255 0.032267433 0.26200002 nan
0.084346741 0.032267433 0.26200002 nan
0.084770933 0.032267433 0.26200002 nan
0.085292533 0.032144275 0.26100001 nan
0.085715108 0.032144275 0.26100001 nan
0.086137682 0.032144275 0.26100001 nan
0.086560257 0.032144275 0.26100001 nan
0.087070517 0.032021116 0.26000002 nan
0.087491475 0.032021116 0.26000002 nan
0.087993644 0.031897958 0.259 nan
0.088412978 0.031897958 0.259 nan
0.088832319 0.031897958 0.259 nan
0.089324772 0.0317748 0.25800002 nan
0.089742489 0.0317748 0.25800002 nan
0.090160206 0.0317748 0.25800002 nan
0.090642944 0.031651642 0.257 nan
0.091059044 0.031651642 0.257 nan
0.091475144 0.031651642 0.257 nan
0.092307337 0.031651642 0.257 nan
0.092723437 0.031651642 0.257 -3.3899472e+38
0.093139537 0.031651642 0.257 -3.3899472e+38
0.093606085 0.031528484 0.25600001 -3.3632584e+38
0.094020568 0.031528484 0.25600001 -3.3632584e+38
0.094435044 0.031528484 0.25600001 -3.3632584e+38
0.095264003 0.031528484 0.25600001 -3.3764987e+38
0.095678486 0.031528484 0.25600001 -3.3764987e+38
0.096092962 0.031528484 0.25600001 -3.3764987e+38
0.096507445 0.031528484 0.25600001 -3.3764987e+38
0.097336404 0.031528484 0.25600001 -3.3631545e+38
0.09775088 0.031528484 0.25600001 -3.3499142e+38
0.098165363 0.031528484 0.25600001 -3.3499142e+38
0.098994322 0.031528484 0.25600001 -3.3499142e+38
0.099408798 0.031528484 0.25600001 -3.3499142e+38
0.099823281 0.031528484 0.25600001 -3.33657e+38
0.10023776 0.031528484 0.25600001 -3.3499142e+38
0.10104541 0.031651642 0.257 -3.33657e+38
0.10187761 0.031651642 0.257 -3.3366738e+38
0.10229371 0.031651642 0.257 -3.3233296e+38
0.10270981 0.031651642 0.257 -3.3366738e+38
0.10352717 0.0317748 0.25800002 -3.3233296e+38
0.1039581 0.031651642 0.257 -3.3099854e+38
0.1043742 0.031651642 0.257 -3.3233296e+38
0.10519804 0.0317748 0.25800002 -3.2966412e+38
0.10561576 0.0317748 0.25800002 -3.3099854e+38
0.1064512 0.0317748 0.25800002 -3.296797e+38
0.10728314 0.031897958 0.259 -3.2702643e+38
0.10770248 0.031897958 0.259 -3.2702643e+38
0.10812181 0.031897958 0.259 -3.2703688e+38
0.10896049 0.031897958 0.259 -3.2437842e+38
0.10980213 0.032021116 0.26000002 -3.2437842e+38
0.11064703 0.032144275 0.26100001 -3.2305439e+38
0.1110696 0.032144275 0.26100001 -3.2438883e+38
0.1257208 0.035839017 0.29100001 -3.2309087e+38
0.12666309 0.035839017 0.29100001 -3.2177209e+38
0.12669736 0.035715863 0.29000002 -3.2177215e+38
0.12716688 0.035715863 0.29000002 -3.2177215e+38
0.12810594 0.035715863 0.29000002 -3.2312221e+38
0.12857547 0.035715863 0.29000002 -3.1916053e+38
0.12904499 0.035715863 0.29000002 -3.2316385e+38
0.12951453 0.035715863 0.29000002 -3.1920746e+38
0.13045359 0.035715863 0.29000002 -3.1792523e+38
0.13092311 0.035715863 0.29000002 -3.2326299e+38
0.080163926 0.03306596 0.26500002 -3.3642492e+38
0.080592982 0.03306596 0.26500002 nan
0.081022032 0.03306596 0.26500002 nan
0.081571154 0.032941181 0.264 nan
0.081998587 0.032941181 0.264 nan
0.082539611 0.032816403 0.26300001 nan
0.082965426 0.032816403 0.26300001 nan
0.083391234 0.032816403 0.26300001 nan
0.08381705 0.032816403 0.26300001 nan
0.084668674 0.032816403 0.26300001 nan
0.084770933 0.032691628 0.26200002 nan
0.085195132 0.032691628 0.26200002 nan
0.086043514 0.032691628 0.26200002 nan
0.086467713 0.032691628 0.26200002 nan
0.086560257 0.032566849 0.26100001 nan
0.087405406 0.032566849 0.26100001 nan
0.087491475 0.032442074 0.26000002 nan
0.088333391 0.032442074 0.26000002 nan
0.088412978 0.032317296 0.259 nan
0.088832319 0.032317296 0.259 nan
0.089670993 0.032317296 0.259 nan
0.089742489 0.032192517 0.25800002 nan
0.090160206 0.032192517 0.25800002 nan
0.09099564 0.032192517 0.25800002 nan
0.091059044 0.032067742 0.257 nan
0.091475144 0.032067742 0.257 nan
0.092307337 0.032067742 0.257 nan
0.092723437 0.032067742 0.257 -3.3900512e+38
0.093139537 0.032067742 0.257 -3.3900512e+38
0.093971737 0.032067742 0.257 -3.3899472e+38
0.094387837 0.032067742 0.257 -3.3632584e+38
0.094803929 0.032067742 0.257 -3.3632584e+38
0.095220029 0.032067742 0.257 -3.3632584e+38
0.096052229 0.032067742 0.257 -3.3632584e+38
0.096468329 0.032067742 0.257 -3.3632584e+38
0.096884422 0.032067742 0.257 -3.3499142e+38
0.097716622 0.032067742 0.257 -3.3499142e+38
0.098132722 0.032067742 0.257 -3.3632584e+38
0.098548822 0.032067742 0.257 -3.3632584e+38
0.098964915 0.032067742 0.257 -3.3632584e+38
0.099797115 0.032067742 0.257 -3.3499142e+38
0.10021321 0.032067742 0.257 -3.3499142e+38
0.10062931 0.032067742 0.257 -3.3499142e+38
0.10104541 0.032067742 0.257 -3.3499142e+38
0.10187761 0.032067742 0.257 -3.3366738e+38
0.10269174 0.032192517 0.25800002 -3.3233296e+38
0.10310946 0.032192517 0.25800002 -3.3366738e+38
0.10352717 0.032192517 0.25800002 -3.3233296e+38
0.10436261 0.032192517 0.25800002 -3.3099854e+38
0.10478032 0.032192517 0.25800002 -3.3099854e+38
0.10519804 0.032192517 0.25800002 -3.3099854e+38
0.10561576 0.032192517 0.25800002 -3.3099854e+38
0.1068638 0.032317296 0.259 -3.296797e+38
0.10728314 0.032317296 0.259 -3.2836087e+38
0.10770248 0.032317296 0.259 -3.2836087e+38
0.10812181 0.032317296 0.259 -3.2837132e+38
0.10896022 0.032442074 0.26000002 -3.2837132e+38
0.10980213 0.032442074 0.26000002 -3.2570771e+38
0.11064703 0.032566849 0.26100001 -3.2439929e+38
0.1110696 0.032566849 0.26100001 -3.2439929e+38
0.0786075 0.033747803 0.26700002 -3.3513218e+38
0.079174429 0.033621404 0.266 -3.391042e+38
0.079605103 0.033621404 0.266 -3.3643532e+38
0.12524965 0.036781311 0.29100001 -3.2177209e+38
0.12575831 0.036654916 0.29000002 -3.2044286e+38
0.12622783 0.036654916 0.29000002 -3.2311175e+38
0.12669736 0.036654916 0.29000002 -3.204741e+38
0.12716688 0.036654916 0.29000002 -3.1780522e+38
0.12810594 0.036654916 0.29000002 -3.2049497e+38
0.1281321 0.03652852 0.289 -3.1652814e+38
0.12904499 0.036654916 0.29000002 -3.218659e+38
0.12951453 0.036654916 0.29000002 -3.1922829e+38
0.13000374 0.03652852 0.289 -3.1928569e+38
0.07947208 0.03418009 0.26700002 -3.3645094e+38
0.079605103 0.034052074 0.266 -3.3378206e+38
0.080035768 0.034052074 0.266 -3.3775936e+38
0.080592982 0.033924062 0.26500002 nan
0.081022032 0.033924062 0.26500002 nan
0.081571154 0.033796046 0.264 nan
0.081998587 0.033796046 0.264 nan
0.082426019 0.033796046 0.264 nan
0.082965426 0.03366803 0.26300001 nan
0.083391234 0.03366803 0.26300001 nan
0.08381705 0.03366803 0.26300001 nan
0.084668674 0.03366803 0.26300001 nan
0.085094489 0.03366803 0.26300001 nan
0.085520297 0.03366803 0.26300001 nan
0.085946113 0.03366803 0.26300001 nan
0.086467713 0.033540014 0.26200002 nan
0.086891904 0.033540014 0.26200002 nan
0.087405406 0.033411998 0.26100001 nan
0.087827981 0.033411998 0.26100001 nan
0.088333391 0.033283986 0.26000002 nan
0.088754341 0.033283986 0.26000002 nan
0.088832319 0.03315597 0.259 nan
0.089670993 0.03315597 0.259 nan
0.090090327 0.03315597 0.259 nan
0.090509661 0.03315597 0.259 nan
0.09099564 0.033027951 0.25800002 nan
0.091413356 0.033027951 0.25800002 nan
0.091831073 0.033027951 0.25800002 -3.3902074e+38
0.092307337 0.032899939 0.257 -3.376863e+38
0.092723437 0.032899939 0.257 -3.376863e+38
0.093139537 0.032899939 0.257 nan
0.093971737 0.032899939 0.257 -3.3900516e+38
0.094387837 0.032899939 0.257 -3.3900516e+38
0.094803929 0.032899939 0.257 -3.3900512e+38
0.095220029 0.032899939 0.257 -3.3767068e+38
0.096052229 0.032899939 0.257 -3.3767068e+38
0.096468329 0.032899939 0.257 -3.3899472e+38
0.096884422 0.032899939 0.257 -3.3899472e+38
0.097716622 0.032899939 0.257 -3.3899472e+38
0.098132722 0.032899939 0.257 -3.350018e+38
0.098548822 0.032899939 0.257 -3.3767068e+38
0.098964915 0.032899939 0.257 -3.3900512e+38
0.099797115 0.032899939 0.257 -3.3501742e+38
0.10021321 0.032899939 0.257 -3.3501742e+38
0.10062931 0.032899939 0.257 -3.3234858e+38
0.10104541 0.032899939 0.257 -3.3501746e+38
0.10227402 0.033027951 0.25800002 -3.3234858e+38
0.10269174 0.033027951 0.25800002 -3.3234858e+38
0.10310946 0.033027951 0.25800002 -3.3234858e+38
0.10352717 0.033027951 0.25800002 -3.3101414e+38
0.10436261 0.033027951 0.25800002 -3.3101414e+38
0.10478032 0.033027951 0.25800002 -3.3101414e+38
0.10560579 0.03315597 0.259 -3.3101412e+38
0.10602512 0.03315597 0.259 -3.3234854e+38
0.1068638 0.03315597 0.259 -3.2969527e+38
0.10728314 0.03315597 0.259 -3.283817e+38
0.10770248 0.03315597 0.259 -3.2971614e+38
0.10853927 0.033283986 0.26000002 -3.2705771e+38
0.10896022 0.033283986 0.26000002 -3.2705771e+38
0.10980213 0.033283986 0.26000002 -3.2573373e+38
0.11064703 0.033411998 0.26100001 -3.2309087e+38
0.12434972 0.037124444 0.29000002 -3.2309087e+38
0.12481925 0.037124444 0.29000002 -3.2177209e+38
0.12532465 0.036996428 0.289 -3.2044286e+38
0.12579256 0.036996428 0.289 -3.2311175e+38
0.12626047 0.036996428 0.289 -3.2312736e+38
0.12719628 0.036996428 0.289 -3.1916053e+38
0.12766419 0.036996428 0.289 -3.2316385e+38
0.1281321 0.036996428 0.289 -3.1787298e+38
0.12862132 0.036868412 0.28800002 -3.2057835e+38
0.12908761 0.036868412 0.28800002 -3.2458167e+38
0.1295539 0.036868412 0.28800002 -3.2197015e+38
0.080035768 0.034482744 0.266 -3.3643532e+38
0.080897108 0.034482744 0.266 nan
0.081022032 0.034353111 0.26500002 nan
0.08188013 0.034353111 0.26500002 nan
0.081998587 0.034223478 0.264 nan
0.082426019 0.034223478 0.264 nan
0.083280884 0.034223478 0.264 nan
0.083708309 0.034223478 0.264 nan
0.084135741 0.034223478 0.264 nan
0.084563173 0.034223478 0.264 nan
0.085418038 0.034223478 0.264 nan
0.085520297 0.034093842 0.26300001 nan
0.085946113 0.034093842 0.26300001 nan
0.086797737 0.034093842 0.26300001 nan
0.086891904 0.033964209 0.26200002 nan
0.087740295 0.033964209 0.26200002 nan
0.087827981 0.033834573 0.26100001 nan
0.088250555 0.033834573 0.26100001 nan
0.088754341 0.03370494 0.26000002 nan
0.089175299 0.03370494 0.26000002 nan
0.089596257 0.03370494 0.26000002 nan
0.090090327 0.033575304 0.259 nan
0.090509661 0.033575304 0.259 nan
0.090929002 0.033575304 0.259 nan
0.091413356 0.033445671 0.25800002 nan
0.091831073 0.033445671 0.25800002 nan
0.092666514 0.033445671 0.25800002 -3.3902074e+38
0.093084231 0.033445671 0.25800002 -3.3902074e+38
0.093501948 0.033445671 0.25800002 -3.3768634e+38
0.093919665 0.033445671 0.25800002 -3.3768634e+38
0.094387837 0.033316039 0.257 -3.3902078e+38
0.094803929 0.033316039 0.257 -3.3768634e+38
0.095220029 0.033316039 0.257 -3.3768634e+38
0.096052229 0.033316039 0.257 -3.3635186e+38
0.096468329 0.033316039 0.257 -3.3767072e+38
0.096884422 0.033316039 0.257 -3.3900516e+38
0.097716622 0.033316039 0.257 nan
0.098132722 0.033316039 0.257 -3.3767072e+38
0.098548822 0.033316039 0.257 -3.3767072e+38
0.099349998 0.033445671 0.25800002 -3.3900516e+38
0.099767715 0.033445671 0.25800002 -3.3900516e+38
0.10060315 0.033445671 0.25800002 -3.363519e+38
0.10102087 0.033445671 0.25800002 -3.3501746e+38
0.10104541 0.033316039 0.257 -3.3501746e+38
0.10227402 0.033445671 0.25800002 -3.323642e+38
0.10269174 0.033445671 0.25800002 -3.323642e+38
0.10310946 0.033445671 0.25800002 -3.323642e+38
0.10392844 0.033575304 0.259 -3.2969531e+38
0.10434777 0.033575304 0.259 -3.2969531e+38
0.10518645 0.033575304 0.259 -3.2969531e+38
0.10560579 0.033575304 0.259 -3.2969531e+38
0.10602512 0.033575304 0.259 -3.323642e+38
0.10685544 0.03370494 0.26000002 -3.3237456e+38
0.10769735 0.03370494 0.26000002 -3.2839207e+38
0.10811831 0.03370494 0.26000002 -3.2839207e+38
0.10853927 0.03370494 0.26000002 -3.2573889e+38
0.10896022 0.03370494 0.26000002 -3.2573889e+38
0.10980213 0.03370494 0.26000002 -3.2441491e+38
0.12392092 0.037464336 0.289 -3.2177205e+38
0.12438884 0.037464336 0.289 -3.217773e+38
0.12532465 0.037464336 0.289 -3.1912404e+38
0.12579256 0.037464336 0.289 -3.2045848e+38
0.12626047 0.037464336 0.289 -3.204741e+38
0.12719628 0.037464336 0.289 -3.1916574e+38
0.12722245 0.037334699 0.28800002 -3.2183462e+38
0.12768875 0.037334699 0.28800002 -3.165542e+38
0.12862132 0.037334699 0.28800002 -3.1925953e+38
0.12908761 0.037334699 0.28800002 -3.2326285e+38
0.1295539 0.037334699 0.28800002 -3.2332021e+38
0.081327781 0.034913413 0.266 -3.3907818e+38
0.08188013 0.034782164 0.26500002 nan
0.082309186 0.034782164 0.26500002 nan
0.082426019 0.034650911 0.264 nan
0.083167285 0.034782164 0.26500002 -3.3905212e+38
0.083708309 0.034650911 0.264 nan
0.084135741 0.034650911 0.264 nan
0.084563173 0.034650911 0.264 nan
0.085418038 0.034650911 0.264 nan
0.08584547 0.034650911 0.264 nan
0.085946113 0.034519654 0.26300001 nan
0.086797737 0.034519654 0.26300001 nan
0.087223552 0.034519654 0.26300001 nan
0.087740295 0.034388404 0.26200002 nan
0.088164486 0.034388404 0.26200002 nan
0.088250555 0.034257147 0.26100001 nan
0.089095704 0.034257147 0.26100001 nan
0.089175299 0.034125898 0.26000002 nan
0.089596257 0.034125898 0.26000002 nan
0.090438165 0.034125898 0.26000002 nan
0.090509661 0.033994641 0.259 nan
0.090929002 0.033994641 0.259 nan
0.091767676 0.033994641 0.259 nan
0.09218701 0.033994641 0.259 nan
0.092606351 0.033994641 0.259 nan
0.093084231 0.033863388 0.25800002 -3.3902078e+38
0.093501948 0.033863388 0.25800002 -3.3902078e+38
0.093919665 0.033863388 0.25800002 -3.3768634e+38
0.094755098 0.033863388 0.25800002 -3.3902078e+38
0.095172815 0.033863388 0.25800002 -3.3902078e+38
0.095590539 0.033863388 0.25800002 -3.3768634e+38
0.096008256 0.033863388 0.25800002 -3.376863e+38
0.09684369 0.033863388 0.25800002 -3.3900516e+38
0.097261406 0.033863388 0.25800002 -3.3900516e+38
0.097679123 0.033863388 0.25800002 -3.3900516e+38
0.098514557 0.033863388 0.25800002 -3.3767072e+38
0.098932274 0.033863388 0.25800002 -3.3900516e+38
0.099349998 0.033863388 0.25800002 -3.3768634e+38
0.099767715 0.033863388 0.25800002 -3.3768634e+38
0.10060315 0.033863388 0.25800002 -3.363519e+38
0.10102087 0.033863388 0.25800002 -3.323642e+38
0.10143858 0.033863388 0.25800002 -3.3369864e+38
0.10225109 0.033994641 0.259 -3.3503308e+38
0.10308976 0.033994641 0.259 -3.310402e+38
0.10350911 0.033994641 0.259 -3.3237464e+38
0.10392844 0.033994641 0.259 -3.2837132e+38
0.10434777 0.033994641 0.259 -3.310402e+38
0.10518645 0.033994641 0.259 -3.310402e+38
0.10601353 0.034125898 0.26000002 -3.323746e+38
0.10643449 0.034125898 0.26000002 -3.323746e+38
0.10685544 0.034125898 0.26000002 -3.297161e+38
0.10769735 0.034125898 0.26000002 -3.2972651e+38
0.10811831 0.034125898 0.26000002 -3.2972651e+38
0.10853927 0.034125898 0.26000002 -3.2707333e+38
0.10896022 0.034125898 0.26000002 -3.2707333e+38
0.10980213 0.034125898 0.26000002 -3.2442006e+38
0.12204929 0.038400155 0.289 -3.2443047e+38
0.12298511 0.038400155 0.289 -3.217772e+38
0.12345301 0.038400155 0.289 -3.2177205e+38
0.12349214 0.038267281 0.28800002 -3.2444093e+38
0.12438884 0.038400155 0.289 -3.2311175e+38
0.12489101 0.038267281 0.28800002 -3.2045848e+38
0.1253573 0.038267281 0.28800002 -3.244618e+38
0.12582359 0.038267281 0.28800002 -3.1916568e+38
0.12631604 0.038134411 0.287 -3.1784692e+38
0.1267807 0.038134411 0.287 -3.2318468e+38
0.12724538 0.038134411 0.287 -3.1656988e+38
0.12817472 0.038134411 0.287 -3.2195972e+38
0.12863939 0.038134411 0.287 -3.2996637e+38
0.081758454 0.035774756 0.266 -3.3907818e+38
0.082309186 0.035640266 0.26500002 nan
0.08305046 0.035774756 0.266 nan
0.083167285 0.035640266 0.26500002 -3.3906256e+38
0.084883489 0.035640266 0.26500002 nan
0.085418038 0.035505772 0.264 nan
0.08584547 0.035505772 0.264 nan
0.086272903 0.035505772 0.264 nan
0.087127768 0.035505772 0.264 nan
0.087223552 0.035371281 0.26300001 nan
0.087649368 0.035371281 0.26300001 nan
0.088164486 0.035236791 0.26200002 nan
0.088588677 0.035236791 0.26200002 nan
0.089095704 0.035102297 0.26100001 nan
0.089518279 0.035102297 0.26100001 nan
0.089940853 0.035102297 0.26100001 nan
0.090438165 0.03496781 0.26000002 nan
0.090859123 0.03496781 0.26000002 nan
0.09128008 0.03496781 0.26000002 nan
0.091767676 0.034833316 0.259 nan
0.09218701 0.034833316 0.259 nan
0.092606351 0.034833316 0.259 nan
0.093445018 0.034833316 0.259 nan
0.093864359 0.034833316 0.259 nan
0.093919665 0.034698822 0.25800002 -3.3902082e+38
0.094755098 0.034698822 0.25800002 nan
0.095172815 0.034698822 0.25800002 nan
0.095590539 0.034698822 0.25800002 nan
0.096008256 0.034698822 0.25800002 -3.3768634e+38
0.09684369 0.034698822 0.25800002 -3.3768634e+38
0.097261406 0.034698822 0.25800002 -3.3768634e+38
0.097679123 0.034698822 0.25800002 -3.3902078e+38
0.098514557 0.034698822 0.25800002 -3.3768638e+38
0.098932274 0.034698822 0.25800002 -3.3902082e+38
0.099349998 0.034698822 0.25800002 -3.3636756e+38
0.099767715 0.034698822 0.25800002 -3.3503312e+38
0.10060315 0.034698822 0.25800002 -3.3369868e+38
0.10102087 0.034698822 0.25800002 -3.3369868e+38
0.10143858 0.034698822 0.25800002 -3.3369868e+38
0.10225109 0.034833316 0.259 -3.3370908e+38
0.10308976 0.034833316 0.259 -3.3236949e+38
0.10350911 0.034833316 0.259 -3.3370393e+38
0.10432971 0.03496781 0.26000002 -3.2971103e+38
0.10475066 0.03496781 0.26000002 -3.2971103e+38
0.10517162 0.03496781 0.26000002 -3.2971103e+38
0.10601353 0.03496781 0.26000002 -3.3238507e+38
0.10643449 0.03496781 0.26000002 -3.3105063e+38
0.10685544 0.03496781 0.26000002 -3.2972655e+38
0.10769735 0.03496781 0.26000002 -3.2707329e+38
0.10811831 0.03496781 0.26000002 -3.2707329e+38
0.10853927 0.03496781 0.26000002 -3.2442006e+38
0.12158138 0.038868062 0.289 -3.2576491e+38
0.12204929 0.038868062 0.289 -3.2576491e+38
0.12255956 0.038733568 0.28800002 -3.2311164e+38
0.12302585 0.038733568 0.28800002 -3.2177726e+38
0.12349214 0.038733568 0.28800002 -3.231117e+38
0.12442472 0.038733568 0.28800002 -3.2045848e+38
0.12489101 0.038733568 0.28800002 -3.1780522e+38
0.12492202 0.038599081 0.287 -3.2314298e+38
0.12585136 0.038599081 0.287 -3.2183456e+38
0.12631604 0.038599081 0.287 -3.2185024e+38
0.1267807 0.038599081 0.287 -3.2451912e+38
0.12724538 0.038599081 0.287 -3.1525109e+38
0.12817472 0.038599081 0.287 -3.2064622e+38
0.08305046 0.036205426 0.266 -3.3774374e+38
0.083481133 0.036205426 0.266 nan
0.083911799 0.036205426 0.266 -3.3906256e+38
0.084883489 0.036069315 0.26500002 nan
0.085312545 0.036069315 0.26500002 nan
0.086170644 0.036069315 0.26500002 nan
0.086272903 0.035933204 0.264 nan
0.087127768 0.035933204 0.264 nan
0.0875552 0.035933204 0.264 nan
0.087649368 0.035797093 0.26300001 nan
0.088500991 0.035797093 0.26300001 nan
0.088588677 0.035660986 0.26200002 nan
0.089012876 0.035660986 0.26200002 -3.3903644e+38
0.089518279 0.035524871 0.26100001 nan
0.089940853 0.035524871 0.26100001 nan
0.090438165 0.035388764 0.26000002 nan
0.090859123 0.035388764 0.26000002 nan
0.09128008 0.035388764 0.26000002 -3.390364e+38
0.091701031 0.035388764 0.26000002 -3.3903644e+38
0.092542946 0.035388764 0.26000002 -3.3769685e+38
0.092963904 0.035388764 0.26000002 -3.3903129e+38
0.093445018 0.035252653 0.259 -3.37702e+38
0.093864359 0.035252653 0.259 -3.3903644e+38
0.094283693 0.035252653 0.259 -3.37702e+38
0.094703034 0.035252653 0.259 -3.37702e+38
0.095541708 0.035252653 0.259 -3.3903644e+38
0.095961042 0.035252653 0.259 -3.37702e+38
0.096380375 0.035252653 0.259 -3.3636752e+38
0.09721905 0.035252653 0.259 -3.3503308e+38
0.097261406 0.035116542 0.25800002 -3.3636752e+38
0.098057725 0.035252653 0.259 -3.3770196e+38
0.098477066 0.035252653 0.259 -3.3636752e+38
0.098932274 0.035116542 0.25800002 -3.3636756e+38
0.099349998 0.035116542 0.25800002 -3.3504352e+38
