# .PCD v0.7 - Point Cloud Data file format
VERSION 0.7
FIELDS x y z rgb
SIZE 4 4 4 4
TYPE F F F F
COUNT 1 1 1 1
WIDTH 963
HEIGHT 1
VIEWPOINT 0 0 0 1 0 0 0
POINTS 963
DATA ascii
-0.086937703 -0.0013768156 0.29000002 -2.9777303e+38
-0.085998654 -0.0013768156 0.29000002 -2.9379573e+38
-0.08582405 -0.0013815633 0.29100001 -2.9379573e+38
-0.085646212 -0.0013863109 0.29200003 -2.9513015e+38
-0.08517345 -0.0013863109 0.29200003 -2.9380616e+38
-0.084990755 -0.0013910586 0.29300001 -2.9780948e+38
-0.084804818 -0.0013958062 0.294 -2.9516143e+38
-0.084328815 -0.0013958062 0.294 -2.9649587e+38
-0.083660401 -0.0014005537 0.29500002 -3.0051485e+38
-0.083464757 -0.0014053015 0.296 -2.9787209e+38
-0.082985513 -0.0014053015 0.296 -3.0054097e+38
-0.082506277 -0.0014053015 0.296 -3.0191194e+38
-0.08230415 -0.0014100492 0.29700002 -3.1125303e+38
-0.08209879 -0.0014147967 0.29800001 -3.1266559e+38
-0.10897183 -0.00089164521 0.28500003 nan
-0.1085104 -0.00089164521 0.28500003 nan
-0.10804897 -0.00089164521 0.28500003 nan
-0.1071261 -0.00089164521 0.28500003 nan
-0.10666467 -0.00089164521 0.28500003 nan
-0.10620324 -0.00089164521 0.28500003 nan
-0.10491096 -0.0008885166 0.28400001 nan
-0.10445115 -0.0008885166 0.28400001 nan
-0.10399134 -0.0008885166 0.28400001 nan
-0.10353152 -0.0008885166 0.28400001 nan
-0.1026119 -0.0008885166 0.28400001 nan
-0.10215209 -0.0008885166 0.28400001 -3.3764468e+38
-0.10169227 -0.0008885166 0.28400001 -3.3631026e+38
-0.10077264 -0.0008885166 0.28400001 -3.3498622e+38
-0.10031283 -0.0008885166 0.28400001 -3.3498622e+38
-0.099853016 -0.0008885166 0.28400001 -3.336518e+38
-0.097553954 -0.0008885166 0.28400001 -3.2966412e+38
-0.096634321 -0.0008885166 0.28400001 -3.2966412e+38
-0.096174508 -0.0008885166 0.28400001 -3.2966412e+38
-0.095714696 -0.0008885166 0.28400001 -3.2966412e+38
-0.095590286 -0.00089164521 0.28500003 -3.2966412e+38
-0.095128857 -0.00089164521 0.28500003 -3.2435759e+38
-0.09420599 -0.00089164521 0.28500003 -3.2303356e+38
-0.093744561 -0.00089164521 0.28500003 -3.2436798e+38
-0.093283124 -0.00089164521 0.28500003 -3.1904068e+38
-0.092360266 -0.00089164521 0.28500003 -3.1771664e+38
-0.091898829 -0.00089164521 0.28500003 -3.1771664e+38
-0.091758229 -0.00089477375 0.28600001 -3.163978e+38
-0.091295183 -0.00089477375 0.28600001 -3.1506338e+38
-0.091149725 -0.0008979023 0.287 -3.1239454e+38
-0.090220384 -0.0008979023 0.287 -3.0974128e+38
-0.089755714 -0.0008979023 0.287 -3.0840686e+38
-0.089602165 -0.0009010309 0.28800002 -3.0707763e+38
-0.08913587 -0.0009010309 0.28800002 -3.0574321e+38
-0.088203296 -0.0009010309 0.28800002 -3.0308994e+38
-0.087737001 -0.0009010309 0.28800002 -3.0176072e+38
-0.087573737 -0.0009041595 0.289 -3.004263e+38
-0.087105826 -0.0009041595 0.289 -2.9910745e+38
-0.086937703 -0.00090728805 0.29000002 -2.9777303e+38
-0.085998654 -0.00090728805 0.29000002 -2.9513015e+38
-0.085646212 -0.0009135452 0.29200003 -2.9247689e+38
-0.085465141 -0.00091667386 0.29300001 -2.9247693e+38
-0.084990755 -0.00091667386 0.29300001 -2.9781469e+38
-0.084804818 -0.00091980241 0.294 -2.9649591e+38
-0.084328815 -0.00091980241 0.294 -2.9783035e+38
-0.083660401 -0.00092293089 0.29500002 -3.0051485e+38
-0.083464757 -0.00092605955 0.296 -2.9787209e+38
-0.082985513 -0.00092605955 0.296 -3.0054097e+38
-0.08278501 -0.00092918816 0.29700002 -3.005775e+38
-0.08230415 -0.00092918816 0.29700002 -3.0991859e+38
-0.08209879 -0.0009323167 0.29800001 -3.0999671e+38
-0.10897183 3.1219341e-05 0.28500003 nan
-0.1085104 3.1219341e-05 0.28500003 nan
-0.10804897 3.1219341e-05 0.28500003 nan
-0.1071261 3.1219341e-05 0.28500003 nan
-0.10666467 3.1219341e-05 0.28500003 nan
-0.1057418 3.1219341e-05 0.28500003 nan
-0.10445115 3.1109797e-05 0.28400001 nan
-0.10399134 3.1109797e-05 0.28400001 nan
-0.10353152 3.1109797e-05 0.28400001 nan
-0.1026119 3.1109797e-05 0.28400001 nan
-0.10215209 3.1109797e-05 0.28400001 -3.3764468e+38
-0.10169227 3.1109797e-05 0.28400001 -3.3631026e+38
-0.10077264 3.1109797e-05 0.28400001 -3.336518e+38
-0.098473579 3.1109797e-05 0.28400001 -3.2966412e+38
-0.098013766 3.1109797e-05 0.28400001 -3.2966412e+38
-0.097553954 3.1109797e-05 0.28400001 -3.2966412e+38
-0.096634321 3.1109797e-05 0.28400001 -3.2966412e+38
-0.096174508 3.1109797e-05 0.28400001 -3.2966412e+38
-0.095714696 3.1109797e-05 0.28400001 -3.2701086e+38
-0.095590286 3.1219341e-05 0.28500003 -3.2701086e+38
-0.095128857 3.1219341e-05 0.28500003 -3.2435759e+38
-0.09420599 3.1219341e-05 0.28500003 -3.2169914e+38
-0.093744561 3.1219341e-05 0.28500003 -3.2303356e+38
-0.093283124 3.1219341e-05 0.28500003 -3.1904068e+38
-0.092360266 3.1219341e-05 0.28500003 -3.1771664e+38
-0.091898829 3.1219341e-05 0.28500003 -3.1771664e+38
-0.091758229 3.132888e-05 0.28600001 -3.1506338e+38
-0.091295183 3.132888e-05 0.28600001 -3.1506338e+38
-0.091149725 3.1438423e-05 0.287 -3.0974128e+38
-0.090220384 3.1438423e-05 0.287 -3.0708282e+38
-0.089755714 3.1438423e-05 0.287 -3.0708282e+38
-0.089602165 3.1547963e-05 0.28800002 -3.0707763e+38
-0.08913587 3.1547963e-05 0.28800002 -3.0574321e+38
-0.088203296 3.1547963e-05 0.28800002 -3.0176072e+38
-0.088041648 3.1657506e-05 0.289 -2.9910745e+38
-0.087573737 3.1657506e-05 0.289 -2.9910745e+38
-0.087105826 3.1657506e-05 0.289 -2.9645419e+38
-0.086937703 3.1767046e-05 0.29000002 -2.9645419e+38
-0.085998654 3.1767046e-05 0.29000002 -3.0179193e+38
-0.085646212 3.1986128e-05 0.29200003 -2.9381652e+38
-0.085465141 3.2095671e-05 0.29300001 -2.9516658e+38
-0.084990755 3.2095671e-05 0.29300001 -2.9783546e+38
-0.084804818 3.2205211e-05 0.294 -2.9517705e+38
-0.084615648 3.2314754e-05 0.29500002 -2.9651149e+38
-0.083660401 3.2314754e-05 0.29500002 -3.0052525e+38
-0.083464757 3.2424297e-05 0.296 -2.9787724e+38
-0.082985513 3.2424297e-05 0.296 -3.0054612e+38
-0.08278501 3.2533837e-05 0.29700002 -3.0191709e+38
-0.08230415 3.2533837e-05 0.29700002 -3.0992374e+38
-0.08209879 3.264338e-05 0.29800001 -3.0599335e+38
-0.081890188 3.275292e-05 0.29900002 -3.1800332e+38
-0.1085104 0.0004926516 0.28500003 nan
-0.10804897 0.0004926516 0.28500003 nan
-0.1071261 0.0004926516 0.28500003 nan
-0.10666467 0.0004926516 0.28500003 nan
-0.10620324 0.0004926516 0.28500003 nan
-0.1057418 0.0004926516 0.28500003 nan
-0.10445115 0.000490923 0.28400001 nan
-0.10399134 0.000490923 0.28400001 nan
-0.10353152 0.000490923 0.28400001 nan
-0.10215209 0.000490923 0.28400001 -3.3631026e+38
-0.10169227 0.000490923 0.28400001 -3.3631026e+38
-0.10077264 0.000490923 0.28400001 -3.336518e+38
-0.10031283 0.000490923 0.28400001 -3.3232258e+38
-0.098473579 0.000490923 0.28400001 -3.2966412e+38
-0.098013766 0.000490923 0.28400001 -3.2966412e+38
-0.097553954 0.000490923 0.28400001 -3.2966412e+38
-0.096634321 0.000490923 0.28400001 -3.2966412e+38
-0.096174508 0.000490923 0.28400001 -3.2966412e+38
-0.096051723 0.0004926516 0.28500003 -3.2701086e+38
-0.095590286 0.0004926516 0.28500003 -3.2701086e+38
-0.095128857 0.0004926516 0.28500003 -3.2435759e+38
-0.09420599 0.0004926516 0.28500003 -3.2169914e+38
-0.093744561 0.0004926516 0.28500003 -3.2303356e+38
-0.093283124 0.0004926516 0.28500003 -3.1904068e+38
-0.092360266 0.0004926516 0.28500003 -3.1771664e+38
-0.091898829 0.0004926516 0.28500003 -3.1771664e+38
-0.091758229 0.00049438019 0.28600001 -3.1506338e+38
-0.091614395 0.00049610878 0.287 -3.1506338e+38
-0.091149725 0.00049610878 0.287 -3.0974128e+38
-0.090220384 0.00049610878 0.287 -3.0708282e+38
-0.090068452 0.00049783738 0.28800002 -3.0708282e+38
-0.089602165 0.00049783738 0.28800002 -3.0308994e+38
-0.08913587 0.00049783738 0.28800002 -3.0308994e+38
-0.088203296 0.00049783738 0.28800002 -3.0176072e+38
-0.088041648 0.00049956597 0.289 -2.9910745e+38
-0.087573737 0.00049956597 0.289 -2.9910745e+38
-0.087407231 0.00050129462 0.29000002 -2.9778861e+38
-0.086937703 0.00050129462 0.29000002 -2.9778861e+38
-0.085998654 0.00050129462 0.29000002 -3.0179193e+38
-0.085646212 0.00050475181 0.29200003 -2.9781469e+38
-0.085465141 0.0005064804 0.29300001 -2.9516143e+38
-0.084990755 0.0005064804 0.29300001 -2.9783031e+38
-0.084804818 0.00050820899 0.294 -2.9517705e+38
-0.084615648 0.00050993758 0.29500002 -2.9651149e+38
-0.083660401 0.00050993758 0.29500002 -3.0052525e+38
-0.083464757 0.00051166624 0.296 -2.9921168e+38
-0.082985513 0.00051166624 0.296 -3.0054612e+38
-0.08278501 0.00051339483 0.29700002 -2.9792935e+38
-0.082581267 0.00051512342 0.29800001 -3.0460155e+38
-0.08209879 0.00051512342 0.29800001 -3.0465891e+38
-0.081890188 0.00051685201 0.29900002 -3.1533444e+38
-0.10804897 0.00095408381 0.28500003 nan
-0.10666467 0.00095408381 0.28500003 nan
-0.10620324 0.00095408381 0.28500003 nan
-0.1057418 0.00095408381 0.28500003 nan
-0.10445115 0.00095073617 0.28400001 nan
-0.10215209 0.00095073617 0.28400001 -3.3631026e+38
-0.10031283 0.00095073617 0.28400001 -3.3232258e+38
-0.098473579 0.00095073617 0.28400001 -3.2701086e+38
-0.098013766 0.00095073617 0.28400001 -3.2834528e+38
-0.097553954 0.00095073617 0.28400001 -3.2701086e+38
-0.096634321 0.00095073617 0.28400001 -3.2701086e+38
-0.096513152 0.00095408381 0.28500003 -3.2701086e+38
-0.096051723 0.00095408381 0.28500003 -3.2435759e+38
-0.095590286 0.00095408381 0.28500003 -3.2302317e+38
-0.095128857 0.00095408381 0.28500003 -3.2302317e+38
-0.09420599 0.00095408381 0.28500003 -3.2169914e+38
-0.093744561 0.00095408381 0.28500003 -3.2303356e+38
-0.093283124 0.00095408381 0.28500003 -3.1904068e+38
-0.092360266 0.00095408381 0.28500003 -3.1771664e+38
-0.092221282 0.0009574315 0.28600001 -3.1771664e+38
-0.091758229 0.0009574315 0.28600001 -3.1506338e+38
-0.091614395 0.0009607792 0.287 -3.1506338e+38
-0.091149725 0.0009607792 0.287 -3.0974128e+38
-0.090220384 0.0009607792 0.287 -3.0708282e+38
-0.090068452 0.00096412684 0.28800002 -3.0708282e+38
-0.089602165 0.00096412684 0.28800002 -3.0309514e+38
-0.08913587 0.00096412684 0.28800002 -3.0309514e+38
-0.088203296 0.00096412684 0.28800002 -3.0176072e+38
-0.088041648 0.00096747442 0.289 -3.0176072e+38
-0.087573737 0.00096747442 0.289 -3.0309514e+38
-0.087407231 0.00097082218 0.29000002 -3.0044187e+38
-0.086937703 0.00097082218 0.29000002 -3.0177631e+38
-0.086766347 0.00097416987 0.29100001 -3.0178678e+38
-0.086591743 0.00097751745 0.29200003 -3.0312122e+38
-0.085646212 0.00097751745 0.29200003 -3.0048357e+38
-0.085465141 0.00098086509 0.29300001 -2.9649591e+38
-0.085280828 0.00098421285 0.294 -2.9783035e+38
-0.084804818 0.00098421285 0.294 -2.9651153e+38
-0.084615648 0.00098756049 0.29500002 -2.9651153e+38
-0.083660401 0.00098756049 0.29500002 -3.0052529e+38
-0.083464757 0.00099090813 0.296 -2.9921168e+38
-0.082985513 0.00099090813 0.296 -3.0188057e+38
-0.08278501 0.00099425577 0.29700002 -2.9792935e+38
-0.082581267 0.00099760341 0.29800001 -3.0460155e+38
-0.08209879 0.00099760341 0.29800001 -3.0332447e+38
-0.081890188 0.0010009512 0.29900002 -3.1266555e+38
-0.1071261 0.001415516 0.28500003 nan
-0.10666467 0.001415516 0.28500003 nan
-0.10620324 0.001415516 0.28500003 nan
-0.1057418 0.001415516 0.28500003 nan
-0.10481893 0.001415516 0.28500003 nan
-0.10399134 0.0014105494 0.28400001 -3.3631026e+38
-0.10353152 0.0014105494 0.28400001 -3.3631026e+38
-0.1026119 0.0014105494 0.28400001 -3.3631026e+38
-0.10215209 0.0014105494 0.28400001 -3.3631026e+38
-0.10031283 0.0014105494 0.28400001 -3.3232258e+38
-0.098473579 0.0014105494 0.28400001 -3.2966412e+38
-0.098013766 0.0014105494 0.28400001 -3.3099854e+38
-0.097553954 0.0014105494 0.28400001 -3.2701086e+38
-0.096634321 0.0014105494 0.28400001 -3.2567644e+38
-0.096513152 0.001415516 0.28500003 -3.2567644e+38
-0.096051723 0.001415516 0.28500003 -3.2302317e+38
-0.095590286 0.001415516 0.28500003 -3.2302317e+38
-0.095128857 0.001415516 0.28500003 -3.2302317e+38
-0.09420599 0.001415516 0.28500003 -3.1904068e+38
-0.093744561 0.001415516 0.28500003 -3.1904068e+38
-0.093283124 0.001415516 0.28500003 -3.1637184e+38
-0.09314739 0.0014204828 0.28600001 -3.1904068e+38
-0.092221282 0.0014204828 0.28600001 -3.1771664e+38
-0.091758229 0.0014204828 0.28600001 -3.1241012e+38
-0.091614395 0.0014254496 0.287 -3.0974128e+38
-0.091149725 0.0014254496 0.287 -3.0708282e+38
-0.090220384 0.0014254496 0.287 -3.057484e+38
-0.090068452 0.0014304162 0.28800002 -3.057484e+38
-0.089602165 0.0014304162 0.28800002 -3.0309514e+38
-0.089445375 0.001435383 0.289 -3.0309514e+38
-0.088977464 0.001435383 0.289 -3.004263e+38
-0.088041648 0.001435383 0.289 -3.0044187e+38
-0.087573737 0.001435383 0.289 -3.0044187e+38
-0.087407231 0.0014403497 0.29000002 -2.9912305e+38
-0.086937703 0.0014403497 0.29000002 -3.0179193e+38
-0.086766347 0.0014453165 0.29100001 -3.0179718e+38
-0.086591743 0.0014502831 0.29200003 -3.0179718e+38
-0.086413905 0.0014552498 0.29300001 -2.9914917e+38
-0.085465141 0.0014552498 0.29300001 -2.9783035e+38
-0.085280828 0.0014602166 0.294 -2.9783035e+38
-0.084804818 0.0014602166 0.294 -2.9651153e+38
-0.084615648 0.0014651833 0.29500002 -2.9784597e+38
-0.084423244 0.0014701501 0.296 -2.9919085e+38
-0.083464757 0.0014701501 0.296 -2.9655327e+38
-0.082985513 0.0014701501 0.296 -3.0189103e+38
-0.08278501 0.0014751167 0.29700002 -2.9792935e+38
-0.082581267 0.0014800834 0.29800001 -3.0460155e+38
-0.08237429 0.0014850503 0.29900002 -3.0330885e+38
-0.081890188 0.0014850503 0.29900002 -3.1531882e+38
-0.1071261 0.0023383806 0.28500003 nan
-0.10666467 0.0023383806 0.28500003 nan
-0.10620324 0.0023383806 0.28500003 nan
-0.1057418 0.0023383806 0.28500003 nan
-0.099853016 0.0023301758 0.28400001 -3.3232258e+38
-0.098473579 0.0023301758 0.28400001 -3.283297e+38
-0.098013766 0.0023301758 0.28400001 -3.2966412e+38
-0.097553954 0.0023301758 0.28400001 -3.2567644e+38
-0.097436018 0.0023383806 0.28500003 -3.2567644e+38
-0.096051723 0.0023383806 0.28500003 -3.2035433e+38
-0.095590286 0.0023383806 0.28500003 -3.2302317e+38
-0.095128857 0.0023383806 0.28500003 -3.190303e+38
-0.09420599 0.0023383806 0.28500003 -3.1637184e+38
-0.093744561 0.0023383806 0.28500003 -3.1637184e+38
-0.093283124 0.0023383806 0.28500003 -3.150478e+38
-0.09314739 0.0023465855 0.28600001 -3.1771664e+38
-0.092221282 0.0023465855 0.28600001 -3.150478e+38
-0.091758229 0.0023465855 0.28600001 -3.0974128e+38
-0.091614395 0.0023547902 0.287 -3.0974128e+38
-0.091149725 0.0023547902 0.287 -3.0708282e+38
-0.091001026 0.0023629952 0.28800002 -3.0708282e+38
-0.090068452 0.0023629952 0.28800002 -3.057484e+38
-0.089602165 0.0023629952 0.28800002 -3.0308994e+38
-0.089445375 0.0023711999 0.289 -3.0308994e+38
-0.088977464 0.0023711999 0.289 -3.0309514e+38
-0.088041648 0.0023711999 0.289 -3.0044187e+38
-0.087573737 0.0023711999 0.289 -3.0444519e+38
-0.087407231 0.0023794046 0.29000002 -3.0179193e+38
-0.086937703 0.0023794046 0.29000002 -3.0312637e+38
-0.086766347 0.0023876098 0.29100001 -2.9914392e+38
-0.08582405 0.0023876098 0.29100001 -2.9914917e+38
-0.085465141 0.0024040192 0.29300001 -2.9783035e+38
-0.085280828 0.0024122242 0.294 -2.9783035e+38
-0.084804818 0.0024122242 0.294 -2.9651153e+38
-0.084615648 0.0024204291 0.29500002 -2.9784597e+38
-0.084423244 0.0024286339 0.296 -2.9919085e+38
-0.083464757 0.0024286339 0.296 -2.9655327e+38
-0.082985513 0.0024286339 0.296 -3.0189103e+38
-0.08278501 0.0024368386 0.29700002 -3.0058261e+38
-0.082581267 0.0024450435 0.29800001 -3.0458593e+38
-0.08237429 0.0024532485 0.29900002 -3.0595686e+38
-0.081890188 0.0024532485 0.29900002 -3.1529795e+38
-0.1071261 0.0027998127 0.28500003 nan
-0.10666467 0.0027998127 0.28500003 nan
-0.10620324 0.0027998127 0.28500003 nan
-0.098473579 0.0027899889 0.28400001 -3.283297e+38
-0.098013766 0.0027899889 0.28400001 -3.2966412e+38
-0.097897448 0.0027998127 0.28500003 -3.2567644e+38
-0.097436018 0.0027998127 0.28500003 -3.2567644e+38
-0.096051723 0.0027998127 0.28500003 -3.2035433e+38
-0.095590286 0.0027998127 0.28500003 -3.2035433e+38
-0.095128857 0.0027998127 0.28500003 -3.190303e+38
-0.09420599 0.0027998127 0.28500003 -3.1637184e+38
-0.093744561 0.0027998127 0.28500003 -3.1637184e+38
-0.093610436 0.0028096368 0.28600001 -3.150478e+38
-0.09314739 0.0028096368 0.28600001 -3.1771664e+38
-0.092221282 0.0028096368 0.28600001 -3.1239454e+38
-0.092079066 0.0028194606 0.287 -3.1239454e+38
-0.091614395 0.0028194606 0.287 -3.1239454e+38
-0.091149725 0.0028194606 0.287 -3.0840686e+38
-0.091001026 0.0028292846 0.28800002 -3.0840686e+38
-0.090068452 0.0028292846 0.28800002 -3.057484e+38
-0.089602165 0.0028292846 0.28800002 -3.0308994e+38
-0.089445375 0.0028391085 0.289 -3.0575879e+38
-0.088977464 0.0028391085 0.289 -3.0442956e+38
-0.088041648 0.0028391085 0.289 -3.0177631e+38
-0.087876759 0.0028489323 0.29000002 -3.0577964e+38
-0.087407231 0.0028489323 0.29000002 -3.0312637e+38
-0.086937703 0.0028489323 0.29000002 -3.0312637e+38
-0.086766347 0.0028587563 0.29100001 -2.9914392e+38
-0.08582405 0.0028587563 0.29100001 -3.0048357e+38
-0.085465141 0.002878404 0.29300001 -2.9783031e+38
-0.085280828 0.002888228 0.294 -2.9783031e+38
-0.085093275 0.0028980519 0.29500002 -2.9651153e+38
-0.084615648 0.0028980519 0.29500002 -2.9784597e+38
-0.084423244 0.0029078757 0.296 -2.9919085e+38
-0.084227592 0.0029176997 0.29700002 -3.0185974e+38
-0.083265871 0.0029176997 0.29700002 -2.992273e+38
-0.08278501 0.0029176997 0.29700002 -3.0058261e+38
-0.082581267 0.0029275236 0.29800001 -3.0458593e+38
-0.08237429 0.0029373476 0.29900002 -3.0595686e+38
-0.1071261 0.0032612451 0.28500003 nan
-0.10666467 0.0032612451 0.28500003 nan
-0.10620324 0.0032612451 0.28500003 nan
-0.10481893 0.0032612451 0.28500003 -3.3631026e+38
-0.099393204 0.0032498022 0.28400001 -3.283297e+38
-0.098473579 0.0032498022 0.28400001 -3.283297e+38
-0.098358884 0.0032612451 0.28500003 -3.283297e+38
-0.097897448 0.0032612451 0.28500003 -3.2567644e+38
-0.097436018 0.0032612451 0.28500003 -3.2567644e+38
-0.096051723 0.0032612451 0.28500003 -3.2035433e+38
-0.095590286 0.0032612451 0.28500003 -3.2035433e+38
-0.095128857 0.0032612451 0.28500003 -3.190303e+38
-0.09420599 0.0032612451 0.28500003 -3.1637184e+38
-0.094073489 0.0032726882 0.28600001 -3.1637184e+38
-0.093610436 0.0032726882 0.28600001 -3.1771664e+38
-0.09314739 0.0032726882 0.28600001 -3.1771664e+38
-0.092221282 0.0032726882 0.28600001 -3.1239454e+38
-0.092079066 0.0032841312 0.287 -3.1239454e+38
-0.091614395 0.0032841312 0.287 -3.1239454e+38
-0.091149725 0.0032841312 0.287 -3.0840686e+38
-0.091001026 0.0032955739 0.28800002 -3.0840686e+38
-0.090068452 0.0032955739 0.28800002 -3.0708282e+38
-0.089602165 0.0032955739 0.28800002 -3.0575879e+38
-0.089445375 0.0033070168 0.289 -3.0842765e+38
-0.088977464 0.0033070168 0.289 -3.0442956e+38
-0.088041648 0.0033070168 0.289 -3.0177631e+38
-0.087876759 0.0033184597 0.29000002 -3.0577964e+38
-0.087407231 0.0033184597 0.29000002 -3.0312637e+38
-0.087237492 0.0033299027 0.29100001 -3.0312637e+38
-0.086766347 0.0033299027 0.29100001 -3.0047836e+38
-0.086591743 0.0033413456 0.29200003 -3.0047836e+38
-0.086413905 0.003352789 0.29300001 -2.9783031e+38
-0.085756831 0.0033642319 0.294 -2.9517705e+38
-0.085280828 0.0033642319 0.294 -2.9651149e+38
-0.085093275 0.0033756748 0.29500002 -2.9518745e+38
-0.084615648 0.0033756748 0.29500002 -2.9652189e+38
-0.084423244 0.0033871178 0.296 -2.9787203e+38
-0.084227592 0.0033985607 0.29700002 -2.9920647e+38
-0.083265871 0.0033985607 0.29700002 -2.992273e+38
-0.08278501 0.0033985607 0.29700002 -3.0058261e+38
-0.082581267 0.0034100036 0.29800001 -3.0325149e+38
-0.08237429 0.0034214465 0.29900002 -3.0462242e+38
-0.082164072 0.0034328897 0.30000001 -3.1396351e+38
-0.10842808 0.004198791 0.28600001 nan
-0.1071261 0.0041841096 0.28500003 nan
-0.10666467 0.0041841096 0.28500003 nan
-0.10066605 0.0041841096 0.28500003 -3.283297e+38
-0.10020461 0.0041841096 0.28500003 -3.283297e+38
-0.09974318 0.0041841096 0.28500003 -3.283297e+38
-0.098358884 0.0041841096 0.28500003 -3.2567644e+38
-0.097897448 0.0041841096 0.28500003 -3.2302317e+38
-0.097436018 0.0041841096 0.28500003 -3.2035433e+38
-0.096513152 0.0041841096 0.28500003 -3.2035433e+38
-0.096051723 0.0041841096 0.28500003 -3.190303e+38
-0.095590286 0.0041841096 0.28500003 -3.190303e+38
-0.095128857 0.0041841096 0.28500003 -3.1637184e+38
-0.094536543 0.004198791 0.28600001 -3.150478e+38
-0.094073489 0.004198791 0.28600001 -3.1771664e+38
-0.093610436 0.004198791 0.28600001 -3.1506338e+38
-0.09314739 0.004198791 0.28600001 -3.1239454e+38
-0.092221282 0.004198791 0.28600001 -3.1106012e+38
-0.092079066 0.0042134719 0.287 -3.0974128e+38
-0.091614395 0.0042134719 0.287 -3.0974128e+38
-0.091467321 0.0042281528 0.28800002 -3.0708282e+38
-0.091001026 0.0042281528 0.28800002 -3.0708282e+38
-0.090068452 0.0042281528 0.28800002 -3.0843282e+38
-0.089913279 0.0042428337 0.289 -3.0843286e+38
-0.089445375 0.0042428337 0.289 -3.097673e+38
-0.088977464 0.0042428337 0.289 -3.0577959e+38
-0.088041648 0.0042428337 0.289 -3.0312633e+38
-0.087876759 0.0042575151 0.29000002 -3.0446077e+38
-0.087407231 0.0042575151 0.29000002 -3.0180234e+38
-0.087237492 0.004272196 0.29100001 -3.0180234e+38
-0.086766347 0.004272196 0.29100001 -3.0047836e+38
-0.086591743 0.0042868769 0.29200003 -3.0047836e+38
-0.086413905 0.0043015582 0.29300001 -2.9783031e+38
-0.085756831 0.0043162396 0.294 -2.9651149e+38
-0.085280828 0.0043162396 0.294 -2.9651149e+38
-0.085093275 0.0043309205 0.29500002 -2.9652189e+38
-0.08490248 0.0043456014 0.296 -2.9919077e+38
-0.084423244 0.0043456014 0.296 -2.9787203e+38
-0.084227592 0.0043602828 0.29700002 -2.9920647e+38
-0.083265871 0.0043602828 0.29700002 -3.0189103e+38
-0.083063751 0.0043749637 0.29800001 -3.0058261e+38
-0.082581267 0.0043749637 0.29800001 -3.0458593e+38
-0.08237429 0.0043896446 0.29900002 -3.0328798e+38
-0.082164072 0.004404326 0.30000001 -3.1262907e+38
-0.10842808 0.0046618422 0.28600001 nan
-0.1071261 0.0046455418 0.28500003 nan
-0.10666467 0.0046455418 0.28500003 nan
-0.10620324 0.0046455418 0.28500003 nan
-0.10066605 0.0046455418 0.28500003 -3.283297e+38
-0.10020461 0.0046455418 0.28500003 -3.283297e+38
-0.09974318 0.0046455418 0.28500003 -3.283297e+38
-0.098358884 0.0046455418 0.28500003 -3.2567644e+38
-0.097897448 0.0046455418 0.28500003 -3.2035433e+38
-0.097436018 0.0046455418 0.28500003 -3.2035433e+38
-0.096513152 0.0046455418 0.28500003 -3.2302317e+38
-0.096388742 0.0046618422 0.28600001 -3.190303e+38
-0.095925696 0.0046618422 0.28600001 -3.2169914e+38
-0.095462643 0.0046618422 0.28600001 -3.1904068e+38
-0.094536543 0.0046618422 0.28600001 -3.150478e+38
-0.094073489 0.0046618422 0.28600001 -3.1771664e+38
-0.093610436 0.0046618422 0.28600001 -3.1506338e+38
-0.09314739 0.0046618422 0.28600001 -3.1239454e+38
-0.092221282 0.0046618422 0.28600001 -3.1106012e+38
-0.092079066 0.0046781423 0.287 -3.0974128e+38
-0.091614395 0.0046781423 0.287 -3.0974128e+38
-0.091467321 0.0046944423 0.28800002 -3.0841724e+38
-0.091001026 0.0046944423 0.28800002 -3.1108608e+38
-0.090068452 0.0046944423 0.28800002 -3.0976724e+38
-0.089913279 0.0047107423 0.289 -3.097673e+38
-0.089445375 0.0047107423 0.289 -3.097673e+38
-0.088977464 0.0047107423 0.289 -3.0577964e+38
-0.088041648 0.0047107423 0.289 -3.0312637e+38
-0.087876759 0.0047270423 0.29000002 -3.0446081e+38
-0.087407231 0.0047270423 0.29000002 -2.9914907e+38
-0.087237492 0.0047433428 0.29100001 -3.0048351e+38
-0.086766347 0.0047433428 0.29100001 -3.0047836e+38
-0.086591743 0.0047596428 0.29200003 -3.0047836e+38
-0.086413905 0.0047759432 0.29300001 -2.9783035e+38
-0.085756831 0.0047922432 0.294 -2.9651149e+38
-0.085280828 0.0047922432 0.294 -2.9784593e+38
-0.085093275 0.0048085432 0.29500002 -2.9919077e+38
-0.08490248 0.0048248433 0.296 -2.9919077e+38
-0.084423244 0.0048248433 0.296 -2.9920643e+38
-0.084227592 0.0048411437 0.29700002 -2.9920643e+38
-0.083265871 0.0048411437 0.29700002 -2.9922215e+38
-0.083063751 0.0048574437 0.29800001 -3.0058261e+38
-0.082858391 0.0048737437 0.29900002 -3.0458593e+38
-0.08237429 0.0048737437 0.29900002 -3.0328798e+38
-0.082164072 0.0048900442 0.30000001 -3.1262907e+38
-0.10703893 0.0051248935 0.28600001 nan
-0.10158891 0.0051069744 0.28500003 -3.283297e+38
-0.10066605 0.0051069744 0.28500003 -3.283297e+38
-0.10020461 0.0051069744 0.28500003 -3.283297e+38
-0.09974318 0.0051069744 0.28500003 -3.283297e+38
-0.097897448 0.0051069744 0.28500003 -3.2035433e+38
-0.097777903 0.0051248935 0.28600001 -3.2035433e+38
-0.097314849 0.0051248935 0.28600001 -3.2302317e+38
-0.096388742 0.0051248935 0.28600001 -3.190303e+38
-0.095925696 0.0051248935 0.28600001 -3.2169914e+38
-0.095462643 0.0051248935 0.28600001 -3.1904068e+38
-0.094536543 0.0051248935 0.28600001 -3.150478e+38
-0.094073489 0.0051248935 0.28600001 -3.1771664e+38
-0.093610436 0.0051248935 0.28600001 -3.1506338e+38
-0.09314739 0.0051248935 0.28600001 -3.1239454e+38
-0.093008406 0.0051428126 0.287 -3.0840686e+38
-0.092079066 0.0051428126 0.287 -3.0841724e+38
-0.091933608 0.0051607317 0.28800002 -3.1108608e+38
-0.091467321 0.0051607317 0.28800002 -3.1108091e+38
-0.091001026 0.0051607317 0.28800002 -3.1108091e+38
-0.090068452 0.0051607317 0.28800002 -3.0976724e+38
-0.089913279 0.0051786508 0.289 -3.0977245e+38
-0.089445375 0.0051786508 0.289 -3.0977245e+38
-0.088977464 0.0051786508 0.289 -3.0711408e+38
-0.088815816 0.00519657 0.29000002 -3.0711408e+38
-0.087876759 0.00519657 0.29000002 -3.0446081e+38
-0.087407231 0.00519657 0.29000002 -3.0180234e+38
-0.087237492 0.0052144891 0.29100001 -3.0313678e+38
-0.086766347 0.0052144891 0.29100001 -3.018128e+38
-0.086591743 0.0052324082 0.29200003 -3.0047836e+38
-0.086708836 0.0052682469 0.294 -3.0048357e+38
-0.085756831 0.0052682469 0.294 -2.9784593e+38
-0.085570894 0.0052861664 0.29500002 -2.9784593e+38
-0.085093275 0.0052861664 0.29500002 -2.9919077e+38
-0.08490248 0.0053040856 0.296 -3.0052521e+38
-0.084423244 0.0053040856 0.296 -2.9920643e+38
-0.084227592 0.0053220047 0.29700002 -2.9920643e+38
-0.083265871 0.0053220047 0.29700002 -2.992273e+38
-0.083063751 0.0053399238 0.29800001 -3.0058261e+38
-0.082858391 0.0053578429 0.29900002 -3.0458593e+38
-0.08264979 0.0053757625 0.30000001 -3.0328794e+38
-0.082164072 0.0053757625 0.30000001 -3.1262903e+38
-0.10703893 0.0055879448 0.28600001 -3.3764468e+38
-0.10657588 0.0055879448 0.28600001 -3.3631026e+38
-0.10158891 0.0055684065 0.28500003 -3.283297e+38
-0.10066605 0.0055684065 0.28500003 -3.283297e+38
-0.10020461 0.0055684065 0.28500003 -3.283297e+38
-0.09974318 0.0055684065 0.28500003 -3.2567644e+38
-0.098820314 0.0055684065 0.28500003 -3.2035433e+38
-0.098358884 0.0055684065 0.28500003 -3.2035433e+38
-0.098240949 0.0055879448 0.28600001 -3.2169914e+38
-0.097777903 0.0055879448 0.28600001 -3.2169914e+38
-0.097314849 0.0055879448 0.28600001 -3.2169914e+38
-0.096388742 0.0055879448 0.28600001 -3.1637184e+38
-0.095925696 0.0055879448 0.28600001 -3.1904068e+38
-0.095462643 0.0055879448 0.28600001 -3.150478e+38
-0.094536543 0.0055879448 0.28600001 -3.1506338e+38
-0.094073489 0.0055879448 0.28600001 -3.1506338e+38
-0.093610436 0.0055879448 0.28600001 -3.1241012e+38
-0.093473077 0.005607483 0.287 -3.0974128e+38
-0.093008406 0.005607483 0.287 -3.0841205e+38
-0.092079066 0.005607483 0.287 -3.0842765e+38
-0.091933608 0.0056270212 0.28800002 -3.0976209e+38
-0.091467321 0.0056270212 0.28800002 -3.0842765e+38
-0.091001026 0.0056270212 0.28800002 -3.0976209e+38
-0.090849094 0.0056465594 0.289 -3.0843801e+38
-0.089913279 0.0056465594 0.289 -3.0711919e+38
-0.089445375 0.0056465594 0.289 -3.0711919e+38
-0.088977464 0.0056465594 0.289 -3.0446081e+38
-0.088815816 0.0056660976 0.29000002 -3.0446081e+38
-0.087876759 0.0056660976 0.29000002 -3.0447122e+38
-0.087708637 0.0056856358 0.29100001 -3.0180234e+38
-0.087237492 0.0056856358 0.29100001 -3.0313678e+38
-0.087064512 0.0057051741 0.29200003 -3.0048357e+38
-0.086591743 0.0057051741 0.29200003 -3.0048357e+38
-0.086708836 0.005744251 0.294 -2.9783035e+38
-0.085756831 0.005744251 0.294 -3.0051485e+38
-0.085570894 0.0057637892 0.29500002 -2.9784597e+38
-0.085093275 0.0057637892 0.29500002 -2.9919081e+38
-0.08490248 0.0057833274 0.296 -3.0052525e+38
-0.084708452 0.0058028656 0.29700002 -2.9920643e+38
-0.084227592 0.0058028656 0.29700002 -3.0054087e+38
-0.083546229 0.0058224038 0.29800001 -3.0188057e+38
-0.083063751 0.0058224038 0.29800001 -3.0058261e+38
-0.082858391 0.005841942 0.29900002 -3.0458593e+38
-0.08264979 0.0058614807 0.30000001 -3.0328794e+38
-0.082164072 0.0058614807 0.30000001 -3.1262903e+38
-0.10518672 0.0065140473 0.28600001 -3.3232258e+38
-0.10251177 0.0064912708 0.28500003 -3.283297e+38
-0.10240842 0.0065140473 0.28600001 -3.2966412e+38
-0.10194536 0.0065140473 0.28600001 -3.283297e+38
-0.10148231 0.0065140473 0.28600001 -3.283297e+38
-0.10055621 0.0065140473 0.28600001 -3.283297e+38
-0.10009316 0.0065140473 0.28600001 -3.2567644e+38
-0.098704003 0.0065140473 0.28600001 -3.2302317e+38
-0.098240949 0.0065140473 0.28600001 -3.190303e+38
-0.097777903 0.0065140473 0.28600001 -3.2169914e+38
-0.097314849 0.0065140473 0.28600001 -3.1904068e+38
-0.096388742 0.0065140473 0.28600001 -3.1637184e+38
-0.095925696 0.0065140473 0.28600001 -3.1904068e+38
-0.095462643 0.0065140473 0.28600001 -3.1506338e+38
-0.094536543 0.0065140473 0.28600001 -3.1241012e+38
-0.094402418 0.0065368237 0.287 -3.1374454e+38
-0.093937747 0.0065368237 0.287 -3.124205e+38
-0.093473077 0.0065368237 0.287 -3.124205e+38
-0.093008406 0.0065368237 0.287 -3.1109653e+38
-0.092079066 0.0065368237 0.287 -3.0843286e+38
-0.091933608 0.0065596001 0.28800002 -3.097673e+38
-0.091467321 0.0065596001 0.28800002 -3.1110174e+38
-0.091317005 0.0065823765 0.289 -3.097673e+38
-0.090849094 0.0065823765 0.289 -3.0711404e+38
-0.089913279 0.0065823765 0.289 -3.0711404e+38
-0.089754872 0.0066051525 0.29000002 -3.0711404e+38
-0.089285344 0.0066051525 0.29000002 -3.0446081e+38
-0.088815816 0.0066051525 0.29000002 -3.0446081e+38
-0.087876759 0.0066051525 0.29000002 -3.0580566e+38
-0.087708637 0.0066279289 0.29100001 -3.0048351e+38
-0.087237492 0.0066279289 0.29100001 -3.0048351e+38
-0.087064512 0.0066507054 0.29200003 -3.0048357e+38
-0.086591743 0.0066507054 0.29200003 -3.0048357e+38
-0.086708836 0.0066962582 0.294 -2.9783035e+38
-0.085756831 0.0066962582 0.294 -3.0051485e+38
-0.085570894 0.0067190346 0.29500002 -3.0051485e+38
-0.085381724 0.0067418106 0.296 -2.9919081e+38
-0.08490248 0.0067418106 0.296 -2.9919081e+38
-0.084708452 0.0067645875 0.29700002 -3.0054091e+38
-0.084511191 0.0067873644 0.29800001 -3.0054091e+38
-0.083546229 0.0067873644 0.29800001 -3.0323062e+38
-0.083063751 0.0067873644 0.29800001 -3.0192221e+38
-0.082858391 0.0068101403 0.29900002 -3.0725997e+38
-0.08264979 0.0068329168 0.30000001 -3.0196912e+38
-0.082437947 0.0068556927 0.30100003 -3.0864132e+38
-0.10518672 0.0069770985 0.28600001 -3.3232258e+38
-0.10472367 0.0069770985 0.28600001 -3.3232258e+38
-0.10287146 0.0069770985 0.28600001 -3.283297e+38
-0.10240842 0.0069770985 0.28600001 -3.2966412e+38
-0.10194536 0.0069770985 0.28600001 -3.283297e+38
-0.10148231 0.0069770985 0.28600001 -3.283297e+38
-0.10055621 0.0069770985 0.28600001 -3.283297e+38
-0.10009316 0.0069770985 0.28600001 -3.2567644e+38
-0.099630103 0.0069770985 0.28600001 -3.2567644e+38
-0.098704003 0.0069770985 0.28600001 -3.2302317e+38
-0.098240949 0.0069770985 0.28600001 -3.2169914e+38
-0.097777903 0.0069770985 0.28600001 -3.2169914e+38
-0.097314849 0.0069770985 0.28600001 -3.203751e+38
-0.096388742 0.0069770985 0.28600001 -3.1904068e+38
-0.095925696 0.0069770985 0.28600001 -3.1904068e+38
-0.095796429 0.0070014936 0.287 -3.1506338e+38
-0.095331758 0.0070014936 0.287 -3.1506338e+38
-0.094402418 0.0070014936 0.287 -3.1507896e+38
-0.093937747 0.0070014936 0.287 -3.1375494e+38
-0.093473077 0.0070014936 0.287 -3.1375494e+38
-0.093008406 0.0070014936 0.287 -3.1109653e+38
-0.092079066 0.0070014936 0.287 -3.097673e+38
-0.091933608 0.0070258896 0.28800002 -3.097673e+38
-0.091467321 0.0070258896 0.28800002 -3.1110174e+38
-0.091317005 0.0070502851 0.289 -3.097673e+38
-0.090849094 0.0070502851 0.289 -3.0844848e+38
-0.0902244 0.0070746802 0.29000002 -3.0446077e+38
-0.089754872 0.0070746802 0.29000002 -3.0579521e+38
-0.089285344 0.0070746802 0.29000002 -3.0445566e+38
-0.088815816 0.0070746802 0.29000002 -3.0445566e+38
-0.088650934 0.0070990762 0.29100001 -3.0447122e+38
-0.087708637 0.0070990762 0.29100001 -3.0048351e+38
-0.087537274 0.0071234712 0.29200003 -3.0181795e+38
-0.087064512 0.0071234712 0.29200003 -3.0181801e+38
-0.086888291 0.0071478668 0.29300001 -3.0048357e+38
-0.086708836 0.0071722618 0.294 -2.9783035e+38
-0.086526141 0.0071966578 0.29500002 -2.9916479e+38
-0.085570894 0.0071966578 0.29500002 -3.0051485e+38
-0.085381724 0.0072210524 0.296 -2.9919081e+38
-0.08490248 0.0072210524 0.296 -3.0052525e+38
-0.084708452 0.0072454484 0.29700002 -3.0054091e+38
-0.084511191 0.0072698444 0.29800001 -3.0187535e+38
-0.084310688 0.007294239 0.29900002 -2.992273e+38
-0.083342485 0.007294239 0.29900002 -3.0325665e+38
-0.083135508 0.007318635 0.30000001 -3.0725997e+38
-0.08264979 0.007318635 0.30000001 -3.0196912e+38
-0.082437947 0.0073430301 0.30100003 -3.0997576e+38
-0.10518672 0.0074401498 0.28600001 -3.3232258e+38
-0.10472367 0.0074401498 0.28600001 -3.3232258e+38
-0.10379757 0.0074401498 0.28600001 -3.2966412e+38
-0.10287146 0.0074401498 0.28600001 -3.283297e+38
-0.10240842 0.0074401498 0.28600001 -3.2966412e+38
-0.10194536 0.0074401498 0.28600001 -3.2701086e+38
-0.10148231 0.0074401498 0.28600001 -3.2567644e+38
-0.10055621 0.0074401498 0.28600001 -3.2567644e+38
-0.10009316 0.0074401498 0.28600001 -3.2302317e+38
-0.099630103 0.0074401498 0.28600001 -3.2435759e+38
-0.098704003 0.0074401498 0.28600001 -3.2303356e+38
-0.098240949 0.0074401498 0.28600001 -3.203751e+38
-0.097777903 0.0074401498 0.28600001 -3.203751e+38
-0.09765511 0.007466164 0.287 -3.1905107e+38
-0.096725769 0.007466164 0.287 -3.1905107e+38
-0.096261099 0.007466164 0.287 -3.1905107e+38
-0.095796429 0.007466164 0.287 -3.163978e+38
-0.095331758 0.007466164 0.287 -3.163978e+38
-0.094402418 0.007466164 0.287 -3.1507896e+38
-0.093937747 0.007466164 0.287 -3.1508938e+38
-0.093473077 0.007466164 0.287 -3.1508938e+38
-0.093008406 0.007466164 0.287 -3.1243097e+38
-0.092399895 0.0074921791 0.28800002 -3.1110174e+38
-0.091933608 0.0074921791 0.28800002 -3.1110174e+38
-0.091784917 0.0075181937 0.289 -3.1110174e+38
-0.091317005 0.0075181937 0.289 -3.097673e+38
-0.090849094 0.0075181937 0.289 -3.0844848e+38
-0.0902244 0.0075442079 0.29000002 -3.0579521e+38
-0.089754872 0.0075442079 0.29000002 -3.0579521e+38
-0.089285344 0.0075442079 0.29000002 -3.0446607e+38
-0.089122079 0.0075702225 0.29100001 -3.0313162e+38
-0.088650934 0.0075702225 0.29100001 -3.0181795e+38
-0.087708637 0.0075702225 0.29100001 -3.0181795e+38
-0.087537274 0.0075962367 0.29200003 -3.0181795e+38
-0.087064512 0.0075962367 0.29200003 -3.0315245e+38
-0.086888291 0.0076222518 0.29300001 -3.0181801e+38
-0.087003767 0.0076742806 0.29500002 -2.9916479e+38
-0.086526141 0.0076742806 0.29500002 -3.0049923e+38
-0.086340211 0.0077002947 0.296 -2.9784597e+38
-0.085381724 0.0077002947 0.296 -3.0052525e+38
-0.08518932 0.0077263094 0.29700002 -3.0185969e+38
-0.084708452 0.0077263094 0.29700002 -3.0054091e+38
-0.084511191 0.0077523245 0.29800001 -3.0187535e+38
-0.084310688 0.0077783382 0.29900002 -3.0454945e+38
-0.083342485 0.0077783382 0.29900002 -3.0459109e+38
-0.083135508 0.0078043533 0.30000001 -3.0859441e+38
-0.08292529 0.0078303674 0.30100003 -3.0197952e+38
-0.082437947 0.0078303674 0.30100003 -3.1132061e+38
-0.10426062 0.0079032015 0.28600001 -3.2966412e+38
-0.10379757 0.0079032015 0.28600001 -3.3099854e+38
-0.10287146 0.0079032015 0.28600001 -3.2701086e+38
-0.10240842 0.0079032015 0.28600001 -3.2834528e+38
-0.10194536 0.0079032015 0.28600001 -3.2701086e+38
-0.10148231 0.0079032015 0.28600001 -3.2701086e+38
-0.10055621 0.0079032015 0.28600001 -3.2701086e+38
-0.10009316 0.0079032015 0.28600001 -3.2435759e+38
-0.10909754 0.0084540108 0.289 -3.3498103e+38
-0.10825374 0.008424758 0.28800002 -3.3631545e+38
-0.10732117 0.008424758 0.28800002 -3.3232258e+38
-0.10648385 0.0083955051 0.287 -3.3499142e+38
-0.10601918 0.0083955051 0.287 -3.3233296e+38
-0.10508984 0.0083955051 0.287 -3.3099854e+38
-0.099978462 0.0083955051 0.287 -3.2569201e+38
-0.099513792 0.0083955051 0.287 -3.2170952e+38
-0.098584451 0.0083955051 0.287 -3.2038549e+38
-0.09811978 0.0083955051 0.287 -3.2171991e+38
-0.09765511 0.0083955051 0.287 -3.1906664e+38
-0.096725769 0.0083955051 0.287 -3.1906664e+38
-0.096261099 0.0083955051 0.287 -3.1906664e+38
-0.095796429 0.0083955051 0.287 -3.1641338e+38
-0.095331758 0.0083955051 0.287 -3.1507896e+38
-0.094402418 0.0083955051 0.287 -3.1508934e+38
-0.093937747 0.0083955051 0.287 -3.1508938e+38
-0.093473077 0.0083955051 0.287 -3.1642382e+38
-0.093332477 0.008424758 0.28800002 -3.1243097e+38
-0.092399895 0.008424758 0.28800002 -3.1243618e+38
-0.092252821 0.0084540108 0.289 -3.1110174e+38
-0.091784917 0.0084540108 0.289 -3.1110174e+38
-0.091317005 0.0084540108 0.289 -3.1110174e+38
-0.091163456 0.0084832627 0.29000002 -3.0844848e+38
-0.0902244 0.0084832627 0.29000002 -3.0579521e+38
-0.089754872 0.0084832627 0.29000002 -3.0712965e+38
-0.089285344 0.0084832627 0.29000002 -3.0580566e+38
-0.089122079 0.0085125156 0.29100001 -3.0580566e+38
-0.088650934 0.0085125156 0.29100001 -3.0315239e+38
-0.088010043 0.0085417684 0.29200003 -3.0182317e+38
-0.087537274 0.0085417684 0.29200003 -3.0182317e+38
-0.087362677 0.0085710213 0.29300001 -3.0049919e+38
-0.086888291 0.0085710213 0.29300001 -2.9916475e+38
-0.087003767 0.008629526 0.29500002 -3.0049919e+38
-0.086526141 0.008629526 0.29500002 -3.0316807e+38
-0.086340211 0.0086587779 0.296 -3.0051485e+38
-0.085381724 0.0086587779 0.296 -3.0318377e+38
-0.08518932 0.0086880317 0.29700002 -3.0451821e+38
-0.084993668 0.0087172845 0.29800001 -3.0585791e+38
-0.084511191 0.0087172845 0.29800001 -3.0585791e+38
-0.084310688 0.0087465364 0.29900002 -3.0587874e+38
-0.083342485 0.0087465364 0.29900002 -3.0458593e+38
-0.083135508 0.0087757893 0.30000001 -3.099237e+38
-0.08292529 0.0088050421 0.30100003 -3.0065559e+38
-0.13146044 0.0099406848 0.32200003 -3.3498103e+38
-0.13093911 0.0099406848 0.32200003 -3.3498103e+38
-0.13041778 0.0099406848 0.32200003 -3.3498103e+38
-0.1293751 0.0099406848 0.32200003 -3.3498103e+38
-0.10909754 0.0089219194 0.289 -3.33657e+38
-0.10825374 0.008891047 0.28800002 -3.3632584e+38
-0.10732117 0.008891047 0.28800002 -3.3233296e+38
-0.10685487 0.008891047 0.28800002 -3.350018e+38
-0.10638858 0.008891047 0.28800002 -3.3101412e+38
-0.10508984 0.0088601755 0.287 -3.3101412e+38
-0.10462517 0.0088601755 0.287 -3.2834528e+38
-0.1041605 0.0088601755 0.287 -3.2702643e+38
-0.10369582 0.0088601755 0.287 -3.2702643e+38
-0.10276648 0.0088601755 0.287 -3.2702643e+38
-0.10230181 0.0088601755 0.287 -3.2569201e+38
-0.10183714 0.0088601755 0.287 -3.2702643e+38
-0.1009078 0.0088601755 0.287 -3.2702643e+38
-0.10044313 0.0088601755 0.287 -3.257024e+38
-0.099978462 0.0088601755 0.287 -3.257024e+38
-0.099513792 0.0088601755 0.287 -3.2304394e+38
-0.098584451 0.0088601755 0.287 -3.2171991e+38
-0.09811978 0.0088601755 0.287 -3.2171991e+38
-0.09765511 0.0088601755 0.287 -3.1906664e+38
-0.096725769 0.0088601755 0.287 -3.1641338e+38
-0.096261099 0.0088601755 0.287 -3.1774782e+38
-0.095796429 0.0088601755 0.287 -3.1642382e+38
-0.095331758 0.0088601755 0.287 -3.1508938e+38
-0.095197633 0.008891047 0.28800002 -3.1642382e+38
-0.094265059 0.008891047 0.28800002 -3.1508423e+38
-0.093798764 0.008891047 0.28800002 -3.1641867e+38
-0.093332477 0.008891047 0.28800002 -3.1243097e+38
-0.092399895 0.008891047 0.28800002 -3.1243618e+38
-0.092252821 0.0089219194 0.289 -3.1110174e+38
-0.091784917 0.0089219194 0.289 -3.1110174e+38
-0.091632985 0.0089527909 0.29000002 -3.1110174e+38
-0.091163456 0.0089527909 0.29000002 -3.0844848e+38
-0.0902244 0.0089527909 0.29000002 -3.0447118e+38
-0.090064369 0.0089836624 0.29100001 -3.0580562e+38
-0.089593224 0.0089836624 0.29100001 -3.0580566e+38
-0.089122079 0.0089836624 0.29100001 -3.0580566e+38
-0.088955574 0.0090145338 0.29200003 -3.0315239e+38
-0.088010043 0.0090145338 0.29200003 -3.0182317e+38
-0.087837063 0.0090454053 0.29300001 -3.0182317e+38
-0.087362677 0.0090454053 0.29300001 -3.0049919e+38
-0.087184839 0.0090762768 0.294 -3.0049919e+38
-0.087003767 0.0091071492 0.29500002 -3.0316807e+38
-0.086819455 0.0091380207 0.296 -3.0316807e+38
-0.086340211 0.0091380207 0.296 -3.0051485e+38
-0.085670181 0.0091688922 0.29700002 -3.0318377e+38
-0.08518932 0.0091688922 0.29700002 -3.0451821e+38
-0.084993668 0.0091997646 0.29800001 -3.0320464e+38
-0.084794782 0.0092306361 0.29900002 -3.0587352e+38
-0.084592663 0.0092615075 0.30000001 -3.0721318e+38
-0.084106945 0.0092615075 0.30000001 -3.0988206e+38
-0.083412625 0.009292379 0.30100003 -3.099237e+38
-0.08292529 0.009292379 0.30100003 -3.0334534e+38
-0.13146044 0.010462022 0.32200003 -3.33657e+38
-0.13053247 0.010429531 0.32100001 -3.3232258e+38
-0.12949304 0.010429531 0.32100001 -3.3631545e+38
-0.12897332 0.010429531 0.32100001 -3.3498103e+38
-0.1284536 0.010429531 0.32100001 -3.3498103e+38
-0.10909754 0.009389828 0.289 -3.3632584e+38
-0.10862963 0.009389828 0.289 -3.3767068e+38
-0.10816172 0.009389828 0.289 -3.3767068e+38
-0.1072259 0.009389828 0.289 -3.3234854e+38
-0.10638858 0.0093573369 0.28800002 -3.3234854e+38
-0.1059223 0.0093573369 0.28800002 -3.3101412e+38
-0.10498971 0.0093573369 0.28800002 -3.296797e+38
-0.10452343 0.0093573369 0.28800002 -3.2836087e+38
-0.10369582 0.0093248459 0.287 -3.2836087e+38
-0.10276648 0.0093248459 0.287 -3.2836085e+38
-0.10230181 0.0093248459 0.287 -3.2702643e+38
-0.10183714 0.0093248459 0.287 -3.2836085e+38
-0.1009078 0.0093248459 0.287 -3.2702643e+38
-0.10044313 0.0093248459 0.287 -3.2437838e+38
-0.099978462 0.0093248459 0.287 -3.2304394e+38
-0.099513792 0.0093248459 0.287 -3.2171991e+38
-0.098584451 0.0093248459 0.287 -3.2171995e+38
-0.098461665 0.0093573369 0.28800002 -3.2171995e+38
-0.097995371 0.0093573369 0.28800002 -3.1641342e+38
-0.097529083 0.0093573369 0.28800002 -3.1774786e+38
-0.096596502 0.0093573369 0.28800002 -3.1774786e+38
-0.096130215 0.0093573369 0.28800002 -3.1775826e+38
-0.095663927 0.0093573369 0.28800002 -3.1508938e+38
-0.095197633 0.0093573369 0.28800002 -3.1641867e+38
-0.094265059 0.0093573369 0.28800002 -3.1641867e+38
-0.093798764 0.0093573369 0.28800002 -3.1641867e+38
-0.093332477 0.0093573369 0.28800002 -3.1243097e+38
-0.092399895 0.0093573369 0.28800002 -3.1243618e+38
-0.092252821 0.009389828 0.289 -3.1243618e+38
-0.092102513 0.0094223181 0.29000002 -3.0978292e+38
-0.091632985 0.0094223181 0.29000002 -3.0844848e+38
-0.091163456 0.0094223181 0.29000002 -3.0579521e+38
-0.091006666 0.0094548091 0.29100001 -3.0712965e+38
-0.090064369 0.0094548091 0.29100001 -3.0580562e+38
-0.089901105 0.0094872992 0.29200003 -3.0580566e+38
-0.089428343 0.0094872992 0.29200003 -3.0580566e+38
-0.088955574 0.0094872992 0.29200003 -3.0315239e+38
-0.088785835 0.0095197903 0.29300001 -3.0315239e+38
-0.087837063 0.0095197903 0.29300001 -3.0181801e+38
-0.087660842 0.0095522804 0.294 -3.0049923e+38
-0.087184839 0.0095522804 0.294 -3.0049923e+38
-0.087003767 0.0095847715 0.29500002 -3.0316811e+38
-0.086819455 0.0096172625 0.296 -3.0450255e+38
-0.086340211 0.0096172625 0.296 -3.0184933e+38
-0.085670181 0.0096497536 0.29700002 -3.0185458e+38
-0.08518932 0.0096497536 0.29700002 -3.0318902e+38
-0.084993668 0.0096822446 0.29800001 -3.0320464e+38
-0.084794782 0.0097147347 0.29900002 -3.0720796e+38
-0.084592663 0.0097472258 0.30000001 -3.0455991e+38
-0.084106945 0.0097472258 0.30000001 -3.0856323e+38
-0.083412625 0.0097797159 0.30100003 -3.1259262e+38
-0.10909754 0.0098577365 0.289 -3.3767068e+38
-0.10862963 0.0098577365 0.289 -3.3501742e+38
-0.10816172 0.0098577365 0.289 -3.3501742e+38
-0.1072259 0.0098577365 0.289 -3.3501742e+38
-0.106758 0.0098577365 0.289 -3.2969527e+38
-0.10629009 0.0098577365 0.289 -3.2969527e+38
-0.10582217 0.0098577365 0.289 -3.2836087e+38
-0.10452343 0.0098236259 0.28800002 -3.2969531e+38
-0.10405713 0.0098236259 0.28800002 -3.2969531e+38
-0.10359085 0.0098236259 0.28800002 -3.2836085e+38
-0.10265826 0.0098236259 0.28800002 -3.2703682e+38
-0.10219198 0.0098236259 0.28800002 -3.2837124e+38
-0.1009078 0.0097895162 0.287 -3.2703682e+38
-0.10079311 0.0098236259 0.28800002 -3.2437838e+38
-0.10032682 0.0098236259 0.28800002 -3.2437838e+38
-0.099860534 0.0098236259 0.28800002 -3.2305439e+38
-0.099394239 0.0098236259 0.28800002 -3.2305439e+38
-0.098461665 0.0098236259 0.28800002 -3.2173041e+38
-0.097995371 0.0098236259 0.28800002 -3.1774271e+38
-0.097529083 0.0098236259 0.28800002 -3.1774271e+38
-0.096596502 0.0098236259 0.28800002 -3.190823e+38
-0.096130215 0.0098236259 0.28800002 -3.1775826e+38
-0.095663927 0.0098236259 0.28800002 -3.1508938e+38
-0.095197633 0.0098236259 0.28800002 -3.1641867e+38
-0.094265059 0.0098236259 0.28800002 -3.1376541e+38
-0.093798764 0.0098236259 0.28800002 -3.1376541e+38
-0.093656547 0.0098577365 0.289 -3.1243618e+38
-0.093188643 0.0098577365 0.289 -3.1243618e+38
-0.093041562 0.0098918453 0.29000002 -3.0978292e+38
-0.092102513 0.0098918453 0.29000002 -3.0978292e+38
-0.091632985 0.0098918453 0.29000002 -3.0844848e+38
-0.091477811 0.0099259559 0.29100001 -3.0579521e+38
-0.091006666 0.0099259559 0.29100001 -3.0712965e+38
-0.090846635 0.0099600647 0.29200003 -3.0580566e+38
-0.089901105 0.0099600647 0.29200003 -3.0580566e+38
-0.089428343 0.0099600647 0.29200003 -3.071401e+38
-0.088955574 0.0099600647 0.29200003 -3.0315239e+38
-0.088785835 0.0099941753 0.29300001 -3.0315239e+38
-0.087837063 0.0099941753 0.29300001 -3.0181801e+38
-0.087660842 0.010028285 0.294 -3.0049923e+38
-0.087184839 0.010028285 0.294 -3.0316811e+38
-0.087003767 0.010062395 0.29500002 -3.0316811e+38
-0.086819455 0.010096504 0.296 -3.0450255e+38
-0.086631902 0.010130614 0.29700002 -3.0184933e+38
-0.085670181 0.010130614 0.29700002 -3.0318902e+38
-0.085476153 0.010164725 0.29800001 -3.0452346e+38
-0.084993668 0.010164725 0.29800001 -3.0320464e+38
-0.084794782 0.010198833 0.29900002 -3.0720796e+38
-0.084592663 0.010232944 0.30000001 -3.0589435e+38
-0.084106945 0.010232944 0.30000001 -3.0856323e+38
-0.083412625 0.010267054 0.30100003 -3.1395308e+38
-0.13146044 0.011504697 0.32200003 -3.3366219e+38
-0.13093911 0.011504697 0.32200003 -3.3366219e+38
-0.12949304 0.011468968 0.32100001 -3.3366219e+38
-0.12897332 0.011468968 0.32100001 -3.3232777e+38
-0.12805343 0.011433239 0.32000002 -3.3366219e+38
-0.1310522 0.011988687 0.32100001 -3.3633103e+38
-0.13053247 0.011988687 0.32100001 -3.3366219e+38
-0.12908962 0.011951338 0.32000002 -3.3366219e+38
-0.12857153 0.011951338 0.32000002 -3.3366219e+38
-0.12713678 0.011913991 0.31900001 -3.3366219e+38
-0.10862963 0.010793553 0.289 -3.3501746e+38
-0.10816172 0.010793553 0.289 -3.3501746e+38
-0.1072259 0.010793553 0.289 -3.323642e+38
-0.106758 0.010793553 0.289 -3.3104016e+38
-0.10629009 0.010793553 0.289 -3.3104016e+38
-0.10582217 0.010793553 0.289 -3.2837128e+38
-0.10488635 0.010793553 0.289 -3.283817e+38
-0.10441845 0.010793553 0.289 -3.2571282e+38
-0.10395054 0.010793553 0.289 -3.2571282e+38
-0.10301472 0.010793553 0.289 -3.2838166e+38
-0.10254681 0.010793553 0.289 -3.2838166e+38
-0.1020789 0.010793553 0.289 -3.2705763e+38
-0.101611 0.010793553 0.289 -3.2438875e+38
-0.10067518 0.010793553 0.289 -3.2305435e+38
-0.099860534 0.010756205 0.28800002 -3.2305435e+38
-0.099394239 0.010756205 0.28800002 -3.2438879e+38
-0.098461665 0.010756205 0.28800002 -3.2173556e+38
-0.097995371 0.010756205 0.28800002 -3.1774786e+38
-0.097529083 0.010756205 0.28800002 -3.1774786e+38
-0.096596502 0.010756205 0.28800002 -3.1775826e+38
-0.096464001 0.010793553 0.289 -3.1775826e+38
-0.095996089 0.010793553 0.289 -3.1642382e+38
-0.095528185 0.010793553 0.289 -3.1377056e+38
-0.094592363 0.010793553 0.289 -3.15105e+38
-0.094124459 0.010793553 0.289 -3.1377056e+38
-0.093656547 0.010793553 0.289 -3.1243618e+38
-0.093188643 0.010793553 0.289 -3.1377062e+38
-0.093041562 0.010830901 0.29000002 -3.1111736e+38
-0.092102513 0.010830901 0.29000002 -3.1111736e+38
-0.091948956 0.010868249 0.29100001 -3.0844848e+38
-0.091477811 0.010868249 0.29100001 -3.0579521e+38
-0.091006666 0.010868249 0.29100001 -3.0712965e+38
-0.090846635 0.010905596 0.29200003 -3.0580566e+38
-0.089901105 0.010905596 0.29200003 -3.0447122e+38
-0.089428343 0.010905596 0.29200003 -3.071401e+38
-0.089260221 0.010942944 0.29300001 -3.0448683e+38
