# .PCD v0.7 - Point Cloud Data file format
VERSION 0.7
FIELDS x y z rgb
SIZE 4 4 4 4
TYPE F F F F
COUNT 1 1 1 1
WIDTH 968
HEIGHT 1
VIEWPOINT 0 0 0 1 0 0 0
POINTS 968
DATA ascii
-0.087112762 0.012054058 0.29700002 -3.0717143e+38
-0.086923592 0.012094645 0.29800001 -3.0451817e+38
-0.086441107 0.012094645 0.29800001 -3.0718705e+38
-0.086247079 0.01213523 0.29900002 -3.0985593e+38
-0.085278884 0.01213523 0.29900002 -3.1253522e+38
-0.085078381 0.012175817 0.30000001 -3.1253522e+38
-0.084874637 0.012216402 0.30100003 -3.0324624e+38
-0.10655451 0.012281689 0.29100001 -3.323746e+38
-0.10608336 0.012281689 0.29100001 -3.323746e+38
-0.10477976 0.012239483 0.29000002 -3.283817e+38
-0.10431023 0.012239483 0.29000002 -3.2705767e+38
-0.1038407 0.012239483 0.29000002 -3.2705767e+38
-0.10290165 0.012239483 0.29000002 -3.2438879e+38
-0.10243212 0.012239483 0.29000002 -3.2438879e+38
-0.10196259 0.012239483 0.29000002 -3.2438879e+38
-0.10149306 0.012239483 0.29000002 -3.2705771e+38
-0.100554 0.012239483 0.29000002 -3.2173556e+38
-0.10008448 0.012239483 0.29000002 -3.2440444e+38
-0.099614948 0.012239483 0.29000002 -3.2440444e+38
-0.098675899 0.012239483 0.29000002 -3.190823e+38
-0.098206371 0.012239483 0.29000002 -3.190823e+38
-0.097736843 0.012239483 0.29000002 -3.1775311e+38
-0.097602718 0.012281689 0.29100001 -3.1775311e+38
-0.096660428 0.012281689 0.29100001 -3.1509985e+38
-0.096189275 0.012281689 0.29100001 -3.1377062e+38
-0.095389202 0.012239483 0.29000002 -3.1377062e+38
-0.094450146 0.012239483 0.29000002 -3.1111736e+38
-0.093980618 0.012239483 0.29000002 -3.0978296e+38
-0.09351109 0.012239483 0.29000002 -3.0978296e+38
-0.093041562 0.012239483 0.29000002 -3.0846413e+38
-0.092420109 0.012281689 0.29100001 -3.0712969e+38
-0.12809262 0.013804616 0.31500003 -3.3371943e+38
-0.12758261 0.013804616 0.31500003 -3.3504859e+38
-0.1265626 0.013804616 0.31500003 -3.3503819e+38
-0.12605259 0.013804616 0.31500003 -3.3503819e+38
-0.1255426 0.013804616 0.31500003 -3.3503819e+38
-0.12542951 0.01384844 0.31600001 -3.3503819e+38
-0.12440626 0.01384844 0.31600001 -3.3370375e+38
-0.12389464 0.01384844 0.31600001 -3.3370375e+38
-0.12338302 0.01384844 0.31600001 -3.3503819e+38
-0.12197256 0.013804616 0.31500003 -3.376863e+38
-0.12107696 0.01376079 0.31400001 -3.376863e+38
-0.092264935 0.012796659 0.29200003 -3.071401e+38
-0.091792166 0.012796659 0.29200003 -3.0713495e+38
-0.091632143 0.012840483 0.29300001 -3.0713495e+38
-0.091157757 0.012840483 0.29300001 -3.0448168e+38
-0.090992868 0.012884308 0.294 -3.0448168e+38
-0.090040863 0.012884308 0.294 -3.0582134e+38
-0.08956486 0.012884308 0.294 -3.0582134e+38
-0.08939188 0.012928132 0.29500002 -3.0715578e+38
-0.08891426 0.012928132 0.29500002 -3.0583695e+38
-0.087959014 0.012928132 0.29500002 -3.0583699e+38
-0.087777935 0.012971955 0.296 -3.0850588e+38
-0.087298691 0.012971955 0.296 -3.0585261e+38
-0.087406069 0.013059605 0.29800001 -3.0585261e+38
-0.086923592 0.013059605 0.29800001 -3.0718709e+38
-0.086731181 0.013103428 0.29900002 -3.0985597e+38
-0.086247079 0.013103428 0.29900002 -3.0985593e+38
-0.085564099 0.013147253 0.30000001 -3.1120078e+38
-0.085361972 0.013191077 0.30100003 -3.1253522e+38
-0.12870273 0.014269176 0.31400001 -3.3641441e+38
-0.12819435 0.014269176 0.31400001 -3.3773319e+38
-0.12809262 0.01431462 0.31500003 -3.3372987e+38
-0.12758261 0.01431462 0.31500003 -3.3371943e+38
-0.1265626 0.01431462 0.31500003 -3.33709e+38
-0.12605259 0.01431462 0.31500003 -3.33709e+38
-0.1255426 0.01431462 0.31500003 -3.3636748e+38
-0.12503259 0.01431462 0.31500003 -3.3636748e+38
-0.12401257 0.01431462 0.31500003 -3.3503819e+38
-0.12350257 0.01431462 0.31500003 -3.3370375e+38
-0.12299257 0.01431462 0.31500003 -3.3503819e+38
-0.12197256 0.01431462 0.31500003 -3.3503304e+38
-0.12146256 0.01431462 0.31500003 -3.3503304e+38
-0.12095255 0.01431462 0.31500003 -3.336986e+38
-0.12044255 0.01431462 0.31500003 -3.3503304e+38
-0.10608336 0.013223982 0.29100001 -3.297161e+38
-0.10514107 0.013223982 0.29100001 -3.2839211e+38
-0.10466992 0.013223982 0.29100001 -3.244044e+38
-0.10419877 0.013223982 0.29100001 -3.244044e+38
-0.10290165 0.013178539 0.29000002 -3.244044e+38
-0.10243212 0.013178539 0.29000002 -3.244044e+38
-0.10196259 0.013178539 0.29000002 -3.2173552e+38
-0.10149306 0.013178539 0.29000002 -3.2175118e+38
-0.100554 0.013178539 0.29000002 -3.190823e+38
-0.10008448 0.013178539 0.29000002 -3.190823e+38
-0.099614948 0.013178539 0.29000002 -3.2175118e+38
-0.098675899 0.013178539 0.29000002 -3.1775826e+38
-0.098545015 0.013223982 0.29100001 -3.1775826e+38
-0.098073862 0.013223982 0.29100001 -3.1376541e+38
-0.097602718 0.013223982 0.29100001 -3.1509985e+38
-0.096660428 0.013223982 0.29100001 -3.1377062e+38
-0.096189275 0.013223982 0.29100001 -3.1378624e+38
-0.09571813 0.013223982 0.29100001 -3.1111736e+38
-0.095246986 0.013223982 0.29100001 -3.0846409e+38
-0.095101528 0.013269424 0.29200003 -3.0846409e+38
-0.09351109 0.013178539 0.29000002 -3.0712969e+38
-0.093362398 0.013223982 0.29100001 -3.1113302e+38
-0.093210466 0.013269424 0.29200003 -3.0846413e+38
-0.092264935 0.013269424 0.29200003 -3.071401e+38
-0.092106529 0.013314867 0.29300001 -3.0713495e+38
-0.091632143 0.013314867 0.29300001 -3.0713495e+38
-0.091468878 0.013360312 0.294 -3.0448168e+38
-0.090992868 0.013360312 0.294 -3.0715056e+38
-0.090040863 0.013360312 0.294 -3.0582134e+38
-0.08956486 0.013360312 0.294 -3.0715578e+38
-0.08939188 0.013405755 0.29500002 -3.0715578e+38
-0.08891426 0.013405755 0.29500002 -3.0849022e+38
-0.088736422 0.013451197 0.296 -3.0982466e+38
-0.087777935 0.013451197 0.296 -3.0984028e+38
-0.087593623 0.013496642 0.29700002 -3.0718705e+38
-0.087406069 0.013542085 0.29800001 -3.0718705e+38
-0.087215282 0.013587528 0.29900002 -3.0985597e+38
-0.086731181 0.013587528 0.29900002 -3.0985597e+38
-0.086535536 0.01363297 0.30000001 -3.1119037e+38
-0.08633665 0.013678415 0.30100003 -3.1252481e+38
-0.12870273 0.014777561 0.31400001 -3.3509044e+38
-0.12819435 0.014777561 0.31400001 -3.3376115e+38
-0.12768596 0.014777561 0.31400001 -3.3109227e+38
-0.12758261 0.014824624 0.31500003 -3.3639879e+38
-0.1265626 0.014824624 0.31500003 -3.3371951e+38
-0.12605259 0.014824624 0.31500003 -3.3238507e+38
-0.1255426 0.014824624 0.31500003 -3.3504352e+38
-0.12503259 0.014824624 0.31500003 -3.3637796e+38
-0.12401257 0.014824624 0.31500003 -3.3504344e+38
-0.12350257 0.014824624 0.31500003 -3.33709e+38
-0.12299257 0.014824624 0.31500003 -3.3504344e+38
-0.12197256 0.014824624 0.31500003 -3.33709e+38
-0.12146256 0.014824624 0.31500003 -3.33709e+38
-0.12095255 0.014824624 0.31500003 -3.33709e+38
-0.12044255 0.014824624 0.31500003 -3.33709e+38
-0.11942254 0.014824624 0.31500003 -3.323746e+38
-0.10608336 0.013695128 0.29100001 -3.2839211e+38
-0.10514107 0.013695128 0.29100001 -3.2839215e+38
-0.10466992 0.013695128 0.29100001 -3.2440444e+38
-0.10419877 0.013695128 0.29100001 -3.2440444e+38
-0.10372762 0.013695128 0.29100001 -3.2440444e+38
-0.10278533 0.013695128 0.29100001 -3.2440444e+38
-0.10231418 0.013695128 0.29100001 -3.2173556e+38
-0.10149306 0.013648067 0.29000002 -3.2308562e+38
-0.100554 0.013648067 0.29000002 -3.2042715e+38
-0.10008448 0.013648067 0.29000002 -3.1775826e+38
-0.09995845 0.013695128 0.29100001 -3.1775826e+38
-0.099487305 0.013695128 0.29100001 -3.2042715e+38
-0.098545015 0.013695128 0.29100001 -3.1777388e+38
-0.098073862 0.013695128 0.29100001 -3.1509985e+38
-0.09793812 0.013742191 0.29200003 -3.1509985e+38
-0.097465359 0.013742191 0.29200003 -3.1378628e+38
-0.096519828 0.013742191 0.29200003 -3.1378624e+38
-0.096047059 0.013742191 0.29200003 -3.1378624e+38
-0.095574297 0.013742191 0.29200003 -3.0846409e+38
-0.095101528 0.013742191 0.29200003 -3.0846409e+38
-0.094155997 0.013742191 0.29200003 -3.071401e+38
-0.093683235 0.013742191 0.29200003 -3.0980898e+38
-0.093529679 0.013789252 0.29300001 -3.071401e+38
-0.093055293 0.013789252 0.29300001 -3.071401e+38
-0.092106529 0.013789252 0.29300001 -3.0448683e+38
-0.091944881 0.013836316 0.294 -3.0715572e+38
-0.091468878 0.013836316 0.294 -3.0715572e+38
-0.090992868 0.013836316 0.294 -3.0715572e+38
-0.090040863 0.013836316 0.294 -3.0715578e+38
-0.089869499 0.013883377 0.29500002 -3.0715578e+38
-0.08939188 0.013883377 0.29500002 -3.0849022e+38
-0.089215659 0.013930439 0.296 -3.0982466e+38
-0.088736422 0.013930439 0.296 -3.111591e+38
-0.088555343 0.013977502 0.29700002 -3.0850583e+38
-0.087593623 0.013977502 0.29700002 -3.0985593e+38
-0.087699376 0.014071627 0.29900002 -3.0985593e+38
-0.087506972 0.014118688 0.30000001 -3.1119041e+38
-0.087021254 0.014118688 0.30000001 -3.0985597e+38
-0.086823985 0.014165752 0.30100003 -3.0986638e+38
-0.12870273 0.015285945 0.31400001 -3.3510088e+38
-0.12819435 0.015285945 0.31400001 -3.337664e+38
-0.12768596 0.015285945 0.31400001 -3.3109752e+38
-0.1266692 0.015285945 0.31400001 -3.3108715e+38
-0.1261608 0.015285945 0.31400001 -3.3372476e+38
-0.12565242 0.015285945 0.31400001 -3.3239032e+38
-0.12514403 0.015285945 0.31400001 -3.3371435e+38
-0.12412727 0.015285945 0.31400001 -3.3505391e+38
-0.12361888 0.015285945 0.31400001 -3.3238503e+38
-0.1231105 0.015285945 0.31400001 -3.3105058e+38
-0.12209372 0.015285945 0.31400001 -3.3238503e+38
-0.12158534 0.015285945 0.31400001 -3.3238503e+38
-0.12146256 0.015334629 0.31500003 -3.3105054e+38
-0.12095255 0.015334629 0.31500003 -3.3105054e+38
-0.12044255 0.015334629 0.31500003 -3.3105054e+38
-0.11942254 0.015334629 0.31500003 -3.3105058e+38
-0.11853503 0.015285945 0.31400001 -3.2971614e+38
-0.10466992 0.014166275 0.29100001 -3.2440444e+38
-0.10419877 0.014166275 0.29100001 -3.2440444e+38
-0.10372762 0.014166275 0.29100001 -3.2175118e+38
-0.10278533 0.014166275 0.29100001 -3.2175118e+38
-0.10231418 0.014166275 0.29100001 -3.190823e+38
-0.10184304 0.014166275 0.29100001 -3.2176159e+38
-0.10090075 0.014166275 0.29100001 -3.2042715e+38
-0.1004296 0.014166275 0.29100001 -3.2042715e+38
-0.09995845 0.014166275 0.29100001 -3.1775826e+38
-0.099487305 0.014166275 0.29100001 -3.2042715e+38
-0.098883651 0.014214956 0.29200003 -3.1777388e+38
-0.09841089 0.014214956 0.29200003 -3.1377062e+38
-0.09793812 0.014214956 0.29200003 -3.1377062e+38
-0.097465359 0.014214956 0.29200003 -3.1378628e+38
-0.096519828 0.014214956 0.29200003 -3.1113302e+38
-0.096047059 0.014214956 0.29200003 -3.1113302e+38
-0.095901601 0.014263637 0.29300001 -3.0846413e+38
-0.095427223 0.014263637 0.29300001 -3.0846413e+38
-0.094478451 0.014263637 0.29300001 -3.071401e+38
-0.094004065 0.014263637 0.29300001 -3.0980383e+38
-0.093848892 0.014312319 0.294 -3.0980383e+38
-0.093372889 0.014312319 0.294 -3.071401e+38
-0.093212865 0.014361001 0.29500002 -3.071401e+38
-0.092257619 0.014361001 0.29500002 -3.0715572e+38
-0.091468878 0.014312319 0.294 -3.0448683e+38
-0.091302373 0.014361001 0.29500002 -3.0849016e+38
-0.090824746 0.014361001 0.29500002 -3.0715578e+38
-0.089869499 0.014361001 0.29500002 -3.0849022e+38
-0.089694902 0.014409682 0.296 -3.0982466e+38
-0.089215659 0.014409682 0.296 -3.111591e+38
-0.089036204 0.014458364 0.29700002 -3.1249354e+38
-0.088555343 0.014458364 0.29700002 -3.0850583e+38
-0.087888554 0.014507045 0.29800001 -3.0985589e+38
-0.087406069 0.014507045 0.29800001 -3.0985589e+38
-0.1297195 0.016302716 0.31400001 -3.3382384e+38
-0.12829286 0.016250797 0.31300002 -3.2981003e+38
-0.12819435 0.016302716 0.31400001 -3.3512171e+38
-0.12768596 0.016302716 0.31400001 -3.3245283e+38
-0.1266692 0.016302716 0.31400001 -3.2977358e+38
-0.1261608 0.016302716 0.31400001 -3.3108715e+38
-0.12565242 0.016302716 0.31400001 -3.3108715e+38
-0.12423873 0.016250797 0.31300002 -3.3374038e+38
-0.12373196 0.016250797 0.31300002 -3.3374553e+38
-0.1232252 0.016250797 0.31300002 -3.2974221e+38
-0.12271843 0.016250797 0.31300002 -3.2972655e+38
-0.12209372 0.016302716 0.31400001 -3.3239543e+38
-0.12158534 0.016302716 0.31400001 -3.3106099e+38
-0.12107696 0.016302716 0.31400001 -3.3106099e+38
-0.12056857 0.016302716 0.31400001 -3.3106099e+38
-0.1195518 0.016302716 0.31400001 -3.2972655e+38
-0.11904342 0.016302716 0.31400001 -3.2972655e+38
-0.11853503 0.016302716 0.31400001 -3.2839211e+38
-0.11802664 0.016302716 0.31400001 -3.3106099e+38
-0.10455684 0.015160487 0.29200003 -3.2175114e+38
-0.10372762 0.015108569 0.29100001 -3.2175118e+38
-0.10278533 0.015108569 0.29100001 -3.2175118e+38
-0.10231418 0.015108569 0.29100001 -3.190823e+38
-0.10184304 0.015108569 0.29100001 -3.2042715e+38
-0.10090075 0.015108569 0.29100001 -3.15105e+38
-0.1004296 0.015108569 0.29100001 -3.15105e+38
-0.09995845 0.015108569 0.29100001 -3.15105e+38
-0.099829189 0.015160487 0.29200003 -3.15105e+38
-0.098883651 0.015160487 0.29200003 -3.1777388e+38
-0.09841089 0.015160487 0.29200003 -3.1377062e+38
-0.09793812 0.015160487 0.29200003 -3.164395e+38
-0.097799145 0.015212406 0.29300001 -3.1378628e+38
-0.097324759 0.015212406 0.29300001 -3.1378628e+38
-0.096375987 0.015212406 0.29300001 -3.1113302e+38
-0.095901601 0.015212406 0.29300001 -3.0980898e+38
-0.095427223 0.015212406 0.29300001 -3.0980898e+38
-0.095276907 0.015264327 0.294 -3.0980898e+38
-0.094324902 0.015264327 0.294 -3.0980898e+38
-0.094168112 0.015316246 0.29500002 -3.0980898e+38
-0.093690485 0.015316246 0.29500002 -3.0849016e+38
-0.093528837 0.015368165 0.296 -3.0715572e+38
-0.093049601 0.015368165 0.296 -3.0715578e+38
-0.092091113 0.015368165 0.296 -3.0715578e+38
-0.091921374 0.015420086 0.29700002 -3.0849022e+38
-0.091132626 0.015368165 0.296 -3.0717143e+38
-0.090174146 0.015368165 0.296 -3.0717139e+38
-0.089694902 0.015368165 0.296 -3.0850583e+38
-0.089517064 0.015420086 0.29700002 -3.0984028e+38
-0.089036204 0.015420086 0.29700002 -3.1250916e+38
-0.088853508 0.015472005 0.29800001 -3.0984028e+38
-0.087888554 0.015472005 0.29800001 -3.0985589e+38
-0.087699376 0.015523924 0.29900002 -3.0985589e+38
-0.12981315 0.016757563 0.31300002 -3.3918243e+38
-0.12879962 0.016757563 0.31300002 -3.338238e+38
-0.12829286 0.016757563 0.31300002 -3.3115492e+38
-0.12778609 0.016757563 0.31300002 -3.3247891e+38
-0.12727933 0.016757563 0.31300002 -3.2714115e+38
-0.12626579 0.016757563 0.31300002 -3.2977358e+38
-0.12575902 0.016757563 0.31300002 -3.3109756e+38
-0.12525226 0.016757563 0.31300002 -3.3109756e+38
-0.12423873 0.016757563 0.31300002 -3.3108711e+38
-0.12373196 0.016757563 0.31300002 -3.3109227e+38
-0.1232252 0.016757563 0.31300002 -3.2842338e+38
-0.12271843 0.016757563 0.31300002 -3.2840773e+38
-0.1217049 0.016757563 0.31300002 -3.2974217e+38
-0.12119813 0.016757563 0.31300002 -3.2840773e+38
-0.12069137 0.016757563 0.31300002 -3.2840773e+38
-0.12056857 0.016811101 0.31400001 -3.2840773e+38
-0.1195518 0.016811101 0.31400001 -3.2972655e+38
-0.11904342 0.016811101 0.31400001 -3.3106099e+38
-0.11853503 0.016811101 0.31400001 -3.2972655e+38
-0.11802664 0.016811101 0.31400001 -3.3106099e+38
-0.11700988 0.016811101 0.31400001 -3.2972655e+38
-0.10313854 0.015633253 0.29200003 -3.2042715e+38
-0.10266578 0.015633253 0.29200003 -3.1775826e+38
-0.10184304 0.015579715 0.29100001 -3.1777388e+38
-0.10090075 0.015579715 0.29100001 -3.1777388e+38
-0.1004296 0.015579715 0.29100001 -3.15105e+38
-0.10030195 0.015633253 0.29200003 -3.15105e+38
-0.099829189 0.015633253 0.29200003 -3.1777388e+38
-0.099696681 0.015686791 0.29300001 -3.1377062e+38
-0.098747917 0.015686791 0.29300001 -3.164395e+38
-0.098273531 0.015686791 0.29300001 -3.164395e+38
-0.097799145 0.015686791 0.29300001 -3.1113302e+38
-0.097324759 0.015686791 0.29300001 -3.1113302e+38
-0.096704915 0.015740331 0.294 -3.1113302e+38
-0.096228912 0.015740331 0.294 -3.0980898e+38
-0.09575291 0.015740331 0.294 -3.0980898e+38
-0.095276907 0.015740331 0.294 -3.0980898e+38
-0.094324902 0.015740331 0.294 -3.0980898e+38
-0.094168112 0.015793869 0.29500002 -3.1114342e+38
-0.094008081 0.015847407 0.296 -3.0849016e+38
-0.093528837 0.015847407 0.296 -3.0849016e+38
-0.093363956 0.015900947 0.29700002 -3.0849022e+38
-0.092883095 0.015900947 0.29700002 -3.0849022e+38
-0.091921374 0.015900947 0.29700002 -3.098247e+38
-0.091440514 0.015900947 0.29700002 -3.0717143e+38
-0.090959646 0.015900947 0.29700002 -3.0850588e+38
-0.089997925 0.015900947 0.29700002 -3.0850583e+38
-0.089517064 0.015900947 0.29700002 -3.0984028e+38
-0.089335993 0.015954485 0.29800001 -3.1250916e+38
-0.088853508 0.015954485 0.29800001 -3.0984028e+38
-0.088667579 0.016008023 0.29900002 -3.0984028e+38
-0.12838812 0.017209172 0.31200001 -3.3784278e+38
-0.12788297 0.017209172 0.31200001 -3.3250502e+38
-0.12737782 0.017209172 0.31200001 -3.3382376e+38
-0.12636752 0.017209172 0.31200001 -3.3244768e+38
-0.12626579 0.017264329 0.31300002 -3.297788e+38
-0.12575902 0.017264329 0.31300002 -3.3111318e+38
-0.12525226 0.017264329 0.31300002 -3.2977874e+38
-0.12423873 0.017264329 0.31300002 -3.3109752e+38
-0.12373196 0.017264329 0.31300002 -3.3108711e+38
-0.1232252 0.017264329 0.31300002 -3.3108711e+38
-0.12271843 0.017264329 0.31300002 -3.2708894e+38
-0.1217049 0.017264329 0.31300002 -3.270889e+38
-0.12119813 0.017264329 0.31300002 -3.270889e+38
-0.12069137 0.017264329 0.31300002 -3.2840773e+38
-0.11967783 0.017264329 0.31300002 -3.2840773e+38
-0.11917107 0.017264329 0.31300002 -3.2707329e+38
-0.1186643 0.017264329 0.31300002 -3.2840773e+38
-0.11815754 0.017264329 0.31300002 -3.2707329e+38
-0.11802664 0.017319486 0.31400001 -3.2707329e+38
-0.11700988 0.017319486 0.31400001 -3.2707329e+38
-0.11650149 0.017319486 0.31400001 -3.2707329e+38
-0.10077472 0.016106019 0.29200003 -3.1377577e+38
-0.10030195 0.016106019 0.29200003 -3.164395e+38
-0.10017107 0.016161175 0.29300001 -3.164395e+38
-0.099696681 0.016161175 0.29300001 -3.164395e+38
-0.099560939 0.016216334 0.294 -3.164395e+38
-0.098608933 0.016216334 0.294 -3.1378628e+38
-0.098132931 0.016216334 0.294 -3.1113302e+38
-0.097656928 0.016216334 0.294 -3.1113302e+38
-0.096704915 0.016216334 0.294 -3.1114342e+38
-0.096228912 0.016216334 0.294 -3.0980898e+38
-0.096078597 0.016271492 0.29500002 -3.1114342e+38
-0.095600978 0.016271492 0.29500002 -3.0980898e+38
-0.095123358 0.016271492 0.29500002 -3.1114342e+38
-0.094487324 0.016326649 0.296 -3.1114342e+38
-0.094325677 0.016381808 0.29700002 -3.098246e+38
-0.093844816 0.016381808 0.29700002 -3.098246e+38
-0.093363956 0.016381808 0.29700002 -3.0849022e+38
-0.093195833 0.016436964 0.29800001 -3.0982466e+38
-0.092230871 0.016436964 0.29800001 -3.098247e+38
-0.091748394 0.016436964 0.29800001 -3.0717143e+38
-0.091265909 0.016436964 0.29800001 -3.0984032e+38
-0.090783432 0.016436964 0.29800001 -3.0984032e+38
-0.08915168 0.016492123 0.29900002 -3.0984028e+38
-0.088667579 0.016492123 0.29900002 -3.0850583e+38
-0.10003694 0.016692339 0.294 -3.1643954e+38
-0.099560939 0.016692339 0.294 -3.1643954e+38
-0.098608933 0.016692339 0.294 -3.1378628e+38
-0.098132931 0.016692339 0.294 -3.1113302e+38
-0.09798909 0.016749116 0.29500002 -3.1113302e+38
-0.09751147 0.016749116 0.29500002 -3.1114342e+38
-0.096556224 0.016749116 0.29500002 -3.0980898e+38
-0.096078597 0.016749116 0.29500002 -3.1114342e+38
-0.12747309 0.018161068 0.31100002 -3.3121743e+38
-0.12696956 0.018161068 0.31100002 -3.3386025e+38
-0.12636752 0.018219465 0.31200001 -3.3247895e+38
-0.12586237 0.018219465 0.31200001 -3.3114451e+38
-0.12535724 0.018219465 0.31200001 -3.2979441e+38
-0.12485208 0.018219465 0.31200001 -3.2845997e+38
-0.12384179 0.018219465 0.31200001 -3.2844951e+38
-0.12333664 0.018219465 0.31200001 -3.2710985e+38
-0.1228315 0.018219465 0.31200001 -3.2710985e+38
-0.12271843 0.018277861 0.31300002 -3.2444093e+38
-0.1217049 0.018277861 0.31300002 -3.270942e+38
-0.12119813 0.018277861 0.31300002 -3.2575976e+38
-0.12069137 0.018277861 0.31300002 -3.2442532e+38
-0.11967783 0.018277861 0.31300002 -3.2708894e+38
-0.11879032 0.018219465 0.31200001 -3.257545e+38
-0.11828518 0.018219465 0.31200001 -3.257545e+38
-0.11815754 0.018277861 0.31300002 -3.2442006e+38
-0.117144 0.018277861 0.31300002 -3.2442006e+38
-0.11663724 0.018277861 0.31300002 -3.2443047e+38
-0.11613047 0.018277861 0.31300002 -3.2309603e+38
-0.11511694 0.018277861 0.31300002 -3.2175643e+38
-0.11387784 0.018161068 0.31100002 -3.2176159e+38
-0.095925048 0.017285133 0.296 -3.0981945e+38
-0.095445804 0.017285133 0.296 -3.08485e+38
-0.094487324 0.017285133 0.296 -3.1115904e+38
-0.094325677 0.01734353 0.29700002 -3.1115904e+38
-0.094160788 0.017401924 0.29800001 -3.1115904e+38
-0.093678311 0.017401924 0.29800001 -3.0982466e+38
-0.12706321 0.018604582 0.31 -3.299299e+38
-0.1260594 0.018604582 0.31 -3.285434e+38
-0.12596251 0.018664597 0.31100002 -3.3117058e+38
-0.12545899 0.018664597 0.31100002 -3.2850169e+38
-0.12495545 0.018664597 0.31100002 -3.2982048e+38
-0.1239484 0.018664597 0.31100002 -3.2845997e+38
-0.12344487 0.018664597 0.31100002 -3.2712553e+38
-0.12333664 0.018724613 0.31200001 -3.2844951e+38
-0.1228315 0.018724613 0.31200001 -3.2578063e+38
-0.1218212 0.018724613 0.31200001 -3.2710985e+38
-0.12131606 0.018724613 0.31200001 -3.2710981e+38
-0.12081091 0.018724613 0.31200001 -3.2310649e+38
-0.12030576 0.018724613 0.31200001 -3.2310649e+38
-0.11929547 0.018724613 0.31200001 -3.270942e+38
-0.11879032 0.018724613 0.31200001 -3.2442532e+38
-0.11828518 0.018724613 0.31200001 -3.2442532e+38
-0.11815754 0.018784627 0.31300002 -3.2442532e+38
-0.11676974 0.018724613 0.31200001 -3.2442532e+38
-0.11626459 0.018724613 0.31200001 -3.2309087e+38
-0.11575944 0.018724613 0.31200001 -3.2309087e+38
-0.11474915 0.018724613 0.31200001 -3.2043765e+38
-0.114244 0.018724613 0.31200001 -3.1910317e+38
-0.11337432 0.018664597 0.31100002 -3.1910317e+38
-0.11186372 0.018664597 0.31100002 -3.1910317e+38
-0.1113602 0.018664597 0.31100002 -3.1776873e+38
-0.10964347 0.018544568 0.30900002 -3.1776873e+38
-0.093634203 0.018544568 0.30900002 -3.0717139e+38
-0.093435317 0.018604582 0.31 -3.0583695e+38
-0.092933409 0.018604582 0.31 -3.0450251e+38
-0.092729665 0.018664597 0.31100002 -2.9520828e+38
-0.092017539 0.018724613 0.31200001 -2.7262698e+38
-0.12565275 0.019044857 0.30900002 -3.2856427e+38
-0.12405176 0.019106491 0.31 -3.2850169e+38
-0.1239484 0.019168124 0.31100002 -3.2848604e+38
-0.12344487 0.019168124 0.31100002 -3.2581716e+38
-0.12294134 0.019168124 0.31100002 -3.2447227e+38
-0.12243781 0.019168124 0.31100002 -3.2447227e+38
-0.12143075 0.019168124 0.31100002 -3.2445665e+38
-0.12092723 0.019168124 0.31100002 -3.2577547e+38
-0.1204237 0.019168124 0.31100002 -3.2310659e+38
-0.11941665 0.019168124 0.31100002 -3.2578063e+38
-0.11891312 0.019168124 0.31100002 -3.2578063e+38
-0.11840959 0.019168124 0.31100002 -3.217773e+38
-0.11790606 0.019168124 0.31100002 -3.2044286e+38
-0.11727488 0.019229759 0.31200001 -3.2043761e+38
-0.11676974 0.019229759 0.31200001 -3.2177205e+38
-0.11626459 0.019229759 0.31200001 -3.2043761e+38
-0.1148849 0.019168124 0.31100002 -3.1910842e+38
-0.11474915 0.019229759 0.31200001 -3.1910842e+38
-0.114244 0.019229759 0.31200001 -3.1910838e+38
-0.11337432 0.019168124 0.31100002 -3.1777394e+38
-0.11236726 0.019168124 0.31100002 -3.1777394e+38
-0.11150404 0.019106491 0.31 -3.1777394e+38
-0.11100213 0.019106491 0.31 -3.164395e+38
-0.10999832 0.019106491 0.31 -3.164395e+38
-0.10914319 0.019044857 0.30900002 -3.1644465e+38
-0.1086429 0.019044857 0.30900002 -3.1777909e+38
-0.096323207 0.018983224 0.30800003 -3.1249354e+38
-0.095824532 0.018983224 0.30800003 -3.111591e+38
-0.095635362 0.019044857 0.30900002 -3.111591e+38
-0.09513507 0.019044857 0.30900002 -3.0984028e+38
-0.094134495 0.019044857 0.30900002 -3.0850583e+38
-0.093937226 0.019106491 0.31 -3.0450251e+38
-0.093435317 0.019106491 0.31 -3.0051481e+38
-0.093233198 0.019168124 0.31100002 -2.9651149e+38
-0.092729665 0.019168124 0.31100002 -2.8192117e+38
-0.091722615 0.019168124 0.31100002 -2.6465168e+38
-0.091512397 0.019229759 0.31200001 -2.6598612e+38
-0.12565275 0.019545147 0.30900002 -3.2862148e+38
-0.12515245 0.019545147 0.30900002 -3.3921892e+38
-0.12505558 0.019608399 0.31 -3.3121228e+38
-0.12405176 0.019608399 0.31 -3.2718808e+38
-0.12354986 0.019608399 0.31 -3.2716725e+38
-0.12304795 0.019608399 0.31 -3.2583281e+38
-0.12254604 0.019608399 0.31 -3.2448271e+38
-0.12154222 0.019608399 0.31 -3.2313787e+38
-0.12104031 0.019608399 0.31 -3.2313787e+38
-0.12053841 0.019608399 0.31 -3.2445669e+38
-0.12003649 0.019608399 0.31 -3.2445669e+38
-0.11903267 0.019608399 0.31 -3.2445665e+38
-0.11891312 0.019671652 0.31100002 -3.2312221e+38
-0.11840959 0.019671652 0.31100002 -3.1911889e+38
-0.11790606 0.019671652 0.31100002 -3.2177215e+38
-0.11689901 0.019671652 0.31100002 -3.2177726e+38
-0.11639548 0.019671652 0.31100002 -3.2177726e+38
-0.11589195 0.019671652 0.31100002 -3.2177726e+38
-0.1148849 0.019671652 0.31100002 -3.177896e+38
-0.11474915 0.019734906 0.31200001 -3.177896e+38
-0.114244 0.019734906 0.31200001 -3.1645516e+38
-0.11250786 0.019608399 0.31 -3.1645516e+38
-0.11200595 0.019608399 0.31 -3.1512072e+38
-0.11150404 0.019608399 0.31 -3.1645512e+38
-0.11100213 0.019608399 0.31 -3.1512068e+38
-0.10999832 0.019608399 0.31 -3.1512068e+38
-0.10914319 0.019545147 0.30900002 -3.1512068e+38
-0.1086429 0.019545147 0.30900002 -3.1512068e+38
-0.10764232 0.019545147 0.30900002 -3.1645512e+38
-0.1067953 0.019481894 0.30800003 -3.138019e+38
-0.10579795 0.019481894 0.30800003 -3.1114342e+38
-0.10529928 0.019481894 0.30800003 -3.1114342e+38
-0.1048006 0.019481894 0.30800003 -3.1247786e+38
-0.10430194 0.019481894 0.30800003 -3.1247786e+38
-0.10330459 0.019481894 0.30800003 -3.1247786e+38
-0.10280593 0.019481894 0.30800003 -3.1247271e+38
-0.10230725 0.019481894 0.30800003 -3.1247271e+38
-0.10180859 0.019481894 0.30800003 -3.1115389e+38
-0.10081124 0.019481894 0.30800003 -3.1115389e+38
-0.098495722 0.01941864 0.30700001 -3.1382277e+38
-0.098317891 0.019481894 0.30800003 -3.1382277e+38
-0.097819217 0.019481894 0.30800003 -3.1649165e+38
-0.097320549 0.019481894 0.30800003 -3.1382277e+38
-0.096323207 0.019481894 0.30800003 -3.1249354e+38
-0.096135654 0.019545147 0.30900002 -3.111591e+38
-0.095635362 0.019545147 0.30900002 -3.111591e+38
-0.09513507 0.019545147 0.30900002 -3.111591e+38
-0.094134495 0.019545147 0.30900002 -3.0450251e+38
-0.093937226 0.019608399 0.31 -2.9916475e+38
-0.093435317 0.019608399 0.31 -2.8588286e+38
-0.092933409 0.019608399 0.31 -2.8588286e+38
-0.092729665 0.019671652 0.31100002 -2.6465163e+38
-0.091722615 0.019671652 0.31100002 -2.5535748e+38
-0.091512397 0.019734906 0.31200001 -2.5802637e+38
-0.12465217 0.020545727 0.30900002 -3.3398007e+38
-0.12365159 0.020545727 0.30900002 -3.3390714e+38
-0.1231513 0.020545727 0.30900002 -3.298986e+38
-0.12265101 0.020545727 0.30900002 -3.2722972e+38
-0.12165044 0.020545727 0.30900002 -3.2053146e+38
-0.12115014 0.020545727 0.30900002 -3.2183466e+38
-0.12064985 0.020545727 0.30900002 -3.2450354e+38
-0.12053841 0.020612217 0.31 -3.2581716e+38
-0.12003649 0.020612217 0.31 -3.2181383e+38
-0.11903267 0.020612217 0.31 -3.2448271e+38
-0.11853077 0.020612217 0.31 -3.2181383e+38
-0.11802886 0.020612217 0.31 -3.2047939e+38
-0.11702504 0.020612217 0.31 -3.2046899e+38
-0.11652313 0.020612217 0.31 -3.1780011e+38
-0.11602122 0.020612217 0.31 -3.1780011e+38
-0.11551932 0.020612217 0.31 -3.1780007e+38
-0.1145155 0.020612217 0.31 -3.1780007e+38
-0.11438137 0.020678708 0.31100002 -3.1646563e+38
-0.11387784 0.020678708 0.31100002 -3.1646563e+38
-0.11250786 0.020612217 0.31 -3.1646563e+38
-0.11200595 0.020612217 0.31 -3.1379674e+38
-0.11150404 0.020612217 0.31 -3.1646563e+38
-0.11100213 0.020612217 0.31 -3.1513119e+38
-0.10964347 0.020545727 0.30900002 -3.1513119e+38
-0.10914319 0.020545727 0.30900002 -3.1513119e+38
-0.1086429 0.020545727 0.30900002 -3.1513119e+38
-0.10764232 0.020545727 0.30900002 -3.1380715e+38
-0.10714203 0.020545727 0.30900002 -3.1115389e+38
-0.10579795 0.020479236 0.30800003 -3.1115389e+38
-0.10529928 0.020479236 0.30800003 -3.1115389e+38
-0.1048006 0.020479236 0.30800003 -3.1248833e+38
-0.10430194 0.020479236 0.30800003 -3.1248833e+38
-0.10330459 0.020479236 0.30800003 -3.1115389e+38
-0.10280593 0.020479236 0.30800003 -3.1115393e+38
-0.10230725 0.020479236 0.30800003 -3.1248837e+38
-0.10180859 0.020479236 0.30800003 -3.1248837e+38
-0.10081124 0.020479236 0.30800003 -3.1382281e+38
-0.10031257 0.020479236 0.30800003 -3.1382281e+38
-0.099813901 0.020479236 0.30800003 -3.1649169e+38
-0.098816559 0.020479236 0.30800003 -3.1782609e+38
-0.098317891 0.020479236 0.30800003 -3.1782609e+38
-0.097819217 0.020479236 0.30800003 -3.1782609e+38
-0.097636521 0.020545727 0.30900002 -3.1248833e+38
-0.096635945 0.020545727 0.30900002 -3.111591e+38
-0.096135654 0.020545727 0.30900002 -3.0849022e+38
-0.095635362 0.020545727 0.30900002 -3.0582134e+38
-0.09513507 0.020545727 0.30900002 -2.9651149e+38
-0.094134495 0.020545727 0.30900002 -2.7923672e+38
-0.093937226 0.020612217 0.31 -2.7656783e+38
-0.093435317 0.020612217 0.31 -2.5532621e+38
-0.092933409 0.020612217 0.31 -2.5666065e+38
-0.092729665 0.020678708 0.31100002 -2.5402308e+38
-0.091722615 0.020678708 0.31100002 -2.5269911e+38
-0.091219082 0.020678708 0.31100002 -2.5403355e+38
-0.091007248 0.020745199 0.31200001 -2.5405442e+38
-0.12325143 0.020977907 0.30800003 -3.3528857e+38
-0.12275276 0.020977907 0.30800003 -3.3525209e+38
-0.12265101 0.021046016 0.30900002 -3.3124876e+38
-0.12165044 0.021046016 0.30900002 -3.2189196e+38
-0.12115014 0.021046016 0.30900002 -3.218659e+38
-0.12064985 0.021046016 0.30900002 -3.2053146e+38
-0.12014956 0.021046016 0.30900002 -3.2450359e+38
-0.11914898 0.021046016 0.30900002 -3.2182949e+38
-0.11864869 0.021046016 0.30900002 -3.2316393e+38
-0.1181484 0.021046016 0.30900002 -3.2182949e+38
-0.11714783 0.021046016 0.30900002 -3.1914499e+38
-0.11664753 0.021046016 0.30900002 -3.2047943e+38
-0.11614724 0.021046016 0.30900002 -3.2047943e+38
-0.11602122 0.021114126 0.31 -3.2047943e+38
-0.11551932 0.021114126 0.31 -3.1914495e+38
-0.1145155 0.021114126 0.31 -3.1647603e+38
-0.11401359 0.021114126 0.31 -3.1647603e+38
-0.11351168 0.021114126 0.31 -3.1382277e+38
-0.11250786 0.021114126 0.31 -3.1382277e+38
-0.11200595 0.021114126 0.31 -3.1115389e+38
-0.11150404 0.021114126 0.31 -3.1248833e+38
-0.11014377 0.021046016 0.30900002 -3.1115389e+38
-0.10964347 0.021046016 0.30900002 -3.1248833e+38
-0.10914319 0.021046016 0.30900002 -3.1514159e+38
-0.1086429 0.021046016 0.30900002 -3.1647603e+38
-0.10764232 0.021046016 0.30900002 -3.1380715e+38
-0.10714203 0.021046016 0.30900002 -3.1248833e+38
-0.10579795 0.020977907 0.30800003 -3.1248833e+38
-0.10529928 0.020977907 0.30800003 -3.1248833e+38
-0.1048006 0.020977907 0.30800003 -3.1382277e+38
-0.10430194 0.020977907 0.30800003 -3.1382277e+38
-0.10330459 0.020977907 0.30800003 -3.1248833e+38
-0.10280593 0.020977907 0.30800003 -3.1382281e+38
-0.10230725 0.020977907 0.30800003 -3.1382281e+38
-0.10180859 0.020977907 0.30800003 -3.1382281e+38
-0.10081124 0.020977907 0.30800003 -3.1649169e+38
-0.10031257 0.020977907 0.30800003 -3.1782613e+38
-0.099813901 0.020977907 0.30800003 -3.1782613e+38
-0.098816559 0.020977907 0.30800003 -3.1782609e+38
-0.098317891 0.020977907 0.30800003 -3.1782609e+38
-0.097819217 0.020977907 0.30800003 -3.1649165e+38
-0.097636521 0.021046016 0.30900002 -3.1248833e+38
-0.096635945 0.021046016 0.30900002 -3.0715578e+38
-0.096135654 0.021046016 0.30900002 -2.9784597e+38
-0.095635362 0.021046016 0.30900002 -2.9517709e+38
-0.09513507 0.021046016 0.30900002 -2.8454846e+38
-0.094134495 0.021046016 0.30900002 -2.6196192e+38
-0.093634203 0.021046016 0.30900002 -2.6196192e+38
-0.093435317 0.021114126 0.31 -2.5001972e+38
-0.092933409 0.021114126 0.31 -2.5001972e+38
-0.091929592 0.021114126 0.31 -2.4869579e+38
-0.091427684 0.021114126 0.31 -2.4870625e+38
-0.091219082 0.021182235 0.31100002 -2.5137513e+38
-0.090715557 0.021182235 0.31100002 -2.5271998e+38
-0.12275276 0.021476576 0.30800003 nan
-0.12225409 0.021476576 0.30800003 -3.3395929e+38
-0.12125675 0.021476576 0.30800003 -3.2591611e+38
-0.12075808 0.021476576 0.30800003 -3.2456084e+38
-0.1202594 0.021476576 0.30800003 -3.2055752e+38
-0.11614724 0.021546306 0.30900002 -3.2049505e+38
-0.11564695 0.021546306 0.30900002 -3.1916061e+38
-0.11464638 0.021546306 0.30900002 -3.1782613e+38
-0.11414608 0.021546306 0.30900002 -3.1782613e+38
-0.11364579 0.021546306 0.30900002 -3.1649169e+38
-0.11314551 0.021546306 0.30900002 -3.1649169e+38
-0.11214492 0.021546306 0.30900002 -3.1382277e+38
-0.11164463 0.021546306 0.30900002 -3.1382277e+38
-0.11114435 0.021546306 0.30900002 -3.1382277e+38
-0.11014377 0.021546306 0.30900002 -3.1248833e+38
-0.10964347 0.021546306 0.30900002 -3.1382277e+38
-0.10914319 0.021546306 0.30900002 -3.1248833e+38
-0.1086429 0.021546306 0.30900002 -3.1382277e+38
-0.10729397 0.021476576 0.30800003 -3.1382277e+38
-0.1067953 0.021476576 0.30800003 -3.1248833e+38
-0.10579795 0.021476576 0.30800003 -3.1382277e+38
-0.10529928 0.021476576 0.30800003 -3.1382277e+38
-0.1048006 0.021476576 0.30800003 -3.1382277e+38
-0.10430194 0.021476576 0.30800003 -3.1649165e+38
-0.10330459 0.021476576 0.30800003 -3.1782609e+38
-0.10280593 0.021476576 0.30800003 -3.1916057e+38
-0.10230725 0.021476576 0.30800003 -3.1649169e+38
-0.10180859 0.021476576 0.30800003 -3.1782613e+38
-0.10081124 0.021476576 0.30800003 -3.1916057e+38
-0.10031257 0.021476576 0.30800003 -3.1916057e+38
-0.099813901 0.021476576 0.30800003 -3.1782609e+38
-0.098816559 0.021476576 0.30800003 -3.1782609e+38
-0.098317891 0.021476576 0.30800003 -3.1649165e+38
-0.097819217 0.021476576 0.30800003 -3.111591e+38
-0.097320549 0.021476576 0.30800003 -3.0715578e+38
-0.096635945 0.021546306 0.30900002 -2.9783031e+38
-0.096135654 0.021546306 0.30900002 -2.8454846e+38
-0.095635362 0.021546306 0.30900002 -2.8321401e+38
-0.09513507 0.021546306 0.30900002 -2.6992697e+38
-0.094134495 0.021546306 0.30900002 -2.5398662e+38
-0.093634203 0.021546306 0.30900002 -2.5398662e+38
-0.093133911 0.021546306 0.30900002 -2.5001972e+38
-0.092133336 0.021546306 0.30900002 -2.487114e+38
-0.091929592 0.021616034 0.31 -2.487114e+38
-0.091427684 0.021616034 0.31 -2.5004069e+38
-0.090925775 0.021616034 0.31 -2.5137513e+38
-0.090423867 0.021616034 0.31 -2.5271998e+38
-0.11776605 0.022473918 0.30800003 -3.2320563e+38
-0.11676871 0.022473918 0.30800003 -3.205315e+38
-0.11627004 0.022473918 0.30800003 -3.1652818e+38
-0.11577137 0.022473918 0.30800003 -3.1918144e+38
-0.11477403 0.022473918 0.30800003 -3.17847e+38
-0.11427536 0.022473918 0.30800003 -3.17847e+38
-0.11377668 0.022473918 0.30800003 -3.17847e+38
-0.11327802 0.022473918 0.30800003 -3.1651256e+38
-0.11314551 0.022546886 0.30900002 -3.1651256e+38
-0.11214492 0.022546886 0.30900002 -3.1651256e+38
-0.11164463 0.022546886 0.30900002 -3.1517812e+38
-0.11114435 0.022546886 0.30900002 -3.1384368e+38
-0.11014377 0.022546886 0.30900002 -3.1517808e+38
-0.10964347 0.022546886 0.30900002 -3.1517808e+38
-0.10914319 0.022546886 0.30900002 -3.1517808e+38
-0.10779264 0.022473918 0.30800003 -3.1651252e+38
-0.10729397 0.022473918 0.30800003 -3.1651252e+38
-0.1067953 0.022473918 0.30800003 -3.1517808e+38
-0.10545444 0.022400949 0.30700001 -3.1651256e+38
-0.10495739 0.022400949 0.30700001 -3.17847e+38
-0.10446034 0.022400949 0.30700001 -3.1784696e+38
-0.10346624 0.022400949 0.30700001 -3.2050018e+38
-0.10296919 0.022400949 0.30700001 -3.2183462e+38
-0.10247214 0.022400949 0.30700001 -3.2183466e+38
-0.10197508 0.022400949 0.30700001 -3.2183466e+38
-0.10098098 0.022400949 0.30700001 -3.2183466e+38
-0.10048393 0.022400949 0.30700001 -3.1916574e+38
-0.099986881 0.022400949 0.30700001 -3.1649686e+38
-0.099813901 0.022473918 0.30800003 -3.1249358e+38
-0.098816559 0.022473918 0.30800003 -3.0051485e+38
-0.098317891 0.022473918 0.30800003 -2.9651153e+38
-0.097819217 0.022473918 0.30800003 -2.8720168e+38
-0.097320549 0.022473918 0.30800003 -2.8586724e+38
-0.096323207 0.022473918 0.30800003 -2.6593922e+38
-0.095824532 0.022473918 0.30800003 -2.5398662e+38
-0.095635362 0.022546886 0.30900002 -2.5265218e+38
-0.09513507 0.022546886 0.30900002 -2.5132822e+38
-0.094134495 0.022546886 0.30900002 -2.500094e+38
-0.093634203 0.022546886 0.30900002 -2.500094e+38
-0.093133911 0.022546886 0.30900002 -2.4736135e+38
-0.092133336 0.022546886 0.30900002 -2.5004585e+38
-0.091633044 0.022546886 0.30900002 -2.5004585e+38
-0.091132753 0.022546886 0.30900002 -2.5137513e+38
-0.090925775 0.022619853 0.31 -2.5270957e+38
-0.090423867 0.022619853 0.31 -2.5671819e+38
-0.11676871 0.022972589 0.30800003 -3.2189196e+38
-0.11627004 0.022972589 0.30800003 -3.2055752e+38
-0.11577137 0.022972589 0.30800003 -3.1922308e+38
-0.11477403 0.022972589 0.30800003 -3.1920746e+38
-0.11427536 0.022972589 0.30800003 -3.1920746e+38
-0.11377668 0.022972589 0.30800003 -3.1787302e+38
-0.11327802 0.022972589 0.30800003 -3.1787302e+38
-0.11228067 0.022972589 0.30800003 -3.1786787e+38
-0.11178201 0.022972589 0.30800003 -3.1519374e+38
-0.11128333 0.022972589 0.30800003 -3.138593e+38
-0.11028599 0.022972589 0.30800003 -3.1519374e+38
-0.10978732 0.022972589 0.30800003 -3.1519374e+38
-0.10928865 0.022972589 0.30800003 -3.1519374e+38
-0.10878998 0.022972589 0.30800003 -3.1519374e+38
-0.10779264 0.022972589 0.30800003 -3.1652818e+38
-0.10729397 0.022972589 0.30800003 -3.1919706e+38
-0.1067953 0.022972589 0.30800003 -3.1652818e+38
-0.10545444 0.022898002 0.30700001 -3.2052635e+38
-0.10495739 0.022898002 0.30700001 -3.2052635e+38
-0.10446034 0.022898002 0.30700001 -3.2185028e+38
-0.10346624 0.022898002 0.30700001 -3.2185024e+38
-0.10296919 0.022898002 0.30700001 -3.2185024e+38
-0.10247214 0.022898002 0.30700001 -3.2450354e+38
-0.10197508 0.022898002 0.30700001 -3.2050022e+38
-0.10098098 0.022898002 0.30700001 -3.1783134e+38
-0.10048393 0.022898002 0.30700001 -3.1384368e+38
-0.099986881 0.022898002 0.30700001 -3.0583703e+38
-0.098495722 0.022898002 0.30700001 -2.8719657e+38
-0.098317891 0.022972589 0.30800003 -2.8319325e+38
-0.097819217 0.022972589 0.30800003 -2.6859249e+38
-0.097320549 0.022972589 0.30800003 -2.6725805e+38
-0.096323207 0.022972589 0.30800003 -2.5530544e+38
-0.095824532 0.022972589 0.30800003 -2.4867492e+38
-0.095325865 0.022972589 0.30800003 -2.4867492e+38
-0.094328523 0.022972589 0.30800003 -2.500094e+38
-0.093829855 0.022972589 0.30800003 -2.500198e+38
-0.093331181 0.022972589 0.30800003 -2.500198e+38
-0.092832513 0.022972589 0.30800003 -2.4869579e+38
-0.091835171 0.022972589 0.30800003 -2.5004585e+38
-0.091633044 0.023047175 0.30900002 -2.5271473e+38
-0.091132753 0.023047175 0.30900002 -2.5404402e+38
-0.090632468 0.023047175 0.30900002 -2.5938178e+38
-0.11688664 0.023395052 0.30700001 -3.3127479e+38
-0.11638959 0.023395052 0.30700001 -3.299299e+38
-0.11589253 0.023395052 0.30700001 -3.2459214e+38
-0.11539548 0.023395052 0.30700001 -3.2458167e+38
-0.11440138 0.023395052 0.30700001 -3.2189196e+38
-0.11390433 0.023395052 0.30700001 -3.2189196e+38
-0.11340728 0.023395052 0.30700001 -3.1922308e+38
-0.11241317 0.023395052 0.30700001 -3.1654905e+38
-0.11191612 0.023395052 0.30700001 -3.1921793e+38
-0.11141907 0.023395052 0.30700001 -3.1920746e+38
-0.11092202 0.023395052 0.30700001 -3.205419e+38
-0.10992792 0.023395052 0.30700001 -3.1920746e+38
-0.10943086 0.023395052 0.30700001 -3.1920231e+38
-0.10893381 0.023395052 0.30700001 -3.1920231e+38
-0.10793971 0.023395052 0.30700001 -3.1920231e+38
-0.10744265 0.023395052 0.30700001 -3.2053675e+38
-0.1069456 0.023395052 0.30700001 -3.2187119e+38
-0.10644855 0.023395052 0.30700001 -3.2187119e+38
-0.10545444 0.023395052 0.30700001 -3.2187119e+38
-0.10495739 0.023395052 0.30700001 -3.2187119e+38
-0.10446034 0.023395052 0.30700001 -3.218659e+38
-0.10346624 0.023395052 0.30700001 -3.1918136e+38
-0.10296919 0.023395052 0.30700001 -3.1918136e+38
-0.10213836 0.023318848 0.30600002 -3.1651252e+38
-0.10114749 0.023318848 0.30600002 -3.0717143e+38
-0.10065205 0.023318848 0.30600002 -3.0583699e+38
-0.09899278 0.023395052 0.30700001 -2.8054002e+38
-0.098495722 0.023395052 0.30700001 -2.6725293e+38
-0.097998671 0.023395052 0.30700001 -2.6591849e+38
-0.097501621 0.023395052 0.30700001 -2.5530544e+38
-0.096507519 0.023395052 0.30700001 -2.4734048e+38
-0.096010469 0.023395052 0.30700001 -2.4734048e+38
-0.095513418 0.023395052 0.30700001 -2.4601648e+38
-0.09501636 0.023395052 0.30700001 -2.4735092e+38
-0.094328523 0.02347126 0.30800003 -2.500198e+38
-0.093829855 0.02347126 0.30800003 -2.4736135e+38
-0.093331181 0.02347126 0.30800003 -2.4736135e+38
-0.092832513 0.02347126 0.30800003 -2.4869579e+38
-0.091835171 0.02347126 0.30800003 -2.5271473e+38
-0.091336496 0.02347126 0.30800003 -2.5538361e+38
-0.090837829 0.02347126 0.30800003 -2.6071622e+38
-0.11650591 0.023814281 0.30600002 -3.3398012e+38
-0.11601047 0.023814281 0.30600002 -3.3530413e+38
-0.11551504 0.023814281 0.30600002 -3.2996637e+38
-0.11452417 0.023814281 0.30600002 -3.2462331e+38
-0.11402874 0.023814281 0.30600002 -3.2459729e+38
-0.11353331 0.023814281 0.30600002 -3.2326285e+38
-0.11303788 0.023814281 0.30600002 -3.2591611e+38
-0.11204701 0.023814281 0.30600002 -3.2323161e+38
-0.11155158 0.023814281 0.30600002 -3.2456606e+38
-0.11105615 0.023814281 0.30600002 -3.2589528e+38
-0.11006528 0.023814281 0.30600002 -3.2189196e+38
-0.10956985 0.023814281 0.30600002 -3.2189196e+38
-0.10907441 0.023814281 0.30600002 -3.2187119e+38
-0.10857898 0.023814281 0.30600002 -3.2320563e+38
-0.10758812 0.023814281 0.30600002 -3.2320563e+38
-0.10709269 0.023814281 0.30600002 -3.2454007e+38
-0.10659725 0.023814281 0.30600002 -3.2720895e+38
-0.10644855 0.023892105 0.30700001 -3.2720895e+38
-0.10545444 0.023892105 0.30700001 -3.2187119e+38
-0.10461552 0.023814281 0.30600002 -3.2187119e+38
-0.10412008 0.023814281 0.30600002 -3.165281e+38
-0.10312922 0.023814281 0.30600002 -3.0718705e+38
-0.10263378 0.023814281 0.30600002 -3.0451817e+38
-0.10213836 0.023814281 0.30600002 -3.0318377e+38
-0.10114749 0.023814281 0.30600002 -2.8986545e+38
-0.10065205 0.023814281 0.30600002 -2.8853101e+38
-0.10015662 0.023814281 0.30600002 -2.8056089e+38
-0.099661186 0.023814281 0.30600002 -2.7522313e+38
-0.098670326 0.023814281 0.30600002 -2.6591853e+38
-0.098174892 0.023814281 0.30600002 -2.566295e+38
-0.097679459 0.023814281 0.30600002 -2.566295e+38
-0.096688591 0.023814281 0.30600002 -2.4999374e+38
-0.096193165 0.023814281 0.30600002 -2.4601648e+38
-0.095697731 0.023814281 0.30600002 -2.4601648e+38
-0.095513418 0.023892105 0.30700001 -2.4469247e+38
-0.09501636 0.023892105 0.30700001 -2.4469247e+38
-0.094022259 0.023892105 0.30700001 -2.4736135e+38
-0.093525209 0.023892105 0.30700001 -2.4869579e+38
-0.093028158 0.023892105 0.30700001 -2.4869579e+38
-0.092034057 0.023892105 0.30700001 -2.5803687e+38
-0.091536999 0.023892105 0.30700001 -2.6072137e+38
-0.11551504 0.024805145 0.30600002 -3.2333061e+38
-0.11414991 0.024724083 0.30500001 -3.1932729e+38
-0.11365609 0.024724083 0.30500001 -3.1663239e+38
-0.11316228 0.024724083 0.30500001 -3.1663239e+38
-0.11217465 0.024724083 0.30500001 -3.1929084e+38
-0.11168084 0.024724083 0.30500001 -3.1928044e+38
-0.11118703 0.024724083 0.30500001 -3.1928044e+38
-0.1101994 0.024724083 0.30500001 -3.2059922e+38
-0.10970558 0.024724083 0.30500001 -3.2057835e+38
-0.10921177 0.024724083 0.30500001 -3.1657503e+38
-0.10871796 0.024724083 0.30500001 -3.13901e+38
-0.10773033 0.024724083 0.30500001 -3.1390104e+38
-0.10723652 0.024724083 0.30500001 -3.0856327e+38
-0.10709269 0.024805145 0.30600002 -3.0455995e+38
-0.10659725 0.024805145 0.30600002 -2.9922219e+38
-0.10560638 0.024805145 0.30600002 -2.9254999e+38
-0.10511095 0.024805145 0.30600002 -2.8854667e+38
-0.10461552 0.024805145 0.30600002 -2.8854667e+38
-0.10328601 0.024724083 0.30500001 -2.805556e+38
-0.1027922 0.024724083 0.30500001 -2.7390946e+38
-0.10229838 0.024724083 0.30500001 -2.7257502e+38
-0.10180457 0.024724083 0.30500001 -2.6459971e+38
-0.10081694 0.024724083 0.30500001 -2.5530548e+38
-0.10065205 0.024805145 0.30600002 -2.5397104e+38
-0.10015662 0.024805145 0.30600002 -2.4998863e+38
-0.098841682 0.024724083 0.30500001 -2.4733537e+38
-0.098347872 0.024724083 0.30500001 -2.4600092e+38
-0.097854055 0.024724083 0.30500001 -2.4601648e+38
-0.097360246 0.024724083 0.30500001 -2.4601648e+38
-0.096372619 0.024724083 0.30500001 -2.4735092e+38
-0.095878802 0.024724083 0.30500001 -2.4468731e+38
-0.095384993 0.024724083 0.30500001 -2.473562e+38
-0.095202297 0.024805145 0.30600002 -2.4869068e+38
-0.094211429 0.024805145 0.30600002 -2.5269396e+38
-0.093715996 0.024805145 0.30600002 -2.5803172e+38
-0.11464372 0.025217896 0.30500001 -3.1401555e+38
-0.11414991 0.025217896 0.30500001 -3.0734335e+38
-0.11365609 0.025217896 0.30500001 -3.0332451e+38
-0.11229906 0.025135215 0.30400002 -3.0062965e+38
-0.11180687 0.025135215 0.30400002 -2.9529189e+38
-0.10983809 0.025135215 0.30400002 -2.9127802e+38
-0.1093459 0.025135215 0.30400002 -2.8993826e+38
-0.10921177 0.025217896 0.30500001 -2.8993826e+38
-0.10871796 0.025217896 0.30500001 -2.9258112e+38
-0.10773033 0.025217896 0.30500001 -2.8856754e+38
-0.10723652 0.025217896 0.30500001 -2.8456421e+38
-0.1067427 0.025217896 0.30500001 -2.8058692e+38
-0.10624889 0.025217896 0.30500001 -2.7925247e+38
-0.10526126 0.025217896 0.30500001 -2.7524915e+38
-0.10476745 0.025217896 0.30500001 -2.6992182e+38
-0.10427363 0.025217896 0.30500001 -2.6992182e+38
-0.10328601 0.025217896 0.30500001 -2.6326523e+38
-0.1027922 0.025217896 0.30500001 -2.5928793e+38
-0.10229838 0.025217896 0.30500001 -2.5795349e+38
-0.10180457 0.025217896 0.30500001 -2.566295e+38
-0.10081694 0.025217896 0.30500001 -2.4865934e+38
-0.10032313 0.025217896 0.30500001 -2.4999378e+38
-0.099829316 0.025217896 0.30500001 -2.4601133e+38
-0.098841682 0.025217896 0.30500001 -2.4335287e+38
-0.098347872 0.025217896 0.30500001 -2.4335287e+38
-0.097854055 0.025217896 0.30500001 -2.4335803e+38
-0.097360246 0.025217896 0.30500001 -2.4469247e+38
-0.096372619 0.025217896 0.30500001 -2.473562e+38
-0.095878802 0.025217896 0.30500001 -2.4869064e+38
-0.095384993 0.025217896 0.30500001 -2.540284e+38
-0.094397366 0.025217896 0.30500001 -2.6203508e+38
-0.11131468 0.02562741 0.30400002 -2.8462677e+38
-0.11082248 0.02562741 0.30400002 -2.8062344e+38
-0.10983809 0.02562741 0.30400002 -2.7661479e+38
-0.1093459 0.02562741 0.30400002 -2.7528031e+38
-0.10885371 0.02562741 0.30400002 -2.7261143e+38
-0.10786931 0.02562741 0.30400002 -2.7127699e+38
-0.10737712 0.02562741 0.30400002 -2.7127187e+38
-0.10688493 0.02562741 0.30400002 -2.6726855e+38
-0.10639273 0.02562741 0.30400002 -2.6594452e+38
-0.10540833 0.02562741 0.30400002 -2.6329129e+38
-0.10491614 0.02562741 0.30400002 -2.6062241e+38
-0.10442395 0.02562741 0.30400002 -2.6062245e+38
-0.10343956 0.02562741 0.30400002 -2.5796398e+38
-0.10294736 0.02562741 0.30400002 -2.5662954e+38
-0.10245517 0.02562741 0.30400002 -2.5397108e+38
-0.10196298 0.02562741 0.30400002 -2.5397108e+38
-0.10097858 0.02562741 0.30400002 -2.4998338e+38
-0.10048639 0.02562741 0.30400002 -2.4999378e+38
-0.099994197 0.02562741 0.30400002 -2.4999378e+38
-0.099502005 0.02562741 0.30400002 -2.4735092e+38
-0.098841682 0.02571171 0.30500001 -2.4335287e+38
-0.098347872 0.02571171 0.30500001 -2.4468731e+38
-0.097854055 0.02571171 0.30500001 -2.4602691e+38
-0.097360246 0.02571171 0.30500001 -2.4869579e+38
-0.09605664 0.02562741 0.30400002 -2.540284e+38
-0.095564447 0.02562741 0.30400002 -2.5270957e+38
-0.1109485 0.026033685 0.303 -2.8065989e+38
-0.10996735 0.026033685 0.303 -2.7397718e+38
-0.10947677 0.026033685 0.303 -2.6863942e+38
-0.1089862 0.026033685 0.303 -2.6863413e+38
-0.10849562 0.026033685 0.303 -2.6596525e+38
-0.10751448 0.026033685 0.303 -2.6329636e+38
-0.10309929 0.026033685 0.303 -2.5530552e+38
-0.10260872 0.026033685 0.303 -2.5397108e+38
-0.10211815 0.026033685 0.303 -2.5530552e+38
-0.101137 0.026033685 0.303 -2.5265226e+38
-0.10737712 0.026611799 0.30400002 -2.619673e+38
-0.10688493 0.026611799 0.30400002 -2.619673e+38
-0.10639273 0.026611799 0.30400002 -2.5532114e+38
-0.10540833 0.026611799 0.30400002 -2.5532114e+38
-0.10491614 0.026611799 0.30400002 -2.539867e+38
-0.10442395 0.026611799 0.30400002 -2.539867e+38
-0.10097858 0.026611799 0.30400002 -2.5932446e+38
-0.10048639 0.026611799 0.30400002 -2.566816e+38
-0.099994197 0.026611799 0.30400002 -2.5935048e+38
-0.099502005 0.026611799 0.30400002 -2.5668685e+38
-0.098517612 0.026611799 0.30400002 -2.5802129e+38
-0.098025419 0.026611799 0.30400002 -2.7536902e+38
-0.10849562 0.027014835 0.303 -2.7400322e+38
-0.10751448 0.027014835 0.303 -2.6864993e+38
