# .PCD v0.7 - Point Cloud Data file format
VERSION 0.7
FIELDS x y z
SIZE 4 4 4
TYPE F F F
COUNT 1 1 1
WIDTH 924
HEIGHT 1
VIEWPOINT 0 0 0 1 0 0 0
POINTS 924
DATA ascii
-1.2865415 1.4901161e-08 0.38234633
-1.2007346 4.4703484e-08 0.30896735
-1.2034638 0.048138559 0.40678978
-1.1200554 -2.9802322e-08 0.23997329
-1.2164177 -0.048656657 0.4326975
-1.1193882 0.046641141 0.33192089
-1.0440577 -6.7055225e-08 0.17498252
-1.1310668 -0.047127694 0.35625148
-1.1308178 0.098332047 0.45816168
-1.0403852 0.045234181 0.26156926
-0.97234535 -1.1175871e-08 0.11365646
-1.0509089 -0.045691676 0.28444684
-1.1432568 -0.099413693 0.48520306
-1.047315 0.095210463 0.38012356
-0.9660092 0.04390958 0.19533786
-0.90456879 4.0978193e-08 0.055700459
-0.97549164 -0.044340491 0.21688873
-1.0584861 -0.096226007 0.40551251
-1.0550072 0.15071534 0.51178432
-0.96894717 0.092280596 0.30687916
-0.89586842 0.042660397 0.13288239
-0.84040695 6.5221684e-08 0.00083127792
-0.90440977 -0.043067116 0.1532189
-0.97896105 -0.093234316 0.3307218
-1.0668727 -0.15241039 0.54003531
-1.0636048 0.21272112 0.65887433
-0.97219574 0.14582931 0.43035159
-0.89525831 0.089525789 0.23800807
-0.8296051 0.041480254 0.073875166
-0.77958107 -2.7939677e-08 -0.051185127
-0.83729386 -0.04186466 0.093096972
-0.90423167 -0.090423211 0.26044148
-0.98279828 -0.14741978 0.45685804
-0.97581571 0.20543501 0.5677985
-0.89458489 0.14125028 0.35403305
-0.82584161 0.086930677 0.17312956
-0.7669093 0.04036361 0.018044814
-0.7218374 1.0058284e-07 -0.1005657
-0.77382398 -0.040727571 0.036241077
-0.83387977 -0.087776832 0.19428268
-0.90403831 -0.14274287 0.37891045
-0.98704219 -0.20779841 0.59734166
-0.97986549 0.27218497 0.7217108
-0.89384139 0.19863155 0.48275504
-0.82170266 0.13695037 0.28236961
-0.76033592 0.084481731 0.11190656
-0.70750046 0.03930562 -0.034858618
-0.66694754 -5.2154064e-08 -0.14750573
-0.71371078 -0.039650638 -0.017607909
-0.76752609 -0.085280776 0.13187918
-0.83011883 -0.13835308 0.30574799
-0.90380555 -0.20084557 0.51043332
-0.99180073 -0.27550024 0.75486422
-0.89300811 0.26264948 0.62635684
-0.81712252 0.19226408 0.40316376
-0.75312394 0.1329042 0.21493268
-0.69841987 0.082167022 0.054038398
-0.65112668 0.038301669 -0.085059293
-0.61470675 5.9604645e-08 -0.19217665
-0.65669489 -0.038629096 -0.068682224
-0.70484191 -0.082922556 0.0729267
-0.76060754 -0.13422483 0.23694329
-0.82595223 -0.1943416 0.42913356
-0.90352654 -0.26574302 0.6572932
-0.89207649 0.33452863 0.78760123
-0.81203055 0.25375947 0.53745753
-0.74516946 0.18629238 0.32851672
-0.68848127 0.12909028 0.15136604
-0.6398083 0.079976007 -0.00073695183
-0.59756112 0.037347522 -0.13275918
-0.56492436 -1.4901161e-08 -0.23474908
-0.60254294 -0.037658945 -0.11719112
-0.645531 -0.08069136 0.017146697
-0.69512427 -0.13033575 0.17212564
-0.75296897 -0.18824226 0.35289019
-0.82129109 -0.25665343 0.56639683
-0.90320873 -0.33870342 0.82238948
-0.80633914 0.3225356 0.68765944
-0.73635799 0.2454527 0.45438886
-0.67755151 0.18068036 0.25836721
-0.62744516 0.12548912 0.091346145
-0.58423948 0.077898607 -0.05267296
-0.5466007 0.036440089 -0.17813557
-0.51743245 2.9802322e-08 -0.27536264
-0.55104595 -0.036736425 -0.1633178
-0.58932823 -0.078577027 -0.035710186
-0.63332886 -0.1266657 0.11095835
-0.68442994 -0.18251461 0.28129539
-0.74449527 -0.24816512 0.48151302
-0.81606108 -0.32642445 0.72006583
-0.79992807 0.399964 0.85674828
-0.72653651 0.31137276 0.59463543
-0.66548026 0.23767152 0.37657738
-0.61389047 0.17539722 0.19232821
-0.56972212 0.12208335 0.034584071
-0.53148443 0.075926423 -0.10197901
-0.49805668 0.035575472 -0.22136384
-0.47207662 2.9802322e-08 -0.31414956
-0.50201035 -0.035857886 -0.20724364
-0.53599548 -0.076570764 -0.085868038
-0.57491815 -0.12319671 0.053141408
-0.61993641 -0.17712463 0.21392076
-0.67260373 -0.24021561 0.40201855
-0.73501098 -0.31500483 0.62490159
-0.81016862 -0.40508443 0.89332151
-0.71552467 0.38528252 0.75188041
-0.65207297 0.30095682 0.50783527
-0.59895819 0.23036858 0.30354786
-0.55384469 0.17041373 0.13003413
-0.51504946 0.11885749 -0.019178413
-0.48133475 0.074051492 -0.1488501
-0.45176283 0.034750946 -0.26258832
-0.42871588 1.4901161e-08 -0.3512305
-0.45526522 -0.035020389 -0.24911761
-0.48531991 -0.074664563 -0.13352254
-0.51962161 -0.11991262 -0.0015929528
-0.55914283 -0.17204396 0.15041153
-0.60517067 -0.23275797 0.32744157
-0.65944016 -0.30435696 0.5361706
-0.72436672 -0.39004368 0.7858882
-0.70309538 0.46873033 0.92942637
-0.63710099 0.37164226 0.6544497
-0.58243012 0.29121512 0.42665428
-0.53640246 0.22350106 0.23487225
-0.49711677 0.16570552 0.071182296
-0.46319297 0.11579835 -0.070167042
-0.43360209 0.07226707 -0.19346225
-0.40756613 0.033963859 -0.30194554
-0.38722137 -5.9604645e-08 -0.38671535
-0.41065377 -0.034221113 -0.28908038
-0.43710485 -0.072850853 -0.17886744
-0.46719807 -0.11679947 -0.053479083
-0.50173962 -0.16724649 0.090444118
-0.54179847 -0.22574939 0.25735581
-0.58880889 -0.29440436 0.45323253
-0.64470834 -0.3760798 0.68614709
-0.71233159 -0.47488764 0.96791065
-0.62026697 0.45110327 0.81925768
-0.56403804 0.35893339 0.56367159
-0.5171563 0.28208533 0.35057297
-0.47746837 0.21703112 0.17017293
-0.44343916 0.16125056 0.015494741
-0.41393778 0.11289214 -0.11860234
-0.38811693 0.070566714 -0.2359699
-0.3653273 0.033211589 -0.33955908
-0.34747604 -2.9802322e-08 -0.42070121
-0.36803317 -0.033457488 -0.32725951
-0.39117679 -0.071122997 -0.2220615
-0.41742641 -0.11384354 -0.10274486
-0.44745097 -0.1627094 0.033730235
-0.48213112 -0.21915054 0.19136745
-0.52263886 -0.28507566 0.37549326
-0.57055646 -0.36308137 0.5933007
-0.62812477 -0.45681798 0.85497493
-0.60120726 0.54108667 1.0058987
-0.54344249 0.43475401 0.71707481
-0.49580684 0.34706482 0.47889656
-0.45584926 0.27350959 0.27910864
-0.42185175 0.21092583 0.10912106
-0.39257219 0.15702893 -0.037276771
-0.36709434 0.11012834 -0.16466601
-0.34472194 0.068944417 -0.27652794
-0.32491902 0.032491952 -0.37554252
-0.30936986 2.9802322e-08 -0.45328847
-0.32727307 -0.032727256 -0.36377221
-0.34737673 -0.06947533 -0.26325417
-0.37011182 -0.11103354 -0.14957871
-0.39603001 -0.15841195 -0.019987673
-0.42585301 -0.21292651 0.12912714
-0.46053341 -0.27632004 0.30252922
-0.50135916 -0.35095155 0.50665808
-0.55009127 -0.44007301 0.75031877
-0.60931695 -0.54838514 1.046447
-0.5794422 0.64382476 1.2189858
-0.52022785 0.52022791 0.89001721
-0.4719919 0.4195483 0.62203968
-0.43194354 0.3359561 0.39954853
-0.39815983 0.2654399 0.21186124
-0.36927739 0.20515409 0.051403366
-0.34430078 0.15302256 -0.087355539
-0.32248971 0.10749654 -0.20852813
-0.3032774 0.067394942 -0.31526309
-0.28622556 0.031802788 -0.40999573
-0.27280429 -1.4901161e-08 -0.4845584
-0.28825504 -0.032028317 -0.39872101
-0.30556014 -0.06790223 -0.3025814
-0.3250767 -0.10835887 -0.19415605
-0.34725645 -0.15433624 -0.07093522
-0.37268323 -0.20704623 0.070324741
-0.40212923 -0.26808614 0.2339136
-0.43662751 -0.33959913 0.42557067
-0.47757626 -0.42451245 0.65306383
-0.52698833 -0.52698851 0.92757523
-0.49385488 0.61731863 1.0864553
-0.4452602 0.50091779 0.78273851
-0.40537205 0.40537205 0.53343773
-0.37204164 0.32553643 0.32512268
-0.34377697 0.25783271 0.14846832
-0.31950369 0.19968978 -0.0032396093
-0.29843211 0.14921613 -0.13493709
-0.27996719 0.10498769 -0.25034291
-0.26365474 0.065913662 -0.35229564
-0.24913856 0.031142339 -0.44302168
-0.23768778 -0 -0.51458895
-0.25086811 -0.031358391 -0.432212
-0.26559529 -0.066398859 -0.34016722
-0.28216019 -0.10581012 -0.23663647
-0.30092886 -0.1504644 -0.11933237
-0.32237229 -0.20148265 0.014689207
-0.34710506 -0.2603288 0.16926882
-0.37594959 -0.32895592 0.34954736
-0.4100143 -0.41001424 0.56245154
-0.45084307 -0.50719851 0.81763148
-0.50070244 -0.62587816 1.1292526
-0.46363786 0.72857374 1.3115612
-0.41503611 0.59290874 0.96440578
-0.37565872 0.48298976 0.68313861
-0.34310582 0.39212096 0.45061824
-0.31574368 0.31574368 0.25517434
-0.29242435 0.25064951 0.088607676
-0.27231267 0.194509 -0.055047378
-0.25478932 0.14559397 -0.18021403
-0.23938425 0.1025933 -0.29025036
-0.22573636 0.06449613 -0.38773516
-0.21356075 0.030508608 -0.47470373
-0.20393592 -0 -0.54345262
-0.21501295 -0.030716121 -0.46433109
-0.22736242 -0.064960688 -0.37612039
-0.24121627 -0.10337836 -0.27716419
-0.25686875 -0.14678212 -0.1653609
-0.27469358 -0.19620962 -0.038040727
-0.2951757 -0.25300783 0.10826005
-0.3189595 -0.31895953 0.27814436
-0.34691194 -0.39647076 0.47780478
-0.38020971 -0.48884106 0.71564609
-0.42057425 -0.60082024 1.0039639
-0.47052467 -0.7393961 1.3607528
-0.38059226 0.69775248 1.1714643
-0.34221348 0.57035583 0.8516413
-0.31086719 0.46630085 0.59042209
-0.28478155 0.37970886 0.37304193
-0.26273483 0.30652389 0.18931919
-0.24385558 0.24385554 0.0319921
-0.22750835 0.18959026 -0.10423485
-0.21321513 0.14214343 -0.223345
-0.2006117 0.10030586 -0.32837361
-0.18941465 0.063138247 -0.42168239
-0.17940186 0.029900312 -0.5051223
-0.1714706 -0 -0.57121605
-0.18059728 -0.030099526 -0.49516034
-0.19075014 -0.063583344 -0.4105534
-0.20211253 -0.10105626 -0.31586659
-0.21491371 -0.14327571 -0.20919016
-0.2294468 -0.19120565 -0.088081032
-0.24608798 -0.24608797 0.050595544
-0.26533091 -0.3095527 0.21095309
-0.28783959 -0.38378608 0.39852554
-0.31451076 -0.4717662 0.62078547
-0.34661511 -0.57769167 0.88832128
-0.38601679 -0.70769727 1.2166687
-0.34097379 0.8183372 1.4096006
-0.30428773 0.66943318 1.0427396
-0.27472907 0.54945821 0.74715292
-0.25040364 0.45072654 0.50389868
-0.23003636 0.36805812 0.30022591
-0.21273313 0.29782635 0.1271936
-0.19785087 0.23742114 -0.021629013
-0.18491417 0.18491413 -0.15099593
-0.17356589 0.13885272 -0.26447886
-0.16353038 0.098118231 -0.36483389
-0.15459158 0.061836585 -0.45422202
-0.14657967 0.029315889 -0.5343411
-0.1437203 2.9802322e-08 -0.56293482
-0.14753613 -0.029507205 -0.52477646
-0.15565814 -0.062263206 -0.44355628
-0.1647265 -0.0988359 -0.35287273
-0.17491634 -0.13993309 -0.25097442
-0.18645053 -0.18645054 -0.13563243
-0.19961327 -0.23953587 -0.0040050894
-0.21477567 -0.30068591 0.14761893
-0.23242998 -0.37188798 0.3241621
-0.25324655 -0.45584378 0.53232783
-0.27813897 -0.55627799 0.78125215
-0.30845687 -0.67860508 1.0844306
-0.34619462 -0.83086729 1.4618087
-0.26091275 0.78273833 1.2612717
-0.23393552 0.64332265 0.92405641
-0.2120142 0.53003544 0.65003973
-0.19384997 0.43616229 0.42298692
-0.17855193 0.35710379 0.23176125
-0.16549182 0.28961062 0.068509966
-0.1542125 0.23131871 -0.072481431
-0.14437218 0.18046524 -0.19548523
-0.13571273 0.13571265 -0.30372846
-0.12803297 0.096024737 -0.39972562
-0.12117582 0.060587958 -0.48543996
-0.11745115 0.029362768 -0.5319984
-0.11745169 5.9604645e-08 -0.53199142
-0.11745115 -0.029362813 -0.5319984
-0.12199367 -0.060996786 -0.4752169
-0.128948 -0.09671098 -0.38828778
-0.13674313 -0.13674313 -0.29084855
-0.14554094 -0.18192615 -0.18087602
-0.15554914 -0.23332369 -0.055773571
-0.16703542 -0.29231206 0.087804936
-0.18035267 -0.36070538 0.25427073
-0.19597816 -0.44095078 0.44958916
-0.21455796 -0.53639489 0.68183672
-0.23702186 -0.65181005 0.96263552
-0.26474112 -0.79422337 1.3091265
-0.21082906 0.91359258 1.51368
-0.18753059 0.75012225 1.1253721
-0.1688683 0.61918384 0.81433398
-0.15358423 0.51194745 0.5595994
-0.14083773 0.4225131 0.34715784
-0.13004442 0.34678504 0.16726907
-0.12078805 0.28183872 0.01299639
-0.11276149 0.22552301 -0.12077965
-0.10573521 0.17622527 -0.23788421
-0.099533468 0.13271129 -0.34124658
-0.09401869 0.094018593 -0.43315947
-0.090026222 0.060017422 -0.49970073
-0.090026654 0.030008912 -0.49969345
-0.090027079 -8.9406967e-08 -0.49968642
-0.090026654 -0.030008882 -0.49969357
-0.090026222 -0.060017526 -0.4997007
-0.094675548 -0.094675571 -0.42221192
-0.10027127 -0.13369495 -0.32894999
-0.10657 -0.17761669 -0.22397092
-0.11371277 -0.22742552 -0.10492479
-0.12188219 -0.28439179 0.03123232
-0.1313163 -0.35017681 0.1884675
-0.14233288 -0.42699862 0.37207684
-0.15536524 -0.51788414 0.58928293
-0.17101386 -0.62705088 0.85009336
-0.19016883 -0.76067525 1.1693425
-0.21415606 -0.92800975 1.5691298
-0.13426304 0.87270975 1.3564383
-0.12001931 0.72011596 1.0003451
-0.10850743 0.59679091 0.71254808
-0.099011019 0.49505517 0.47513777
-0.091042742 0.40969235 0.27593094
-0.084261484 0.33704603 0.10639936
-0.078420639 0.27447224 -0.0396218
-0.07333684 0.22001053 -0.16671678
-0.068872236 0.17218059 -0.27833179
-0.064919867 0.12983979 -0.37714103
-0.061396509 0.092094749 -0.46522507
-0.061367806 0.06136781 -0.46594259
-0.061368108 0.030683979 -0.46593505
-0.06136841 7.4505806e-08 -0.4659276
-0.061368108 -0.030684039 -0.46593511
-0.061367806 -0.061367735 -0.4659425
-0.061815999 -0.092723921 -0.45473772
-0.065389924 -0.13077977 -0.36538967
-0.069402456 -0.17350623 -0.26507619
-0.07393942 -0.22181816 -0.15165229
-0.079111286 -0.27688938 -0.022355571
-0.085061088 -0.34024429 0.12638947
-0.091978282 -0.41390225 0.29931933
-0.10012048 -0.50060236 0.50287414
-0.10983704 -0.60410374 0.74578822
-0.12164108 -0.72984648 1.0408894
-0.13628776 -0.88587046 1.4070562
-0.064256422 0.83533341 1.2126831
-0.057701472 0.69241768 0.88493592
-0.052360099 0.57596093 0.61786699
-0.047924012 0.47924018 0.39606282
-0.044180736 0.39762667 0.20889911
-0.040979989 0.32783997 0.048861772
-0.038211569 0.26748091 -0.089559391
-0.035793521 0.21476111 -0.21046181
-0.033663377 0.16831692 -0.31696883
-0.031772453 0.12708972 -0.41151506
-0.031389989 0.094169959 -0.43063813
-0.031390145 0.06278035 -0.43063036
-0.03139038 0.031390354 -0.43061876
-0.052929647 5.9604645e-08 0.64634454
-0.031390302 -0.031390309 -0.43062258
-0.031390145 -0.062780336 -0.43063048
-0.031389989 -0.094169945 -0.43063831
-0.031997271 -0.12798908 -0.40027419
-0.033916317 -0.16958165 -0.30432191
-0.036080133 -0.21648087 -0.19613113
-0.038538981 -0.26977289 -0.073188752
-0.041357476 -0.33085975 0.067736067
-0.044620752 -0.40158686 0.23089996
-0.048442934 -0.4844293 0.42200887
-0.052979708 -0.58277684 0.64884764
-0.058451608 -0.70141917 0.92244238
-0.065183997 -0.8473919 1.2590621
0 0.8010233 1.0807208
0 0.66677123 0.77807593
0 0.55653864 0.52958292
0 0.46440423 0.32188374
0 0.3862513 0.14570263
0 0.31912237 -0.0056225061
0 0.26083708 -0.13701612
0 0.20975696 -0.25216317
0 0.16462286 -0.35390991
0 0.12851778 -0.39366668
0 0.096388832 -0.39365849
0 0.064259604 -0.39365035
0 0.05417648 0.70868802
0 1.1920929e-07 0.70868826
0 -0.054176539 0.70868802
0 -0.064259335 -0.39365441
0 -0.096388474 -0.39366254
0 -0.12851727 -0.39367086
0 -0.16583061 -0.34183156
0 -0.21139479 -0.2385148
0 -0.26301295 -0.12147441
0 -0.32197902 0.012231201
0 -0.38998172 0.16642699
0 -0.46927035 0.346214
0 -0.5629043 0.55851853
0 -0.67512345 0.81287658
0 -0.81211686 1.123389
0.066103011 0.92544222 1.3050127
0.059186179 0.76942027 0.959171
0.053579971 0.64295971 0.67886078
0.048943736 0.53838122 0.44704914
0.045045946 0.45045954 0.25215957
0.041723326 0.37550989 0.086028427
0.038857069 0.31085655 -0.057284288
0.036359303 0.25451517 -0.18217248
0.034163356 0.20498005 -0.29196995
0.032904439 0.16452223 -0.35491562
0.032904614 0.13161844 -0.3549071
0.032904785 0.098714396 -0.35489851
0.055483308 0.11096665 0.77402759
0.055483308 0.055483252 0.77402759
0.055483308 -0 0.77402771
0.055483308 -0.055483282 0.77402759
0.055483308 -0.11096659 0.77402747
0.032904699 -0.098714054 -0.35490283
0.032904528 -0.13161814 -0.35491136
0.032904357 -0.16452172 -0.35492
0.034423612 -0.20654158 -0.27895725
0.036654875 -0.25658411 -0.16739398
0.039195322 -0.31356257 -0.040371805
0.042114269 -0.37902835 0.10557573
0.045502961 -0.45502967 0.27501032
0.049484517 -0.54432964 0.47408807
0.054227334 -0.65072799 0.71122891
0.059973959 -0.77966142 0.99856019
0.12662637 0.88638461 1.1655214
0.11387944 0.74021631 0.84684825
0.10346458 0.6207875 0.58647686
0.094794728 0.52137113 0.36973059
0.08746583 0.43732923 0.18650796
0.081188582 0.36534864 0.029576853
0.075752012 0.30300802 -0.10633741
0.070998035 0.24849319 -0.22518669
0.067435548 0.20230669 -0.31424895
0.067435913 0.16858985 -0.31423986
0.067436278 0.13487259 -0.31423089
0.11370939 0.17056406 0.84259713
0.11370939 0.11370948 0.84259713
0.11370939 0.056854606 0.84259707
0.11370939 -0 0.84259701
0.11370939 -0.056854695 0.84259713
0.11370939 -0.11370939 0.84259725
0.11370939 -0.17056417 0.84259701
0.067436278 -0.13487256 -0.31423089
0.067435734 -0.16858929 -0.31424439
0.067435376 -0.20230612 -0.31425345
0.071560413 -0.25046146 -0.2111274
0.076393716 -0.30557483 -0.090294845
0.081927478 -0.36867362 0.048049271
0.088325553 -0.44162777 0.20800108
0.095807582 -0.5269416 0.3950519
0.10467236 -0.62803406 0.61667114
0.11533852 -0.74970049 0.88332528
0.12842511 -0.89897561 1.2104897
0.18224789 0.85049003 1.0373272
0.1645734 0.71315134 0.74275213
0.15002339 0.60009342 0.50025207
0.13783716 0.50540292 0.29714823
0.12748235 0.42494118 0.12456828
0.11857425 0.35572278 -0.023900017
0.11083012 0.29554704 -0.15296906
0.10403523 0.2427488 -0.26621723
0.10371758 0.20743507 -0.27151138
0.10371815 0.17286362 -0.27150178
0.17488679 0.23318234 0.91464216
0.17488679 0.17488682 0.91464221
0.17488679 0.1165913 0.91464227
0.17488679 0.058295727 0.91464233
0.17488679 -2.9802322e-08 0.91464233
0.17488679 -0.058295637 0.9146421
0.17488679 -0.11659116 0.9146421
0.17488679 -0.17488682 0.91464221
0.17488679 -0.23318246 0.91464239
0.10371815 -0.1728636 -0.27150181
0.1037173 -0.20743464 -0.27151603
0.10483892 -0.24462415 -0.25282234
0.11174434 -0.2979849 -0.13773206
0.11962321 -0.35886961 -0.0064176172
0.12869783 -0.42899272 0.14482608
0.13926229 -0.51062828 0.32090017
0.15171623 -0.60686499 0.52846628
0.16660541 -0.72195691 0.77661926
0.1847332 -0.86208814 1.0787488
0.23353997 0.81738979 0.91911173
0.21169013 0.68799299 0.64598894
0.19357827 0.58073491 0.41959074
0.17832203 0.49038547 0.22888742
0.16529429 0.41323578 0.066040903
0.1540405 0.34659117 -0.074631318
0.14422184 0.28844368 -0.19736458
0.14188617 0.24830079 -0.22656056
0.14188696 0.21283048 -0.22655052
0.23924688 0.29905865 0.99044836
0.23924688 0.23924676 0.99044806
0.23924688 0.17943513 0.99044812
0.23924688 0.11962354 0.99044824
0.23924688 0.05981192 0.99044824
0.23924688 -2.9802322e-08 0.9904483
0.23924688 -0.059811801 0.99044818
0.23924688 -0.11962333 0.99044818
0.23924688 -0.17943493 0.99044824
0.23924688 -0.23924685 0.99044824
0.23924688 -0.29905865 0.99044818
0.14188696 -0.21283044 -0.22655061
0.14188579 -0.24830005 -0.22656555
0.14538102 -0.29076204 -0.18287498
0.155366 -0.34957361 -0.058062717
0.16682427 -0.41706067 0.085165486
0.18010718 -0.49529475 0.25120193
0.19568831 -0.58706498 0.44596618
0.21421333 -0.69619334 0.6775288
0.23660247 -0.82810867 0.95739317
0.31198615 0.93595856 1.1197239
0.28099033 0.78677291 0.8097657
0.25559577 0.66454905 0.55582023
0.23441084 0.56258589 0.34397066
0.21646968 0.47623336 0.16455901
0.20107892 0.40215787 0.010651559
0.18773201 0.3379176 -0.12281767
0.18209282 0.29134846 -0.1792096
0.18209386 0.25493139 -0.17919903
0.30395895 0.36475074 1.0394518
0.30395895 0.30395892 1.0394518
0.30395895 0.24316719 1.0394517
0.30395895 0.18237528 1.0394518
0.30395895 0.12158361 1.0394517
0.30395895 0.060791969 1.0394518
0.30395895 -1.1920929e-07 1.0394517
0.30395895 -0.060791939 1.0394517
0.30395895 -0.12158367 1.0394521
0.30395895 -0.18237519 1.0394516
0.30395895 -0.2431671 1.0394518
0.30395895 -0.30395898 1.0394518
0.18209493 -0.21851385 -0.17918846
0.18209386 -0.25493145 -0.17919901
0.18209282 -0.29134858 -0.17920952
0.18930437 -0.3407478 -0.10709405
0.20288716 -0.40577427 0.028733835
0.21857053 -0.48085511 0.18556754
0.23688172 -0.56851614 0.36867934
0.25854048 -0.67220527 0.58526695
0.28453791 -0.79670608 0.84524143
0.35943323 0.89858299 0.99513918
0.32501298 0.75836372 0.70830393
0.29660779 0.64265037 0.47159395
0.27276957 0.5455392 0.2729423
0.25247723 0.46287495 0.10383919
0.23499505 0.39165846 -0.041845635
0.22450523 0.33675784 -0.12926088
0.22450656 0.29934207 -0.12924972
0.22450788 0.26192591 -0.12923868
0.3591072 0.35910717 0.99242234
0.3591072 0.29925594 0.99242228
0.3591072 0.23940477 0.99242246
0.3591072 0.1795536 0.99242234
0.3591072 0.11970234 0.99242234
0.3591072 0.05985108 0.99242228
0.3591072 5.9604645e-08 0.99242234
0.3591072 -0.059851229 0.99242234
0.3591072 -0.11970243 0.99242252
0.3591072 -0.1795536 0.99242234
0.3591072 -0.23940474 0.99242222
0.3591072 -0.29925609 0.99242222
0.3591072 -0.35910726 0.99242246
0.22450788 -0.26192594 -0.12923867
0.22450656 -0.29934204 -0.12924989
0.22450523 -0.33675784 -0.12926091
0.23705037 -0.3950839 -0.024717867
0.25485474 -0.46723366 0.12365162
0.27555174 -0.55110353 0.29612687
0.29990757 -0.64979959 0.49909189
0.32897067 -0.76759821 0.74128455
0.36425877 -0.91064703 1.0353521
0.4032383 0.8640821 0.88013595
0.36596724 0.73193449 0.61391395
0.33500311 0.62214863 0.39274156
0.30887103 0.52949303 0.20608369
0.28651986 0.45024553 0.046432778
0.26931003 0.38472864 -0.076494709
0.26931167 0.34625784 -0.076482981
0.26931331 0.30778664 -0.076471224
0.41257495 0.41257483 0.94682598
0.41257495 0.35363567 0.94682616
0.41257495 0.2946963 0.94682598
0.41257495 0.2357572 0.9468261
0.41257495 0.17681774 0.94682598
0.41257495 0.11787859 0.94682616
0.41257495 0.058939189 0.94682598
0.41257495 -1.1920929e-07 0.94682598
0.41257495 -0.058939159 0.9468261
0.41257495 -0.11787856 0.94682586
0.41257495 -0.17681774 0.94682616
0.41257495 -0.23575702 0.94682586
0.41257495 -0.29469642 0.94682592
0.41257495 -0.3536354 0.94682598
0.41257495 -0.4125748 0.94682598
0.26931331 -0.30778655 -0.076471195
0.26931167 -0.34625787 -0.076482952
0.26945892 -0.38494131 -0.075431243
0.28913987 -0.45436263 0.065147027
0.31192338 -0.53472584 0.22788662
0.33860466 -0.62883729 0.41846699
0.37027115 -0.74054223 0.64465618
0.40844518 -0.87523979 0.91732782
0.443802 0.8321287 0.7736246
0.40416309 0.7072854 0.52588153
0.3710258 0.60291696 0.31877351
0.34290943 0.51436418 0.14304608
0.31875417 0.43828702 -0.0079240799
0.31671754 0.39589694 -0.020653233
0.3167195 0.35630941 -0.020640761
0.46443775 0.46443778 0.90259838
0.46443775 0.40638298 0.90259826
0.46443775 0.34832835 0.90259832
0.46443775 0.29027364 0.90259838
0.46443775 0.23221895 0.9025985
0.46443775 0.17416418 0.90259838
0.46443775 0.11610934 0.90259814
0.46443775 0.058054715 0.9025982
0.46443775 -2.9802322e-08 0.90259838
0.46443775 -0.058054686 0.90259838
0.46443775 -0.11610931 0.90259838
0.46443775 -0.17416421 0.90259838
0.46443775 -0.2322188 0.90259826
0.46443775 -0.29027355 0.90259844
0.46443775 -0.34832814 0.90259826
0.46443775 -0.40638304 0.90259826
0.46443775 -0.46443784 0.90259832
0.3167195 -0.35630947 -0.020640776
0.31671754 -0.39589685 -0.020653307
0.32158774 -0.44218308 0.009785682
0.34619567 -0.51929343 0.16358514
0.37488303 -0.60918498 0.3428812
0.40875432 -0.71531999 0.55457652
0.4493241 -0.84248263 0.80813795
0.48147261 0.80245429 0.67471004
0.43987012 0.68424237 0.44358504
0.40488672 0.58483642 0.24923301
0.37505668 0.50007558 0.083510578
0.36695731 0.44850332 0.038513884
0.36695966 0.40773296 0.038527161
0.51476693 0.51476693 0.85967851
0.51476693 0.45757067 0.85967851
0.51476693 0.40037441 0.85967863
0.51476693 0.34317797 0.85967845
0.51476693 0.28598166 0.85967863
0.51476693 0.2287854 0.85967863
0.51476693 0.17158899 0.85967845
0.51476693 0.11439267 0.85967857
0.51476693 0.057196259 0.85967839
0.51476693 -5.9604645e-08 0.85967851
0.51476693 -0.0571962 0.85967845
0.51476693 -0.1143927 0.85967839
0.51476693 -0.17158893 0.85967839
0.51476693 -0.22878531 0.85967851
0.51476693 -0.28598168 0.85967851
0.51476693 -0.34317786 0.85967845
0.51476693 -0.40037417 0.85967863
0.51476693 -0.45757061 0.85967863
0.51476693 -0.51476681 0.85967845
0.36695966 -0.40773299 0.038527176
0.36695731 -0.44850338 0.038513973
0.37854648 -0.50472862 0.10289817
0.40896261 -0.59072387 0.27187675
0.44469538 -0.69174838 0.47039223
0.48725352 -0.81208915 0.70682621
0.56846231 0.90953964 0.84217393
0.51654905 0.77482343 0.58260727
0.47332573 0.66265595 0.36649084
0.43677592 0.56780863 0.1837419
0.42029297 0.50435162 0.10132727
0.42029577 0.46232533 0.10134125
0.56362945 0.56362933 0.81800938
0.56362945 0.50726658 0.8180095
0.56362945 0.45090353 0.8180095
0.56362945 0.39454061 0.81800944
0.56362945 0.33817768 0.81800938
0.56362945 0.28181478 0.81800956
0.56362945 0.22545174 0.81800932
0.56362945 0.16908884 0.81800956
0.56362945 0.11272573 0.81800932
0.56362945 0.056362867 0.8180095
0.56362945 2.9802322e-08 0.81800938
0.56362945 -0.056362897 0.81800932
0.56362945 -0.112726 0.81800938
0.56362945 -0.16908869 0.81800944
0.56362945 -0.22545189 0.8180095
0.56362945 -0.28181472 0.8180095
0.56362945 -0.33817774 0.81800938
0.56362945 -0.39454067 0.81800938
0.56362945 -0.45090351 0.81800944
0.56362945 -0.5072664 0.81800938
0.56362945 -0.56362939 0.81800932
0.42029577 -0.46232539 0.10134123
0.42029297 -0.50435162 0.10132727
0.44103739 -0.57334864 0.20504923
0.47834337 -0.66968066 0.39157915
0.52254158 -0.78381211 0.61256987
0.57569683 -0.92111486 0.87834626
0.60247862 0.8763324 0.73840141
0.54929024 0.74903214 0.49663603
0.50473309 0.64238745 0.29410356
0.47701985 0.56375062 0.16813423
0.47702309 0.52038884 0.16814907
0.61108845 0.61108845 0.77753717
0.61108845 0.55553496 0.77753717
0.61108845 0.4999814 0.77753723
0.61108845 0.44442797 0.77753717
0.61108845 0.38887441 0.77753711
0.61108845 0.33332089 0.77753717
0.61108845 0.27776742 0.77753711
0.61108845 0.22221386 0.77753717
0.61108845 0.16666055 0.77753729
0.61108845 0.11110711 0.77753723
0.61108845 0.055553615 0.77753723
0.61108845 5.9604645e-08 0.77753723
0.61108845 -0.055553406 0.77753723
0.61108845 -0.11110687 0.77753717
0.61108845 -0.16666046 0.77753723
0.61108845 -0.22221398 0.77753711
0.61108845 -0.27776748 0.77753723
0.61108845 -0.33332112 0.77753717
0.61108845 -0.38887444 0.77753711
0.61108845 -0.44442797 0.77753717
0.61108845 -0.49998152 0.77753723
0.61108845 -0.55553508 0.77753723
0.61108845 -0.61108851 0.77753711
0.47702309 -0.52038884 0.16814913
0.47701985 -0.56375074 0.16813426
0.50991088 -0.64897746 0.31763896
0.55544144 -0.75742018 0.52459621
0.60987067 -0.88708472 0.77200186
0.63409847 0.84546465 0.64193922
0.57992423 0.72490531 0.41621321
0.53747189 0.6270504 0.23932828
0.53747565 0.58226538 0.23934445
0.65720367 0.65720367 0.73821098
0.65720367 0.60243666 0.73821092
0.65720367 0.54766965 0.73821086
0.65720367 0.49290287 0.7382111
0.65720367 0.43813568 0.73821086
0.65720367 0.38336888 0.73821104
0.65720367 0.32860184 0.73821098
0.65720367 0.27383488 0.73821098
0.65720367 0.21906789 0.73821092
0.65720367 0.16430086 0.73821098
0.65720367 0.10953388 0.73821092
0.65720367 0.054766983 0.7382108
0.65720367 2.9802322e-08 0.73821104
0.65720367 -0.054766953 0.73821104
0.65720367 -0.10953394 0.73821098
0.65720367 -0.16430083 0.73821092
0.65720367 -0.21906778 0.73821092
0.65720367 -0.27383494 0.73821092
0.65720367 -0.32860178 0.73821092
0.65720367 -0.38336879 0.73821092
0.65720367 -0.43813583 0.7382111
0.65720367 -0.49290293 0.73821098
0.65720367 -0.54766983 0.73821104
0.65720367 -0.60243666 0.73821092
0.53747952 -0.5374794 0.23936023
0.53747565 -0.58226544 0.23934428
0.53958505 -0.62951601 0.24813341
0.58619571 -0.73274469 0.44234425
0.64160943 -0.85547924 0.67323488
0.66356933 0.81670052 0.55205178
0.60864401 0.70228148 0.34080094
0.60203511 0.64834547 0.31538194
0.60203958 0.60203946 0.31539887
0.70203131 0.64802891 0.69998276
0.70203131 0.59402651 0.69998276
0.70203131 0.5400241 0.69998276
0.70203131 0.48602167 0.6999827
0.70203131 0.43201929 0.6999827
0.70203131 0.37801689 0.6999827
0.70203131 0.32401454 0.69998294
0.70203131 0.27001205 0.6999827
0.70203131 0.21600966 0.6999827
0.70203131 0.16200721 0.69998264
0.70203131 0.1080049 0.69998288
0.70203131 0.054002315 0.6999827
0.70203131 -0 0.69998264
0.70203131 -0.054002345 0.69998288
0.70203131 -0.10800478 0.69998288
0.70203131 -0.1620073 0.69998264
0.70203131 -0.21600956 0.69998264
0.70203131 -0.2700119 0.69998276
0.70203131 -0.32401448 0.6999827
0.70203131 -0.37801677 0.69998276
0.70203131 -0.43201929 0.6999827
0.70203131 -0.48602164 0.69998276
0.70203131 -0.54002404 0.69998276
0.70203131 -0.59402645 0.69998276
0.70203131 -0.64802885 0.6999827
0.60203737 -0.60203737 0.31539053
0.60203296 -0.64834315 0.31537342
0.61500925 -0.7096262 0.36528257
0.67115611 -0.82603806 0.58123177
0.7571758 0.91942775 0.70406145
0.69109809 0.78982639 0.46806979
0.67112756 0.71906531 0.39674661
0.67113525 0.67113519 0.3967737
0.7456246 0.69236547 0.66280717
0.7456246 0.63910681 0.66280717
0.7456246 0.58584785 0.66280723
0.7456246 0.53258908 0.66280735
0.7456246 0.47933018 0.66280723
0.7456246 0.42607114 0.66280723
0.7456246 0.37281221 0.66280723
0.7456246 0.31955332 0.66280711
0.7456246 0.26629436 0.66280705
0.7456246 0.21303558 0.66280723
0.7456246 0.15977672 0.66280711
0.7456246 0.10651785 0.66280735
0.7456246 0.053258866 0.66280729
0.7456246 -0 0.66280717
0.7456246 -0.053258866 0.66280723
0.7456246 -0.10651782 0.66280723
0.7456246 -0.15977666 0.66280711
0.7456246 -0.21303558 0.66280729
0.7456246 -0.26629451 0.66280711
0.7456246 -0.31955343 0.66280711
0.7456246 -0.37281227 0.66280723
0.7456246 -0.42607117 0.66280723
0.7456246 -0.47933009 0.66280723
0.7456246 -0.53258884 0.66280705
0.7456246 -0.58584791 0.66280729
0.7456246 -0.63910663 0.66280711
0.7456246 -0.69236553 0.66280711
0.67113262 -0.67113262 0.39676458
0.67112756 -0.71906519 0.39674652
0.6987257 -0.79854357 0.4953112
0.76633799 -0.93055332 0.73678374
0.78303313 0.8874374 0.6099726
0.74525833 0.7949422 0.48405683
0.74526423 0.74526417 0.48407638
0.78803372 0.73549819 0.62664133
0.78803372 0.68296254 0.62664133
0.78803372 0.63042682 0.62664139
0.78803372 0.57789147 0.62664145
0.78803372 0.52535594 0.62664145
0.78803372 0.47282028 0.62664139
0.78803372 0.42028466 0.62664139
0.78803372 0.36774904 0.62664133
0.78803372 0.31521341 0.62664133
0.78803372 0.26267791 0.62664127
0.78803372 0.21014227 0.62664127
0.78803372 0.15760659 0.62664127
0.78803372 0.10507119 0.62664139
0.78803372 0.052535743 0.62664151
0.78803372 5.9604645e-08 0.62664139
0.78803372 -0.052535594 0.62664139
0.78803372 -0.1050711 0.62664151
0.78803372 -0.15760672 0.62664145
0.78803372 -0.21014224 0.62664133
0.78803372 -0.26267797 0.62664139
0.78803372 -0.31521356 0.62664139
0.78803372 -0.36774904 0.62664139
0.78803372 -0.42028472 0.62664139
0.78803372 -0.47282034 0.62664139
0.78803372 -0.5253557 0.62664139
0.78803372 -0.57789147 0.62664145
0.78803372 -0.63042706 0.62664151
0.78803372 -0.68296248 0.62664133
0.78803372 -0.73549825 0.62664151
0.74526423 -0.74526429 0.4840765
0.74525541 -0.79493898 0.48404691
0.79218137 -0.89780563 0.64046693
0.82499063 0.87655258 0.57795793
0.82499737 0.82499737 0.57797897
0.82930642 0.77747464 0.59144479
0.82930642 0.7256431 0.59144467
0.82930642 0.6738115 0.59144473
0.82930642 0.62197977 0.59144479
0.82930642 0.57014811 0.59144485
0.82930642 0.51831651 0.59144479
0.82930642 0.46648493 0.59144473
0.82930642 0.41465321 0.59144485
0.82930642 0.3628214 0.59144461
0.82930642 0.31098992 0.59144485
0.82930642 0.25915831 0.59144485
0.82930642 0.20732668 0.59144485
0.82930642 0.15549487 0.59144467
0.82930642 0.10366325 0.59144473
0.82930642 0.051831663 0.59144497
0.82930642 5.9604645e-08 0.59144485
0.82930642 -0.051831573 0.59144485
0.82930642 -0.1036633 0.59144473
0.82930642 -0.15549494 0.59144491
0.82930642 -0.20732667 0.59144485
0.82930642 -0.25915825 0.59144485
0.82930642 -0.31098983 0.59144473
0.82930642 -0.36282158 0.59144485
0.82930642 -0.41465306 0.59144479
0.82930642 -0.46648481 0.59144485
0.82930642 -0.51831663 0.59144485
0.82930642 -0.57014811 0.59144485
0.82930642 -0.62197971 0.59144467
0.82930642 -0.67381144 0.59144479
0.82930642 -0.72564298 0.59144473
0.82930642 -0.77747476 0.59144479
0.82499737 -0.82499731 0.57797897
0.82498723 -0.87654901 0.57794732
