# .PCD v0.7 - Point Cloud Data file format
VERSION 0.7
FIELDS x y z
SIZE 4 4 4
TYPE F F F
COUNT 1 1 1
WIDTH 951
HEIGHT 1
VIEWPOINT 0 0 0 1 0 0 0
POINTS 951
DATA ascii
-0.73799783 0.62729812 -0.1551432
-0.71071798 0.63590562 -0.1298272
-0.70254809 0.59161943 -0.15132695
-0.69456595 0.54834151 -0.17233257
-0.68267912 0.6447525 -0.10380688
-0.67472565 0.59975612 -0.12589982
-0.66695338 0.55579448 -0.14748941
-0.65936011 0.51283568 -0.16858187
-0.65193588 0.47084254 -0.18920478
-0.77111083 0.51407391 0.14183667
-0.65385097 0.65385085 -0.077046633
-0.6461252 0.60811788 -0.099769413
-0.63857991 0.56345278 -0.12196158
-0.63121063 0.51982045 -0.14363597
-0.62400764 0.47718233 -0.16482107
-0.61696899 0.43550754 -0.18552296
-0.61008567 0.39476132 -0.20576815
-0.74460161 0.43800104 0.18986705
-0.62419575 0.66320801 -0.049526036
-0.61671609 0.61671609 -0.072899997
-0.60941535 0.57132691 -0.095714599
-0.60228372 0.52699822 -0.11800101
-0.59531885 0.48369652 -0.1397664
-0.58851147 0.4413836 -0.1610395
-0.58185798 0.40002728 -0.18183152
-0.57535493 0.35959688 -0.20215347
-0.56899405 0.32005921 -0.22203135
-0.71687627 0.35843813 0.24010055
-0.59367937 0.6728366 -0.021206498
-0.58646518 0.62556279 -0.045253903
-0.57942241 0.57942247 -0.068729579
-0.57254857 0.53437865 -0.091642484
-0.56583422 0.49038965 -0.11402375
-0.55927545 0.44742036 -0.13588619
-0.55286866 0.40543702 -0.15724216
-0.54660541 0.36440361 -0.17811975
-0.54048401 0.32429042 -0.19852433
-0.53449667 0.28506494 -0.21848199
-0.52864063 0.24669899 -0.23800243
-0.68784922 0.27513969 0.29269293
-0.56226563 0.68275118 0.0079539418
-0.55533201 0.63466513 -0.016809165
-0.54856896 0.58775246 -0.040962815
-0.54196703 0.54196703 -0.064541176
-0.5355221 0.49727055 -0.087558761
-0.5292303 0.45362586 -0.11002974
-0.52308297 0.41099381 -0.13198414
-0.51707834 0.36934167 -0.15342924
-0.51120859 0.32863414 -0.17439273
-0.50547057 0.28884026 -0.19488561
-0.49986142 0.24993071 -0.21491855
-0.49437392 0.21187453 -0.23451674
-0.4890056 0.17464486 -0.2536892
-0.65742642 0.18783608 0.34781381
-0.52991056 0.6929599 0.037979901
-0.5232811 0.6440382 0.012481809
-0.51681381 0.59632361 -0.012392282
-0.51050442 0.54977405 -0.036659002
-0.50434887 0.50434881 -0.060334563
-0.49833837 0.46000457 -0.083451673
-0.49247098 0.41670623 -0.1060185
-0.48673868 0.37441438 -0.1280659
-0.48113832 0.3330957 -0.14960583
-0.47566673 0.2927179 -0.17065039
-0.4703168 0.2532475 -0.19122697
-0.46508589 0.21465503 -0.21134569
-0.45997137 0.17691204 -0.23101711
-0.45496684 0.13998984 -0.25026515
-0.45007131 0.10386259 -0.26909429
-0.62550253 0.096231177 0.40564114
-0.49657488 0.70348096 0.068924189
-0.49026775 0.65369034 0.04264462
-0.48411879 0.60514849 0.017023951
-0.47812375 0.55781102 -0.0079555511
-0.4722738 0.51162994 -0.0323302
-0.46656677 0.46656671 -0.056109518
-0.46099463 0.42257842 -0.079326823
-0.45555398 0.3796283 -0.1019962
-0.4502416 0.33768117 -0.124131
-0.44505039 0.29670027 -0.14576113
-0.43997753 0.25665349 -0.16689813
-0.43502024 0.21751006 -0.18755342
-0.4301722 0.17923844 -0.20775358
-0.42543221 0.14181066 -0.22750346
-0.4207944 0.10519853 -0.24682775
-0.41625658 0.069376081 -0.26573533
-0.41181672 0.034318089 -0.28423464
-0.59196866 -1.4901161e-08 0.46639851
-0.46220976 0.71432424 0.10081577
-0.4562498 0.66363609 0.073724926
-0.45044303 0.61424047 0.047330499
-0.44478077 0.5660845 0.021593004
-0.43926051 0.519126 -0.0034990609
-0.43387422 0.47331733 -0.027982131
-0.42861843 0.42861843 -0.05187206
-0.42348975 0.38499072 -0.075184301
-0.41848108 0.34239364 -0.097950958
-0.41358951 0.30079234 -0.12018526
-0.4088122 0.26015323 -0.14190045
-0.4041428 0.22044149 -0.16312498
-0.39958 0.18162718 -0.18386506
-0.39511797 0.14367929 -0.20414694
-0.39075446 0.10656933 -0.22398102
-0.38648739 0.070270389 -0.24337682
-0.38231143 0.03475555 -0.26235837
-0.3782258 -5.9604645e-08 -0.28092951
-0.37422556 -0.034020528 -0.2991125
-0.55669719 -0.10121754 0.53030407
-0.42676869 0.72550672 0.13370574
-0.4211821 0.67389131 0.10577273
-0.41573849 0.62360775 0.078554839
-0.41043517 0.57460916 0.052038074
-0.40526414 0.52684331 0.02618286
-0.40022177 0.48026609 0.00097106397
-0.39530456 0.43483502 -0.023614898
-0.39050552 0.39050558 -0.047610074
-0.38582161 0.34723943 -0.071029603
-0.38124987 0.30499989 -0.093888402
-0.37678409 0.26374891 -0.11621729
-0.37242281 0.22345378 -0.13802361
-0.36816025 0.18408 -0.15933637
-0.36399418 0.14559767 -0.18016669
-0.35992241 0.10797673 -0.20052584
-0.35593966 0.071187921 -0.22043955
-0.35204506 0.035204403 -0.23991229
-0.34823388 1.0430813e-07 -0.25896841
-0.34450427 -0.034450479 -0.27761632
-0.34085464 -0.068170905 -0.29586452
-0.33728063 -0.10118417 -0.31373456
-0.51954943 -0.20781982 0.5976094
-0.39020169 0.73704761 0.16764933
-0.38501227 0.6844663 0.1388194
-0.37996039 0.63326746 0.11075342
-0.37503809 0.58339256 0.083407253
-0.3702417 0.53479362 0.056760743
-0.36556765 0.4874236 0.030793577
-0.36100897 0.44123325 0.0054675937
-0.35656258 0.39618066 -0.019234553
-0.35222548 0.35222548 -0.043329403
-0.34799159 0.30932578 -0.066851288
-0.34385929 0.26744616 -0.089808412
-0.33982295 0.22654873 -0.11223249
-0.33588028 0.18660019 -0.13413619
-0.33202901 0.14756845 -0.15553209
-0.32826412 0.10942138 -0.17644811
-0.32458457 0.072129853 -0.19689009
-0.3209857 0.035665147 -0.21688384
-0.31746578 -8.1956387e-08 -0.23643894
-0.31402308 -0.034891464 -0.25556526
-0.31065336 -0.069034137 -0.27428567
-0.30735523 -0.10245179 -0.29260868
-0.30412719 -0.1351676 -0.3105422
-0.30828583 -0.17126989 -0.28743863
-0.48036742 -0.32024491 0.66857022
-0.35245126 0.74895895 0.2026827
-0.3476904 0.69538075 0.1729272
-0.34305525 0.64322853 0.14395753
-0.33854207 0.59244859 0.11575019
-0.33414721 0.54298925 0.088282406
-0.32986394 0.4947958 0.06151171
-0.32568905 0.44782245 0.035418764
-0.32161954 0.40202445 0.0099844784
-0.31764948 0.35735571 -0.014828309
-0.31377727 0.31377724 -0.039029941
-0.30999729 0.2712476 -0.062654488
-0.30630735 0.22973055 -0.085716769
-0.30270511 0.18919076 -0.10823071
-0.29918572 0.14959288 -0.13022693
-0.29574811 0.11090553 -0.151712
-0.29238775 0.073096991 -0.17271432
-0.28910291 0.036137789 -0.19324467
-0.28589183 -8.9406967e-08 -0.21331382
-0.28275052 -0.035343789 -0.23294702
-0.27967748 -0.06991934 -0.25215346
-0.27667129 -0.10375176 -0.27094203
-0.27372831 -0.13686417 -0.28933573
-0.27084801 -0.16927995 -0.30733776
-0.26802695 -0.20102021 -0.32496926
-0.27892002 -0.24405509 -0.25688761
-0.43897897 -0.43897885 0.74348074
-0.31346178 0.76126432 0.23887482
-0.30915785 0.70664656 0.20813277
-0.30497053 0.65350831 0.17822337
-0.30089617 0.60179234 0.14912045
-0.29692823 0.55143815 0.12077816
-0.29306358 0.50239468 0.093173444
-0.28929919 0.45461303 0.06628482
-0.2856293 0.40804189 0.040071726
-0.28205234 0.36263871 0.014521718
-0.27856293 0.31835759 -0.010402501
-0.27515879 0.27515876 -0.034717754
-0.27183771 0.23300371 -0.058439709
-0.26859504 0.19185355 -0.081601754
-0.26542962 0.15167409 -0.10421216
-0.26233712 0.11243019 -0.12630121
-0.25931588 0.074090302 -0.14788157
-0.25636417 0.036623381 -0.16896516
-0.25347817 -8.9406967e-08 -0.1895794
-0.25065643 -0.035808079 -0.20973465
-0.24789752 -0.070827827 -0.22944111
-0.245198 -0.10508488 -0.24872346
-0.24255732 -0.13860416 -0.26758546
-0.23997223 -0.1714088 -0.28605038
-0.23744167 -0.20352142 -0.30412567
-0.23496456 -0.23496456 -0.32181939
-0.232538 -0.26575771 -0.3391521
-0.24848683 -0.31948307 -0.22523183
-0.39520162 -0.56457359 0.82273102
-0.27316868 0.77397788 0.2762678
-0.26935625 0.71828324 0.24449751
-0.26564971 0.66412425 0.21360967
-0.26204285 0.61143327 0.1835527
-0.25853267 0.56015402 0.15430109
-0.25511611 0.51023227 0.12582992
-0.25178787 0.46161109 0.098094463
-0.24854612 0.41424358 0.071080118
-0.24538605 0.36807907 0.044745907
-0.24230529 0.32307369 0.01907298
-0.2393017 0.2791853 -0.0059569627
-0.23637091 0.23637088 -0.030380152
-0.23351176 0.19459313 -0.054206446
-0.23072025 0.1538135 -0.077469006
-0.2279947 0.11399733 -0.10018189
-0.22533345 0.075111158 -0.12235888
-0.22273298 0.037122112 -0.14402971
-0.22019182 2.2351742e-08 -0.16520596
-0.21770863 -0.036284707 -0.18589914
-0.21528021 -0.071760088 -0.20613605
-0.21290596 -0.10645293 -0.22592129
-0.21058294 -0.14038867 -0.24528
-0.20831005 -0.17359181 -0.26422063
-0.20608625 -0.20608632 -0.28275222
-0.20390891 -0.23789372 -0.30089676
-0.20177761 -0.26903686 -0.31865755
-0.19968988 -0.2995348 -0.33605525
-0.19764492 -0.32940823 -0.35309669
-0.21692856 -0.39770228 -0.19239976
-0.34881842 -0.69763672 0.90668237
-0.2315069 0.78712338 0.31493121
-0.22822264 0.73031241 0.28208861
-0.22502944 0.67508829 0.2501567
-0.22192439 0.62138826 0.21910618
-0.21890461 0.56915206 0.18890849
-0.21596518 0.51831651 0.15951411
-0.21310435 0.46882951 0.1309057
-0.21031764 0.42063522 0.10303858
-0.20760286 0.37368512 0.075890809
-0.20495793 0.32793266 0.049441651
-0.20237891 0.28333044 0.023651361
-0.19986461 0.23983753 -0.0014916509
-0.19741142 0.19741139 -0.026023589
-0.19501771 0.15601419 -0.049960639
-0.19268194 0.11560913 -0.073318258
-0.19040088 0.076160491 -0.096128918
-0.1881732 0.037634552 -0.11840574
-0.18599761 7.4505806e-09 -0.14016169
-0.18387119 -0.036774151 -0.16142577
-0.18179338 -0.072717316 -0.18220392
-0.1797615 -0.10785678 -0.20252284
-0.1777745 -0.14221959 -0.22239257
-0.17583148 -0.17583141 -0.24182293
-0.17392997 -0.20871599 -0.260838
-0.17206964 -0.24089748 -0.27944145
-0.17024821 -0.27239713 -0.29765561
-0.16846493 -0.30323681 -0.3154884
-0.16671906 -0.33343816 -0.33294708
-0.16500859 -0.36301887 -0.35005182
-0.16333286 -0.39199886 -0.36680925
-0.18418022 -0.47886857 -0.15833564
-0.29959321 -0.83886099 0.99579436
-0.18840615 0.80072618 0.35493928
-0.18568714 0.7427485 0.32095158
-0.18304548 0.68642044 0.28793067
-0.18047857 0.63167512 0.25584453
-0.17798205 0.57844174 0.22463794
-0.17555425 0.52666277 0.19429037
-0.1731912 0.47627589 0.16475229
-0.17089091 0.42722738 0.13599877
-0.16865151 0.37946588 0.10800621
-0.16646948 0.33293891 0.080730781
-0.16434319 0.28760058 0.054152295
-0.16227107 0.24340662 0.028250642
-0.16025002 0.2003125 0.0029875785
-0.15827921 0.15827914 -0.021647722
-0.15635578 0.11726686 -0.045690306
-0.15447856 0.077239357 -0.069155782
-0.15264633 0.038161613 -0.092058644
-0.1508566 9.6857548e-08 -0.11443008
-0.1491088 -0.037277192 -0.13627765
-0.1474006 -0.073700324 -0.15763013
-0.14573111 -0.10929832 -0.17849891
-0.14409941 -0.14409941 -0.19889504
-0.14250346 -0.17812924 -0.2188447
-0.14094284 -0.21141428 -0.23835216
-0.13941567 -0.24397743 -0.25744194
-0.13792121 -0.27584246 -0.27612245
-0.13645884 -0.30703241 -0.29440209
-0.1350268 -0.33756703 -0.31230271
-0.13362449 -0.36746746 -0.32983145
-0.13225138 -0.39675412 -0.34699553
-0.13090584 -0.42544398 -0.36381465
-0.12958774 -0.4535571 -0.38029093
-0.15017442 -0.5631541 -0.1229575
-0.24725322 -0.9890129 1.0905277
-0.14378899 0.81480426 0.39634538
-0.14167792 0.75561547 0.3611609
-0.13962847 0.69814229 0.32700315
-0.13763694 0.64230567 0.29381135
-0.13570194 0.58804178 0.2615611
-0.13382009 0.53528023 0.23019712
-0.13198973 0.48396236 0.19969116
-0.13020922 0.43403077 0.17001599
-0.12847567 0.38542694 0.14112346
-0.12678768 0.33810049 0.11299008
-0.12514387 0.29200238 0.085593417
-0.12354174 0.24708351 0.058891222
-0.1219805 0.20330086 0.032870695
-0.12045785 0.16061048 0.0074932501
-0.11897276 0.11897273 -0.017258551
-0.11752418 0.078349434 -0.041401219
-0.11611012 0.038703401 -0.064969108
-0.11473002 -6.3329935e-08 -0.087970853
-0.113382 -0.037793986 -0.11043779
-0.11206529 -0.07471019 -0.1323829
-0.11077914 -0.11077905 -0.15381877
-0.10952185 -0.14602914 -0.17477359
-0.10829279 -0.18048793 -0.19525784
-0.10709131 -0.21418262 -0.21528257
-0.1059159 -0.24713717 -0.2348727
-0.1047663 -0.27937675 -0.2540327
-0.1036411 -0.31092334 -0.27278593
-0.10253982 -0.34179938 -0.29114065
-0.10146197 -0.37202728 -0.30910495
-0.10040627 -0.40162501 -0.32669982
-0.099372588 -0.43061447 -0.34392807
-0.098359704 -0.45901191 -0.36080936
-0.097367264 -0.48683628 -0.37735003
-0.096394889 -0.51410615 -0.39355612
-0.1148363 -0.65073907 -0.086199522
-0.097574852 0.82938612 0.43923354
-0.0961174 0.76893914 0.40279722
-0.09470249 0.71026862 0.36742446
-0.093328975 0.65330273 0.33308655
-0.091994397 0.59796339 0.29972205
-0.090697452 0.5441848 0.2672987
-0.089436881 0.49190277 0.23578422
-0.088210568 0.44105285 0.20512648
-0.087017424 0.39157832 0.1752978
-0.085856423 0.34342569 0.14627275
-0.084725708 0.2965399 0.11800481
-0.083624661 0.25087398 0.090478793
-0.082551599 0.20637903 0.063652202
-0.081505723 0.16301155 0.037505373
-0.080486275 0.12072939 0.012019288
-0.079491764 0.079491742 -0.012843609
-0.078521781 0.039260902 -0.037093293
-0.077574939 3.1664968e-08 -0.060764417
-0.076650657 -0.03832531 -0.08387135
-0.075748377 -0.075748399 -0.10642838
-0.074866861 -0.11230033 -0.12846628
-0.074005626 -0.14801125 -0.149997
-0.073164202 -0.18291055 -0.17103282
-0.072341479 -0.21702442 -0.1916007
-0.071537264 -0.25038037 -0.21170622
-0.070750527 -0.28300217 -0.23137456
-0.069980912 -0.31491411 -0.25061506
-0.069228046 -0.34614018 -0.26943657
-0.068491027 -0.37670058 -0.28786218
-0.067769706 -0.40661818 -0.30589491
-0.067063257 -0.43591112 -0.32355642
-0.066371374 -0.46459949 -0.34085339
-0.065693796 -0.49270341 -0.35779291
-0.06502974 -0.52023792 -0.37439415
-0.064378984 -0.54722136 -0.39066318
-0.063741274 -0.57367146 -0.40660578
-0.050455663 0.90820193 0.52264535
-0.049676646 0.84450293 0.48369443
-0.048921127 0.78273803 0.44591862
-0.048188433 0.72282648 0.40928382
-0.047477182 0.66468048 0.37372112
-0.046786617 0.60822606 0.33919322
-0.046116028 0.55339229 0.30566368
-0.045464225 0.50010633 0.27307338
-0.044830587 0.44830573 0.24139151
-0.044214524 0.39793071 0.21058851
-0.043615013 0.34892011 0.18061307
-0.043031693 0.30122179 0.15144685
-0.042463623 0.25478169 0.12304344
-0.041910358 0.20955172 0.095380142
-0.041371461 0.16548587 0.068435214
-0.040846113 0.12253833 0.042167757
-0.040334068 0.080668114 0.016565699
-0.039834578 0.039834507 -0.0084088547
-0.039347302 1.4901161e-08 -0.03277253
-0.038871929 -0.038871888 -0.056541204
-0.038407791 -0.076815508 -0.079748251
-0.037954599 -0.1138638 -0.10240776
-0.03751209 -0.15004846 -0.12453315
-0.037079673 -0.18539844 -0.14615391
-0.036657222 -0.21994326 -0.16727671
-0.03624418 -0.25370923 -0.18792878
-0.035840344 -0.28672278 -0.2081205
-0.035445504 -0.3190096 -0.22786243
-0.035059176 -0.35059181 -0.24717902
-0.034681272 -0.38149396 -0.26607421
-0.034311332 -0.41173601 -0.28457093
-0.033949208 -0.4413397 -0.30267748
-0.033594731 -0.47032627 -0.32040113
-0.033247493 -0.49871233 -0.33776304
-0.032907363 -0.52651781 -0.35476959
-0.032574203 -0.55376136 -0.37142766
-0.03224764 -0.58045745 -0.38775572
-0.031927641 -0.6066252 -0.40375572
-0.031613849 -0.63227695 -0.41944525
0 0.92533183 0.57022858
0 0.86017758 0.52979618
0 0.7970444 0.49062592
0 0.73583341 0.45264047
0 0.67646158 0.41579631
0 0.61884934 0.38005173
0 0.56291485 0.34534067
0 0.50858831 0.31162727
0 0.45580301 0.27887774
0 0.40449113 0.24703512
0 0.3545945 0.21607786
0 0.30605283 0.18595424
0 0.25881323 0.15663865
0 0.21282443 0.12810612
0 0.16803595 0.10031144
0 0.12440269 0.073240489
0 0.081879586 0.046851631
0 0.040425267 0.021126125
0 -6.7055225e-08 -0.0039544478
0 -0.039434142 -0.028426494
0 -0.077913329 -0.05230571
0 -0.11547174 -0.075607538
0 -0.1521419 -0.098364219
0 -0.18795538 -0.12058347
0 -0.22294116 -0.1422949
0 -0.25712776 -0.16351043
0 -0.29054329 -0.18424191
0 -0.32321197 -0.20451549
0 -0.35516021 -0.22433639
0 -0.38640985 -0.2437294
0 -0.41698417 -0.26270339
0 -0.44690627 -0.28126726
0 -0.47619438 -0.2994431
0 -0.50486976 -0.31723848
0 -0.53295249 -0.3346611
0 -0.5604583 -0.35173091
0 -0.58740747 -0.36845013
0 -0.613814 -0.38483769
0.052395362 0.94311649 0.61963028
0.051555794 0.87644851 0.57765222
0.050742507 0.81188011 0.5369876
0.049954478 0.74931717 0.49758607
0.049190745 0.68867034 0.45939946
0.048449822 0.62984776 0.42235351
0.047730893 0.5727706 0.38640678
0.047033161 0.51736486 0.35152036
0.046355363 0.46355352 0.31763041
0.045696992 0.41127285 0.28471172
0.045056898 0.36045516 0.25270703
0.044434484 0.31104136 0.22158653
0.043829191 0.26297519 0.19132173
0.043240011 0.21620001 0.161863
0.04266661 0.17066637 0.13319282
0.042108078 0.12632416 0.1052661
0.041563977 0.083127923 0.07806132
0.041033894 0.041033905 0.051556997
0.040517032 -4.8428774e-08 0.025713932
0.040013026 -0.04001306 0.00051361509
0.03952153 -0.079043075 -0.024061123
0.039041843 -0.11712547 -0.048045594
0.038573775 -0.15429512 -0.071448877
0.038116686 -0.19058339 -0.094303444
0.037670299 -0.22602174 -0.11662279
0.037234362 -0.26064047 -0.13841978
0.036808286 -0.29446629 -0.15972352
0.036391959 -0.32752758 -0.18053991
0.03598484 -0.35984838 -0.20089571
0.035586726 -0.39145407 -0.22080135
0.035197429 -0.42236912 -0.24026623
0.034816459 -0.45261401 -0.25931478
0.034443647 -0.48221102 -0.27795535
0.034078825 -0.51118237 -0.29619634
0.033721566 -0.53954506 -0.3140595
0.033371713 -0.56731915 -0.33155191
0.03302905 -0.59452295 -0.3486852
0.10684469 0.96160221 0.67097962
0.10509921 0.89334333 0.62734234
0.10340983 0.82727855 0.58510804
0.10177431 0.76330739 0.54422009
0.10018932 0.7013253 0.50459546
0.098652951 0.64124405 0.46618599
0.097163357 0.5829801 0.42894614
0.095717721 0.52644753 0.39280534
0.094314814 0.47157419 0.35773292
0.092952102 0.41828454 0.3236649
0.091628209 0.36651284 0.29056749
0.090341821 0.31619638 0.25840774
0.089090735 0.26727223 0.22713068
0.087874137 0.21968532 0.19671564
0.086690009 0.17338006 0.1671125
0.085537381 0.12830612 0.13829683
0.084415279 0.084415324 0.11024419
0.083321959 0.041661009 0.082911283
0.082256608 -1.4901161e-08 0.056277402
0.081218407 -0.040609203 0.030322436
0.080205835 -0.080205835 0.0050081611
0.079218447 -0.11882772 -0.01967657
0.078254834 -0.1565097 -0.043766879
0.077314384 -0.19328599 -0.067278124
0.076396495 -0.22918954 -0.090225317
0.075499929 -0.26424974 -0.11263962
0.074624375 -0.29849753 -0.13452838
0.073768683 -0.33195913 -0.15592077
0.072932392 -0.36466193 -0.17682806
0.072114848 -0.39663172 -0.19726664
0.071315624 -0.42789382 -0.21724704
0.070533738 -0.45846927 -0.23679425
0.069768801 -0.48838168 -0.25591773
0.069020465 -0.51765352 -0.27462596
0.068287835 -0.54630274 -0.29294175
0.067570589 -0.57435 -0.31087291
0.066868261 -0.60181439 -0.32843122
0.16347049 0.98082274 0.72437036
0.16074742 0.9109022 0.67898613
0.15811425 0.84327596 0.63509989
0.15556534 0.77782679 0.59261781
0.15309727 0.71445394 0.55148345
0.1507069 0.6530633 0.51164424
0.14838947 0.59355783 0.47302005
0.14614277 0.53585666 0.43557495
0.14396255 0.47987506 0.39923808
0.14184642 0.42553931 0.36396915
0.13979211 0.37277886 0.32973072
0.13779597 0.32152402 0.2964617
0.13585649 0.27171302 0.26413742
0.13397039 0.22328398 0.2327024
0.13213596 0.17618132 0.20212838
0.13035153 0.13035154 0.17238782
0.12861422 0.085742868 0.14343254
0.12692261 0.042307559 0.11523883
0.12527531 -5.2154064e-08 0.087784216
0.12366983 -0.041223243 0.061026216
0.12210539 -0.081403576 0.034952044
0.12057964 -0.12057962 0.0095228516
0.11909155 -0.15878871 -0.015278555
0.11764011 -0.1960669 -0.039469287
0.11622326 -0.23244649 -0.063083336
0.11484013 -0.26796037 -0.086135477
0.11348988 -0.3026396 -0.10863964
0.11217068 -0.336512 -0.13062635
0.11088181 -0.36960605 -0.15210772
0.1096222 -0.40194803 -0.17310102
0.10839121 -0.43356478 -0.19361763
0.10718724 -0.46447808 -0.21368361
0.10600974 -0.49471205 -0.23330863
0.10485812 -0.5242905 -0.25250244
0.10373096 -0.55323172 -0.27128842
0.10262778 -0.58155739 -0.28967476
0.22240613 1.0008277 0.77993923
0.218628 0.92916906 0.73271251
0.21497519 0.85990071 0.68705195
0.2114424 0.79290903 0.6428923
0.20802473 0.72808647 0.60017121
0.20471494 0.66532367 0.55879897
0.20150962 0.60452896 0.51873279
0.19840236 0.54560649 0.47989184
0.19538946 0.48847365 0.44223058
0.19246745 0.43305179 0.40570545
0.18963084 0.37926161 0.37024766
0.1868773 0.32703522 0.33582857
0.18420191 0.27630293 0.30238619
0.18160205 0.22700261 0.26988789
0.1790752 0.17907515 0.23830208
0.17661707 0.1324628 0.20757568
0.17422551 0.087112702 0.17768121
0.17189845 0.042974617 0.14859289
0.16963215 -7.8231096e-08 0.12026421
0.16742541 -0.041856334 0.092679799
0.16527478 -0.082637429 0.065797143
0.16317871 -0.12238412 0.039596166
0.16113515 -0.16113514 0.014051542
0.15914263 -0.19892836 -0.010854892
0.15719831 -0.23579746 -0.035158932
0.1553009 -0.27177659 -0.058876373
0.15344924 -0.30689847 -0.08202219
0.15164076 -0.34119165 -0.10462833
0.14987439 -0.37468606 -0.12670784
0.14814872 -0.40740895 -0.14827892
0.14646274 -0.43938819 -0.16935347
0.1448143 -0.47064632 -0.18995903
0.14320254 -0.50120896 -0.21010594
0.14162669 -0.53110003 -0.22980431
0.14008473 -0.56033891 -0.24907874
0.28379723 1.0216699 0.83783442
0.27887633 0.94817936 0.7886253
0.27412316 0.87719393 0.74109364
0.26953045 0.80859125 0.69516671
0.26508799 0.74224639 0.65074211
0.26079068 0.6780557 0.60776901
0.25662944 0.61591053 0.56615639
0.25259888 0.55571753 0.52585095
0.24869396 0.49738795 0.48680198
0.24490699 0.44083256 0.44893226
0.24123456 0.3859753 0.41220781
0.23766971 0.33273762 0.37655953
0.23420872 0.28105044 0.34194949
0.23084791 0.2308479 0.30834132
0.22758137 0.18206511 0.27567589
0.22440597 0.13464355 0.24392204
0.22131877 0.088527516 0.21304989
0.21831457 0.043662943 0.18300807
0.21539086 2.2351742e-08 0.15377083
0.21254514 -0.042509042 0.12531358
0.20977293 -0.083909132 0.097591422
0.20707209 -0.12424332 0.070583276
0.20443994 -0.16355202 0.044261653
0.20187451 -0.20187445 0.018607192
0.19937201 -0.2392464 -0.0064175799
0.19693081 -0.27570313 -0.030829623
0.19454928 -0.31127888 -0.054645061
0.19222406 -0.34600329 -0.077897191
0.18995376 -0.37990749 -0.10059994
0.18773648 -0.41302025 -0.12277289
0.18557091 -0.44537014 -0.14442869
0.18345419 -0.47698089 -0.16559584
0.18138522 -0.50787866 -0.18628569
0.17936289 -0.53808868 -0.20650874
0.34779802 1.0433941 0.89817905
0.34164143 0.9679839 0.84687394
0.33570045 0.89520121 0.79736608
0.32996118 0.82490283 0.74953854
0.32441619 0.75697106 0.7033304
0.31905314 0.69128174 0.65863866
0.31386456 0.62772906 0.61540043
0.30884331 0.56621265 0.57355636
0.30397895 0.50663167 0.53302014
0.29926664 0.44889992 0.49375072
0.29469702 0.39292926 0.45567057
0.29026487 0.33864239 0.41873616
0.28596514 0.28596517 0.38290498
0.2817899 0.23482485 0.34811121
0.27773482 0.18515654 0.31431893
0.27379477 0.13689733 0.28148532
0.26996592 0.089988619 0.24957821
0.26624176 0.044373661 0.21854356
0.26261896 -8.1956387e-08 0.18835348
0.2590934 -0.043182217 0.1589738
0.25566208 -0.085220754 0.13037995
0.25231969 -0.12615982 0.10252625
0.24906352 -0.16604231 0.07539162
0.24589115 -0.20490921 0.048955046
0.24279778 -0.24279779 0.023176931
0.23978125 -0.27974474 -0.0019605905
0.23683879 -0.31578499 -0.026481152
0.23396838 -0.35095257 -0.05040127
0.23116601 -0.38527662 -0.073754326
0.22842997 -0.41878825 -0.096554548
0.22575863 -0.45151716 -0.11881578
0.22314838 -0.48348826 -0.1405679
0.22059779 -0.51472819 -0.16182263
0.21810549 -0.54526365 -0.18259199
0.41457969 1.0660621 0.96114588
0.40708625 0.98863804 0.90762132
0.3998571 0.91395903 0.85598415
0.39288193 0.84188986 0.80616176
0.38614428 0.77228844 0.75803572
0.37963381 0.7050342 0.71153235
0.37334082 0.6400128 0.66658241
0.36725155 0.57710946 0.62308747
0.36135772 0.51622522 0.58098859
0.35565147 0.45726615 0.54022998
0.35012129 0.40013853 0.50072843
0.34476042 0.34476036 0.46243653
0.33956128 0.29105258 0.42530003
0.33451787 0.2389413 0.38927564
0.32962087 0.1883547 0.3542968
0.32486513 0.13922784 0.32032749
0.32024589 0.091498889 0.28733271
0.31575501 0.045107909 0.25525504
0.31138831 7.4505806e-08 0.2240645
0.3071408 -0.043877259 0.19372511
0.30300862 -0.086573876 0.16420944
0.29898515 -0.1281365 0.13547044
0.2950671 -0.16860983 0.10748444
0.29125136 -0.20803666 0.0802292
0.28753218 -0.24645621 0.053663455
0.28390673 -0.28390676 0.027767472
0.28037161 -0.32042468 0.0025164336
0.27692425 -0.35604545 -0.022107214
0.27355984 -0.39079988 -0.046138823
0.27027619 -0.42471969 -0.069593459
0.26707125 -0.45783645 -0.092485964
0.26394063 -0.49017537 -0.11484765
0.26088253 -0.52176505 -0.13669112
0.48432985 1.0897422 1.0269238
0.47538257 1.0101879 0.97100335
0.46676207 0.93352419 0.91712511
0.45844653 0.85958731 0.86515301
0.45042211 0.7882387 0.81500041
0.44267571 0.71934795 0.76658535
0.43518937 0.65278405 0.71979582
0.42795202 0.58843398 0.67456245
0.42095146 0.52618927 0.63080901
0.41417795 0.46595007 0.58847445
0.40761733 0.40761733 0.54747057
0.4012613 0.35110378 0.5077455
0.39510202 0.29632643 0.46924978
0.38912746 0.24320458 0.43190876
0.38333088 0.1916655 0.39568025
0.37770444 0.14163922 0.36051524
0.37224221 0.093060479 0.32637605
0.36693436 0.045866728 0.29320192
0.36177573 1.4901161e-08 0.26096052
0.35676014 -0.044594973 0.2296131
0.35188296 -0.087970778 0.19913068
0.34713611 -0.13017604 0.16946296
0.34251565 -0.17125782 0.14058509
0.33801773 -0.21126103 0.11247295
0.33363527 -0.25022656 0.085082635
0.32936502 -0.28819439 0.058393523
0.32520264 -0.3252027 0.032378897
0.32114524 -0.36128837 0.0070200711
0.3171868 -0.39648348 -0.017720237
0.31332478 -0.43082148 -0.041857764
0.3095566 -0.46433502 -0.065408826
0.30587709 -0.49705026 -0.088405922
0.54672265 1.0326983 1.0372102
0.53659159 0.95394069 0.98092675
0.52682674 0.87804461 0.9266777
0.51741099 0.80486149 0.87436765
0.50832814 0.7342518 0.82390755
0.49955651 0.66607541 0.77517617
0.49108243 0.60021186 0.72809798
0.48289105 0.53654557 0.68259031
0.47497043 0.47497055 0.63858718
0.46730357 0.41538087 0.59599328
0.45988029 0.35768476 0.55475271
0.45268914 0.3017928 0.51480192
0.44572115 0.24762285 0.47609103
0.43896276 0.19509462 0.43854436
0.43240628 0.14413536 0.40211925
0.42604432 0.094676554 0.36677524
0.41986534 0.046651632 0.33244747
0.413863 -0 0.29910129
0.40802988 -0.045336694 0.26669496
0.40236032 -0.089413419 0.23519745
0.39684477 -0.13228159 0.20455542
0.39147839 -0.17399046 0.17474219
0.38625652 -0.21458697 0.14573185
0.38117084 -0.25411388 0.11747814
0.37621734 -0.29261339 0.089958757
0.37139097 -0.33012521 0.063145429
0.36668801 -0.36668795 0.037017807
0.36210155 -0.40233499 0.011537448
0.35762835 -0.43710136 -0.013313442
0.35326546 -0.47102058 -0.037551895
0.60954386 0.97527021 1.0475814
0.59820801 0.89731199 0.99090242
0.58728617 0.8222006 0.93629307
0.57675594 0.74978268 0.88364184
0.56659925 0.67991918 0.83285844
0.5567916 0.61247075 0.78382021
0.54731774 0.54731768 0.73645079
0.53816319 0.48434687 0.69067812
0.52930754 0.42344588 0.64640009
0.52073866 0.36451697 0.60355574
0.51244289 0.30746576 0.56207651
0.50440919 0.2522046 0.52190822
0.49662158 0.19864862 0.48297024
0.4890708 0.14672121 0.4452163
0.48174801 0.096349612 0.40860233
0.47463951 0.047464028 0.37305975
0.46773767 5.9604645e-08 0.33855072
0.46103376 -0.046103328 0.305031
0.45452088 -0.090904117 0.27246678
0.44818789 -0.13445638 0.24080175
0.44202894 -0.17681168 0.21000704
0.43603846 -0.21801923 0.18005474
0.43020675 -0.25812405 0.15089601
0.42452896 -0.29717022 0.12250697
0.41899908 -0.33519927 0.094857663
0.41361275 -0.37225151 0.067926034
0.40836182 -0.40836185 0.041671485
0.40324259 -0.44356686 0.016075179
0.39825135 -0.47790164 -0.0088810474
0.66023827 0.8403033 1.0009452
0.64814413 0.76598847 0.94597173
0.63648796 0.69435048 0.89298946
0.62524086 0.62524074 0.8418662
0.61438441 0.55853128 0.7925185
0.60390109 0.49410087 0.74486721
0.59376705 0.43183061 0.69880313
0.58396739 0.37161568 0.65425968
0.57448602 0.31335595 0.6111623
0.56530994 0.25695905 0.56945294
0.55642009 0.20233466 0.52904475
0.54780561 0.14940152 0.48988771
0.53945583 0.09808284 0.45193416
0.53135473 0.048305005 0.41511112
0.52349335 4.4703484e-08 0.3793776
0.51586121 -0.046896517 0.34468603
0.50845027 -0.092445545 0.3109999
0.50124747 -0.13670385 0.27825981
0.4942458 -0.17972574 0.24643414
0.48743883 -0.22156315 0.21549331
0.48081514 -0.26226276 0.18538554
0.47436902 -0.30187115 0.15608503
0.46809345 -0.34043157 0.12755984
0.46198335 -0.37798631 0.09978655
0.45602918 -0.41457197 0.072722197
0.45022652 -0.45022643 0.046346366
0.72268635 0.78291017 1.0110555
0.70940787 0.70940804 0.95572853
0.69660532 0.63855481 0.90238434
0.68425667 0.57021391 0.85093153
0.67234117 0.50425589 0.80128372
0.66083062 0.44055372 0.75332332
0.64970762 0.37899595 0.70697731
0.63895285 0.31947637 0.66216594
0.62855095 0.26189631 0.61882466
0.61847979 0.20615983 0.57686132
0.60872626 0.15218149 0.53622162
0.59927797 0.099879697 0.49685383
0.59011614 0.049176276 0.45867956
0.58123028 2.9802322e-08 0.42165521
0.57260805 -0.047717452 0.38572919
0.56423998 -0.094039962 0.35086226
0.55611098 -0.13902783 0.31699127
0.54821283 -0.1827376 0.28408241
0.54053593 -0.2252233 0.25209513
0.53307289 -0.26653647 0.22099926
0.52581131 -0.30672324 0.19074264
0.51874489 -0.3458299 0.16129935
0.51186764 -0.38390076 0.13264413
0.50516868 -0.42097378 0.10473171
0.77107519 0.65244818 0.96553588
0.75711435 0.58239567 0.91184056
0.74365348 0.51483709 0.86006796
0.73065966 0.44963658 0.8100915
0.71811205 0.38667569 0.76183164
0.70598817 0.32584071 0.7152015
0.69426978 0.26702681 0.67013073
0.68293124 0.21013279 0.62652093
0.67195714 0.15506698 0.58431268
0.6613301 0.10174309 0.54343951
0.6510365 0.050079778 0.50384885
0.641056 4.4703484e-08 0.46546227
0.63137686 -0.048567474 0.42823482
0.62198806 -0.095690504 0.39212388
0.612872 -0.14143199 0.35706246
0.6040194 -0.18585205 0.32301375
0.59541881 -0.22900715 0.28993478
0.58706188 -0.27095169 0.25779262
0.57893425 -0.31173378 0.22653247
0.57102853 -0.35140222 0.19612604
0.56333786 -0.39000309 0.16654617
0.83315301 0.59510922 0.97540861
0.81802273 0.52587187 0.92137212
0.80342859 0.45910197 0.86925
0.78934592 0.39467305 0.81895512
0.77574855 0.33246368 0.77039295
0.76261497 0.27236238 0.72348714
0.74991554 0.21426153 0.67813206
0.7376321 0.15806408 0.63426262
0.72574759 0.10367818 0.59181786
0.71423703 0.051016912 0.55070877
0.7030859 -2.9802322e-08 0.51088339
0.69227767 -0.049448401 0.47228253
0.68179929 -0.09739992 0.43485972
0.6716308 -0.14392085 0.39854383
0.66176122 -0.18907455 0.36329526
0.65217751 -0.23292047 0.32906762
0.64286977 -0.27551553 0.29582569
0.63382161 -0.31691089 0.26351106
0.62502474 -0.35715702 0.2320933
0.61647075 -0.39630264 0.20154354
0.87932706 0.46897435 0.93095249
0.86358863 0.40300792 0.87849104
0.84840363 0.33936131 0.82787448
0.83374721 0.27791578 0.77901942
0.81958491 0.21855599 0.73181206
0.80589575 0.16117908 0.68618131
0.79265636 0.1056875 0.64205015
0.7798481 0.051989883 0.59935606
0.76744419 -2.9802322e-08 0.55800939
0.75542861 -0.050361946 0.51795757
0.74378639 -0.099171415 0.4791503
0.73249477 -0.14649898 0.44151139
0.72154081 -0.19241084 0.40499833
0.71090972 -0.23696983 0.36956125
0.7005899 -0.28023601 0.33516198
0.6905629 -0.32226261 0.30173847
0.6808188 -0.36310333 0.26925844
0.94103479 0.41170287 0.9405961
0.92413747 0.3465516 0.88779187
0.90784037 0.28370023 0.83686352
0.89210415 0.22302607 0.78768778
0.87690413 0.16441944 0.74018759
0.86221343 0.10777658 0.69427931
0.84801042 0.053000718 0.64989495
0.83426428 2.9802322e-08 0.60693836
0.82095671 -0.051309764 0.56535202
0.80807024 -0.10100871 0.52508175
0.7955789 -0.14917105 0.48604637
0.78346795 -0.19586705 0.44819951
0.77172017 -0.24116255 0.41148764
0.76032227 -0.28512087 0.37586951
0.74925345 -0.32779831 0.34127939
0.98508346 0.28973034 0.89716625
0.96765172 0.2276828 0.84589672
0.95082629 0.16779277 0.79641008
0.93457592 0.10995013 0.74861503
0.91887569 0.054051578 0.702438
0.9036904 -0 0.65777504
0.88899887 -0.052294016 0.6145646
0.87478089 -0.10291539 0.57274735
0.86100715 -0.15194242 0.53223628
0.84766042 -0.19944949 0.49298114
0.83472115 -0.24550624 0.45492443
0.82217413 -0.29017913 0.41802138
1.0278451 0.1713075 0.85498786
1.009917 0.11221296 0.80518723
0.99260789 0.055144757 0.7571063
0.97587794 -0 0.71063411
0.95970243 -0.053316712 0.66570258
0.94405848 -0.10489526 0.62224692
0.92891252 -0.15481871 0.5801748
0.91424489 -0.20316552 0.53943133
0.90003324 -0.25000918 0.49995458
0.88626015 -0.29541993 0.46169597
1.0884244 0.11457106 0.86413729
1.0693846 0.056283355 0.81403232
1.0509949 -5.9604645e-08 0.76563823
1.0332268 -0.054380238 0.71888041
1.0160497 -0.10695255 0.67367721
0.99943841 -0.15780613 0.6299634
0.98335749 -0.2070227 0.58764529
0.96778595 -0.25468057 0.5466674
1.1292233 -2.9802322e-08 0.82292062
1.1097443 -0.055487216 0.77422309
1.0909306 -0.10909301 0.72718883
1.0727396 -0.16091096 0.6817112
1.0551453 -0.21102902 0.63772547
1.1894413 -0.056640029 0.83186531
1.1688596 -0.11131993 0.78286135
1.148983 -0.16414037 0.7355361
1.2283496 -0.16750214 0.79156601
