# .PCD v0.7 - Point Cloud Data file format
VERSION 0.7
FIELDS x y z
SIZE 4 4 4
TYPE F F F
COUNT 1 1 1
WIDTH 1121
HEIGHT 1
VIEWPOINT 0 0 0 1 0 0 0
POINTS 1121
DATA ascii
-1.0999682 -0.4399873 0.19979876
-1.0740138 -0.47256598 0.14788976
-1.095064 -0.36502126 0.2812458
-1.0632486 -0.39871818 0.21496379
-1.0332369 -0.43051535 0.1524391
-1.0310532 -0.47256598 0.14788976
-1.0897828 -0.28429115 0.36895543
-1.0569403 -0.32167751 0.29755861
-1.0260231 -0.35687751 0.23034719
-0.99686658 -0.39007822 0.16696352
-0.96932137 -0.42144406 0.10708261
-0.98809266 -0.47256598 0.14788976
-1.0096267 -0.52676177 0.19470309
-1.084075 -0.19710456 0.46366921
-1.0501432 -0.23866893 0.3865515
-1.0182712 -0.27771035 0.31411496
-0.98827672 -0.31445163 0.24594565
-0.95999873 -0.34909052 0.18167762
-0.93330038 -0.3818047 0.12099939
-0.92539454 -0.42063379 0.10303155
-0.94513202 -0.47256598 0.14788976
-0.96573001 -0.52676177 0.19470309
-1.1154436 -0.053116351 0.65568042
-1.0778962 -0.10265677 0.56628191
-1.0427985 -0.14897126 0.48271585
-1.0099144 -0.19236466 0.40442014
-0.97904074 -0.23310487 0.33091158
-0.94999874 -0.27142823 0.26176402
-0.92263013 -0.30754334 0.19660072
-0.89680034 -0.34163818 0.1351012
-0.87237459 -0.37387478 0.076944679
-0.88333112 -0.42063379 0.10303155
-0.92162132 -0.48275402 0.19419862
-0.92183316 -0.52676177 0.19470309
-1.1101744 0.055508703 0.77529824
-1.0711805 2.9802322e-08 0.67781335
-1.034837 -0.051741719 0.58695477
-1.0008788 -0.10008788 0.50205922
-0.96907842 -0.14536172 0.42255837
-0.93923664 -0.18784738 0.34795386
-0.91117454 -0.22779363 0.27779853
-0.88474679 -0.26542407 0.21172924
-0.85980892 -0.30093306 0.14938448
-0.83624107 -0.33449647 0.090464905
-0.82405591 -0.37082517 0.060001999
-0.8412677 -0.42063379 0.10303155
-0.88744754 -0.48809612 0.21848111
-0.87793636 -0.52676177 0.19470309
-1.1044081 0.17438027 0.90619969
-1.0638543 0.11198458 0.79947901
-1.0261776 0.054009378 0.7003299
-0.99107844 -5.9604645e-08 0.60796326
-0.95830083 -0.050436988 0.52170634
-0.92762178 -0.097644389 0.44097221
-0.89884281 -0.14192253 0.36523825
-0.87179899 -0.18353656 0.29407027
-0.84633505 -0.22271973 0.22705975
-0.82232201 -0.25968063 0.16386749
-0.79963404 -0.29460198 0.10416236
-0.77816182 -0.32764718 0.047656536
-0.78285307 -0.37082517 0.060001999
-0.8651998 -0.45536828 0.2767038
-0.85250896 -0.49355781 0.24330685
-0.84018213 -0.53064132 0.21086785
-0.85262132 -0.58337247 0.24360247
-1.0980659 0.30501845 1.0500453
-1.055831 0.23462918 0.93272609
-1.0167247 0.1694541 0.82409728
-0.98041171 0.10893464 0.72322834
-0.9466033 0.052589089 0.62931597
-0.91504508 -5.9604645e-08 0.54165429
-0.88552672 -0.04919602 0.45965865
-0.85785323 -0.095317036 0.38278794
-0.83185703 -0.13864285 0.31057617
-0.80738997 -0.17941996 0.24261226
-0.78432655 -0.21786848 0.17854716
-0.76254153 -0.25418055 0.11803336
-0.7419365 -0.2885308 0.060797073
-0.72678077 -0.32301372 0.018697694
-0.74165028 -0.37082517 0.060001999
-0.82907826 -0.46059898 0.30285734
-0.81677669 -0.49914128 0.26868641
-0.80483484 -0.5365566 0.23551466
-0.80774647 -0.58337247 0.24360247
-1.0910686 0.44926366 1.2088876
-1.0470057 0.36953121 1.0792905
-1.0063635 0.29598922 0.95975494
-0.96875876 0.22794324 0.84915262
-0.93386304 0.16479942 0.74651825
-0.90139019 0.10604596 0.65100992
-0.87110323 0.051241338 0.56193054
-0.84278548 8.9406967e-08 0.47864312
-0.81625086 -0.048014805 0.40060008
-0.79133606 -0.093098432 0.32732126
-0.76789719 -0.13551128 0.25838348
-0.7458095 -0.17548464 0.19341953
-0.72495937 -0.21322337 0.13209568
-0.70524096 -0.24890861 0.074100465
-0.68656904 -0.28270483 0.019182935
-0.68640405 -0.32301372 0.018697694
-0.70044523 -0.37082392 0.059995234
-0.79211432 -0.46594954 0.32961023
-0.78022951 -0.50485432 0.29465514
-0.76869345 -0.54260713 0.26072529
-0.76287168 -0.58337247 0.24360247
-1.0372518 0.51862597 1.2412741
-0.99495673 0.43529347 1.109102
-0.95597583 0.35849088 0.98728657
-0.91993409 0.28747928 0.87465632
-0.88650739 0.22162688 0.77019787
-0.8554284 0.16039287 0.67307591
-0.8264547 0.1033068 0.58253324
-0.79937941 0.049961179 0.49792275
-0.7740218 -0 0.41868037
-0.75022072 -0.046888784 0.34430212
-0.72784239 -0.090980262 0.27436975
-0.70676541 -0.13251851 0.20850417
-0.68687475 -0.17171872 0.14634581
-0.66807079 -0.20877211 0.087583564
-0.65027112 -0.24385163 0.031959325
-0.63339323 -0.27710959 -0.020783797
-0.64602739 -0.32301372 0.018697694
-0.76609373 -0.43092772 0.39390528
-0.75428432 -0.47142756 0.35700062
-0.74283338 -0.51069796 0.32121664
-0.73172492 -0.54879373 0.28650266
-0.72094381 -0.58576679 0.25281173
-0.73435777 -0.64256293 0.29473025
-0.9418903 0.50234151 1.1394964
-0.90464187 0.42216617 1.0153353
-0.87022352 0.34808946 0.90060741
-0.83833188 0.27944401 0.79430205
-0.80869508 0.21565199 0.69551265
-0.78108221 0.15621649 0.60346967
-0.75529277 0.10070574 0.51750475
-0.73114908 0.048743293 0.43702579
-0.70850372 -1.4901161e-08 0.36154145
-0.68721908 -0.045814507 0.29059243
-0.66718066 -0.088957444 0.22379768
-0.64827549 -0.12965508 0.16078044
-0.63041425 -0.16811043 0.10124318
-0.61350888 -0.20450291 0.044891991
-0.5974884 -0.2389954 -0.0085096955
-0.59374839 -0.27708262 -0.020976454
-0.6056506 -0.32301372 0.018697694
-0.72688985 -0.43613398 0.42282853
-0.7155515 -0.47703427 0.38503388
-0.70456398 -0.51668018 0.34840888
-0.69390625 -0.55512512 0.3128832
-0.68356621 -0.59242404 0.27841628
-0.68846041 -0.64256293 0.29473025
-0.88777155 0.5707103 1.1704749
-0.8523308 0.48704624 1.0439008
-0.81961113 0.4098056 0.92704487
-0.78931063 0.33827603 0.81882894
-0.76117069 0.27184671 0.71832907
-0.73496503 0.20998995 0.6247375
-0.71050662 0.15225153 0.53738618
-0.68762374 0.098232016 0.45566112
-0.66616869 0.047583476 0.37903613
-0.64601207 4.4703484e-08 0.3070482
-0.62704158 -0.044788726 0.23929653
-0.60915565 -0.087022275 0.175418
-0.59226173 -0.12691328 0.11508254
-0.57627767 -0.16465075 0.057996787
-0.56113553 -0.20040557 0.0039176792
-0.54676706 -0.23432872 -0.047398254
-0.55416512 -0.27708262 -0.020976454
-0.6979242 -0.39881378 0.49244851
-0.68672979 -0.4414691 0.45246869
-0.6758889 -0.48277768 0.41375098
-0.66538489 -0.52280235 0.37623683
-0.65520239 -0.56160212 0.33987081
-0.64532685 -0.5992322 0.30460107
-0.64256305 -0.64256293 0.29473025
-0.79902309 0.55316991 1.073028
-0.76806766 0.47265691 0.95396841
-0.73942125 0.39814991 0.84379041
-0.7128318 0.32899928 0.74152309
-0.68809116 0.26465046 0.6463666
-0.66501027 0.20461865 0.55759412
-0.64342755 0.14848329 0.47458363
-0.62320179 0.095877171 0.39679202
-0.6042065 0.046477422 0.32373336
-0.58634126 7.4505806e-08 0.25502101
-0.56950217 -0.043807857 0.19025518
-0.55360144 -0.085169405 0.12909842
-0.53856617 -0.12428457 0.071270704
-0.52432442 -0.16133067 0.016494617
-0.510818 -0.19646847 -0.035452962
-0.50466269 -0.23292118 -0.059127502
-0.51458031 -0.27708161 -0.020982727
-0.65622836 -0.40383273 0.52381748
-0.64557248 -0.44693476 0.4828333
-0.63525707 -0.48865941 0.44315875
-0.62526858 -0.52907336 0.4047412
-0.61558694 -0.56823421 0.36750448
-0.60620064 -0.60620064 0.33140311
-0.59709626 -0.64302677 0.2963863
-0.61057657 -0.70451128 0.34823367
-0.74468535 0.62057114 1.1027178
-0.71556723 0.53667545 0.98139226
-0.68863732 0.45909163 0.86918461
-0.66366386 0.38713723 0.76512849
-0.64043838 0.32021922 0.66835546
-0.61878347 0.25782657 0.57812679
-0.59854507 0.19951518 0.4938001
-0.57958639 0.1448966 0.41480565
-0.56179398 0.093632296 0.3406705
-0.54506534 0.045422129 0.2709679
-0.5293023 -0 0.20528838
-0.51442707 -0.042868901 0.14330851
-0.50036347 -0.083393931 0.084710091
-0.48704991 -0.12176245 0.029236957
-0.47442502 -0.15814164 -0.023366906
-0.46243948 -0.19268316 -0.07330662
-0.46584246 -0.23292118 -0.059127502
-0.6238991 -0.36394113 0.59944177
-0.61347216 -0.40898144 0.5559963
-0.60338563 -0.45253927 0.51396906
-0.59362543 -0.49468783 0.47330135
-0.58417588 -0.53549445 0.43392855
-0.57502252 -0.57502246 0.39578947
-0.56615162 -0.6133309 0.35882717
-0.55755228 -0.65047765 0.32299665
-0.56360918 -0.70451128 0.34823367
-0.66207969 0.60189062 1.0093154
-0.63694125 0.52113366 0.89504987
-0.61364192 0.44628513 0.78914374
-0.59198701 0.37671915 0.69071263
-0.57180846 0.31189537 0.59899145
-0.55295789 0.25134438 0.51330709
-0.53531265 0.19465905 0.43310148
-0.51875865 0.14147969 0.35785621
-0.5031997 0.091490909 0.28713349
-0.48854849 0.044413544 0.22053742
-0.4747248 -5.9604645e-08 0.1577021
-0.46166337 -0.041969374 0.098331988
-0.44930139 -0.081691161 0.042141344
-0.43758285 -0.1193408 -0.011124898
-0.42646134 -0.15507682 -0.061677128
-0.41894776 -0.19043078 -0.095829666
-0.42702225 -0.23292118 -0.059127502
-0.57942033 -0.3687219 0.63359094
-0.56960934 -0.41426146 0.58899575
-0.56012511 -0.45828426 0.54588544
-0.55095148 -0.50086498 0.50418735
-0.54207569 -0.54207575 0.46384266
-0.53347927 -0.58197749 0.42476803
-0.52515119 -0.6206333 0.3869133
-0.51707917 -0.65810084 0.35022229
-0.51664174 -0.70451128 0.34823367
-0.60758376 0.66834211 1.0377811
-0.58430469 0.58430469 0.92138559
-0.56274354 0.50646919 0.81358004
-0.54271472 0.4341718 0.71343559
-0.52406472 0.36684534 0.62018597
-0.50665402 0.30399242 0.5331322
-0.49036285 0.24518128 0.45167652
-0.47508678 0.19003466 0.37529615
-0.46073541 0.1382207 0.30353928
-0.44722727 0.089445464 0.23599857
-0.4344871 0.043448672 0.17229789
-0.42245415 3.7252903e-09 0.11213313
-0.41106838 -0.041106835 0.055204209
-0.40028149 -0.080056317 0.0012697838
-0.39004505 -0.11701352 -0.049912386
-0.38032025 -0.15212813 -0.098536387
-0.38086161 -0.19043078 -0.095829666
-0.38819844 -0.23291902 -0.059145436
-0.53375512 -0.37362868 0.66863799
-0.5246014 -0.41968095 0.62286896
-0.51575416 -0.46417865 0.57863307
-0.50720042 -0.5072003 0.53586441
-0.49892581 -0.54881829 0.49449122
-0.49091682 -0.58910024 0.45444638
-0.4831627 -0.62811136 0.41567588
-0.47564802 -0.66590726 0.37810242
-0.46966556 -0.70449829 0.34819001
-0.55204713 0.73606288 1.0667908
-0.53070164 0.64863533 0.94820482
-0.51094317 0.56771445 0.83843523
-0.49260524 0.49260524 0.73655796
-0.47553799 0.42270052 0.64174002
-0.4596138 0.35747734 0.55327219
-0.44472155 0.29648101 0.47053754
-0.43076247 0.2393125 0.39298701
-0.41765758 0.18562561 0.32018226
-0.40532511 0.13510844 0.25166848
-0.39370143 0.087489225 0.18709238
-0.38272452 0.042524952 0.12610973
-0.37234434 5.9604645e-08 0.068442054
-0.36251238 -0.040279198 0.013819913
-0.35318515 -0.078485563 -0.037997968
-0.34432691 -0.11477564 -0.087210417
-0.33641326 -0.14951701 -0.13117522
-0.34277546 -0.19043078 -0.095829666
-0.49562082 -0.33041376 0.75331116
-0.48685822 -0.37866759 0.70463032
-0.47839808 -0.42524272 0.65762943
-0.47022501 -0.4702251 0.61222345
-0.46232834 -0.5136981 0.56835318
-0.45469075 -0.55573308 0.52592194
-0.44730136 -0.59640169 0.48486987
-0.44014832 -0.63576984 0.4451308
-0.43322048 -0.67389846 0.40664262
-0.4265089 -0.71084803 0.36935622
-0.43279895 -0.76942021 0.40430075
-0.47610316 0.71415472 0.97550702
-0.4582215 0.63005459 0.86374676
-0.44163442 0.55204302 0.76007748
-0.42620626 0.47948205 0.66365141
-0.41181967 0.41181964 0.57373524
-0.39837101 0.3485747 0.48968121
-0.38577443 0.28933078 0.41095251
-0.37395146 0.23371959 0.33705872
-0.3628329 0.18141648 0.26756778
-0.35235643 0.1321336 0.20208979
-0.3424668 0.085616738 0.1402798
-0.33311826 0.041639816 0.081851505
-0.32426551 -3.3527613e-08 0.026521794
-0.3158721 -0.039484002 -0.025937021
-0.30790132 -0.076975301 -0.075754441
-0.30032378 -0.11262151 -0.12311408
-0.299034 -0.14951701 -0.13117522
-0.30468652 -0.19042917 -0.095846966
-0.44668245 -0.33501172 0.79162776
-0.43867719 -0.38384253 0.74159467
-0.43095562 -0.43095571 0.69333506
-0.42349586 -0.47643274 0.64671123
-0.41628996 -0.5203625 0.60167444
-0.40932515 -0.56282204 0.55814451
-0.40258959 -0.60388434 0.51604712
-0.39607364 -0.64361948 0.47532251
-0.38976377 -0.68208659 0.43588579
-0.38365176 -0.71934706 0.39768586
-0.38471016 -0.76942021 0.40430075
-0.42048603 0.78090274 1.003334
-0.40455118 0.69351625 0.88951349
-0.38977996 0.6125114 0.78400493
-0.37604943 0.53721344 0.68592948
-0.36325181 0.46703801 0.59451801
-0.351298 0.40148333 0.50913352
-0.34010583 0.34010592 0.42918983
-0.32960609 0.28251937 0.35419118
-0.31973633 0.22838323 0.28369328
-0.31043938 0.17739394 0.21728648
-0.30166888 0.12928669 0.15464
-0.29337934 0.08382269 0.095428914
-0.28553411 0.04079064 0.039391506
-0.27809665 5.1222742e-08 -0.013733119
-0.27103764 -0.038719747 -0.06415464
-0.26432812 -0.075522333 -0.11207969
-0.25794202 -0.11054662 -0.15769482
-0.26165473 -0.14951701 -0.13117522
-0.40383634 -0.28845456 0.88440764
-0.39636284 -0.33973953 0.83102554
-0.38916096 -0.38916099 0.77958345
-0.38221613 -0.43681848 0.72997737
-0.37551478 -0.48280478 0.68211079
-0.36904287 -0.52720416 0.63588262
-0.36278874 -0.57009661 0.59121037
-0.35674307 -0.61155951 0.54802686
-0.35089555 -0.65166312 0.50625914
-0.34523666 -0.69047332 0.46583858
-0.33975872 -0.72805446 0.42671046
-0.336615 -0.76940572 0.40425509
-0.3499063 0.75813025 0.91574818
-0.33701712 0.67403406 0.80833793
-0.32504514 0.59591603 0.70857155
-0.31389454 0.52315772 0.61565024
-0.30348364 0.45522553 0.52889246
-0.29374114 0.39165476 0.44770494
-0.28460574 0.33203989 0.37157682
-0.27602148 0.27602151 0.3000412
-0.26794079 0.22328398 0.2327024
-0.26031893 0.17354597 0.16918673
-0.25311953 0.12655973 0.10919166
-0.24630763 0.082102612 0.052425794
-0.239852 0.039975371 -0.0013711601
-0.23372684 2.7939677e-08 -0.052414075
-0.22790605 -0.037984371 -0.10092068
-0.22236879 -0.074122936 -0.14706448
-0.22018926 -0.11009464 -0.16522735
-0.22427416 -0.14951611 -0.1311864
-0.35119501 -0.29266253 0.92648757
-0.3446027 -0.34460273 0.87155151
-0.33825329 -0.394629 0.81863981
-0.33213365 -0.44284493 0.76764268
-0.32623291 -0.48934934 0.71846974
-0.32053545 -0.5342257 0.67099094
-0.31503227 -0.57755911 0.62513113
-0.30971614 -0.61943221 0.58083004
-0.3045752 -0.65991306 0.53798914
-0.29960218 -0.69907188 0.4965471
-0.29478893 -0.73697221 0.45643657
-0.29012787 -0.77367443 0.41759461
-0.2955898 -0.83750451 0.46311057
-0.29425874 0.82392454 0.94244981
-0.28332511 0.73664534 0.83311319
-0.27317485 0.65561968 0.73161072
-0.26372671 0.58019876 0.63712919
-0.25491026 0.50982046 0.54896492
-0.24666327 0.44399375 0.46649489
-0.23893499 0.38229609 0.38921234
-0.23167711 0.32434803 0.31663355
-0.22484718 0.26981664 0.2483339
-0.21840765 0.21840756 0.18393879
-0.21232741 0.169862 0.1231365
-0.20657587 0.12394562 0.065620989
-0.20112835 0.080451325 0.011145655
-0.19596013 0.039192073 -0.040536378
-0.19105147 5.9604645e-08 -0.089623079
-0.1863827 -0.037276525 -0.13631082
-0.18193614 -0.07277444 -0.18077633
-0.18349105 -0.11009464 -0.16522735
-0.18689293 -0.14951423 -0.13120848
-0.29299182 -0.29299191 0.92978066
-0.29133919 -0.34960702 0.91325402
-0.28589469 -0.40025258 0.85880929
-0.28064996 -0.44903979 0.80636173
-0.27559537 -0.49607176 0.7558161
-0.27071849 -0.54143685 0.7070471
-0.26601011 -0.58522218 0.65996313
-0.26146159 -0.62750769 0.61447793
-0.25706598 -0.66837156 0.57052219
-0.25281575 -0.70788407 0.52801991
-0.24870476 -0.74611425 0.48690993
-0.24472436 -0.78311807 0.44710606
-0.24632484 -0.83750451 0.46311057
-0.22867736 0.80037081 0.85832936
-0.22041461 0.7163474 0.75504482
-0.21272814 0.63818431 0.65896404
-0.20555888 0.56528682 0.5693481
-0.19885786 0.49714476 0.48558563
-0.19258069 0.43330646 0.4071207
-0.18668836 0.37337679 0.33346692
-0.18114525 0.31700414 0.26417786
-0.17592244 0.26388362 0.19889282
-0.17099178 0.21373975 0.13725945
-0.16633052 0.16633052 0.078993857
-0.16191664 0.12143748 0.023820404
-0.15773049 0.078865185 -0.028506612
-0.1537558 0.038438894 -0.078190237
-0.14997606 5.5879354e-08 -0.12543704
-0.14637811 -0.036594413 -0.17041141
-0.14416575 -0.072082877 -0.19806582
-0.14679198 -0.11009403 -0.16523795
-0.23004335 -0.23004335 0.875404
-0.23439345 -0.29299191 0.92978066
-0.2365059 -0.35475877 0.95618606
-0.23202223 -0.40603891 0.90014017
-0.22770537 -0.45541084 0.8461796
-0.22354725 -0.50298131 0.79420274
-0.21953727 -0.5488432 0.74407816
-0.21566863 -0.59308869 0.69572031
-0.21193309 -0.63579941 0.64902592
-0.20832388 -0.67705268 0.60391086
-0.20483555 -0.71692431 0.56030655
-0.20146212 -0.75548303 0.51813883
-0.19819799 -0.79279196 0.47733718
-0.19705603 -0.83748811 0.46306241
-0.17304817 0.86524081 0.88399822
-0.16674134 0.77812636 0.77888465
-0.16087738 0.69713533 0.68115211
-0.1554125 0.62164998 0.59007049
-0.1503067 0.55112445 0.50497371
-0.14552626 0.48508763 0.42529991
-0.14104053 0.42312145 0.35053772
-0.13682356 0.36486277 0.28025511
-0.13285099 0.30998567 0.21404532
-0.129103 0.25820592 0.15157917
-0.12556072 0.20926787 0.092540771
-0.12220721 0.16294292 0.036649182
-0.11902856 0.11902865 -0.016328409
-0.11601072 0.077340432 -0.066625871
-0.11314246 0.03771412 -0.11443014
-0.11041228 2.2351742e-08 -0.15993297
-0.10781107 -0.035937026 -0.20328665
-0.10812432 -0.072082877 -0.19806582
-0.11009271 -0.11009263 -0.16525932
-0.17253251 -0.23004335 0.875404
-0.17579508 -0.29299191 0.92978066
-0.1791843 -0.35836864 0.98626715
-0.17656927 -0.41199496 0.94268346
-0.17323688 -0.46196499 0.88714349
-0.17002793 -0.51008379 0.83366114
-0.16693644 -0.55645478 0.7821362
-0.16395466 -0.60116714 0.73243988
-0.16107751 -0.64431012 0.68448764
-0.1582983 -0.68595916 0.63816714
-0.15561336 -0.72619563 0.59341812
-0.15301858 -0.76509285 0.55017197
-0.15050833 -0.80271107 0.5083344
-0.14807911 -0.83911502 0.46784759
-0.11641027 0.93128204 0.91011906
-0.11213063 0.84097975 0.80312818
-0.10815451 0.75708145 0.7037248
-0.10445071 0.67892969 0.61113006
-0.10099219 0.60595316 0.52466691
-0.097755358 0.53765452 0.44374621
-0.094720282 0.47360143 0.36786932
-0.091867991 0.4134059 0.29656199
-0.089182146 0.35672855 0.22941594
-0.086649187 0.3032721 0.16609189
-0.084255852 0.25276756 0.10625842
-0.081991442 0.20497864 0.049648188
-0.079845309 0.1596906 -0.004005149
-0.077808894 0.11671333 -0.054915387
-0.075873785 0.075873755 -0.10329315
-0.074032366 0.037016086 -0.14932866
-0.072278418 4.4703484e-08 -0.19317722
-0.070815727 -0.035407856 -0.22974464
-0.07208246 -0.072082452 -0.19807611
-0.11292638 -0.16938958 0.82302189
-0.1150222 -0.23004431 0.87541711
-0.11719728 -0.29299322 0.92979407
-0.11945619 -0.35836864 0.98626715
-0.11946525 -0.41812837 0.98649371
-0.11717767 -0.46871072 0.92930365
-0.11497603 -0.51739216 0.87426305
-0.1128561 -0.56428051 0.82126474
-0.11081246 -0.6094684 0.77017355
-0.1088415 -0.65304899 0.72089982
-0.10693944 -0.69510645 0.67334837
-0.10510183 -0.73571283 0.62740809
-0.10332631 -0.77494746 0.58302027
-0.10160979 -0.81287819 0.54010701
-0.099949367 -0.84956968 0.49859649
-0.10100029 -0.90900242 0.52486914
-0.056558974 0.90494365 0.82781112
-0.05453638 0.81804579 0.72668135
-0.052653447 0.73714817 0.63253468
-0.050895993 0.66164786 0.54466182
-0.04925245 0.59102935 0.46248484
-0.04771192 0.52483106 0.3854582
-0.046264667 0.46264666 0.31309545
-0.044902783 0.40412503 0.24500149
-0.043618638 0.34894913 0.18079413
-0.042406041 0.29684237 0.1201643
-0.041259043 0.2475543 0.062814415
-0.040172327 0.20086163 0.0084787533
-0.039141513 0.15656601 -0.043061987
-0.038162161 0.11448651 -0.092029728
-0.03723073 0.074461505 -0.1386012
-0.036343578 0.036343589 -0.18295893
-0.035497818 1.4901161e-08 -0.2252467
-0.035407864 -0.035407856 -0.22974464
-0.036040924 -0.072081916 -0.19809154
-0.056463189 -0.16938958 0.82302189
-0.057511099 -0.23004431 0.87541711
-0.058598638 -0.29299322 0.92979407
-0.059728097 -0.35836864 0.98626715
-0.060635313 -0.42444694 1.0316278
-0.059457026 -0.47565618 0.97271335
-0.058323659 -0.52491289 0.91604507
-0.05723295 -0.5723294 0.86150956
-0.056182034 -0.61800236 0.80896413
-0.055169024 -0.66202825 0.75831342
-0.054191891 -0.70449448 0.70945668
-0.053248547 -0.74547958 0.66228962
-0.052337483 -0.78506219 0.61673635
-0.051456861 -0.8233099 0.57270539
-0.050605383 -0.86029148 0.53013134
-0.050499126 -0.90898418 0.52481872
0 0.97004396 0.85293245
0 0.880054 0.75003058
0 0.7963258 0.65428185
0 0.71823478 0.56498653
0 0.6452291 0.48151302
0 0.57682544 0.40330133
0 0.51260328 0.32987723
0 0.45218718 0.26079822
0 0.39525169 0.19570497
0 0.3415029 0.13425507
0 0.29067943 0.076143913
0 0.24255089 0.021119662
0 0.19690672 -0.031069614
0 0.15356097 -0.080625728
0 0.11234304 -0.12775441
0 0.073100694 -0.17261896
0 0.035695069 -0.21538365
0 -5.9604645e-08 -0.25619763
0 -0.035407558 -0.22975451
0 -0.11090565 0.77250183
0 -0.16938958 0.82302189
0 -0.23004431 0.87541711
0 -0.29299322 0.92979407
0 -0.35836864 0.98626715
0 -0.42631367 1.0449599
0 -0.48281088 1.0174291
0 -0.53265548 0.95905977
0 -0.58061129 0.90291929
0 -0.62677872 0.84885621
0 -0.67125797 0.79677016
0 -0.71413988 0.74655432
0 -0.7555126 0.69812137
0 -0.79544139 0.65133321
0 -0.83400899 0.60614032
0 -0.87128747 0.56247246
0 -0.90896237 0.52475792
0.055478174 0.943129 0.77377117
0.053530812 0.856493 0.67640281
0.051715523 0.77573276 0.58563834
0.050019309 0.70027047 0.50082779
0.048431203 0.62960559 0.42142254
0.046940841 0.56328994 0.34690422
0.045539301 0.50093228 0.27682728
0.044219177 0.44219172 0.21082126
0.042973295 0.3867597 0.1485271
0.041795831 0.33436668 0.08965376
0.040681038 0.28476721 0.033914149
0.039624292 0.23774575 -0.018923052
0.038621061 0.1931054 -0.069084682
0.03766726 0.15066902 -0.11677463
0.036759544 0.11027864 -0.16216062
0.035894442 0.071788855 -0.20541558
0.035069223 0.035069197 -0.24667665
0.034796081 -2.9802322e-08 -0.26033372
0.035407364 -0.03540729 -0.22976953
0.05545279 -0.11090565 0.77250183
0.056463189 -0.16938958 0.82302189
0.057511099 -0.23004431 0.87541711
0.058598638 -0.29299322 0.92979407
0.059728097 -0.35836864 0.98626715
0.060901955 -0.42631367 1.0449599
0.061272964 -0.49018368 1.0635103
0.060070008 -0.54063022 1.0033627
0.05891338 -0.58913386 0.94553107
0.057800714 -0.63580793 0.88989794
0.056729041 -0.6807484 0.83631426
0.055696387 -0.72405303 0.78468156
0.054700654 -0.76580918 0.73489493
0.053740129 -0.80610192 0.68686861
0.052812092 -0.84499347 0.64046669
0.05191556 -0.88256437 0.59564018
0.051048961 -0.91888136 0.55231041
0.051798843 -0.98417801 0.58980447
0.11192302 1.0073071 0.79793745
0.10796133 0.9176712 0.69889551
0.10427053 0.8341642 0.60662556
0.10082373 0.75617814 0.52045566
0.097598277 0.68318778 0.43981904
0.094572432 0.61472082 0.36417329
0.091728911 0.55037355 0.2930851
0.089051075 0.48978093 0.22613914
0.086525448 0.43262726 0.16299832
0.084139131 0.37862605 0.10334054
0.081880637 0.32752252 0.046878159
0.079740472 0.27909163 -0.0066257566
0.077709109 0.23312737 -0.057410091
0.075778887 0.1894473 -0.10566552
0.073942021 0.14788407 -0.15158728
0.072192296 0.10828833 -0.19533023
0.070523471 0.0705235 -0.2370508
0.068929873 0.034464896 -0.27689099
0.069591969 -0 -0.2603386
0.070814133 -0.035407044 -0.22978438
0.11090558 -0.11090565 0.77250183
0.11292638 -0.16938958 0.82302189
0.1150222 -0.23004431 0.87541711
0.11719728 -0.29299322 0.92979407
0.11945619 -0.35836864 0.98626715
0.12180391 -0.42631367 1.0449599
0.12424575 -0.49698302 1.1060061
0.12196599 -0.54884696 1.0490121
0.11958258 -0.59791291 0.98942667
0.11729107 -0.64510095 0.9321391
0.11508521 -0.69051135 0.87699282
0.1129608 -0.73424512 0.8238821
0.11091339 -0.77639371 0.77269691
0.10893935 -0.81704521 0.72334605
0.10703344 -0.85626757 0.67569828
0.10519307 -0.89414108 0.62968898
0.10341449 -0.93073052 0.58522475
0.10359556 -0.9841578 0.58975112
0.16331443 0.97988659 0.72176963
0.15768497 0.89354813 0.62794507
0.15243189 0.81297016 0.54039395
0.14751753 0.73758775 0.45848781
0.14291069 0.66691655 0.38170704
0.13858287 0.60052562 0.30957669
0.13450898 0.53803599 0.24167873
0.13066822 0.47911686 0.17766625
0.1270403 0.42346781 0.11720063
0.12360879 0.37082636 0.060008585
0.12035739 0.32095295 0.0058187991
0.11727303 0.273637 -0.045587242
0.11434244 0.22868496 -0.094430216
0.1115551 0.18592519 -0.1408862
0.10890041 0.14520051 -0.18513098
0.10636882 0.1063688 -0.22732383
0.10395256 0.069301717 -0.26759505
0.10261551 0.034205198 -0.28987896
0.10438708 4.4703484e-08 -0.26035297
0.16343375 -0.054477811 0.72375798
0.16635837 -0.11090565 0.77250183
0.16938958 -0.16938958 0.82302189
0.17253329 -0.23004431 0.87541711
0.17579591 -0.29299322 0.92979407
0.1791843 -0.35836864 0.98626715
0.18270586 -0.42631367 1.0449599
0.18636863 -0.49698302 1.1060061
0.18577249 -0.55731738 1.0960705
0.18208729 -0.60695744 1.0346502
0.17854628 -0.6546697 0.97563362
0.17513956 -0.70055813 0.91885483
0.1718604 -0.74472845 0.86420238
0.16870178 -0.7872749 0.81155866
0.16565791 -0.82828957 0.76082742
0.16272122 -0.86784643 0.71188247
0.15988615 -0.90602154 0.66463161
0.15714753 -0.94288522 0.61898798
0.1553895 -0.98413354 0.58968735
0.21961282 1.0431609 0.74502271
0.21198121 0.9539153 0.64962733
0.20486301 0.87066787 0.56065017
0.19820733 0.79282933 0.47745407
0.19197126 0.71989226 0.39950299
0.18611492 0.65140224 0.32629871
0.18060596 0.58696926 0.25743675
0.17541313 0.52623945 0.19252656
0.17051117 0.46890572 0.13125186
0.16587517 0.41468781 0.073301852
0.16148512 0.36334148 0.018426165
0.15732144 0.31464288 -0.033619776
0.15336661 0.26839155 -0.083055221
0.14960618 0.22440922 -0.13006043
0.14602533 0.18253171 -0.17482111
0.14261229 0.14261225 -0.21748412
0.13935477 0.10451607 -0.25820318
0.1362431 0.068121575 -0.29709888
0.13682032 0.034205109 -0.28988364
0.13918163 -7.4505806e-08 -0.26036733
0.21791166 -0.054477811 0.72375798
0.22181116 -0.11090565 0.77250183
0.22585276 -0.16938958 0.82302189
0.23004439 -0.23004431 0.87541711
0.23439455 -0.29299322 0.92979407
0.23891239 -0.35836864 0.98626715
0.24360782 -0.42631367 1.0449599
0.2484915 -0.49698302 1.1060061
0.25157937 -0.56605351 1.1446044
0.24651207 -0.61628008 1.0812632
0.24164602 -0.66452658 1.0204376
0.23696727 -0.71090174 0.96195322
0.23246627 -0.75551522 0.90569031
0.22813302 -0.79846555 0.85152525
0.22395939 -0.83984768 0.79935467
0.21993476 -0.87973899 0.7490468
0.21605222 -0.91822183 0.70051491
0.21230349 -0.95536572 0.65365601
0.20868176 -0.99123853 0.60838443
0.21266444 -1.0633222 0.65816754
0.26718083 1.0152872 0.6716705
0.25813591 0.92928922 0.58122134
0.24968529 0.84893012 0.4967154
0.24176952 0.77366239 0.41755754
0.23434111 0.70302331 0.34327334
0.22735475 0.63659334 0.27340966
0.22077365 0.57401139 0.20759879
0.21456285 0.51495075 0.14549071
0.20869122 0.45912063 0.086774558
0.20313306 0.40626612 0.031193018
0.19786268 0.35615283 -0.021510959
0.19285944 0.30857512 -0.071543351
0.18810244 0.26334339 -0.11911339
0.18357497 0.22028996 -0.16438799
0.17926033 0.17926025 -0.20753431
0.17514338 0.14011475 -0.24870397
0.17121173 0.10272709 -0.28802028
0.16816954 0.067267895 -0.31844223
0.17102401 0.034204811 -0.28989768
0.26768476 -1.1920929e-07 0.67670977
0.27239075 -0.054478168 0.72376966
0.27726516 -0.11090621 0.77251387
0.28231722 -0.16939026 0.82303441
0.2875568 -0.23004544 0.87543035
0.29299453 -0.29299438 0.92980766
0.29864192 -0.35837033 0.98628122
0.30451125 -0.42631575 1.0449747
0.3106159 -0.49698547 1.1060212
0.31697035 -0.57054675 1.1695658
0.31294683 -0.62589359 1.1293303
0.30667347 -0.6746816 1.0665967
0.30064809 -0.72155541 1.0063432
0.29485357 -0.76661921 0.94839793
0.28927818 -0.80997884 0.89264417
0.28390974 -0.85172915 0.83895963
0.27873814 -0.89196217 0.78724384
0.27375042 -0.93075138 0.73736632
0.26893803 -0.96817696 0.68924254
0.26429081 -1.0043051 0.64277029
0.26582491 -1.0632998 0.65811169
0.32330653 1.0776885 0.69408351
0.31227291 0.98886406 0.60213637
0.30196869 0.90590614 0.51626825
0.29232395 0.82825112 0.4358952
0.28327623 0.75540328 0.36049753
0.27477074 0.68692696 0.28961861
0.26676211 0.62244487 0.22287987
0.25920618 0.56161332 0.15991384
0.25206733 0.50413465 0.10042353
0.2453104 0.44973576 0.044115692
0.23890701 0.39817834 -0.0092458427
0.23282944 0.34924424 -0.059892446
0.22705269 0.30273691 -0.10803192
0.22155634 0.25848237 -0.15383491
0.21631916 0.21631911 -0.19747803
0.21132445 0.17610371 -0.23910064
0.20655464 0.137703 -0.27884907
0.20199591 0.10099795 -0.31683832
0.20180346 0.067267895 -0.31844223
0.20522659 0.034204394 -0.28991622
0.32122174 -1.1920929e-07 0.67670977
0.32686892 -0.054478168 0.72376966
0.33271819 -0.11090621 0.77251387
0.33878067 -0.16939026 0.82303441
0.34506816 -0.23004544 0.87543035
0.35159343 -0.29299438 0.92980766
0.35837027 -0.35837033 0.98628122
0.36541349 -0.42631575 1.0449747
0.37273911 -0.49698547 1.1060212
0.38036445 -0.57054675 1.1695658
0.38148701 -0.63581163 1.1789207
0.37372097 -0.68515527 1.1142039
0.36626661 -0.7325331 1.052084
0.3591021 -0.77805442 0.99237967
0.35221249 -0.82182908 0.93496639
0.34558228 -0.8639555 0.87971455
0.33919859 -0.90452963 0.82651728
0.33304501 -0.94362742 0.7752372
0.32711071 -0.98133224 0.72578478
0.32138416 -1.0177165 0.67806381
0.31898183 -1.0632726 0.65804422
0.38038021 1.1411407 0.71686399
0.36729282 1.049408 0.62338221
0.35507891 0.96378565 0.53614014
0.34365112 0.88367426 0.45451313
0.33293477 0.80855584 0.37796772
0.32286772 0.73798329 0.30606025
0.31339049 0.67155099 0.23836565
0.30445483 0.60890967 0.17453957
0.29601458 0.54974139 0.11425225
0.28802878 0.49376363 0.057210714
0.2804634 0.44072819 0.0031722486
0.27328444 0.39040631 -0.04810603
0.26646462 0.34259742 -0.096818998
0.25997612 0.29711556 -0.14316539
0.25379685 0.25379688 -0.18730311
0.24790379 0.21248901 -0.22939637
0.24227887 0.17305639 -0.26957434
0.23690352 0.13537338 -0.30796963
0.23176093 0.099326089 -0.34470254
0.23543485 0.067267105 -0.31846014
0.23942907 0.034204155 -0.28993019
0.37475866 -1.1920929e-07 0.67670977
0.38134706 -0.054478168 0.72376966
0.38817126 -0.11090621 0.77251387
0.39524412 -0.16939026 0.82303441
0.40257955 -0.23004544 0.87543035
0.41019237 -0.29299438 0.92980766
0.41809866 -0.35837033 0.98628122
0.42197841 -0.42197832 1.0139937
0.42197639 -0.48225871 1.0139793
0.42197639 -0.54254109 1.0139793
0.42197439 -0.60282046 1.0139651
0.42197439 -0.66310251 1.0139651
0.42197236 -0.72338116 1.0139505
0.42197236 -0.78366297 1.0139506
0.41701561 -0.83403122 0.97854543
0.40905118 -0.87653822 0.92165649
0.4013871 -0.91745615 0.86691296
0.39400318 -0.95686483 0.81417066
0.38688597 -0.99484956 0.76333356
0.38002139 -1.0314866 0.71430081
0.37339613 -1.0668461 0.66697752
0.42322031 1.1109535 0.64498937
0.40903452 1.0225862 0.55632806
0.39576736 0.93994737 0.47340816
0.38333523 0.86250424 0.39570755
0.37165904 0.78977549 0.32273132
0.36067438 0.72134864 0.25407699
0.3503204 0.6568507 0.18936475
0.34054318 0.59595048 0.12825696
0.33129793 0.53835917 0.070474416
0.3225404 0.48381054 0.015739754
0.31423494 0.43207309 -0.03616938
0.30634552 0.38293186 -0.085478246
0.29884344 0.3361989 -0.13236627
0.29170001 0.29169995 -0.17701274
0.28488931 0.24927814 -0.21957953
0.27839017 0.20879266 -0.26019919
0.2721802 0.17011265 -0.29901147
0.26624194 0.13312089 -0.33612561
0.26465133 0.099244252 -0.34606692
0.26906624 0.067266569 -0.31847352
0.42102179 0.052627653 0.63124824
0.42672759 -2.9802322e-08 0.66690969
0.42672759 -0.053340971 0.66690969
0.42672759 -0.10668191 0.66690969
0.42672578 -0.16002217 0.66689849
0.42672578 -0.21336295 0.66689831
0.42672399 -0.26670247 0.66688716
0.42672399 -0.32004309 0.66688722
0.42672217 -0.37338191 0.66687584
0.42672217 -0.42672223 0.66687596
0.42672217 -0.48006228 0.66687578
0.42672038 -0.53340042 0.66686457
0.42672038 -0.58674055 0.66686463
0.42671856 -0.64007789 0.66685337
0.42671856 -0.69341773 0.66685337
0.42671674 -0.74675429 0.66684186
0.42671674 -0.80009395 0.66684204
0.42671496 -0.85342973 0.66683066
0.42671496 -0.90676928 0.66683072
0.42671314 -0.96010464 0.66681945
0.42671314 -1.0134436 0.66681933
0.42671314 -1.0667828 0.66681945
0.43685058 -1.1467326 0.73017836
0.48007667 1.1735208 0.66695487
0.46385416 1.0823264 0.57682979
0.44869393 0.99709761 0.49260628
0.43449333 0.91726375 0.41371402
0.42116243 0.84232503 0.33965367
0.40862671 0.77185035 0.27001059
0.39681423 0.70544744 0.20438567
0.38566685 0.64277804 0.14245585
0.3751274 0.58353144 0.083903342
0.36514986 0.52743864 0.028472587
0.35568935 0.47425243 -0.024085954
0.34670556 0.42375129 -0.073995665
0.33816546 0.37573931 -0.12144083
0.330035 0.33003491 -0.16661003
0.3222872 0.28647745 -0.20965324
0.31489396 0.24491757 -0.2507267
0.30783319 0.20522214 -0.28995332
0.3010821 0.1672678 -0.32745937
0.29462001 0.13094226 -0.36335987
0.29773042 0.099243432 -0.34607992
0.30269712 0.067266047 -0.31848711
0.43049431 0.047832757 0.39149743
0.4304927 -5.9604645e-08 0.3914884
0.4304927 -0.047832534 0.39148831
0.43049106 -0.095664695 0.39147934
0.43049106 -0.14349699 0.39147928
0.43049106 -0.1913293 0.39147925
0.43049106 -0.23916171 0.39147928
0.43049106 -0.28699392 0.39147931
0.43049106 -0.33482632 0.39147934
0.43049106 -0.38265863 0.39147928
0.43049106 -0.43049103 0.39147928
0.43049106 -0.4783234 0.39147916
0.4304927 -0.52615774 0.39148825
0.4304927 -0.57399023 0.39148837
0.4304927 -0.6218226 0.39148822
0.4304927 -0.66965532 0.39148837
0.4304927 -0.71748793 0.39148837
0.43277088 -0.7693702 0.40414479
0.44335696 -0.83745193 0.46295649
0.45447758 -0.9089551 0.52473783
0.46617043 -0.98413759 0.58969796
0.47848284 -1.0632951 0.65810031
0.49146116 -1.1467427 0.73020214
0.5024485 1.0551418 0.51210475
0.48642433 0.97284859 0.43198392
0.47139242 0.8956455 0.35682431
0.45726007 0.82306802 0.28616244
0.44395196 0.7547183 0.21962222
0.43139514 0.69023222 0.156838
0.41953048 0.62929571 0.0975146
0.408301 0.5716213 0.041367143
0.39765573 0.51695246 -0.011859149
0.38755265 0.46506321 -0.062374532
0.37794906 0.41574395 -0.11039241
0.36881101 0.36881107 -0.15608262
0.36010441 0.32409394 -0.19961563
0.35179842 0.2814388 -0.24114554
0.3438679 0.24070753 -0.28079814
0.33628616 0.20177168 -0.31870699
0.32903239 0.16451618 -0.35497576
0.32546863 0.13018748 -0.37279451
0.33080897 0.099242702 -0.346093
0.43356338 0.086712651 0.16767925
0.43356338 0.043356284 0.16767916
0.43356338 -8.1956387e-08 0.16767924
0.43356338 -0.043356366 0.16767925
0.43356338 -0.086712733 0.16767916
0.43356338 -0.13006902 0.16767916
0.43356338 -0.17342538 0.16767922
0.43356338 -0.21678166 0.16767924
0.43356338 -0.26013795 0.16767922
0.43356487 -0.30349538 0.16768667
0.43356487 -0.34685183 0.16768666
0.43356487 -0.39020842 0.16768663
0.43356487 -0.4335649 0.16768664
0.43356487 -0.47692135 0.16768661
0.43894067 -0.52672881 0.19456556
0.44872087 -0.58333713 0.24346663
0.45894685 -0.64252573 0.29459661
0.46965331 -0.70447993 0.3481288
0.48087302 -0.7693969 0.40422747
0.49264005 -0.83748811 0.46306241
0.50499737 -0.90899527 0.52484894
0.50659227 0.87502307 0.30255452
0.4917458 0.8046751 0.23507065
0.47774312 0.73833025 0.17142195
0.46451741 0.67566168 0.11130497
0.45200273 0.61636734 0.054420203
0.44014609 0.56018591 0.00052630901
0.42889559 0.50687653 -0.05061236
0.41820464 0.45622319 -0.099207625
0.40803489 0.40803489 -0.14543366
0.39834687 0.3621335 -0.18947011
0.38910934 0.31836215 -0.23145899
0.38028947 0.27657419 -0.27154922
0.37186158 0.23663922 -0.30985782
0.36379817 0.19843531 -0.34650972
0.35607797 0.16185357 -0.38160157
0.35801274 0.13018648 -0.3728072
0.36388698 0.099241972 -0.34610605
0.43610993 0.079292729 -0.01781987
0.43610993 0.039646372 -0.017819941
0.43610993 -7.3574483e-08 -0.017819934
0.43610993 -0.039646354 -0.017819911
0.43610993 -0.079292804 -0.017819904
0.43610993 -0.11893908 -0.017819878
0.43610993 -0.15858535 -0.017819859
0.4361113 -0.19823244 -0.017813638
0.4361113 -0.23787889 -0.017813638
0.4361113 -0.27752531 -0.017813623
0.44412106 -0.32299715 0.018594265
0.45320702 -0.37080565 0.059894145
0.46267256 -0.42061132 0.1029193
0.47254351 -0.47254348 0.14778718
0.4828465 -0.52674156 0.19461904
0.4936088 -0.58335584 0.24353851
0.50486177 -0.6425513 0.29468852
0.51009798 0.72263885 0.12527055
0.49626854 0.66169143 0.067647964
0.48316914 0.60396147 0.013067096
0.47074205 0.54919904 -0.038712487
0.45893955 0.49718451 -0.087889493
0.44771311 0.44771311 -0.13466652
0.43702403 0.40060538 -0.1792043
0.42683223 0.35569352 -0.22167011
0.41710615 0.31282955 -0.26219544
0.4078134 0.27187559 -0.30091521
0.39892468 0.23270608 -0.33795157
0.39041615 0.19520801 -0.37340379
0.38435173 0.16014655 -0.39867219
0.39055631 0.13018546 -0.37281972
0.43825501 0.10956377 -0.17407523
0.43825501 0.073042445 -0.17407534
0.43825501 0.036521286 -0.17407525
0.43825501 2.9802322e-08 -0.17407528
0.43825626 -0.036521353 -0.17406997
0.43825626 -0.073042765 -0.17407
0.44035926 -0.11008984 -0.16530737
0.44853237 -0.14951079 -0.13125286
0.45701459 -0.19042271 -0.095910303
0.4658238 -0.23291184 -0.059205174
0.47497928 -0.27707118 -0.021057352
0.48450345 -0.32300222 0.01862669
0.49441898 -0.37081426 0.059941277
0.50474888 -0.42062402 0.10298249
0.51310414 0.5920431 -0.026660502
0.50016093 0.53863484 -0.076441839
0.48785612 0.48785609 -0.12376799
0.47614089 0.43951458 -0.16882679
0.46497637 0.3934415 -0.21176723
0.45432344 0.34947959 -0.25273991
0.44414648 0.30748603 -0.29188198
0.43441665 0.2673333 -0.32930443
0.42510286 0.22890159 -0.36512667
0.41618115 0.1920836 -0.39944106
0.41637787 0.16014534 -0.39868435
0.42309937 0.13018438 -0.37283248
0.4400878 0.10155863 -0.30749235
0.4400878 0.067705818 -0.30749238
0.44465038 0.034203902 -0.28994399
0.45233408 -1.4901161e-08 -0.26039135
0.46028671 -0.03540659 -0.22980431
0.46852398 -0.072080567 -0.19812246
0.47706142 -0.11009115 -0.16528609
0.48591584 -0.1495126 -0.13123068
0.49510658 -0.1904256 -0.095881522
0.50465333 -0.23291695 -0.059163451
0.51457542 -0.27707911 -0.021001384
0.51570761 0.47887138 -0.15832485
0.50354767 0.43161225 -0.20175329
0.49194655 0.38652939 -0.24318591
0.48086926 0.34347802 -0.28274748
0.47027856 0.30232194 -0.3205713
0.46014556 0.26294035 -0.35676068
0.45044002 0.22522002 -0.39142329
0.44139037 0.18916723 -0.42374361
0.44840351 0.16014408 -0.39869666
0.45564315 0.1301838 -0.37284076
0.46312889 0.099241972 -0.34610605
0.47086343 0.067266211 -0.31848252
0.47886071 0.034204319 -0.2899209
0.48713437 1.4901161e-08 -0.26037216
0.49569896 -0.035407044 -0.22978438
0.5045715 -0.072081625 -0.19809666
0.51376897 -0.11009332 -0.16524863
0.51798683 0.37985703 -0.2735149
0.50651872 0.33767918 -0.31174189
0.49554873 0.29732925 -0.34830862
0.4850426 0.25868943 -0.38332906
0.47497386 0.22165449 -0.41689152
0.47291586 0.18916632 -0.4237515
0.48043111 0.16014373 -0.39870062
0.48819539 0.13018546 -0.37281972
0.49621475 0.09924297 -0.34608865
0.50450194 0.067266911 -0.31846455
0.51307338 0.03420487 -0.28989303
0.50914741 0.25457367 -0.40905219
0.49874297 0.2182001 -0.44156593
0.50444233 0.18916592 -0.42375541
0.51246637 0.16014576 -0.39868033
