# .PCD v0.7 - Point Cloud Data file format
VERSION 0.7
FIELDS x y z
SIZE 4 4 4
TYPE F F F
COUNT 1 1 1
WIDTH 994
HEIGHT 1
VIEWPOINT 0 0 0 1 0 0 0
POINTS 994
DATA ascii
-0.87512279 -0.10939037 -0.17696528
-0.82124507 -0.13687414 -0.28921044
-0.88791972 -0.077210374 -0.069877446
-0.79355508 -0.10350716 -0.27501801
-0.79135174 -0.13762638 -0.27980784
-1.0328177 7.4505806e-08 0.34717536
-0.90231383 -0.04101431 0.050575502
-0.80109268 -0.072826564 -0.17947268
-0.75845051 -0.10342514 -0.27638665
-0.76112807 -0.13838685 -0.27030128
-0.76382458 -0.17359652 -0.26417279
-1.2575859 0.11976999 0.99411446
-1.0617069 0.050557479 0.52773589
-0.91862392 7.4505806e-09 0.18706214
-0.80952901 -0.038548991 -0.072687738
-0.72541815 -0.069087408 -0.2729516
-0.72798419 -0.10399772 -0.26684207
-0.73056841 -0.13915601 -0.26068911
-0.73317111 -0.17456451 -0.25449237
-1.0954108 0.10954109 0.73838949
-0.93726337 0.046863228 0.34302062
-0.81901658 -1.6763806e-08 0.047403697
-0.72727841 -0.036363892 -0.18194164
-0.69470745 -0.069470763 -0.26336893
-0.69717854 -0.10457677 -0.25719133
-0.69966727 -0.13993344 -0.25096953
-0.70217383 -0.1755435 -0.24470311
-0.70470041 -0.21141006 -0.23838669
-1.1352427 0.17924878 0.98734307
-0.95876122 0.10092221 0.52291805
-0.82976502 0.04367175 0.18345441
-0.7313661 4.4703484e-08 -0.075489908
-0.66129899 -0.034805208 -0.25987712
-0.66365415 -0.06985835 -0.25367945
-0.66602796 -0.10516236 -0.24743244
-0.6812939 -0.14343028 -0.2072589
-0.67082703 -0.17653342 -0.23480351
-0.67325443 -0.21260671 -0.22841559
-0.98383456 0.16397241 0.73273611
-0.84204346 0.093560353 0.33887199
-0.73597658 0.04088762 0.044241671
-0.65367353 2.9802322e-08 -0.18437798
-0.62999606 -0.034999847 -0.25014853
-0.63225412 -0.070250519 -0.24387617
-0.71960849 -0.11993471 -0.0012253039
-0.67185205 -0.14930047 -0.13388188
-0.63912636 -0.17753516 -0.22478664
-0.64145046 -0.21381682 -0.21833088
-0.6437915 -0.25036338 -0.21182796
-1.0134565 0.23846039 0.98061645
-0.85620373 0.15109478 0.51810855
-0.74119872 0.087199762 0.17985857
-0.6534422 0.038437717 -0.078248896
-0.59620005 6.7055225e-08 -0.24660827
-0.59834129 -0.03519661 -0.24031055
-0.60049796 -0.07064683 -0.23396727
-0.71078837 -0.12543322 0.090416372
-0.6616044 -0.15567163 -0.054242432
-0.61878836 -0.18199658 -0.18017206
-0.60928231 -0.21504091 -0.20813082
-0.61151874 -0.25180191 -0.20155308
-0.87271798 0.21817952 0.72710603
-0.74716294 0.14009307 0.33474651
-0.65319055 0.081648827 0.041082926
-0.58026731 0.036266714 -0.18680239
-0.5642904 6.7055225e-08 -0.23673019
-0.56632853 -0.035395503 -0.23036116
-0.76036239 -0.095045283 0.37599489
-0.70112073 -0.13146004 0.19086453
-0.65044093 -0.16261025 0.032490414
-0.60659587 -0.18956128 -0.10452574
-0.57674384 -0.21627888 -0.19781326
-0.57887304 -0.25325698 -0.19115955
-0.5810197 -0.29050982 -0.18445107
-0.89221734 0.29740581 0.97392023
-0.75403953 0.20107701 0.51332718
-0.65292144 0.13058427 0.17626718
-0.57575184 0.076766834 -0.080964901
-0.53010076 0.035340123 -0.2331353
-0.53201926 2.9802322e-08 -0.2267403
-0.5339517 -0.035596713 -0.22029877
-0.74547291 -0.099396378 0.48477185
-0.69047707 -0.13809542 0.30145264
-0.63823819 -0.17019686 0.12732278
-0.59334958 -0.1977832 -0.022305951
-0.5543716 -0.22174856 -0.15223239
-0.54584783 -0.25472897 -0.18064497
-0.54788387 -0.29220468 -0.17385834
-0.76205504 0.2721625 0.7214874
-0.6526165 0.18646193 0.33063567
-0.57067478 0.12228744 0.037986491
-0.50705683 0.07243675 -0.18922037
-0.49756932 0.035540603 -0.22310443
-0.49938038 5.9604645e-08 -0.21663645
-0.69720984 -0.049800739 0.48989749
-0.69976765 -0.099966824 0.49903238
-0.67870194 -0.14543617 0.42379779
-0.62484097 -0.17852598 0.23143727
-0.57890207 -0.20675069 0.06736964
-0.53925383 -0.23110873 -0.07423123
-0.51243651 -0.25621819 -0.1700075
-0.51435906 -0.29391947 -0.16314106
-0.5162946 -0.33190361 -0.1562283
-0.77151817 0.3560853 0.96723986
-0.65226245 0.25087014 0.50856417
-0.56493652 0.17382662 0.17269501
-0.49827927 0.1149876 -0.083678924
-0.46297914 0.071227543 -0.21944875
-0.46466646 0.035743549 -0.21295902
-0.46636876 -2.9802322e-08 -0.20641176
-0.65113485 -0.050087214 0.5042271
-0.65353477 -0.10054383 0.5134576
-0.65595508 -0.15137424 0.52276653
-0.61006504 -0.1877123 0.34626627
-0.56308037 -0.21656935 0.16555578
-0.5228169 -0.24130014 0.010696486
-0.4879477 -0.26274097 -0.12341596
-0.4804385 -0.29565451 -0.15229735
-0.4822571 -0.33387029 -0.14530262
-0.65184993 0.32592502 0.7159037
-0.55840039 0.23266682 0.32653058
-0.48841682 0.16280556 0.034932315
-0.43404138 0.10851029 -0.19163194
-0.42981032 0.071634978 -0.20926142
-0.43138698 0.035948865 -0.20269208
-0.60229945 -5.9604645e-08 0.5094434
-0.60452408 -0.050377026 0.51871252
-0.60676509 -0.10112749 0.52805024
-0.60902536 -0.15225631 0.53746772
-0.59368598 -0.19789523 0.47355387
-0.54568291 -0.22736788 0.27354091
-0.50486344 -0.25243172 0.10345988
-0.46973318 -0.27401108 -0.042916164
-0.44611377 -0.29740924 -0.14133036
-0.44781384 -0.33586031 -0.13424662
-0.44952559 -0.37460464 -0.1271144
-0.65136302 0.41450384 0.9606033
-0.55086833 0.30047351 0.50380903
-0.47725138 0.21693242 0.16918682
-0.4210268 0.15310073 -0.086379558
-0.39480853 0.10767503 -0.20555361
-0.39625978 0.072047234 -0.198957
-0.3977229 0.036156602 -0.19230644
-0.55530792 -2.9802322e-08 0.5239892
-0.5573709 -0.050670132 0.53336644
-0.55945146 -0.10171847 0.54282367
-0.56154537 -0.15314873 0.55234146
-0.56365734 -0.20496628 0.56194115
-0.52645946 -0.2392997 0.39285982
-0.4851734 -0.26464012 0.20519586
-0.44989046 -0.28629395 0.044818945
-0.41941798 -0.3050313 -0.093692236
-0.41295752 -0.33787435 -0.12305808
-0.41454554 -0.37685958 -0.1158399
-0.54209375 0.3794657 0.71033096
-0.46451727 0.27871031 0.32244852
-0.40640503 0.20320255 0.031887397
-0.36122015 0.14448799 -0.19403705
-0.36098629 0.10829593 -0.19520627
-0.36232093 0.072464153 -0.18853313
-0.50588524 0.050588548 0.52928829
-0.50776851 -8.9406967e-08 0.53870481
-0.50966591 -0.050966591 0.54819191
-0.51157957 -0.10231595 0.55776018
-0.51350564 -0.15405166 0.56739032
-0.51544833 -0.20617934 0.57710379
-0.50510669 -0.25255343 0.52539551
-0.46348032 -0.27808818 0.3172639
-0.42819405 -0.29973584 0.14083248
-0.3979156 -0.31833249 -0.010559633
-0.3776795 -0.33991155 -0.11174017
-0.37914294 -0.379143 -0.10442305
-0.38061544 -0.41867688 -0.097060516
-0.53174412 0.47266141 0.9539963
-0.44985956 0.34989071 0.49908194
-0.38985565 0.25990379 0.16572706
-0.3439917 0.19110653 -0.089072645
-0.32556564 0.14469585 -0.19143976
-0.32677183 0.10892397 -0.18473881
-0.45625269 0.10138951 0.53459942
-0.45795667 0.050884008 0.54406589
-0.45967153 -0 0.55359304
-0.46140116 -0.05126676 0.56320226
-0.46314201 -0.10292052 0.57287335
-0.4648979 -0.154966 0.58262837
-0.46666527 -0.2074068 0.59244704
-0.46844611 -0.26024777 0.60234058
-0.43946621 -0.29297748 0.44134107
-0.40435988 -0.31450209 0.24630615
-0.37445125 -0.33284548 0.080146849
-0.34868264 -0.34868258 -0.063011959
-0.34330767 -0.38145304 -0.092872828
-0.34464917 -0.42123792 -0.085420147
-0.51934725 0.58426571 1.2457823
-0.43278888 0.43278873 0.70479274
-0.37097254 0.32460108 0.31844068
-0.3246372 0.24347797 0.028844856
-0.28999764 0.18124858 -0.18765254
-0.29107344 0.14553672 -0.18092857
-0.29215899 0.10955963 -0.17414409
-0.40793398 0.10198337 0.54944968
-0.40946478 0.051183119 0.5590173
-0.41100881 -0 0.56866723
-0.41256282 -0.051570356 0.57837987
-0.41412863 -0.10353225 0.58816612
-0.41570809 -0.15589048 0.59803772
-0.4172979 -0.20864896 0.60797405
-0.41890165 -0.26181358 0.61799765
-0.4127351 -0.30955124 0.57945645
-0.37805569 -0.33079875 0.36271045
-0.34875116 -0.34875119 0.17955703
-0.32368255 -0.36414284 0.02287817
-0.30703121 -0.38378903 -0.081192851
-0.30824021 -0.42383021 -0.073636487
-0.30945686 -0.46418539 -0.066032335
-0.41265598 0.53055775 0.9474051
-0.34923145 0.39912161 0.49437264
-0.30273825 0.30273831 0.16227834
-0.26717314 0.22900555 -0.091758117
-0.25522569 0.18230399 -0.17709705
-0.25617805 0.14638737 -0.17029451
-0.35769773 0.15329905 0.55484599
-0.35904431 0.10258405 0.56446445
-0.36039963 0.051485628 0.5741452
-0.3617667 2.9802322e-08 0.58390993
-0.36314264 -0.051877499 0.59373832
-0.36453062 -0.10415164 0.6036526
-0.36592779 -0.15682608 0.61363202
-0.36733717 -0.20990691 0.62369919
-0.36875591 -0.26339704 0.63383317
-0.3701857 -0.31730211 0.64404577
-0.34887651 -0.3488766 0.49183735
-0.3204762 -0.36625847 0.28897813
-0.29636264 -0.38103759 0.11673824
-0.27563336 -0.3937619 -0.031328008
-0.27138031 -0.42645475 -0.061706945
-0.272459 -0.46707249 -0.054002181
-0.38855568 0.64759278 1.2378263
-0.32392979 0.48589462 0.69927704
-0.2777552 0.37034026 0.31448892
-0.24311469 0.28363383 0.025818095
-0.21922596 0.21922591 -0.17325476
-0.22004637 0.18337202 -0.16641802
-0.22087358 0.147249 -0.15952459
-0.30840874 0.15420429 0.56993496
-0.30957541 0.10319193 0.5796572
-0.3107509 0.051791877 0.58945322
-0.31193668 -2.9802322e-08 0.59933466
-0.31313023 -0.052188277 0.60928094
-0.31433427 -0.10477802 0.61931455
-0.31554627 -0.15777321 0.62941456
-0.316769 -0.21117929 0.63960397
-0.3179999 -0.26499975 0.64986134
-0.31924173 -0.31924176 0.66021025
-0.31632245 -0.36904278 0.63588256
-0.28921244 -0.38561645 0.40996575
-0.26638433 -0.39957649 0.21973164
-0.24691163 -0.41151941 0.057459176
-0.23405963 -0.42910928 -0.049640805
-0.23499724 -0.46999449 -0.04182744
-0.29409945 0.58819878 0.94085681
-0.24898878 0.4481796 0.48974985
-0.21589711 0.34543535 0.15883328
-0.19057018 0.2667982 -0.094436042
-0.18376073 0.22051284 -0.16253044
-0.18445246 0.18445252 -0.15561303
-0.2575556 0.20604439 0.57541823
-0.25853306 0.15511969 0.58519268
-0.25951687 0.10380664 0.59503078
-0.26050928 0.052101791 0.60495508
-0.26150823 2.9802322e-08 0.61494452
-0.26251593 -0.052503198 0.62502182
-0.26353037 -0.10541221 0.63516605
-0.26455376 -0.1587323 0.64540005
-0.26558405 -0.21246719 0.65570271
-0.26662239 -0.2666223 0.6660859
-0.26766998 -0.32120395 0.67656201
-0.26872471 -0.37621468 0.68710947
-0.25445941 -0.40713501 0.54445642
-0.23334403 -0.42001921 0.33330262
-0.21547703 -0.43095404 0.15463269
-0.20015474 -0.44034046 0.0014095902
-0.19706322 -0.47295174 -0.02950561
-0.19785957 -0.51443493 -0.021542072
-0.25840509 0.71061409 1.229926
-0.21551283 0.53878194 0.69377249
-0.18485509 0.41592401 0.31055087
-0.16183503 0.32367003 0.022800267
-0.14732091 0.25781164 -0.15862632
-0.14787666 0.221815 -0.15167947
-0.14843705 0.18554632 -0.14467455
-0.2072712 0.20727119 0.59075212
-0.20806164 0.15604632 0.60063285
-0.20885815 0.10442908 0.61058915
-0.20966165 0.05241546 0.62063283
-0.21047045 -1.4901161e-07 0.63074303
-0.21128644 -0.052821636 0.64094269
-0.21210787 -0.10605395 0.65121055
-0.21293661 -0.15970257 0.66156983
-0.21377096 -0.2137711 0.67199916
-0.21461277 -0.26826605 0.68252188
-0.21546032 -0.32319045 0.69311619
-0.21631552 -0.37855214 0.7038061
-0.21559854 -0.43119708 0.69484407
-0.19674301 -0.44267175 0.45914984
-0.18092616 -0.45231545 0.26143929
-0.16747046 -0.46054378 0.093242958
-0.15864831 -0.47594488 -0.0170338
-0.1592945 -0.51770711 -0.0089563727
-0.17606853 0.6455844 0.93433744
-0.14911987 0.4970662 0.48519331
-0.12933265 0.38799798 0.15540655
-0.11418153 0.3044841 -0.097112261
-0.11114452 0.25933719 -0.14772907
-0.11156661 0.22313324 -0.1406942
-0.15578775 0.2596463 0.5963248
-0.1563838 0.20851158 0.60625881
-0.15698376 0.15698381 0.6162582
-0.15758902 0.10505942 0.62634575
-0.15819828 0.052732915 0.63650036
-0.15881296 -0 0.64674479
-0.15943174 -0.053143919 0.65705782
-0.16005604 -0.10670403 0.66746306
-0.16068457 -0.16068467 0.67793846
-0.16131875 -0.21509168 0.68850815
-0.16195726 -0.26992875 0.69915009
-0.16260085 -0.32520169 0.70987642
-0.16325027 -0.38091746 0.72070014
-0.16390419 -0.43707782 0.73159868
-0.15596898 -0.46790683 0.59934533
-0.14277147 -0.47590488 0.37938645
-0.13164276 -0.48269007 0.19390836
-0.12212352 -0.4884941 0.035254389
-0.1202353 -0.52101958 0.0037838519
-0.12072942 -0.5634039 0.012019068
-0.12888807 0.77332848 1.2220639
-0.10754125 0.59147692 0.68839347
-0.092270546 0.46135268 0.30662566
-0.080797166 0.36358732 0.01979138
-0.074255265 0.29702103 -0.14375627
-0.074537426 0.26088098 -0.13670209
-0.074822411 0.22446714 -0.12957743
-0.10448188 0.26120472 0.61190945
-0.1048836 0.20976716 0.6219523
-0.10528886 0.15793322 0.63208371
-0.10569682 0.10569674 0.64228272
-0.10610796 0.053054065 0.65256119
-0.10652275 2.9802322e-08 0.66293097
-0.10694034 -0.053470105 0.67337096
-0.10736169 -0.10736182 0.68390435
-0.1077859 -0.16167876 0.6945098
-0.10821395 -0.21642795 0.70521092
-0.10864493 -0.27161226 0.7159856
-0.10907984 -0.32723936 0.72685814
-0.10951777 -0.38331217 0.73780644
-0.10995971 -0.43983883 0.74885488
-0.11026517 -0.49619308 0.75649107
-0.10042084 -0.50210422 0.51038313
-0.09219528 -0.50707394 0.30474427
-0.085217245 -0.51130348 0.13029347
-0.080672778 -0.52437305 0.016681671
-0.081007242 -0.5670507 0.02504319
-0.058559429 0.70271319 0.9278338
-0.049615823 0.54577392 0.48065329
-0.04304257 0.4304257 0.15199079
-0.038007252 0.34206516 -0.099775173
-0.03734912 0.29879299 -0.13268182
-0.037492119 0.26244485 -0.12553197
-0.052354224 0.3141253 0.61757332
-0.052556176 0.26278085 0.62767094
-0.052759472 0.21103778 0.63783568
-0.052964572 0.15889359 0.64809054
-0.053171042 0.10634205 0.65841436
-0.053379357 0.053379297 0.66883004
-0.053589083 -2.9802322e-08 0.6793164
-0.053800695 -0.053800762 0.68989682
-0.054013751 -0.10802755 0.70054984
-0.054228738 -0.16268611 0.711299
-0.0544452 -0.21778077 0.72212231
-0.054663405 -0.27331695 0.73303246
-0.054883599 -0.32930166 0.7440424
-0.05510534 -0.38573733 0.75512916
-0.055329118 -0.44263279 0.76631814
-0.055554476 -0.49999031 0.77758616
-0.053135846 -0.53135848 0.6566546
-0.048550241 -0.53405255 0.42737412
-0.044695605 -0.53634727 0.23464251
-0.041408025 -0.53830427 0.070263401
-0.0407671 -0.57073939 0.038217157
-0.040937662 -0.61406493 0.046745241
0 0.83573401 1.2142237
0 0.64397264 0.68308163
0 0.50662559 0.30270582
0 0.40338457 0.016785115
0 0.33686784 -0.12864965
0 0.30058619 -0.12147435
0 0.26402682 -0.11423264
0 0.31602624 0.6334148
0 0.26437616 0.64362431
0 0.21232501 0.65392423
0 0.15986583 0.66429341
0 0.10699522 0.67474419
0 0.053708524 0.68528855
0 -1.1920929e-07 0.69590473
0 -0.054135025 0.706617
0 -0.10870162 0.71740288
0 -0.16370547 0.72828674
0 -0.21915087 0.73924661
0 -0.27504438 0.75030684
0 -0.33138984 0.76144445
0 -0.38819525 0.77268481
0 -0.44546282 0.78400493
0 -0.50320214 0.79543006
0 -0.56141484 0.80693686
0 -0.56406558 0.56379664
0 -0.56397069 0.34974006
0 -0.56389225 0.16867897
0 -0.57447636 0.05156371
0 -0.61810654 0.060217589
0.058432635 0.7596243 0.92149395
0.049525354 0.59430426 0.47613001
0.042974468 0.47271913 0.14858556
0.037954144 0.37954146 -0.10243063
0.03765488 0.33889392 -0.11739372
0.037800234 0.30240181 -0.11012594
0.052786209 0.3695035 0.63917273
0.052991513 0.31794906 0.64943796
0.0531982 0.26599121 0.65977234
0.053406727 0.21362685 0.6701985
0.053616669 0.16084999 0.68069565
0.0538285 0.1076569 0.6912871
0.054041777 0.054041773 0.70195109
0.054256983 2.9802322e-08 0.71271145
0.054473676 -0.054473788 0.72354603
0.054692347 -0.10938478 0.73447955
0.054912537 -0.16473755 0.74548906
0.055134751 -0.22053882 0.75659978
0.055358525 -0.27679256 0.76778865
0.055584125 -0.3335048 0.77906847
0.055811819 -0.39068258 0.79045308
0.056041133 -0.44832909 0.80191904
0.056272592 -0.50645339 0.81349212
0.056505721 -0.56505716 0.82514828
0.054333705 -0.59767079 0.71654767
0.049549498 -0.59459406 0.47733715
0.045541108 -0.59203434 0.27691776
0.042132854 -0.58985996 0.10650502
0.041479848 -0.62219769 0.073854685
0.041656435 -0.66650289 0.082684189
0.12826303 0.89784104 1.2064378
0.10711713 0.69626135 0.67779052
0.091957815 0.55174679 0.2988075
0.080557272 0.44306499 0.013794184
0.075473696 0.37736854 -0.1132952
0.075765677 0.34094554 -0.10599577
0.10580419 0.42321676 0.64496696
0.10621661 0.37175813 0.65527743
0.1066318 0.31989539 0.66565716
0.10705071 0.2676267 0.67613
0.10747246 0.21494491 0.68667388
0.10789756 0.16184631 0.69730127
0.10832649 0.10832658 0.70802468
0.10875838 0.054379106 0.71882176
0.1091942 2.9802322e-08 0.72971725
0.10963304 -0.054816425 0.7406885
0.11007591 -0.11007595 0.75176018
0.11052189 -0.16578296 0.76290953
0.11097199 -0.22194406 0.77416193
0.11142527 -0.27856323 0.78549409
0.11188278 -0.33564824 0.79693156
0.11234353 -0.39320233 0.80845064
0.11280863 -0.45123446 0.82007802
0.11327706 -0.50974679 0.83178902
0.11374941 -0.56874704 0.84359771
0.11422624 -0.62824446 0.8555184
0.10478898 -0.62873381 0.61958677
0.095866613 -0.62313312 0.39652771
0.088344432 -0.61841118 0.20847332
0.083512448 -0.62634325 0.087673515
0.083870918 -0.6709674 0.096635252
0.17492078 0.81629682 0.91520858
0.14830564 0.64265782 0.47162306
0.12871975 0.51487893 0.14519121
0.11370354 0.41691297 -0.1050787
0.11389707 0.37965691 -0.10185321
0.11434072 0.34302214 -0.094459057
0.15967682 0.42580473 0.66114271
0.16030239 0.37403885 0.67156863
0.16093285 0.32186568 0.68207645
0.161569 0.26928157 0.69267875
0.16220948 0.21627928 0.70335376
0.16285579 0.1628558 0.71412539
0.16350654 0.10900447 0.72497141
0.16416323 0.054721028 0.73591614
0.1648245 5.9604645e-08 0.74693751
0.16549186 -0.055164009 0.75805974
0.16616389 -0.11077583 0.76926064
0.16684216 -0.16684204 0.78056467
0.16752522 -0.22336683 0.79194927
0.16821392 -0.28035647 0.8034274
0.16890904 -0.33781812 0.81501311
0.16960919 -0.39575461 0.82668197
0.17031592 -0.45417583 0.83846092
0.17102778 -0.51308322 0.85032535
0.17174642 -0.57248807 0.86230266
0.17247033 -0.63239115 0.87436783
0.1667612 -0.6670447 0.77921569
0.15177228 -0.6576798 0.52940005
0.13925767 -0.6498692 0.32082337
0.1286501 -0.64325058 0.14403063
0.12665388 -0.6754874 0.1107603
0.12720315 -0.72081792 0.11991471
0.25591791 0.95969206 1.1988358
0.21381266 0.74834436 0.67252046
0.18360482 0.59671557 0.29492241
0.16087598 0.48262793 0.010811999
0.15219654 0.41854042 -0.097681016
0.15279022 0.38197553 -0.090260088
0.21337283 0.4800888 0.66702259
0.21421151 0.42842299 0.67750615
0.2150559 0.37634769 0.68806082
0.21590787 0.32386175 0.69871062
0.2167657 0.27095711 0.70943362
0.21763131 0.21763138 0.72025377
0.21850292 0.16387716 0.73114866
0.21938156 0.10969085 0.74213171
0.22026822 0.055067003 0.75321507
0.22116111 5.9604645e-08 0.76437634
0.22206227 -0.055515617 0.77564073
0.2229698 -0.11148489 0.78698498
0.22388579 -0.16791442 0.7984345
0.22480832 -0.22480839 0.80996621
0.22573949 -0.28217435 0.82160592
0.2266774 -0.34001613 0.8333298
0.22762416 -0.39834225 0.84516424
0.22857782 -0.45715564 0.85708511
0.22953951 -0.51646382 0.86910617
0.23051038 -0.57627594 0.88124216
0.23148844 -0.63659322 0.89346772
0.23247589 -0.69742781 0.90581095
0.21424064 -0.69628215 0.67787033
0.19562832 -0.68469894 0.44521606
0.17999206 -0.67497033 0.24976309
0.17001718 -0.68006867 0.1250771
0.17076068 -0.7257328 0.13437077
0.29091015 0.87273037 0.90896362
0.24672604 0.69083291 0.46712282
0.21419381 0.55690378 0.14180028
0.19066416 0.45759398 -0.093496129
0.19140895 0.42109966 -0.086048245
0.19216076 0.38432151 -0.078530222
0.26836079 0.48304942 0.68347007
0.26942098 0.43107343 0.69407189
0.27048954 0.37868544 0.70475793
0.27156785 0.32588148 0.71554071
0.27265358 0.27265355 0.72639811
0.2737492 0.21899925 0.7373544
0.27485248 0.16491148 0.74838716
0.2759659 0.11038634 0.75952148
0.27708718 0.055417389 0.77073389
0.27821881 5.9604645e-08 0.78205037
0.27935848 -0.055871785 0.79344702
0.28050879 -0.11220354 0.80495
0.28166732 -0.16900045 0.81653547
0.28283677 -0.22626945 0.82822984
0.28401467 -0.28401467 0.84000909
0.28520241 -0.34224287 0.85188651
0.28640148 -0.40096205 0.86387676
0.28760931 -0.46017495 0.8759554
0.2888287 -0.51989168 0.88814938
0.29005715 -0.58011436 0.9004339
0.29129744 -0.64085424 0.91283655
0.29254702 -0.70211291 0.92533243
0.28449935 -0.73969841 0.84485596
0.2583836 -0.72347397 0.58369797
0.23666017 -0.70998037 0.36646408
0.2183055 -0.6985777 0.18291728
0.2149141 -0.73070794 0.14900333
0.21586308 -0.77710712 0.15849319
0.32008907 0.80022264 0.66727102
0.27494261 0.64153278 0.29105061
0.24095717 0.52207386 0.0078386962
0.23019908 0.46039814 -0.081812084
0.23110454 0.42369166 -0.074266464
0.32275042 0.5379172 0.68944907
0.32402971 0.48604453 0.70011008
0.3253178 0.43375713 0.71084404
0.3266176 0.38105375 0.72167546
0.32792637 0.32792646 0.73258209
0.32924715 0.27437261 0.74358833
0.33057711 0.22038467 0.75467134
0.33191788 0.16595894 0.76584452
0.33327106 0.11109033 0.77712095
0.3346338 0.055772424 0.78847724
0.33600926 -2.9802322e-08 0.79993927
0.33739454 -0.056232363 0.81148344
0.33879283 -0.11293092 0.82313579
0.3402012 -0.17010045 0.83487236
0.34162289 -0.22774854 0.8467195
0.34305495 -0.28587916 0.85865355
0.34450066 -0.3445006 0.87070084
0.34595701 -0.40361652 0.88283706
0.34742728 -0.46323633 0.89508975
0.34890854 -0.52336287 0.90743351
0.35040247 -0.58400398 0.91988277
0.35191089 -0.64516997 0.93245292
0.35343069 -0.70686132 0.94511807
0.35496536 -0.76909161 0.95790696
0.32867324 -0.76690423 0.73880613
0.29952741 -0.74881852 0.49592394
0.27513069 -0.73368192 0.29261792
0.25967795 -0.73575413 0.16384533
0.26083434 -0.78250313 0.17348185
0.40640366 0.92892253 0.90274537
0.34479007 0.73883575 0.46264839
0.29939914 0.59879827 0.13842732
0.26916131 0.49987102 -0.077556983
0.27022237 0.46323836 -0.069977909
0.27129269 0.4263171 -0.062332779
0.37888381 0.54126281 0.70617527
0.38039336 0.48907703 0.71695751
0.38191661 0.43647602 0.72783792
0.38345045 0.38345057 0.73879421
0.38499668 0.32999721 0.74983859
0.38655713 0.27611226 0.76098448
0.38812855 0.22178772 0.77220893
0.38971451 0.16702056 0.78353751
0.39131176 0.11180344 0.79494643
0.39292395 0.056131929 0.80646175
0.39454767 -5.9604645e-08 0.8180598
0.39618665 -0.056598157 0.82976687
0.39783752 -0.11366782 0.84155869
0.39950401 -0.17121592 0.85346222
0.40118268 -0.22924712 0.86545265
0.401568 -0.28683421 0.86820507
0.401568 -0.34420118 0.86820519
0.401568 -0.40156791 0.86820489
0.401568 -0.4589349 0.86820507
0.401568 -0.51630169 0.86820495
0.401568 -0.57366848 0.86820495
0.401568 -0.63103533 0.86820495
0.401568 -0.68840235 0.86820501
0.40156981 -0.74577242 0.868218
0.40157166 -0.80314332 0.86823112
0.36967224 -0.79215491 0.64037842
0.33796903 -0.77250069 0.41392684
0.31127298 -0.7559486 0.22324052
0.30643135 -0.78796619 0.18865746
0.30781057 -0.83548588 0.19850916
0.42594698 0.85189402 0.66203094
0.36597139 0.68619633 0.28718346
0.32080087 0.56140149 0.0048677921
0.30951387 0.50296003 -0.065676123
0.31074253 0.46611381 -0.057996854
0.433983 0.5967266 0.7122559
0.43571785 0.54464728 0.7230987
0.43746471 0.49214783 0.73401684
0.43922758 0.43922746 0.74503458
0.43988678 0.38490093 0.74915475
0.43988678 0.3299152 0.74915481
0.43988678 0.27492929 0.74915475
0.43988678 0.2199433 0.74915475
0.43988678 0.16495755 0.74915481
0.43988678 0.10997176 0.74915469
0.43988678 0.054986 0.74915481
0.43988678 -0 0.74915481
0.43988678 -0.054985732 0.74915487
0.43988678 -0.10997173 0.74915487
0.43988678 -0.16495755 0.74915487
0.43988678 -0.21994331 0.74915481
0.43988678 -0.27492926 0.74915481
0.43988678 -0.32991523 0.74915469
0.43988678 -0.38490099 0.74915469
0.43988678 -0.43988663 0.74915457
0.43988678 -0.49487248 0.74915457
0.43988872 -0.54986101 0.74916679
0.43989062 -0.6048497 0.74917877
0.43989062 -0.65983599 0.74917865
0.43989256 -0.71482545 0.74919081
0.43989447 -0.76981544 0.74920279
0.43989637 -0.8248058 0.74921471
0.40782839 -0.81565666 0.54878962
0.37396392 -0.79467344 0.33713686
0.3526707 -0.79350907 0.20405415
0.35427052 -0.8413924 0.214053
0.44249907 0.78666496 0.45819053
0.3843365 0.64056075 0.13506496
0.34898195 0.54286087 -0.061349124
0.35037041 0.50609064 -0.053635418
0.35176995 0.46902663 -0.045860052
0.47515154 0.58074081 0.63959295
0.47515154 0.52794611 0.63959289
0.47515154 0.47515157 0.63959295
0.47515154 0.4223569 0.63959289
0.47515154 0.36956215 0.63959289
0.47515154 0.31676775 0.63959295
0.47515154 0.26397321 0.63959301
0.47515154 0.21117845 0.63959301
0.47515154 0.15838379 0.63959295
0.47515154 0.10558918 0.63959277
0.47515154 0.052794516 0.63959271
0.47515154 -2.9802322e-08 0.63959301
0.47515154 -0.052794605 0.63959301
0.47515154 -0.10558918 0.63959277
0.47515154 -0.15838388 0.63959289
0.47515154 -0.21117847 0.63959289
0.47515154 -0.26397294 0.63959289
0.47515154 -0.31676772 0.63959301
0.47515351 -0.36956397 0.63960409
0.4751555 -0.42236036 0.63961494
0.4751555 -0.47515562 0.63961512
0.47515747 -0.52795267 0.63962597
0.4751595 -0.58075047 0.63963711
0.4751595 -0.63354605 0.63963717
0.47516143 -0.68634433 0.63964802
0.47516346 -0.73914307 0.63965917
0.47516549 -0.79194242 0.63967025
0.47516549 -0.84473842 0.63967025
0.44342458 -0.83757973 0.46333218
0.40773946 -0.81547886 0.26508147
0.40138924 -0.8473773 0.22980267
0.40323001 -0.89606667 0.24002904
0.5313921 0.90336645 0.6568225
0.45669502 0.73071194 0.28333724
0.40040997 0.60061491 0.001911968
0.39017546 0.54624563 -0.049260363
0.39173755 0.50925881 -0.041450024
0.50771332 0.60925597 0.53842872
0.50771332 0.55848461 0.53842872
0.50771332 0.50771344 0.53842878
0.50771332 0.45694196 0.5384289
0.50771332 0.40617067 0.53842878
0.50771332 0.35539925 0.53842878
0.50771332 0.30462813 0.53842884
0.50771332 0.2538566 0.53842866
0.50771332 0.2030852 0.53842866
0.50771332 0.15231407 0.53842872
0.50771332 0.10154274 0.53842878
0.50771332 0.050771266 0.53842866
0.50771332 -1.1920929e-07 0.53842866
0.50771332 -0.050771281 0.53842878
0.50771332 -0.10154265 0.53842872
0.50771332 -0.15231396 0.53842878
0.50771534 -0.20308612 0.53843904
0.50771737 -0.25385869 0.53844917
0.50771737 -0.3046304 0.53844917
0.50771946 -0.35540363 0.53845936
0.50772148 -0.40617716 0.53846967
0.50772148 -0.45694923 0.53846961
0.50772351 -0.50772357 0.53847986
0.50772554 -0.5584982 0.53849018
0.50772554 -0.60927069 0.53849018
0.50772762 -0.66004574 0.53850025
0.50772965 -0.71082139 0.5385105
0.50773168 -0.76159757 0.53852081
0.50773168 -0.81237066 0.53852081
0.50773376 -0.86314726 0.53853095
0.4767113 -0.85808033 0.38341886
0.44918469 -0.85345095 0.24578562
0.45126107 -0.90252209 0.25616762
0.53985494 0.83432138 0.45374864
0.46900722 0.68219233 0.13171327
0.43016121 0.5865835 -0.044859499
0.43188593 0.54967296 -0.037019908
0.53787142 0.63566613 0.44473231
0.53787142 0.58676881 0.44473237
0.53787142 0.53787142 0.4447324
0.53787142 0.48897403 0.44473246
0.53787142 0.4400765 0.44473228
0.53787142 0.39117911 0.44473234
0.53787142 0.34228176 0.4447324
0.53787142 0.29338446 0.44473237
0.53787142 0.24448694 0.44473219
0.53787142 0.19558966 0.44473234
0.53787142 0.14669229 0.44473237
0.53787142 0.097794816 0.44473234
0.53787142 0.048897445 0.44473237
0.53787142 -0 0.44473231
0.53787351 -0.048897654 0.4447419
0.53787351 -0.097795099 0.44474185
0.53787559 -0.14669333 0.44475126
0.53787768 -0.19559194 0.44476086
0.53787977 -0.24449076 0.44477034
0.53787977 -0.2933889 0.44477025
0.53788185 -0.34228846 0.44477975
0.53788394 -0.39118841 0.44478926
0.53788394 -0.44008687 0.44478932
0.53788602 -0.48898736 0.44479877
0.53788811 -0.53788799 0.44480827
0.53788811 -0.58678687 0.44480819
0.5378902 -0.6356883 0.44481763
0.53789228 -0.6845901 0.44482726
0.53789437 -0.73349226 0.44483662
0.53789437 -0.78239191 0.44483671
0.53789651 -0.83129448 0.44484627
0.53789854 -0.88019753 0.44485557
0.50790632 -0.87729263 0.30852738
0.49998561 -0.90906477 0.27252412
0.50232446 -0.95898306 0.28315529
0.54711407 0.7750783 0.2795043
0.47978464 0.63971281 -0.0010350049
0.4722178 0.59027231 -0.032563567
0.47412455 0.55314535 -0.024618655
0.56588256 0.61303937 0.35770625
0.56588256 0.5658825 0.35770634
0.56588256 0.51872569 0.35770634
0.56588256 0.47156888 0.35770631
0.56588256 0.4244118 0.35770622
0.56588256 0.37725517 0.35770637
0.56588256 0.33009818 0.35770619
0.56588256 0.28294131 0.35770628
0.56588256 0.23578432 0.35770622
0.56588256 0.18862751 0.35770622
0.56588256 0.14147061 0.35770631
0.56588471 0.094314158 0.3577151
0.56588471 0.047157183 0.35771507
0.5658868 -2.9802322e-08 0.35772392
0.56588888 -0.047157407 0.35773274
0.56589103 -0.094315127 0.35774153
0.56589103 -0.14147267 0.35774156
0.56589317 -0.18863109 0.3577503
0.56589526 -0.23578975 0.3577593
0.56589526 -0.28294763 0.35775912
0.56589741 -0.33010679 0.35776809
0.56589949 -0.37726629 0.35777685
0.56589949 -0.42442462 0.35777688
0.56590158 -0.47158468 0.35778567
0.56590372 -0.51874501 0.35779437
0.56590372 -0.56590378 0.35779446
0.56590587 -0.61306459 0.35780329
0.56590796 -0.66022587 0.35781199
0.5659101 -0.70738775 0.35782105
0.5659101 -0.75454682 0.35782102
0.56591219 -0.80170894 0.35782981
0.56591433 -0.84887159 0.35783875
0.56591433 -0.89603102 0.35783863
0.54942375 -0.91570622 0.28912783
0.55201274 -0.96602225 0.29991525
0.55341071 0.72369087 0.12836486
0.51273155 0.63105422 -0.028093189
0.51480663 0.59400767 -0.020112127
0.59196812 0.6375041 0.27666268
0.59196812 0.59196806 0.27666268
0.59196812 0.54643208 0.27666268
0.59196812 0.50089604 0.27666268
0.59196812 0.45536003 0.27666268
0.59196812 0.4098241 0.27666262
0.59196812 0.36428806 0.27666274
0.59196812 0.31875208 0.27666259
0.59196812 0.27321595 0.27666268
0.59197026 0.22768085 0.27667087
0.59197026 0.18214466 0.27667099
0.59197235 0.13660906 0.27667916
0.59197456 0.091073021 0.27668732
0.59197456 0.045536503 0.27668729
0.5919767 4.4703484e-08 0.27669555
0.59197879 -0.045536831 0.27670369
0.59198093 -0.091073975 0.27671206
0.59198093 -0.136611 0.27671197
0.59198308 -0.18214865 0.27672032
0.59198523 -0.22768663 0.2767286
0.59198523 -0.273224 0.27672851
0.59198737 -0.31876239 0.27673671
0.59198952 -0.36430123 0.27674493
0.59198952 -0.40983883 0.2767449
0.5919916 -0.45537817 0.2767531
0.59199375 -0.50091773 0.27676138
0.59199375 -0.54645574 0.27676147
0.59199595 -0.59199589 0.27676964
0.59199804 -0.63753647 0.2767778
0.59200019 -0.6830771 0.27678603
0.59200019 -0.72861564 0.27678597
0.59200233 -0.77415681 0.27679425
0.59400272 -0.82246518 0.28448805
0.59678739 -0.87222767 0.29519844
0.59959614 -0.92245549 0.30600113
0.60243362 -0.97316194 0.31691453
0.60530704 -1.0243657 0.32796615
0.63723016 0.81929582 0.27568415
0.55892599 0.67869586 -0.0039734244
0.55567479 0.63505685 -0.015584856
0.55793977 0.59779263 -0.0074956417
0.61632001 0.61631995 0.20100521
0.61632001 0.5722971 0.20100518
0.61632001 0.52827442 0.20100529
0.61632001 0.48425144 0.20100525
0.61632001 0.4402287 0.20100527
0.61632001 0.39620563 0.2010051
0.61632222 0.35218409 0.20101291
0.61632222 0.30816108 0.20101301
0.61632431 0.26413906 0.20102061
0.61632651 0.22011662 0.20102829
0.61632651 0.17609319 0.20102826
0.61632866 0.13207039 0.20103605
0.6163308 0.088047266 0.20104367
0.6163308 0.044023678 0.20104364
0.61633295 -4.4703484e-08 0.20105129
0.61633509 -0.044023857 0.20105901
0.61633724 -0.088048175 0.2010667
0.61633724 -0.13207218 0.20106673
0.61633939 -0.17609693 0.20107448
0.61634159 -0.22012192 0.20108211
0.61634159 -0.26414627 0.20108211
0.61634368 -0.30817187 0.2010898
0.61634588 -0.35219771 0.20109755
0.61827022 -0.39745942 0.2079702
0.62106895 -0.44362065 0.21796562
0.62389535 -0.49020344 0.2280599
0.62674534 -0.53721029 0.23823859
0.62962157 -0.58464849 0.24851058
0.63252646 -0.63252646 0.25888553
0.63545609 -0.68084586 0.26934826
0.63841528 -0.72961736 0.27991664
0.64139974 -0.77884269 0.2905758
0.6444124 -0.82853019 0.30133498
0.64745569 -0.87869 0.31220421
0.65052557 -0.92932218 0.32316789
0.65362471 -0.98043716 0.33423629
0.63755149 0.7650618 0.12503397
0.59673214 0.67629647 -0.011030555
0.59916812 0.63911271 -0.0029104948
0.63910556 0.63910568 0.13021427
0.63910556 0.59649849 0.1302142
0.63910556 0.55389154 0.13021433
0.63910556 0.51128447 0.13021421
0.63910556 0.46867734 0.13021417
0.63910776 0.42607182 0.13022137
0.63910991 0.38346601 0.13022853
0.63911206 0.34085983 0.13023585
0.63911206 0.29825222 0.13023588
0.63911426 0.25564563 0.13024308
0.63911635 0.21303879 0.13025017
0.63911635 0.17043111 0.13025028
0.63911855 0.12782368 0.13025741
0.6391207 0.085215978 0.13026461
0.6391207 0.042608049 0.13026461
0.64096481 1.4901161e-08 0.13641155
0.64377183 -0.042918105 0.14576843
0.64660358 -0.086213827 0.1552074
0.64946252 -0.12989247 0.16473745
0.65234464 -0.17395863 0.17434441
0.65525478 -0.21841818 0.18404472
0.65818864 -0.2632755 0.19382435
0.66114885 -0.30853614 0.20369186
0.66413587 -0.35420585 0.21364857
0.66715002 -0.4002901 0.22369567
0.67019165 -0.44679439 0.23383436
0.67326111 -0.49372476 0.24406591
0.67635643 -0.541085 0.25438356
0.63797832 0.71772563 -0.0064554214
0.64058673 0.68062341 0.0016958416
0.64321858 0.64321852 0.0099202693
0.6604712 0.61919165 0.063834608
0.6604712 0.57791233 0.063834786
0.66047335 0.53663456 0.063841492
0.66047549 0.49535668 0.063848346
0.6604777 0.45407844 0.063855007
0.6604777 0.41279858 0.063855007
0.66223252 0.37250575 0.069338724
0.66504341 0.33252174 0.07812281
0.66787606 0.2921958 0.08697506
0.67073298 0.25152484 0.095903002
0.67361444 0.21050458 0.10490747
0.67652082 0.16913018 0.11398983
0.6794523 0.1273973 0.12315069
0.68240708 0.085300781 0.13238424
0.68538988 0.042836871 0.14170569
0.68839896 2.9802322e-08 0.15110898
0.6914345 -0.043214563 0.16059524
0.69449466 -0.086811833 0.17015789
0.69758433 -0.13079713 0.17981334
0.70070165 -0.17517547 0.18955505
0.72142947 0.80630362 0.12171373
0.68219894 0.72232831 0.0063297451
0.68500829 0.68500829 0.014592558
0.68783647 0.64737558 0.022910714
0.69068807 0.60943067 0.031297833
0.6935634 0.57116979 0.039754629
0.69646281 0.5325892 0.04828231
0.69938427 0.49368298 0.056874856
0.70233268 0.45445049 0.065546468
0.70530599 0.41488582 0.074291557
0.70830458 0.3749848 0.083111122
0.71132642 0.33474177 0.091998875
0.71437657 0.29415506 0.10096987
0.71745294 0.25321871 0.11001813
0.72055602 0.21192828 0.11914471
0.724002 0.76422429 0.010978937
0.7269904 0.7269904 0.019280016
0.72999656 0.68944108 0.027630478
0.73303002 0.65158224 0.036056846
0.73608887 0.61340731 0.044553488
0.73917329 0.57491255 0.053121388
0.74228126 0.53609198 0.061754569
