# .PCD v0.7 - Point Cloud Data file format
VERSION 0.7
FIELDS x y z
SIZE 4 4 4
TYPE F F F
COUNT 1 1 1
WIDTH 985
HEIGHT 1
VIEWPOINT 0 0 0 1 0 0 0
POINTS 985
DATA ascii
-1.2617445 -0.14019382 0.33642617
-1.20033 -0.092332974 0.30818912
-1.2060025 -0.13915405 0.31909773
-1.1457067 -0.091656506 0.29127556
-1.1510853 -0.1381302 0.30203277
-1.1565274 -0.18504435 0.31291723
-1.0868442 -0.045285195 0.26412109
-1.0918819 -0.090990134 0.27461615
-1.112316 -0.13903949 0.31718725
-1.1021147 -0.18368584 0.29593447
-1.1073115 -0.23068985 0.30676097
-1.0293568 7.4505806e-09 0.23759468
-1.034072 -0.044959672 0.24784476
-1.0648534 -0.092595883 0.31476104
-1.0828255 -0.14123812 0.35383075
-1.0500066 -0.18260986 0.2824854
-1.0534028 -0.22900064 0.28986824
-0.97320098 0.044236429 0.21168269
-0.97760695 1.4901161e-08 0.2216962
-0.98531604 -0.044787109 0.23921704
-1.0770676 -0.097915202 0.447743
-1.0523834 -0.14350674 0.39164263
-1.0200018 -0.18545491 0.31804836
-1.0002815 -0.22733665 0.27322912
-1.0049511 -0.27407762 0.28384221
-0.91833067 0.087460034 0.18636385
-0.92244041 0.043925755 0.19614893
-0.9265871 7.4505806e-08 0.20602202
-0.99269766 -0.047271341 0.36342824
-1.0549946 -0.10047568 0.51175427
-1.0209513 -0.14585015 0.43069845
-0.9890399 -0.1883886 0.35471931
-0.95904911 -0.22834507 0.28331256
-0.95231634 -0.27209041 0.26728231
-0.95675397 -0.31891802 0.27784795
-0.86853111 0.086853147 0.17119007
-0.87239087 0.04361961 0.18083942
-0.91394311 1.0430813e-07 0.28472006
-1.0009423 -0.05004704 0.50221819
-1.0219976 -0.10219984 0.5548563
-0.9884755 -0.14827137 0.47105116
-0.95708275 -0.1914165 0.39256907
-0.92761225 -0.23190305 0.31889284
-0.90044582 -0.27013364 0.25097665
-0.90460485 -0.31661174 0.26137441
-0.81583047 0.12881537 0.14678465
-0.81941515 0.086254232 0.15621787
-0.8402676 0.044224501 0.21109279
-0.9174394 7.4505806e-08 0.41417646
-1.0102199 -0.053169399 0.65833592
-0.98785245 -0.1039845 0.59947407
-0.95490336 -0.15077424 0.512766
-0.92408139 -0.19454347 0.43165544
-0.8951835 -0.23557454 0.35560834
-0.8680225 -0.27411234 0.28413194
-0.85320461 -0.31433854 0.24513751
-0.85713828 -0.36090028 0.2554892
-0.76430148 0.16984476 0.12292181
-0.76762217 0.12793705 0.13214612
-0.77118945 0.085687757 0.14205517
-0.8396126 0.046645105 0.33211946
-0.92135566 -5.9604645e-08 0.55918348
-0.98716539 -0.054842591 0.7419883
-0.95249367 -0.10583264 0.6456778
-0.92017841 -0.15336312 0.55591333
-0.88998401 -0.19777422 0.47203997
-0.86170489 -0.23936255 0.39348701
-0.83515835 -0.27838612 0.31974667
-0.81019282 -0.31507495 0.25039783
-0.80621064 -0.35831589 0.23933634
-0.80992091 -0.40496039 0.24964263
-0.71390527 0.20997211 0.099583611
-0.71697283 0.16869944 0.10860576
-0.72006923 0.1270711 0.11771295
-0.76689941 0.090223536 0.25544882
-0.83888173 0.049346104 0.46716142
-0.92577243 -8.9406967e-08 0.72272223
-0.94981462 -0.055871397 0.79343468
-0.91585505 -0.10774761 0.69355369
-0.88424009 -0.15604235 0.60056847
-0.85473156 -0.20111328 0.51377851
-0.82713205 -0.24327415 0.4326036
-0.8012532 -0.28279519 0.35648942
-0.77693331 -0.31991372 0.28496033
-0.7560153 -0.3557719 0.22343662
-0.7594617 -0.40206793 0.23357305
-0.66743177 0.2085723 0.085586481
-0.6702804 0.16757016 0.094488576
-0.69881731 0.13102815 0.18366629
-0.76212984 0.095266163 0.38151804
-0.83806098 0.052378714 0.61880285
-0.93079215 5.9604645e-08 0.90858769
-0.91103965 -0.056939781 0.84686124
-0.87786621 -0.10973313 0.74319422
-0.84702373 -0.15881702 0.64681131
-0.81827164 -0.20456783 0.55696094
-0.79141045 -0.24731587 0.4730199
-0.76625681 -0.28734633 0.39441466
-0.74263638 -0.3249034 0.32060102
-0.72042871 -0.36021435 0.25120187
-0.70971811 -0.39921638 0.21773149
-0.71295011 -0.44559377 0.2278315
-0.61895859 0.24758348 0.063057534
-0.62157172 0.20719054 0.071767926
-0.6349327 0.16931531 0.11630458
-0.69053012 0.13810602 0.30162919
-0.75679559 0.10090606 0.5225141
-0.83713275 0.055808932 0.79030496
-0.88334137 5.9604645e-08 0.94433379
-0.87075263 -0.058050215 0.90237093
-0.83845085 -0.1117934 0.7946986
-0.80845642 -0.16169125 0.69471705
-0.78053719 -0.20814326 0.60165292
-0.75448185 -0.25149399 0.51480186
-0.73010707 -0.29204288 0.43355256
-0.70725262 -0.33005118 0.35737103
-0.68577814 -0.36574838 0.28578922
-0.66556925 -0.39934161 0.21842635
-0.66366255 -0.4424417 0.2120709
-0.66667944 -0.48889828 0.22212714
-0.5715214 0.2857607 0.041010223
-0.57390833 0.24596074 0.049535066
-0.5763191 0.20582829 0.058144771
-0.62357563 0.17816444 0.22691795
-0.68129641 0.14599209 0.43306395
-0.75078988 0.10725567 0.68125451
-0.81541419 0.05824396 0.91205609
-0.81891495 2.9802322e-08 0.9245584
-0.82244205 -0.058745801 0.93715525
-0.79752719 -0.1139324 0.84817374
-0.76847082 -0.16467223 0.74440086
-0.74146032 -0.21184574 0.64793485
-0.71628416 -0.25581574 0.55801982
-0.6927588 -0.29689658 0.47400063
-0.67072958 -0.33536485 0.39532506
-0.65004629 -0.37145501 0.32145607
-0.63059813 -0.40538457 0.25199845
-0.61507392 -0.43933845 0.19655475
-0.61784375 -0.4854486 0.20644683
-0.52508736 0.32313061 0.019428954
-0.52725703 0.28390759 0.027774066
-0.52944821 0.24436069 0.036201641
-0.56083286 0.21570493 0.15691184
-0.61096597 0.18798953 0.34973127
-0.67094445 0.15483332 0.58041775
-0.743927 0.11445034 0.86111987
-0.75214058 0.057857037 0.89271057
-0.75534815 1.4901161e-07 0.90504742
-0.75857961 -0.058352292 0.91747618
-0.75500351 -0.11615455 0.90372193
-0.72698307 -0.16776544 0.79595083
-0.70096809 -0.21568239 0.69589329
-0.6767478 -0.2602877 0.60273838
-0.65414804 -0.30191442 0.51581609
-0.63300884 -0.34085095 0.43451154
-0.61317939 -0.37734112 0.35824448
-0.59455454 -0.41161475 0.28661054
-0.5770278 -0.44386759 0.21920003
-0.56969428 -0.48204902 0.19099401
-0.57225519 -0.5282355 0.20084378
-0.48158744 0.32105833 0.0064767003
-0.48356616 0.28208029 0.014721423
-0.50191283 0.25095636 0.091165692
-0.54529524 0.22720642 0.27192593
-0.59688437 0.19896136 0.48688033
-0.6592176 0.16480449 0.74660206
-0.68680787 0.1144681 0.86156178
-0.68970203 0.05747515 0.87362051
-0.69262064 1.1920929e-07 0.88578159
-0.69556725 -0.057963848 0.89805913
-0.69853586 -0.11642283 0.91042829
-0.68390697 -0.17097676 0.84947461
-0.65898204 -0.21966055 0.74562079
-0.63580728 -0.26491964 0.64905918
-0.61420965 -0.30710474 0.5590691
-0.59403116 -0.34651807 0.47499189
-0.57512748 -0.38341832 0.39622688
-0.5573858 -0.41803935 0.32230309
-0.54070592 -0.45058829 0.2528038
-0.52499539 -0.48124576 0.18734306
-0.52454382 -0.52454376 0.18546134
-0.43686578 0.35743558 -0.014384106
-0.43864202 0.31901234 -0.0063102394
-0.44647968 0.28412339 0.029315397
-0.4838323 0.26390859 0.19910005
-0.52800739 0.24000333 0.39989594
-0.58103043 0.21128376 0.64090943
-0.62286431 0.16987202 0.83106375
-0.62546092 0.11372006 0.84286642
-0.6280821 0.057098359 0.85478085
-0.63072246 -0 0.86678255
-0.63338512 -0.057580501 0.87888539
-0.63607329 -0.11564973 0.89110446
-0.63878143 -0.17421299 0.90341413
-0.61541533 -0.2237874 0.79720473
-0.59338325 -0.26971966 0.69705868
-0.57287413 -0.31247684 0.60383558
-0.55373538 -0.35237697 0.51684117
-0.5358299 -0.38969448 0.43545267
-0.51903832 -0.42466778 0.35912755
-0.50326723 -0.45751566 0.28744072
-0.48842633 -0.48842639 0.21998189
-0.47750121 -0.52091038 0.1703224
-0.47962406 -0.56682849 0.17997169
-0.39306438 0.39306438 -0.034815744
-0.3946448 0.35518032 -0.026913792
-0.39624044 0.31699231 -0.018935531
-0.42618853 0.29833204 0.13080502
-0.46378392 0.27827042 0.31878194
-0.50863743 0.25431868 0.54304945
-0.5602693 0.22410771 0.80120897
-0.56258279 0.16877478 0.81277609
-0.56491286 0.11298245 0.82442653
-0.56726235 0.056726307 0.83617389
-0.56963402 -2.9802322e-08 0.84803224
-0.57202297 -0.05720225 0.85997713
-0.57443208 -0.11488652 0.87202245
-0.57686418 -0.1730592 0.88418311
-0.57018292 -0.22807315 0.85077691
-0.54939348 -0.27469683 0.74682975
-0.53006673 -0.31804001 0.65019584
-0.5120514 -0.35843593 0.56011939
-0.49522239 -0.39617789 0.47597432
-0.47945526 -0.43150964 0.39713854
-0.46465942 -0.46465936 0.32315937
-0.45074943 -0.49582434 0.25360951
-0.43764806 -0.52517772 0.18810269
-0.43300629 -0.56290817 0.16489361
-0.43492797 -0.60889918 0.17450203
-0.35015517 0.42796755 -0.054831162
-0.35154864 0.39060956 -0.047089666
-0.35295546 0.3529554 -0.039274141
-0.37201706 0.33068186 0.066623703
-0.40376109 0.31403637 0.24297954
-0.4414176 0.29427832 0.45218217
-0.48677468 0.27043051 0.70416594
-0.50101948 0.22267538 0.78330374
-0.50307274 0.16769096 0.79471087
-0.50514519 0.11225447 0.80622429
-0.50723249 0.056359142 0.81782031
-0.50933707 2.9802322e-08 0.8295126
-0.51146156 -0.056829035 0.84131539
-0.51360142 -0.11413366 0.85320377
-0.51576173 -0.17192039 0.86520529
-0.51793784 -0.23019457 0.87729478
-0.50374973 -0.27986091 0.79847187
-0.48570535 -0.3238036 0.69822532
-0.4689109 -0.36470848 0.60492271
-0.45323902 -0.40287918 0.51785702
-0.43857577 -0.43857583 0.43639445
-0.4248268 -0.47202978 0.36001122
-0.41191366 -0.5034501 0.28827146
-0.39976236 -0.5330165 0.22076434
-0.38830748 -0.56088853 0.15712599
-0.38873333 -0.60469621 0.15949182
-0.30932584 0.42532298 -0.066851169
-0.31055015 0.38818768 -0.059199274
-0.32101232 0.36113882 0.006189242
-0.3475382 0.34753805 0.17197594
-0.37883556 0.3314811 0.36758453
-0.4162865 0.31221479 0.60165292
-0.44073287 0.27545816 0.75444287
-0.4425222 0.22126108 0.76562595
-0.4443242 0.1666216 0.77688849
-0.44614089 0.11153519 0.78824282
-0.44797453 0.055996835 0.79970288
-0.44982123 -2.9802322e-08 0.81124508
-0.45168531 -0.056460679 0.82289529
-0.45356283 -0.11339071 0.83462989
-0.45545605 -0.17079595 0.84646249
-0.45736718 -0.22868353 0.85840702
-0.45635691 -0.28522313 0.8520931
-0.43970835 -0.32978132 0.74803972
-0.42423359 -0.3712042 0.65132201
-0.40981096 -0.40981114 0.56118089
-0.39633521 -0.44587702 0.47695738
-0.38371018 -0.47963777 0.3980509
-0.37186465 -0.51131392 0.32401627
-0.36072859 -0.54109299 0.25441593
-0.35024008 -0.56914014 0.18886282
-0.34317553 -0.60055709 0.14470929
-0.34468192 -0.64627856 0.15412433
-0.26794812 0.45933962 -0.086222619
-0.26899797 0.42271116 -0.078723535
-0.27290654 0.3898665 -0.050805315
-0.29476443 0.37898284 0.1053225
-0.32042733 0.36620265 0.28862879
-0.35094723 0.35094714 0.50662798
-0.38168529 0.32715887 0.72618592
-0.38321728 0.27372658 0.73712856
-0.3847616 0.2198637 0.74815941
-0.38632011 0.16556573 0.75929165
-0.38788965 0.1108256 0.77050245
-0.38947368 0.055639118 0.78181696
-0.39106894 1.4901161e-07 0.79321194
-0.39267734 -0.056096733 0.80470031
-0.39430079 -0.11265734 0.81629634
-0.39593592 -0.16968688 0.82797599
-0.39758471 -0.22719124 0.83975303
-0.39924905 -0.28517798 0.85164142
-0.39198115 -0.33598372 0.7997278
-0.37793592 -0.37793583 0.69940436
-0.36486232 -0.41698554 0.60602176
-0.35266158 -0.45342198 0.51887357
-0.34124646 -0.48749492 0.43733683
-0.33054465 -0.51942736 0.36089551
-0.32049367 -0.54941779 0.28910291
-0.31103593 -0.57763815 0.22154737
-0.30211931 -0.60423857 0.15785734
-0.29953635 -0.64186358 0.13940765
-0.30084896 -0.68765473 0.1487833
-0.22739135 0.49268126 -0.10520974
-0.22827345 0.45654696 -0.097858965
-0.2291631 0.42013222 -0.09044528
-0.24513388 0.40855643 0.042644501
-0.26578787 0.39868188 0.21476132
-0.29021251 0.38695005 0.41829991
-0.31957906 0.37284219 0.66302097
-0.325122 0.32512194 0.70921218
-0.32642019 0.27201676 0.72003049
-0.32772741 0.21848497 0.73092389
-0.32904512 0.16452256 0.74190485
-0.3303749 0.11012498 0.75298643
-0.33171403 0.055285662 0.76414585
-0.33306554 -2.9802322e-08 0.77540827
-0.33442661 -0.055737853 0.78675067
-0.33579883 -0.1119329 0.79818618
-0.33718392 -0.16859192 0.80972815
-0.33857894 -0.22571921 0.82135332
-0.33998555 -0.28332138 0.83307499
-0.34140539 -0.34140545 0.84490722
-0.32992807 -0.38491598 0.74926257
-0.31831047 -0.42441392 0.65244949
-0.30748445 -0.4612267 0.56223285
-0.29736829 -0.49561387 0.47793159
-0.28789222 -0.52780247 0.39896396
-0.27900138 -0.55800283 0.32487389
-0.27064228 -0.58639157 0.25521463
-0.26277041 -0.61313099 0.18961582
-0.25534356 -0.63835889 0.12772521
-0.2561124 -0.68296653 0.13413224
-0.18763138 0.52536792 -0.12382379
-0.18835206 0.48971534 -0.11661707
-0.18907887 0.45378926 -0.10934913
-0.19837219 0.43641886 -0.016415864
-0.21456431 0.42912859 0.14550532
-0.23361221 0.42050207 0.33598438
-0.2563684 0.41018933 0.56354636
-0.26820087 0.37548134 0.68187112
-0.26925978 0.32311177 0.69246018
-0.27032712 0.27032715 0.7031334
-0.27140409 0.21712331 0.71390331
-0.2724885 0.16349307 0.72474754
-0.27358282 0.10943311 0.73569047
-0.27468476 0.054936975 0.74671
-0.27579564 -5.9604645e-08 0.75781834
-0.27691671 -0.055383354 0.76902926
-0.27804571 -0.11121818 0.78031933
-0.27918398 -0.16751027 0.79170185
-0.2803328 -0.2242662 0.80319035
-0.28148991 -0.28148994 0.81476152
-0.28265786 -0.33918953 0.82644117
-0.28011352 -0.39215884 0.80099726
-0.27007106 -0.43211371 0.70057291
-0.26072484 -0.46930477 0.60711086
-0.25200388 -0.50400788 0.51990128
-0.2438418 -0.53645188 0.43828008
-0.23619094 -0.56685829 0.36177176
-0.22900641 -0.59541655 0.28992647
-0.22224608 -0.62228906 0.22232306
-0.21587344 -0.6476202 0.15859656
-0.21198313 -0.6783461 0.11969364
-0.21290202 -0.72386694 0.12888271
-0.14864539 0.55742025 -0.14207034
-0.14921032 0.52223611 -0.13500883
-0.14978044 0.48678643 -0.12788235
-0.15423892 0.46271673 -0.072151124
-0.1664464 0.45772755 0.080442294
-0.18073741 0.45184347 0.25907975
-0.19770983 0.44484717 0.47123528
-0.2124162 0.42483243 0.65506488
-0.21324646 0.37318137 0.66544306
-0.21408415 0.32112619 0.67591393
-0.21492751 0.26865932 0.68645632
-0.21577848 0.21577859 0.69709349
-0.21663529 0.16247663 0.70780349
-0.21749893 0.10874948 0.71859872
-0.21837042 0.05459258 0.72949243
-0.21924797 -1.1920929e-07 0.74046177
-0.2201326 -0.055033177 0.75151974
-0.22102536 -0.11051273 0.76267922
-0.22192442 -0.16644335 0.77391768
-0.22283183 -0.22283199 0.78526008
-0.22374567 -0.27968204 0.79668319
-0.22466706 -0.33700058 0.80820036
-0.22559707 -0.39479476 0.81982541
-0.22004901 -0.44009808 0.75047487
-0.21229813 -0.47767067 0.65358889
-0.20507386 -0.51268458 0.56328553
-0.19832274 -0.54538751 0.47889668
-0.19200051 -0.57600152 0.39986861
-0.18606889 -0.60472387 0.32572347
-0.18049279 -0.63172472 0.25602224
-0.17524117 -0.65715462 0.19037709
-0.17028652 -0.6811462 0.12844396
-0.1691722 -0.71898186 0.11451474
-0.16990429 -0.7645694 0.12366602
-0.11082557 0.55412787 -0.15304488
-0.11124492 0.51914287 -0.1460558
-0.11251786 0.48757735 -0.12484016
-0.12116118 0.48464477 0.01921536
-0.13123336 0.48118886 0.18708479
-0.14312872 0.4770956 0.38534087
-0.15739483 0.47218445 0.62310922
-0.15834668 0.42225772 0.63897371
-0.15896185 0.37091106 0.64922631
-0.15958248 0.31916505 0.65957022
-0.16020729 0.26701203 0.66998351
-0.16083701 0.21444945 0.68047905
-0.1614724 0.16147229 0.69106871
-0.16211212 0.10807472 0.70173079
-0.16275693 0.054252326 0.71247792
-0.16340761 -0 0.72332233
-0.1640628 -0.054687619 0.7342422
-0.16472398 -0.10981598 0.74526185
-0.16538978 -0.16538981 0.75635862
-0.16606098 -0.22141448 0.76754546
-0.16673841 -0.27789739 0.77883554
-0.16742063 -0.33484128 0.79020596
-0.16810846 -0.39225298 0.80166984
-0.16814359 -0.44838277 0.80225539
-0.16211352 -0.48634052 0.70175403
-0.15650031 -0.52166766 0.60820073
-0.15126221 -0.55462807 0.5208993
-0.14636114 -0.58544457 0.43921465
-0.14176771 -0.61432654 0.36265716
-0.13745381 -0.641451 0.29075897
-0.13339469 -0.66697347 0.22310732
-0.12956844 -0.69103181 0.15933645
-0.12602863 -0.71416229 0.10033965
-0.12656951 -0.75941694 0.10935402
-0.073176093 0.58540875 -0.17073539
-0.073450319 0.55087727 -0.16387987
-0.073726386 0.51608473 -0.15697797
-0.078464828 0.51002133 -0.038517147
-0.084786974 0.50872189 0.11953677
-0.092213839 0.50717616 0.30520815
-0.1010671 0.50533557 0.52653992
-0.10452608 0.47036731 0.61301422
-0.10492857 0.41971427 0.62307668
-0.10533374 0.3686682 0.63320589
-0.10574204 0.31722611 0.64341354
-0.10615398 0.26538491 0.6537118
-0.10656869 0.2131374 0.66407943
-0.10698664 0.16047996 0.67452836
-0.10740835 0.10740837 0.68507099
-0.10783293 0.053916514 0.69568563
-0.10826088 5.9604645e-08 0.70638448
-0.10869272 -0.054346234 0.71718025
-0.10912754 -0.10912755 0.72805059
-0.10956632 -0.16434941 0.73902035
-0.11000817 -0.22001642 0.75006676
-0.11045361 -0.27613395 0.76120234
-0.11090314 -0.33270931 0.77244067
-0.11135586 -0.38974553 0.78375888
-0.11181229 -0.44724914 0.79516959
-0.11007351 -0.49533081 0.75169998
-0.10619424 -0.53097117 0.65471804
-0.1025795 -0.56418729 0.56434977
-0.099200405 -0.59520251 0.47987247
-0.096036829 -0.6242395 0.40078303
-0.093068801 -0.65148139 0.32658219
-0.090278722 -0.67709041 0.25683039
-0.087651059 -0.70120835 0.19113874
-0.085172035 -0.72396231 0.12916321
-0.083815694 -0.7543413 0.095254719
-0.084174529 -0.79965818 0.10422555
-0.036240947 0.61609608 -0.1880904
-0.036375463 0.58200753 -0.18136439
-0.036510881 0.54766309 -0.17459375
-0.038142063 0.53398883 -0.093034476
-0.041123468 0.53460515 0.056035817
-0.044608593 0.53530318 0.23029193
-0.04873931 0.53613251 0.43682802
-0.051754173 0.51754194 0.58757102
-0.0519513 0.46756166 0.59742713
-0.052149933 0.41719955 0.60735893
-0.052350312 0.36645219 0.61737776
-0.052552015 0.31531209 0.6274628
-0.052755278 0.26377648 0.63762617
-0.05296034 0.21184148 0.64787936
-0.053166781 0.15950046 0.65820134
-0.053374834 0.10674956 0.66860402
-0.053584754 0.053584725 0.67909992
-0.053796101 -8.9406967e-08 0.68966722
-0.054009352 -0.054009289 0.7003299
-0.054224066 -0.10844821 0.71106565
-0.054440498 -0.16332152 0.72188723
-0.054658901 -0.21863562 0.73280728
-0.054878823 -0.27439398 0.74380332
-0.055100523 -0.33060315 0.75488842
-0.055324264 -0.38726979 0.76607537
-0.055549581 -0.44439647 0.77734125
-0.055776991 -0.50199294 0.78871179
-0.054061245 -0.54061258 0.70292473
-0.052188806 -0.57407695 0.60930264
-0.050440919 -0.60529107 0.52190828
-0.048805941 -0.6344772 0.44015923
-0.047273625 -0.66183072 0.36354357
-0.045834597 -0.68751901 0.29159224
-0.044480592 -0.71168941 0.2238919
-0.043204289 -0.73447299 0.16007677
-0.041999187 -0.75598538 0.099821508
-0.041806504 -0.79432356 0.090187609
-0.041985475 -0.8397094 0.099135906
0 0.64620858 -0.20511384
0 0.61255038 -0.19851916
0 0.5786438 -0.19187583
0 0.55666018 -0.14460355
0 0.55898273 -0.0037710071
0 0.56165963 0.16009147
0 0.56481731 0.353268
0 0.56380403 0.56260788
0 0.51448238 0.57227451
0 0.4647893 0.58202517
0 0.41471621 0.59183919
0 0.36426133 0.60172826
0 0.31342098 0.61170357
0 0.26218832 0.62174505
0 0.21056016 0.63186383
0 0.1585326 0.6420722
0 0.10609952 0.652349
0 0.053257048 0.66271722
0 -2.9802322e-08 0.67315543
0 -0.053676307 0.68367577
0 -0.10777712 0.69429082
0 -0.16230708 0.70497847
0 -0.21727109 0.71575159
0 -0.27267593 0.72662228
0 -0.32852489 0.73756862
0 -0.38482371 0.74860311
0 -0.44158012 0.75973892
0 -0.49879646 0.77095342
0 -0.5506103 0.75291431
0 -0.58431935 0.65585953
0 -0.6157276 0.56539375
0 -0.64505643 0.4808487
0 -0.67251402 0.40169817
0 -0.6982736 0.32744157
0 -0.72248858 0.25763899
0 -0.74529314 0.191901
0 -0.76680732 0.12988281
0 -0.7890597 0.07633546
0 -0.8341158 0.085151702
0.035695691 0.64252234 -0.21535335
0.03582608 0.6090433 -0.20883386
0.036133509 0.57813609 -0.19346225
0.038798694 0.58198041 -0.060203135
0.041886259 0.58640766 0.094175369
0.045507565 0.59159839 0.2752406
0.049814485 0.59777379 0.49058646
0.050955053 0.56050557 0.54761481
0.051146124 0.5114612 0.55716854
0.051338639 0.46204773 0.5667941
0.051532816 0.41226247 0.57650304
0.05172826 0.36209783 0.58627522
0.051925186 0.31155103 0.59612161
0.052123837 0.2606191 0.60605413
0.052323792 0.20929526 0.61605203
0.052525509 0.15757652 0.62613785
0.052728571 0.10545716 0.63629067
0.052933201 0.052933186 0.6465224
0.053139653 -1.1920929e-07 0.65684497
0.053347498 -0.053347558 0.66723704
0.053556975 -0.1071139 0.67771101
0.053768329 -0.16130498 0.68827879
0.053981129 -0.21592447 0.6989187
0.054195851 -0.27097929 0.70965493
0.054412056 -0.32647234 0.72046506
0.054629993 -0.38240993 0.73136199
0.054849923 -0.43879926 0.74235827
0.055071387 -0.49564242 0.75343156
0.055294648 -0.55294657 0.76459467
0.054084681 -0.59493136 0.70409632
0.05221064 -0.62652755 0.6103943
0.050461117 -0.65599442 0.52291799
0.048824847 -0.68354779 0.44110465
0.047291365 -0.70937043 0.36443049
0.045851272 -0.73362041 0.29242599
0.044496298 -0.75643718 0.22467716
0.043218955 -0.77794129 0.1608102
0.042013045 -0.79824787 0.10051459
0.041430075 -0.82860136 0.071366042
0.041605555 -0.87371659 0.080139965
0.07073047 0.67193949 -0.23187588
0.070986442 0.63887799 -0.22547667
0.071244471 0.60557801 -0.21902595
0.075464435 0.60371542 -0.11352682
0.081292011 0.60969007 0.032162607
0.088094644 0.6166625 0.2022284
0.096140131 0.62491083 0.40336546
0.10094204 0.60565221 0.52341318
0.10131695 0.55724311 0.53278595
0.10169506 0.50847536 0.54223883
0.1020756 0.45934013 0.55175227
0.10245899 0.40983602 0.56133705
0.1028457 0.35995984 0.57100451
0.10323491 0.30970478 0.58073491
0.1036275 0.25906873 0.59054977
0.10402266 0.2080452 0.6004287
0.10442086 0.15663122 0.61038351
0.10482254 0.10482255 0.6204257
0.10522688 0.052613467 0.63053435
0.10563436 5.9604645e-08 0.64072132
0.10604545 -0.053022802 0.65099859
0.10645931 -0.10645917 0.66134506
0.10687641 -0.16031465 0.67177242
0.10729725 -0.21459448 0.68229342
0.10772095 -0.26930234 0.69288594
0.10814848 -0.32444543 0.70357412
0.10857894 -0.38002634 0.7143358
0.10901285 -0.43605146 0.72518349
0.10945071 -0.49252832 0.73613024
0.10989163 -0.54945803 0.74715281
0.1101707 -0.60593879 0.75412965
0.10628513 -0.63771075 0.65699059
0.10266306 -0.66730988 0.56643885
0.099278547 -0.69494987 0.48182595
0.096110068 -0.72082549 0.40261394
0.093137234 -0.74509788 0.32829311
0.09034311 -0.76791632 0.25844005
0.087711759 -0.78940594 0.19265637
0.085229345 -0.80967879 0.13059595
0.082883582 -0.82883579 0.071951836
0.082662329 -0.86795449 0.066420466
0.083011881 -0.91313064 0.075159341
0.10512254 0.70081693 -0.24809533
0.10549948 0.66816336 -0.24181311
0.10587941 0.63527644 -0.23548084
0.11016841 0.62428761 -0.16399756
0.1184309 0.63163137 -0.026289552
0.12803365 0.64016807 0.13375622
0.13933054 0.65020907 0.32203782
0.14998829 0.64994919 0.49966699
0.15054069 0.6021629 0.50887394
0.15109658 0.55402082 0.51813871
0.1516566 0.50552195 0.52747214
0.15222138 0.4566642 0.53688556
0.15278979 0.40743944 0.54635876
0.15336306 0.35784703 0.55591327
0.15394004 0.30788004 0.56552964
0.15452136 0.25753564 0.57521844
0.15510775 0.20681028 0.58499128
0.15569794 0.15569796 0.59482789
0.15629265 0.10419524 0.6047399
0.15689255 0.052297503 0.61473823
0.15749645 8.9406967e-08 0.62480319
0.158105 -0.052701741 0.63494575
0.15871894 -0.10581267 0.64517796
0.159337 -0.15933704 0.65547884
0.15996057 -0.21328074 0.6658715
0.16058835 -0.26764733 0.67633462
0.16122107 -0.32244217 0.68688023
0.1618595 -0.3776722 0.69752049
0.1625023 -0.43333942 0.70823407
0.16315024 -0.48945072 0.71903282
0.16380407 -0.54601347 0.72993004
0.16446243 -0.60302895 0.7409029
0.1623251 -0.64930034 0.70528054
0.1566975 -0.67902231 0.61148715
0.15144399 -0.70673847 0.52392858
0.14653075 -0.73265368 0.44204134
0.14192683 -0.75694293 0.3653093
0.13760339 -0.77975249 0.29325199
0.13353556 -0.80121332 0.22545493
0.12970135 -0.82144183 0.16155142
0.12608117 -0.84054112 0.10121503
0.1231811 -0.86226767 0.052880555
0.12369817 -0.90711975 0.061498225
0.13888943 0.72916949 -0.26401985
0.1393829 0.69691443 -0.25785157
0.13988025 0.66443121 -0.25163442
0.14306396 0.6437878 -0.21183822
0.15349361 0.65234792 -0.08146733
0.1655641 0.66225648 0.069413573
0.17969435 0.67385375 0.24604176
0.19646238 0.68761832 0.45564187
0.19884296 0.64623958 0.48539925
0.19957031 0.59871095 0.49449128
0.20030381 0.55083555 0.5036599
0.20104192 0.50260484 0.51288623
0.20178549 0.4540174 0.5221808
0.20253538 0.40507069 0.53155452
0.20329006 0.35575756 0.54098803
0.20405121 0.30607679 0.5505023
0.20481724 0.2560215 0.56007767
0.20558906 0.20558903 0.56972533
0.20636755 0.15477569 0.57945669
0.2071511 0.10357544 0.58925098
0.20794064 0.051985174 0.59912014
0.20873706 2.9802322e-08 0.60907555
0.20953876 -0.052384704 0.61909676
0.21034752 -0.10517374 0.62920606
0.21116164 -0.1583712 0.63938296
0.2119821 -0.21198219 0.64963859
0.21280986 -0.26601225 0.65998548
0.21364321 -0.32046482 0.67040247
0.21448311 -0.37534547 0.68090117
0.21533056 -0.43066108 0.69149411
0.21618378 -0.48641354 0.70215958
0.21704382 -0.54260951 0.71290994
0.21791166 -0.59925711 0.72375798
0.21878552 -0.65635645 0.73468107
0.21266083 -0.69114757 0.65812272
0.20540978 -0.71893406 0.56748456
0.19863455 -0.7448796 0.48279423
0.19229272 -0.769171 0.40352136
0.18634333 -0.79195899 0.32915369
0.18075101 -0.81337941 0.25924984
0.17548458 -0.83355188 0.19341961
0.17051636 -0.85258174 0.13131666
0.1658217 -0.87056386 0.072633445
0.16385283 -0.9011904 0.048022509
0.16453899 -0.94609904 0.056599528
0.17265376 0.72514582 -0.27360007
0.17326427 0.69305712 -0.26749501
0.17387912 0.66074061 -0.26134664
0.17449832 0.62819391 -0.25515461
0.17512196 0.59541458 -0.24891813
0.17574959 0.56239861 -0.2426419
0.17638221 0.52914661 -0.23631564
0.17701942 0.49565428 -0.2299436
0.17766124 0.46191925 -0.22352526
0.17830774 0.42793852 -0.2170604
0.17895895 0.39370966 -0.21054816
0.17961545 0.35923094 -0.20398317
0.18027627 0.32449728 -0.19737488
0.18094198 0.28950715 -0.190718
0.18161261 0.25425759 -0.18401158
0.18228824 0.21874593 -0.17725521
0.25452518 0.25452527 0.54511422
0.25547868 0.20438299 0.55464911
0.25643936 0.15386349 0.56425565
0.25740832 0.1029633 0.5739454
0.2583836 0.05167672 0.58369803
0.25936732 -0 0.59353566
0.2603575 -0.052071482 0.60343742
0.26135528 -0.10454208 0.61341524
0.26236182 -0.15741709 0.6234808
0.26337507 -0.21069999 0.63361299
0.26439616 -0.2643961 0.6438238
0.26542631 -0.31851143 0.65412533
0.2664634 -0.37304872 0.6644963
0.26750863 -0.42801377 0.67494845
0.26856321 -0.4834137 0.68549436
0.26962501 -0.53924996 0.69611233
0.2706964 -0.59553218 0.70682633
0.27177516 -0.65226042 0.71761382
0.27065918 -0.70371389 0.70645416
0.26126969 -0.73155504 0.61255908
0.25250676 -0.75752044 0.52493006
0.24431258 -0.78180021 0.44298816
0.23663352 -0.8045541 0.36619756
0.22942248 -0.82592082 0.29408702
0.22263792 -0.84602392 0.22624132
0.2162431 -0.86497241 0.16229317
0.21020538 -0.88286269 0.1019161
0.20449567 -0.89978087 0.044818908
0.20433255 -0.93992949 0.043187588
0.20518617 -0.98489368 0.051724046
0.20532855 0.75287133 -0.2890664
0.20604807 0.72116822 -0.28307045
0.20677266 0.68924212 -0.27703235
0.20750234 0.65709078 -0.27095157
0.20823719 0.62471157 -0.26482779
0.20897728 0.59210223 -0.2586605
0.20972264 0.55926037 -0.2524491
0.21047273 0.52618194 -0.24619818
0.21122882 0.49286723 -0.23989753
0.21199036 0.45931247 -0.23355144
0.21275741 0.42551476 -0.22715932
0.21353002 0.39147171 -0.22072084
0.21430826 0.35718042 -0.21423551
0.21509221 0.32263833 -0.20770262
0.21588191 0.2878426 -0.20112181
0.21667743 0.25279036 -0.19449246
0.21747883 0.2174788 -0.1878141
0.21828619 0.18190517 -0.18108612
0.21909957 0.14606632 -0.17430802
0.21991837 0.10995918 -0.16748469
0.22074398 0.073581368 -0.16060461
0.22157581 0.036929253 -0.15367272
0.22241391 1.4901161e-08 -0.14668831
0.22325841 -0.037209667 -0.139651
0.22410932 -0.074703068 -0.13256004
0.22496744 -0.1124837 -0.1254091
0.22583143 -0.15055431 -0.11820902
0.22670212 -0.18891841 -0.1109533
0.22757955 -0.22757962 -0.10364152
0.2284638 -0.26654106 -0.096272655
0.22935563 -0.30580741 -0.088840693
0.23025376 -0.34538063 -0.081356376
0.23115894 -0.3852649 -0.07381323
0.23207128 -0.42546409 -0.066210434
0.23299085 -0.46598166 -0.058547392
0.23391844 -0.50682336 -0.050817385
0.23485273 -0.54798973 -0.043031663
0.23579453 -0.58948624 -0.035183519
0.23674387 -0.63131702 -0.027272075
0.23770167 -0.67348802 -0.019290566
0.23866649 -0.71599948 -0.011250317
0.23963918 -0.75885731 -0.0031447113
0.24061981 -0.80206585 0.0050272048
0.2416085 -0.84562981 0.013266593
0.24260615 -0.88955575 0.0215801
0.24361047 -0.93384004 0.029949576
0.24462159 -0.97848636 0.038375586
0.24731308 0.7772696 -0.23361576
0.24731168 0.74193501 -0.23362565
0.24731168 0.70660484 -0.23362568
0.24731238 0.67127645 -0.23362067
0.24731308 0.63594788 -0.23361574
0.24731375 0.6006192 -0.23361076
0.24731445 0.56529021 -0.2336058
0.24731515 0.52996105 -0.23360091
0.24731585 0.49463171 -0.233596
0.24731652 0.45930216 -0.23359105
0.24731722 0.4239724 -0.23358607
0.24771029 0.38925898 -0.23077857
0.24860798 0.35515425 -0.22436643
0.24951221 0.32080138 -0.21790762
0.25042304 0.28619772 -0.21140158
0.25134057 0.2513406 -0.20484795
0.25226483 0.21622699 -0.19824609
0.25319588 0.18085422 -0.19159554
0.25413388 0.14521927 -0.18489574
0.25507882 0.10931957 -0.17814605
0.25603011 0.073151469 -0.17135137
0.25698924 0.036712728 -0.1645003
0.25795558 -1.4901161e-08 -0.15759781
0.25892922 -0.036989938 -0.15064321
0.25991026 -0.074260123 -0.1436359
0.26089874 -0.11181375 -0.13657533
0.26189476 -0.14965416 -0.12946081
0.26289842 -0.18778452 -0.12229183
0.26390982 -0.22620843 -0.11506764
0.26492903 -0.264929 -0.10778762
0.2659561 -0.30394986 -0.10045111
0.26699042 -0.34327337 -0.09306334
0.26803359 -0.38290501 -0.085612059
0.26908493 -0.42284775 -0.07810238
0.27014461 -0.46310508 -0.070533529
0.27121264 -0.50368059 -0.062904686
0.27228913 -0.54457814 -0.055215478
0.2733742 -0.5858019 -0.047464907
0.27446881 -0.62735724 -0.039646119
0.27557138 -0.66924483 -0.031770736
0.27668282 -0.71147013 -0.023831815
0.27780327 -0.75403738 -0.01582858
0.27893284 -0.79695094 -0.0077602863
0.28007251 -0.84021747 0.00038018823
0.28122064 -0.88383627 0.0085811615
0.28237823 -0.92781413 0.016849667
0.2835454 -0.97215551 0.02518636
0.28472036 -1.0168586 0.033579409
0.3247104 0.81177604 0.029302269
0.32470831 0.7711823 0.029289365
0.32470623 0.73058897 0.029276133
0.32470414 0.68999624 0.029263079
0.32470205 0.64940411 0.029250026
0.32469997 0.60881239 0.029236943
0.32469785 0.56822121 0.029223919
0.32469577 0.52763063 0.029210851
0.32469368 0.48704052 0.029197693
0.32469472 0.44645524 0.029204279
0.32469577 0.40586972 0.029210776
0.32469681 0.36528391 0.029217348
0.32469785 0.32469794 0.029223904
0.3246989 0.28411156 0.029230356
0.32470098 0.24352571 0.029243425
0.32470205 0.20293881 0.029249996
0.3247031 0.16235149 0.02925662
0.32470414 0.12176409 0.029263157
0.32470518 0.081176266 0.029269574
0.32470623 0.040588349 0.029276241
0.32470727 -6.4261258e-08 0.0292827
0.32470831 -0.040588569 0.02928924
0.32470936 -0.081177324 0.029295845
0.3247104 -0.12176642 0.029302251
0.32471249 -0.16235617 0.029315382
0.32471356 -0.20294592 0.029321909
0.3247146 -0.24353595 0.029328495
0.32471561 -0.28412622 0.029335
0.32471669 -0.3247166 0.029341578
0.32471773 -0.36530745 0.029348105
0.32471877 -0.40589851 0.029354632
0.32471982 -0.44648969 0.029361129
0.32472086 -0.48708135 0.029367685
0.32472193 -0.52767313 0.029374257
0.32472295 -0.5682652 0.029380858
0.32472399 -0.60885751 0.029387206
0.3247261 -0.64945215 0.029400468
0.32472712 -0.69004512 0.029406935
0.32472819 -0.73063838 0.029413372
0.32472923 -0.77123177 0.029419988
0.32473028 -0.81182557 0.029426396
0.32473132 -0.85241979 0.029433042
0.32473236 -0.89301407 0.029439658
0.32473344 -0.93360853 0.029446065
0.32473445 -0.97420341 0.029452682
0.32473549 -1.0147984 0.029459149
0.32473657 -1.0553937 0.029465675
0.42917818 0.90604293 0.38418561
0.42917493 0.85834992 0.38416746
0.42917168 0.8106575 0.38414934
0.42916843 0.76296604 0.38413137
0.42916518 0.71527529 0.3841134
0.42916194 0.66758537 0.38409531
0.42915869 0.61989594 0.38407725
0.42915544 0.57220721 0.38405907
0.42915219 0.52451938 0.38404113
0.42914894 0.47683209 0.38402301
0.42914569 0.42914569 0.38400504
0.42914245 0.38146001 0.38398713
0.4291392 0.33377489 0.38396904
0.42913598 0.28609058 0.38395089
0.42913273 0.23840702 0.38393289
0.42912948 0.19072425 0.38391492
0.42912948 0.14304316 0.38391495
0.42913109 0.09536241 0.38392395
0.42913273 0.047681347 0.38393292
0.42913434 -1.4901161e-08 0.38394195
0.42913598 -0.047681779 0.38395104
0.42913759 -0.09536387 0.38395995
0.4291392 -0.1430463 0.38396898
0.42914084 -0.19072925 0.38397798
0.42914408 -0.23841336 0.38399604
0.42914569 -0.28609708 0.38400507
0.42914733 -0.33378124 0.38401416
0.42914894 -0.38146567 0.38402301
0.42915058 -0.42915049 0.38403207
0.42915219 -0.47683573 0.38404116
0.42915383 -0.52452129 0.38405022
0.42915544 -0.57220733 0.38405919
0.42915708 -0.61989343 0.38406828
0.42915869 -0.66758025 0.38407731
0.4291603 -0.71526706 0.38408613
0.42916194 -0.76295447 0.38409519
0.42916518 -0.81064528 0.38411319
0.42916679 -0.85833359 0.38412234
0.42916843 -0.90602231 0.38413137
0.42917004 -0.95371121 0.38414031
0.57792234 0.98246795 0.88947374
0.57791698 0.92466706 0.88944715
0.57791167 0.86686754 0.88942075
0.57790637 0.80906892 0.88939416
0.57790112 0.75127149 0.88936788
0.57789582 0.69347495 0.88934135
0.57789046 0.63567966 0.88931477
0.57788521 0.57788527 0.88928831
0.57787991 0.52009195 0.88926184
0.57787198 0.46229759 0.88922215
0.57786661 0.40450662 0.88919556
0.57786399 0.34671831 0.88918215
0.57785869 0.28892931 0.88915575
0.57785076 0.23114023 0.88911593
0.57784545 0.17335373 0.88908958
0.57784015 0.11556801 0.889063
0.57783484 0.057783484 0.88903648
0.5778296 -0 0.88901007
0.57782429 -0.057782561 0.88898349
0.57781893 -0.11556375 0.88895702
0.57781368 -0.17334408 0.88893068
0.57780838 -0.23112333 0.88890409
0.57780308 -0.28890157 0.88887757
0.57780576 -0.34668353 0.88889098
0.577811 -0.40446776 0.88891727
0.57781368 -0.46225107 0.88893056
0.57781631 -0.52003473 0.88894379
0.57781893 -0.57781893 0.88895702
0.57782161 -0.63560379 0.88897026
0.57782429 -0.69338918 0.88898367
0.57782692 -0.75117487 0.88899672
0.5778296 -0.80896127 0.88901001
0.57783222 -0.86674809 0.88902318
