# .PCD v0.7 - Point Cloud Data file format
VERSION 0.7
FIELDS x y z
SIZE 4 4 4
TYPE F F F
COUNT 1 1 1
WIDTH 1019
HEIGHT 1
VIEWPOINT 0 0 0 1 0 0 0
POINTS 1019
DATA ascii
-1.0958164 -0.24351475 0.029151976
-1.102546 -0.21202801 0.12014297
-1.0353619 -0.23892966 -0.0090570301
-1.043722 -0.2810021 0.0070199221
-1.1099073 -0.17758518 0.21967676
-0.98841953 -0.19768383 -0.023298614
-0.99554026 -0.23892966 -0.0090570301
-1.0035789 -0.2810021 0.0070199221
-0.99029487 -0.16504915 0.062976643
-0.94812429 -0.1975258 -0.024878778
-0.9557187 -0.23892966 -0.0090570301
-0.96343571 -0.2810021 0.0070199221
-0.97127843 -0.32375944 0.023358926
-0.99232775 -0.12943408 0.15709643
-0.90145588 -0.156775 -0.040451013
-0.90861911 -0.1975258 -0.024878778
-0.91589707 -0.23892966 -0.0090570301
-0.92345726 -0.28105223 0.0073780715
-0.93080848 -0.32375944 0.023358926
-0.99455488 -0.090414092 0.2602143
-0.88392085 -0.12053473 0.0087732337
-0.86226219 -0.156775 -0.040451013
-0.86911392 -0.1975258 -0.024878778
-0.92059207 -0.25107056 0.092117026
-0.8971867 -0.28546846 0.038922958
-0.89033854 -0.32375944 0.023358926
-0.89764857 -0.36721987 0.039972663
-0.9970057 -0.047476411 0.37368542
-0.88119 -0.083922848 0.097933739
-0.81663042 -0.11666143 -0.055779666
-0.82306838 -0.156775 -0.040451013
-0.91747749 -0.21844698 0.18433252
-0.89314747 -0.25518495 0.1264039
-0.87007451 -0.29002482 0.071468256
-0.8498686 -0.32375944 0.023358926
-0.85684633 -0.36721987 0.039972663
-0.99971563 -0 0.49915132
-0.8781994 -0.043910064 0.19536081
-0.78299564 -0.078299552 -0.042648613
-0.77774322 -0.11666143 -0.055779666
-0.78387469 -0.156775 -0.040451013
-0.88874608 -0.22218652 0.22172756
-0.86478543 -0.25943568 0.16182581
-0.8420856 -0.29472998 0.10507626
-0.82054967 -0.3282198 0.051236466
-0.81604415 -0.36721987 0.039972663
-0.82279694 -0.41139859 0.056854695
-1.0027238 0.052774906 0.63860917
-0.87491113 -7.4505806e-08 0.30225995
-0.77597803 -0.040840965 0.041909639
-0.73312163 -0.077170648 -0.070870273
-0.73885614 -0.11666143 -0.055779666
-0.88393492 -0.18609154 0.3260068
-0.85901695 -0.22605713 0.26043326
-0.83546537 -0.26383114 0.19845557
-0.81317079 -0.29958925 0.13978539
-0.79204041 -0.3334907 0.084179126
-0.77523941 -0.36721855 0.039966002
-0.7816571 -0.41139859 0.056854695
-1.006092 0.11178809 0.79456222
-0.87128621 0.048404828 0.42010182
-0.76832676 -7.4505806e-08 0.13410324
-0.68918735 -0.038288131 -0.085728429
-0.69453627 -0.077170648 -0.070870273
-0.69996893 -0.11666143 -0.055779666
-0.85269397 -0.18948759 0.36845669
-0.82823074 -0.23006405 0.30050308
-0.80513477 -0.26837829 0.23634778
-0.78328931 -0.30461246 0.17566586
-0.76260054 -0.33893359 0.11819709
-0.74297893 -0.37148947 0.063692674
-0.74051726 -0.41139859 0.056854695
-0.74669623 -0.45631433 0.074018419
-1.0098833 0.17821476 0.9701072
-0.86727029 0.10203181 0.55065727
-0.75994927 0.044702925 0.23500706
-0.67623878 -1.2572855e-08 -0.01120017
-0.65089917 -0.038288131 -0.085728429
-0.65595096 -0.077170648 -0.070870273
-0.84573644 -0.14924759 0.48732224
-0.82029486 -0.19301058 0.41249412
-0.79633629 -0.23421666 0.34202778
-0.77373755 -0.27308381 0.27556083
-0.75238866 -0.30980709 0.21277009
-0.73218375 -0.34455708 0.1533439
-0.7130428 -0.37749323 0.097046897
-0.69937742 -0.41139859 0.056854695
-0.70521313 -0.45631433 0.074018419
-1.0141828 0.2535457 1.1691833
-0.86279631 0.16177437 0.69610095
-0.75073189 0.093841441 0.34589937
-0.66441453 0.041525934 0.076157667
-0.60792905 -4.0978193e-08 -0.10035948
-0.612611 -0.038288131 -0.085728429
-0.61736751 -0.077170916 -0.070864379
-0.81154352 -0.15216438 0.53593594
-0.78666502 -0.19666621 0.45819038
-0.76326936 -0.2385217 0.38507891
-0.74122238 -0.2779583 0.31618211
-0.72041327 -0.31518081 0.25115365
-0.70074308 -0.35037148 0.18968439
-0.6821208 -0.38369292 0.13148974
-0.66446269 -0.41528916 0.076308131
-0.66372997 -0.45631433 0.074018419
-0.66931707 -0.50198781 0.091478065
-0.85778135 0.22874168 0.85913348
-0.74055219 0.14811043 0.46836957
-0.6515016 0.086866856 0.17153424
-0.58155608 0.038770426 -0.061617523
-0.56993347 -4.0978193e-08 -0.10035948
-0.57432276 -0.038288131 -0.085728429
-0.80184847 -0.10691309 0.67269051
-0.77598757 -0.15519752 0.58648747
-0.75173968 -0.20046392 0.50566107
-0.72896123 -0.24298705 0.42973304
-0.70752525 -0.28301007 0.35827982
-0.68731153 -0.32074538 0.29090065
-0.6682207 -0.35638434 0.22726437
-0.65016615 -0.39009964 0.16708279
-0.63306159 -0.422041 0.11006758
-0.62224686 -0.45631433 0.074018419
-0.62748474 -0.50198781 0.091478065
-0.85211676 0.30432752 1.0431365
-0.72925109 0.20835756 0.60433066
-0.63734752 0.13657445 0.27610344
-0.56599385 0.080856301 0.021268833
-0.52790332 0.037707355 -0.11476864
-0.5319379 -4.0978193e-08 -0.10035948
-0.53603625 -0.038288303 -0.08572261
-0.75599808 -0.10799968 0.69985551
-0.73898214 -0.15835334 0.63908434
-0.7154389 -0.20441112 0.55500132
-0.69334674 -0.24762379 0.4761008
-0.6725781 -0.28824773 0.40192705
-0.65301996 -0.32650992 0.33207625
-0.63456476 -0.36260846 0.26616508
-0.61712623 -0.39672402 0.20388454
-0.60062462 -0.4290176 0.14495039
-0.58498061 -0.45962757 0.089078575
-0.58565241 -0.50198781 0.091478065
-0.84567732 0.39031267 1.2524674
-0.7166326 0.27562794 0.75614166
-0.62175667 0.19130969 0.3912341
-0.54904318 0.1267022 0.11156682
-0.49155346 0.075623579 -0.10954768
-0.49019596 0.037707355 -0.11476864
-0.49394381 -3.7252903e-08 -0.10035382
-0.69659293 -0.053584099 0.67906564
-0.70199823 -0.10799968 0.69985551
-0.70044357 -0.16164073 0.69387615
-0.67767715 -0.20851597 0.60631275
-0.65634662 -0.25244099 0.52427256
-0.63631552 -0.2936841 0.44722974
-0.6174708 -0.33248425 0.37475002
-0.59971243 -0.36905384 0.30644852
-0.58294481 -0.40357724 0.24195789
-0.56709528 -0.43622708 0.18099803
-0.5520829 -0.46714711 0.12325813
-0.54382014 -0.50198781 0.091478065
-0.54843479 -0.54843479 0.10922691
-0.70245206 0.35122588 0.92674565
-0.60449749 0.25187385 0.51860154
-0.53050727 0.17683572 0.21030943
-0.47264433 0.11816107 -0.030786637
-0.44908246 0.074847102 -0.12896089
-0.45248857 0.037707355 -0.11476864
-0.63809556 -2.9802322e-08 0.65859383
-0.64300883 -0.053584099 0.67906564
-0.64799839 -0.10799968 0.69985551
-0.65306872 -0.16326731 0.72098196
-0.63837034 -0.21279007 0.65973854
-0.61787587 -0.2574482 0.57434511
-0.59865642 -0.29932815 0.49426413
-0.58059877 -0.33868268 0.41902402
-0.56359661 -0.37573102 0.34818134
-0.54756176 -0.41067129 0.28136969
-0.5324198 -0.44368312 0.21827804
-0.5180909 -0.4749167 0.15857445
-0.50451481 -0.50451475 0.10200733
-0.50624758 -0.54843479 0.10922691
-0.68640018 0.43680018 1.119863
-0.58529878 0.31925398 0.66031122
-0.51015294 0.23188779 0.31873921
-0.45209116 0.16439681 0.054822128
-0.40858325 0.11143173 -0.14294104
-0.41165891 0.074847102 -0.12896089
-0.41478243 0.037707523 -0.11476298
-0.58492094 -2.9802322e-08 0.65859383
-0.58942479 -0.053584099 0.67906564
-0.59399849 -0.10799968 0.69985551
-0.59864634 -0.16326731 0.72098196
-0.59741837 -0.21724308 0.71540022
-0.57785046 -0.26265925 0.62645525
-0.5595237 -0.30519468 0.54315203
-0.54232377 -0.34511504 0.46497041
-0.52615172 -0.38265586 0.39146113
-0.51091439 -0.41802078 0.32220036
-0.49653828 -0.45139852 0.25685453
-0.48295075 -0.48295081 0.19509301
-0.4700855 -0.51282054 0.13661456
-0.46406025 -0.54843479 0.10922691
-0.4680334 -0.59567893 0.12728706
-0.563811 0.39466757 0.81891704
-0.4876968 0.29261801 0.43834624
-0.42966995 0.21483499 0.148212
-0.38398191 0.15359278 -0.080228075
-0.37143934 0.11143173 -0.14294104
-0.37423536 0.074847102 -0.12896089
-0.52771181 0.052771151 0.6384213
-0.53174627 -2.9802322e-08 0.65859383
-0.53584069 -0.053584099 0.67906564
-0.54000098 -0.10800013 0.69986707
-0.54422396 -0.16326731 0.72098196
-0.54851353 -0.2194055 0.74242997
-0.53616899 -0.26808459 0.68070722
-0.51882648 -0.31129593 0.59399474
-0.50256872 -0.351798 0.5127058
-0.48729891 -0.38983911 0.43635672
-0.47293139 -0.42563829 0.36451915
-0.45938686 -0.45938683 0.29679653
-0.44659969 -0.49125975 0.23286064
-0.43450359 -0.52140445 0.1723803
-0.42304692 -0.54996103 0.11509691
-0.42548493 -0.59567893 0.12728706
-0.53959876 0.47964337 0.99763304
-0.4627924 0.35994962 0.57093108
-0.40511376 0.27007583 0.25049436
-0.36021331 0.20011856 0.0010472983
-0.33181629 0.14747383 -0.15671383
-0.33429542 0.11143173 -0.14294104
-0.33681282 0.074847363 -0.1289553
-0.47494262 0.052771449 0.63843238
-0.47857171 -2.9802322e-08 0.65859383
-0.48225665 -0.053584099 0.67906564
-0.48600087 -0.10800013 0.69986707
-0.48980156 -0.16326731 0.72098196
-0.49366432 -0.21940637 0.74244189
-0.49273145 -0.27373958 0.73725939
-0.47646689 -0.31764454 0.64690036
-0.46124357 -0.35874501 0.56232667
-0.44696119 -0.39729881 0.48297995
-0.43353674 -0.43353665 0.40839979
-0.42089832 -0.46766469 0.33818623
-0.40897587 -0.49985942 0.27195039
-0.39771026 -0.53028047 0.20936379
-0.38705 -0.55907226 0.15013997
-0.38293514 -0.59567678 0.12727976
-0.38624206 -0.64373672 0.14565144
-0.51210874 0.5761224 1.2005421
-0.43502223 0.43502229 0.71875131
-0.37810248 0.33083975 0.36300284
-0.33434334 0.25075749 0.089508183
-0.29966238 0.18728903 -0.12724788
-0.29494783 0.14747383 -0.15671383
-0.29715234 0.11143216 -0.1429356
-0.41899219 0.10474806 0.61856341
-0.42217121 0.052771449 0.63843238
-0.42539704 -2.9802322e-08 0.65859383
-0.42867437 -0.053584307 0.67907703
-0.43200076 -0.10800013 0.69986707
-0.43537918 -0.16326731 0.72098196
-0.43881276 -0.21940637 0.74244189
-0.44229895 -0.27643687 0.76423085
-0.43234533 -0.32425892 0.70202053
-0.41825175 -0.36597019 0.61393571
-0.40504959 -0.40504956 0.53142238
-0.39265388 -0.4417356 0.45394909
-0.38099581 -0.47624481 0.38108608
-0.37001136 -0.50876564 0.31243324
-0.35964385 -0.53946579 0.24763629
-0.34984025 -0.56849039 0.18636383
-0.34055695 -0.59597462 0.12834319
-0.34332627 -0.64373672 0.14565144
-0.40386593 0.51925629 0.88461888
-0.34824717 0.39799669 0.48734191
-0.30608049 0.30608049 0.18615144
-0.2730214 0.2340183 -0.049984813
-0.25617954 0.18298535 -0.17028387
-0.25807935 0.14747383 -0.15671383
-0.26000908 0.11143243 -0.14293016
-0.36661968 0.10474852 0.61857432
-0.36939979 0.052771449 0.63843238
-0.37222242 -2.9802322e-08 0.65859383
-0.37509009 -0.053584307 0.67907703
-0.37800068 -0.10800013 0.69986707
-0.38095677 -0.16326731 0.72098196
-0.38396117 -0.21940637 0.74244189
-0.38701162 -0.27643687 0.76423085
-0.3863472 -0.33115473 0.75948524
-0.37349415 -0.37349415 0.66767752
-0.36146873 -0.41310704 0.58178174
-0.35019493 -0.45025063 0.50125462
-0.33960178 -0.48514539 0.42558929
-0.32963318 -0.51799494 0.3543849
-0.32023424 -0.5489729 0.28724971
-0.31135535 -0.57823122 0.22382899
-0.30295658 -0.6059131 0.16383786
-0.30041048 -0.64373672 0.14565144
-0.30302736 -0.69263399 0.16434337
-0.36866122 0.61443526 1.0720391
-0.31507295 0.4726094 0.62547022
-0.27507561 0.36676762 0.29215911
-0.2440878 0.28476906 0.033927217
-0.21937415 0.21937418 -0.17201981
-0.21958247 0.18298535 -0.17028387
-0.22121152 0.14747436 -0.15670848
-0.3118968 0.15594848 0.5990023
-0.31424546 0.10474852 0.61857432
-0.3166284 0.052771449 0.63843238
-0.31904778 -2.9802322e-08 0.65859383
-0.32150578 -0.053584307 0.67907703
-0.3240006 -0.10800013 0.69986707
-0.32653579 -0.16326791 0.72099388
-0.32910958 -0.21940637 0.74244189
-0.33172423 -0.27643687 0.76423085
-0.33438227 -0.3343823 0.78638095
-0.3268576 -0.38133377 0.72367561
-0.31612012 -0.42149335 0.63419652
-0.30606565 -0.4590984 0.55040938
-0.29663223 -0.494387 0.47179747
-0.28776401 -0.52756733 0.39789578
-0.27941066 -0.55882132 0.32828453
-0.2715286 -0.58831185 0.26260054
-0.26407996 -0.6161865 0.20052855
-0.25749296 -0.64373243 0.1456369
-0.25973773 -0.69263399 0.16434337
-0.27799666 0.55599332 0.77982873
-0.24091177 0.43364123 0.4089798
-0.21255159 0.34008247 0.12537819
-0.19016586 0.26623225 -0.098478973
-0.18164822 0.21797791 -0.18365555
-0.18298593 0.18298587 -0.17027852
-0.2579869 0.20638961 0.57973111
-0.25991398 0.15594848 0.5990023
-0.26187119 0.10474852 0.61857432
-0.26385701 0.052771449 0.63843238
-0.26587427 -0 0.65860522
-0.26792151 -0.053584307 0.67907703
-0.27000049 -0.10800013 0.69986707
-0.27211317 -0.16326791 0.72099388
-0.27425799 -0.21940637 0.74244189
-0.27643809 -0.27643809 0.76424289
-0.27865186 -0.3343823 0.78638095
-0.27822006 -0.38950801 0.78206259
-0.26889214 -0.43022728 0.68878341
-0.26016834 -0.46830308 0.60154557
-0.25199279 -0.50398558 0.51979023
-0.24431732 -0.53749806 0.44303539
-0.23709562 -0.56902933 0.37081847
-0.23028941 -0.5987525 0.30275643
-0.22386229 -0.62681437 0.23848504
-0.21778415 -0.6533525 0.17770375
-0.21644735 -0.69263148 0.16433586
-0.21834937 -0.74238783 0.18335599
-0.23628752 0.6497907 0.95345616
-0.20307878 0.50769699 0.53834695
-0.17804679 0.40060529 0.22544706
-0.15850863 0.31701726 -0.018779784
-0.14426437 0.2524626 -0.19683325
-0.14531858 0.21797791 -0.18365555
-0.14638917 0.18298642 -0.1702733
-0.20638952 0.20638961 0.57973111
-0.20793205 0.15594912 0.59901309
-0.20949696 0.10474852 0.61857432
-0.2110856 0.052771449 0.63843238
-0.21269943 -0 0.65860522
-0.21433719 -0.053584307 0.67907703
-0.2160013 -0.10800064 0.69987869
-0.21769053 -0.16326791 0.72099388
-0.21940638 -0.21940637 0.74244189
-0.22115046 -0.27643809 0.76424289
-0.22292151 -0.3343823 0.78638095
-0.22472213 -0.39326379 0.80888891
-0.21966451 -0.43932897 0.74566847
-0.21239205 -0.47788209 0.6547628
-0.20558654 -0.51396644 0.5696941
-0.19920361 -0.5478099 0.48990738
-0.19320583 -0.57961756 0.41493529
-0.18755938 -0.60956788 0.34435454
-0.18223293 -0.63781518 0.27777374
-0.17720127 -0.66450471 0.2148781
-0.17315729 -0.69262916 0.16432832
-0.1746795 -0.74238783 0.18335599
-0.18902223 0.75608885 1.1502328
-0.16095068 0.59015244 0.68237329
-0.14013252 0.46710834 0.33540419
-0.1240822 0.37224662 0.067898974
-0.11133074 0.29688197 -0.14462528
-0.10819827 0.2524626 -0.19683325
-0.10898925 0.21797852 -0.18365027
-0.15365289 0.25608826 0.56074375
-0.15479213 0.20638961 0.57973111
-0.15594904 0.15594912 0.59901309
-0.15712273 0.10474852 0.61857432
-0.15831487 0.052771717 0.63844347
-0.15952456 -0 0.65860522
-0.16075289 -0.053584307 0.67907703
-0.16200098 -0.10800064 0.69987869
-0.1632679 -0.16326791 0.72099388
-0.16455479 -0.21940637 0.74244189
-0.16586284 -0.27643809 0.76424289
-0.16719113 -0.3343823 0.78638095
-0.16854161 -0.39326379 0.80888891
-0.16830976 -0.44882613 0.8050251
-0.16262113 -0.48786327 0.71021438
-0.15730445 -0.52434802 0.62160307
-0.15232503 -0.5585252 0.53861284
-0.14765233 -0.59060931 0.46073455
-0.14325725 -0.62078136 0.387483
-0.13911624 -0.64920902 0.31846622
-0.13520838 -0.67604196 0.25333542
-0.13151363 -0.70140612 0.19175616
-0.13100916 -0.74238527 0.18334839
-0.1321706 -0.79302347 0.20270562
-0.11375352 0.6825211 0.84370035
-0.098277152 0.54052442 0.4567911
-0.086505845 0.43252921 0.16250838
-0.077252775 0.34763744 -0.068818375
-0.071612664 0.28645062 -0.20982109
-0.072132386 0.25246331 -0.19682817
-0.072659701 0.21797916 -0.18364514
-0.10243526 0.25608826 0.56074375
-0.10319518 0.20639043 0.57974172
-0.10396603 0.15594912 0.59901309
-0.10474848 0.10474852 0.61857432
-0.10554325 0.052771717 0.63844347
-0.10634971 -0 0.65860522
-0.10716859 -0.053584307 0.67907703
-0.10800065 -0.10800064 0.69987869
-0.10884526 -0.16326791 0.72099388
-0.10970366 -0.21940717 0.74245393
-0.11057523 -0.27643809 0.76424289
-0.11146075 -0.3343823 0.78638095
-0.11236107 -0.39326379 0.80888891
-0.11327554 -0.45310223 0.83175087
-0.11072678 -0.49827063 0.76803184
-0.10703208 -0.5351603 0.67566395
-0.10357598 -0.56966782 0.58926171
-0.10033729 -0.6020239 0.50829458
-0.097294629 -0.63241512 0.432228
-0.094431423 -0.66101992 0.36064792
-0.091731578 -0.68798691 0.2931518
-0.089181833 -0.71345454 0.22940798
-0.08733914 -0.74238276 0.18334091
-0.08811374 -0.79302347 0.20270562
-0.060516227 0.78671104 1.0256737
-0.051832505 0.62198997 0.59148735
-0.045326546 0.49859193 0.26618952
-0.040271688 0.40271688 0.013446525
-0.036231156 0.32608041 -0.18857998
-0.035806332 0.28645062 -0.20982109
-0.036066297 0.25246415 -0.19682291
-0.050843429 0.30506063 0.54203379
-0.051217631 0.25608826 0.56074375
-0.051597588 0.20639043 0.57974172
-0.051983014 0.15594912 0.59901309
-0.05237424 0.10474852 0.61857432
-0.052771624 0.052771717 0.63844347
-0.053174857 -0 0.65860522
-0.053584527 -0.053584486 0.67908859
-0.054000326 -0.10800064 0.69987869
-0.054422632 -0.16326791 0.72099388
-0.05485183 -0.21940717 0.74245393
-0.055287614 -0.27643809 0.76424289
-0.055730619 -0.33438364 0.78639328
-0.056180533 -0.39326379 0.80888891
-0.056637771 -0.45310223 0.83175087
-0.056569893 -0.50912905 0.8283568
-0.054642785 -0.54642785 0.7320016
-0.052842427 -0.58126664 0.64198363
-0.051157337 -0.61388803 0.55772918
-0.049576398 -0.64449322 0.4786821
-0.048090421 -0.67326593 0.40438333
-0.046690766 -0.70036149 0.33440059
-0.045370441 -0.725927 0.26838422
-0.044122577 -0.75008368 0.20599115
-0.04405687 -0.79302347 0.20270562
0 0.71290326 0.74179763
0 0.57130814 0.38031256
0 0.46269724 0.10303159
0 0.37674925 -0.1163918
0 0.31995264 -0.22262323
0 0.28645146 -0.20981595
0 0.25246489 -0.19681773
0 0.30506063 0.54203379
0 0.25608826 0.56074375
0 0.20639043 0.57974172
0 0.15594912 0.59901309
0 0.10474882 0.61858511
0 0.052771717 0.63844347
0 -0 0.65860522
0 -0.053584486 0.67908859
0 -0.10800064 0.69987869
0 -0.16326854 0.72100556
0 -0.21940717 0.74245393
0 -0.27643809 0.76424289
0 -0.33438364 0.78639328
0 -0.39326379 0.80888891
0 -0.45310426 0.83176351
0 -0.51392496 0.85500091
0 -0.55817741 0.79074961
0 -0.59334773 0.69689715
0 -0.62622929 0.6091513
0 -0.65704417 0.52695531
0 -0.685974 0.44977003
0 -0.7131893 0.37716025
0 -0.73884046 0.30873883
0 -0.76305366 0.24413787
0 -0.79301804 0.20269039
0 -0.84456778 0.22240922
0.058214277 0.81499982 0.91057599
0.050133321 0.65173322 0.5065285
0.044021934 0.52826327 0.20095916
0.03923852 0.43162373 -0.038211733
0.035392746 0.35392749 -0.23050037
0.035550389 0.31995347 -0.22261825
0.035806537 0.2864522 -0.20981096
0.050474655 0.35332268 0.52359504
0.050843429 0.30506063 0.54203379
0.051217835 0.25608909 0.56075406
0.051597588 0.20639043 0.57974172
0.051983014 0.15594912 0.59901309
0.052374456 0.10474882 0.61858511
0.052771624 0.052771717 0.63844347
0.053175081 1.1920929e-07 0.65861642
0.053584527 -0.053584486 0.67908859
0.054000326 -0.10800064 0.69987869
0.054422867 -0.16326854 0.72100556
0.05485183 -0.21940717 0.74245393
0.055287857 -0.27643937 0.76425493
0.055730619 -0.33438364 0.78639328
0.056180533 -0.39326379 0.80888891
0.056638025 -0.45310426 0.83176351
0.057102773 -0.51392496 0.85500091
0.057044614 -0.57044613 0.85209298
0.05508535 -0.60593879 0.75412965
0.053256422 -0.63907707 0.66268337
0.051545464 -0.67009091 0.57713532
0.049940817 -0.69917154 0.49690333
0.048433255 -0.72649872 0.42152494
0.047013864 -0.7522217 0.35055524
0.045675464 -0.77648282 0.28363532
0.044411 -0.79939801 0.22041216
0.044450786 -0.84456491 0.22240159
0.12406534 0.93049008 1.101496
0.10588108 0.7411676 0.64688927
0.092343226 0.60023099 0.30844283
0.081875056 0.4912504 0.046738654
0.073538393 0.40446115 -0.1616779
0.070595965 0.35297981 -0.23523864
0.071100987 0.3199544 -0.22261325
0.10022239 0.40088958 0.505422
0.10094931 0.35332268 0.52359504
0.10168686 0.30506063 0.54203379
0.10243567 0.25608909 0.56075406
0.10319518 0.20639043 0.57974172
0.10396646 0.15594961 0.5990237
0.10474891 0.10474882 0.61858511
0.10554325 0.052771717 0.63844347
0.10635016 1.1920929e-07 0.65861642
0.10716905 -0.053584486 0.67908859
0.10800111 -0.10800111 0.69989014
0.10884573 -0.16326854 0.72100556
0.10970366 -0.21940717 0.74245393
0.11057571 -0.27643937 0.76425493
0.11146124 -0.33438364 0.78639328
0.11236157 -0.39326549 0.80890155
0.11327605 -0.45310426 0.83176351
0.11420555 -0.51392496 0.85500091
0.11515094 -0.57575476 0.87863559
0.11255977 -0.6190787 0.81385648
0.1087443 -0.65246588 0.71846986
0.10517947 -0.68366647 0.62934881
0.10184093 -0.71288657 0.5458855
0.098708197 -0.74031144 0.46756715
0.095762081 -0.76609665 0.3939144
0.092987083 -0.79039025 0.3245393
0.090368055 -0.81331241 0.25906354
0.088901252 -0.84456199 0.22239369
0.089703932 -0.89703918 0.24246061
0.16824237 0.84121174 0.80390143
0.14562659 0.67959064 0.42697215
0.12837054 0.55627239 0.1393714
0.11477111 0.45908448 -0.087285846
0.1051474 0.38554046 -0.24768105
0.10589395 0.35297981 -0.23523864
0.10665177 0.31995529 -0.22260821
0.1503336 0.40088958 0.505422
0.15142398 0.35332268 0.52359504
0.15253089 0.30506167 0.54204392
0.1536535 0.25608909 0.56075406
0.15479276 0.20639043 0.57974172
0.1559497 0.15594961 0.5990237
0.15712339 0.10474882 0.61858511
0.15831552 0.052771747 0.63845444
0.15952523 1.1920929e-07 0.65861642
0.16075358 -0.053584486 0.67908859
0.16200168 -0.10800111 0.69989014
0.1632686 -0.16326854 0.72100556
0.1645555 -0.21940717 0.74245393
0.16586357 -0.27643937 0.76425493
0.16719185 -0.33438364 0.78639328
0.16854236 -0.39326549 0.80890155
0.16991408 -0.45310426 0.83176351
0.17130831 -0.51392496 0.85500091
0.17272641 -0.57575476 0.87863559
0.17258212 -0.63280112 0.87623107
0.16660616 -0.66642445 0.7766313
0.16103156 -0.69780338 0.68372154
0.15581857 -0.72715324 0.59683847
0.15093192 -0.75465965 0.51539427
0.14634244 -0.78049314 0.43890315
0.14202438 -0.8048048 0.36693513
0.13795333 -0.82771987 0.29908442
0.13410965 -0.84936124 0.23502299
0.13455541 -0.89703608 0.24245253
0.23846486 0.95385951 0.98067307
0.20467752 0.76754069 0.55833131
0.17927451 0.6274609 0.24079393
0.15948094 0.51831311 -0.0066257417
0.14362401 0.4308719 -0.20483774
0.14019653 0.38554046 -0.24768105
0.14119232 0.35298082 -0.23523365
0.19901173 0.44777647 0.48750886
0.20044479 0.40088958 0.505422
0.20189862 0.35332268 0.52359504
0.20337453 0.30506167 0.54204392
0.20487134 0.25608909 0.56075406
0.2063912 0.20639119 0.57975209
0.20793292 0.15594961 0.5990237
0.20949782 0.10474882 0.61858511
0.21108738 0.052771747 0.63845444
0.21270032 1.1920929e-07 0.65861642
0.21433811 -0.053584486 0.67908859
0.21600223 -0.10800111 0.69989014
0.21769147 -0.16326854 0.72100556
0.21940827 -0.2194083 0.74246573
0.22115143 -0.27643937 0.76425493
0.22292247 -0.33438364 0.78639328
0.22472313 -0.39326549 0.80890155
0.2265521 -0.45310426 0.83176351
0.22841212 -0.51392716 0.85501361
0.23030187 -0.57575476 0.87863559
0.23222317 -0.63861364 0.90265167
0.22699894 -0.68099689 0.83734894
0.21924224 -0.71253729 0.7403903
0.21199994 -0.74199975 0.64986145
0.20521997 -0.769575 0.56511188
0.198861 -0.79544401 0.48562479
0.19288352 -0.8197549 0.41090626
0.18725492 -0.84264719 0.34054878
0.18194614 -0.8642444 0.27418926
0.17940658 -0.89703286 0.2424446
0.18104182 -0.95046943 0.26288491
0.27048609 0.86555547 0.70472318
0.23524481 0.70573443 0.35231048
0.20812808 0.58275867 0.08114323
0.18661673 0.4852035 -0.13397038
0.17401883 0.41764516 -0.25994939
0.17524616 0.38554159 -0.24767619
0.1764909 0.35298184 -0.2352287
0.24876465 0.44777647 0.48750886
0.25055596 0.40088958 0.505422
0.25237328 0.35332268 0.52359504
0.25421816 0.30506167 0.54204392
0.25608918 0.25608909 0.56075406
0.25798899 0.20639119 0.57975209
0.25991616 0.15594961 0.5990237
0.26187229 0.10474882 0.61858511
0.26385921 0.052771747 0.63845444
0.2658754 1.1920929e-07 0.65861642
0.26792377 -0.053584754 0.67909992
0.27000278 -0.10800111 0.69989014
0.27211434 -0.16326854 0.72100556
0.27426034 -0.2194083 0.74246573
0.27643928 -0.27643937 0.76425493
0.27865434 -0.33438528 0.78640562
0.28090394 -0.39326549 0.80890155
0.2831901 -0.45310426 0.83176351
0.28551513 -0.51392716 0.85501361
0.28787735 -0.57575476 0.87863559
0.29028028 -0.63861644 0.90266514
0.29009053 -0.6962173 0.90076768
0.27996543 -0.7279101 0.79951632
0.27052325 -0.75746512 0.70509481
0.2616972 -0.78509152 0.6168341
0.25342989 -0.81097573 0.53416115
0.24566798 -0.835271 0.45654184
0.2383683 -0.85812569 0.38354504
0.23148903 -0.87965822 0.31475252
0.2249957 -0.89998269 0.24981922
0.22630146 -0.9504661 0.26287681
0.34428263 0.97546738 0.86888421
0.29707742 0.79220635 0.47550735
0.26125613 0.65314019 0.17699642
0.23314385 0.54400229 -0.05727227
0.21049382 0.45606995 -0.24602239
0.20882261 0.41764516 -0.25994939
0.21029596 0.38554254 -0.24767134
0.29639852 0.49399751 0.46984997
0.29851758 0.44777647 0.48750886
0.3006672 0.40088958 0.505422
0.30284914 0.35332391 0.52360505
0.30506179 0.30506167 0.54204392
0.307307 0.25608909 0.56075406
0.30958682 0.20639119 0.57975209
0.31189939 0.15594961 0.5990237
0.31424806 0.10474937 0.61859596
0.31663105 0.052771747 0.63845444
0.31905046 1.1920929e-07 0.65861642
0.32150853 -0.053584754 0.67909992
0.32400337 -0.10800111 0.69989014
0.32653859 -0.16326931 0.72101724
0.32911241 -0.2194083 0.74246573
0.33172715 -0.27643937 0.76425493
0.33438519 -0.33438528 0.78640562
0.33708471 -0.39326549 0.80890155
0.33982968 -0.45310628 0.83177638
0.3426182 -0.51392716 0.85501361
0.34545282 -0.57575476 0.87863559
0.34833634 -0.63861644 0.90266514
0.3512668 -0.70253348 0.92708552
0.34336495 -0.74395728 0.86123669
0.33153805 -0.77358884 0.7626794
0.32050014 -0.80125034 0.67069674
0.31017223 -0.82712579 0.58463067
0.30048916 -0.85138589 0.50393862
0.29139349 -0.8741805 0.42814133
0.28283122 -0.89563221 0.35678917
0.27475879 -0.91586268 0.28951883
0.27155983 -0.95045948 0.26286075
0.27405772 -1.0048783 0.28367659
0.42761138 1.0995722 1.0542293
0.3657442 0.88823593 0.61232078
0.31951401 0.73031771 0.28210512
0.28365934 0.60784137 0.02600047
0.25503978 0.5100795 -0.17842518
0.24193269 0.44930357 -0.27204695
0.24362704 0.41764644 -0.2599445
0.24534597 0.38554367 -0.24766648
0.34579828 0.49399751 0.46984997
0.34827054 0.44777647 0.48750886
0.35077837 0.40088958 0.505422
0.35332403 0.35332391 0.52360505
0.35590541 0.30506167 0.54204392
0.35852632 0.25609013 0.56076449
0.3611846 0.20639119 0.57975209
0.3638826 0.15594961 0.5990237
0.36662272 0.10474937 0.61859596
0.36940292 0.052771747 0.63845444
0.37222713 5.9604645e-08 0.65862751
0.37509328 -0.053584754 0.67909992
0.3780039 -0.10800111 0.69989014
0.38096169 -0.16326931 0.72101724
0.38396448 -0.2194083 0.74246573
0.38701499 -0.27643937 0.76425493
0.39011607 -0.33438528 0.78640562
0.39326549 -0.39326549 0.80890155
0.39646795 -0.45310628 0.83177638
0.39972121 -0.51392716 0.85501361
0.40302828 -0.57575476 0.87863559
0.4063924 -0.63861644 0.90266514
0.40981129 -0.70253348 0.92708552
0.40962288 -0.76072836 0.92574
0.39520693 -0.7904138 0.82276893
0.38177285 -0.81808466 0.72681105
0.36922047 -0.84393245 0.63715124
0.35746869 -0.86813807 0.55321014
0.34644058 -0.89084721 0.47443789
0.33607385 -0.91220039 0.40038961
0.32630825 -0.93230939 0.33063564
0.31709421 -0.95128262 0.26482093
0.31973284 -1.0048747 0.28366831
0.4424426 0.99549592 0.76512855
0.38368243 0.81532514 0.39787754
0.33869901 0.67739803 0.11673111
0.30315655 0.56841862 -0.10540916
0.2745856 0.48052478 -0.28397763
0.27649528 0.44930479 -0.27204233
0.27843168 0.41764748 -0.25993973
0.3924109 0.53956497 0.45243037
0.39519802 0.49399751 0.46984997
0.39802346 0.44777647 0.48750886
0.40089118 0.40089113 0.50543201
0.40379888 0.35332391 0.52360505
0.40674907 0.30506167 0.54204392
0.40974438 0.25609013 0.56076449
0.4127824 0.20639119 0.57975209
0.41586754 0.15595034 0.59903443
0.41899744 0.10474937 0.61859596
0.42217475 0.052771747 0.63845444
0.42540243 5.9604645e-08 0.65862751
0.42670953 -0.053338647 0.66679692
0.42670774 -0.10667691 0.6667856
0.42670774 -0.1600154 0.66678572
0.42670774 -0.2133538 0.6667856
0.42670593 -0.26669109 0.66677427
0.42670593 -0.32002944 0.66677421
0.42670414 -0.37336618 0.66676307
0.42670414 -0.42670417 0.66676301
0.42670232 -0.48004001 0.66675156
0.42669868 -0.53337336 0.66672915
0.4266969 -0.58670825 0.66671777
0.42669329 -0.64003986 0.66669518
0.42668965 -0.69337076 0.66667271
0.42668787 -0.74670368 0.66666138
0.42668426 -0.80003303 0.66663897
0.42668065 -0.85336119 0.66661632
0.41673389 -0.88555956 0.60444909
0.40362751 -0.90816182 0.52253431
0.39132193 -0.92938948 0.44562423
0.37974304 -0.94935763 0.37325639
0.36883107 -0.96818149 0.30505621
0.36540765 -1.0048709 0.28366002
0.36879864 -1.0602961 0.30485401
0.45470715 0.90941441 0.5260132
0.39889917 0.75347614 0.21596864
0.35529158 0.63162947 -0.026295632
0.32027876 0.53379786 -0.22081138
0.30890882 0.48052478 -0.28397763
0.31105801 0.44930607 -0.27203748
0.3132365 0.4176487 -0.25993496
0.43051884 0.5261898 0.39163369
0.4305172 0.47835231 0.39162451
0.4305172 0.43051714 0.39162445
0.43051556 0.38268036 0.39161536
0.43051556 0.33484542 0.39161536
0.43051395 0.28700939 0.39160642
0.43051395 0.23917444 0.39160642
0.43051231 0.19133882 0.39159724
0.43051231 0.14350414 0.39159736
0.43051067 0.095669046 0.39158821
0.43051067 0.047834545 0.39158821
0.43050903 2.9802322e-08 0.39157903
0.43050903 -0.047834396 0.39157906
0.43050903 -0.095668659 0.39157909
0.43050739 -0.14350241 0.39157009
0.43050739 -0.19133666 0.39156997
0.43050414 -0.23916897 0.39155185
0.43050086 -0.28700054 0.39153367
0.43049923 -0.33483279 0.39152458
0.43049598 -0.38266319 0.39150649
0.4304927 -0.4304927 0.39148831
0.43049106 -0.4783234 0.39147916
0.43048781 -0.52615178 0.39146122
0.43048453 -0.57397944 0.39144298
0.43048289 -0.62180877 0.39143386
0.43047962 -0.669635 0.39141569
0.43047637 -0.71746075 0.39139768
0.43047473 -0.76528835 0.39138845
0.43047145 -0.81311285 0.39137042
0.43046817 -0.86093628 0.39135224
0.43046656 -0.90876257 0.39134306
0.43046328 -0.95658517 0.39132512
0.42243767 -0.98568791 0.34673825
0.41108212 -1.0048674 0.28365201
0.41489697 -1.0602924 0.30484554
0.46501946 0.83703506 0.3249597
0.41197002 0.70034897 0.05971235
0.36978385 0.59165418 -0.15121841
0.34087861 0.51131785 -0.29574472
0.34323296 0.48052624 -0.28397292
0.34562096 0.44930726 -0.27203283
0.43360662 0.52032799 0.16789562
0.43360662 0.47696733 0.16789544
0.43360516 0.43360519 0.16788808
0.43360516 0.39024457 0.16788802
0.43360367 0.34688285 0.16788059
0.43360367 0.30352259 0.16788056
0.43360215 0.26016128 0.1678731
0.43360215 0.21680111 0.16787316
0.43360066 0.17344031 0.16786571
0.43360066 0.13008022 0.16786569
0.4335992 0.086719841 0.1678582
0.4335992 0.04335992 0.1678582
0.43359768 -1.2665987e-07 0.16785073
0.4335947 -0.043359451 0.16783589
0.43359172 -0.086718261 0.1678209
0.43359023 -0.13007703 0.16781346
0.43358725 -0.17343494 0.16779864
0.43358427 -0.21679215 0.16778368
0.43358275 -0.26014966 0.16777624
0.4335798 -0.30350584 0.16776121
0.43357679 -0.34686148 0.16774631
0.43357533 -0.39021778 0.16773896
0.43357232 -0.43357229 0.16772401
0.43356937 -0.47692627 0.16770898
0.43356785 -0.52028131 0.16770165
0.43356487 -0.56363434 0.16768666
0.43356189 -0.60698664 0.16767174
0.4335604 -0.65034062 0.16766438
0.43355742 -0.69369191 0.16764937
0.43669724 -0.74238527 0.18334839
0.44056717 -0.79302084 0.20269811
0.44450784 -0.84456491 0.22240159
0.44851807 -0.89703608 0.24245253
0.45260131 -0.95046294 0.26286882
0.45675957 -1.0048709 0.28366002
0.46099496 -1.0602883 0.30483705
0.46531478 -1.1167554 0.3264361
0.4738113 0.7753275 0.15354994
0.42331904 0.65422034 -0.075960219
0.38255093 0.55643773 -0.26126993
0.37496749 0.51131934 -0.29574001
0.37755725 0.48052746 -0.28396833
0.43616754 0.51547074 -0.017557964
0.43616617 0.47581768 -0.017564178
0.43616617 0.43616617 -0.017564207
0.4361648 0.3965134 -0.017570406
0.4361648 0.35686213 -0.017570466
0.43616343 0.31720978 -0.017576724
0.43616343 0.27755854 -0.017576814
0.43616205 0.23790653 -0.017582878
0.43616068 0.19825481 -0.017589167
0.43615931 0.15860333 -0.017595366
0.43615657 0.11895188 -0.017607894
0.43615383 0.079300687 -0.017620321
0.43615246 0.039650224 -0.01762661
0.43614972 -3.8184226e-08 -0.017639052
0.43614697 -0.039649706 -0.017651537
0.4361456 -0.079299241 -0.017657839
0.43614286 -0.11894807 -0.017670266
0.43614012 -0.15859631 -0.017682724
0.43613875 -0.19824481 -0.01768896
0.43804327 -0.23893267 -0.0090320706
0.44158033 -0.28100568 0.0070455372
0.44517496 -0.32376367 0.023384899
0.44882864 -0.36722344 0.039992437
0.45254278 -0.41140249 0.056874782
0.45632038 -0.45632032 0.074045807
0.46016005 -0.5019927 0.091498837
0.4640649 -0.54844022 0.10924816
0.46803659 -0.59568298 0.12730131
0.47207844 -0.64374346 0.14567344
0.47618911 -0.69263852 0.16435815
0.48037195 -0.74239302 0.18337116
0.48462895 -0.79302931 0.20272118
0.48896211 -0.84457076 0.22241712
0.49337339 -0.89704251 0.24246845
0.49786678 -0.95047301 0.2628932
0.50244099 -1.0048821 0.28368506
0.50709999 -1.0602999 0.30486232
0.48139587 0.72209382 0.0056783259
0.43326548 0.61379272 -0.19486493
0.40626872 0.54169166 -0.30735141
0.40905654 0.51132065 -0.29573551
0.41188177 0.48052877 -0.28396362
0.43832359 0.47485051 -0.17378949
0.43832231 0.43832234 -0.17379469
0.43832231 0.40179536 -0.17379481
0.43832105 0.36526752 -0.17379999
0.43831849 0.32873887 -0.1738106
0.43831724 0.29221153 -0.17381592
0.43831471 0.25568357 -0.17382653
0.43831214 0.21915613 -0.17383711
0.43917003 0.1829875 -0.17026258
0.4424282 0.14747608 -0.15668695
0.44573379 0.11143343 -0.1429137
0.44908911 0.074848101 -0.1289331
0.45249534 0.037707895 -0.11474046
0.45595366 -4.0978193e-08 -0.10033083
0.45946661 -0.038288839 -0.085693501
0.46303269 -0.07717216 -0.070834801
0.4666546 -0.11666366 -0.055743568
0.47033358 -0.15677786 -0.040414371
0.47407103 -0.19752964 -0.024841622
0.47786841 -0.23893419 -0.0090194196
0.48172709 -0.28100747 0.0070584118
0.48564854 -0.3237657 0.023397848
0.48963442 -0.36722577 0.040005609
0.49368626 -0.41140521 0.056888282
0.49780568 -0.45632184 0.074052602
0.50199443 -0.50199437 0.091505811
0.50625432 -0.54844224 0.10925519
0.5105871 -0.59568483 0.12730843
0.48800579 0.67570031 -0.12319234
0.44205415 0.57807082 -0.29992941
0.44012564 0.54169297 -0.30734694
0.44314578 0.51132202 -0.29573086
0.44620648 0.48052999 -0.283959
0.44930851 0.44930851 -0.27202809
0.45245397 0.41764981 -0.2599301
0.45564377 0.38554472 -0.24766159
0.45887762 0.35298273 -0.23522381
0.46215898 0.31995618 -0.22260314
0.4654876 0.2864539 -0.20980078
0.46886453 0.25246549 -0.19681257
0.47229081 0.21798034 -0.18363467
0.47576752 0.1829875 -0.17026258
0.47929582 0.14747554 -0.15669231
0.48287684 0.11143306 -0.14291905
0.48651174 0.074847907 -0.1289386
0.49020183 0.037707802 -0.11474604
0.49394828 -3.3527613e-08 -0.10033666
0.49775246 -0.03828866 -0.085705146
0.5016157 -0.077171631 -0.070846587
0.50553936 -0.11666286 -0.055755593
0.50952488 -0.15677679 -0.040426631
0.51357377 -0.19752839 -0.024854034
0.49381766 0.6349085 -0.23650308
0.47077423 0.5716545 -0.31880111
0.47398272 0.54169458 -0.30734229
0.47723264 0.51132065 -0.29573551
0.48052743 0.48052746 -0.28396833
0.48386806 0.44930607 -0.27203748
0.48725542 0.41764748 -0.25993973
0.49069059 0.38554254 -0.24767134
0.49417451 0.35298184 -0.2352287
0.49770829 0.31995529 -0.22260821
0.50129294 0.28645307 -0.20980586
0.5049296 0.25246489 -0.19681773
0.50861943 0.2179797 -0.18363978
0.51236355 0.18298696 -0.17026794
0.51616323 0.14747517 -0.15669766
0.50101221 0.60121459 -0.33009702
0.50440234 0.57165593 -0.31879669
0.50783724 0.54169297 -0.30734694
0.51131934 0.51131934 -0.29574001
0.51484942 0.48052624 -0.28397292
