# .PCD v0.7 - Point Cloud Data file format
VERSION 0.7
FIELDS x y z
SIZE 4 4 4
TYPE F F F
COUNT 1 1 1
WIDTH 991
HEIGHT 1
VIEWPOINT 0 0 0 1 0 0 0
POINTS 991
DATA ascii
-0.82088405 0.13681406 -0.28996256
-0.88758546 0.11094813 -0.1510015
-0.79100412 0.1375659 -0.28056365
-0.80424011 0.10490091 -0.25178963
-0.90132695 0.078376256 -0.040731266
-0.76348591 0.17351954 -0.2649425
-0.76079178 0.13832575 -0.27106547
-0.7581166 0.10337965 -0.27714539
-0.81250656 0.073864266 -0.15353203
-0.91681135 0.04167325 0.083524369
-1.0518364 -0 0.39039958
-0.73284423 0.1744867 -0.25527051
-0.73024589 0.13909438 -0.26145697
-0.72766191 0.10395177 -0.26760933
-0.73335803 0.069843583 -0.25404719
-0.82175744 0.039131314 -0.043572482
-0.93439257 5.2154064e-08 0.22460645
-1.0828046 -0.05156219 0.57796836
-0.70438141 0.21131444 -0.23918429
-0.70186102 0.17546526 -0.24548513
-0.69935673 0.13987127 -0.251746
-0.69687015 0.10453053 -0.25796235
-0.69439936 0.06944003 -0.26413932
-0.73763281 0.036881588 -0.1560557
-0.83217978 4.8428774e-08 0.080311723
-0.95452392 -0.047726139 0.38617188
-1.1190462 -0.11190474 0.7974779
-0.67294979 0.21251047 -0.22921729
-0.67052639 0.17645434 -0.23559447
-0.68677294 0.14458379 -0.19284043
-0.66573167 0.10511561 -0.24821216
-0.66335994 0.069827355 -0.2544536
-0.6626569 0.034876779 -0.25630382
-0.74241829 4.4703484e-08 -0.046405494
-0.84401125 -0.044421583 0.22094436
-0.97781217 -0.10292754 0.57305205
-1.1620226 -0.18347734 1.0578163
-0.64349747 0.25024906 -0.21264477
-0.64115858 0.21371955 -0.21914175
-0.63883841 0.17745507 -0.22558649
-0.67748219 0.15055162 -0.11824279
-0.63424456 0.1057075 -0.23834738
-0.63197058 0.070218943 -0.24466398
-0.62971276 0.034984015 -0.25093538
-0.66296548 2.9802322e-08 -0.1585671
-0.74780881 -0.041544896 0.07710886
-0.85755813 -0.095284224 0.38196814
-1.0050578 -0.16750979 0.79168946
-0.61123788 0.25168619 -0.20237929
-0.60900527 0.21494301 -0.20894569
-0.62384772 0.18348457 -0.16529141
-0.66739148 0.15703323 -0.037221763
-0.7174722 0.12661278 0.11007468
-0.60022879 0.07061515 -0.23475902
-0.59807235 0.035180733 -0.2411014
-0.59593141 -6.7055225e-08 -0.24739839
-0.66331065 -0.039018258 -0.049224183
-0.75392687 -0.088697299 0.21729445
-0.87322283 -0.15409818 0.56816471
-1.0373183 -0.24407479 1.0507983
-0.58074862 0.29037434 -0.18529828
-0.57860732 0.25314069 -0.1919899
-0.57648003 0.21617992 -0.19863769
-0.61177087 0.19117835 -0.088353649
-0.6563949 0.1640988 0.051096264
-0.70803845 0.13275717 0.21248254
-0.76850545 0.096063122 0.40144166
-0.56607413 0.035379566 -0.23115602
-0.56403625 -2.2351742e-08 -0.23752445
-0.58849943 -0.036781237 -0.16107704
-0.66369939 -0.082962357 0.073922902
-0.76093054 -0.14267446 0.37777022
-0.89154011 -0.22288498 0.78592503
-0.54762834 0.29206836 -0.17471002
-0.54559582 0.25461128 -0.18148516
-0.5589745 0.22358984 -0.13688946
-0.59863883 0.19954631 -0.0046750456
-0.64435995 0.17182922 0.14772867
-0.69764507 0.13952908 0.32534578
-0.74513203 0.099350914 0.48363572
-0.53371054 0.035580665 -0.22110271
-0.53177983 -2.9802322e-08 -0.22753835
-0.52986151 -0.035324208 -0.2339327
-0.58442909 -0.077923805 -0.052040655
-0.66413826 -0.13282768 0.21365643
-0.76902699 -0.20507389 0.56328559
-0.91318953 -0.30439645 1.0438273
-0.51605153 0.33174735 -0.15709665
-0.51411778 0.29378152 -0.16400281
-0.51219845 0.25609925 -0.17085747
-0.54393864 0.23311648 -0.057499886
-0.58430254 0.20867951 0.08665707
-0.63113505 0.18032429 0.25391585
-0.68611294 0.14702421 0.45026565
-0.69944584 0.099920869 0.49788311
-0.69689322 0.049778134 0.48876643
-0.49915433 -7.4505806e-09 -0.21744365
-0.49734348 -0.035524532 -0.2239109
-0.51423609 -0.073462248 -0.16358009
-0.57984573 -0.12425265 0.070739798
-0.66464293 -0.18989792 0.37358713
-0.77849364 -0.27803338 0.78019655
-0.48202869 0.33371216 -0.14618129
-0.48021317 0.29551578 -0.15316394
-0.49206129 0.26495609 -0.10759432
-0.52756435 0.24349126 0.028955877
-0.56859106 0.21868894 0.18675084
-0.6165368 0.18970366 0.37115741
-0.65565062 0.1513039 0.52159542
-0.65323514 0.10049768 0.51230502
-0.6508348 0.050064296 0.5030731
-0.46615645 7.4505806e-09 -0.20722833
-0.46445566 -0.035727404 -0.21376976
-0.4627673 -0.071194969 -0.22026351
-0.50577503 -0.11671735 -0.054849222
-0.5746457 -0.17681395 0.21003796
-0.66522628 -0.25585631 0.55842495
-0.7896229 -0.36444131 1.0368735
-0.4493106 0.37442544 -0.12801027
-0.44760177 0.33570135 -0.13513035
-0.4459033 0.29726893 -0.14220721
-0.47388092 0.27643055 -0.025633924
-0.5096665 0.25483325 0.12347273
-0.55129635 0.22970687 0.29693043
-0.6002984 0.20009951 0.50110579
-0.60874099 0.15218528 0.53628296
-0.60648531 0.10108079 0.52688432
-0.60424387 0.050353765 0.51754504
-0.60202134 5.9604645e-08 0.50828463
-0.43118894 -0.035932317 -0.20351714
-0.42961374 -0.07160233 -0.21008056
-0.44017601 -0.11004391 -0.16607112
-0.49624899 -0.16541629 0.067566454
-0.56869566 -0.23695654 0.36942759
-0.66590816 -0.33295423 0.77447951
-0.41434729 0.37667939 -0.1167409
-0.41276079 0.33771339 -0.12395237
-0.42301038 0.30764398 -0.077363379
-0.45405611 0.28894475 0.06375356
-0.4900181 0.26728261 0.22721714
-0.53215837 0.24189019 0.41876405
-0.56339163 0.20486958 0.5607332
-0.56128395 0.1530775 0.55115294
-0.55918974 0.10167085 0.54163367
-0.55711335 0.050646693 0.53219563
-0.55505002 -2.9802322e-08 0.52281713
-0.39753926 -0.036139898 -0.19314095
-0.39607751 -0.072014153 -0.19978544
-0.39462757 -0.10762569 -0.20637602
-0.4273487 -0.15539953 -0.057643503
-0.48544353 -0.22065617 0.20642368
-0.56181848 -0.30644649 0.55358279
-0.66662282 -0.42421457 1.0299659
-0.38043049 0.41847348 -0.097985357
-0.37895939 0.37895936 -0.10534081
-0.37749735 0.33974755 -0.11265101
-0.40148655 0.32118928 0.0072950423
-0.43234968 0.3026447 0.16161074
-0.46835127 0.28101072 0.34161863
-0.51084965 0.25542486 0.55411065
-0.51520389 0.20608149 0.57588154
-0.51326513 0.15397951 0.56618792
-0.51133883 0.10226776 0.55655622
-0.50942898 0.050942868 0.54700708
-0.50753134 -8.9406967e-08 0.53751886
-0.50564975 -0.050564945 0.52811116
-0.36215433 -0.072430894 -0.18936609
-0.36081991 -0.10824596 -0.19603816
-0.36631542 -0.1465262 -0.16856064
-0.41290808 -0.20645402 0.064402707
-0.47308224 -0.28384936 0.36527368
-0.55376768 -0.38763738 0.76870078
-0.34448063 0.42103189 -0.086356327
-0.3431415 0.38126829 -0.093796119
-0.35171762 0.35171771 -0.046150953
-0.37798005 0.33598226 0.099751547
-0.40848246 0.31770849 0.26920936
-0.44431913 0.29621264 0.46830189
-0.46822372 0.26012421 0.60110515
-0.46644455 0.20730866 0.59122109
-0.46467698 0.15489236 0.58140099
-0.46292463 0.10287219 0.5716657
-0.46118358 0.051242575 0.56199312
-0.4594574 2.9802322e-08 0.55240345
-0.45774227 -0.050860226 0.54287493
-0.32783622 -0.072852433 -0.17882529
-0.32662126 -0.10887375 -0.18557528
-0.32541525 -0.14462888 -0.19227529
-0.34914631 -0.1939702 -0.060435906
-0.39653262 -0.26435515 0.20282125
-0.45880324 -0.35684705 0.54876912
-0.54417831 -0.48371419 1.0230752
-0.309304 0.463956 -0.066987589
-0.30808949 0.42362309 -0.074578419
-0.30688074 0.38360095 -0.082133174
-0.32663655 0.36746609 0.041340753
-0.35220504 0.35220498 0.20114368
-0.38211343 0.33434919 0.38807106
-0.41752601 0.31314459 0.60939986
-0.41869986 0.26168743 0.61673641
-0.41709939 0.2085498 0.60673344
-0.41550934 0.15581606 0.59679574
-0.4139331 0.10348341 0.5869441
-0.41236708 0.051545948 0.57715654
-0.41081455 -2.9802322e-08 0.56745315
-0.40927199 -0.051159084 0.55781209
-0.40774262 -0.10193557 0.54825366
-0.29202273 -0.10950854 -0.17499548
-0.29093906 -0.14546961 -0.18176851
-0.29265508 -0.1829095 -0.17104347
-0.32982293 -0.24736722 0.061255567
-0.37780353 -0.33057806 0.36113429
-0.44209531 -0.44209549 0.76295811
-0.27232358 0.46684039 -0.05496937
-0.27124679 0.42624494 -0.06266056
-0.27807209 0.39724585 -0.013908401
-0.29920518 0.38469231 0.13704197
-0.32381344 0.37007242 0.31281519
-0.35280544 0.35280544 0.5199011
-0.37000716 0.31714889 0.64277041
-0.36857721 0.26326939 0.63255674
-0.36715981 0.20980561 0.62243241
-0.36575177 0.1567508 0.61237502
-0.36435598 0.10410182 0.60240519
-0.36297083 0.051853001 0.59251112
-0.36159468 5.9604645e-08 0.5826813
-0.36023039 -0.051461548 0.57293648
-0.35887489 -0.10253559 0.56325436
-0.35753098 -0.1532276 0.55365509
-0.25605908 -0.14631948 -0.17114422
-0.25510687 -0.18221909 -0.17794582
-0.27116844 -0.23243013 -0.063220412
-0.30791262 -0.30791262 0.19923826
-0.35617414 -0.40705609 0.54396319
-0.42229152 -0.54294616 1.01623
-0.23582172 0.51094711 -0.034956634
-0.23487972 0.4697594 -0.042806745
-0.23394306 0.42889565 -0.050612345
-0.24920389 0.41533983 0.076561362
-0.26907444 0.40361166 0.24214938
-0.29237708 0.38983604 0.43633777
-0.32007414 0.37341985 0.66714686
-0.31908548 0.31908551 0.65890795
-0.31784618 0.26487184 0.64858049
-0.31661516 0.21107674 0.6383217
-0.31539494 0.15769748 0.62815338
-0.31418276 0.10472755 0.61805207
-0.31298122 0.052163512 0.60803878
-0.31178749 -0 0.59809124
-0.31060413 -0.051767349 0.58823001
-0.30942971 -0.10314322 0.57844317
-0.30826288 -0.15413144 0.56871957
-0.22076975 -0.14717986 -0.16038978
-0.21994333 -0.1832861 -0.16727668
-0.21919483 -0.21919481 -0.17351419
-0.24698988 -0.28815484 0.058111094
-0.28285766 -0.37714359 0.35700953
-0.3308852 -0.49632782 0.75723904
-0.1977596 0.51417494 -0.022541702
-0.19696467 0.47271511 -0.030491084
-0.20195538 0.44430178 0.01941596
-0.21758111 0.43516207 0.17567335
-0.23582676 0.42448816 0.35812968
-0.25738519 0.41181627 0.5737142
-0.26859298 0.3760303 0.68579221
-0.26753816 0.32104588 0.67524385
-0.26649269 0.26649266 0.66478926
-0.26545426 0.21236348 0.65440494
-0.26442501 0.15865505 0.64411223
-0.26340368 0.10536152 0.63389933
-0.26238915 0.052477807 0.62375379
-0.26138347 -0 0.61369705
-0.26038441 -0.052076817 0.60370636
-0.25939402 -0.1037576 0.59380233
-0.25841007 -0.15504609 0.58396292
-0.25743461 -0.20594759 0.57420826
-0.18436612 -0.18436608 -0.15647654
-0.18367448 -0.22040939 -0.16339269
-0.19341409 -0.27077979 -0.065996788
-0.2195797 -0.35132754 0.19565916
-0.25393134 -0.45707631 0.53917557
-0.30095392 -0.60190797 1.0094018
-0.15986279 0.55951989 -0.0018527508
-0.159214 0.5174455 -0.0099626482
-0.15856797 0.4757039 -0.018038139
-0.1690525 0.46489432 0.11301845
-0.18278797 0.45696986 0.28471181
-0.19893947 0.44761375 0.4866057
-0.21706904 0.43413818 0.71322548
-0.21620789 0.37836385 0.70246112
-0.21535446 0.32303166 0.69179308
-0.21450683 0.26813364 0.68119764
-0.21366675 0.21366677 0.67069656
-0.21283232 0.15962428 0.6602664
-0.21200527 0.10600269 0.64992839
-0.21118376 0.052796125 0.63965935
-0.21036945 -5.9604645e-08 0.62948036
-0.20956054 -0.052390188 0.61936903
-0.20875868 -0.10437936 0.60934579
-0.20796295 -0.1559723 0.59939897
-0.20717238 -0.20717238 0.58951712
-0.14836715 -0.18545893 -0.14554828
-0.1478073 -0.22171089 -0.15254658
-0.14725164 -0.25769031 -0.15949234
-0.16440912 -0.32881823 0.05497627
-0.18824364 -0.42354819 0.35290781
-0.22013356 -0.55033392 0.75153184
-0.12066776 0.56311631 0.010991722
-0.12017415 0.52075469 0.0027647316
-0.12324093 0.4929637 0.053877771
-0.1329519 0.48749018 0.21572706
-0.14431973 0.48106566 0.40519115
-0.15780014 0.47340029 0.62986463
-0.16382252 0.43686011 0.7302376
-0.16316855 0.3807267 0.71933806
-0.16252047 0.32504076 0.70853657
-0.16187683 0.2697947 0.69780946
-0.16123895 0.21498528 0.68717813
-0.16060539 0.16060553 0.67661893
-0.15997748 0.1066516 0.66615355
-0.15935446 0.05311808 0.65576982
-0.1587356 -5.9604645e-08 0.64545566
-0.1581222 -0.052707464 0.63523215
-0.15751286 -0.1050086 0.62507653
-0.15690884 -0.15690884 0.61500967
-0.1563088 -0.20841169 0.60500896
-0.15571398 -0.25952327 0.59509516
-0.11151364 -0.22302723 -0.14157698
-0.11109194 -0.25921452 -0.14860541
-0.11588271 -0.30902058 -0.068759255
-0.13153377 -0.39460135 0.19209166
-0.15207016 -0.50690061 0.53436506
-0.18016537 -0.66060632 1.0026184
-0.08130119 0.60975885 0.032391906
-0.08096534 0.56675744 0.023995936
-0.080631234 0.52410299 0.01564306
-0.086036652 0.51621997 0.15077864
-0.093162365 0.51239288 0.32892135
-0.10156476 0.50782371 0.53898114
-0.11034916 0.49657103 0.75859106
-0.10990409 0.43961635 0.74746454
-0.10946307 0.38312078 0.73643899
-0.10902511 0.3270753 0.72548991
-0.1085911 0.27147785 0.7146399
-0.10816008 0.21632013 0.70386422
-0.10773292 0.1615994 0.69318533
-0.10730866 0.10730866 0.68257892
-0.10688819 0.053444117 0.67206705
-0.10647056 -5.9604645e-08 0.66162604
-0.10605662 -0.053028286 0.65127742
-0.10564587 -0.10564595 0.64100909
-0.10523786 -0.15785681 0.63080907
-0.10483343 -0.20966683 0.62069821
-0.10443167 -0.26107919 0.61065388
-0.074786887 -0.22436062 -0.13046545
-0.074502178 -0.26075768 -0.13758336
-0.074219838 -0.29687935 -0.14464179
-0.082079813 -0.3693592 0.05185765
-0.093957976 -0.4697898 0.34881154
-0.10983991 -0.60411942 0.74585986
-0.13216998 -0.79301965 1.3041115
-0.04091626 0.6137439 0.045675308
-0.04074588 0.57044226 0.037156194
-0.041793473 0.54331511 0.089535952
-0.045148417 0.54178107 0.25728306
-0.049086135 0.53994739 0.45416889
-0.053773377 0.53773379 0.68853122
-0.055526327 0.49973708 0.77617884
-0.055300955 0.44240752 0.76490998
-0.055077646 0.38554353 0.75374454
-0.054855891 0.32913542 0.74265671
-0.054636151 0.27318081 0.7316699
-0.054417931 0.21767172 0.72075874
-0.054201681 0.16260508 0.70994633
-0.053987142 0.10797438 0.69921947
-0.053774066 0.053774029 0.68856561
-0.053562894 -0 0.67800677
-0.053353146 -0.053353071 0.66751957
-0.053145256 -0.10629058 0.65712494
-0.052938763 -0.15881622 0.6468004
-0.052734084 -0.21093643 0.63656652
-0.052530766 -0.2626538 0.62640047
-0.052329224 -0.3139753 0.61632347
-0.037474167 -0.26231921 -0.12642929
-0.037331305 -0.29865041 -0.13357237
-0.03857236 -0.34715119 -0.071519762
-0.043773625 -0.43773615 0.18854341
-0.050593805 -0.55653185 0.52955228
-0.059919782 -0.71903741 0.9958514
0 0.61778343 0.059140265
0 0.57417536 0.050488681
0 0.56941307 0.18991259
0 0.56999457 0.37483966
0 0.57062459 0.59361023
0 0.56112754 0.80549967
0 0.50294346 0.79399222
0 0.44523674 0.78259093
0 0.38799712 0.77127028
0 0.33122289 0.76005316
0 0.2749052 0.74891478
0 0.21904118 0.73787785
0 0.1636233 0.72691727
0 0.10864773 0.71605587
0 0.054108083 0.70526898
0 -2.9802322e-08 0.69457895
0 -0.053681999 0.68396151
0 -0.10694301 0.67343903
0 -0.15978816 0.66299856
0 -0.21222116 0.652628
0 -0.26424879 0.64234924
0 -0.3158733 0.63213879
0 -0.26389956 -0.11514086
0 -0.30044186 -0.12237566
0 -0.33670682 -0.12954411
0 -0.40977591 0.048741922
0 -0.51587081 0.34472954
0 -0.65768099 0.74019957
0 -0.85697925 1.2959365
0.041634418 0.66615069 0.081583232
0.041457877 0.62186819 0.072756261
0.042531837 0.59544563 0.12645401
0.046011306 0.59814686 0.30042756
0.050106216 0.60127467 0.50517309
0.055000007 0.60500002 0.74986261
0.0564766 0.56476605 0.8236925
0.056243464 0.50619113 0.8120355
0.056012493 0.44809997 0.80048686
0.055783164 0.39048219 0.78902048
0.055555947 0.33333582 0.77765971
0.055330336 0.27665168 0.76637906
0.055106785 0.2204272 0.75520146
0.054884795 0.16465446 0.74410212
0.054664828 0.10932958 0.73310351
0.054446615 0.054446578 0.72219276
0.0542299 8.9406967e-08 0.71135736
0.054015141 -0.05401507 0.70061922
0.053801842 -0.10760367 0.68995428
0.05359045 -0.16077149 0.67938471
0.053380489 -0.21352202 0.66888654
0.053172387 -0.2658619 0.65848172
0.052965682 -0.31779414 0.64814645
0.052760795 -0.3693257 0.63790214
0.037782103 -0.30225682 -0.11103265
0.037636776 -0.33873102 -0.11829895
0.038517307 -0.38517314 -0.074272349
0.043702736 -0.48073 0.18499906
0.050497711 -0.60597265 0.52474791
0.059785329 -0.77720928 0.98912883
0.083826289 0.67061031 0.095519602
0.083467923 0.62600946 0.086560339
0.089225397 0.62457782 0.23049721
0.096908219 0.62990344 0.42256778
0.10603163 0.63618982 0.65065289
0.11416623 0.62791431 0.85401803
0.11369042 0.56845212 0.84212267
0.11321855 0.50948334 0.83032608
0.11275009 0.45100039 0.8186146
0.11228599 0.3930009 0.80701184
0.11182519 0.33547544 0.79549187
0.11136866 0.27842164 0.78407866
0.11091534 0.22183076 0.77274585
0.11046619 0.16569915 0.76151681
0.11002018 0.11002016 0.75036681
0.10957823 0.054789156 0.73931807
0.10913935 8.9406967e-08 0.72834617
0.10870443 -0.054352254 0.71747327
0.10827298 -0.10827297 0.70668674
0.10784447 -0.16176692 0.69597387
0.1074198 -0.21483944 0.68535709
0.106998 -0.26749501 0.67481226
0.10657995 -0.31973994 0.664361
0.10616472 -0.37157643 0.65398002
0.076023214 -0.30409285 -0.09955734
0.075729027 -0.34078062 -0.10691203
0.075437337 -0.37718666 -0.11420439
0.081830934 -0.45007008 0.045635551
0.093632326 -0.56179398 0.34067062
0.10938849 -0.71102524 0.73457444
0.13151689 -0.9206183 1.2877846
0.12713428 0.72042751 0.11876687
0.1265856 0.67512321 0.10962251
0.12989028 0.64945138 0.16470033
0.14072241 0.65670449 0.34523576
0.15350941 0.66520751 0.55835229
0.16885172 0.67540687 0.81405765
0.1723799 0.63205975 0.87286085
0.17165598 0.57218653 0.86079514
0.17093886 0.51281655 0.84884346
0.17022696 0.45393851 0.83697844
0.16952173 0.39555067 0.82522428
0.16882156 0.33764306 0.81355476
0.16812789 0.28021309 0.80199379
0.16743916 0.22325209 0.79051489
0.16675679 0.16675681 0.77914214
0.16607922 0.1107195 0.76784933
0.16540787 0.055136055 0.75666004
0.1647419 -0 0.74556077
0.1640806 -0.05469349 0.73453891
0.16342527 -0.10895026 0.72361672
0.16277444 -0.16277456 0.71276987
0.16212949 -0.21617264 0.70202047
0.16148895 -0.26914817 0.69134456
0.16085412 -0.32170826 0.6807642
0.16022359 -0.37385499 0.67025524
0.15959863 -0.42559636 0.65983963
0.11428542 -0.34285617 -0.095380723
0.1138422 -0.37947398 -0.1027678
0.11538758 -0.42308778 -0.077011377
0.13089624 -0.5235849 0.18146627
0.15120657 -0.65522844 0.51997179
0.1789536 -0.83511686 0.98242253
0.1706676 0.72533727 0.13320732
0.16992491 0.67969954 0.12392363
0.18182015 0.68182558 0.2726143
0.19779207 0.69227219 0.47226307
0.21683097 0.70470053 0.71024925
0.23235162 0.6970548 0.90425724
0.23136626 0.63625705 0.8919403
0.23038924 0.57597309 0.87972766
0.22941938 0.51619357 0.86760455
0.2284587 0.45691749 0.85559607
0.227505 0.39813375 0.8436749
0.22656025 0.33984035 0.83186537
0.22562231 0.28202796 0.82014114
0.22469309 0.22469315 0.80852604
0.22377051 0.16782796 0.79699373
0.22285645 0.11142823 0.78556782
0.22194886 0.055487305 0.77422309
0.22104961 -1.1920929e-07 0.76298213
0.22015662 -0.055039167 0.75182033
0.21927181 -0.10963586 0.74075985
0.21839407 -0.16379559 0.7297883
0.21752238 -0.21752235 0.7188921
0.21665858 -0.27082333 0.7080943
0.21580066 -0.32370102 0.69737047
0.21495044 -0.37616321 0.68674278
0.21410598 -0.4282119 0.67618674
0.21326903 -0.47985521 0.66572487
0.1527157 -0.38178924 -0.091191515
0.1521226 -0.41833711 -0.098605216
0.16341411 -0.49024236 0.042538583
0.18693897 -0.60755163 0.33659935
0.21832785 -0.76414752 0.72896051
0.2623862 -0.98394823 1.2796899
0.21574484 0.77668142 0.15731058
0.21479616 0.73030686 0.14782375
0.22044849 0.70543516 0.20434719
0.23919167 0.71757489 0.39177871
0.2613965 0.73191017 0.61382723
0.28814721 0.74918258 0.8813343
0.29239091 0.70173812 0.92377144
0.2911413 0.64051104 0.91127551
0.28990367 0.57980734 0.89889914
0.28867522 0.51961535 0.88661444
0.28745842 0.45993346 0.87444639
0.28625056 0.40075082 0.86236769
0.28505406 0.34206486 0.85040283
0.28386626 0.28386623 0.8385247
0.28268957 0.22615165 0.82675797
0.28152138 0.16891286 0.81507599
0.28036401 0.11214566 0.80350232
0.27921614 0.055843264 0.7920236
0.27807638 -2.9802322e-08 0.78062618
0.27694711 -0.055389345 0.7693336
0.2758258 -0.11033025 0.75812018
0.27471471 -0.16482887 0.74700928
0.27361134 -0.21888888 0.73597562
0.27251798 -0.27251792 0.72504199
0.27143216 -0.32571861 0.71418387
0.27035609 -0.37849855 0.70342338
0.26928741 -0.4308598 0.69273639
0.26822829 -0.4828108 0.68214494
0.19206645 -0.3841328 -0.079473212
0.19131538 -0.42089391 -0.086983845
0.19203894 -0.46089345 -0.079748377
0.21780825 -0.56630141 0.1779446
0.2515341 -0.70429558 0.51520342
0.29758978 -0.89276934 0.9757601
0.26068959 0.78206873 0.17227545
0.25953448 0.73534775 0.16264954
0.27797884 0.74127674 0.31635237
0.30290011 0.75725031 0.52402985
0.33272845 0.77636635 0.77259934
0.35477218 0.76867306 0.95629698
0.35324082 0.70648158 0.94353575
0.35172102 0.64482188 0.93087077
0.35021582 0.58369303 0.91832763
0.3487235 0.5230853 0.90589148
0.34724224 0.46298966 0.89354759
0.34577504 0.40340433 0.88132131
0.34431866 0.34431875 0.86918473
0.34287605 0.28573006 0.85716295
0.34144396 0.22762924 0.84522843
0.34002528 0.17001274 0.83340639
0.33861682 0.11287233 0.82166922
0.3372215 0.056203544 0.81004149
0.33583614 2.9802322e-08 0.7984966
0.3344636 -0.055743963 0.78705883
0.33310074 -0.11103359 0.77570164
0.33175042 -0.16587517 0.764449
0.33040956 -0.22027317 0.75327522
0.32908091 -0.27423412 0.74220312
0.3277629 -0.32776272 0.73121989
0.32645404 -0.38086307 0.72031248
0.32515696 -0.43354267 0.70950353
0.32386872 -0.48580319 0.6987685
0.32259208 -0.53765339 0.68812954
0.23099159 -0.42348462 -0.075207815
0.23008631 -0.46017259 -0.082751781
0.24475142 -0.53029484 0.039457634
0.27991644 -0.6531384 0.33249933
0.32682228 -0.81705576 0.72338122
0.30763775 0.83501673 0.19727474
0.30626005 0.78752589 0.18743417
0.31438556 0.76350784 0.2454735
0.34164688 0.78090715 0.44019708
0.37406746 0.80157316 0.67177248
0.40157166 0.80314332 0.86823112
0.40157166 0.74577594 0.86823112
0.40157166 0.68840855 0.86823118
0.40156981 0.63103837 0.86821806
0.40156981 0.5736711 0.868218
0.40156981 0.51630402 0.86821806
0.40156981 0.45893693 0.86821818
0.401568 0.401568 0.86820507
0.401568 0.34420115 0.86820519
0.401568 0.28683427 0.86820507
0.40097114 0.22912642 0.86394191
0.39929423 0.17112598 0.85196394
0.3976295 0.11360839 0.84007293
0.39598036 0.056568563 0.82829332
0.39434484 -8.9406967e-08 0.81661105
0.39272103 -0.056102991 0.80501246
0.39111227 -0.11174628 0.7935214
0.38951495 -0.16693485 0.7821117
0.38793227 -0.22167554 0.77080691
0.38636073 -0.27597213 0.75958186
0.38480359 -0.3298316 0.74845922
0.38325724 -0.38325721 0.73741388
0.38172492 -0.43625689 0.72646874
0.38020319 -0.48883265 0.71559918
0.37869516 -0.54099303 0.70482761
0.27115843 -0.4261061 -0.063291922
0.27008918 -0.46301007 -0.070929289
0.26902914 -0.4996255 -0.078500852
0.30444118 -0.60888243 0.17444207
0.35148415 -0.7531805 0.5104633
0.41569516 -0.95016038 0.96911335
0.35406899 0.84091377 0.21279326
0.35247222 0.79306245 0.20281354
0.37790266 0.80304307 0.36175388
0.41250542 0.82501084 0.57802111
0.43989637 0.82480568 0.74921459
0.43989447 0.76981527 0.74920267
0.43989447 0.71482849 0.74920267
0.43989447 0.65984166 0.74920285
0.43989447 0.60485494 0.74920273
0.43989447 0.54986799 0.74920267
0.43989256 0.49487919 0.74919063
0.43989256 0.43989238 0.74919063
0.43989256 0.38490599 0.74919069
0.43989256 0.32991934 0.74919063
0.43989062 0.27493176 0.74917877
0.43989062 0.21994519 0.74917859
0.43989062 0.16495901 0.74917877
0.43989062 0.10997269 0.74917877
0.43989062 0.054986358 0.74917877
0.43988872 -2.9802322e-08 0.74916673
0.43988872 -0.05498603 0.74916673
0.43988872 -0.10997203 0.74916679
0.43988872 -0.16495827 0.74916661
0.43988678 -0.21994331 0.74915481
0.43988678 -0.27492926 0.74915481
0.43988678 -0.32991523 0.74915469
0.43988678 -0.38490099 0.74915469
0.43900573 -0.43900585 0.74364805
0.43724656 -0.49190232 0.73265314
0.43549955 -0.54437441 0.72173446
0.43376827 -0.59643131 0.71091408
0.31058842 -0.46588254 -0.05896011
0.3093619 -0.50271302 -0.066625774
0.32584274 -0.5702247 0.036379367
0.37256959 -0.69856811 0.32842225
0.43487215 -0.8697443 0.71781307
0.40300077 0.89555728 0.23875555
0.40116069 0.84689462 0.22853267
0.4118942 0.82378834 0.28816339
0.44833744 0.84685963 0.49062592
0.47516549 0.8447386 0.63967049
0.47516549 0.79194236 0.63967013
0.47516549 0.73914623 0.63967043
0.47516549 0.68635005 0.63967037
0.47516549 0.63355392 0.63967025
0.47516346 0.58075541 0.6396594
0.47516346 0.52795929 0.63965929
0.47516346 0.47516343 0.63965923
0.47516346 0.42236757 0.63965929
0.47516143 0.36956999 0.63964814
0.47516143 0.31677437 0.63964826
0.47516143 0.2639786 0.6396482
0.47516143 0.21118289 0.63964838
0.47516143 0.15838712 0.63964832
0.4751595 0.10559106 0.63963711
0.4751595 0.052795559 0.63963717
0.4751595 -2.9802322e-08 0.63963711
0.4751595 -0.0527955 0.63963723
0.47515747 -0.10559061 0.63962603
0.47515747 -0.15838574 0.63962615
0.47515747 -0.21118116 0.63962615
0.47515747 -0.26397634 0.63962603
0.4751555 -0.31677029 0.63961506
0.4751555 -0.36956528 0.63961494
0.4751555 -0.42236036 0.63961494
0.4751555 -0.47515562 0.63961512
0.4751555 -0.5279507 0.63961512
0.47515351 -0.58074313 0.63960397
0.35159442 -0.46879256 -0.046835363
0.35019624 -0.50583905 -0.054602981
0.34881026 -0.54259372 -0.062303066
0.39079455 -0.65132415 0.17094308
0.45105636 -0.80187798 0.50573099
0.45099947 0.90199888 0.25485957
0.44892704 0.85296154 0.24449769
0.48181984 0.86727571 0.40896147
0.50773376 0.86314744 0.53853101
0.50773376 0.81237394 0.53853095
0.50773376 0.76160061 0.53853095
0.50773168 0.71082437 0.53852069
0.50773168 0.66005129 0.53852087
0.50773168 0.60927796 0.53852087
0.50773168 0.55850494 0.53852075
0.50773168 0.50773168 0.53852075
0.50772965 0.45695674 0.53851062
0.50772965 0.40618369 0.53851044
0.50772965 0.35541093 0.53851068
0.50772965 0.30463785 0.5385105
0.50772762 0.25386375 0.53850025
0.50772762 0.20309107 0.53850043
0.50772762 0.15231825 0.53850037
0.50772762 0.10154541 0.53850031
0.50772762 0.050772667 0.53850019
0.50772554 -0 0.53849012
0.50772554 -0.050772563 0.53849018
0.50772554 -0.10154505 0.53849018
0.50772554 -0.15231775 0.53849018
0.50772351 -0.20308946 0.53847986
0.50772351 -0.25386178 0.53847986
0.50772148 -0.3046329 0.53846955
0.50772148 -0.35540515 0.53846967
0.50771946 -0.40617561 0.53845942
0.50771946 -0.45694745 0.53845924
0.50771737 -0.50771737 0.53844911
0.50771737 -0.55848914 0.53844917
0.50771534 -0.60925841 0.53843898
0.3915416 -0.50900406 -0.042429671
0.38998109 -0.54597348 -0.050232291
0.40668958 -0.61003441 0.033310145
0.46489766 -0.74383616 0.3243506
0.50203162 0.95842409 0.2818242
0.49969545 0.90853721 0.27120531
0.51317632 0.88639551 0.33248201
0.53789854 0.8801977 0.44485575
0.53789854 0.83129764 0.44485557
0.53789651 0.78239495 0.44484639
0.53789651 0.73349506 0.44484603
0.53789651 0.68459535 0.44484618
0.53789651 0.63569582 0.44484624
0.53789651 0.58679605 0.44484609
0.53789437 0.53789431 0.44483668
0.53789437 0.48899487 0.44483668
0.53789437 0.44009537 0.44483662
0.53789437 0.39119589 0.44483662
0.53789228 0.34229514 0.44482726
0.53789228 0.29339573 0.44482717
0.53789228 0.24449649 0.44482723
0.5378902 0.19559646 0.44481778
0.5378902 0.14669725 0.44481769
0.53788811 0.097797945 0.44480819
0.53788811 0.048898876 0.44480827
0.53788602 -0 0.44479877
0.53788602 -0.048898801 0.44479877
0.53788394 -0.09779717 0.44478929
0.53788394 -0.14669555 0.44478923
0.53788185 -0.19559342 0.44477978
0.53788185 -0.2444918 0.44477975
0.53787977 -0.2933889 0.44477025
0.53787977 -0.34228709 0.44477022
0.53787768 -0.39118376 0.44476071
0.53787768 -0.44008166 0.44476068
0.53787559 -0.4889777 0.44475129
0.53787559 -0.53787559 0.44475144
0.53787351 -0.58677113 0.44474185
0.43340895 -0.51221055 -0.030097038
0.43167076 -0.54939908 -0.037997961
0.42994642 -0.58629054 -0.045835793
0.47687051 -0.69362974 0.1674554
0.55025607 -0.8503958 0.50102627
0.55168653 0.96545136 0.29855615
0.54910254 0.91517103 0.28778964
0.56591642 0.89603448 0.35784757
0.56591433 0.84887153 0.35783866
0.56591433 0.80171192 0.35783851
0.56591433 0.75455248 0.35783863
0.56591433 0.70739281 0.35783857
0.56591219 0.66023088 0.35782969
0.56591219 0.61307156 0.35782969
0.5659101 0.56591016 0.35782105
0.5659101 0.51875091 0.35782093
0.56590796 0.47158998 0.35781217
0.56590796 0.42443097 0.35781217
0.56590587 0.37727049 0.35780334
0.56590587 0.33011165 0.3578032
0.56590372 0.2829518 0.35779449
0.56590372 0.23579311 0.35779437
0.56590158 0.18863384 0.35778564
0.56590158 0.1414755 0.3577857
0.56589949 0.094316624 0.35777691
0.56589949 0.047158375 0.35777688
0.56589741 -7.4505806e-08 0.35776806
0.56589741 -0.047158137 0.357768
0.56589526 -0.094315901 0.35775924
0.56589526 -0.1414738 0.35775924
0.56589317 -0.18863109 0.3577503
0.56589317 -0.23578882 0.35775033
0.56589103 -0.28294557 0.35774159
0.56589103 -0.33010316 0.35774148
0.56588888 -0.37725931 0.35773271
0.56588888 -0.42441669 0.35773274
0.56588888 -0.47157413 0.35773277
0.5658868 -0.51872951 0.35772398
0.5658868 -0.56588686 0.35772395
0.56588471 -0.61304182 0.35771513
0.47388539 -0.55286622 -0.025615275
0.47198048 -0.5899756 -0.033552349
0.48729473 -0.64972627 0.030257016
0.55690551 -0.78894943 0.32030195
0.60494715 1.0237567 0.32658222
0.60207719 0.97258627 0.31554383
0.59924304 0.92191243 0.30464315
0.59643543 0.87171328 0.29384464
0.59365618 0.8219856 0.28315544
0.59200233 0.77415681 0.27679425
0.59200233 0.72861814 0.27679425
0.59200019 0.68307722 0.27678627
0.59200019 0.63753867 0.27678618
0.59199804 0.59199804 0.27677792
0.59199804 0.54645956 0.2767778
0.59199595 0.50091964 0.27676958
0.59199595 0.45538139 0.27676955
0.59199375 0.40984184 0.27676144
0.59199375 0.36430395 0.27676147
0.5919916 0.31876475 0.27675322
0.5919916 0.27322689 0.27675322
0.59198952 0.22768825 0.27674493
0.59198952 0.18215053 0.27674496
0.59198737 0.1366125 0.27673677
0.59198737 0.091074966 0.27673668
0.59198523 0.045537263 0.27672851
0.59198523 -1.4901161e-08 0.27672851
0.59198308 -0.045537122 0.27672029
0.59198308 -0.091074325 0.27672023
0.59198093 -0.136611 0.27671197
0.59198093 -0.18214795 0.27671197
0.59197879 -0.22768423 0.27670386
0.59197879 -0.27322102 0.27670386
0.5919767 -0.31875664 0.27669552
0.5919767 -0.36429328 0.27669558
0.59197456 -0.40982851 0.27668732
0.59197456 -0.45536494 0.27668738
0.59197235 -0.50089967 0.27667922
0.59197235 -0.54643607 0.27667898
0.59197026 -0.59197021 0.27667093
0.59197026 -0.63750637 0.27667093
0.51454633 -0.59370726 -0.021113276
0.51247334 -0.63073647 -0.029086471
0.56265879 -0.73578447 0.16393447
0.65323508 0.97985268 0.3328447
0.65013969 0.9287709 0.32178965
0.64707106 0.87816787 0.31083044
0.64403129 0.82804024 0.29997402
0.64102226 0.77838427 0.28922766
0.63803893 0.72918725 0.27857268
0.63508326 0.68044639 0.26801676
0.63215482 0.63215476 0.25755811
0.62925553 0.58430874 0.24720341
0.62638044 0.53689766 0.23693538
0.62353379 0.48991936 0.22676852
0.62071496 0.44336784 0.21670149
0.61792159 0.39723539 0.20672521
0.61634588 0.35219765 0.20109741
0.61634368 0.30817175 0.20108977
0.61634368 0.26414725 0.20108977
0.61634159 0.22012202 0.20108217
0.61634159 0.1760976 0.20108208
0.61633939 0.13207272 0.20107436
0.61633939 0.088048548 0.20107436
0.61633724 0.044024095 0.20106675
0.61633724 7.4505806e-09 0.20106667
0.61633509 -0.044023857 0.20105901
0.61633509 -0.08804787 0.20105904
0.61633295 -0.13207132 0.20105134
0.61633295 -0.17609514 0.20105137
0.6163308 -0.22011815 0.20104359
0.6163308 -0.26414174 0.20104374
0.61632866 -0.30816433 0.20103592
0.61632866 -0.35218784 0.20103598
0.61632651 -0.39621001 0.20102826
0.61632651 -0.44023317 0.2010282
0.61632431 -0.48425493 0.2010206
0.61632431 -0.52827787 0.20102052
0.61632222 -0.57229918 0.20101298
0.61632222 -0.61632216 0.20101291
0.55765587 -0.5974884 -0.0085096359
0.55539489 -0.63473713 -0.016584367
0.56765634 -0.68929696 0.027206391
0.64859104 -0.83390266 0.3162587
0.67596698 0.54077363 0.25308555
0.67287052 0.49343845 0.24276404
0.66980219 0.44653484 0.23253633
0.66676414 0.40005851 0.22240932
0.66375113 0.35400063 0.21236604
0.66076523 0.30835712 0.20241317
0.65780842 0.26312342 0.19255702
0.65487564 0.21829182 0.1827811
0.65197349 0.17385969 0.17310704
0.64909458 0.12981887 0.16351098
0.64624321 0.086165793 0.15400645
0.64341688 0.04289446 0.14458521
0.6406129 -7.4505806e-09 0.13523872
0.63912284 -0.042608246 0.13027176
0.6391207 -0.085216157 0.13026467
0.6391207 -0.12782416 0.13026458
0.63911855 -0.17043146 0.13025744
0.63911855 -0.21303947 0.13025734
0.63911635 -0.25564653 0.13025013
0.63911635 -0.29825422 0.13025025
0.63911426 -0.34086084 0.13024297
0.63911426 -0.38346851 0.13024291
0.63911206 -0.42607471 0.13023578
0.63911206 -0.46868223 0.13023573
0.63910991 -0.51128787 0.13022852
0.63910991 -0.55389524 0.13022856
0.63910776 -0.59650058 0.13022141
0.63910776 -0.6391077 0.13022137
0.59886259 -0.63878679 -0.0039291382
0.59642899 -0.67595279 -0.012041032
0.64816654 -0.77779984 0.16041753
0.70030987 0.17507745 0.18833062
0.69719362 0.13072383 0.17859226
0.69410497 0.086763129 0.16894032
0.69104594 0.043190345 0.15938084
0.68801141 4.4703484e-08 0.14989786
0.6850034 -0.04281272 0.14049789
0.68202621 -0.085253239 0.13119411
0.67907244 -0.12732609 0.12196375
0.67614651 -0.16903661 0.11282007
0.67324567 -0.21038924 0.10375489
0.6703673 -0.25138775 0.094760165
0.6675157 -0.29203808 0.08584889
0.66468602 -0.33234304 0.077006154
0.66188252 -0.37230891 0.068245098
0.6604777 -0.41279855 0.063854918
0.6604777 -0.45407832 0.063854992
0.66047549 -0.49535656 0.063848287
0.66047549 -0.53663635 0.063848212
0.66047335 -0.57791424 0.063841507
0.66047335 -0.61919379 0.063841432
0.64288843 -0.64288849 0.0088885725
0.64025927 -0.68027544 0.0006724
0.64777684 -0.72874892 0.024165004
0.72016364 -0.21181279 0.11799056
0.71706402 -0.25308144 0.10887402
0.71398854 -0.29399523 0.099828556
0.71093935 -0.33455965 0.0908603
0.70792079 -0.37478161 0.08198218
0.70492768 -0.41466334 0.073179066
0.70195758 -0.45420778 0.064443305
0.69901466 -0.49342197 0.055787563
0.69609624 -0.53230882 0.047204092
0.69319993 -0.57087046 0.038685471
0.69032979 -0.60911447 0.030243933
0.68748331 -0.64704299 0.021871984
0.6846559 -0.68465585 0.013555944
0.68184942 -0.72195816 0.0053016841
0.74189037 -0.5358097 0.060669005
0.7387833 -0.57460928 0.052038133
0.73570216 -0.61308515 0.043479204
0.73264891 -0.65124345 0.034998059
0.72961855 -0.68908417 0.026580393
0.72661549 -0.72661543 0.018238723
0.7276597 -0.76808512 0.021139145
