# .PCD v0.7 - Point Cloud Data file format
VERSION 0.7
FIELDS x y z
SIZE 4 4 4
TYPE F F F
COUNT 1 1 1
WIDTH 1122
HEIGHT 1
VIEWPOINT 0 0 0 1 0 0 0
POINTS 1122
DATA ascii
-1.0728837 0.47206879 0.14562944
-1.1039494 0.4415797 0.20776118
-1.0283121 0.4713096 0.14217897
-1.0368993 0.43204135 0.16006927
-1.0671275 0.40017283 0.2230444
-1.0991749 0.36639157 0.28980994
-1.0068843 0.52533102 0.18874122
-0.98546571 0.4713096 0.14217897
-0.9726814 0.42290497 0.11438704
-1.000424 0.39147022 0.17469716
-1.0297958 0.35818982 0.2385487
-1.0609404 0.3228949 0.30625436
-1.0940317 0.28539959 0.37819201
-0.96310675 0.52533102 0.18874122
-0.94261932 0.4713096 0.14217897
-0.92298245 0.41953748 0.097549707
-0.93656015 0.38313824 0.12840797
-0.96345139 0.35034591 0.1895245
-0.99193621 0.31561607 0.25426257
-1.0221566 0.27876991 0.32294533
-1.0542722 0.23960723 0.39593524
-1.0884756 0.19790466 0.47367042
-0.91932911 0.52533102 0.18874122
-0.92327708 0.48362127 0.19814096
-0.88102871 0.41953748 0.097549707
-0.87535518 0.3751522 0.084041268
-0.89995354 0.34283942 0.14260882
-0.92597443 0.308658 0.20456317
-0.95354122 0.27244043 0.27019873
-0.98280352 0.23400079 0.33987078
-1.0139188 0.19312739 0.41395441
-1.0470644 0.14958064 0.49287271
-1.0824548 0.10309091 0.57713544
-1.1203212 0.05334866 0.66729367
-0.89500397 0.58175254 0.23737223
-0.87632167 0.52579308 0.19066651
-0.88905954 0.48898268 0.22251123
-0.83907497 0.41953748 0.097549707
-0.82195449 0.36987954 0.054748446
-0.83911961 0.33564791 0.097661301
-0.86285526 0.30199936 0.15700039
-0.88797587 0.26639271 0.21980202
-0.91460305 0.22865073 0.28636992
-0.94287294 0.18857454 0.35704467
-0.97295004 0.14594255 0.43223742
-1.0050092 0.1005009 0.51238525
-1.0392487 0.051962346 0.59798414
-1.0759083 -0 0.68963283
-1.1152486 -0.055762529 0.78798366
-0.85025376 0.58175254 0.23737223
-0.84170306 0.53160185 0.21487026
-0.85407186 0.49446258 0.24741979
-0.79712123 0.41953748 0.097549707
-0.78085679 0.36987954 0.054748446
-0.78078288 0.32875067 0.05455409
-0.8024047 0.29562289 0.11145353
-0.82525808 0.26060784 0.1715941
-0.84944844 0.22353904 0.23525295
-0.875103 0.18423222 0.30276486
-0.90235537 0.14247717 0.37448162
-0.93135607 0.098037511 0.45079935
-0.96228659 0.050646693 0.53219563
-0.99534225 8.9406967e-08 0.61918378
-1.030745 -0.054249793 0.7123493
-1.0687641 -0.11250156 0.81239951
-1.1096952 -0.17521513 0.92011285
-0.80550355 0.58175254 0.23737223
-0.80630809 0.53753865 0.2396069
-0.81829399 0.50006855 0.2729013
-0.83064169 0.46146756 0.3072001
-0.73975903 0.36987954 0.054748446
-0.72496444 0.3222065 0.013652474
-0.74445409 0.28950995 0.067790374
-0.76520377 0.25506788 0.12542826
-0.78714603 0.21865167 0.186379
-0.81038386 0.18008532 0.25092846
-0.83503234 0.13917206 0.31939662
-0.86123055 0.095692351 0.39216927
-0.88912588 0.049395859 0.46965629
-0.91888499 -5.9604645e-08 0.55232072
-0.95070928 -0.052817255 0.64072132
-0.98481691 -0.10942394 0.73546493
-1.0214584 -0.17024302 0.8372466
-1.0609368 -0.23576364 0.94690871
-1.1035894 -0.30655247 1.0653883
-0.76074797 0.58174843 0.23735632
-0.77011639 0.54361171 0.26491058
-0.7816956 0.50580305 0.29896691
-0.79362535 0.46683851 0.33405459
-0.698659 0.36987832 0.054741755
-0.68468869 0.3222065 0.013652474
-0.68884933 0.28364384 0.025889739
-0.70765185 0.24975944 0.081191272
-0.72750962 0.21397328 0.13959655
-0.74851149 0.17612034 0.20136665
-0.77076471 0.13601729 0.26681724
-0.79438162 0.093456574 0.33627889
-0.81948847 0.048205122 0.41012239
-0.84623748 1.3411045e-07 0.48879606
-0.87479162 -0.051458299 0.57277876
-0.9053362 -0.10651022 0.66261578
-0.93809515 -0.16554618 0.75896549
-0.97331375 -0.22901499 0.8625499
-1.0112752 -0.29743406 0.97420079
-1.0523231 -0.37140796 1.0949301
-1.0968442 -0.45164174 1.2258744
-0.73227233 0.64073825 0.28821334
-0.72227377 0.58684748 0.25696778
-0.73309493 0.54982114 0.290784
-0.74424535 0.51166868 0.32562888
-0.75574017 0.47233766 0.36155045
-0.76759565 0.43177256 0.39859858
-0.64441288 0.3222065 0.013652474
-0.63545513 0.27801162 -0.014340401
-0.65244669 0.24466741 0.038758032
-0.67037177 0.20949119 0.094774067
-0.68930733 0.17232688 0.15394758
-0.70934618 0.13300236 0.21656892
-0.73058498 0.091323063 0.28294024
-0.75313205 0.047070682 0.35339987
-0.77711815 -0 0.42835647
-0.80268234 -0.05016768 0.50824463
-0.82998228 -0.10374774 0.59355688
-0.85920823 -0.16110152 0.68488801
-0.89056754 -0.22264183 0.78288591
-0.92429847 -0.2888431 0.88829494
-0.96068972 -0.36025855 1.0020176
-1.000059 -0.43752578 1.1250465
-1.0427928 -0.5213964 1.25859
-0.68650532 0.64073825 0.28821334
-0.68484151 0.59352928 0.28266728
-0.69522047 0.55617642 0.31726378
-0.70591891 0.51767403 0.35292542
-0.71694905 0.47796592 0.38969222
-0.7283321 0.43699944 0.42763615
-0.60413712 0.3222065 0.013652474
-0.59229362 0.27640367 -0.025825657
-0.59944743 0.23977897 -0.0019795969
-0.61557662 0.20519222 0.051784225
-0.63259977 0.1686933 0.10852823
-0.65059131 0.13011838 0.16849987
-0.66963375 0.089284427 0.23197471
-0.68982702 0.045988493 0.29928574
-0.71127611 -1.3411045e-07 0.37078273
-0.73409903 -0.048939884 0.446859
-0.75843817 -0.10112511 0.52798933
-0.78444654 -0.15688932 0.61468405
-0.81229854 -0.21661294 0.70752424
-0.84220493 -0.28073499 0.80721205
-0.87439758 -0.34975907 0.91452086
-0.90914476 -0.42426747 1.030345
-0.94676787 -0.50494277 1.1557549
-0.64073366 0.64073354 0.28819659
-0.64654469 0.60036302 0.30895054
-0.65645784 0.56267822 0.34435451
-0.66667968 0.5238198 0.38086119
-0.67722493 0.48373222 0.41852266
-0.68810904 0.44235572 0.45739469
-0.69934881 0.39962792 0.49753663
-0.55280739 0.27640367 -0.025825657
-0.54852295 0.23508117 -0.041127264
-0.56298685 0.20106679 0.01052966
-0.57823426 0.16520977 0.06498456
-0.59432852 0.12735607 0.12246419
-0.61134648 0.087335147 0.18324247
-0.62936777 0.044954799 0.24760425
-0.64848137 1.4901161e-08 0.31586716
-0.66879481 -0.047771066 0.38841525
-0.690422 -0.098631635 0.46565527
-0.71349186 -0.15289108 0.54804748
-0.73815984 -0.21090284 0.63614726
-0.76459455 -0.27306944 0.73055702
-0.79298937 -0.33985257 0.83196712
-0.82357842 -0.41178933 0.94121373
-0.85661787 -0.48949593 1.0592117
-0.89241445 -0.57369483 1.1870568
-0.60880238 0.7024641 0.34140977
-0.59821904 0.64423573 0.30070469
-0.60735798 0.6073581 0.33585441
-0.61678046 0.5693357 0.37209478
-0.62649989 0.53011543 0.40947735
-0.63652813 0.48963711 0.44804743
-0.64688516 0.44784358 0.48788208
-0.65758479 0.40466756 0.52903455
-0.5133211 0.27640367 -0.025825657
-0.50344998 0.2323615 -0.063791677
-0.51247013 0.19710398 -0.029098652
-0.5260669 0.16186681 0.023196541
-0.54040658 0.12470927 0.078349091
-0.55554992 0.085469186 0.13659275
-0.57156444 0.043966442 0.19818698
-0.58853179 -1.4901161e-08 0.26344588
-0.60653728 -0.046656698 0.33269799
-0.62567687 -0.096257985 0.40631175
-0.64606631 -0.14909221 0.48473263
-0.66782939 -0.20548593 0.56843686
-0.69110692 -0.26581031 0.65796572
-0.71606886 -0.33049321 0.75397307
-0.7429015 -0.40002388 0.85717583
-0.77181619 -0.47496381 0.96838593
-0.80307281 -0.55597341 1.0886036
-0.56197143 0.7024641 0.34140977
-0.55861288 0.65171492 0.3274157
-0.56724733 0.61451787 0.36339271
-0.57615072 0.5761506 0.40049022
-0.58534032 0.53656191 0.43878022
-0.59482783 0.49568981 0.47831166
-0.60462797 0.453471 0.51914555
-0.61475646 0.40983778 0.56134748
-0.47383043 0.27640107 -0.025844187
-0.46472302 0.2323615 -0.063791677
-0.4639048 0.19329371 -0.067201108
-0.47597039 0.15865685 -0.016927674
-0.48868036 0.12217005 0.036030546
-0.5020861 0.08368104 0.091887742
-0.5162499 0.043020856 0.1509034
-0.53123593 5.2154064e-08 0.21334535
-0.5471161 -0.045593061 0.27951258
-0.563977 -0.093996197 0.34976631
-0.58191019 -0.14547752 0.42448801
-0.60101891 -0.20033965 0.50410765
-0.62142777 -0.2589283 0.58914459
-0.64327145 -0.32163584 0.68015981
-0.6667037 -0.38891041 0.77779436
-0.69190764 -0.46127185 0.88281083
-0.71908867 -0.5393163 0.99606502
-0.7484926 -0.62374365 1.1185812
-0.51513851 0.7024616 0.34140122
-0.51807433 0.65936732 0.35474566
-0.5261777 0.62184626 0.39157906
-0.53453863 0.58313292 0.42958295
-0.5431695 0.54316944 0.46881446
-0.55208367 0.50189435 0.50933355
-0.56129301 0.45923975 0.55119431
-0.57081723 0.41513968 0.59448582
-0.58067024 0.36951739 0.63927221
-0.42599612 0.2323615 -0.063791677
-0.41796005 0.18998176 -0.10031945
-0.42782217 0.1555717 -0.055491548
-0.43901709 0.11973186 -0.0046055838
-0.45081508 0.08196643 0.049021624
-0.4632647 0.042115018 0.10561095
-0.47641981 -3.7252903e-08 0.16540703
-0.49034566 -0.044576958 0.22870624
-0.50511009 -0.091838226 0.29581732
-0.52078933 -0.14203355 0.36708644
-0.53747523 -0.19544554 0.44293141
-0.55526567 -0.25239348 0.52379733
-0.57427186 -0.31323916 0.61018884
-0.5946278 -0.37839961 0.70271611
-0.61647719 -0.44834715 0.80203128
-0.63999051 -0.52362859 0.90890992
-0.66536862 -0.60488057 1.0242651
-0.47945705 0.76713139 0.39714772
-0.46926159 0.70389247 0.34617028
-0.47657433 0.66720414 0.38273391
-0.48411858 0.62935412 0.42045519
-0.49190357 0.59028417 0.45938018
-0.49994507 0.54993969 0.4995878
-0.50825381 0.50825387 0.54113168
-0.5168435 0.46515912 0.5840795
-0.5257284 0.42058271 0.6285041
-0.53492188 0.37444532 0.6744715
-0.38726681 0.23236009 -0.063803703
-0.37996367 0.18998176 -0.10031945
-0.3815107 0.1526043 -0.092584267
-0.39129847 0.11738953 -0.043645393
-0.40160295 0.080320537 0.0078771152
-0.41246349 0.041246325 0.062179804
-0.42392918 6.3329935e-08 0.11950818
-0.43605056 -0.043605067 0.18011507
-0.44888389 -0.089776807 0.24428174
-0.46249723 -0.13874909 0.31234848
-0.47696209 -0.19078481 0.3846727
-0.49235904 -0.24617946 0.46165749
-0.50878531 -0.30527115 0.54378861
-0.52634537 -0.36844182 0.63158917
-0.54515618 -0.43612516 0.7256434
-0.56536138 -0.5088253 0.82666934
-0.58712476 -0.58712471 0.9354859
-0.61062777 -0.67169058 1.0530009
-0.43151137 0.76713139 0.39714772
-0.42733485 0.71222472 0.37394482
-0.43407431 0.67522681 0.41138619
-0.44102973 0.63704294 0.45002723
-0.44821164 0.59761566 0.48992714
-0.45563138 0.55688286 0.53114784
-0.46330091 0.51477891 0.57375634
-0.47123107 0.47123107 0.61781275
-0.47943947 0.42616844 0.66341513
-0.48793682 0.37950635 0.71062249
-0.49673864 0.33115911 0.75952148
-0.34196728 0.18998176 -0.10031945
-0.33693191 0.14974754 -0.12829386
-0.34541115 0.11513703 -0.081186943
-0.35432819 0.078739643 -0.031647898
-0.36371666 0.040412962 0.020510402
-0.37361744 7.4505806e-08 0.075514689
-0.38407102 -0.042674594 0.1335901
-0.3951278 -0.087806106 0.19501662
-0.40684003 -0.13561338 0.26008466
-0.41926625 -0.18634051 0.32911932
-0.43247715 -0.24026504 0.40251309
-0.44654766 -0.29769847 0.48068273
-0.46156266 -0.3589932 0.56409925
-0.47762251 -0.42455319 0.65332055
-0.49483812 -0.49483818 0.74896294
-0.51334113 -0.57037914 0.85175753
-0.53328162 -0.65178871 0.96253806
-0.3835642 0.76712841 0.39713863
-0.38440508 0.72075945 0.40239406
-0.39054129 0.68344736 0.44074541
-0.39687657 0.6449244 0.48034093
-0.40342078 0.60513121 0.52124214
-0.41018277 0.56400132 0.56350452
-0.41717702 0.52147126 0.60721874
-0.42441395 0.47746575 0.65244943
-0.43190452 0.43190446 0.69926554
-0.43966237 0.38470459 0.74775219
-0.44770399 0.33577794 0.79801214
-0.30396909 0.18998066 -0.10033078
-0.29834205 0.14917104 -0.13550012
-0.30125165 0.11296943 -0.11731495
-0.30887762 0.077219397 -0.069652632
-0.31690067 0.039612565 -0.019508388
-0.32535166 1.1175871e-07 0.033310268
-0.33426464 -0.041782994 0.089016266
-0.34368089 -0.085920244 0.14786775
-0.35364178 -0.13261569 0.2101233
-0.3641986 -0.18209925 0.27610347
-0.3754051 -0.23462819 0.34614405
-0.38732162 -0.29049122 0.42062247
-0.40002114 -0.35001844 0.49999428
-0.41357991 -0.41357988 0.58473676
-0.42808831 -0.48159945 0.67541426
-0.44365159 -0.55456448 0.77268475
-0.46038923 -0.63303512 0.8772949
-0.4784393 -0.71765882 0.99010754
-0.33561102 0.76711088 0.39708379
-0.34043396 0.72950137 0.43153331
-0.34593388 0.69186783 0.47081858
-0.35161585 0.65300095 0.51140392
-0.35748753 0.61283571 0.55334473
-0.36355868 0.57130635 0.59671003
-0.36983961 0.52834231 0.64157373
-0.37633976 0.48386535 0.68800348
-0.38307083 0.43779507 0.73608255
-0.39004707 0.39004713 0.78591275
-0.39728212 0.34052747 0.83759153
-0.26596975 0.18997845 -0.10035376
-0.2610493 0.14917104 -0.13550012
-0.25872347 0.11088149 -0.15211323
-0.26514956 0.075757042 -0.10621217
-0.27190307 0.038843352 -0.057972979
-0.27900872 -1.1874363e-08 -0.007218427
-0.28649661 -0.040928103 0.046266668
-0.29439753 -0.084113605 0.10270169
-0.30274552 -0.12974808 0.16233031
-0.31158188 -0.17804678 0.22544724
-0.32094842 -0.22924881 0.29235089
-0.33089674 -0.28362581 0.36341053
-0.34148157 -0.34148163 0.4390164
-0.35276312 -0.4031578 0.51959884
-0.36481705 -0.46905041 0.60569835
-0.37772232 -0.53960335 0.69787872
-0.39157405 -0.61533058 0.79681981
-0.4064804 -0.6968236 0.90329379
-0.42256659 -0.78476667 1.0181952
-0.29468897 0.83495212 0.45560363
-0.29070231 0.77520609 0.42238131
-0.29538196 0.73845482 0.46137863
-0.30021477 0.70050108 0.50165188
-0.30520833 0.66128469 0.54326493
-0.31037083 0.62074172 0.58628589
-0.31570965 0.57880086 0.63077587
-0.32123673 0.53539443 0.67683494
-0.32695794 0.49043694 0.72451186
-0.33288664 0.44384891 0.77391785
-0.33903435 0.39554 0.8251484
-0.34541336 0.34541345 0.87830693
-0.35076168 0.29230142 0.9228763
-0.22375521 0.14917007 -0.13551109
-0.219689 0.10984442 -0.16939598
-0.223047 0.074348956 -0.14141266
-0.22861922 0.038103215 -0.094977587
-0.23447768 3.7252903e-09 -0.046157002
-0.24064429 -0.040107332 0.0052315332
-0.24714325 -0.082381099 0.059389304
-0.25400379 -0.12700191 0.11656047
-0.26125613 -0.17417073 0.17699656
-0.26893377 -0.22411147 0.24097699
-0.27707738 -0.27707741 0.30884048
-0.28572959 -0.33335114 0.38094202
-0.29493725 -0.39324957 0.4576726
-0.3047581 -0.45713711 0.53951317
-0.31525555 -0.52542579 0.62699187
-0.32650337 -0.5985896 0.72072363
-0.33858195 -0.67716384 0.82137853
-0.35158855 -0.7617752 0.92976689
-0.24557319 0.83494878 0.45559418
-0.24521483 0.78468746 0.45201045
-0.24921133 0.74763405 0.49197552
-0.2533392 0.70934975 0.53325438
-0.25760722 0.6697787 0.57593429
-0.26202148 0.62885159 0.62007701
-0.26658967 0.58649725 0.66575897
-0.27131879 0.54263759 0.71305019
-0.2762163 0.49718952 0.76202548
-0.28129515 0.45007223 0.81281394
-0.28656429 0.40119001 0.86550498
-0.29203454 0.35044143 0.9202075
-0.29230142 0.29230142 0.9228763
-0.186461 0.14916885 -0.13552767
-0.18307418 0.10984442 -0.16939598
-0.18248038 0.072992191 -0.17533377
-0.18695447 0.037390944 -0.13059297
-0.19165345 7.4505806e-09 -0.083603255
-0.19659412 -0.039318856 -0.034196511
-0.20179692 -0.080718711 0.017831422
-0.20728257 -0.12436958 0.072688043
-0.21307409 -0.1704593 0.13060327
-0.21919931 -0.21919931 0.19185525
-0.2256871 -0.27082446 0.25673327
-0.2325698 -0.3255977 0.32556033
-0.23988551 -0.38381675 0.39871728
-0.24767545 -0.44581583 0.47661662
-0.25598827 -0.51197636 0.55974495
-0.26487848 -0.58273274 0.64864725
-0.27440846 -0.65858024 0.74394679
-0.28465104 -0.74009275 0.8463726
-0.29568648 -0.82792199 0.95672703
-0.19645396 0.83492923 0.45553678
-0.19860011 0.79440051 0.4823637
-0.20187761 0.75704092 0.52333224
-0.20526509 0.71842778 0.56567591
-0.2087682 0.67849666 0.6094647
-0.21239294 0.63717884 0.65477407
-0.21614486 0.59439832 0.70167297
-0.22003075 0.55007684 0.75024676
-0.22405793 0.5041303 0.80058652
-0.22823632 0.45647258 0.85281622
-0.23257351 0.4070037 0.90703118
-0.23707873 0.35561812 0.96334612
-0.23384112 0.29230142 0.9228763
-0.22951129 0.22951144 0.86875361
-0.14645848 0.10984385 -0.16940667
-0.14384407 0.071922131 -0.20208684
-0.14681891 0.036704727 -0.16490135
-0.15043929 8.1956387e-08 -0.1196467
-0.15424317 -0.038560722 -0.072098047
-0.15824442 -0.079122186 -0.022082373
-0.16245827 -0.12184372 0.030590761
-0.16690324 -0.16690318 0.086152792
-0.17159827 -0.21449785 0.14484079
-0.17656448 -0.26484677 0.20691842
-0.18182737 -0.31819788 0.27270448
-0.18741295 -0.37482592 0.34252402
-0.19335182 -0.43504155 0.41676003
-0.1996794 -0.49919862 0.49585479
-0.20643514 -0.56769669 0.5803017
-0.21366404 -0.64099211 0.6706627
-0.22141758 -0.71960711 0.76758182
-0.22975501 -0.80414259 0.87180001
-0.15102719 0.90616298 0.51698184
-0.1483784 0.84081089 0.47283554
-0.15081753 0.80436027 0.51348782
-0.15333818 0.76669085 0.55549866
-0.15594454 0.72774112 0.59893793
-0.15864037 0.68744159 0.64386833
-0.16143171 0.64572686 0.69039083
-0.16432163 0.6025126 0.73855603
-0.1673169 0.55772305 0.78847724
-0.17042263 0.51126796 0.84023952
-0.17364663 0.4630577 0.89397287
-0.17699496 0.41298831 0.9497785
-0.17875309 0.35750625 0.97908062
-0.17538084 0.29230142 0.9228763
-0.17213348 0.22951144 0.86875361
-0.1098429 0.109843 -0.16942261
-0.10788305 0.071922131 -0.20208684
-0.10812958 0.036043204 -0.1979782
-0.11074701 -7.4505806e-09 -0.1543542
-0.11349431 -0.037831414 -0.10856584
-0.11638103 -0.077587426 -0.060453884
-0.11941881 -0.1194189 -0.0098243617
-0.12261941 -0.16349253 0.043519117
-0.12599587 -0.20999315 0.099793524
-0.129564 -0.25912809 0.15926245
-0.13334012 -0.31112689 0.22219776
-0.13734196 -0.36624527 0.28889492
-0.14159143 -0.42477429 0.3597194
-0.14611284 -0.48704284 0.43507612
-0.15093192 -0.55341697 0.51539421
-0.15607972 -0.62431878 0.60119104
-0.16159108 -0.70022804 0.69304711
-0.16750593 -0.78169429 0.79162759
-0.17387024 -0.86935103 0.89769924
-0.10068438 0.9061594 0.51697177
-0.1001543 0.8513115 0.50371969
-0.10182118 0.81456941 0.54539174
-0.10354492 0.77658671 0.588485
-0.10532802 0.7372961 0.63306266
-0.10717361 0.69662845 0.67920256
-0.10908409 0.6545046 0.72696453
-0.11106391 0.61085135 0.77646011
-0.11311643 0.56558228 0.82777309
-0.11524676 0.51861036 0.88103122
-0.11745887 0.46983546 0.93633401
-0.11975758 0.41915146 0.99380141
-0.11916873 0.35750625 0.97908062
-0.11692056 0.29230142 0.9228763
-0.11475565 0.22951144 0.86875361
-0.11266945 0.16900417 0.81659853
-0.071921833 0.071921825 -0.20209193
-0.070810355 0.035405114 -0.22987895
-0.072493359 7.4505806e-08 -0.18780366
-0.074258104 -0.03712897 -0.14368522
-0.076111138 -0.076111093 -0.097359344
-0.078059018 -0.11708851 -0.048662245
-0.08010897 -0.16021794 0.0025864914
-0.082269758 -0.20567437 0.056606337
-0.084550351 -0.25365099 0.113621
-0.086960681 -0.30436242 0.17387938
-0.089512475 -0.35804987 0.23767421
-0.092218213 -0.41498202 0.30531773
-0.095092639 -0.47546309 0.37717822
-0.098152004 -0.53983611 0.45366251
-0.10141519 -0.608491 0.53524196
-0.10490237 -0.68186539 0.62242156
-0.10863791 -0.76046538 0.71581
-0.11264931 -0.84486985 0.81609493
-0.050340984 0.90613765 0.51691145
-0.050710246 0.86207426 0.53537464
-0.051565289 0.82504445 0.57812661
-0.052449655 0.78674483 0.62234509
-0.053364892 0.74710846 0.66810691
-0.054312166 0.7060582 0.71547061
-0.055293676 0.66352427 0.76454616
-0.056311317 0.61942452 0.81542808
-0.057366855 0.57366854 0.86820507
-0.058462992 0.52616692 0.92301202
-0.059601832 0.47681463 0.97995389
-0.060752522 0.42526752 1.0374882
-0.059584364 0.35750625 0.97908062
-0.05846028 0.29230142 0.9228763
-0.057377823 0.22951144 0.86875361
-0.056334727 0.16900417 0.81659853
-0.035960607 0.0719212 -0.20210744
-0.03533024 0.035330251 -0.23362558
-0.035601404 -2.2351742e-08 -0.22006738
-0.036452379 -0.036452308 -0.17751896
-0.037345022 -0.074690014 -0.13288653
-0.038282372 -0.11484706 -0.086019099
-0.039268106 -0.15707241 -0.036732394
-0.040305946 -0.20152971 0.015159488
-0.0414 -0.24840002 0.069862209
-0.042555247 -0.29788667 0.12762459
-0.043776665 -0.35021338 0.18869554
-0.045070108 -0.40563104 0.25336772
-0.046442311 -0.46442318 0.32197782
-0.047900695 -0.52690768 0.39489716
-0.049453642 -0.59344369 0.47254443
-0.051110655 -0.66443861 0.55539507
-0.052882779 -0.74035889 0.64400148
-0.05478197 -0.82172948 0.73896074
-0.056822654 -0.9091624 0.84099501
0 0.98102492 0.58150685
0 0.90920663 0.52543604
0 0.8731162 0.56785083
0 0.83578914 0.61170352
0 0.79716879 0.6570915
0 0.75717896 0.70407307
0 0.71574658 0.75273383
0 0.67279571 0.80317807
0 0.62824148 0.85550547
0 0.58198953 0.90981007
0 0.53394699 0.96623403
0 0.48400444 1.0248893
0 0.42526975 1.0375031
0 0.35750791 0.97909456
0 0.29230288 0.92288983
0 0.22951242 0.86876661
0 0.16900486 0.81661117
0 0.071920641 -0.2021227
0 0.035330281 -0.23363064
0 -6.7055225e-08 -0.25119764
0 -0.035799846 -0.21014151
0 -0.073321141 -0.16711143
0 -0.11269025 -0.12196711
0 -0.1540481 -0.074537203
0 -0.19754875 -0.024649724
0 -0.24336272 0.027884953
0 -0.29168087 0.083297029
0 -0.34271133 0.14180759
0 -0.3966907 0.20369962
0 -0.45388407 0.26928294
0 -0.514584 0.33888048
0 -0.57912481 0.41288227
0 -0.64788288 0.49171922
0 -0.7212854 0.57588166
0 -0.79981977 0.66592807
0 -0.88404727 0.76250976
0 -0.97460222 0.86633921
0.05163268 0.98102093 0.58149612
0.051155675 0.92080212 0.55764592
0.052025933 0.88444078 0.60115886
0.052926309 0.84682107 0.64617795
0.053858403 0.80787611 0.69278252
0.054823197 0.76752472 0.74102229
0.055823438 0.72570479 0.79103422
0.056860853 0.68233019 0.84290493
0.057937555 0.63731319 0.89674008
0.059055548 0.59055543 0.9526397
0.060217824 0.54196036 1.0107533
0.061426766 0.49141407 1.0712005
0.060752816 0.42526975 1.0375031
0.059584644 0.35750791 0.97909456
0.058460552 0.29230288 0.92288983
0.057378087 0.22951242 0.86876661
0.056334976 0.16900486 0.81661117
0.055329118 0.11065829 0.7663182
0.035329845 0.035329774 -0.23364547
0.034721114 2.9802322e-08 -0.26408201
0.035170417 -0.035170496 -0.24161677
0.036000568 -0.072001114 -0.20010939
0.036870956 -0.11061278 -0.15658975
0.037784483 -0.15113792 -0.11091372
0.038744301 -0.19372159 -0.062922582
0.039754283 -0.23852563 -0.01242362
0.04081833 -0.28572834 0.040778689
0.041940626 -0.33552489 0.096893393
0.043126378 -0.3881374 0.15618113
0.044381127 -0.4438113 0.21891856
0.045711245 -0.50282365 0.28542447
0.04712338 -0.56548053 0.35603115
0.04862554 -0.63213199 0.43113932
0.050226625 -0.70317286 0.51119369
0.051936742 -0.77905107 0.5966993
0.053767413 -0.86027867 0.68823296
0.055732101 -0.94744557 0.78646713
0.10326282 0.98099673 0.58143264
0.10363346 0.93270123 0.59069884
0.10541965 0.89606702 0.63535345
0.10726848 0.85814774 0.68157434
0.10918237 0.8188678 0.72942156
0.11116531 0.77815717 0.77899504
0.11322211 0.73594373 0.83041525
0.11535647 0.69213879 0.88377398
0.11757284 0.64665061 0.93918329
0.11987547 0.59937733 0.99674881
0.12227069 0.55021822 1.0566295
0.12393541 0.49574164 1.0982476
0.12150563 0.42526975 1.0375031
0.11916929 0.35750791 0.97909456
0.1169211 0.29230288 0.92288983
0.11475617 0.22951242 0.86876661
0.11266995 0.16900486 0.81661117
0.11065824 0.11065829 0.7663182
0.070659094 0.035329506 -0.23366037
0.069442227 2.9802322e-08 -0.26408201
0.069125146 -0.034562573 -0.27200902
0.070728093 -0.070728078 -0.23193535
0.072407149 -0.10861079 -0.18995899
0.074167646 -0.14833529 -0.14594664
0.076016106 -0.19004025 -0.099734895
0.077959068 -0.23387718 -0.051161058
0.080003701 -0.28001291 -4.5284629e-05
0.082158476 -0.3286339 0.053824037
0.084432244 -0.37994504 0.11066837
0.086835459 -0.43417722 0.17074864
0.089379482 -0.4915871 0.23434931
0.092077069 -0.55246246 0.3017889
0.09494292 -0.61712891 0.37343514
0.09799251 -0.68594754 0.4496749
0.1012445 -0.75933373 0.53097481
0.10471977 -0.83775824 0.61785626
0.10844207 -0.9217577 0.71091402
0.11243876 -1.0119487 0.81083119
0.15488979 0.98096859 0.58135867
0.15748464 0.94490784 0.62460625
0.16023512 0.90799892 0.67044759
0.16308267 0.86977422 0.71790695
0.16603182 0.83015913 0.76705921
0.16909033 0.78908819 0.81803465
0.17226365 0.74647582 0.87092334
0.17555837 0.70223349 0.92583519
0.17898072 0.65626264 0.98287433
0.18254003 0.60846674 1.042196
0.18624379 0.55873138 1.1039252
0.18590312 0.49574164 1.0982476
0.18225844 0.42526975 1.0375031
0.17875394 0.35750791 0.97909456
0.17538166 0.29230288 0.92288983
0.17213427 0.22951242 0.86876661
0.16900493 0.16900486 0.81661117
0.16598736 0.11065829 0.7663182
0.16307566 0.054358691 0.71778983
0.10416248 -8.9406967e-08 -0.26409638
0.10239819 -0.034132659 -0.29350123
0.10424893 -0.069499381 -0.26265556
0.10667946 -0.10667948 -0.22214682
0.10922634 -0.1456351 -0.17969882
0.1118978 -0.18649636 -0.13517439
0.11470287 -0.22940575 -0.088423342
0.11765254 -0.27452257 -0.0392619
0.12075718 -0.32201904 0.012481913
0.1240305 -0.37209159 0.067037314
0.1274858 -0.42495272 0.12462559
0.13113914 -0.48084342 0.18551448
0.13500802 -0.54003209 0.24999604
0.13911213 -0.6028192 0.31839791
0.1434736 -0.66954356 0.39108914
0.14811799 -0.74058992 0.46849513
0.15307248 -0.81638658 0.55107039
0.1583699 -0.89742941 0.63936073
0.16404714 -0.98428279 0.73398119
0.21196428 1.0598214 0.64941567
0.2091276 0.99335611 0.61395735
0.21276495 0.95744246 0.65942436
0.21653014 0.92025322 0.70648915
0.22043003 0.88171995 0.75523758
0.22447199 0.84176987 0.80576199
0.22866596 0.80033094 0.85818678
0.23301964 0.75731379 0.91260773
0.23754233 0.71262699 0.96914136
0.24224289 0.66616803 1.0278983
0.24713443 0.617836 1.0890427
0.25222763 0.56751204 1.1527075
0.24787082 0.49574164 1.0982476
0.24301127 0.42526975 1.0375031
0.23833857 0.35750791 0.97909456
0.23384221 0.29230288 0.92288983
0.22951235 0.22951242 0.86876661
0.2253399 0.16900486 0.81661117
0.22131647 0.11065829 0.7663182
0.2174342 0.054358691 0.71778983
0.13888177 4.4703484e-08 -0.26411554
0.13653055 -0.03413257 -0.29350588
0.13662453 -0.068312183 -0.29233101
0.13975461 -0.10481606 -0.25320497
0.14303149 -0.14303157 -0.21224406
0.1464653 -0.1830816 -0.1693216
0.15006848 -0.22510266 -0.12428185
0.1538534 -0.26924342 -0.076970153
0.1578332 -0.31566638 -0.027222723
0.16202438 -0.36455482 0.025166959
0.1664442 -0.41611043 0.080414832
0.17111251 -0.47055936 0.13876851
0.17604962 -0.52814877 0.20048244
0.18128009 -0.58916026 0.26586354
0.18683089 -0.65390813 0.33524847
0.19273236 -0.72274625 0.40901661
0.19901879 -0.79607528 0.48759717
0.20573001 -0.87435246 0.57148731
0.21290873 -0.95808923 0.66122133
0.22060655 -1.0478812 0.75744414
0.26494867 1.0597947 0.64934891
0.2648629 1.006479 0.64849144
0.26953045 0.97030973 0.69516683
0.27436423 0.93283844 0.74350464
0.27937457 0.89399868 0.79360807
0.28457004 0.85371011 0.84556264
0.28996372 0.81189847 0.89949965
0.29556581 0.768471 0.95552033
0.30138865 0.72333276 1.0137488
0.30744401 0.67637682 1.0743026
0.31374925 0.62749851 1.1373549
0.31616089 0.56908965 1.1614712
0.30983853 0.49574164 1.0982476
0.30376408 0.42526975 1.0375031
0.29792324 0.35750791 0.97909456
0.29230276 0.29230288 0.92288983
0.28689042 0.22951242 0.86876661
0.28167489 0.16900486 0.81661117
0.2766456 0.11065829 0.7663182
0.27179277 0.054358691 0.71778983
0.26710722 -2.9802322e-08 0.67093444
0.17066181 -0.034132391 -0.29351971
0.16791323 -0.067165323 -0.3210054
0.17169409 -0.10301647 -0.28319675
0.17564866 -0.14051893 -0.24365105
0.1797902 -0.1797902 -0.20223564
0.18413177 -0.22095819 -0.15881997
0.18868764 -0.26416266 -0.11326129
0.19347467 -0.30955943 -0.06539093
0.1985103 -0.35731858 -0.01503478
0.20381506 -0.40763012 0.038012832
0.20941113 -0.46070439 0.093973398
0.21532315 -0.51677549 0.15309374
0.22157948 -0.57610673 0.21565697
0.22820941 -0.63898641 0.28195632
0.23524834 -0.7057451 0.35234568
0.24273528 -0.77675301 0.42721522
0.25071448 -0.85242921 0.50700712
0.25923714 -0.93325382 0.5922339
0.2683585 -1.0197622 0.68344706
0.31792906 1.0597634 0.64927095
0.32208917 1.0199491 0.68393874
0.32784107 0.98352319 0.73187125
0.33380216 0.94577277 0.78154671
0.339984 0.90662402 0.83306229
0.34639758 0.86599398 0.8865087
0.35305941 0.82380527 0.94202405
0.35998249 0.77996218 0.99971658
0.36718255 0.73436505 1.0597169
0.37467465 0.68690336 1.1221509
0.38248077 0.63746792 1.187202
0.37939307 0.56908965 1.1614712
0.37180623 0.49574164 1.0982476
0.36451688 0.42526975 1.0375031
0.35750788 0.35750791 0.97909456
0.35076332 0.29230288 0.92288983
0.34426853 0.22951242 0.86876661
0.33800986 0.16900486 0.81661117
0.33197471 0.11065829 0.7663182
0.32615131 0.054358691 0.71778983
0.32052866 -2.9802322e-08 0.67093444
0.2047925 -0.034132048 -0.29353356
0.20138317 -0.067127772 -0.32194453
0.20255485 -0.1012774 -0.31218058
0.20714027 -0.13809353 -0.27396896
0.21193808 -0.17661498 -0.23398712
0.2169628 -0.21696275 -0.19211446
0.22223221 -0.25927088 -0.14820267
0.22776327 -0.30368432 -0.1021105
0.23357596 -0.35036403 -0.053671524
0.23969311 -0.39948839 -0.0026952773
0.24613926 -0.45125529 0.051022679
0.25294173 -0.50588346 0.1077099
0.26013085 -0.56361687 0.1676195
0.26774159 -0.62473023 0.23104209
0.27581006 -0.68952525 0.29827946
0.28437993 -0.75834656 0.36969492
0.29349941 -0.83158171 0.44569081
0.30322319 -0.90966952 0.52672219
0.31361336 -0.99310899 0.61330676
0.3247422 -1.0824741 0.7060473
0.38096008 1.1428802 0.72100556
0.37421182 1.0691767 0.67280388
0.38086629 1.0337799 0.72033584
0.38776177 0.99710166 0.76958925
0.39491147 0.95907074 0.82065856
0.40232798 0.9196068 0.87363362
0.41003031 0.87863636 0.92865008
0.4180333 0.83606654 0.98581427
0.42197236 0.78366292 1.0139506
0.42197236 0.72338116 1.0139505
0.42197439 0.66310251 1.0139649
0.42197439 0.60282046 1.0139649
0.42197639 0.54254103 1.0139794
0.42197639 0.4822588 1.0139794
0.42197841 0.42197853 1.013994
0.41709253 0.35750791 0.97909456
0.40922388 0.29230288 0.92288983
0.40164658 0.22951242 0.86876661
0.39434484 0.16900486 0.81661117
0.38730383 0.11065829 0.7663182
0.38050985 0.054358691 0.71778983
0.37395012 -2.9802322e-08 0.67093444
0.23892263 -0.034131795 -0.29354745
0.23494516 -0.067127213 -0.32195795
0.2323916 -0.099596404 -0.34019777
0.23756318 -0.13575038 -0.30325797
0.24296948 -0.17354967 -0.26464131
0.24862832 -0.21310997 -0.22422132
0.25455698 -0.25455701 -0.18187344
0.26077378 -0.29802719 -0.13746774
0.26730186 -0.34367377 -0.090838715
0.27416599 -0.39166573 -0.041809127
0.28139108 -0.442186 0.0097985864
0.28900725 -0.49544102 0.06419985
0.2970472 -0.55165905 0.12162797
0.30554727 -0.61109447 0.18234275
0.31454813 -0.67403173 0.24663447
0.32409653 -0.74079216 0.31483769
0.33424157 -0.81172955 0.38730216
0.34504223 -0.88725126 0.4644497
0.35656428 -0.96781731 0.54674989
0.36888239 -1.0539497 0.6347363
0.43537164 1.1428505 0.72093511
0.42671314 1.066783 0.66681951
0.42671314 1.0134437 0.66681945
0.42671496 0.96010864 0.6668306
0.42671496 0.90676922 0.66683078
0.42671496 0.85342991 0.66683072
0.42671674 0.80009389 0.6668421
0.42671674 0.74675435 0.66684198
0.42671856 0.69341761 0.66685337
0.42671856 0.64007795 0.66685343
0.42672038 0.58674043 0.66686445
0.42672038 0.53340054 0.66686463
0.42672038 0.48006034 0.66686451
0.42672217 0.42672208 0.66687584
0.42672217 0.37338182 0.66687578
0.42672399 0.32004291 0.6668871
0.42672399 0.26670247 0.66688716
0.42672578 0.21336281 0.66689849
0.42672578 0.1600222 0.66689837
0.42672759 0.10668185 0.66690969
0.42672759 0.053340852 0.66690958
0.42672941 2.9802322e-08 0.66692102
0.42013055 -0.052516371 0.62567806
0.26850665 -0.067126647 -0.32197136
0.26410988 -0.099041201 -0.34945101
0.2669709 -0.13348548 -0.33156958
0.27294284 -0.17058924 -0.29424503
0.27918881 -0.20939159 -0.25520769
0.28572655 -0.2500107 -0.21434695
0.2925778 -0.29257783 -0.1715264
0.29976481 -0.33723533 -0.12660761
0.3073138 -0.38414228 -0.079426318
0.31525284 -0.43347263 -0.029807448
0.32361397 -0.48542088 0.022449628
0.33242962 -0.54019815 0.077547267
0.341739 -0.5980432 0.1357308
0.35158476 -0.65922147 0.19726716
0.36201474 -0.72402936 0.26245433
0.37308246 -0.79280001 0.33162749
0.3848497 -0.86591184 0.40517282
0.39738181 -0.94378161 0.4834986
0.41075763 -1.0268941 0.56709754
0.42506525 -1.1157963 0.65652013
0.48979944 1.1428654 0.72097039
0.47690758 1.0597947 0.64934891
0.46467698 0.98098481 0.58140105
0.453058 0.90611601 0.51685107
0.4420059 0.83489996 0.45545053
0.43148345 0.76708162 0.39699256
0.4304927 0.71748799 0.3914884
0.4304927 0.66965532 0.39148831
0.4304927 0.62182271 0.39148825
0.4304927 0.57399023 0.39148834
0.4304927 0.52615768 0.39148819
0.43049106 0.4783234 0.39147913
0.43049106 0.43049115 0.39147934
0.43049106 0.38265869 0.3914791
0.43049106 0.33482647 0.39147931
0.43049106 0.28699407 0.39147916
0.43049106 0.23916173 0.39147928
0.43049106 0.19132927 0.39147922
0.43049106 0.14349703 0.39147928
0.43049106 0.095664635 0.39147931
0.4304927 0.047832504 0.39148837
0.4304927 -5.9604645e-08 0.3914884
0.43049431 -0.047832772 0.39149737
0.30206755 -0.067126088 -0.32198474
0.29712129 -0.099040344 -0.34946388
0.29541266 -0.13129449 -0.35895631
0.30191076 -0.16772816 -0.3228558
0.30870116 -0.20580083 -0.28513137
0.31580317 -0.24562466 -0.24567573
0.32323962 -0.28732419 -0.20436189
0.33103383 -0.33103386 -0.1610608
0.33921319 -0.37690356 -0.11562008
0.34780696 -0.42509747 -0.067876741
0.35684752 -0.47579664 -0.017651558
0.36637059 -0.52920198 0.035254508
0.37641713 -0.58553767 0.091068596
0.38702887 -0.6450482 0.15002272
0.39825627 -0.70801109 0.21239713
0.41015455 -0.77473629 0.27849853
0.42278567 -0.84557128 0.34867144
0.43621948 -0.92090774 0.42330378
0.45053679 -1.0011929 0.50284439
0.46582392 -1.0869225 0.58777291
0.48218489 -1.1786741 0.67866719
0.50341791 0.90615225 0.5169518
0.49113682 0.83493268 0.45554641
0.47944066 0.76710504 0.39706558
0.46828863 0.70243293 0.34130543
0.4576436 0.64070106 0.28808045
0.44747499 0.58171749 0.2372372
0.4377484 0.52529818 0.18860424
0.43356487 0.47692144 0.16768675
0.43356487 0.4335649 0.16768667
0.43356487 0.39020827 0.16768664
0.43356487 0.34685183 0.16768661
0.43356487 0.30349538 0.16768661
0.43356338 0.26013803 0.16767919
0.43356338 0.21678175 0.16767918
0.43356338 0.17342538 0.16767927
0.43356338 0.13006902 0.16767918
0.43356338 0.086712651 0.16767925
0.43356338 0.043356284 0.16767916
0.43356338 -8.1956387e-08 0.16767924
0.43356338 -0.043356366 0.16767925
0.43356338 -0.086712733 0.16767916
0.33013219 -0.099039569 -0.34947681
0.32481268 -0.12992501 -0.37607437
0.32992303 -0.16496149 -0.35052261
0.33721745 -0.20233046 -0.31405044
0.3448427 -0.24138983 -0.27592432
0.35281873 -0.28225496 -0.23604396
0.3611725 -0.32505518 -0.19427514
0.36993256 -0.3699325 -0.15047497
0.37912694 -0.4170396 -0.10450286
0.38879004 -0.46654803 -0.056187436
0.39895862 -0.5186463 -0.0053447187
0.40967333 -0.57354271 0.048229009
0.4209795 -0.63146925 0.10475975
0.43292892 -0.69268626 0.16450688
0.44557491 -0.75747734 0.22773692
0.45898196 -0.82616764 0.29477215
0.47322083 -0.89911944 0.36596644
0.48837149 -0.97674298 0.44171971
0.50452429 -1.0595011 0.52248371
0.5034281 0.64072657 0.28817171
0.49223647 0.581734 0.23730071
0.48153326 0.52530885 0.18864982
0.47128564 0.4712857 0.14206985
0.46146816 0.41951653 0.097444773
0.45205137 0.3698602 0.054641202
0.44301119 0.32218993 0.013549477
0.4361113 0.27752537 -0.017813638
0.4361113 0.23787898 -0.017813697
0.4361113 0.19823246 -0.017813616
0.4361113 0.15858601 -0.017813608
0.4361113 0.11893932 -0.017813701
0.43610993 0.079292729 -0.01781987
0.43610993 0.039646372 -0.017819941
0.43610993 -7.3574483e-08 -0.017819934
0.43610993 -0.039646354 -0.017819911
0.43610993 -0.079292804 -0.017819904
0.36314252 -0.099038847 -0.34948987
0.35729209 -0.12992439 -0.37608278
0.35702524 -0.16228424 -0.3772957
0.36478895 -0.19897583 -0.342006
0.37289783 -0.23729865 -0.30514756
0.38137329 -0.27736244 -0.26662278
0.39024299 -0.31928968 -0.22630589
0.39953509 -0.36321378 -0.18406916
0.40928167 -0.40928173 -0.13976645
0.41951445 -0.45765218 -0.093253821
0.43027201 -0.50850332 -0.04435581
0.44159582 -0.56203103 0.0071158707
0.45353174 -0.61845237 0.061370134
0.46613079 -0.6780085 0.11863872
0.47945157 -0.74097055 0.17918754
0.49355426 -0.80763417 0.2432909
0.50851184 -0.87833869 0.31127962
0.5034349 0.41952908 0.097507671
0.49315819 0.36986876 0.054688156
0.48329115 0.32219404 0.013575226
0.47381559 0.27639243 -0.025906011
0.46470448 0.23235223 -0.063869029
0.45593715 0.1899738 -0.10039966
0.44749451 0.1491649 -0.13557732
0.43935758 0.10983936 -0.1694812
0.43825626 0.073042735 -0.17406991
0.43825626 0.036521308 -0.17406993
0.43825501 2.9802322e-08 -0.17407528
0.43825501 -0.036521308 -0.1740752
0.43825501 -0.073042475 -0.17407513
0.39615238 -0.099038064 -0.34950283
0.38977018 -0.1299234 -0.37609529
0.38358939 -0.15982895 -0.40184855
0.3914611 -0.1957306 -0.36904985
0.40001675 -0.23334318 -0.33340114
0.40895477 -0.27263647 -0.29615942
0.41830018 -0.31372517 -0.2572203
0.4280827 -0.35673556 -0.21645966
0.43833375 -0.40180594 -0.17374712
0.44908777 -0.44908777 -0.12893866
0.46038416 -0.49874949 -0.081870571
0.472262 -0.55097234 -0.03237924
0.48476902 -0.60596126 0.019733131
0.49795651 -0.66394186 0.074680895
0.51188153 -0.72516549 0.13270178
0.51331466 0.27640027 -0.025850423
0.50344068 0.2323572 -0.063827507
0.49393934 0.18997668 -0.10037097
0.48479146 0.14916666 -0.13555521
0.47597763 0.10984103 -0.16945446
0.46747854 0.071919873 -0.2021433
0.45927769 0.035329133 -0.23368508
0.45135835 -4.4703484e-08 -0.26414412
0.44370866 -0.034131527 -0.29356596
0.4400878 -0.06770575 -0.30749238
0.4400878 -0.10155872 -0.30749241
0.42224777 -0.12992239 -0.37610781
0.41555306 -0.1598281 -0.40185669
0.41727608 -0.19258894 -0.39522967
0.42624754 -0.22951791 -0.36072406
0.43561098 -0.26806816 -0.32471094
0.44539618 -0.30835113 -0.28707558
0.45562986 -0.35048446 -0.24771518
0.46634486 -0.3945995 -0.20650363
0.47757599 -0.44083932 -0.16330704
0.48936138 -0.48936135 -0.11797848
0.5017432 -0.54033875 -0.07035619
0.51476943 -0.5939647 -0.020255238
0.51260173 0.10984319 -0.16941728
0.50344563 0.071920767 -0.20211762
0.49461228 0.035329372 -0.23366529
0.48608488 5.9604645e-08 -0.26412028
0.47784653 -0.03413187 -0.29354283
0.46988282 -0.067126088 -0.32198474
0.46217898 -0.099038385 -0.34949845
0.45472485 -0.12992138 -0.37612051
0.44751415 -0.1598264 -0.40187296
0.4422766 -0.18954712 -0.42057848
0.4516322 -0.2258161 -0.38716555
0.46138975 -0.26365128 -0.35231715
0.47157824 -0.30315742 -0.31592956
0.48222688 -0.34444782 -0.27789888
0.49336892 -0.38764703 -0.23810597
0.50503653 -0.43288839 -0.19643575
0.51198542 -0.034132391 -0.29351971
0.50345129 -0.067126796 -0.32196695
0.49519825 -0.099039569 -0.34947681
0.48721144 -0.12992309 -0.3760995
0.47947821 -0.15982611 -0.40187702
0.47199252 -0.188797 -0.42682934
0.47620982 -0.2222313 -0.4127717
0.4863328 -0.25937751 -0.37902823
0.49689424 -0.29813653 -0.34382358
0.50792456 -0.33861637 -0.30705577
0.51969892 -0.12992471 -0.37607855
0.51144862 -0.15982771 -0.4018608
0.50345743 -0.18879655 -0.42683318
0.5000205 -0.21875897 -0.43757355
0.51048017 -0.25524008 -0.40488714
