# .PCD v0.7 - Point Cloud Data file format
VERSION 0.7
FIELDS x y z
SIZE 4 4 4
TYPE F F F
COUNT 1 1 1
WIDTH 984
HEIGHT 1
VIEWPOINT 0 0 0 1 0 0 0
POINTS 984
DATA ascii
-1.2609917 0.14011025 0.33503211
-1.2052927 0.13907227 0.31773281
-1.1996269 0.09227898 0.30683696
-1.1558443 0.18493512 0.311551
-1.1504086 0.13804899 0.30067953
-1.1450404 0.091603152 0.28994316
-1.1066591 0.23055397 0.30540213
-1.1014684 0.18357816 0.29458821
-1.1166071 0.13957593 0.32612687
-1.0912477 0.090937331 0.27329487
-1.0862157 0.045258977 0.26281187
-1.0527868 0.22886668 0.28852913
-1.0539964 0.18330377 0.29115888
-1.087065 0.14179103 0.363047
-1.0532382 0.091585912 0.2895104
-1.0334784 0.044933803 0.24655437
-1.0287688 7.4505806e-09 0.23631603
-1.0043651 0.27391762 0.28251016
-0.99970078 0.22720467 0.27190948
-1.0239269 0.18616852 0.32696879
-1.0565702 0.14407769 0.40115803
-1.0646601 0.096787274 0.41954422
-0.98149669 0.044613481 0.23053662
-0.97705573 5.2154064e-08 0.2204435
-0.97265476 -0.044211566 0.21044108
-0.95619398 0.31873143 0.27651459
-0.95176506 0.27193284 0.2659694
-0.96269113 0.22921205 0.29198393
-0.99290633 0.18912502 0.3639248
-1.0250796 0.1464399 0.44052801
-1.0594077 0.10089593 0.5222615
-0.98161155 0.046743363 0.33703279
-0.92606831 -8.9406967e-08 0.20478682
-0.92192626 -0.04390128 0.19492483
-0.90408242 0.31642881 0.26006839
-0.90326607 0.27097979 0.25802726
-0.93118304 0.23279576 0.32782
-0.96088082 0.19217619 0.40206423
-0.99253523 0.1488803 0.48120049
-1.0263463 0.10263477 0.56572813
-0.98913884 0.049456954 0.47270942
-0.9040792 2.9802322e-08 0.26006037
-0.87190503 -0.043595172 0.17962489
-0.86804956 -0.086804941 0.16998616
-0.85664457 0.36069238 0.25419003
-0.85271537 0.31415829 0.24385005
-0.87131685 0.27515274 0.29280129
-0.89867419 0.23649333 0.36479437
-0.92780513 0.19532742 0.44145471
-0.95888793 0.1514034 0.52325159
-0.99212545 0.10443425 0.61071891
-0.99759394 0.052504987 0.62510931
-0.90695912 -0 0.38659668
-0.83151114 -0.043763757 0.18804938
-0.81896394 -0.08620663 0.15503052
-0.81538326 -0.12874472 0.14560768
-0.80945563 0.40472782 0.24835013
-0.80574965 0.35811096 0.23805571
-0.81322795 0.3162553 0.25882879
-0.8383683 0.27945605 0.32866314
-0.86511594 0.24031004 0.40296215
-0.89362657 0.19858372 0.48215836
-0.92408043 0.15401334 0.56675231
-0.95668322 0.10629803 0.65731555
-0.99167067 0.055092722 0.75450289
-0.91022438 -2.9802322e-08 0.52826333
-0.83031934 -0.046128854 0.30630505
-0.77055287 -0.085617021 0.14028709
-0.76720685 -0.12786785 0.13099222
-0.76388967 -0.16975322 0.12177801
-0.75902849 0.4018386 0.23229888
-0.75683248 0.35615659 0.22584029
-0.77988023 0.32112712 0.29362762
-0.80437577 0.28389722 0.36567327
-0.83045995 0.24425301 0.44239154
-0.85829258 0.20195115 0.5242523
-0.88805181 0.15671496 0.61177933
-0.91995281 0.10822973 0.70560569
-0.95423108 0.056131244 0.80642426
-0.91390175 2.9802322e-08 0.68780863
-0.8290717 -0.048768938 0.43830842
-0.75871134 -0.089260183 0.23136613
-0.71967977 -0.12700234 0.11656763
-0.71658909 -0.16860922 0.1074773
-0.7125445 0.44534039 0.22656403
-0.7093187 0.39899173 0.21648319
-0.72312331 0.36156163 0.25962263
-0.74548906 0.3261514 0.3295154
-0.7692824 0.28848088 0.40386972
-0.79464465 0.24832651 0.48312679
-0.82173622 0.2054341 0.56778795
-0.85074025 0.1595137 0.65842545
-0.88186663 0.11023328 0.75569558
-0.91535723 0.05720979 0.86035359
-0.91807443 2.9802322e-08 0.86884487
-0.82768267 -0.051730156 0.58637059
-0.7534951 -0.094186962 0.35453442
-0.69160765 -0.12967645 0.16113614
-0.66992193 -0.1674805 0.093368173
-0.66707623 -0.20846134 0.084475666
-0.66630113 0.48862088 0.22086601
-0.6632877 0.44219172 0.21082126
-0.66802466 0.40081483 0.22661108
-0.68837517 0.36713332 0.29444605
-0.71000457 0.33133546 0.36654413
-0.73303723 0.29321489 0.44331992
-0.75761443 0.25253814 0.5252437
-0.7838968 0.20903915 0.61285162
-0.81206822 0.16241375 0.70675653
-0.84234005 0.11231214 0.80766249
-0.87495607 0.058330417 0.91638243
-0.88286287 -5.9604645e-08 0.94273853
-0.82611412 -0.055074304 0.75357592
-0.74773449 -0.099697948 0.49231061
-0.68296856 -0.1365937 0.27642417
-0.62860101 -0.1676269 0.095199041
-0.62124282 -0.20708092 0.070671767
-0.6186325 -0.247453 0.061970577
-0.61749554 0.48517513 0.20520367
-0.61473101 0.43909368 0.19533031
-0.63295758 0.40690127 0.26042512
-0.65254176 0.37288085 0.33036828
-0.67337388 0.336687 0.40476903
-0.69558275 0.29810691 0.4840861
-0.71930647 0.25689504 0.5688138
-0.74470562 0.212773 0.65952516
-0.77196419 0.16542092 0.75687724
-0.80129403 0.11447057 0.86162668
-0.82199764 0.058714062 0.93556798
-0.81847054 8.9406967e-08 0.92297125
-0.81497729 -0.058212847 0.91049552
-0.74125785 -0.10589388 0.64721179
-0.673397 -0.14429937 0.4048515
-0.61698598 -0.17628175 0.20338361
-0.57601619 -0.20572007 0.057062864
-0.57360983 -0.2458328 0.048468828
-0.57122535 -0.28561258 0.039952807
-0.57193351 0.52793866 0.19960685
-0.56937748 0.48178092 0.18977571
-0.57915729 0.44550562 0.22739042
-0.59680694 0.41317391 0.2952736
-0.61556613 0.3788099 0.36742452
-0.63554293 0.34221536 0.44425815
-0.65685982 0.30316606 0.52624607
-0.67965347 0.26140517 0.61391401
-0.70408893 0.21664272 0.70789653
-0.7303502 0.16854233 0.80890155
-0.75865692 0.11671641 0.91777337
-0.75816894 0.058320642 0.91589653
-0.75494093 2.9802322e-08 0.90348125
-0.75174028 -0.057826132 0.89117092
-0.7339229 -0.11291111 0.82264256
-0.66271311 -0.15293373 0.54875863
-0.60410625 -0.18587884 0.32334784
-0.55510384 -0.21350145 0.13487701
-0.5291729 -0.24423364 0.035142697
-0.5269857 -0.2837615 0.026730344
-0.52481818 -0.32296497 0.018393785
-0.52660406 0.57048768 0.19404584
-0.52425289 0.52425289 0.18424921
-0.52690679 0.48299792 0.19530717
-0.54272592 0.45227149 0.26122019
-0.5595243 0.41964319 0.33121344
-0.57739574 0.38493046 0.40567771
-0.59644651 0.34792706 0.48505613
-0.61679739 0.30839849 0.56985116
-0.63858598 0.26607755 0.66063714
-0.66197032 0.22065677 0.75807178
-0.68714494 0.17178616 0.86296594
-0.69816172 0.11636022 0.90886962
-0.69519317 0.057932705 0.89650023
-0.69225287 -8.9406967e-08 0.88424921
-0.68933421 -0.057444483 0.87208807
-0.68644315 -0.11440715 0.86004198
-0.65066922 -0.1626673 0.71098393
-0.58980089 -0.19660026 0.45736593
-0.53938687 -0.22474447 0.24730757
-0.49695507 -0.24847761 0.070508406
-0.4833174 -0.2819351 0.01368475
-0.48134068 -0.32089382 0.0054484457
-0.47935709 0.56651294 0.17875805
-0.47723824 0.52062351 0.16912696
-0.490226 0.49022597 0.22816221
-0.50517088 0.45924631 0.2960934
-0.52105552 0.42631808 0.36829653
-0.53797162 0.3912521 0.44518772
-0.55602294 0.35383278 0.5272392
-0.57532763 0.31381515 0.61498797
-0.59602368 0.27091992 0.70906073
-0.61827248 0.2248264 0.81019175
-0.63844013 0.17412001 0.90186304
-0.635732 0.11558768 0.88955331
-0.63304961 0.057549983 0.87736058
-0.63038975 2.9802322e-08 0.86527038
-0.62774932 -0.05706802 0.85326827
-0.62513375 -0.1136606 0.84137928
-0.62253708 -0.1697827 0.82957625
-0.57375133 -0.20863691 0.6078229
-0.52193636 -0.23724379 0.3723003
-0.478771 -0.26114777 0.17609425
-0.44220996 -0.28140634 0.0099076033
-0.43841869 -0.31884992 -0.007325545
-0.43664426 -0.35725433 -0.015391126
-0.43468645 0.60856104 0.17329453
-0.43276834 0.56259888 0.16370414
-0.43924052 0.52708852 0.19606465
-0.45243233 0.49767542 0.26202384
-0.46644107 0.46644101 0.33206764
-0.48134506 0.43321049 0.40658757
-0.49723095 0.39778477 0.48601708
-0.51420331 0.35994232 0.57087886
-0.53237748 0.31942654 0.66174978
-0.55189073 0.27594537 0.75931591
-0.57288885 0.2291556 0.86430657
-0.57655543 0.1729666 0.88263941
-0.57412851 0.11482558 0.87050474
-0.57172191 0.057172179 0.85847205
-0.5693329 -5.9604645e-08 0.84652674
-0.5669663 -0.056696683 0.83469379
-0.5646193 -0.11292377 0.82295865
-0.56228912 -0.16868675 0.81130767
-0.55560845 -0.22224343 0.77790463
-0.50247258 -0.25123638 0.51222491
-0.45863289 -0.27517968 0.29302663
-0.42187861 -0.29531503 0.1092553
-0.39604121 -0.31683296 -0.019931734
-0.39444718 -0.35500234 -0.027901888
-0.39286834 -0.39286828 -0.035795957
-0.39024061 0.65040106 0.16786569
-0.38851893 0.60436291 0.15830091
-0.3897016 0.56290233 0.16487135
-0.40123448 0.53497934 0.22894272
-0.41347075 0.50535321 0.29692218
-0.42647684 0.47386327 0.36917821
-0.44032776 0.44032788 0.44612765
-0.45510855 0.40454084 0.52824301
-0.47091806 0.36626956 0.61607361
-0.4878718 0.32524788 0.71026111
-0.50608957 0.28116074 0.81147069
-0.51766366 0.23007268 0.87577146
-0.51548749 0.17182922 0.86368167
-0.51333183 0.11407378 0.85170585
-0.51119184 0.056799173 0.83981717
-0.50907189 -2.9802322e-08 0.82803959
-0.50696951 -0.056329995 0.81635952
-0.5048821 -0.112196 0.80476278
-0.50281405 -0.1676048 0.79327351
-0.50076288 -0.22256133 0.78187847
-0.48056889 -0.26698261 0.66968954
-0.43623456 -0.29082304 0.42338771
-0.39943293 -0.31067002 0.21893419
-0.36837551 -0.32744491 0.046392933
-0.35277981 -0.35277987 -0.04024975
-0.35137442 -0.390416 -0.048057765
-0.34998232 -0.42775619 -0.055791587
-0.34449232 0.64592314 0.15293929
-0.34298876 0.60023034 0.14354193
-0.35151246 0.57120776 0.19681507
-0.36207324 0.54310989 0.26282001
-0.37328824 0.51327139 0.33291394
-0.38522023 0.48152542 0.40748873
-0.39794019 0.44768274 0.4869886
-0.41153052 0.41153067 0.57192826
-0.42608741 0.37282652 0.66290855
-0.44171184 0.33128396 0.76056129
-0.45852366 0.28657731 0.86563522
-0.45712456 0.22856233 0.85689092
-0.45521748 0.17070645 0.84497148
-0.45332626 0.11333168 0.83315146
-0.45144868 0.056431055 0.8214165
-0.44958857 5.9604645e-08 0.80979085
-0.44774374 -0.055967987 0.79826069
-0.445912 -0.11147815 0.78681231
-0.44409716 -0.16653642 0.77546948
-0.4422951 -0.22114757 0.76420665
-0.4405095 -0.27531835 0.75304651
-0.4111563 -0.30836719 0.56958914
-0.37452516 -0.32770956 0.34064448
-0.34393764 -0.34393764 0.14947245
-0.31797007 -0.35771629 -0.012824744
-0.31039718 -0.38799655 -0.060155317
-0.30917314 -0.42511302 -0.067805707
-0.30068386 0.68727744 0.14760426
-0.2993727 0.64151299 0.13823882
-0.30320442 0.60640877 0.16560788
-0.31217948 0.57976204 0.22971581
-0.32170328 0.55149126 0.29774293
-0.33182648 0.52144158 0.37005144
-0.3426075 0.48943937 0.44705859
-0.3541154 0.45529118 0.52925777
-0.36642477 0.41877112 0.61718214
-0.37962237 0.37962246 0.71145064
-0.39380619 0.33754826 0.81276369
-0.39903778 0.285027 0.85013199
-0.39737695 0.22707254 0.838269
-0.39572993 0.16959852 0.82650447
-0.39409471 0.11259845 0.8148244
-0.39247468 0.056067854 0.80325282
-0.39086795 -5.9604645e-08 0.79177612
-0.38927257 -0.055610329 0.78038073
-0.38769189 -0.110769 0.76909006
-0.38612399 -0.16548166 0.75789082
-0.38456705 -0.21975267 0.74676967
-0.38302428 -0.27358878 0.73574984
-0.3814922 -0.32699317 0.72480631
-0.3467606 -0.34676066 0.47672373
-0.31690741 -0.36217991 0.26348659
-0.29181209 -0.37518698 0.084234253
-0.27039963 -0.38628513 -0.068711892
-0.26886681 -0.42250499 -0.079660565
-0.26781714 -0.45911515 -0.087158144
-0.25709286 0.72842991 0.14230293
-0.2559728 0.68259418 0.13296902
-0.25624865 0.64062166 0.13526779
-0.26372537 0.61535913 0.19757366
-0.27165154 0.58857834 0.26362491
-0.28006884 0.56013769 0.3337692
-0.2890234 0.52987611 0.40839052
-0.29857299 0.49762166 0.48797047
-0.30877772 0.46316645 0.57300985
-0.31970471 0.42627293 0.6640681
-0.33143198 0.38667059 0.76179552
-0.3412267 0.34122676 0.84341818
-0.33980832 0.28317362 0.8315981
-0.33840317 0.22560212 0.81988859
-0.33700958 0.16850483 0.8082754
-0.33562595 0.11187527 0.79674518
-0.33425513 0.055709213 0.78532171
-0.33289397 5.9604645e-08 0.77397883
-0.33154532 -0.055257589 0.7627399
-0.33020756 -0.11006919 0.75159192
-0.32887909 -0.16443938 0.74052149
-0.32756272 -0.21837518 0.72955167
-0.32625684 -0.27188069 0.7186693
-0.32495993 -0.32495978 0.70786154
-0.31557131 -0.36816657 0.62962317
-0.28685686 -0.38247573 0.39033616
-0.26296782 -0.39445165 0.19126074
-0.24275723 -0.40459532 0.022839293
-0.22905134 -0.41992748 -0.091376528
-0.22816256 -0.45632505 -0.09878321
-0.227282 -0.49244434 -0.10612099
-0.21278629 0.72347343 0.12772518
-0.21186838 0.67797881 0.1185461
-0.21664754 0.6499427 0.16633776
-0.22306348 0.62457782 0.23049721
-0.22987105 0.59766471 0.29857281
-0.23710722 0.56905723 0.37093437
-0.24481565 0.53859448 0.44801897
-0.25304317 0.50608623 0.53029388
-0.26184401 0.4713192 0.61830229
-0.2712791 0.43404657 0.71265304
-0.28141826 0.39398548 0.81404489
-0.2825096 0.33901143 0.82495838
-0.28134415 0.28134412 0.81330365
-0.28018823 0.22415066 0.80174476
-0.27904055 0.16742429 0.79026783
-0.27790347 0.11116132 0.77889681
-0.27677563 0.055355042 0.76761818
-0.27565566 2.9802322e-08 0.75641882
-0.27454594 -0.054909199 0.74532169
-0.27344394 -0.10937756 0.73430157
-0.27235189 -0.16341126 0.72338116
-0.27126858 -0.21701488 0.71254796
-0.27019265 -0.27019268 0.70178884
-0.26912639 -0.32295167 0.69112617
-0.26806852 -0.375296 0.68054754
-0.25325876 -0.40521404 0.53244996
-0.23100108 -0.41580188 0.30987298
-0.21236391 -0.42472786 0.12350135
-0.19650891 -0.43231958 -0.035048604
-0.18898757 -0.4535701 -0.11026211
-0.18826146 -0.48947984 -0.11752309
-0.18754205 -0.5251177 -0.12471732
-0.16981214 0.76415473 0.12251425
-0.16908085 0.7185936 0.11337298
-0.17088918 0.6835568 0.13597715
-0.17587702 0.65953887 0.19832508
-0.18116479 0.63407683 0.26442215
-0.18678036 0.60703611 0.3346166
-0.19275668 0.57826996 0.40932062
-0.19912964 0.54760659 0.48898289
-0.20593843 0.51484609 0.57409257
-0.21322843 0.47976398 0.66521758
-0.22105445 0.44210905 0.76304293
-0.22548001 0.39458993 0.81836241
-0.22455096 0.33682644 0.80674934
-0.22363053 0.27953812 0.79524398
-0.22271664 0.22271651 0.78382027
-0.22181116 0.16635832 0.77250177
-0.22091301 0.11045662 0.76127499
-0.22002114 0.055005282 0.7501266
-0.21913742 -2.9802322e-08 0.73907995
-0.21826075 -0.054565251 0.7281214
-0.21739012 -0.10869509 0.71723872
-0.21652736 -0.16239548 0.70645416
-0.21567048 -0.21567044 0.6957432
-0.21482128 -0.26852661 0.68512827
-0.21397874 -0.32096821 0.67459655
-0.21314187 -0.37299806 0.66413563
-0.21231243 -0.42462495 0.6537677
-0.1953872 -0.43962127 0.4422023
-0.17878684 -0.44696712 0.23469803
-0.16479501 -0.45318621 0.059799924
-0.15283422 -0.45850259 -0.089709893
-0.14970881 -0.48655367 -0.12877752
-0.14913924 -0.5219872 -0.13589717
-0.12704842 0.80463994 0.1173358
-0.12650175 0.75901049 0.10822481
-0.12639603 0.7162441 0.10646272
-0.13003278 0.69350821 0.16707534
-0.13388455 0.66942275 0.2312714
-0.13797195 0.6438691 0.29939488
-0.14231841 0.61671317 0.37183577
-0.14694762 0.58779049 0.4489893
-0.15188873 0.55692524 0.53134084
-0.15717366 0.52391213 0.61942327
-0.16283965 0.4885191 0.71385658
-0.16871534 0.44990766 0.81178451
-0.1680218 0.3920508 0.80022556
-0.16733468 0.33466932 0.78877342
-0.16665316 0.2777552 0.77741474
-0.16597642 0.22130197 0.76613605
-0.1653059 0.16530603 0.75496066
-0.16464005 0.10976005 0.74386317
-0.16398025 0.054659992 0.73286641
-0.16332573 -8.9406967e-08 0.72195762
-0.16267571 -0.054225266 0.71112394
-0.16203152 -0.10802105 0.70038772
-0.16139244 -0.1613926 0.68973625
-0.16075768 -0.21434346 0.6791569
-0.16012858 -0.26688087 0.66867185
-0.1595037 -0.31900749 0.65825737
-0.15888435 -0.37073007 0.64793473
-0.15826981 -0.4220528 0.63769221
-0.1554534 -0.46636012 0.59075218
-0.14149976 -0.47166589 0.35819158
-0.12986439 -0.47616947 0.16426896
-0.11999717 -0.4799886 -0.00018486381
-0.11161438 -0.48366219 -0.1398982
-0.11119224 -0.51889712 -0.1469336
-0.1107733 -0.55386651 -0.15391606
-0.084129579 0.79923087 0.10310167
-0.083770856 0.75393766 0.094133586
-0.085473277 0.72652292 0.13669431
-0.087968893 0.70375115 0.19908461
-0.090614632 0.67960978 0.26522815
-0.09342514 0.6539759 0.33549064
-0.096416309 0.626706 0.41027004
-0.099604957 0.59762973 0.48998618
-0.10301214 0.56656682 0.57516569
-0.10666068 0.53330338 0.66637915
-0.11057717 0.49759728 0.76429141
-0.11175479 0.44701922 0.79373199
-0.11129882 0.38954607 0.78233296
-0.11084656 0.33253968 0.77102643
-0.11039748 0.27599376 0.75979942
-0.10995251 0.21990494 0.74867487
-0.10951111 0.16426653 0.73763973
-0.10907276 0.10907263 0.72668111
-0.10863838 0.054319263 0.71582168
-0.10820698 -8.9406967e-08 0.70503652
-0.10777945 -0.053889841 0.69434834
-0.10735529 -0.10735524 0.68374443
-0.10693399 -0.16040105 0.67321205
-0.10651645 -0.21303283 0.66277343
-0.10610215 -0.26525542 0.65241599
-0.10569061 -0.31707186 0.64212757
-0.1052827 -0.3684895 0.63192976
-0.10487793 -0.41951162 0.6218105
-0.10447582 -0.47014126 0.61175781
-0.099860661 -0.49930337 0.49637896
-0.091201521 -0.50160837 0.27990019
-0.083931245 -0.50358748 0.098143309
-0.077734269 -0.50527269 -0.056780905
-0.073691905 -0.51584327 -0.15784019
-0.073415868 -0.55061901 -0.16474092
-0.073142119 -0.58513689 -0.17158471
-0.041962825 0.83925653 0.098003626
-0.041784327 0.79390216 0.089078516
-0.042145818 0.75862473 0.10715321
-0.043358877 0.73710072 0.16780591
-0.044643831 0.71430147 0.23205397
-0.046007611 0.69011414 0.30024269
-0.047457695 0.66440773 0.37274697
-0.049002159 0.63702804 0.44997019
-0.050650533 0.60780644 0.53238893
-0.052413449 0.57654798 0.62053472
-0.054303739 0.54303741 0.71504927
-0.05574837 0.50173533 0.78728092
-0.055521194 0.44416955 0.775922
-0.055296104 0.38707274 0.76466739
-0.055072591 0.3304356 0.7534917
-0.054851115 0.27425545 0.74241793
-0.054631416 0.21852568 0.73143291
-0.054413233 0.16323975 0.72052383
-0.054197021 0.108394 0.70971322
-0.053982519 0.053982437 0.69898808
-0.053769477 -2.9802322e-08 0.68833607
-0.053558338 -0.05355832 0.67777914
-0.053348627 -0.10669741 0.66729355
-0.053140778 -0.15942234 0.656901
-0.052934535 -0.21173808 0.64658904
-0.05272967 -0.26364839 0.63634586
-0.052526604 -0.31515965 0.62619257
-0.052325096 -0.36627573 0.61611718
-0.052124914 -0.41699934 0.60610795
-0.051926471 -0.4673382 0.59618574
-0.05172953 -0.51729548 0.58633894
-0.04817554 -0.52993083 0.40863898
-0.044135556 -0.52962661 0.20664006
-0.04072139 -0.52937806 0.035931841
-0.037797626 -0.52916676 -0.11025633
-0.036493964 -0.54740947 -0.17543952
-0.036358569 -0.58173716 -0.18220922
-0.036224283 -0.61581272 -0.18892364
0 0.83367431 0.084048033
0 0.78985101 0.078417659
0 0.76951516 0.13740441
0 0.74799132 0.19983709
0 0.72518039 0.26605099
0 0.70095611 0.33638275
0 0.67517757 0.41121078
0 0.6476959 0.491
0 0.6183331 0.57625026
0 0.58688951 0.66754198
0 0.55313325 0.76552898
0 0.49854219 0.76954043
0 0.441356 0.75833744
0 0.38463092 0.74722499
0 0.32835913 0.73618937
0 0.27253926 0.72525418
0 0.21716255 0.71439433
0 0.16222611 0.70363212
0 0.10772377 0.69295508
0 0.053649724 0.68235058
0 -8.9406967e-08 0.67184043
0 -0.053231031 0.66141248
0 -0.1060476 0.65105438
0 -0.15845555 0.64078778
0 -0.21045904 0.63060027
0 -0.26206183 0.62048018
0 -0.31327039 0.61044848
0 -0.36408681 0.60048258
0 -0.41451859 0.59060323
0 -0.46456841 0.58079845
0 -0.51423913 0.5710572
0 -0.56169337 0.55301356
0 -0.55850565 0.32696885
0 -0.55589873 0.13793398
0 -0.55368519 -0.022690684
0 -0.55178094 -0.16086775
0 -0.5783782 -0.19270568
0 -0.61226851 -0.19934805
0.041583456 0.87325251 0.079034954
0.041408297 0.82816595 0.070277125
0.042159773 0.80103564 0.10785097
0.043373648 0.7807256 0.16854459
0.044659808 0.75921679 0.23285276
0.046024915 0.73639864 0.30110812
0.047476105 0.71214169 0.37366754
0.049021792 0.68630493 0.45095173
0.050671306 0.65872705 0.53342754
0.052435908 0.62923086 0.62165779
0.054327849 0.59760624 0.71625471
0.055266518 0.55266523 0.76318818
0.055043485 0.49539143 0.75203651
0.054822247 0.43857801 0.74097443
0.054602537 0.38221771 0.72998911
0.054384824 0.32630903 0.71910334
0.054168835 0.27084422 0.70830387
0.053954322 0.21581733 0.69757837
0.053741734 0.16122517 0.6869489
0.053530585 0.10706124 0.67639148
0.053321317 0.053321421 0.66592813
0.053113673 -8.9406967e-08 0.65554595
0.052907422 -0.052907437 0.64523351
0.052702989 -0.10540611 0.63501179
0.052500129 -0.15750036 0.62486875
0.052298609 -0.20919435 0.61479253
0.05209884 -0.26049423 0.60480428
0.051900595 -0.31140363 0.5948922
0.051703639 -0.36192542 0.58504421
0.051508386 -0.41206717 0.57528162
0.0513146 -0.46183136 0.56559223
0.051122058 -0.51122057 0.55596519
0.050931163 -0.56024277 0.54642034
0.049229171 -0.59074998 0.46132085
0.045016661 -0.58521658 0.25069523
0.041470427 -0.58058596 0.073383793
0.038442116 -0.57663167 -0.078031987
0.03594102 -0.57505625 -0.20308678
0.035809793 -0.60876644 -0.20964815
0.035679415 -0.64222956 -0.21616687
0.082967892 0.91264677 0.074059397
0.082618974 0.86749917 0.065336555
0.083169378 0.83169383 0.079096705
0.085530415 0.81253886 0.13812259
0.088030346 0.79227304 0.20062077
0.090681136 0.77078962 0.26689062
0.093496181 0.74796945 0.33726674
0.096491978 0.72368979 0.41216183
0.099686101 0.6978026 0.49201468
0.10309894 0.67014313 0.57733572
0.10675329 0.64051962 0.6686945
0.1102806 0.60654324 0.75687718
0.10983608 0.54918045 0.7457642
0.10939561 0.49228016 0.73475254
0.10895818 0.43583268 0.72381687
0.10852471 0.37983656 0.71298015
0.10809468 0.32428408 0.70222926
0.10766757 0.26916897 0.69155157
0.10724429 0.21448866 0.68096954
0.10682432 0.16023648 0.67047024
0.10640718 0.10640717 0.66004163
0.10599373 0.052996844 0.64970529
0.10558348 8.9406967e-08 0.6394493
0.10517595 -0.052587986 0.6292609
0.10477199 -0.10477194 0.61916208
0.10437069 -0.15655604 0.60912967
0.10397289 -0.20794579 0.59918451
0.10357811 -0.25894523 0.58931494
0.10318588 -0.30955765 0.57950938
0.10279704 -0.35978952 0.56978816
0.10241111 -0.40964448 0.56014025
0.10202767 -0.45912448 0.55055392
0.10164749 -0.50823754 0.54104954
0.10126972 -0.55698353 0.53160548
0.10089517 -0.60537082 0.52224135
0.095046021 -0.61779922 0.37601295
0.087176323 -0.61023432 0.17927049
0.080510184 -0.60382634 0.012616992
0.07479088 -0.59832716 -0.13036554
0.071212068 -0.60530257 -0.21983609
0.070954472 -0.63859022 -0.22627598
0.070698537 -0.6716361 -0.23267436
0.12363344 0.90664518 0.060419619
0.12311692 0.86181855 0.05181101
0.1265208 0.84347194 0.10854226
0.13016619 0.82438576 0.16929868
0.13402835 0.80417001 0.233668
0.1381267 0.782718 0.301974
0.14248307 0.75990969 0.37458
0.14712375 0.73561877 0.45192471
0.15207689 0.70969218 0.53447711
0.15737517 0.68195909 0.62278175
0.16305526 0.65222085 0.71744967
0.16437949 0.60272473 0.73952049
0.16372178 0.54573923 0.72855878
0.16306931 0.48920792 0.71768403
0.16242132 0.43312353 0.70688444
0.16177917 0.37748471 0.69618165
0.16114137 0.32228267 0.68555152
0.16050927 0.26751551 0.6750167
0.1598821 0.21317619 0.66456395
0.15925914 0.15925904 0.65418118
0.1586417 0.10576108 0.6438905
0.158029 0.05267635 0.63367915
0.15742038 -2.9802322e-08 0.62353528
0.15681708 -0.05227235 0.61348027
0.15621838 -0.10414562 0.60350192
0.1556236 -0.15562357 0.59358889
0.15503396 -0.20671195 0.58376169
0.15444878 -0.25741461 0.57400864
0.15386736 -0.3077347 0.56431836
0.15329093 -0.35767889 0.55471122
0.15271819 -0.40724838 0.54516548
0.15215033 -0.45645094 0.5357011
0.15158667 -0.50528884 0.52630675
0.15102658 -0.5537641 0.51697177
0.1504712 -0.6018846 0.50771546
0.1499199 -0.64965278 0.49852699
0.13780148 -0.64307362 0.29655376
0.12674262 -0.63371313 0.11223933
0.11732652 -0.62574142 -0.044695824
0.10921309 -0.61887419 -0.17991965
0.1058317 -0.63499022 -0.23627608
0.1054524 -0.66786528 -0.24259776
0.10507552 -0.70050347 -0.24887909
0.16445255 0.94560218 0.055519342
0.16376767 0.90072215 0.046958089
0.1663931 0.87356389 0.079776198
0.17112006 0.85560036 0.13886303
0.17612343 0.83658624 0.20140508
0.18142885 0.81642973 0.26772285
0.18706383 0.7950213 0.33816022
0.19306007 0.77224028 0.41311327
0.19945267 0.74794745 0.49302047
0.20628394 0.72199386 0.5784117
0.21359976 0.6941992 0.66985923
0.21867542 0.65602624 0.73330516
0.21780245 0.59895676 0.72239292
0.21693641 0.54234111 0.71156734
0.2160763 0.4861716 0.70081598
0.21522391 0.43044794 0.69016117
0.21437821 0.37516177 0.67958981
0.21353823 0.32030725 0.66909003
0.21270572 0.26588219 0.6586836
0.21187964 0.21187973 0.64835775
0.21105909 0.15829435 0.63810098
0.21024574 0.10512277 0.62793398
0.20943777 0.052359432 0.61783445
0.20863685 2.9802322e-08 0.60782301
0.20784204 -0.051960498 0.59788775
0.20705241 -0.10352628 0.58801723
0.20626959 -0.15470217 0.57823217
0.20549268 -0.20549279 0.56852067
0.20472075 -0.25590092 0.55887175
0.20395544 -0.30593315 0.54930532
0.20319501 -0.35559121 0.53979987
0.20244104 -0.40488207 0.53037518
0.20169264 -0.45380837 0.52102029
0.20094895 -0.50237238 0.51172417
0.20021152 -0.55058175 0.50250649
0.19947951 -0.59843868 0.49335605
0.19875202 -0.64594412 0.48426259
0.19418974 -0.67966413 0.4272339
0.17778997 -0.6667124 0.22223687
0.16394715 -0.6557886 0.049201638
0.15210469 -0.64644492 -0.098829001
0.14185743 -0.63835835 -0.22691986
0.1398178 -0.66413456 -0.25241518
0.13932125 -0.69660622 -0.25862196
0.20507866 0.9843775 0.050648898
0.20422658 0.93944234 0.042128265
0.20519152 0.90284264 0.051777542
0.21094 0.88594794 0.10926229
0.2170206 0.8680824 0.17006829
0.22346218 0.84915626 0.23448405
0.23029698 0.82906902 0.30283207
0.23756398 0.80771756 0.37550229
0.24530455 0.78497452 0.4529078
0.25356653 0.76069963 0.53552771
0.26240337 0.73472935 0.62389594
0.27187952 0.70688677 0.71865755
0.27163926 0.65193409 0.71625483
0.27056158 0.59523559 0.70547819
0.26949126 0.53898257 0.69477487
0.26843053 0.48317504 0.6841675
0.26737809 0.42780492 0.67364311
0.26633275 0.37286586 0.66318983
0.26529667 0.31835598 0.65282911
0.26426864 0.26426867 0.6425488
0.26324743 0.21059795 0.63233662
0.26223519 0.15734094 0.62221408
0.26123071 0.10449219 0.61216903
0.26023278 0.052046657 0.60219026
0.25924355 -1.1920929e-07 0.59229767
0.2582618 -0.051652372 0.58248025
0.2572864 -0.1029146 0.57272637
0.2563194 -0.15379158 0.56305617
0.25535858 -0.20428686 0.55344808
0.25440601 -0.25440598 0.54392219
0.1822039 -0.21864481 -0.17809863
0.18152891 -0.2541405 -0.1848487
0.18085888 -0.28937426 -0.19154888
0.1801938 -0.3243489 -0.19819978
0.17953359 -0.35906714 -0.20480192
0.17887817 -0.39353207 -0.21135588
0.17822756 -0.42774612 -0.21786223
0.17758113 -0.46171087 -0.22432646
0.17693989 -0.4954316 -0.23073889
0.17630325 -0.52890968 -0.23710515
0.17567119 -0.56214786 -0.24342582
0.17504364 -0.59514832 -0.24970135
0.17442055 -0.62791407 -0.25593212
0.1738019 -0.66044718 -0.26211876
0.17318761 -0.69275039 -0.26826167
0.17257811 -0.724828 -0.2743566
0.24449423 0.97797704 0.037314326
0.24348497 0.93335897 0.028903604
0.24248089 0.88909662 0.020536393
0.24148506 0.84519768 0.012237698
0.24049735 0.80165792 0.004006952
0.23951772 0.75847268 -0.0041568577
0.23854601 0.71563804 -0.012254298
0.23758218 0.67314947 -0.020286292
0.23662609 0.6310029 -0.028253704
0.23567766 0.58919418 -0.036157161
0.23473682 0.54771918 -0.04399763
0.23380272 0.50657248 -0.051781759
0.23287675 0.46575353 -0.059498087
0.23195809 0.42525649 -0.067153737
0.23104665 0.38507777 -0.074748948
0.23014234 0.34521347 -0.082284853
0.22924507 0.3056601 -0.089762099
0.22835478 0.26641393 -0.097181208
0.22747138 0.22747134 -0.10454278
0.22659479 0.18882903 -0.11184776
0.22572494 0.15048331 -0.11909658
0.22486173 0.1124308 -0.1262901
0.2240051 0.074668363 -0.1334286
0.22315496 0.037192538 -0.14051306
0.22231126 5.2154064e-08 -0.14754392
0.22147392 -0.036912255 -0.15452179
0.22064286 -0.073547632 -0.16144732
0.21981737 -0.10990869 -0.16832644
0.21899867 -0.14599898 -0.17514884
0.21818605 -0.18182167 -0.18192062
0.21737944 -0.21737944 -0.18864246
0.21657877 -0.25267518 -0.19531482
0.21578395 -0.28771195 -0.20193812
0.21499497 -0.32249245 -0.20851295
0.21421173 -0.35701954 -0.21503991
0.21343419 -0.39129588 -0.22151947
0.21266226 -0.42532453 -0.22795212
0.2118959 -0.45910782 -0.23433851
0.21113504 -0.49264836 -0.24067903
0.21037963 -0.525949 -0.24697414
0.20962961 -0.55901229 -0.25322437
0.20888491 -0.59184062 -0.25943008
0.20814547 -0.6244365 -0.26559204
0.20741069 -0.65680063 -0.27171519
0.20668167 -0.68893886 -0.27779061
0.20595773 -0.72085202 -0.28382334
0.2052394 -0.7525444 -0.28980944
0.28457344 1.0163336 0.032529652
0.28339967 0.97165591 0.024145484
0.28223369 0.92733932 0.015817255
0.2810773 0.88338578 0.0075571835
0.27993032 0.83979082 -0.00063547492
0.27879268 0.79655045 -0.0087614357
0.27766427 0.75366008 -0.016821653
0.27654493 0.71111548 -0.02481693
0.27543458 0.66891253 -0.032747895
0.27433312 0.62704706 -0.040615588
0.27324042 0.58551514 -0.048420459
0.27215642 0.54431283 -0.05616346
0.27108094 0.50343603 -0.063845232
0.27001396 0.46288103 -0.071466565
0.26895532 0.42264405 -0.079028234
0.267905 0.38272136 -0.086530745
0.26686281 0.34310931 -0.093974881
0.2658287 0.30380422 -0.10136139
0.26480258 0.26480255 -0.10869071
0.26378435 0.22610092 -0.11596389
0.26277393 0.18769556 -0.1231811
0.2617712 0.14958353 -0.13034341
0.2607761 0.1117612 -0.13745117
0.25978857 0.074225225 -0.14450513
0.25880843 0.036972716 -0.15150593
0.25783572 -1.4901161e-08 -0.15845403
0.25687027 -0.036695711 -0.16535017
0.25591201 -0.073117711 -0.17219481
0.25496089 -0.10926903 -0.1789885
0.25401679 -0.14515246 -0.18573196
0.25307968 -0.18077123 -0.19242558
0.25214943 -0.2161281 -0.19907026
0.25122604 -0.25122607 -0.20566593
0.25030938 -0.2860679 -0.2122137
0.24939935 -0.3206563 -0.21871367
0.24849595 -0.35499418 -0.22516677
0.24759905 -0.38908422 -0.2315731
0.24731793 -0.42397362 -0.23358113
0.24731722 -0.45930344 -0.23358604
0.24731722 -0.49463445 -0.23358597
0.24731652 -0.52996409 -0.23359105
0.24731652 -0.56529486 -0.23359105
0.24731585 -0.6006242 -0.233596
0.24731585 -0.63595498 -0.233596
0.24731515 -0.67128396 -0.23360094
0.24731515 -0.70661473 -0.23360091
0.24731445 -0.74194336 -0.23360589
0.24731445 -0.77727395 -0.23360592
0.32473657 1.0553937 0.029465675
0.32473657 1.0148016 0.029465586
0.32473549 0.97420657 0.029459208
0.32473549 0.93361461 0.029459238
0.32473445 0.8930198 0.029452652
0.32473445 0.8524279 0.029452682
0.32473344 0.8118335 0.029446036
0.32473344 0.77124184 0.029446125
0.32473344 0.73065031 0.029446214
0.32473236 0.6900562 0.029439569
0.32473236 0.64946473 0.029439539
0.32473132 0.60887122 0.029433072
0.32473132 0.56827974 0.029433042
0.32473028 0.52768672 0.029426545
0.32473028 0.48709542 0.029426485
0.32472923 0.44650269 0.029420018
0.32472923 0.40591151 0.029420003
0.32472819 0.36531907 0.029413417
0.32472819 0.32472813 0.029413432
0.32472712 0.28413627 0.029406965
0.32472712 0.24354538 0.029406898
0.3247261 0.20295379 0.029400356
0.3247261 0.16236305 0.029400311
0.32472506 0.12177196 0.029393811
0.32472506 0.081181236 0.029393766
0.32472399 0.040590484 0.02938729
0.32472399 9.5926225e-08 0.029387265
0.32472295 -0.040590324 0.029380817
0.32472295 -0.081180707 0.029380795
0.32472193 -0.12177078 0.029374197
0.32472193 -0.16236091 0.029374115
0.32472086 -0.20295048 0.029367723
0.32472086 -0.2435407 0.029367715
0.32471982 -0.28412977 0.029361203
0.32471982 -0.32471973 0.029361129
0.32471877 -0.36530864 0.029354617
0.32471877 -0.40589851 0.029354632
0.32471773 -0.44648695 0.029348075
0.32471773 -0.48707658 0.029348031
0.32471669 -0.52766466 0.029341578
0.32471669 -0.56825411 0.029341519
0.32471561 -0.60884184 0.029334933
0.32471561 -0.64943123 0.029334903
0.3247146 -0.69001848 0.029328495
0.3247146 -0.73060793 0.029328495
0.3247146 -0.77119714 0.029328525
0.32471356 -0.81178391 0.029321939
0.42917329 0.95371848 0.38415843
0.42917493 0.9060359 0.38416746
0.42917818 0.85835636 0.38418546
0.42917982 0.81067282 0.38419437
0.42918307 0.76299202 0.38421255
0.42918468 0.71530783 0.38422167
0.42918631 0.6676231 0.38423061
0.42918956 0.61994034 0.38424861
0.42919117 0.57225484 0.38425761
0.42919442 0.52457094 0.38427567
0.42919606 0.47688448 0.38428482
0.42919928 0.42919925 0.38430274
0.42920092 0.38151199 0.38431197
0.42920092 0.33382294 0.38431177
0.42920092 0.28613392 0.38431168
0.42920092 0.23844495 0.38431188
0.42919928 0.19075531 0.38430274
0.42919928 0.14306642 0.38430268
0.42919767 0.095377281 0.38429374
0.42919767 0.047688663 0.38429376
0.42919606 2.9802322e-08 0.38428468
0.42919606 -0.047688425 0.38428473
0.42919442 -0.095376477 0.38427562
0.42919442 -0.14306477 0.38427567
0.42919281 -0.19075239 0.3842667
0.42919281 -0.23844039 0.38426667
0.42919117 -0.28612742 0.38425767
0.42919117 -0.33381531 0.38425767
0.42918956 -0.38150191 0.38424858
0.42918956 -0.42918962 0.38424858
0.42918792 -0.47687536 0.38423958
0.42918792 -0.52456313 0.38423967
0.42918631 -0.5722484 0.38423052
0.42918631 -0.61993569 0.38423067
0.42918468 -0.66762072 0.38422167
0.42918468 -0.71530795 0.38422155
0.42918307 -0.76299208 0.38421255
0.42918307 -0.81067914 0.38421261
0.42918143 -0.85836273 0.38420355
0.42918143 -0.90604961 0.3842034
0.57783484 0.86675221 0.88903654
0.57784015 0.80897611 0.889063
0.57784277 0.75119555 0.88907623
0.57784814 0.69341767 0.88910264
0.57785076 0.63563591 0.88911605
0.57785606 0.57785606 0.88914251
0.57785869 0.52007276 0.88915563
0.57786399 0.46229124 0.88918233
0.57786661 0.40450662 0.88919556
0.5778693 0.34672153 0.88920867
0.5778746 0.28893724 0.8892352
0.57787728 0.23115093 0.88924843
0.57788253 0.17336479 0.88927495
0.57788521 0.11557701 0.88928819
0.57789046 0.057789117 0.88931477
0.57789314 5.9604645e-08 0.889328
0.57789844 -0.057789922 0.88935447
0.57790112 -0.1155802 0.8893677
0.57790375 -0.17337129 0.88938087
0.57790905 -0.23116362 0.8894074
0.57791167 -0.28895566 0.88942075
0.57791698 -0.34675017 0.88944721
0.57791966 -0.40454373 0.88946068
0.57792497 -0.46234006 0.88948691
0.57792759 -0.52013493 0.88950026
0.57793289 -0.57793283 0.88952678
0.57793552 -0.63572907 0.88954002
0.57793552 -0.69352257 0.88954008
0.57793289 -0.75131273 0.88952672
0.57793289 -0.80910623 0.88952678
0.57793027 -0.86689538 0.88951349
0.57793027 -0.92468822 0.88951343
0.57792759 -0.98247677 0.88950014
