# .PCD v0.7 - Point Cloud Data file format
VERSION 0.7
FIELDS x y z
SIZE 4 4 4
TYPE F F F
COUNT 1 1 1
WIDTH 1019
HEIGHT 1
VIEWPOINT 0 0 0 1 0 0 0
POINTS 1019
DATA ascii
-1.0827719 0.28071859 0.0049954653
-1.1114254 0.24698338 0.058057316
-1.0426693 0.28071859 0.0049954653
-1.0343258 0.23869064 -0.011049487
-1.0107195 0.32343024 0.02130121
-1.0025665 0.28071859 0.0049954653
-0.99454415 0.23869064 -0.011049487
-1.0021297 0.20042592 0.0041216016
-0.97029072 0.32343024 0.02130121
-0.96246392 0.28071859 0.0049954653
-0.95476234 0.23869064 -0.011049487
-0.94718313 0.19732982 -0.026839659
-1.0046258 0.1674376 0.092832752
-0.9298619 0.32343024 0.02130121
-0.92635828 0.28193521 0.013684645
-0.91498059 0.23869064 -0.011049487
-0.90771711 0.19732982 -0.026839659
-0.90056807 0.15662059 -0.042381033
-1.0073532 0.13139392 0.18976046
-0.89672822 0.36684328 0.037880972
-0.88943315 0.32343024 0.02130121
-0.90004963 0.28637934 0.045429632
-0.92360657 0.25189272 0.098968215
-0.8682512 0.19732982 -0.026839659
-0.86141294 0.15662059 -0.042381033
-0.89637744 0.12223331 0.037083779
-1.0103455 0.09184958 0.29610172
-0.85596788 0.36684328 0.037880972
-0.85084677 0.32413214 0.025687844
-0.87289828 0.29096612 0.078191526
-0.89612019 0.25603437 0.13348177
-0.82878518 0.19732982 -0.026839659
-0.82225782 0.15662059 -0.042381033
-0.81583244 0.11654752 -0.057679631
-0.89415532 0.085157573 0.12880349
-1.013643 0.048268706 0.41329807
-0.82194644 0.41097319 0.054728314
-0.81520754 0.36684328 0.037880972
-0.82318121 0.32927248 0.057815418
-0.844863 0.29570204 0.11201973
-0.86771488 0.26031446 0.16914932
-0.89183724 0.22295931 0.22945534
-0.78310269 0.15662059 -0.042381033
-0.77698326 0.11654752 -0.057679631
-0.79374617 0.079374559 -0.015772304
-0.89172369 0.044586129 0.22917137
-1.0172954 -0 0.54310071
-0.7808491 0.41097319 0.054728314
-0.77444464 0.36684215 0.037874386
-0.79462409 0.33457857 0.090978354
-0.81589997 0.30059469 0.1469675
-0.83834362 0.26474017 0.2060297
-0.86205697 0.22685719 0.26843318
-0.8871541 0.18676934 0.33447841
-0.73813409 0.11654752 -0.057679631
-0.73241079 0.077095948 -0.072740778
-0.78708869 0.041425638 0.071148187
-0.88905132 7.4505806e-08 0.33947116
-1.0213629 -0.053755939 0.6876595
-0.74592036 0.4558402 0.071863294
-0.73975176 0.41097319 0.054728314
-0.74537873 0.37268946 0.070358723
-0.76513153 0.34005851 0.12522757
-0.78596246 0.30565205 0.18309122
-0.80795652 0.26931885 0.24418586
-0.83121693 0.23089354 0.30879804
-0.85585958 0.19019109 0.37724993
-0.69928497 0.11654752 -0.057679631
-0.69386292 0.077095948 -0.072740778
-0.6963079 0.038683698 -0.065949239
-0.7798239 2.9802322e-08 0.16603976
-0.88610435 -0.049227953 0.46126324
-1.0259254 -0.11399177 0.84965491
-0.70448035 0.4558402 0.071863294
-0.69865221 0.41097182 0.054721624
-0.71538317 0.37873232 0.10393047
-0.73465675 0.34572083 0.16061744
-0.75500029 0.31088245 0.22045127
-0.77649969 0.27405879 0.28368494
-0.79925948 0.23507634 0.35062551
-0.82339692 0.19374049 0.42161787
-0.84903431 0.14982957 0.49702197
-0.65531492 0.077095948 -0.072740778
-0.65027291 0.038251355 -0.087570339
-0.68567032 1.5832484e-08 0.01653976
-0.77185875 -0.045403376 0.27003503
-0.88283002 -0.10386238 0.59642112
-1.0310682 -0.1819531 1.0324157
-0.66861349 0.50146013 0.089279577
-0.66304034 0.4558402 0.071863294
-0.66662198 0.41663873 0.083056003
-0.68439895 0.38497436 0.13860883
-0.70314997 0.35157502 0.1972059
-0.72296 0.31629497 0.25911215
-0.74391586 0.27896839 0.32459942
-0.76612288 0.23941337 0.3939963
-0.78969651 0.19742414 0.46766391
-0.81477022 0.15276937 0.5460192
-0.61676705 0.077095948 -0.072740778
-0.61202157 0.038251355 -0.087570339
-0.60734856 -9.6857548e-08 -0.1021734
-0.67408508 -0.042130388 0.10637821
-0.76309025 -0.095386297 0.38451934
-0.87917519 -0.16484538 0.74728489
-1.0369158 -0.25922877 1.240224
-0.62682521 0.50146013 0.089279577
-0.6215983 0.45583868 0.071856424
-0.63515455 0.42343628 0.11704406
-0.65237617 0.39142573 0.17444965
-0.67055768 0.35763079 0.23505466
-0.68978429 0.32189927 0.29914314
-0.71014327 0.28405735 0.36700648
-0.73174053 0.24391364 0.43899754
-0.75469273 0.20125146 0.51550472
-0.77913457 0.15582687 0.59697759
-0.80520582 0.10736072 0.68388146
-0.57377023 0.038251355 -0.087570339
-0.56938934 -9.6857548e-08 -0.1021734
-0.58946055 -0.039297421 -0.035269294
-0.66141951 -0.088189162 0.20459399
-0.75339037 -0.15067813 0.51116365
-0.87506944 -0.23335174 0.91676068
-0.58999604 0.54785341 0.10699098
-0.58503681 0.50146013 0.089279577
-0.58689135 0.46112883 0.095902875
-0.60264122 0.43045795 0.15215239
-0.61926186 0.39809701 0.21151194
-0.63682306 0.36389902 0.2742303
-0.65540922 0.32770461 0.34060967
-0.67511559 0.28933525 0.41098925
-0.69604093 0.24858601 0.48572284
-0.71830493 0.20523009 0.56523728
-0.74204034 0.15900861 0.65000629
-0.75526673 0.1078954 0.69724357
-0.53552049 0.03825143 -0.087564588
-0.53143001 -9.6857548e-08 -0.1021734
-0.52740312 -0.037671622 -0.11655526
-0.57401478 -0.08200217 0.049915001
-0.64751518 -0.13875325 0.31241629
-0.74260253 -0.21217205 0.65201396
-0.87042397 -0.31086567 1.1085191
-0.54785347 0.54785341 0.10699098
-0.54324669 0.50145853 0.089272633
-0.55391771 0.46869966 0.13031505
-0.56903338 0.43771791 0.18845229
-0.58499926 0.40499938 0.24985938
-0.60188472 0.37039062 0.31480351
-0.61977392 0.33372435 0.38360804
-0.63876164 0.29481304 0.45663765
-0.65894687 0.25344115 0.53427333
-0.68044943 0.20936908 0.61697561
-0.70339668 0.16232231 0.70523417
-0.7013191 0.1078954 0.69724357
-0.69592124 0.053532451 0.67648256
-0.49347073 -9.6857548e-08 -0.1021734
-0.48973149 -0.037671622 -0.11655526
-0.49807024 -0.076626182 -0.084483005
-0.55716908 -0.12857747 0.1428201
-0.63218081 -0.19451717 0.43132699
-0.73053253 -0.28097412 0.80960286
-0.86515206 -0.39930114 1.3273699
-0.5057109 0.54785341 0.10699098
-0.50617296 0.5061729 0.1089164
-0.51984328 0.47652298 0.16587587
-0.53427249 0.44522715 0.2259976
-0.54952753 0.41214573 0.28956044
-0.56567723 0.37711811 0.35685062
-0.58280492 0.33996952 0.42821607
-0.60100454 0.3005023 0.50404805
-0.62037498 0.25848964 0.58475804
-0.64103013 0.21367666 0.67082119
-0.65242922 0.16310734 0.71831727
-0.64737147 0.1078954 0.69724357
-0.64239156 0.053532571 0.67649376
-0.45551282 -1.8626451e-08 -0.10216765
-0.45205984 -0.037671622 -0.11655526
-0.44866011 -0.074776731 -0.13072062
-0.47916898 -0.11979228 -0.0036003627
-0.53872401 -0.17957467 0.24454555
-0.61518407 -0.25632671 0.56312925
-0.71694106 -0.35847044 0.98711675
-0.46753308 0.59504199 0.12501252
-0.46356678 0.54785156 0.10698387
-0.47165766 0.51453567 0.14376065
-0.48461205 0.48461211 0.20264423
-0.49829808 0.45299819 0.26485348
-0.5127815 0.41954845 0.3306874
-0.52813011 0.38409454 0.40045366
-0.54442585 0.3464528 0.47452542
-0.56176156 0.30641535 0.55332392
-0.5802303 0.26374108 0.63727283
-0.59995729 0.21816625 0.72694081
-0.59806013 0.16310734 0.71831727
-0.5934239 0.1078954 0.69724357
-0.58885896 0.053532571 0.67649376
-0.58436126 -5.9604645e-08 0.65604985
-0.4143894 -0.037671711 -0.11654952
-0.41127178 -0.074776731 -0.13072062
-0.41114613 -0.11213073 -0.13129161
-0.4586013 -0.16676414 0.084413588
-0.51844049 -0.2356548 0.35641003
-0.59623897 -0.32522127 0.7100395
-0.70153409 -0.44643083 1.1886536
-0.42503005 0.59504199 0.12501252
-0.42444462 0.55177796 0.12208527
-0.43598267 0.52317929 0.17977567
-0.44816399 0.49298042 0.24068224
-0.46104556 0.4610455 0.30509013
-0.47469133 0.42722231 0.37331897
-0.4891676 0.39133406 0.44570017
-0.50455463 0.35318831 0.52263528
-0.52093887 0.3125633 0.60455662
-0.53842294 0.26921153 0.69197714
-0.54797453 0.21918987 0.73973501
-0.54369336 0.16310799 0.71832895
-0.53947622 0.1078954 0.69724357
-0.5353263 0.053532571 0.67649376
-0.53123975 2.9802322e-08 0.65606105
-0.52721286 -0.052721232 0.63592672
-0.37388343 -0.074776731 -0.13072062
-0.37109265 -0.11132773 -0.1446746
-0.38914901 -0.15565962 -0.054392755
-0.43613654 -0.21806835 0.18054506
-0.49602932 -0.29761758 0.48000896
-0.57499552 -0.40249687 0.87483996
-0.38582557 0.64304256 0.14333767
-0.38252577 0.59504008 0.12500535
-0.38835135 0.56095183 0.15736961
-0.39908862 0.5321182 0.21702141
-0.41043505 0.50164282 0.28005695
-0.42244554 0.46938401 0.34678197
-0.4351818 0.4351818 0.41753903
-0.44870815 0.39885175 0.49268523
-0.4631004 0.36018923 0.57264245
-0.47844651 0.31896436 0.65789837
-0.49484241 0.27491248 0.7489869
-0.49317712 0.21918987 0.73973501
-0.48932403 0.16310799 0.71832895
-0.48553067 0.10789573 0.69725496
-0.4817937 0.053532571 0.67649376
-0.4781158 2.9802322e-08 0.65606105
-0.47449163 -0.052721232 0.63592672
-0.33649608 -0.074776895 -0.13071497
-0.33398336 -0.11132773 -0.1446746
-0.33150887 -0.1473373 -0.15842171
-0.36526391 -0.20292448 0.029106267
-0.41149971 -0.27433318 0.28597179
-0.47113711 -0.36643988 0.61729079
-0.55101192 -0.4897885 1.0610398
-0.34295607 0.64304256 0.14333767
-0.34169033 0.59795809 0.13542698
-0.35103759 0.57043612 0.19384722
-0.36091194 0.54136789 0.25556189
-0.37135649 0.51061517 0.32084039
-0.38242361 0.47802961 0.39000982
-0.39417213 0.44344354 0.46343806
-0.40666211 0.40666205 0.54150045
-0.41996956 0.36747348 0.62467206
-0.43417549 0.32563162 0.71345913
-0.44186088 0.27616295 0.76149273
-0.43837965 0.21918987 0.73973501
-0.4349547 0.16310799 0.71832895
-0.43158284 0.10789573 0.69725496
-0.42826104 0.053532571 0.67649376
-0.42499182 2.9802322e-08 0.65606105
-0.42177209 -0.05272153 0.63593769
-0.41859904 -0.10464972 0.61610633
-0.29687497 -0.11132804 -0.14466913
-0.29467458 -0.1473373 -0.15842171
-0.30359563 -0.18974726 -0.10266482
-0.33923692 -0.25442773 0.12009303
-0.38435969 -0.33631465 0.40211019
-0.44333363 -0.44333369 0.77069741
-0.5237093 -0.58917284 1.2730457
-0.30269775 0.69188046 0.16198906
-0.30008554 0.64304042 0.1433304
-0.30398169 0.60796356 0.17116018
-0.31244043 0.58024645 0.2315796
-0.32138452 0.55094504 0.29546607
-0.33085456 0.51991433 0.36310908
-0.34089965 0.48699945 0.43485984
-0.35157377 0.45202333 0.51110351
-0.3629365 0.41478464 0.59226573
-0.3750582 0.37505823 0.67884934
-0.38801587 0.33258507 0.77140421
-0.38662827 0.27616295 0.76149273
-0.38358384 0.21919067 0.73974693
-0.38058534 0.16310799 0.71832895
-0.37763497 0.10789573 0.69725496
-0.37472841 0.053532571 0.67649376
-0.37186781 2.9802322e-08 0.65606105
-0.36905056 -0.05272153 0.63593769
-0.36627415 -0.10464972 0.61610633
-0.2597656 -0.11132804 -0.14466913
-0.25784025 -0.1473373 -0.15842171
-0.25594395 -0.18281709 -0.17196667
-0.27675137 -0.23721552 -0.023342058
-0.31076637 -0.3107664 0.21962212
-0.35431451 -0.40493083 0.53068006
-0.41207579 -0.52981174 0.94326073
-0.2594552 0.69188046 0.16198906
-0.257889 0.64472246 0.14893723
-0.26498967 0.61830926 0.20810945
-0.27249241 0.59040028 0.27063233
-0.28043342 0.56086683 0.33680737
-0.28885007 0.52955836 0.40694597
-0.29778755 0.49631244 0.48142502
-0.30729452 0.46094167 0.56064999
-0.31742856 0.42323795 0.64510012
-0.32825238 0.38296103 0.73529863
-0.33404693 0.3340469 0.78358656
-0.33139566 0.27616295 0.76149273
-0.32878616 0.21919067 0.73974693
-0.32621604 0.16310799 0.71832895
-0.32368714 0.10789573 0.69725496
-0.32119715 0.053532898 0.67650515
-0.31874385 2.9802322e-08 0.65606105
-0.31632906 -0.05272153 0.63593769
-0.3139506 -0.1046502 0.61611712
-0.31160635 -0.1558032 0.59658158
-0.22100656 -0.1473377 -0.15841632
-0.21938051 -0.18281709 -0.17196667
-0.22218519 -0.22218516 -0.14859444
-0.24756479 -0.2888256 0.062902264
-0.27949122 -0.37265497 0.32895583
-0.32087824 -0.4813174 0.67384738
-0.37666413 -0.62777364 1.13873
-0.21810979 0.74157333 0.18096027
-0.2162112 0.69187582 0.16197419
-0.21852657 0.65557969 0.18512796
-0.2246476 0.6290133 0.24633817
-0.23112139 0.60091567 0.31107631
-0.23798028 0.57115269 0.37966508
-0.24525777 0.53956711 0.45244014
-0.25299338 0.50598681 0.52979618
-0.26123285 0.47021905 0.61219078
-0.27002591 0.43204138 0.7001214
-0.2794328 0.39120591 0.79419047
-0.27837369 0.33404839 0.78359884
-0.27616304 0.27616295 0.76149273
-0.27398846 0.21919067 0.73974693
-0.27184784 0.1631088 0.71834087
-0.2697393 0.10789573 0.69725496
-0.26766428 0.053532898 0.67650515
-0.26561987 2.9802322e-08 0.65606105
-0.26360756 -0.05272153 0.63593769
-0.26162547 -0.1046502 0.61611712
-0.25967193 -0.1558032 0.59658158
-0.18417214 -0.1473377 -0.15841632
-0.18281764 -0.18281756 -0.17196137
-0.18148237 -0.21777886 -0.18531398
-0.19269961 -0.26977947 -0.073141649
-0.21571602 -0.34514558 0.15702257
-0.24497651 -0.44095773 0.44962728
-0.28343341 -0.56686687 0.83419651
-0.17448784 0.74157333 0.18096027
-0.17302002 0.69208002 0.16261235
-0.17781568 0.66680878 0.22255826
-0.18288413 0.6400944 0.28591368
-0.18824996 0.61181247 0.35298681
-0.19394097 0.58182275 0.42412412
-0.19998518 0.5499593 0.499677
-0.20641825 0.51604557 0.58009028
-0.21327804 0.47987548 0.66583776
-0.22061041 0.44122067 0.75749248
-0.22449496 0.39286625 0.80604941
-0.22269893 0.33404839 0.78359884
-0.22093044 0.27616295 0.76149273
-0.21919078 0.21919067 0.73974693
-0.21747829 0.1631088 0.71834087
-0.21579142 0.10789573 0.69725496
-0.21413143 0.053532898 0.67650515
-0.2124968 1.4901161e-07 0.65607232
-0.21088605 -0.05272153 0.63593769
-0.20930038 -0.1046502 0.61611712
-0.20773841 -0.15580384 0.59659231
-0.20619872 -0.20619871 0.57734632
-0.14625411 -0.18281756 -0.17196137
-0.1451859 -0.21777886 -0.18531398
-0.14462236 -0.25308916 -0.19235831
-0.16070877 -0.32141751 0.0087221265
-0.18082169 -0.40684876 0.26013321
-0.20669331 -0.51673323 0.58352858
-0.2412113 -0.66333115 1.0150034
-0.1320243 0.79214585 0.20026734
-0.13086542 0.74157071 0.18095276
-0.1319644 0.7038101 0.19926894
-0.13568586 0.67842937 0.26129326
-0.13962278 0.65157294 0.32690871
-0.143795 0.62311161 0.39644557
-0.14822425 0.59289682 0.47026634
-0.1529344 0.56075954 0.54876894
-0.15795308 0.52651036 0.63241374
-0.16331302 0.48993915 0.72174609
-0.16904877 0.45079672 0.81734151
-0.16837123 0.39286625 0.80604941
-0.16702421 0.33404839 0.78359884
-0.16569856 0.27616429 0.76150483
-0.16439308 0.21919067 0.73974693
-0.16310871 0.1631088 0.71834087
-0.16184425 0.10789615 0.69726658
-0.16059858 0.053532898 0.67650515
-0.1593726 1.4901161e-07 0.65607232
-0.15816453 -0.05272153 0.63593769
-0.1569753 -0.1046502 0.61611712
-0.1558038 -0.15580384 0.59659231
-0.15464903 -0.20619871 0.57734632
-0.1535119 -0.25585315 0.55839372
-0.10888974 -0.21777952 -0.18530871
-0.10810051 -0.25223455 -0.19846252
-0.11277831 -0.30074215 -0.1204994
-0.12587926 -0.3776378 0.09784995
-0.14242403 -0.47474676 0.37359601
-0.16398381 -0.60127383 0.73292577
-0.088016197 0.79214585 0.20026734
-0.087243013 0.74156564 0.18093762
-0.089493088 0.71594471 0.23718947
-0.092061602 0.69046199 0.30140209
-0.09478154 0.66347086 0.36940083
-0.097667098 0.63483626 0.44153982
-0.10073347 0.60440099 0.51819921
-0.1039982 0.57199001 0.5998171
-0.10748209 0.53741044 0.68691456
-0.11120699 0.50043148 0.78003711
-0.11316061 0.45264238 0.82887751
-0.11224798 0.39286789 0.80606192
-0.11134946 0.33404839 0.78359884
-0.11046571 0.27616429 0.76150483
-0.10959539 0.21919067 0.73974693
-0.10873915 0.1631088 0.71834087
-0.10789617 0.10789615 0.69726658
-0.10706571 0.053532898 0.67650515
-0.1062484 1.4901161e-07 0.65607232
-0.10544346 -0.052721739 0.63594878
-0.10465019 -0.1046502 0.61611712
-0.10386921 -0.15580384 0.59659231
-0.10309936 -0.20619871 0.57734632
-0.10234126 -0.25585315 0.55839372
-0.07259316 -0.21777952 -0.18530871
-0.072067007 -0.25223455 -0.19846252
-0.071548432 -0.28619376 -0.21142709
-0.078297861 -0.35234034 -0.042691261
-0.087815657 -0.43907833 0.19525367
-0.099969983 -0.54983497 0.4991118
-0.11603247 -0.69619483 0.90067428
-0.044401295 0.84362465 0.2199271
-0.044007946 0.79214305 0.20025972
-0.044274792 0.75267136 0.21360186
-0.045531567 0.72850502 0.27644062
-0.046861947 0.70292914 0.3429597
-0.04827223 0.67581117 0.41347367
-0.049769826 0.64700776 0.48835376
-0.051363122 0.61635745 0.56801826
-0.053062018 0.58368212 0.65296316
-0.054876912 0.54876912 0.74370772
-0.056820605 0.51138544 0.84089261
-0.056580305 0.45264238 0.82887751
-0.056123991 0.39286789 0.80606192
-0.055674732 0.33404839 0.78359884
-0.055232853 0.27616429 0.76150483
-0.054797933 0.21919158 0.73975873
-0.054369573 0.1631088 0.71834087
-0.053948086 0.10789615 0.69726658
-0.053533088 0.053533167 0.67651659
-0.053124201 1.4901161e-07 0.65607232
-0.052721731 -0.052721739 0.63594878
-0.052325096 -0.1046502 0.61611712
-0.051934604 -0.15580384 0.59659231
-0.051549889 -0.20619957 0.57735676
-0.051170632 -0.25585315 0.55839372
-0.050797116 -0.30478257 0.53971785
-0.036033504 -0.25223455 -0.19846252
-0.035774216 -0.28619376 -0.21142709
-0.036691051 -0.33021942 -0.16558513
-0.040839493 -0.40839493 0.041836828
-0.046045933 -0.50650531 0.3021591
-0.052775819 -0.63330984 0.63865334
-0.06180967 -0.80352569 1.0903457
0 0.84362465 0.2199271
0 0.79214031 0.20025203
0 0.76573455 0.25202268
0 0.74151409 0.31709355
0 0.715855 0.38604549
0 0.68861663 0.45920742
0 0.65965247 0.53698754
0 0.62879926 0.61985904
0 0.59585971 0.70831561
0 0.5606209 0.80296606
0 0.51339924 0.85208011
0 0.45264238 0.82887751
0 0.39286789 0.80606192
0 0.33404839 0.78359884
0 0.27616429 0.76150483
0 0.21919158 0.73975873
0 0.1631088 0.71834087
0 0.10789615 0.69726658
0 0.053533167 0.67651659
0 1.4901161e-07 0.65607232
0 -0.052721739 0.63594878
0 -0.10465065 0.61612809
0 -0.15580384 0.59659231
0 -0.20619957 0.57735676
0 -0.25585407 0.55840421
0 -0.30478257 0.53971785
0 -0.25223517 -0.1984574
0 -0.28619376 -0.21142709
0 -0.3196677 -0.22420622
0 -0.38171983 -0.091538444
0 -0.46950918 0.13399479
0 -0.58084404 0.42004591
0 -0.72665417 0.79468614
0.044400983 0.84361869 0.21991143
0.044565212 0.80217379 0.22812283
0.045838766 0.77925909 0.29180068
0.04718725 0.754996 0.35922468
0.048617478 0.72926211 0.43073612
0.050136711 0.70191401 0.50669801
0.051754173 0.67280436 0.58757102
0.053479251 0.64175093 0.67382461
0.05532353 0.60855877 0.76603872
0.057299301 0.57299298 0.86482751
0.057044361 0.51339924 0.85208011
0.056580305 0.45264238 0.82887751
0.056123991 0.39286789 0.80606192
0.055674978 0.33404982 0.78361112
0.055232853 0.27616429 0.76150483
0.054797933 0.21919158 0.73975873
0.054369807 0.16310945 0.71835262
0.053948086 0.10789615 0.69726658
0.053533088 0.053533167 0.67651659
0.053124424 -1.7881393e-07 0.65608329
0.052721731 -0.052721739 0.63594878
0.052325316 -0.10465065 0.61612809
0.051934604 -0.15580384 0.59659231
0.051549889 -0.20619957 0.57735676
0.051170837 -0.25585407 0.55840421
0.050797116 -0.30478257 0.53971785
0.050429013 -0.35300303 0.52131289
0.035774216 -0.28619376 -0.21142709
0.035518628 -0.3196677 -0.22420622
0.035831578 -0.35831583 -0.20855871
0.039777495 -0.43755248 -0.011262953
0.044700518 -0.53640622 0.23488818
0.051015899 -0.6632067 0.55065715
0.059409376 -0.83173126 0.97033113
0.08960285 0.89602846 0.23993334
0.088801652 0.84361571 0.21990362
0.090687662 0.81618905 0.26705387
0.093325868 0.79326987 0.33300886
0.096122161 0.76897717 0.40291619
0.099090427 0.74317825 0.47712287
0.10224827 0.71573794 0.55606908
0.10561356 0.68648809 0.64020121
0.10920839 0.65525037 0.73007208
0.11305605 0.62180829 0.82626361
0.11503164 0.57515824 0.87565351
0.11408872 0.51339924 0.85208011
0.11316061 0.45264238 0.82887751
0.11224798 0.39286789 0.80606192
0.11134996 0.33404982 0.78361112
0.11046571 0.27616429 0.76150483
0.10959587 0.21919158 0.73975873
0.10873961 0.16310945 0.71835262
0.10789617 0.10789615 0.69726658
0.10706618 0.053533167 0.67651659
0.10624885 -1.7881393e-07 0.65608329
0.10544346 -0.052721739 0.63594878
0.10465063 -0.10465065 0.61612809
0.10386963 -0.15580438 0.59660304
0.10309978 -0.20619957 0.57735676
0.10234167 -0.25585407 0.55840421
0.10159463 -0.30478394 0.53972828
0.10085803 -0.35300303 0.52131289
0.071548633 -0.28619447 -0.21142191
0.071037255 -0.3196677 -0.22420622
0.070533343 -0.3526668 -0.23680419
0.074485227 -0.40966862 -0.13800722
0.083047986 -0.49828792 0.076061785
0.093838342 -0.60994929 0.34582087
0.10785231 -0.75496632 0.69617015
0.13440378 0.89602524 0.23992541
0.13457793 0.85232687 0.24282777
0.13845041 0.83070242 0.3073692
0.14255184 0.80779362 0.37572616
0.14690253 0.78347999 0.44823748
0.15152773 0.75763875 0.52532458
0.15645303 0.7301141 0.60741276
0.16170996 0.70074314 0.69502831
0.16733171 0.6693269 0.78872406
0.1733592 0.6356504 0.88918221
0.17254747 0.57515824 0.87565351
0.17113307 0.51339924 0.85208011
0.16974169 0.4526445 0.82889014
0.16837198 0.39286789 0.80606192
0.16702494 0.33404982 0.78361112
0.16569929 0.27616549 0.76151699
0.1643938 0.21919158 0.73975873
0.16310941 0.16310945 0.71835262
0.16184495 0.10789666 0.69727808
0.16059926 0.053533167 0.67651659
0.15937327 -1.7881393e-07 0.65608329
0.15816586 -0.052721888 0.63595992
0.15697594 -0.10465065 0.61612809
0.15580444 -0.15580438 0.59660304
0.15464967 -0.20619957 0.57735676
0.15351251 -0.25585407 0.55840421
0.15239196 -0.30478394 0.53972828
0.15128703 -0.35300303 0.52131289
0.15019861 -0.40052959 0.50317252
0.10655619 -0.31966859 -0.22420123
0.10580001 -0.3526668 -0.23680419
0.10505478 -0.3852008 -0.24922463
0.116308 -0.4652319 -0.061671153
0.13029449 -0.56460929 0.17143695
0.14810869 -0.69117391 0.46834049
0.17156638 -0.85783207 0.85930216
0.18083595 0.94938868 0.2603116
0.17920378 0.89601898 0.23990968
0.18259332 0.86731815 0.28227863
0.18794256 0.84574151 0.34914434
0.19361247 0.82285285 0.42001808
0.19963591 0.79854381 0.4953112
0.20604533 0.77266991 0.57542872
0.21288086 0.74508303 0.66087294
0.22018452 0.71559972 0.75216872
0.22800818 0.68402445 0.84996432
0.23198165 0.63794953 0.89963293
0.23006433 0.57516092 0.87566662
0.22817744 0.51339924 0.85208011
0.22632223 0.4526445 0.82889014
0.22449698 0.39286959 0.80607426
0.22269991 0.33404982 0.78361112
0.22093238 0.27616549 0.76151699
0.21919173 0.21919158 0.73975873
0.21747923 0.16310945 0.71835262
0.21579327 0.10789666 0.69727808
0.21413235 0.053533167 0.67651659
0.2124977 -1.7881393e-07 0.65608329
0.2108878 -0.052721888 0.63595992
0.20930126 -0.10465065 0.61612809
0.20773926 -0.15580438 0.59660304
0.20620041 -0.20620036 0.57736737
0.20468335 -0.25585407 0.55840421
0.20318927 -0.30478394 0.53972828
0.20171605 -0.35300303 0.52131289
0.20026483 -0.40052959 0.50317252
0.19883433 -0.44737718 0.4852913
0.14106669 -0.3526668 -0.23680419
0.14007305 -0.3852008 -0.24922463
0.14542966 -0.43628889 -0.18226689
0.1617063 -0.52554542 0.021190986
0.18209206 -0.63732213 0.27601296
0.20836091 -0.78135341 0.60437351
0.24348545 -0.9739418 1.0434304
0.22604331 0.94938183 0.26029542
0.22578739 0.9031496 0.25773618
0.232328 0.88284624 0.32314208
0.23925795 0.86132866 0.39244181
0.24661405 0.83848774 0.46600267
0.25443578 0.81419444 0.54422009
0.26277101 0.78831309 0.62757248
0.27166972 0.76067531 0.71655947
0.28119349 0.73110306 0.81179702
0.29140791 0.69937891 0.91394132
0.28997704 0.63794953 0.89963293
0.28758043 0.57516092 0.87566662
0.28522179 0.51339924 0.85208011
0.28290281 0.4526445 0.82889014
0.2806212 0.39286959 0.80607426
0.27837491 0.33404982 0.78361112
0.27616549 0.27616549 0.76151699
0.27399084 0.21919264 0.73977071
0.27184904 0.16310945 0.71835262
0.26974159 0.10789666 0.69727808
0.26766655 0.053533256 0.67652786
0.26562211 -1.7881393e-07 0.65608329
0.26360974 -0.052721888 0.63595992
0.26162764 -0.10465109 0.61613888
0.2596741 -0.15580438 0.59660304
0.25775051 -0.20620036 0.57736737
0.25585419 -0.25585407 0.55840421
0.2539866 -0.30478394 0.53972828
0.25214607 -0.35300443 0.52132291
0.25033104 -0.40052959 0.50317252
0.2485429 -0.44737718 0.4852913
0.17633384 -0.35266775 -0.23679927
0.17509131 -0.3852008 -0.24922463
0.17386663 -0.41727996 -0.26147136
0.18905504 -0.49154311 -0.10958739
0.21116337 -0.59125739 0.11149599
0.23913175 -0.71739525 0.39117983
0.27563998 -0.88204789 0.75626212
0.27374321 1.0037252 0.28105581
0.27125102 0.94937849 0.26028731
0.27574265 0.91914213 0.29771775
0.28387493 0.89893723 0.36548677
0.29250148 0.87750435 0.43737459
0.30166754 0.85472459 0.51375842
0.31142795 0.83047456 0.5950951
0.32183969 0.80459917 0.68185955
0.33297312 0.77693713 0.77463835
0.34490448 0.74729306 0.87406623
0.35089841 0.70179677 0.92401564
0.34797248 0.63794953 0.89963293
0.3450965 0.57516092 0.87566662
0.34226769 0.51340145 0.85209304
0.33948338 0.4526445 0.82889014
0.33674544 0.39286959 0.80607426
0.33405134 0.33405125 0.78362346
0.33139858 0.27616549 0.76151699
0.32878903 0.21919264 0.73977071
0.32622021 0.16310996 0.71836412
0.32368991 0.10789666 0.69727808
0.32119986 0.053533256 0.67652786
0.31874654 -1.7881393e-07 0.65608329
0.31633171 -0.052721888 0.63595992
0.31395319 -0.10465109 0.61613888
0.31160888 -0.15580438 0.59660304
0.30930063 -0.20620036 0.57736737
0.30702627 -0.2558552 0.55841458
0.30478391 -0.30478394 0.53972828
0.30257529 -0.35300443 0.52132291
0.30039722 -0.40052959 0.50317252
0.29825148 -0.44737718 0.4852913
0.29613617 -0.49356025 0.46766388
0.21011016 -0.3852019 -0.24921989
0.20863996 -0.41727996 -0.26147136
0.21307994 -0.46167326 -0.22447151
0.23631477 -0.55140102 -0.030847996
0.26524621 -0.66311544 0.21024731
0.30224994 -0.80599988 0.51861173
0.35125214 -0.99521422 0.92696315
0.31936479 1.0037179 0.28103939
0.31821743 0.95465231 0.27284387
0.32749781 0.93570805 0.33913249
0.3373358 0.91562581 0.40940368
0.34778175 0.89429581 0.48401761
0.35889679 0.87160635 0.5634107
0.3707442 0.84741533 0.64803505
0.38340214 0.821576 0.73844892
0.39695498 0.79391003 0.83525497
0.41149917 0.76421267 0.93914211
0.40938148 0.70179677 0.92401564
0.40596977 0.63795245 0.8996461
0.4026126 0.57516092 0.87566662
0.39931232 0.51340145 0.85209304
0.39606389 0.4526445 0.82889014
0.39286968 0.39286959 0.80607426
0.38972658 0.33405125 0.78362346
0.38663167 0.27616549 0.76151699
0.38358718 0.21919264 0.73977071
0.38059026 0.16310996 0.71836412
0.37763822 0.10789666 0.69727808
0.37473321 0.053533256 0.67652786
0.37187251 -5.9604645e-08 0.65609455
0.36905366 -0.052721888 0.63595992
0.36627871 -0.10465109 0.61613888
0.36354521 -0.15580505 0.59661376
0.36085072 -0.20620036 0.57736737
0.3581973 -0.2558552 0.55841458
0.35558122 -0.30478394 0.53972828
0.35300449 -0.35300443 0.52132291
0.35046485 -0.40053135 0.50318253
0.34796008 -0.44737718 0.4852913
0.34549221 -0.49356025 0.46766388
0.24512851 -0.3852019 -0.24921989
0.24341395 -0.41728115 -0.26146653
0.24172255 -0.44891334 -0.27354801
0.25829244 -0.51658487 -0.15519169
0.28768685 -0.61647189 0.054768562
0.32463562 -0.74202436 0.31868809
0.37247387 -0.9045794 0.66038984
0.36837152 1.0590682 0.30218425
0.36498699 1.0037141 0.28103098
0.37015945 0.97166848 0.31335866
0.38115281 0.95288193 0.38206726
0.39281759 0.93294191 0.45497239
0.40522057 0.9117462 0.53249061
0.41843227 0.8891685 0.61506391
0.42668065 0.85336125 0.66661632
0.42668244 0.8000297 0.66662765
0.42668426 0.74669749 0.66663891
0.42668605 0.69336492 0.66665006
0.42668787 0.64003187 0.66666144
0.42668965 0.58669835 0.66667277
0.42669147 0.53336447 0.66668409
0.42669329 0.48003009 0.66669536
0.4266969 0.42669687 0.66671783
0.42669868 0.37336135 0.66672903
0.4267005 0.32002538 0.66674036
0.42670232 0.26668894 0.66675174
0.42670414 0.2133521 0.66676289
0.42670593 0.16001478 0.66677439
0.42670774 0.10667682 0.6667856
0.42670953 0.053338677 0.66679686
0.42499718 -5.9604645e-08 0.65609455
0.42177561 -0.052721888 0.63595992
0.41860425 -0.10465109 0.61613888
0.41548023 -0.15580505 0.59661376
0.41240081 -0.20620036 0.57736737
0.40936837 -0.2558552 0.55841458
0.40638021 -0.30478519 0.53973854
0.40343371 -0.35300443 0.52132291
0.40053123 -0.40053135 0.50318253
0.39767021 -0.44737908 0.48530117
0.39484826 -0.49356025 0.46766388
0.39206758 -0.5390929 0.45028448
0.27818739 -0.41728115 -0.26146653
0.27625436 -0.44891334 -0.27354801
0.27766109 -0.48590687 -0.26475617
0.30717805 -0.57595885 -0.08027494
0.3437289 -0.68745774 0.14816794
0.39015287 -0.8290748 0.43831778
0.45107502 -1.0149186 0.81908107
0.41441643 1.0590641 0.30217573
0.41189122 1.0068451 0.28814682
0.42398673 0.9893024 0.35534415
0.43046167 0.95658147 0.39131594
0.43046328 0.90875578 0.39132494
0.43046492 0.86092997 0.39133418
0.43046656 0.81310344 0.391343
0.43046817 0.76527679 0.39135218
0.43046981 0.71744972 0.39136147
0.43047145 0.66962236 0.39137036
0.43047473 0.62179685 0.39138839
0.43047637 0.57396847 0.39139748
0.43047798 0.52613974 0.39140669
0.43047962 0.47831047 0.39141566
0.43048126 0.43048131 0.39142483
0.43048289 0.38265154 0.39143395
0.43048453 0.33482116 0.39144292
0.43048614 0.28699079 0.39145207
0.43048781 0.23915987 0.39146107
0.43048942 0.19132866 0.39147031
0.43049106 0.14349703 0.39147928
0.4304927 0.095664993 0.39148825
0.43049598 0.047832862 0.39150649
0.43049759 -2.9802322e-08 0.39151561
0.43049923 -0.047833353 0.39152461
0.43050086 -0.095666915 0.3915337
0.4305025 -0.14350083 0.39154273
0.43050414 -0.19133523 0.39155191
0.43050575 -0.23916984 0.39156091
0.43050739 -0.28700495 0.39157003
0.43050903 -0.33484036 0.39157912
0.43051067 -0.38267612 0.39158821
0.43051231 -0.43051222 0.39159724
0.43051395 -0.47834885 0.39160642
0.43051556 -0.52618569 0.39161551
0.31296167 -0.41728216 -0.26146191
0.31078699 -0.44891453 -0.27354318
0.30864236 -0.48011032 -0.28545809
0.32426909 -0.54044843 -0.19864284
0.36020645 -0.64036703 0.0010092258
0.40510798 -0.76520395 0.25046217
0.46279997 -0.92559981 0.57097298
0.46477079 1.1154499 0.32371628
0.46046102 1.0590605 0.30216756
0.45623377 1.0037141 0.28103098
0.45208502 0.94937849 0.26028731
0.44800943 0.89601898 0.23990968
0.44400829 0.84361571 0.21990362
0.44007796 0.79214031 0.20025203
0.43621656 0.74156821 0.18094519
0.43355593 0.69368947 0.16764194
0.43355742 0.65033615 0.16764936
0.43355891 0.60698235 0.16765678
0.4335604 0.56362849 0.16766426
0.43356189 0.52027416 0.16767173
0.43356487 0.47692144 0.16768675
0.43356636 0.43356636 0.1676942
0.43356785 0.39021105 0.16770172
0.43356937 0.34685558 0.16770905
0.43357083 0.30349952 0.16771641
0.43357232 0.26014337 0.16772386
0.43357533 0.21678767 0.1677388
0.43357679 0.17343067 0.16774634
0.43357831 0.1300735 0.16775388
0.4335798 0.086715907 0.16776131
0.43358129 0.043358143 0.16776872
0.43358275 5.2154064e-08 0.16777611
0.43358576 -0.043358609 0.16779107
0.43358725 -0.086717382 0.16779858
0.43358874 -0.13007666 0.16780604
0.43359023 -0.17343612 0.16781351
0.43359172 -0.21679591 0.16782095
0.43359324 -0.26015604 0.16782835
0.4335947 -0.30351624 0.16783583
0.43359768 -0.34687811 0.16785073
0.4335992 -0.39023936 0.16785814
0.43360066 -0.43360072 0.16786571
0.43360215 -0.47696239 0.16787319
0.43360367 -0.52032435 0.16788059
0.34531888 -0.44891453 -0.27354318
0.34293595 -0.48011032 -0.28545809
0.3405866 -0.51087981 -0.29720485
0.37457126 -0.59931403 -0.12728125
0.41792503 -0.71047258 0.089487523
0.47262636 -0.85072744 0.36299399
0.5065127 1.0590719 0.30219263
0.50186259 1.0037252 0.28105581
0.4972989 0.94938868 0.2603116
0.49281567 0.89602846 0.23993334
0.48841429 0.84362465 0.2199271
0.48408914 0.79214585 0.20026734
0.47984156 0.74157333 0.18096027
0.47566628 0.6918782 0.16198161
0.47156459 0.64304256 0.14333767
0.46753147 0.59504008 0.12500535
0.46356833 0.54785341 0.10699098
0.45967028 0.50145853 0.089272633
0.45584023 0.4558402 0.071863294
0.45207199 0.41097456 0.054735005
0.44836557 0.36684453 0.037887588
0.44471943 0.32343233 0.021314204
0.4411321 0.28072038 0.0050081015
0.43760216 0.23869209 -0.011036873
0.43613601 0.19824356 -0.017701484
0.43613738 0.15859538 -0.017695263
0.43613875 0.11894695 -0.017688978
0.43614149 0.079298563 -0.017676432
0.43614286 0.039649382 -0.017670285
0.43614423 2.2351742e-08 -0.017663982
0.4361456 -0.039649583 -0.017657783
0.43614697 -0.07929945 -0.017651517
0.43614835 -0.11894965 -0.017645281
0.43615109 -0.1586004 -0.017632738
0.43615246 -0.19825119 -0.017626628
0.43615383 -0.23790216 -0.017620355
0.4361552 -0.27755329 -0.017614096
0.43615657 -0.31720477 -0.017607868
0.43615794 -0.35685655 -0.017601654
0.43615931 -0.39650846 -0.017595381
0.43616205 -0.43616208 -0.017582878
0.43616343 -0.47581458 -0.017576724
0.37985182 -0.44891572 -0.27353853
0.37723058 -0.4801116 -0.28545335
0.37464526 -0.51087981 -0.29720485
0.38720849 -0.56321239 -0.24009907
0.42902964 -0.66304582 -0.050002903
0.48098195 -0.78706133 0.18614385
0.51004124 0.59504819 0.12503411
0.50571597 0.54785895 0.10701215
0.50146514 0.5014652 0.089300424
0.49728349 0.45584327 0.071876869
0.49317271 0.41097718 0.054748476
0.48912767 0.36684579 0.0378941
0.48515001 0.32343337 0.021320716
0.48123503 0.28072038 0.0050081015
0.47738418 0.23869209 -0.011036873
0.47359303 0.19733046 -0.026833445
0.46986452 0.15662155 -0.042368788
0.46619284 0.11654824 -0.057667665
0.46257809 0.07709635 -0.072728999
0.45901895 0.038251597 -0.087558746
0.45551419 -1.1175871e-08 -0.10216199
0.45206252 -0.037671871 -0.11654387
0.44866279 -0.074777141 -0.13070941
0.44531378 -0.11132837 -0.14466366
0.44201443 -0.14733809 -0.15841094
0.43876487 -0.1828187 -0.1719508
0.43830961 -0.21915478 -0.17384771
0.43831089 -0.25568134 -0.17384237
0.43831342 -0.29220885 -0.17383178
0.43831471 -0.32873598 -0.17382656
0.43831596 -0.36526328 -0.17382118
0.43831724 -0.40179074 -0.173816
0.43831849 -0.43831846 -0.17381057
0.4383198 -0.47484636 -0.17380533
0.4115254 -0.48011291 -0.28544867
0.408705 -0.51088119 -0.2972002
0.40592304 -0.54123068 -0.30879176
0.43874449 -0.62155473 -0.17203569
0.48817402 -0.73226094 0.033920705
0.51306397 0.19733229 -0.026814878
0.50902301 0.15662244 -0.042356633
0.5050438 0.11654864 -0.057661548
0.50112778 0.077096514 -0.072723158
0.49727052 0.038251597 -0.087558746
0.49347368 -1.1175871e-08 -0.10216199
0.48973295 -0.037671711 -0.11654952
0.48604989 -0.074776895 -0.13071497
0.48242188 -0.11132804 -0.14466913
0.47884896 -0.14733809 -0.15841094
0.47532722 -0.18281822 -0.17195609
0.47185692 -0.21778014 -0.1853036
0.4684369 -0.25223517 -0.1984574
0.46506611 -0.28619447 -0.21142191
0.46174347 -0.31966859 -0.22420123
0.45846802 -0.35266775 -0.23679927
0.45523867 -0.3852019 -0.24921989
0.45205575 -0.41728216 -0.26146191
0.44891578 -0.44891572 -0.27353853
0.44581917 -0.48011291 -0.28544867
0.44276378 -0.51088119 -0.2972002
0.43975115 -0.54123211 -0.3087872
0.44731632 -0.58495212 -0.27969038
0.49442977 -0.68459505 -0.098484755
0.51568502 -0.14733858 -0.15840548
0.51189232 -0.1828187 -0.1719508
0.50815356 -0.21778014 -0.1853036
0.50447047 -0.25223517 -0.1984574
0.50083899 -0.28619376 -0.21142709
0.49726084 -0.3196677 -0.22420622
0.49373338 -0.3526668 -0.23680419
0.49025702 -0.3852019 -0.24921989
0.48682791 -0.41728115 -0.26146653
0.48344645 -0.44891453 -0.27354318
0.48011166 -0.4801116 -0.28545335
0.4768225 -0.51088119 -0.2972002
0.47357813 -0.54123211 -0.3087872
0.4703764 -0.57117128 -0.32022202
0.49992085 -0.64275545 -0.21470602
0.51797831 -0.44891453 -0.27354318
0.51440388 -0.48011032 -0.28545809
0.51087987 -0.51087981 -0.29720485
0.50740379 -0.54123068 -0.30879176
0.50397468 -0.57117128 -0.32022202
0.5047794 -0.6057353 -0.31753957
