# .PCD v0.7 - Point Cloud Data file format
VERSION 0.7
FIELDS x y z
SIZE 4 4 4
TYPE F F F
COUNT 1 1 1
WIDTH 1321
HEIGHT 1
VIEWPOINT 0 0 0 1 0 0 0
POINTS 1321
DATA ascii
-1.2546706 -8.9406967e-08 0.98717308
-1.144789 0.11447901 0.86183482
-1.1481315 0.057406574 0.87019098
-1.1825296 1.4901161e-07 0.95618618
-1.1447318 -0.057236552 0.86169171
-1.1447994 -0.11447996 0.86186063
-1.0437657 0.21974008 0.7466141
-1.0437065 0.16479579 0.74645841
-1.0685924 0.1124835 0.8119477
-1.1045712 0.058135301 0.90662867
-1.1381024 2.9802322e-08 0.99486881
-1.0999439 -0.057891816 0.8944512
-1.064261 -0.11202738 0.80054915
-1.0437112 -0.16479653 0.74647033
-1.0437748 -0.219742 0.74663812
-0.95056188 0.31685406 0.64031196
-0.95050615 0.26402938 0.64015704
-0.96152484 0.21367207 0.67076445
-0.99222153 0.1653704 0.75603312
-1.0249428 0.11388263 0.84692562
-1.0598909 0.058882982 0.94400358
-1.0924922 -5.9604645e-08 1.0345626
-1.0553938 -0.05863297 0.93151164
-1.0207322 -0.11341467 0.83522964
-0.98827493 -0.16471249 0.74507046
-0.95782232 -0.21284929 0.66047978
-0.95051408 -0.26403159 0.6401791
-0.86425459 0.35586962 0.54178756
-0.86469406 0.30518621 0.54308021
-0.89093965 0.26204103 0.62027305
-0.91882449 0.21619393 0.70228714
-0.94851524 0.1673851 0.78961325
-0.98018909 0.11531642 0.88277137
-1.0140512 0.059650242 0.98236603
-1.0456566 -0 1.0753227
-1.0096881 -0.059393346 0.96953309
-0.97611636 -0.11483705 0.87079257
-0.94470096 -0.16671199 0.77839446
-0.91524476 -0.21535161 0.69175851
-0.8875699 -0.2610499 0.61036193
-0.86424071 -0.30502602 0.54174644
-0.86426157 -0.35587236 0.54180813
-0.78419918 0.4411121 0.45048472
-0.78417784 0.39208889 0.45041794
-0.7991671 0.3496356 0.49725962
-0.82297039 0.30861387 0.57164472
-0.84823871 0.26507455 0.6506083
-0.87510794 0.21877696 0.7345745
-0.90373099 0.1694496 0.82402146
-0.93429399 0.11678666 0.91953099
-0.96699667 0.060437411 1.021727
-0.99754578 -0 1.1171927
-0.9627859 -0.060174197 1.008568
-0.9303627 -0.11629546 0.90724564
-0.90005207 -0.16875964 0.81252497
-0.87165415 -0.21791354 0.72378159
-0.84499347 -0.2640605 0.64046681
-0.81991524 -0.3074683 0.56209743
-0.79628581 -0.34837505 0.48825532
-0.78417784 -0.39208889 0.45041806
-0.78420532 -0.44111538 0.45050383
-0.70969534 0.52044338 0.36551347
-0.7096687 0.47311246 0.36542469
-0.71562189 0.42937312 0.38526842
-0.73595667 0.39251032 0.45305121
-0.75748086 0.35349095 0.52479827
-0.78029877 0.31211948 0.60085815
-0.80453753 0.26817906 0.6816541
-0.83033043 0.22142139 0.76763052
-0.85783195 0.17156658 0.85930228
-0.88721347 0.11829504 0.95724046
-0.91868353 0.061245531 1.0621405
-0.94811159 1.1920929e-07 1.1602343
-0.91462988 -0.060975403 1.0486284
-0.88343221 -0.11779085 0.94463634
-0.85429263 -0.17085844 0.8475045
-0.82701397 -0.2205371 0.7565757
-0.80142355 -0.26714122 0.67127407
-0.77737248 -0.31094903 0.59110373
-0.75471985 -0.35220248 0.51559508
-0.73335004 -0.39112014 0.44436252
-0.71315706 -0.42789426 0.37705263
-0.7096687 -0.47311234 0.3654246
-0.70969802 -0.52044523 0.36552235
-0.64015478 0.54870403 0.28612942
-0.64015943 0.5029825 0.28614593
-0.65661418 0.46901014 0.34491289
-0.67494518 0.4338932 0.41038063
-0.69433177 0.39676106 0.47961861
-0.71486497 0.35743248 0.55295163
-0.73664969 0.31570694 0.63075387
-0.75980055 0.27135733 0.71343577
-0.78445733 0.22413072 0.80149555
-0.81076801 0.17373589 0.89546216
-0.83890486 0.1198436 0.99595106
-0.86906058 0.062075794 1.1036501
-0.89728874 -1.1920929e-07 1.2044647
-0.86517417 -0.061798096 1.0897698
-0.83527893 -0.11932546 0.98300141
-0.80738074 -0.17301014 0.8833648
-0.78128588 -0.22322446 0.79016888
-0.75682825 -0.27029583 0.7028203
-0.73385233 -0.31450808 0.62076348
-0.71223038 -0.3561151 0.54354209
-0.69184607 -0.3953405 0.470741
-0.6725961 -0.43238324 0.40199116
-0.65439075 -0.46742195 0.33697194
-0.6401571 -0.50298047 0.28613764
-0.6401571 -0.54870605 0.28613764
-0.57515407 0.61939669 0.21199322
-0.57515407 0.57515407 0.21199322
-0.58397126 0.53905046 0.24590576
-0.59956759 0.50732636 0.30589131
-0.61602211 0.47386327 0.36917821
-0.63340527 0.43851134 0.43603653
-0.65179545 0.40110484 0.50676769
-0.67128807 0.36146271 0.58173949
-0.69198263 0.31937653 0.6613338
-0.71399361 0.27461284 0.74599165
-0.73744762 0.22690696 0.83619934
-0.76249838 0.17596117 0.9325484
-0.78931099 0.1214323 1.0356736
-0.81807798 0.062929034 1.1463158
-0.84502304 -0 1.2499509
-0.81436539 -0.062643647 1.1320367
-0.78585434 -0.12090069 1.0223793
-0.75927573 -0.17521757 0.92015338
-0.73443282 -0.22597942 0.82460392
-0.71116406 -0.27352458 0.73510873
-0.68932444 -0.31814975 0.65111005
-0.66878629 -0.36011562 0.57211721
-0.64943653 -0.39965326 0.49769509
-0.63117737 -0.43696895 0.42746758
-0.61391467 -0.47224206 0.36107233
-0.59757102 -0.50563699 0.29821223
-0.582075 -0.53729993 0.23861223
-0.57515204 -0.57515198 0.21198557
-0.57515609 -0.61939895 0.21200098
-0.51423818 0.68565094 0.14252138
-0.51423293 0.64279127 0.1424996
-0.51721209 0.60341418 0.15491274
-0.53045332 0.5746578 0.21008459
-0.54439038 0.54439032 0.26815549
-0.5590775 0.51248771 0.32935187
-0.57458127 0.47881764 0.3939507
-0.59096938 0.44322693 0.46223465
-0.60831982 0.40554649 0.5345282
-0.62671721 0.365585 0.61118406
-0.64626497 0.32313251 0.69263279
-0.66707128 0.27794629 0.77932602
-0.68926191 0.22975382 0.87178695
-0.71297634 0.17824399 0.97059715
-0.73838443 0.12306398 1.0764639
-0.76567024 0.063805938 1.190155
-0.79125232 -0 1.2967467
-0.76215118 -0.063512623 1.1754923
-0.73511112 -0.1225186 1.0628252
-0.7099241 -0.17748085 0.95787907
-0.68640578 -0.22880173 0.85988605
-0.66439569 -0.27683163 0.76817769
-0.64375329 -0.32187667 0.68216777
-0.62435502 -0.36420703 0.60134143
-0.606094 -0.40406269 0.52525395
-0.5888685 -0.44165131 0.45348102
-0.57259506 -0.47716263 0.38567507
-0.55719686 -0.51076382 0.32151589
-0.54260516 -0.54260516 0.26071715
-0.52876008 -0.57282329 0.2030292
-0.51560217 -0.6015358 0.14820457
-0.5142312 -0.64278901 0.14249216
-0.51423991 -0.68565321 0.14252856
-0.45703042 0.74786788 0.077273309
-0.45702291 0.70630807 0.077239037
-0.45702592 0.66476506 0.077252924
-0.4668529 0.63661766 0.12192085
-0.47861564 0.60914719 0.17538799
-0.49098822 0.58025873 0.23162693
-0.50401741 0.54983705 0.29085058
-0.517757 0.51775718 0.35330334
-0.53226459 0.48387685 0.41924679
-0.54761088 0.44804528 0.48900253
-0.56386822 0.41008607 0.56289983
-0.58112055 0.36980405 0.64131922
-0.59945917 0.32697773 0.72467667
-0.61899579 0.28136182 0.81347948
-0.63984871 0.23267213 0.90826547
-0.66215563 0.18058801 1.0096605
-0.68607062 0.12474012 1.1183652
-0.71178156 0.064707339 1.2352328
-0.73591441 -1.7881393e-07 1.3449278
-0.70846415 -0.064405859 1.2201536
-0.68298805 -0.12417963 1.1043534
-0.6592806 -0.17980382 0.99659216
-0.63716376 -0.23169583 0.896061
-0.61648268 -0.2802195 0.80205625
-0.59710449 -0.32569337 0.7139734
-0.57890493 -0.36839402 0.63124841
-0.56178206 -0.40856862 0.55341709
-0.54564297 -0.44643512 0.48005778
-0.53040534 -0.48218656 0.41079557
-0.51599562 -0.51599568 0.34529692
-0.50234991 -0.54801804 0.28327119
-0.48940569 -0.57838851 0.22443359
-0.47711173 -0.60723311 0.16855215
-0.46542037 -0.63466406 0.11540927
-0.45702291 -0.66476047 0.077239037
-0.45702291 -0.70630813 0.077239126
-0.40319484 0.76607025 0.015836626
-0.40319744 0.72575545 0.015849441
-0.40813041 0.69382167 0.04051435
-0.41801098 0.66881752 0.089917034
-0.4283818 0.64257264 0.14177117
-0.4392803 0.6149925 0.19626385
-0.45074621 0.58597004 0.25359339
-0.46282843 0.55539411 0.31400436
-0.47557622 0.52313381 0.3777433
-0.4890461 0.48904613 0.44509283
-0.50329924 0.45296925 0.51635855
-0.51841033 0.41472822 0.59191388
-0.53445685 0.3741197 0.67214632
-0.55152845 0.33091706 0.7575047
-0.56972414 0.28486204 0.84848285
-0.58916402 0.23566568 0.94568264
-0.60997754 0.18299326 1.0497499
-0.63231546 0.12646323 1.1614395
-0.65634817 0.065634847 1.281603
-0.67893147 -0 1.3945198
-0.65324551 -0.065324485 1.2660896
-0.62943214 -0.12588638 1.147023
-0.60729396 -0.18218839 1.0363321
-0.58666009 -0.23466402 0.93316275
-0.5673849 -0.28369227 0.83678675
-0.54933357 -0.32960021 0.74653029
-0.53239548 -0.37267688 0.66183966
-0.51647067 -0.41317648 0.58221567
-0.50147086 -0.45132384 0.50721663
-0.48731771 -0.48731768 0.43645099
-0.47394338 -0.52133775 0.36957902
-0.46128181 -0.55353826 0.30627126
-0.44927916 -0.58406281 0.24625804
-0.43788528 -0.61303943 0.18928871
-0.42705503 -0.64058256 0.13513742
-0.4167476 -0.66679615 0.083600193
-0.40692729 -0.69177628 0.034498692
-0.40319484 -0.72575074 0.015836567
-0.40319484 -0.76607025 0.015836626
-0.35245752 0.82240081 -0.042040378
-0.3524597 0.78324383 -0.042028159
-0.35374802 0.74680138 -0.034870923
-0.36198828 0.72397649 0.010908157
-0.37062159 0.70006299 0.05887115
-0.37967548 0.67497873 0.10917065
-0.38918415 0.64864028 0.16199642
-0.39918134 0.62094867 0.21753623
-0.40970564 0.59179699 0.27600473
-0.42079836 0.56106448 0.33763099
-0.43251014 0.52862352 0.40269628
-0.4448925 0.49432483 0.47148716
-0.45800474 0.45800468 0.54433298
-0.47191337 0.4194786 0.62160319
-0.48669112 0.3785376 0.70370173
-0.50242651 0.33495104 0.79112077
-0.51921338 0.28845194 0.88438129
-0.53716087 0.23873803 0.98408902
-0.55639344 0.18546447 1.0909371
-0.57705146 0.12823379 1.2057039
-0.59433478 0.066037178 1.301722
-0.59433478 1.7881393e-07 1.301722
-0.59433478 -0.066037178 1.3017223
-0.57438648 -0.12764132 1.1908981
-0.5539127 -0.18463749 1.0771551
-0.53484827 -0.2377103 0.97124159
-0.51705253 -0.28725132 0.87237597
-0.50040281 -0.33360183 0.77987784
-0.4847919 -0.37706023 0.69315058
-0.47012758 -0.41789114 0.61168206
-0.45632243 -0.45632258 0.53498715
-0.44330499 -0.49256095 0.46266764
-0.43100962 -0.52678949 0.39436013
-0.41937789 -0.55917048 0.32973939
-0.40835747 -0.58984953 0.26851487
-0.39790142 -0.61895776 0.21042576
-0.38796878 -0.64661455 0.15524434
-0.37851867 -0.67292196 0.10274383
-0.36951801 -0.69797838 0.052740067
-0.36093542 -0.7218709 0.0050591826
-0.35274252 -0.74467874 -0.04045707
-0.35245863 -0.78324127 -0.042034298
-0.35245752 -0.82240093 -0.042040318
-0.30455309 0.87559003 -0.096681029
-0.30455399 0.83752358 -0.096675187
-0.30455491 0.7994566 -0.096669525
-0.31004685 0.77511716 -0.06234473
-0.31716585 0.75326896 -0.017850995
-0.3246184 0.73039126 0.028727204
-0.33243069 0.70641536 0.077554286
-0.3406283 0.68125653 0.1287891
-0.34924042 0.65482587 0.18261492
-0.35829929 0.62702376 0.23923285
-0.36784065 0.59774113 0.29886648
-0.37790266 0.56685388 0.36175385
-0.38853213 0.53423154 0.42818797
-0.39977685 0.49972105 0.4984675
-0.41169187 0.46315333 0.57293642
-0.42433891 0.42433882 0.65198058
-0.43778574 0.3830626 0.73602319
-0.4521147 0.33908609 0.82557923
-0.4674134 0.2921333 0.92119586
-0.48378372 0.24189189 1.0235105
-0.5013423 0.18800321 1.1332517
-0.51355386 0.12838846 1.209574
-0.51355386 0.064194202 1.209574
-0.51355386 -5.9604645e-08 1.2095739
-0.51355386 -0.064194143 1.209574
-0.51355386 -0.12838835 1.2095737
-0.49907658 -0.18715364 1.1190907
-0.48167354 -0.24083671 1.0103216
-0.46544549 -0.29090348 0.90889645
-0.45027325 -0.33770478 0.81406999
-0.43605894 -0.38155153 0.72523052
-0.42271459 -0.42271447 0.6418286
-0.41016275 -0.46143302 0.56337947
-0.3983348 -0.49791855 0.48945481
-0.38716993 -0.53235865 0.41967443
-0.37661386 -0.56492066 0.35369882
-0.3666181 -0.5957545 0.29122561
-0.35713926 -0.62499362 0.23198262
-0.34813818 -0.65275925 0.175726
-0.3395797 -0.6791594 0.12223551
-0.3314319 -0.70429277 0.071311563
-0.32366592 -0.72824836 0.02277422
-0.31625554 -0.75110698 -0.023540437
-0.30917785 -0.77294457 -0.067776054
-0.30455399 -0.79945409 -0.096675336
-0.30455309 -0.83752096 -0.096681029
-0.30455399 -0.87559283 -0.096675247
-0.25924957 0.8888557 -0.14835501
-0.25924957 0.85181999 -0.14835501
-0.25924957 0.81478429 -0.14835507
-0.25924957 0.7777487 -0.14835507
-0.25924957 0.74071306 -0.1483551
-0.25924957 0.70367742 -0.14835501
-0.25924957 0.66664177 -0.14835504
-0.25924957 0.62960613 -0.14835505
-0.25924957 0.59257042 -0.14835502
-0.25924957 0.55553478 -0.14835507
-0.25924957 0.51849914 -0.14835511
-0.25924957 0.48146358 -0.14835502
-0.25924957 0.44442785 -0.14835498
-0.25924957 0.4073922 -0.14835501
-0.25924957 0.37035656 -0.14835502
-0.25924957 0.33332086 -0.14835502
-0.25924957 0.29628521 -0.14835504
-0.25924882 0.2592487 -0.14836045
-0.25924882 0.22221321 -0.14836048
-0.25924882 0.18517774 -0.14836049
-0.25924882 0.1481421 -0.14836051
-0.25924882 0.11110662 -0.14836052
-0.25924882 0.07407105 -0.14836046
-0.25924882 0.037035573 -0.14836048
-0.25924882 8.9406967e-08 -0.14836049
-0.25924882 -0.037035555 -0.14836051
-0.25924882 -0.074071035 -0.14836052
-0.25924882 -0.1111066 -0.14836046
-0.25924882 -0.14814208 -0.14836048
-0.25924882 -0.18517764 -0.14836058
-0.25924882 -0.2222133 -0.14836043
-0.25924882 -0.25924879 -0.14836046
-0.25924882 -0.29628444 -0.14836046
-0.25924882 -0.3333199 -0.14836049
-0.25924882 -0.37035555 -0.14836052
-0.25924882 -0.40739101 -0.14836052
-0.25924882 -0.44442654 -0.14836054
-0.25924882 -0.48146206 -0.14836049
-0.25924882 -0.51849765 -0.14836058
-0.25924882 -0.55553317 -0.14836051
-0.25924882 -0.5925687 -0.14836054
-0.25924882 -0.62960416 -0.14836055
-0.25924882 -0.6666398 -0.14836055
-0.25924882 -0.70367539 -0.14836052
-0.25924882 -0.74071097 -0.14836046
-0.25924882 -0.77774644 -0.14836046
-0.25924882 -0.8147819 -0.14836052
-0.25924882 -0.85181749 -0.14836043
-0.25924882 -0.88885307 -0.14836043
-0.22093296 0.92055392 -0.15902978
-0.22093296 0.88373184 -0.15902984
-0.22093296 0.84690964 -0.15902981
-0.22093296 0.8100875 -0.15902984
-0.22093296 0.7732653 -0.15902987
-0.22093296 0.7364431 -0.15902981
-0.22093296 0.69962096 -0.15902984
-0.22093296 0.66279876 -0.15902987
-0.22093296 0.62597662 -0.15902984
-0.22093296 0.58915448 -0.15902987
-0.22093296 0.5523324 -0.15902981
-0.22093296 0.51551026 -0.15902984
-0.22093296 0.47868803 -0.15902978
-0.22093296 0.44186586 -0.1590298
-0.22093296 0.40504372 -0.15902984
-0.22093296 0.36822155 -0.15902981
-0.22093296 0.33139938 -0.15902984
-0.22093296 0.29457724 -0.15902986
-0.22093296 0.25775513 -0.15902975
-0.22093296 0.22093299 -0.15902978
-0.22093296 0.18411085 -0.15902981
-0.22093296 0.14728871 -0.15902984
-0.22093296 0.11046657 -0.15902987
-0.22093296 0.073644236 -0.15902974
-0.22093296 0.036822096 -0.15902975
-0.22093296 -5.2154064e-08 -0.15902978
-0.22093296 -0.036822118 -0.15902972
-0.22093296 -0.073644266 -0.15902975
-0.22093296 -0.1104664 -0.15902978
-0.22093296 -0.14728856 -0.1590298
-0.22093296 -0.18411078 -0.15902975
-0.22093296 -0.22093293 -0.15902975
-0.22093296 -0.25775516 -0.15902987
-0.22093296 -0.2945773 -0.1590299
-0.22093296 -0.33139938 -0.15902984
-0.22093296 -0.36822152 -0.15902987
-0.22093296 -0.40504375 -0.15902981
-0.22093296 -0.44186598 -0.15902977
-0.22093296 -0.47868812 -0.15902978
-0.22093296 -0.51551026 -0.15902981
-0.22093296 -0.5523324 -0.15902984
-0.22093296 -0.58915454 -0.15902987
-0.22093296 -0.62597662 -0.1590298
-0.22093296 -0.66279888 -0.15902975
-0.22093296 -0.69962096 -0.15902978
-0.22093296 -0.73644316 -0.15902981
-0.22093296 -0.77326524 -0.15902984
-0.22093296 -0.81008744 -0.15902984
-0.22093296 -0.84690952 -0.15902984
-0.22093296 -0.88373172 -0.15902981
-0.22093296 -0.92055392 -0.15902981
-0.18706769 0.9353385 -0.12946081
-0.18706769 0.89792478 -0.1294609
-0.18706769 0.8605113 -0.12946096
-0.18706769 0.82309783 -0.12946075
-0.18706769 0.78568423 -0.12946084
-0.18706769 0.74827081 -0.12946078
-0.18706769 0.71085721 -0.12946078
-0.18706769 0.67344368 -0.12946084
-0.18706769 0.63603014 -0.12946087
-0.18706769 0.59861654 -0.12946089
-0.18706769 0.561203 -0.12946081
-0.18706769 0.52378958 -0.12946075
-0.18706769 0.48637593 -0.12946086
-0.18706769 0.44896245 -0.12946081
-0.18706769 0.41154891 -0.12946084
-0.18706769 0.3741354 -0.12946077
-0.18706769 0.3367219 -0.12946086
-0.18706769 0.29930827 -0.12946081
-0.18706769 0.26189476 -0.12946074
-0.18706769 0.22448121 -0.12946078
-0.18706769 0.18706767 -0.12946083
-0.18706769 0.14965412 -0.12946087
-0.18706769 0.11224066 -0.12946083
-0.18706769 0.074827105 -0.12946071
-0.18706769 0.037413485 -0.12946084
-0.18706769 2.2351742e-08 -0.1294608
-0.18706769 -0.037413523 -0.12946084
-0.18706769 -0.074826993 -0.1294608
-0.18706769 -0.11224061 -0.12946093
-0.18706769 -0.14965416 -0.12946081
-0.18706769 -0.18706763 -0.12946077
-0.18706769 -0.22448125 -0.1294609
-0.18706769 -0.2618947 -0.12946086
-0.18706769 -0.29930836 -0.12946083
-0.18706769 -0.33672181 -0.12946078
-0.18706769 -0.37413538 -0.12946084
-0.18706769 -0.41154897 -0.1294608
-0.18706769 -0.44896245 -0.12946074
-0.18706769 -0.48637599 -0.12946081
-0.18706769 -0.52378953 -0.12946084
-0.18706769 -0.56120306 -0.12946087
-0.18706769 -0.59861654 -0.12946086
-0.18706769 -0.63603008 -0.12946072
-0.18706769 -0.67344373 -0.12946084
-0.18706769 -0.71085721 -0.12946084
-0.18706769 -0.74827069 -0.12946081
-0.18706769 -0.78568423 -0.12946087
-0.18706769 -0.82309771 -0.12946087
-0.18706769 -0.86051136 -0.12946081
-0.18706769 -0.89792478 -0.1294609
-0.18706769 -0.93533838 -0.1294609
-0.1520969 0.91258144 -0.098926455
-0.1520969 0.87455714 -0.098926514
-0.1520969 0.83653283 -0.098926574
-0.1520969 0.7985087 -0.098926455
-0.1520969 0.76048446 -0.098926514
-0.1520969 0.72246015 -0.098926574
-0.1520969 0.68443602 -0.098926514
-0.1520969 0.64641178 -0.098926574
-0.1520969 0.60838759 -0.098926544
-0.1520969 0.57036334 -0.098926663
-0.1520969 0.5323391 -0.098926619
-0.1520969 0.49431491 -0.098926589
-0.1520969 0.45629072 -0.098926574
-0.1520969 0.41826648 -0.098926544
-0.1520969 0.38024229 -0.098926544
-0.1520969 0.3422181 -0.098926507
-0.1520969 0.30419374 -0.098926529
-0.1520969 0.26616952 -0.098926492
-0.1520969 0.2281453 -0.098926455
-0.1520969 0.19012108 -0.098926589
-0.1520969 0.15209687 -0.098926544
-0.1520969 0.11407266 -0.098926514
-0.1520969 0.076048359 -0.098926567
-0.1520969 0.038024139 -0.098926529
-0.1520969 7.4505806e-09 -0.098926574
-0.1520969 -0.038024284 -0.098926626
-0.1520969 -0.076048508 -0.098926589
-0.1520969 -0.11407256 -0.098926544
-0.1520969 -0.15209678 -0.098926514
-0.1520969 -0.19012107 -0.098926574
-0.1520969 -0.2281453 -0.098926529
-0.1520969 -0.26616952 -0.098926499
-0.1520969 -0.30419374 -0.098926626
-0.1520969 -0.34221792 -0.098926589
-0.1520969 -0.38024217 -0.098926559
-0.1520969 -0.41826648 -0.098926604
-0.1520969 -0.45629066 -0.098926574
-0.1520969 -0.49431491 -0.098926544
-0.1520969 -0.5323391 -0.098926678
-0.1520969 -0.57036334 -0.098926619
-0.1520969 -0.60838759 -0.098926604
-0.1520969 -0.64641178 -0.098926574
-0.1520969 -0.68443602 -0.098926574
-0.1520969 -0.72246027 -0.098926544
-0.1520969 -0.76048434 -0.098926574
-0.1520969 -0.79850864 -0.098926604
-0.1520969 -0.83653283 -0.098926544
-0.1520969 -0.87455714 -0.098926574
-0.1520969 -0.91258132 -0.098926514
-0.11596553 0.92772418 -0.067378968
-0.11596553 0.88906908 -0.067378879
-0.11596553 0.8504138 -0.067378968
-0.11596553 0.81175864 -0.067378998
-0.11596553 0.77310348 -0.067378998
-0.11596553 0.73444843 -0.067378879
-0.11596553 0.69579327 -0.067378879
-0.11596553 0.65713793 -0.067378938
-0.11596553 0.61848277 -0.067378998
-0.11596553 0.57982755 -0.067378968
-0.11596553 0.5411725 -0.067378879
-0.11596553 0.50251722 -0.067379013
-0.11596553 0.46386212 -0.067378938
-0.11596553 0.4252069 -0.067378923
-0.11596553 0.3865518 -0.067378998
-0.11596553 0.34789664 -0.067378893
-0.11596553 0.30924129 -0.067378923
-0.11596553 0.27058622 -0.067379028
-0.11596553 0.23193105 -0.067378886
-0.11596553 0.19327596 -0.067378983
-0.11596553 0.15462071 -0.067378923
-0.11596553 0.11596552 -0.067378953
-0.11596553 0.077310354 -0.067378975
-0.11596553 0.038655184 -0.067378998
-0.11596553 8.9406967e-08 -0.067378923
-0.11596553 -0.038655251 -0.067378968
-0.11596553 -0.077310421 -0.06737899
-0.11596553 -0.11596552 -0.067378923
-0.11596553 -0.15462068 -0.067378938
-0.11596553 -0.19327587 -0.067378968
-0.11596553 -0.23193103 -0.06737899
-0.11596553 -0.27058628 -0.067378931
-0.11596553 -0.30924129 -0.067378946
-0.11596553 -0.34789658 -0.067378893
-0.11596553 -0.3865518 -0.067378998
-0.11596553 -0.4252069 -0.067378938
-0.11596553 -0.46386218 -0.067378879
-0.11596553 -0.50251722 -0.067378998
-0.11596553 -0.5411725 -0.067378938
-0.11596553 -0.57982755 -0.067379028
-0.11596553 -0.61848283 -0.067378968
-0.11596553 -0.65713799 -0.067378908
-0.11596553 -0.69579315 -0.067378938
-0.11596553 -0.73444843 -0.067378938
-0.11596553 -0.77310348 -0.067378998
-0.11596553 -0.81175876 -0.067378938
-0.11596553 -0.85041392 -0.067378938
-0.11596553 -0.88906908 -0.067378849
-0.11596553 -0.92772412 -0.067379028
-0.078614838 0.90407062 -0.034766734
-0.078614838 0.86476314 -0.034766853
-0.078614838 0.82545578 -0.034766734
-0.078614838 0.78614843 -0.034766585
-0.078614838 0.74684101 -0.034766704
-0.078614838 0.7075336 -0.034766704
-0.078614838 0.66822612 -0.034766644
-0.078614838 0.62891865 -0.034766823
-0.078614838 0.58961129 -0.034766704
-0.078614838 0.55030382 -0.034766823
-0.078614838 0.51099646 -0.034766704
-0.078614838 0.47168908 -0.034766674
-0.078614838 0.43238169 -0.034766659
-0.078614838 0.39307415 -0.034766719
-0.078614838 0.35376683 -0.034766763
-0.078614838 0.31445938 -0.034766719
-0.078614838 0.27515197 -0.034766689
-0.078614838 0.23584454 -0.034766816
-0.078614838 0.19653702 -0.034766689
-0.078614838 0.15722969 -0.034766734
-0.078614838 0.11792234 -0.034766771
-0.078614838 0.078614742 -0.034766741
-0.078614838 0.039307397 -0.034766782
-0.078614838 5.5879354e-08 -0.034766823
-0.078614838 -0.039307389 -0.034766614
-0.078614838 -0.078614809 -0.034766749
-0.078614838 -0.11792224 -0.034766708
-0.078614838 -0.15722966 -0.034766667
-0.078614838 -0.19653702 -0.034766704
-0.078614838 -0.23584452 -0.034766756
-0.078614838 -0.27515197 -0.034766711
-0.078614838 -0.31445938 -0.034766689
-0.078614838 -0.35376674 -0.034766719
-0.078614838 -0.39307424 -0.034766778
-0.078614838 -0.43238166 -0.034766734
-0.078614838 -0.47168905 -0.034766778
-0.078614838 -0.51099646 -0.034766734
-0.078614838 -0.55030394 -0.034766793
-0.078614838 -0.58961123 -0.034766734
-0.078614838 -0.62891877 -0.034766614
-0.078614838 -0.66822606 -0.034766674
-0.078614838 -0.70753348 -0.034766793
-0.078614838 -0.74684101 -0.034766674
-0.078614838 -0.78614837 -0.034766704
-0.078614838 -0.82545578 -0.034766644
-0.078614838 -0.86476314 -0.034766734
-0.078614838 -0.90407062 -0.034766763
-0.039982054 0.91958714 -0.0010351837
-0.039982054 0.87960523 -0.0010350049
-0.039982054 0.83962315 -0.0010349154
-0.039982054 0.79964101 -0.0010350943
-0.039982054 0.75965893 -0.0010350943
-0.039982054 0.71967697 -0.0010350049
-0.039982054 0.67969489 -0.0010350943
-0.039982054 0.63971281 -0.0010350049
-0.039982054 0.59973073 -0.0010351241
-0.039982054 0.55974877 -0.0010350049
-0.039982054 0.51976669 -0.0010350049
-0.039982054 0.47978461 -0.0010350645
-0.039982054 0.43980268 -0.00103499
-0.039982054 0.39982057 -0.0010350645
-0.039982054 0.35983855 -0.0010350794
-0.039982054 0.31985646 -0.0010350198
-0.039982054 0.27987438 -0.0010349751
-0.039982054 0.23989232 -0.0010350794
-0.039982054 0.19991031 -0.0010349303
-0.039982054 0.15992823 -0.0010350421
-0.039982054 0.11994614 -0.0010349825
-0.039982054 0.079964146 -0.0010350049
-0.039982054 0.039982144 -0.0010350253
-0.039982054 -1.9848812e-08 -0.001035057
-0.039982054 -0.039982017 -0.0010350756
-0.039982054 -0.079964101 -0.0010350198
-0.039982054 -0.11994627 -0.0010350496
-0.039982054 -0.15992819 -0.0010349825
-0.039982054 -0.19991025 -0.0010350868
-0.039982054 -0.23989227 -0.0010351092
-0.039982054 -0.27987435 -0.0010350496
-0.039982054 -0.31985644 -0.00103499
-0.039982054 -0.35983852 -0.0010351092
-0.039982054 -0.39982051 -0.0010349602
-0.039982054 -0.43980259 -0.0010350794
-0.039982054 -0.47978458 -0.0010350943
-0.039982054 -0.51976669 -0.0010350347
-0.039982054 -0.55974865 -0.0010350347
-0.039982054 -0.59973085 -0.0010350943
-0.039982054 -0.63971281 -0.0010350347
-0.039982054 -0.67969489 -0.0010350347
-0.039982054 -0.71967703 -0.0010350049
-0.039982054 -0.75965911 -0.0010349154
-0.039982054 -0.79964101 -0.0010350347
-0.039982054 -0.83962303 -0.0010350943
-0.039982054 -0.87960523 -0.0010350049
-0.039982054 -0.91958719 -0.0010350943
0 0.9356457 0.03387472
0 0.89496547 0.03387475
0 0.85428524 0.03387472
0 0.81360501 0.03387478
0 0.77292478 0.03387481
0 0.73224449 0.03387484
0 0.6915642 0.033874691
0 0.65088397 0.033874691
0 0.61020374 0.03387472
0 0.56952345 0.03387478
0 0.52884322 0.03387481
0 0.48816299 0.033874705
0 0.44748271 0.03387481
0 0.40680254 0.033874765
0 0.36612225 0.033874705
0 0.32544202 0.03387475
0 0.28476179 0.033874795
0 0.24408145 0.033874728
0 0.20340121 0.033874765
0 0.16272098 0.03387481
0 0.12204083 0.033874765
0 0.081360519 0.033874713
0 0.040680192 0.033874828
0 4.2840838e-08 0.033874784
0 -0.040680274 0.033874732
0 -0.081360511 0.033874772
0 -0.12204066 0.033874732
0 -0.16272098 0.033874847
0 -0.2034013 0.033874787
0 -0.24408144 0.03387475
0 -0.28476167 0.033874787
0 -0.32544202 0.033874735
0 -0.36612225 0.033874765
0 -0.40680248 0.03387481
0 -0.44748279 0.03387475
0 -0.48816293 0.03387472
0 -0.52884316 0.033874765
0 -0.56952339 0.03387481
0 -0.61020374 0.03387472
0 -0.65088391 0.03387478
0 -0.6915642 0.03387481
0 -0.73224437 0.033874661
0 -0.77292478 0.03387481
0 -0.81360489 0.03387475
0 -0.85428518 0.03387475
0 -0.89496565 0.03387484
0 -0.9356457 0.03387475
0.041403264 0.91087186 0.070025593
0.041403264 0.86946851 0.070025444
0.041403264 0.82806528 0.070025444
0.041403264 0.78666198 0.070025533
0.041403264 0.74525881 0.070025533
0.041403264 0.7038554 0.070025414
0.041403264 0.66245222 0.070025444
0.041403264 0.62104893 0.070025474
0.041403264 0.57964569 0.070025414
0.041403264 0.53824246 0.070025459
0.041403264 0.49683917 0.070025429
0.041403402 0.45543736 0.070032224
0.041403402 0.41403398 0.070032239
0.041403402 0.3726306 0.07003212
0.041403402 0.33122724 0.070032239
0.041403402 0.28982377 0.070032172
0.041403402 0.24842036 0.070032209
0.041403402 0.20701703 0.070032336
0.041403402 0.16561364 0.070032194
0.041403402 0.12421024 0.070032232
0.041403402 0.082806751 0.070032172
0.041403402 0.041403424 0.070032299
0.041403402 -5.9604645e-08 0.070032239
0.041403402 -0.041403376 0.070032202
0.041403402 -0.082806788 0.070032232
0.041403402 -0.12421019 0.070032269
0.041403402 -0.16561367 0.070032209
0.041403402 -0.20701699 0.070032164
0.041403402 -0.24842039 0.070032202
0.041403402 -0.2898238 0.070032232
0.041403402 -0.33122712 0.070032194
0.041403402 -0.37263063 0.070032299
0.041403402 -0.41403392 0.070032254
0.041403402 -0.45543742 0.070032179
0.041403402 -0.49684072 0.070032164
0.041403402 -0.53824413 0.070032179
0.041403402 -0.5796476 0.070032313
0.041403402 -0.62105101 0.070032179
0.041403402 -0.66245437 0.070032299
0.041403402 -0.70385784 0.070032239
0.041403402 -0.74526119 0.070032179
0.041403402 -0.78666461 0.070032209
0.041403402 -0.82806802 0.070032328
0.041403402 -0.86947131 0.070032179
0.041403402 -0.91087484 0.070032239
0.084304884 0.92735362 0.10748437
0.084304884 0.88520122 0.10748434
0.084304884 0.84304881 0.10748434
0.084304884 0.80089641 0.10748431
0.084304884 0.75874394 0.10748431
0.084304884 0.7165916 0.10748452
0.084304884 0.67443919 0.10748449
0.084304884 0.63228655 0.10748431
0.084304884 0.59013414 0.1074843
0.084304884 0.54798162 0.10748431
0.084304884 0.50582933 0.1074844
0.084304884 0.46367681 0.10748442
0.084304884 0.42152441 0.10748442
0.084304884 0.37937203 0.10748447
0.084304884 0.33721951 0.10748438
0.084304884 0.29506707 0.10748435
0.084304884 0.25291461 0.1074845
0.084304884 0.2107622 0.10748449
0.084304884 0.16860968 0.10748439
0.084304884 0.12645724 0.10748438
0.084304884 0.084304877 0.10748445
0.084304884 0.042152446 0.10748444
0.084304884 -7.0780516e-08 0.10748433
0.084304884 -0.042152427 0.10748441
0.084304884 -0.084304862 0.10748439
0.084304884 -0.1264573 0.10748438
0.084304884 -0.16860983 0.10748444
0.084304884 -0.21076226 0.10748443
0.084304884 -0.2529147 0.10748441
0.084304884 -0.29506704 0.1074845
0.084304884 -0.33721957 0.10748439
0.084304884 -0.379372 0.10748437
0.084304884 -0.42152447 0.10748436
0.084304884 -0.46367681 0.10748442
0.084304884 -0.50582933 0.10748431
0.084304884 -0.54798186 0.10748439
0.084304884 -0.5901342 0.10748446
0.084304884 -0.63228667 0.10748443
0.084304884 -0.67443913 0.10748437
0.084304884 -0.71659142 0.10748434
0.084304884 -0.75874394 0.1074844
0.084304884 -0.80089641 0.10748449
0.084304884 -0.84304869 0.10748428
0.084304884 -0.88520133 0.10748446
0.084304884 -0.92735356 0.10748428
0.1287877 0.90151381 0.14632389
0.1287877 0.85858464 0.14632395
0.1287877 0.81565529 0.14632383
0.1287877 0.77272618 0.14632386
0.1287877 0.72979695 0.14632395
0.1287877 0.68686783 0.14632398
0.1287877 0.64393848 0.14632389
0.1287877 0.60100931 0.14632393
0.1287877 0.5580799 0.14632389
0.1287877 0.51515067 0.14632387
0.1287877 0.47222149 0.1463238
0.1287877 0.42929238 0.14632398
0.1287877 0.38636309 0.14632398
0.1287877 0.34343392 0.1463239
0.12878813 0.30050579 0.14633125
0.12878813 0.25757623 0.14633133
0.12878813 0.21464688 0.14633124
0.12878813 0.1717176 0.14633124
0.12878813 0.12878807 0.14633131
0.12878813 0.085858792 0.14633131
0.12878813 0.042929433 0.14633122
0.12878813 -2.2351742e-08 0.14633137
0.12878813 -0.042929381 0.14633128
0.12878813 -0.085858732 0.14633119
0.12878813 -0.1287881 0.14633128
0.12878813 -0.17171755 0.14633127
0.12878813 -0.21464683 0.14633127
0.12878813 -0.25757629 0.14633125
0.12878813 -0.30050564 0.14633134
0.12878813 -0.34343499 0.14633125
0.12878813 -0.38636434 0.14633115
0.12878813 -0.42929381 0.14633133
0.12878813 -0.47222316 0.14633124
0.12878813 -0.51515245 0.14633124
0.12878813 -0.55808198 0.1463313
0.12878813 -0.60101128 0.1463313
0.12878813 -0.64394069 0.1463313
0.12878813 -0.68687016 0.14633128
0.12878813 -0.72979945 0.14633128
0.12878813 -0.7727288 0.14633119
0.12878813 -0.81565821 0.14633128
0.12878813 -0.8585875 0.14633119
0.12878813 -0.90151697 0.14633134
0.17494076 0.91843903 0.18662179
0.17494076 0.87470388 0.1866219
0.17494076 0.83096868 0.1866219
0.17494076 0.78723347 0.18662181
0.17494076 0.74349833 0.18662199
0.17494076 0.69976312 0.18662187
0.17494076 0.65602785 0.18662189
0.17494076 0.61229265 0.1866218
0.17494076 0.56855762 0.18662192
0.17494076 0.52482224 0.18662181
0.17494076 0.48108697 0.18662179
0.17494076 0.43735194 0.18662187
0.17494076 0.39361674 0.18662179
0.17494138 0.34988266 0.18662938
0.17494138 0.30614746 0.18662944
0.17494076 0.26241115 0.18662184
0.17494076 0.21867587 0.18662183
0.17494076 0.17494076 0.18662183
0.17494076 0.13120557 0.18662174
0.17494076 0.087470368 0.18662181
0.17494076 0.043735169 0.18662187
0.17494076 -1.4901161e-08 0.18662179
0.17494076 -0.043735214 0.18662187
0.17494076 -0.087470397 0.18662177
0.17494076 -0.1312056 0.18662184
0.17494076 -0.17494079 0.18662176
0.17494076 -0.21867599 0.18662183
0.17494076 -0.26241118 0.1866219
0.17494076 -0.30614638 0.18662181
0.17494076 -0.3498815 0.18662181
0.17494076 -0.39361677 0.18662179
0.17494076 -0.43735188 0.18662179
0.17494076 -0.48108709 0.18662186
0.17494076 -0.52482235 0.18662186
0.17494076 -0.5685575 0.18662183
0.17494076 -0.61229265 0.18662176
0.17494076 -0.65602791 0.1866219
0.17494076 -0.69976312 0.18662181
0.17494076 -0.74349815 0.18662173
0.17494076 -0.78723359 0.18662196
0.17494076 -0.83096856 0.18662173
0.17494076 -0.87470388 0.18662187
0.17494076 -0.91843903 0.18662176
0.22285995 0.93601179 0.22846192
0.22285995 0.8914398 0.22846183
0.22285995 0.84686792 0.22846192
0.22285995 0.8022958 0.22846183
0.22285995 0.75772393 0.22846192
0.22285995 0.71315187 0.22846186
0.22285995 0.66857994 0.22846194
0.22285995 0.62400794 0.22846186
0.22285995 0.57943606 0.22846192
0.22285995 0.53486395 0.22846192
0.22285995 0.49029189 0.2284618
0.22285995 0.44571993 0.22846177
0.22285995 0.40114778 0.22846177
0.22285995 0.35657594 0.22846185
0.22286075 0.31200507 0.2284697
0.22285995 0.26743186 0.22846182
0.22285995 0.22285987 0.2284618
0.22285995 0.17828791 0.2284618
0.22286075 0.13371648 0.2284697
0.22286075 0.089144349 0.22846967
0.22286075 0.044572219 0.22846964
0.22286075 -7.4505806e-09 0.2284697
0.22286075 -0.04457213 0.22846967
0.22286075 -0.08914426 0.22846965
0.22286075 -0.13371639 0.22846964
0.22286075 -0.17828861 0.2284697
0.22286075 -0.22286075 0.22846965
0.22286075 -0.26743287 0.22846964
0.22286075 -0.31200492 0.2284697
0.22286075 -0.35657713 0.22846977
0.22286075 -0.40114927 0.22846976
0.22286075 -0.44572139 0.22846973
0.22286075 -0.49029353 0.22846968
0.22286075 -0.53486562 0.22846967
0.22286075 -0.57943797 0.2284698
0.22286075 -0.62401009 0.22846979
0.22286075 -0.6685822 0.22846976
0.22286075 -0.71315432 0.22846974
0.22286075 -0.75772649 0.22846973
0.22286075 -0.80229872 0.22846958
0.22286075 -0.84687102 0.22846976
0.22286075 -0.89144313 0.22846973
0.22286075 -0.93601519 0.22846982
0.2726486 0.90882874 0.27193406
0.2726486 0.86338723 0.27193406
0.2726486 0.81794596 0.27193421
0.2726486 0.77250445 0.27193418
0.2726486 0.72706288 0.27193397
0.2726486 0.68162149 0.27193415
0.2726486 0.63618016 0.27193403
0.2726486 0.59073865 0.27193403
0.2726486 0.54529732 0.27193421
0.2726486 0.49985588 0.27193415
0.2726486 0.45441419 0.27193403
0.2726486 0.40897298 0.27193424
0.2726486 0.36353141 0.27193415
0.2726486 0.31809008 0.27193403
0.2726486 0.27264878 0.27193415
0.2726486 0.22720718 0.27193409
0.27264962 0.18176639 0.27194229
0.27264962 0.13632481 0.27194223
0.27264962 0.09088327 0.27194226
0.27264962 0.045441583 0.27194226
0.27264962 4.4703484e-08 0.27194229
0.27264962 -0.045441553 0.2719422
0.27264962 -0.090883173 0.27194232
0.27264962 -0.13632478 0.27194226
0.27264962 -0.18176645 0.27194226
0.27264962 -0.227208 0.27194232
0.27264962 -0.27264962 0.27194223
0.27264962 -0.31809121 0.27194235
0.27264962 -0.36353278 0.27194226
0.27264962 -0.40897432 0.27194229
0.27264962 -0.45441601 0.27194232
0.27264962 -0.49985763 0.27194223
0.27264962 -0.54529917 0.27194226
0.27264962 -0.59074074 0.2719422
0.27264962 -0.63618237 0.27194232
0.27264962 -0.68162388 0.27194214
0.27264962 -0.72706556 0.27194235
0.27264962 -0.77250719 0.27194226
0.27264962 -0.81794882 0.27194223
0.27264962 -0.86339033 0.27194223
0.27264962 -0.90883207 0.27194244
0.32441834 0.92690957 0.31713608
0.32441834 0.88056397 0.31713617
0.32441834 0.83421862 0.31713608
0.32441834 0.78787303 0.31713608
0.32441834 0.74152756 0.31713605
0.32441834 0.6951822 0.31713623
0.32441834 0.64883661 0.31713605
0.32441834 0.60249114 0.31713599
0.32441834 0.55614567 0.31713599
0.32441834 0.5098002 0.3171362
0.32441834 0.46345472 0.3171362
0.32441834 0.41710937 0.31713611
0.32441834 0.37076393 0.31713614
0.32441834 0.32441828 0.31713614
0.32441834 0.2780728 0.31713611
0.32441834 0.2317273 0.31713611
0.32441834 0.18538183 0.31713605
0.32441953 0.13903698 0.31714463
0.32441953 0.09269134 0.3171446
0.32441953 0.046345755 0.31714466
0.32441953 -5.9604645e-08 0.3171446
0.32441953 -0.046345621 0.31714466
0.32441953 -0.09269128 0.31714463
0.32441953 -0.13903694 0.3171446
0.32441953 -0.18538257 0.31714457
0.32441953 -0.23172826 0.31714469
0.32441953 -0.27807391 0.31714466
0.32441953 -0.32441956 0.31714463
0.32441953 -0.37076512 0.31714469
0.32441953 -0.41711086 0.31714454
0.32441953 -0.46345651 0.31714469
0.32441953 -0.50980216 0.31714466
0.32441953 -0.55614775 0.31714469
0.32441953 -0.60249346 0.3171446
0.32441953 -0.64883906 0.31714463
0.32441953 -0.69518465 0.31714469
0.32441953 -0.74153036 0.3171446
0.32441953 -0.78787613 0.31714481
0.32441953 -0.83422172 0.31714478
0.32441953 -0.88056743 0.31714475
0.32441953 -0.92691308 0.31714466
0.37828973 0.89843822 0.36417323
0.37828973 0.85115188 0.36417311
0.37828973 0.80386567 0.36417323
0.37828973 0.75657946 0.36417317
0.37828973 0.70929313 0.36417305
0.37828973 0.66200715 0.36417335
0.37828973 0.61472082 0.36417329
0.37828973 0.56743455 0.3641732
0.37828973 0.52014846 0.36417332
0.37828973 0.47286212 0.36417323
0.37828973 0.42557594 0.36417305
0.37828973 0.37828979 0.36417317
0.37828973 0.33100352 0.36417308
0.37828973 0.28371727 0.36417311
0.37828973 0.23643115 0.36417323
0.37828973 0.18914494 0.36417323
0.37828973 0.14185873 0.36417323
0.37828973 0.094572425 0.36417317
0.37828973 0.047286212 0.36417317
0.37829116 -5.9604645e-08 0.36418205
0.37829116 -0.047286287 0.36418208
0.37829116 -0.094572738 0.364182
0.37829116 -0.14185911 0.364182
0.37829116 -0.18914559 0.36418208
0.37829116 -0.23643199 0.36418208
0.37829116 -0.28371835 0.36418205
0.37829116 -0.33100474 0.36418208
0.37829116 -0.37829113 0.36418208
0.37829116 -0.42557752 0.36418208
0.37829116 -0.47286397 0.364182
0.37829116 -0.52015018 0.364182
0.37829116 -0.56743664 0.36418208
0.37829116 -0.61472321 0.36418205
0.37829116 -0.66200948 0.364182
0.37829116 -0.70929599 0.36418208
0.37829116 -0.7565822 0.36418211
0.37829116 -0.80386877 0.36418205
0.37829116 -0.85115504 0.364182
0.37829116 -0.89844155 0.36418208
0.4343935 0.91705298 0.4131594
0.4343935 0.86878693 0.4131594
0.4343935 0.820521 0.41315937
0.4343935 0.77225506 0.41315937
0.4343935 0.72398913 0.41315943
0.4343935 0.6757232 0.41315937
0.4343935 0.62745726 0.41315943
0.4343935 0.57919133 0.41315937
0.4343935 0.53092539 0.41315937
0.4343935 0.4826594 0.4131594
0.4343935 0.43439353 0.41315937
0.4343935 0.38612753 0.41315943
0.4343935 0.33786151 0.41315946
0.4343935 0.28959569 0.41315937
0.4343935 0.24132964 0.41315931
0.4343935 0.19306381 0.41315937
0.4343935 0.1447978 0.41315943
0.4343935 0.096531898 0.41315937
0.4343935 0.048266008 0.41315937
0.4343935 -0 0.4131594
0.43439513 -0.048266083 0.41316867
0.43439513 -0.096532226 0.41316852
0.43439513 -0.14479832 0.41316867
0.43439513 -0.19306448 0.41316867
0.43439513 -0.24133071 0.41316861
0.43439513 -0.28959674 0.41316867
0.43439513 -0.33786288 0.4131687
0.43439513 -0.38612902 0.41316858
0.43439513 -0.43439513 0.4131687
0.43439513 -0.48266119 0.41316864
0.43439513 -0.53092748 0.41316861
0.43439513 -0.57919353 0.41316873
0.43439513 -0.62745953 0.41316861
0.43439513 -0.67572576 0.41316855
0.43439513 -0.72399181 0.41316867
0.43439513 -0.77225798 0.41316873
0.43439513 -0.82052404 0.41316849
0.43439513 -0.86879015 0.41316861
0.43439513 -0.91705644 0.41316855
0.49287125 0.93645537 0.46421847
0.49287125 0.88716811 0.46421835
0.49287125 0.83788115 0.46421844
0.49287125 0.78859413 0.46421844
0.49287125 0.73930669 0.46421835
0.49287125 0.69001979 0.4642185
0.49287125 0.64073253 0.46421835
0.49287125 0.59144545 0.46421832
0.49287125 0.54215848 0.46421853
0.49287125 0.49287114 0.46421838
0.49287125 0.44358402 0.46421838
0.49287125 0.39429709 0.46421856
0.49287125 0.34500983 0.46421838
0.49287125 0.29572272 0.46421838
0.49287125 0.24643576 0.46421856
0.49287125 0.1971485 0.46421835
0.49287125 0.14786133 0.46421844
0.49287125 0.098574311 0.4642185
0.49287125 0.04928714 0.46421844
0.49287316 -1.4901161e-08 0.46422806
0.49287316 -0.049287289 0.46422803
0.49287316 -0.098574638 0.46422809
0.49287316 -0.1478619 0.46422809
0.49287316 -0.19714929 0.46422815
0.49287316 -0.24643663 0.46422803
0.49287316 -0.29572383 0.46422812
0.49287316 -0.34501123 0.46422809
0.49287316 -0.39429861 0.46422815
0.49287316 -0.44358578 0.46422803
0.49287316 -0.49287313 0.46422809
0.49287316 -0.54216045 0.464228
0.49287316 -0.59144759 0.464228
0.49287316 -0.64073509 0.46422797
0.49287316 -0.69002241 0.46422803
0.49287316 -0.73930961 0.46422797
0.49287316 -0.78859693 0.464228
0.49287316 -0.83788437 0.46422797
0.49287316 -0.88717169 0.46422812
0.55387694 0.90634412 0.51748466
0.55387694 0.8559916 0.51748466
0.55387694 0.80563921 0.51748472
0.55387694 0.75528657 0.51748461
0.55387694 0.70493424 0.51748472
0.55387694 0.6545819 0.51748472
0.55387694 0.60422933 0.51748478
0.55387694 0.55387694 0.51748478
0.55387694 0.50352454 0.51748472
0.55387694 0.45317203 0.51748478
0.55387694 0.4028196 0.51748478
0.55387694 0.35246703 0.51748461
0.55387694 0.3021147 0.51748484
0.55387694 0.25176236 0.51748472
0.55387694 0.20140979 0.51748455
0.55387694 0.15105745 0.51748478
0.55387694 0.10070488 0.51748461
0.55387694 0.050352544 0.51748466
0.55387694 2.9802322e-08 0.51748478
0.55387914 -0.050352633 0.51749486
0.55387914 -0.1007053 0.51749492
0.55387914 -0.15105796 0.5174948
0.55387914 -0.20141055 0.51749474
0.55387914 -0.25176322 0.5174948
0.55387914 -0.30211589 0.51749486
0.55387914 -0.35246855 0.51749474
0.55387914 -0.40282121 0.5174948
0.55387914 -0.45317382 0.51749474
0.55387914 -0.50352639 0.51749474
0.55387914 -0.55387932 0.51749486
0.55387914 -0.60423183 0.51749474
0.55387914 -0.65458453 0.5174948
0.55387914 -0.70493716 0.5174948
0.55387914 -0.75528973 0.51749462
0.55387914 -0.80564243 0.51749468
0.55387914 -0.855995 0.5174948
0.55387914 -0.90634751 0.51749474
0.61757815 0.92636716 0.57310462
0.61757815 0.87490219 0.57310438
0.61757815 0.82343757 0.5731045
0.61757815 0.77197278 0.5731045
0.61757815 0.72050786 0.57310456
0.61757815 0.66904294 0.57310462
0.61757815 0.61757815 0.57310462
0.61757815 0.56611335 0.57310456
0.61757815 0.51464838 0.57310438
0.61757815 0.46318361 0.57310456
0.61757815 0.41171873 0.57310462
0.61757815 0.36025393 0.57310462
0.61757815 0.3087891 0.57310456
0.61757815 0.25732428 0.57310456
0.61757815 0.20585948 0.5731045
0.61757815 0.15439436 0.5731045
0.61757815 0.1029297 0.57310462
0.61757815 0.051464826 0.5731045
0.61757815 2.9802322e-08 0.5731045
0.61757815 -0.051464707 0.5731045
0.61757815 -0.10292977 0.57310462
0.61757815 -0.1543946 0.5731045
0.61758065 -0.20586018 0.57311511
0.61758065 -0.25732529 0.57311505
0.61758065 -0.30879039 0.57311511
0.61758065 -0.36025527 0.57311499
0.61758065 -0.4117204 0.57311493
0.61758065 -0.46318558 0.57311505
0.61758065 -0.51465058 0.57311499
0.61758065 -0.56611568 0.57311511
0.61758065 -0.61758065 0.57311505
0.61758065 -0.66904569 0.57311505
0.61758065 -0.72051072 0.57311487
0.61758065 -0.77197582 0.57311505
0.61758065 -0.82344103 0.57311517
0.61758065 -0.874906 0.57311511
0.61758065 -0.92637098 0.57311511
0.68415755 0.89466745 0.63123739
0.68415755 0.84204006 0.63123745
0.68415755 0.7894125 0.63123739
0.68415755 0.73678511 0.63123757
0.68415755 0.68415761 0.63123745
0.68415755 0.63153005 0.63123745
0.68415755 0.57890254 0.63123727
0.68415755 0.52627486 0.63123739
0.68415755 0.47364753 0.63123745
0.68415755 0.42102006 0.63123733
0.68415755 0.36839256 0.63123757
0.68415755 0.3157649 0.63123727
0.68415755 0.26313749 0.63123739
0.68415755 0.21051003 0.63123727
0.68415755 0.1578825 0.63123757
0.68415755 0.10525501 0.63123745
0.68415755 0.052627712 0.63123751
0.68415755 -1.1920929e-07 0.63123739
0.68415755 -0.052627534 0.63123739
0.68415755 -0.10525504 0.63123739
0.68415755 -0.15788244 0.63123739
0.68415755 -0.21051002 0.63123739
0.68416041 -0.26313859 0.63124841
0.68416041 -0.31576633 0.63124835
0.68416041 -0.36839402 0.63124841
0.68416041 -0.42102182 0.63124847
0.68416041 -0.4736495 0.63124835
0.68416041 -0.52627724 0.63124847
0.68416041 -0.57890493 0.63124835
0.68416041 -0.63153267 0.63124847
0.68416041 -0.68416047 0.63124853
0.68416041 -0.73678815 0.63124841
0.68416041 -0.7894159 0.63124847
0.68416041 -0.84204358 0.63124835
0.68416041 -0.89467126 0.63124853
0.7538147 0.91534644 0.69205773
0.7538147 0.86150253 0.69205761
0.7538147 0.80765861 0.69205755
0.7538147 0.75381464 0.69205743
0.7538147 0.69997078 0.69205767
0.7538147 0.64612693 0.69205761
0.7538147 0.59228289 0.69205755
0.7538147 0.53843898 0.69205749
0.7538147 0.48459521 0.69205755
0.7538147 0.43075117 0.69205755
0.7538147 0.37690723 0.69205743
0.7538147 0.32306337 0.69205761
0.7538147 0.26921964 0.69205767
0.7538147 0.21537568 0.69205761
0.7538147 0.16153176 0.69205755
0.7538147 0.10768789 0.69205773
0.7538147 0.053843886 0.69205767
0.7538147 -2.9802322e-08 0.69205761
0.7538147 -0.053843975 0.69205749
0.7538147 -0.10768774 0.69205761
0.7538147 -0.16153175 0.69205761
0.7538147 -0.21537578 0.69205755
0.7538147 -0.26921955 0.69205761
0.7538147 -0.3230634 0.69205767
0.7538147 -0.37690741 0.69205767
0.75381792 -0.43075311 0.69206917
0.75381792 -0.48459721 0.69206911
0.75381792 -0.53844148 0.69206911
0.75381792 -0.59228528 0.69206893
0.75381792 -0.64612949 0.69206911
0.75381792 -0.69997376 0.69206917
0.75381792 -0.75381792 0.69206905
0.75381792 -0.80766219 0.69206911
0.75381792 -0.86150622 0.69206905
0.75381792 -0.91535038 0.69206923
0.8267681 0.93700385 0.75575584
0.8267681 0.88188601 0.7557559
0.8267681 0.82676798 0.75575578
0.8267681 0.77165025 0.75575584
0.8267681 0.71653235 0.7557559
0.8267681 0.6614145 0.75575602
0.8267681 0.6062966 0.75575584
0.8267681 0.55117875 0.7557559
0.8267681 0.49606079 0.75575572
0.8267681 0.44094297 0.75575584
0.8267681 0.38582495 0.75575572
0.8267681 0.33070719 0.75575578
0.8267681 0.27558941 0.75575578
0.8267681 0.22047147 0.7557559
0.8267681 0.16535357 0.75575578
0.8267681 0.11023578 0.75575578
0.8267681 0.055117935 0.75575584
0.8267681 8.9406967e-08 0.7557559
0.8267681 -0.055117935 0.75575584
0.8267681 -0.11023569 0.75575584
0.8267681 -0.16535363 0.75575584
0.8267681 -0.22047141 0.7557559
0.8267681 -0.27558941 0.75575578
0.8267681 -0.33070734 0.7557559
0.8267681 -0.38582492 0.75575584
0.8267681 -0.44094303 0.75575578
0.82677174 -0.49606299 0.75576782
0.82677174 -0.55118114 0.75576782
0.82677174 -0.60629916 0.75576788
0.82677174 -0.66141725 0.75576782
0.82677174 -0.71653551 0.755768
0.82677174 -0.77165341 0.75576782
0.82677174 -0.82677174 0.75576794
0.82677174 -0.88188964 0.75576776
