# .PCD v0.7 - Point Cloud Data file format
VERSION 0.7
FIELDS x y z
SIZE 4 4 4
TYPE F F F
COUNT 1 1 1
WIDTH 1351
HEIGHT 1
VIEWPOINT 0 0 0 1 0 0 0
POINTS 1351
DATA ascii
-0.94275534 0.14503932 -0.18714663
-0.91212463 0.18242495 -0.17588845
-0.91212463 0.14593996 -0.17588842
-0.91212463 0.10945505 -0.17588845
-0.88111109 0.18356481 -0.16448966
-0.88111109 0.14685187 -0.16448958
-0.88111109 0.11013885 -0.1644896
-0.88111109 0.073425904 -0.16448969
-0.88111109 0.036712959 -0.16448963
-0.8497076 0.22166283 -0.15294744
-0.8497076 0.18471906 -0.15294738
-0.8497076 0.1477752 -0.15294741
-0.8497076 0.11083134 -0.15294743
-0.8497076 0.073887646 -0.15294728
-0.8497076 0.03694379 -0.15294731
-0.84971005 -3.7252903e-08 -0.152942
-0.81790662 0.22306538 -0.14125915
-0.81790662 0.18588781 -0.14125906
-0.81790662 0.14871027 -0.14125913
-0.81790662 0.1115327 -0.14125906
-0.81790662 0.074355215 -0.14125904
-0.817909 0.037177682 -0.14125362
-0.817909 3.7252903e-08 -0.14125364
-0.817909 -0.037177611 -0.14125364
-0.817909 -0.074355349 -0.14125356
-0.78570062 0.26190025 -0.12942186
-0.78570062 0.22448596 -0.12942189
-0.78570062 0.18707147 -0.12942192
-0.78570062 0.14965726 -0.12942201
-0.785703 0.1122433 -0.12941635
-0.785703 0.074828833 -0.12941638
-0.785703 0.037414353 -0.12941641
-0.785703 4.4703484e-08 -0.12941642
-0.785703 -0.037414428 -0.12941645
-0.785703 -0.074828915 -0.12941632
-0.785703 -0.1122433 -0.12941642
-0.75308186 0.26357862 -0.11743309
-0.75308186 0.22592461 -0.11743301
-0.75308186 0.18827051 -0.11743303
-0.75308412 0.15061684 -0.11742742
-0.75308412 0.11296267 -0.11742752
-0.75308412 0.075308412 -0.11742755
-0.75308412 0.037654132 -0.11742739
-0.75308412 3.7252903e-08 -0.11742741
-0.75308412 -0.037654221 -0.11742743
-0.75308412 -0.075308487 -0.11742745
-0.75308412 -0.11296267 -0.11742739
-0.75308412 -0.15061685 -0.11742749
-0.75308639 -0.18827161 -0.11742188
-0.72004229 0.30317563 -0.1052895
-0.72004229 0.26527873 -0.10528956
-0.72004229 0.22738171 -0.10528955
-0.72004449 0.18948537 -0.10528398
-0.72004449 0.15158828 -0.10528388
-0.72004449 0.11369126 -0.10528385
-0.72004449 0.07579416 -0.10528376
-0.72004449 0.037897073 -0.10528383
-0.72004449 -1.0803342e-07 -0.10528381
-0.72004449 -0.037897035 -0.10528388
-0.72004449 -0.075794138 -0.10528377
-0.72004449 -0.11369123 -0.10528384
-0.72004664 -0.15158874 -0.10527819
-0.72004664 -0.18948601 -0.1052781
-0.72004664 -0.22738311 -0.10527818
-0.68657374 0.3051438 -0.092988372
-0.68657583 0.26700178 -0.092982568
-0.68657583 0.22885863 -0.092982575
-0.68657583 0.19071549 -0.092982605
-0.68657583 0.15257235 -0.092982613
-0.68657583 0.1144293 -0.092982538
-0.68657583 0.076286159 -0.092982545
-0.68657583 0.038143016 -0.09298256
-0.68657583 -4.4703484e-08 -0.092982486
-0.68657583 -0.038143091 -0.092982583
-0.68657583 -0.076286152 -0.092982508
-0.68657798 -0.11442964 -0.092976719
-0.68657798 -0.15257284 -0.092976816
-0.68657798 -0.19071609 -0.092976756
-0.68657798 -0.22885939 -0.092976786
-0.68657798 -0.26700252 -0.092976794
-0.68657798 -0.30514574 -0.092976741
-0.65266782 0.34553003 -0.080526389
-0.65266985 0.30713874 -0.080520459
-0.65266985 0.26874647 -0.08052057
-0.65266985 0.23035407 -0.080520593
-0.65266985 0.19196175 -0.080520526
-0.65266985 0.15356936 -0.080520563
-0.65266985 0.11517697 -0.080520585
-0.65266985 0.076784819 -0.080520518
-0.65266985 0.038392425 -0.08052054
-0.65266985 3.3527613e-08 -0.08052057
-0.65266985 -0.038392361 -0.0805206
-0.65267181 -0.076784849 -0.080514722
-0.65267181 -0.11517741 -0.080514759
-0.65267181 -0.15356989 -0.080514714
-0.65267181 -0.19196221 -0.080514647
-0.65267181 -0.23035476 -0.080514692
-0.65267181 -0.26874715 -0.080514714
-0.65267181 -0.30713972 -0.080514766
-0.65267181 -0.34553221 -0.080514699
-0.61831784 0.34780365 -0.067894593
-0.61831784 0.30915898 -0.067894571
-0.61831784 0.27051407 -0.067894593
-0.61831784 0.23186919 -0.067894541
-0.61831784 0.19322434 -0.067894474
-0.61831784 0.15457948 -0.067894593
-0.61831784 0.11593461 -0.067894526
-0.61831784 0.077289663 -0.067894556
-0.61831784 0.038644888 -0.067894578
-0.61831784 -5.5879354e-08 -0.067894608
-0.61831975 -0.038644925 -0.067888714
-0.61831975 -0.077289961 -0.06788867
-0.61831975 -0.115935 -0.067888625
-0.61831975 -0.15457986 -0.067888565
-0.61831975 -0.19322488 -0.067888685
-0.61831975 -0.23186991 -0.067888632
-0.61831975 -0.27051488 -0.067888677
-0.61831975 -0.30915987 -0.067888618
-0.61831975 -0.34780484 -0.067888662
-0.61831975 -0.38644978 -0.067888677
-0.61832166 -0.42509601 -0.067882732
-0.58351088 0.38900727 -0.055101395
-0.58351088 0.35010651 -0.055101305
-0.58351088 0.3112058 -0.055101395
-0.58351088 0.27230501 -0.055101417
-0.58351088 0.2334044 -0.055101432
-0.58351088 0.19450368 -0.055101357
-0.58351088 0.15560289 -0.055101383
-0.58351088 0.11670209 -0.055101402
-0.58351088 0.077801466 -0.055101413
-0.58351088 0.038900755 -0.055101346
-0.58351266 3.5390258e-08 -0.055095449
-0.58351266 -0.038900848 -0.055095389
-0.58351266 -0.077801734 -0.055095334
-0.58351266 -0.1167026 -0.055095449
-0.58351266 -0.15560339 -0.055095471
-0.58351266 -0.1945042 -0.055095322
-0.58351266 -0.23340508 -0.055095442
-0.58351266 -0.27230585 -0.055095464
-0.58351266 -0.31120682 -0.055095315
-0.58351451 -0.35010865 -0.055089429
-0.58351451 -0.38900959 -0.055089459
-0.58351451 -0.42791066 -0.055089414
-0.58351451 -0.46681154 -0.055089355
-0.54824001 0.39159992 -0.042137742
-0.54824001 0.35244006 -0.042137668
-0.54824001 0.31328005 -0.042137742
-0.54824001 0.27412 -0.042137668
-0.54824001 0.23496008 -0.042137675
-0.54824001 0.19579998 -0.042137697
-0.54824001 0.15664004 -0.042137694
-0.54824001 0.11747993 -0.042137712
-0.54824001 0.078319997 -0.042137712
-0.54824173 0.039160114 -0.042131629
-0.54824173 5.5879354e-09 -0.042131644
-0.54824173 -0.039160103 -0.042131659
-0.54824173 -0.07832022 -0.042131506
-0.54824173 -0.1174804 -0.042131614
-0.54824173 -0.1566405 -0.042131633
-0.54824173 -0.19580062 -0.04213164
-0.54824173 -0.23496072 -0.04213167
-0.54824173 -0.27412075 -0.042131588
-0.5482434 -0.31328198 -0.042125598
-0.5482434 -0.35244215 -0.042125538
-0.5482434 -0.39160246 -0.042125568
-0.5482434 -0.43076265 -0.042125508
-0.5482434 -0.4699229 -0.042125523
-0.5482434 -0.50908315 -0.042125553
-0.5482434 -0.5482434 -0.042125493
-0.51249582 0.43365037 -0.028999999
-0.51249582 0.3942275 -0.029000014
-0.51249582 0.35480484 -0.029000059
-0.51249582 0.31538203 -0.028999969
-0.51249582 0.27595925 -0.029000066
-0.51249582 0.2365365 -0.029000059
-0.51249582 0.19711372 -0.029000148
-0.51249582 0.15769099 -0.028999973
-0.51249737 0.11826867 -0.02899386
-0.51249737 0.078845784 -0.028993873
-0.51249737 0.039422818 -0.028993975
-0.51249737 1.2107193e-08 -0.028993893
-0.51249737 -0.039422873 -0.028993903
-0.51249737 -0.078845762 -0.028993914
-0.51249737 -0.11826865 -0.028993923
-0.51249737 -0.15769154 -0.028993934
-0.51249737 -0.19711433 -0.028993852
-0.51249737 -0.23653722 -0.028993867
-0.51249897 -0.27596098 -0.028987609
-0.51249897 -0.31538394 -0.028987706
-0.51249897 -0.35480702 -0.028987736
-0.51249897 -0.39423007 -0.02898775
-0.51249897 -0.43365294 -0.028987765
-0.51249897 -0.47307599 -0.028987616
-0.51249897 -0.51249897 -0.028987706
-0.51249897 -0.55192202 -0.028987765
-0.51249897 -0.59134495 -0.028987676
-0.51250064 -0.63076997 -0.028981477
-0.47626871 0.43657956 -0.015684932
-0.47626871 0.39689058 -0.015684918
-0.47626871 0.35720152 -0.015684977
-0.47626871 0.31751245 -0.015684888
-0.47626871 0.27782333 -0.015684903
-0.47626871 0.23813435 -0.015684888
-0.47626871 0.19844523 -0.015684895
-0.47627017 0.15875675 -0.015678689
-0.47627017 0.11906752 -0.015678614
-0.47627017 0.079378396 -0.015678626
-0.47627017 0.039689176 -0.015678553
-0.47627017 1.3411045e-07 -0.015678639
-0.47627017 -0.039689165 -0.015678659
-0.47627017 -0.079378381 -0.015678585
-0.47627017 -0.11906751 -0.015678596
-0.47627017 -0.15875664 -0.015678599
-0.47627166 -0.19844657 -0.015672415
-0.47627166 -0.23813587 -0.01567243
-0.47627166 -0.27782509 -0.015672371
-0.47627166 -0.31751448 -0.015672296
-0.47627166 -0.35720366 -0.015672401
-0.47627166 -0.39689308 -0.015672341
-0.47627166 -0.43658239 -0.015672356
-0.47627166 -0.47627166 -0.015672371
-0.47627166 -0.51596093 -0.015672386
-0.47627166 -0.55565023 -0.015672415
-0.47627318 -0.59534156 -0.015666157
-0.47627318 -0.63503087 -0.015666187
-0.47627318 -0.67472029 -0.015666038
-0.43954879 0.47950777 -0.0021885484
-0.43954879 0.43954885 -0.0021886379
-0.43954879 0.39958981 -0.002188623
-0.43954879 0.35963088 -0.0021887124
-0.43954879 0.31967181 -0.0021886528
-0.43954879 0.27971286 -0.0021885931
-0.43954879 0.23975387 -0.0021886081
-0.43955019 0.19979557 -0.0021823123
-0.43955019 0.1598364 -0.0021823496
-0.43955019 0.1198773 -0.0021822825
-0.43955019 0.079918221 -0.0021823905
-0.43955019 0.039959196 -0.0021822397
-0.43955019 2.0605512e-08 -0.0021822699
-0.43955019 -0.039959155 -0.0021823011
-0.43955019 -0.079918161 -0.0021823198
-0.43955019 -0.11987734 -0.0021823496
-0.43955159 -0.15983698 -0.0021759868
-0.43955159 -0.19979626 -0.0021759421
-0.43955159 -0.23975542 -0.0021759719
-0.43955159 -0.27971461 -0.0021760017
-0.43955159 -0.31967387 -0.002175957
-0.43955159 -0.35963315 -0.0021758974
-0.43955159 -0.3995924 -0.0021760166
-0.43955159 -0.43955156 -0.0021758825
-0.43955159 -0.47951075 -0.0021759123
-0.43955159 -0.5194701 -0.002175957
-0.43955296 -0.55943108 -0.0021696985
-0.43955296 -0.59939051 -0.0021696389
-0.43955296 -0.63934982 -0.0021696091
-0.43955296 -0.67930913 -0.0021696389
-0.43955296 -0.71926844 -0.0021696985
-0.43955296 -0.75922799 -0.0021695793
-0.40232605 0.4827913 0.011492446
-0.40232605 0.44255859 0.011492416
-0.40232605 0.40232611 0.011492521
-0.40232605 0.36209339 0.011492461
-0.40232605 0.32186079 0.011492491
-0.40232733 0.28162909 0.011498854
-0.40232733 0.24139638 0.011498958
-0.40232733 0.20116369 0.011498906
-0.40232733 0.16093092 0.011498928
-0.40232733 0.12069824 0.011498876
-0.40232733 0.080465548 0.01149882
-0.40232733 0.040232681 0.011498924
-0.40232733 -6.9849193e-09 0.011498869
-0.40232733 -0.040232785 0.011498893
-0.40232733 -0.080465466 0.011498839
-0.40232861 -0.12069855 0.011505269
-0.40232861 -0.16093141 0.011505365
-0.40232861 -0.20116436 0.01150538
-0.40232861 -0.24139723 0.011505313
-0.40232861 -0.28162998 0.011505321
-0.40232861 -0.32186294 0.01150535
-0.40232861 -0.36209571 0.011505365
-0.40232861 -0.40232855 0.011505306
-0.40232861 -0.44256151 0.011505306
-0.40232861 -0.48279428 0.011505336
-0.40232989 -0.52302885 0.011511743
-0.40232989 -0.56326193 0.011511743
-0.40232989 -0.60349488 0.011511743
-0.40232989 -0.64372778 0.011511773
-0.40232989 -0.68396091 0.011511773
-0.40232989 -0.72419381 0.011511683
-0.40232989 -0.76442683 0.011511773
-0.40232989 -0.80465978 0.011511743
-0.36458999 0.52662998 0.025362253
-0.36458999 0.48611996 0.025362179
-0.36458999 0.44560993 0.025362253
-0.36458999 0.40510005 0.025362194
-0.36458999 0.36458999 0.025362164
-0.36459115 0.32408109 0.025368661
-0.36459115 0.28357092 0.025368705
-0.36459115 0.24306083 0.02536869
-0.36459115 0.20255065 0.025368735
-0.36459115 0.16204056 0.025368705
-0.36459115 0.12153037 0.025368754
-0.36459115 0.081020281 0.025368728
-0.36459115 0.040510103 0.025368776
-0.36459115 1.3038516e-08 0.02536875
-0.36459234 -0.040510301 0.025375215
-0.36459234 -0.081020482 0.025375266
-0.36459234 -0.12153083 0.025375299
-0.36459234 -0.16204108 0.025375269
-0.36459234 -0.20255125 0.025375143
-0.36459234 -0.24306151 0.025375277
-0.36459234 -0.28357178 0.025375232
-0.36459234 -0.32408202 0.025375202
-0.36459234 -0.36459237 0.025375232
-0.36459234 -0.40510255 0.025375277
-0.36459234 -0.44561282 0.025375247
-0.36459351 -0.48612466 0.025381774
-0.36459351 -0.52663499 0.025381804
-0.36459351 -0.56714547 0.025381774
-0.36459351 -0.60765576 0.025381804
-0.36459351 -0.6481663 0.025381804
-0.36459351 -0.6886766 0.025381774
-0.36459351 -0.72918701 0.025381714
-0.36459351 -0.76969743 0.025381833
-0.36459351 -0.81020784 0.025381774
-0.3645947 -0.85072088 0.025388241
-0.3645947 -0.89123154 0.025388271
-0.32632998 0.53028619 0.039424568
-0.32632998 0.48949495 0.039424628
-0.32632998 0.44870371 0.039424583
-0.32632998 0.40791249 0.039424643
-0.32633102 0.36712241 0.039431125
-0.32633102 0.32633102 0.039431185
-0.32633102 0.28553957 0.039431147
-0.32633102 0.24474834 0.039431207
-0.32633102 0.20395687 0.039431162
-0.32633102 0.16316558 0.039431132
-0.32633102 0.12237419 0.039431185
-0.32633102 0.081582732 0.039431147
-0.32633102 0.040791348 0.039431199
-0.32633206 7.6368451e-08 0.039437767
-0.32633206 -0.040791553 0.039437715
-0.32633206 -0.081582941 0.039437771
-0.32633206 -0.12237456 0.039437715
-0.32633206 -0.16316605 0.039437842
-0.32633206 -0.2039575 0.039437801
-0.32633206 -0.24474913 0.039437748
-0.32633206 -0.28554052 0.039437808
-0.32633206 -0.32633206 0.039437845
-0.32633206 -0.3671236 0.039437711
-0.32633206 -0.40791509 0.039437845
-0.32633314 -0.44870803 0.039444283
-0.32633314 -0.48949969 0.039444402
-0.32633314 -0.53029144 0.039444432
-0.32633314 -0.57108295 0.039444327
-0.32633314 -0.61187458 0.039444447
-0.32633314 -0.65266621 0.039444357
-0.32633314 -0.69345784 0.039444298
-0.32633314 -0.73424959 0.039444327
-0.32633314 -0.7750411 0.039444357
-0.32633421 -0.81583554 0.039450973
-0.32633421 -0.85662735 0.039451063
-0.32633421 -0.89741886 0.039450943
-0.32633421 -0.93821084 0.039451033
-0.28753498 0.5750699 0.05368346
-0.28753498 0.53399348 0.053683504
-0.28753498 0.49291709 0.053683519
-0.28753594 0.45184213 0.053690195
-0.28753594 0.41076556 0.053690225
-0.28753594 0.36968899 0.05369024
-0.28753594 0.32861254 0.053690165
-0.28753594 0.28753597 0.05369018
-0.28753594 0.24645932 0.05369027
-0.28753594 0.20538276 0.053690284
-0.28753594 0.16430621 0.053690303
-0.28753594 0.12322957 0.053690225
-0.28753594 0.082153104 0.053690165
-0.28753686 0.041076727 0.053696949
-0.28753686 -1.8626451e-09 0.053696949
-0.28753686 -0.041076727 0.053696953
-0.28753686 -0.082153454 0.053696949
-0.28753686 -0.12323009 0.053696871
-0.28753686 -0.16430674 0.053696968
-0.28753686 -0.20538346 0.053696968
-0.28753686 -0.2464602 0.05369696
-0.28753686 -0.28753683 0.053696886
-0.28753686 -0.32861355 0.053696886
-0.28753781 -0.36969143 0.053703576
-0.28753781 -0.41076833 0.053703561
-0.28753781 -0.45184499 0.053703636
-0.28753781 -0.49292189 0.053703621
-0.28753781 -0.53399879 0.053703636
-0.28753781 -0.57507557 0.053703517
-0.28753781 -0.61615241 0.053703606
-0.28753781 -0.65722913 0.053703606
-0.28753781 -0.69830602 0.053703606
-0.28753781 -0.73938286 0.053703517
-0.28753874 -0.78046215 0.053710341
-0.28753874 -0.82153928 0.053710312
-0.28753874 -0.86261606 0.053710371
-0.28753874 -0.90369308 0.053710252
-0.28753874 -0.94477004 0.053710312
-0.28753874 -0.98584706 0.053710312
-0.28753874 -1.0269241 0.053710431
-0.24819373 0.57911873 0.068143368
-0.24819373 0.53775299 0.068143204
-0.24819455 0.49638912 0.068150043
-0.24819455 0.45502338 0.068150014
-0.24819455 0.41365761 0.068150029
-0.24819455 0.3722918 0.068150043
-0.24819455 0.330926 0.068150058
-0.24819455 0.28956032 0.068149991
-0.24819455 0.24819452 0.068150006
-0.24819455 0.20682871 0.068150029
-0.24819455 0.16546309 0.068150043
-0.24819455 0.1240973 0.068150058
-0.24819535 0.082731761 0.06815695
-0.24819535 0.041365888 0.068156868
-0.24819535 -7.0780516e-08 0.068156868
-0.24819535 -0.041365862 0.068156883
-0.24819535 -0.082731731 0.068156809
-0.24819535 -0.1240977 0.068156809
-0.24819535 -0.16546358 0.068156898
-0.24819535 -0.20682944 0.068156831
-0.24819535 -0.24819541 0.068156838
-0.24819535 -0.28956127 0.06815692
-0.24819617 -0.33092827 0.068163618
-0.24819617 -0.37229422 0.068163604
-0.24819617 -0.41366029 0.068163693
-0.24819617 -0.45502633 0.068163604
-0.24819617 -0.49639237 0.068163678
-0.24819617 -0.53775835 0.068163678
-0.24819617 -0.57912433 0.068163604
-0.24819617 -0.62049043 0.068163663
-0.24819617 -0.66185641 0.068163574
-0.24819697 -0.70322478 0.068170339
-0.24819697 -0.74459082 0.068170428
-0.24819697 -0.78595722 0.068170488
-0.24819697 -0.8273232 0.068170398
-0.24819697 -0.8686893 0.068170279
-0.24819697 -0.91005558 0.068170428
-0.24819697 -0.95142174 0.068170458
-0.24819697 -0.99278784 0.068170398
-0.24819697 -1.0341541 0.068170398
-0.24819697 -1.0755202 0.068170369
-0.20829457 0.62488377 0.082808107
-0.20829457 0.58322477 0.082808048
-0.20829527 0.54156768 0.082815021
-0.20829527 0.49990857 0.082814962
-0.20829527 0.45824972 0.082814977
-0.20829527 0.41659057 0.082814962
-0.20829527 0.37493145 0.082814991
-0.20829527 0.3332724 0.082814887
-0.20829527 0.2916134 0.082815029
-0.20829527 0.24995422 0.082814999
-0.20829527 0.20829532 0.082814895
-0.20829527 0.16663623 0.082814954
-0.20829596 0.12497765 0.082821801
-0.20829596 0.083318397 0.082821846
-0.20829596 0.041659229 0.082821809
-0.20829596 -2.6077032e-08 0.082821846
-0.20829596 -0.041659191 0.082821816
-0.20829596 -0.083318353 0.082821779
-0.20829596 -0.12497761 0.082821824
-0.20829596 -0.16663669 0.082821876
-0.20829596 -0.20829594 0.082821742
-0.20829596 -0.24995512 0.082821876
-0.20829664 -0.29161531 0.082828701
-0.20829664 -0.33327454 0.082828745
-0.20829664 -0.37493396 0.082828775
-0.20829664 -0.41659328 0.08282873
-0.20829664 -0.45825267 0.082828671
-0.20829664 -0.4999119 0.082828715
-0.20829664 -0.54157132 0.08282876
-0.20829664 -0.58323056 0.082828626
-0.20829664 -0.62488991 0.08282876
-0.20829733 -0.66655153 0.082835525
-0.20829733 -0.70821095 0.082835585
-0.20829733 -0.74987042 0.082835674
-0.20829733 -0.79152977 0.082835615
-0.20829733 -0.83318925 0.082835585
-0.20829733 -0.87484884 0.082835764
-0.20829733 -0.91650832 0.082835585
-0.20829733 -0.95816767 0.082835525
-0.20829733 -0.99982703 0.082835436
-0.20829733 -1.0414867 0.082835704
-0.20829801 -1.0831497 0.08284241
-0.16782616 0.62934816 0.097689301
-0.16782616 0.58739156 0.097689256
-0.16782616 0.54543507 0.097689301
-0.16782616 0.50347847 0.097689211
-0.16782616 0.46152192 0.097689301
-0.16782616 0.4195655 0.097689256
-0.16782616 0.37760895 0.097689301
-0.16782616 0.33565235 0.097689264
-0.16782616 0.29369587 0.097689301
-0.16782616 0.25173926 0.097689256
-0.16782671 0.20978341 0.097696289
-0.16782671 0.16782673 0.097696155
-0.16782671 0.12587011 0.097696275
-0.16782671 0.083913356 0.097696215
-0.16782671 0.041956671 0.097696237
-0.16782671 -2.2351742e-08 0.097696275
-0.16782671 -0.041956615 0.09769623
-0.16782671 -0.083913304 0.09769626
-0.16782671 -0.12587006 0.0976962
-0.16782671 -0.16782667 0.097696319
-0.16782728 -0.20978414 0.097703308
-0.16782728 -0.2517409 0.097703256
-0.16782728 -0.29369766 0.097703196
-0.16782728 -0.3356545 0.097703211
-0.16782728 -0.37761134 0.097703233
-0.16782728 -0.41956824 0.097703248
-0.16782728 -0.4615249 0.097703278
-0.16782728 -0.50348186 0.097703218
-0.16782728 -0.54543871 0.097703218
-0.16782728 -0.58739549 0.097703338
-0.16782784 -0.62935442 0.097710222
-0.16782784 -0.67131126 0.097710252
-0.16782784 -0.71326828 0.097710252
-0.16782784 -0.75522524 0.097710162
-0.16782784 -0.79718232 0.097710341
-0.16782784 -0.83913922 0.097710252
-0.16782784 -0.88109612 0.097710192
-0.16782784 -0.92305303 0.097710222
-0.16782784 -0.96500999 0.097710133
-0.1678284 -1.0069703 0.097717077
-0.1678284 -1.0489274 0.097717166
-0.12677492 0.67613292 0.11277765
-0.12677492 0.63387465 0.11277765
-0.12677492 0.59161627 0.11277755
-0.12677492 0.54935801 0.11277761
-0.12677492 0.50709969 0.11277761
-0.12677492 0.4648414 0.11277756
-0.12677492 0.42258304 0.11277744
-0.12677492 0.38032463 0.11277758
-0.12677492 0.33806637 0.11277755
-0.12677492 0.29580814 0.11277752
-0.12677535 0.25355068 0.11278464
-0.12677535 0.21129218 0.11278468
-0.12677535 0.16903375 0.11278462
-0.12677535 0.12677532 0.11278459
-0.12677535 0.084516883 0.11278471
-0.12677535 0.04225846 0.11278467
-0.12677535 3.7252903e-08 0.11278462
-0.12677535 -0.042258479 0.11278465
-0.12677535 -0.084516823 0.11278471
-0.12677535 -0.12677534 0.11278474
-0.12677577 -0.16903436 0.11279167
-0.12677577 -0.21129288 0.11279169
-0.12677577 -0.25355154 0.11279172
-0.12677577 -0.29581016 0.11279167
-0.12677577 -0.33806866 0.11279171
-0.12677577 -0.38032728 0.11279182
-0.12677577 -0.42258587 0.11279176
-0.12677577 -0.46484452 0.11279178
-0.12677577 -0.50710315 0.11279172
-0.12677619 -0.54936349 0.11279888
-0.12677619 -0.59162229 0.11279882
-0.12677619 -0.63388097 0.11279885
-0.12677619 -0.67613965 0.11279869
-0.12677619 -0.71839833 0.11279872
-0.12677619 -0.76065701 0.11279875
-0.12677619 -0.80291581 0.11279884
-0.12677619 -0.84517467 0.11279884
-0.12677619 -0.88743353 0.11279887
-0.12677662 -0.92969525 0.11280602
-0.12677662 -0.97195399 0.11280581
-0.12677662 -1.0142131 0.11280602
-0.085128888 0.68103099 0.12808436
-0.085128888 0.63846672 0.12808454
-0.085128888 0.59590209 0.12808435
-0.085128888 0.55333781 0.12808447
-0.085128888 0.51077336 0.12808459
-0.085128888 0.46820879 0.12808448
-0.085128888 0.4256444 0.12808456
-0.085128888 0.38307989 0.12808454
-0.085128888 0.34051549 0.12808444
-0.085129172 0.29795218 0.1280916
-0.085129172 0.2553876 0.12809166
-0.085129172 0.21282297 0.12809165
-0.085129172 0.17025831 0.12809162
-0.085129172 0.12769374 0.12809168
-0.085129172 0.085129097 0.12809166
-0.085129172 0.042564522 0.12809172
-0.085129172 -3.7252903e-08 0.12809163
-0.085129172 -0.042564515 0.1280916
-0.085129172 -0.085129082 0.12809168
-0.085129462 -0.12769417 0.1280988
-0.085129462 -0.17025891 0.12809886
-0.085129462 -0.21282372 0.12809882
-0.085129462 -0.25538838 0.1280988
-0.085129462 -0.29795313 0.12809885
-0.085129462 -0.34051785 0.12809891
-0.085129462 -0.38308251 0.12809888
-0.085129462 -0.42564732 0.12809883
-0.085129462 -0.46821207 0.12809889
-0.085129753 -0.51077855 0.12810607
-0.085129753 -0.5533433 0.12810604
-0.085129753 -0.59590828 0.12810601
-0.085129753 -0.63847315 0.12810594
-0.085129753 -0.68103796 0.12810609
-0.085129753 -0.72360283 0.12810612
-0.085129753 -0.76616776 0.128106
-0.085129753 -0.80873263 0.12810603
-0.085129753 -0.85129756 0.12810609
-0.085130043 -0.89386517 0.12811318
-0.085130043 -0.93643034 0.12811327
-0.085130043 -0.97899544 0.12811318
-0.085130043 -1.0215603 0.12811315
-0.042875051 0.7288757 0.14361465
-0.042875051 0.68600082 0.14361477
-0.042875051 0.64312577 0.1436148
-0.042875051 0.60025072 0.14361472
-0.042875051 0.55737561 0.14361475
-0.042875051 0.51450068 0.14361484
-0.042875051 0.47162554 0.14361484
-0.042875051 0.42875046 0.14361487
-0.042875051 0.38587552 0.14361472
-0.042875197 0.34300148 0.14362201
-0.042875197 0.30012631 0.1436221
-0.042875197 0.2572512 0.14362213
-0.042875197 0.21437602 0.14362206
-0.042875197 0.17150074 0.14362206
-0.042875197 0.12862566 0.14362207
-0.042875197 0.085750379 0.14362209
-0.042875197 0.042875107 0.1436221
-0.042875197 1.0430813e-07 0.14362204
-0.042875342 -0.042875286 0.14362939
-0.042875342 -0.085750654 0.14362946
-0.042875342 -0.12862608 0.1436293
-0.042875342 -0.17150134 0.1436293
-0.042875342 -0.2143767 0.14362939
-0.042875342 -0.25725207 0.14362946
-0.042875342 -0.30012742 0.14362939
-0.042875342 -0.34300277 0.1436293
-0.042875342 -0.38587803 0.1436293
-0.042875342 -0.42875341 0.1436294
-0.042875487 -0.47163028 0.14363663
-0.042875487 -0.5145058 0.1436367
-0.042875487 -0.55738133 0.14363678
-0.042875487 -0.60025686 0.14363669
-0.042875487 -0.64313239 0.14363673
-0.042875487 -0.6860078 0.14363676
-0.042875487 -0.72888327 0.14363658
-0.042875487 -0.77175868 0.14363655
-0.042875633 -0.81463701 0.14364395
-0.042875633 -0.85751259 0.14364386
-0.042875633 -0.90038842 0.14364409
-0.042875633 -0.94326395 0.14364401
-0.042875633 -0.98613942 0.14364386
0 0.7342338 0.1593734
0 0.69104362 0.15937349
0 0.64785331 0.1593734
0 0.60466313 0.15937354
0 0.56147289 0.15937342
0 0.51828271 0.15937351
0 0.47509244 0.15937342
0 0.43190223 0.15937339
0 0.3887133 0.15938081
0 0.345523 0.15938085
0 0.30233264 0.15938081
0 0.25914216 0.15938085
0 0.21595189 0.1593809
0 0.17276151 0.15938087
0 0.12957117 0.15938082
0 0.086380705 0.15938087
0 0.043190345 0.15938084
0 2.9802322e-08 0.15938815
0 -0.043190587 0.15938818
0 -0.086381033 0.15938821
0 -0.12957157 0.15938817
0 -0.1727622 0.1593882
0 -0.21595256 0.15938817
0 -0.25914317 0.15938818
0 -0.30233365 0.15938824
0 -0.34552416 0.15938818
0 -0.38871467 0.15938812
0 -0.43190664 0.15939561
0 -0.47509736 0.15939569
0 -0.51828796 0.15939555
0 -0.56147867 0.15939568
0 -0.60466927 0.15939553
0 -0.64786005 0.15939571
0 -0.69105059 0.15939549
0 -0.73424381 0.15940294
0 -0.77743471 0.15940303
0 -0.82062554 0.15940294
0 -0.86381614 0.159403
0 -0.9070071 0.15940309
0 -0.95019794 0.15940309
0.043510064 0.78318107 0.1753653
0.043510064 0.73967099 0.1753653
0.043510064 0.69616103 0.17536548
0.043510064 0.65265089 0.17536545
0.043510064 0.60914081 0.1753654
0.043510064 0.56563079 0.17536539
0.043510064 0.52212083 0.17536555
0.043510213 0.47861233 0.17537294
0.043510213 0.43510211 0.17537302
0.043510213 0.39159203 0.17537303
0.043510213 0.34808174 0.17537302
0.043510213 0.30457139 0.1753729
0.043510213 0.26106128 0.1753729
0.043510213 0.21755108 0.17537299
0.043510213 0.17404088 0.17537288
0.043510213 0.13053069 0.17537297
0.043510213 0.087020487 0.17537287
0.043510366 0.043510415 0.17538039
0.043510366 -2.9802322e-08 0.17538038
0.043510366 -0.04351031 0.17538035
0.043510366 -0.08702077 0.1753805
0.043510366 -0.13053106 0.1753805
0.043510366 -0.17404151 0.17538045
0.043510366 -0.21755178 0.17538045
0.043510366 -0.26106218 0.17538051
0.043510366 -0.30457252 0.17538041
0.043510515 -0.34808412 0.17538799
0.043510515 -0.39159456 0.17538795
0.043510515 -0.43510509 0.17538802
0.043510515 -0.47861564 0.1753879
0.043510515 -0.5221262 0.17538795
0.043510515 -0.56563669 0.17538801
0.043510515 -0.60914719 0.17538799
0.043510664 -0.65265995 0.17539547
0.043510664 -0.69617063 0.17539552
0.043510664 -0.7396813 0.17539549
0.043510664 -0.78319198 0.17539552
0.043510664 -0.82670259 0.17539546
0.043510664 -0.87021315 0.17539546
0.043510813 -0.91372705 0.17540303
0.08766935 0.78902411 0.19159615
0.08766935 0.74518955 0.19159615
0.08766935 0.70135492 0.19159621
0.08766935 0.65752017 0.19159605
0.08766935 0.61368549 0.19159617
0.08766935 0.56985092 0.1915962
0.087669656 0.52601802 0.19160385
0.087669656 0.4821831 0.19160368
0.087669656 0.43834832 0.19160371
0.087669656 0.3945134 0.19160369
0.087669656 0.35067862 0.19160371
0.087669656 0.30684388 0.19160374
0.087669656 0.26300895 0.19160372
0.087669656 0.21917419 0.19160374
0.087669656 0.17533925 0.19160374
0.087669969 0.13150486 0.1916113
0.087669969 0.087669998 0.19161138
0.087669969 0.043834999 0.19161129
0.087669969 6.7055225e-08 0.19161129
0.087669969 -0.043835029 0.19161129
0.087669969 -0.087669954 0.19161129
0.087669969 -0.13150498 0.19161135
0.087669969 -0.17533992 0.19161136
0.087669969 -0.21917485 0.19161136
0.087669969 -0.26300994 0.19161135
0.087670267 -0.30684593 0.19161904
0.087670267 -0.35068101 0.19161886
0.087670267 -0.39451623 0.19161892
0.087670267 -0.43835124 0.19161901
0.087670267 -0.48218653 0.19161899
0.087670267 -0.5260216 0.19161898
0.087670572 -0.56985861 0.19162659
0.087670572 -0.61369395 0.19162664
0.087670572 -0.65752941 0.19162662
0.087670572 -0.70136464 0.19162667
0.087670572 -0.74519986 0.19162646
0.087670572 -0.78903514 0.19162664
0.087670878 -0.83287323 0.19163424
0.087670878 -0.87670887 0.19163418
0.13249251 0.8391192 0.20807081
0.13249251 0.79495507 0.20807076
0.13249251 0.75079083 0.20807061
0.13249251 0.70662677 0.20807084
0.13249251 0.66246247 0.20807064
0.13249251 0.61829847 0.20807086
0.13249297 0.57413614 0.20807841
0.13249297 0.52997178 0.20807832
0.13249297 0.48580754 0.20807841
0.13249297 0.44164324 0.20807841
0.13249297 0.39747873 0.20807841
0.13249297 0.3533147 0.20807853
0.13249297 0.30915022 0.20807853
0.13249297 0.26498598 0.20807844
0.13249297 0.22082157 0.20807852
0.13249344 0.17665789 0.20808618
0.13249344 0.13249348 0.20808625
0.13249344 0.088329002 0.20808624
0.13249344 0.044164523 0.20808622
0.13249344 4.4703484e-08 0.20808622
0.13249344 -0.044164449 0.20808621
0.13249344 -0.08832892 0.20808621
0.13249344 -0.13249348 0.20808627
0.13249344 -0.17665789 0.20808618
0.1324939 -0.22082311 0.2080939
0.1324939 -0.26498786 0.20809396
0.1324939 -0.30915231 0.20809394
0.1324939 -0.35331705 0.20809399
0.1324939 -0.39748171 0.208094
0.1324939 -0.44164637 0.20809397
0.13249436 -0.48581266 0.20810166
0.13249436 -0.52997744 0.20810172
0.13249436 -0.57414222 0.20810169
0.13249436 -0.61830711 0.20810175
0.13249436 -0.66247177 0.20810172
0.13249436 -0.70663661 0.20810169
0.13249484 -0.75080407 0.20810947
0.13249484 -0.79496902 0.20810953
0.13249484 -0.83913398 0.20810947
0.13249484 -0.88329893 0.2081095
0.17799462 0.84547424 0.22479483
0.17799462 0.80097568 0.22479486
0.17799462 0.756477 0.22479483
0.17799462 0.71197844 0.22479495
0.17799525 0.66748214 0.22480285
0.17799525 0.62298334 0.22480287
0.17799525 0.57848454 0.22480288
0.17799525 0.53398573 0.22480287
0.17799525 0.48948699 0.22480284
0.17799525 0.44498822 0.22480281
0.17799525 0.40048936 0.22480282
0.17799525 0.35599062 0.22480281
0.17799525 0.31149173 0.22480285
0.17799525 0.2669929 0.22480275
0.17799588 0.22249483 0.22481063
0.17799588 0.1779958 0.22481067
0.17799588 0.13349688 0.22481062
0.17799588 0.088997856 0.22481066
0.17799588 0.044498928 0.22481063
0.17799588 -9.6857548e-08 0.22481064
0.17799588 -0.04449904 0.2248106
0.17799588 -0.088998049 0.22481063
0.1779965 -0.13349739 0.22481851
0.1779965 -0.1779965 0.22481847
0.1779965 -0.2224957 0.22481848
0.1779965 -0.26699471 0.22481853
0.1779965 -0.3114939 0.22481856
0.1779965 -0.35599291 0.22481857
0.17799713 -0.40049353 0.22482644
0.17799713 -0.44499278 0.22482637
0.17799713 -0.48949218 0.2248264
0.17799713 -0.53399146 0.22482634
0.17799713 -0.57849073 0.22482641
0.17799713 -0.62298989 0.22482644
0.17799775 -0.66749167 0.22483425
0.17799775 -0.71199107 0.22483423
0.17799775 -0.75649047 0.22483432
0.17799775 -0.80098993 0.22483426
0.17799775 -0.84548932 0.22483426
0.22419122 0.89676481 0.24177435
0.22419122 0.85192657 0.24177438
0.22419122 0.80708832 0.24177441
0.22419122 0.76225007 0.24177441
0.22419202 0.71741438 0.24178234
0.22419202 0.67257607 0.24178238
0.22419202 0.62773764 0.24178232
0.22419202 0.58289927 0.24178244
0.22419202 0.53806078 0.24178231
0.22419202 0.49322242 0.24178246
0.22419202 0.44838399 0.24178237
0.22419202 0.40354562 0.24178234
0.22419202 0.35870713 0.24178241
0.22419281 0.31386977 0.24179031
0.22419281 0.26903132 0.24179038
0.22419281 0.22419278 0.24179035
0.22419281 0.17935424 0.24179031
0.22419281 0.13451561 0.24179037
0.22419281 0.08967714 0.24179041
0.22419281 0.0448386 0.24179038
0.22419281 5.2154064e-08 0.24179035
0.22419362 -0.044838823 0.24179834
0.22419362 -0.08967746 0.24179837
0.22419362 -0.13451616 0.24179834
0.22419362 -0.17935488 0.24179828
0.22419362 -0.22419359 0.24179842
0.22419362 -0.2690323 0.24179837
0.22419362 -0.31387103 0.24179833
0.22419441 -0.358711 0.24180631
0.22419441 -0.40354997 0.24180633
0.22419441 -0.44838876 0.24180636
0.22419441 -0.49322763 0.2418063
0.22419441 -0.53806663 0.24180631
0.22419521 -0.5829075 0.24181415
0.22419521 -0.62774646 0.24181435
0.22419521 -0.67258561 0.24181433
0.22419521 -0.71742463 0.24181427
0.22419521 -0.76226372 0.24181437
0.22419521 -0.80710286 0.24181437
0.27109835 0.94884419 0.25901508
0.27109835 0.90366113 0.25901505
0.27109835 0.85847795 0.25901487
0.27109835 0.81329501 0.25901499
0.2710993 0.76811457 0.25902307
0.2710993 0.7229315 0.2590231
0.2710993 0.67774826 0.25902319
0.2710993 0.63256502 0.25902301
0.2710993 0.58738184 0.25902307
0.2710993 0.5421986 0.25902319
0.2710993 0.49701533 0.25902304
0.2710993 0.45183218 0.25902307
0.2710993 0.40664887 0.2590231
0.27110028 0.36146697 0.25903118
0.27110028 0.31628349 0.25903118
0.27110028 0.27110028 0.2590313
0.27110028 0.22591689 0.25903121
0.27110028 0.18073349 0.25903115
0.27110028 0.13555019 0.25903118
0.27110028 0.090366878 0.25903118
0.27110127 0.045183472 0.25903931
0.27110127 8.9406967e-08 0.25903925
0.27110127 -0.04518348 0.25903934
0.27110127 -0.090367042 0.25903925
0.27110127 -0.13555068 0.25903925
0.27110127 -0.18073417 0.25903928
0.27110222 -0.2259185 0.25904742
0.27110222 -0.27110213 0.25904742
0.27110222 -0.31628588 0.25904748
0.27110222 -0.36146963 0.25904739
0.27110222 -0.40665334 0.25904748
0.27110222 -0.45183706 0.25904739
0.27110317 -0.49702251 0.25905553
0.27110317 -0.54220641 0.25905544
0.27110317 -0.58739018 0.25905538
0.27110317 -0.63257408 0.2590555
0.27110317 -0.67775798 0.25905553
0.27110317 -0.72294188 0.25905558
0.27110416 -0.7681284 0.25906357
0.3187325 0.9561975 0.2765229
0.3187325 0.91066414 0.27652279
0.31873363 0.86513412 0.2765311
0.31873363 0.81960082 0.27653101
0.31873363 0.77406752 0.27653119
0.31873363 0.7285341 0.27653116
0.31873363 0.68300068 0.2765311
0.31873363 0.63746727 0.2765311
0.31873363 0.59193385 0.27653101
0.31873363 0.54640061 0.2765311
0.31873363 0.50086713 0.27653116
0.31873363 0.45533371 0.2765311
0.31873363 0.40980032 0.27653101
0.31873479 0.36426836 0.27653936
0.31873479 0.31873471 0.27653918
0.31873479 0.27320129 0.27653927
0.31873479 0.22766764 0.2765393
0.31873479 0.18213415 0.2765393
0.31873593 0.13660116 0.27654755
0.31873593 0.091067426 0.27654746
0.31873593 0.045533694 0.27654755
0.31873593 -4.4703484e-08 0.27654746
0.31873593 -0.04553362 0.27654755
0.31873593 -0.091067433 0.27654755
0.31873593 -0.13660109 0.27654755
0.31873709 -0.18213542 0.27655572
0.31873709 -0.22766925 0.27655569
0.31873709 -0.27320331 0.27655575
0.31873709 -0.31873706 0.27655581
0.31873709 -0.3642709 0.27655581
0.31873709 -0.40980488 0.27655578
0.31873822 -0.45534033 0.27656394
0.31873822 -0.50087428 0.27656391
0.31873822 -0.54640847 0.27656406
0.31873822 -0.59194249 0.27656403
0.31873822 -0.63747656 0.27656394
0.31873822 -0.68301052 0.27656388
0.31873938 -0.72854722 0.27657223
0.3671107 1.0095544 0.29430419
0.3671107 0.96366554 0.2943041
0.36711204 0.91778004 0.29431248
0.36711204 0.87189108 0.29431251
0.36711204 0.82600212 0.29431254
0.36711204 0.78011298 0.29431242
0.36711204 0.73422414 0.29431266
0.36711204 0.68833506 0.29431248
0.36711204 0.6424461 0.29431245
0.36711204 0.5965569 0.29431236
0.36711204 0.55066806 0.2943126
0.36711335 0.50478089 0.29432082
0.36711335 0.45889175 0.29432097
0.36711335 0.41300252 0.29432094
0.36711335 0.36711338 0.29432079
0.36711335 0.32122412 0.29432088
0.36711335 0.27533507 0.29432082
0.36711469 0.22944675 0.29432911
0.36711469 0.18355733 0.29432923
0.36711469 0.1376681 0.29432914
0.36711469 0.091778621 0.29432914
0.36711469 0.045889288 0.29432917
0.36711469 4.4703484e-08 0.29432929
0.36711603 -0.045889542 0.29433754
0.36711603 -0.091778956 0.29433763
0.36711603 -0.13766852 0.29433757
0.36711603 -0.183558 0.29433757
0.36711603 -0.22944757 0.29433763
0.36711603 -0.27533698 0.29433757
0.36711603 -0.3212266 0.29433763
0.3671174 -0.36711743 0.29434589
0.3671174 -0.41300708 0.29434589
0.3671174 -0.45889667 0.29434597
0.3671174 -0.50478637 0.29434586
0.3671174 -0.55067605 0.29434586
0.3671174 -0.59656572 0.29434603
0.36711875 -0.64245778 0.2943542
0.36711875 -0.6883477 0.29435444
0.41625059 1.0175014 0.31236535
0.41625208 0.97125494 0.312374
0.41625208 0.92500472 0.312374
0.41625208 0.87875444 0.312374
0.41625208 0.83250403 0.31237379
0.41625208 0.78625381 0.31237373
0.41625208 0.74000382 0.31237388
0.41625208 0.69375348 0.31237397
0.41625208 0.64750326 0.31237394
0.41625208 0.60125303 0.31237388
0.41625363 0.55500484 0.31238222
0.41625363 0.50875437 0.31238234
0.41625363 0.46250409 0.31238243
0.41625363 0.41625351 0.31238237
0.41625363 0.37000331 0.31238234
0.41625363 0.32375288 0.31238246
0.41625515 0.2775034 0.31239077
0.41625515 0.23125283 0.31239074
0.41625515 0.18500225 0.31239086
0.41625515 0.13875169 0.3123908
0.41625515 0.092501111 0.31239092
0.41625515 0.046250552 0.31239089
0.41625667 -4.4703484e-08 0.31239939
0.41625667 -0.046250686 0.31239942
0.41625667 -0.092501424 0.31239933
0.41625667 -0.13875225 0.31239936
0.41625667 -0.18500298 0.3123993
0.41625667 -0.23125371 0.31239927
0.41625822 -0.27750543 0.31240776
0.41625822 -0.3237564 0.31240791
0.41625822 -0.37000734 0.31240785
0.41625822 -0.41625813 0.31240785
0.41625822 -0.46250916 0.31240785
0.41625822 -0.50876004 0.31240779
0.41625974 -0.55501288 0.3124162
0.41625974 -0.601264 0.31241629
0.41625974 -0.64751512 0.31241629
0.41625974 -0.69376624 0.31241634
0.46617192 1.0721953 0.33072183
0.46617192 1.0255783 0.33072191
0.46617192 0.97896111 0.33072197
0.46617192 0.93234384 0.33072186
0.46617192 0.88572645 0.3307218
0.46617192 0.83910942 0.33072186
0.46617192 0.79249227 0.33072191
0.46617192 0.74587518 0.33072197
0.46617365 0.69926047 0.33073056
0.46617365 0.65264314 0.33073053
0.46617365 0.6060257 0.33073029
0.46617365 0.55940849 0.33073047
0.46617365 0.51279098 0.33073053
0.46617365 0.46617359 0.33073053
0.46617365 0.4195562 0.3307305
0.46617535 0.37294021 0.33073902
0.46617535 0.32632264 0.33073902
0.46617535 0.27970523 0.33073917
0.46617535 0.23308758 0.33073905
0.46617535 0.18647018 0.33073923
0.46617708 0.1398531 0.33074775
0.46617708 0.093235366 0.33074772
0.46617708 0.046617731 0.33074778
0.46617708 -0 0.33074772
0.46617708 -0.046617731 0.33074772
0.46617708 -0.093235373 0.33074775
0.46617708 -0.13985319 0.33074778
0.46617883 -0.18647155 0.33075634
0.46617883 -0.23308939 0.3307564
0.46617883 -0.27970728 0.33075631
0.46617883 -0.32632527 0.33075634
0.46617883 -0.37294307 0.3307564
0.46617883 -0.41956079 0.33075637
0.46618053 -0.46618053 0.33076495
0.46618053 -0.51279861 0.33076489
0.46618053 -0.55941659 0.33076492
0.46618053 -0.60603482 0.33076501
0.46618053 -0.6526528 0.33076507
0.51689029 1.0807704 0.34936333
0.51689029 1.0337806 0.34936348
0.51689029 0.98679042 0.3493633
0.51689029 0.93980038 0.34936327
0.51689029 0.89281046 0.34936342
0.51689029 0.84582025 0.34936327
0.51689029 0.79883039 0.34936345
0.51689214 0.75184309 0.34937209
0.51689214 0.70485294 0.34937227
0.51689214 0.65786272 0.34937209
0.51689214 0.61087257 0.34937215
0.51689214 0.56388247 0.34937227
0.51689214 0.51689219 0.34937209
0.51689404 0.46990374 0.34938085
0.51689404 0.42291334 0.34938082
0.51689404 0.37592298 0.34938082
0.51689404 0.32893267 0.34938091
0.51689404 0.28194225 0.34938088
0.51689404 0.23495179 0.34938079
0.51689601 0.18796219 0.3493897
0.51689601 0.14097163 0.3493897
0.51689601 0.09398108 0.34938967
0.51689601 0.046990454 0.34938958
0.51689601 -2.9802322e-08 0.34938964
0.51689601 -0.046990588 0.34938961
0.51689792 -0.093981445 0.34939837
0.51689792 -0.14097218 0.34939831
0.51689792 -0.18796282 0.34939837
0.51689792 -0.23495352 0.34939837
0.51689792 -0.28194436 0.3493984
0.51689792 -0.32893506 0.34939837
0.51689988 -0.37592721 0.34940711
0.51689988 -0.42291802 0.34940714
0.51689988 -0.46990901 0.34940717
0.51689988 -0.51689988 0.34940711
0.51689988 -0.56389081 0.34940708
0.51689988 -0.61088157 0.34940714
0.56842637 1.0894837 0.3683053
0.56842637 1.0421149 0.36830524
0.56842637 0.99474597 0.3683053
0.56842637 0.94737726 0.36830547
0.56842846 0.90001172 0.36831424
0.56842846 0.85264277 0.36831436
0.56842846 0.80527365 0.36831427
0.56842846 0.75790453 0.36831418
0.56842846 0.71053553 0.36831427
0.56842846 0.66316652 0.36831439
0.56842846 0.61579758 0.36831445
0.5684306 0.56843048 0.36832303
0.5684306 0.52106142 0.36832318
0.5684306 0.47369218 0.36832321
0.5684306 0.42632297 0.36832315
0.5684306 0.37895375 0.36832318
0.5684306 0.33158445 0.36832321
0.56843281 0.28421628 0.36833209
0.56843281 0.23684707 0.36833206
0.56843281 0.18947759 0.36833215
0.56843281 0.14210811 0.368332
0.56843281 0.094738826 0.36833206
0.56843281 0.047369346 0.36833215
0.56843489 -1.4901161e-08 0.36834091
0.56843489 -0.04736957 0.36834103
0.56843489 -0.094739124 0.368341
0.56843489 -0.14210874 0.36834103
0.56843489 -0.18947831 0.36834097
0.56843489 -0.23684785 0.36834094
0.56843704 -0.28421849 0.36834988
0.56843704 -0.3315883 0.36834991
0.56843704 -0.37895802 0.36834985
0.56843704 -0.42632782 0.36834988
0.56843704 -0.47369748 0.36834991
0.56843704 -0.52106738 0.36835003
0.56843704 -0.56843698 0.36834988
0.62080258 0.95508087 0.38756442
0.62080258 0.90732688 0.38756448
0.62080258 0.85957277 0.38756436
0.62080258 0.81181872 0.38756448
0.62080258 0.76406479 0.38756454
0.62080258 0.71631062 0.38756442
0.62080491 0.66855907 0.38757342
0.62080491 0.62080485 0.38757336
0.62080491 0.5730508 0.38757348
0.62080491 0.52529651 0.38757354
0.62080491 0.47754216 0.3875733
0.62080491 0.42978799 0.38757354
0.62080723 0.38203517 0.38758239
0.62080723 0.33428076 0.38758248
0.62080723 0.28652647 0.38758254
0.62080723 0.238772 0.38758254
0.62080723 0.19101764 0.38758248
0.62080723 0.14326334 0.38758251
0.62080961 0.095509216 0.38759151
0.62080961 0.047754571 0.38759151
0.62080961 2.9802322e-08 0.38759142
0.62080961 -0.047754511 0.38759154
0.62080961 -0.095509157 0.38759154
0.62080961 -0.14326371 0.38759148
0.62081194 -0.19101901 0.38760057
0.62081194 -0.23877379 0.38760054
0.62081194 -0.28652862 0.38760069
0.62081194 -0.33428341 0.38760054
0.62081194 -0.38203815 0.38760063
0.62081194 -0.42979294 0.3876006
0.62081194 -0.47754765 0.38760051
0.62081432 -0.52530444 0.3876096
0.67403495 0.86661625 0.40712994
0.67403495 0.81847107 0.40713
0.67403752 0.77032852 0.40713906
0.67403752 0.72218311 0.4071393
0.67403752 0.67403746 0.40713915
0.67403752 0.62589192 0.40713912
0.67403752 0.57774657 0.40713933
0.67403752 0.52960086 0.40713921
0.67404008 0.48145717 0.40714833
0.67404008 0.43331152 0.40714845
0.67404008 0.38516575 0.40714839
0.67404008 0.33701995 0.40714836
0.67404008 0.28887439 0.40714839
0.67404008 0.24072859 0.4071483
0.67404008 0.19258277 0.40714842
0.6740427 0.14443776 0.40715763
0.6740427 0.096291766 0.40715754
0.6740427 0.048145875 0.40715754
0.6740427 -1.4901161e-08 0.4071576
0.6740427 -0.04814589 0.4071576
0.67404526 -0.096292198 0.40716681
0.67404526 -0.14443827 0.40716681
0.67404526 -0.19258434 0.40716678
0.67404526 -0.24073045 0.40716672
0.67404526 -0.28887653 0.40716672
0.67404526 -0.33702254 0.40716672
0.67404526 -0.3851687 0.40716681
0.67404783 -0.43331644 0.40717599
0.67404783 -0.48146269 0.40717581
0.67404783 -0.52960896 0.4071759
0.72814977 0.77669311 0.42702815
0.72814977 0.72814971 0.42702818
0.72814977 0.67960662 0.4270283
0.72814977 0.63106328 0.42702836
0.72815257 0.58252209 0.42703757
0.72815257 0.53397858 0.42703769
0.72815257 0.48543504 0.42703757
0.72815257 0.43689147 0.42703748
0.72815257 0.38834801 0.42703763
0.72815257 0.33980459 0.42703769
0.72815257 0.29126105 0.4270376
0.72815537 0.24271849 0.42704701
0.72815537 0.19417474 0.4270469
0.72815537 0.14563102 0.42704695
0.72815537 0.097087458 0.42704701
0.72815537 0.048543632 0.42704695
0.72815818 4.4703484e-08 0.42705631
0.72815818 -0.04854393 0.42705628
0.72815818 -0.097087726 0.42705625
0.72815818 -0.14563164 0.42705628
0.72815818 -0.19417556 0.42705631
0.72815818 -0.24271944 0.42705634
0.72815818 -0.29126325 0.42705613
0.72816098 -0.33980852 0.42706552
0.72816098 -0.38835242 0.42706558
0.72816098 -0.43689647 0.42706558
0.72816098 -0.48544064 0.42706552
0.78316671 0.68527091 0.44725806
0.78316671 0.63632303 0.44725817
0.78316671 0.58737493 0.44725823
0.78316671 0.538427 0.44725809
0.78316671 0.48947918 0.44725823
0.78316671 0.44053119 0.44725817
0.78316671 0.39158329 0.44725803
0.78316975 0.34263676 0.44726771
0.78316975 0.29368868 0.44726774
0.78316975 0.24474058 0.44726777
0.78316975 0.19579236 0.44726762
0.78316975 0.14684436 0.44726774
0.78316975 0.097896248 0.44726777
0.78317273 0.048948318 0.44727725
0.78317273 -1.4901161e-08 0.44727719
0.78317273 -0.048948273 0.44727719
0.78317273 -0.097896621 0.44727731
0.78317273 -0.14684494 0.44727725
0.78317273 -0.19579311 0.44727716
0.78317583 -0.24474242 0.44728673
0.78317583 -0.29369089 0.44728664
0.78317583 -0.34263933 0.44728664
0.78317583 -0.39158785 0.44728673
0.78317583 -0.44053644 0.4472867
0.83910513 0.59230947 0.46781847
0.83910513 0.54295039 0.46781844
0.83910513 0.49359113 0.46781838
0.83910841 0.44423378 0.46782798
0.83910841 0.39487454 0.46782818
0.83910841 0.34551516 0.46782815
0.83910841 0.2961559 0.46782809
0.83910841 0.24679655 0.46782807
0.83910841 0.19743733 0.46782827
0.83911169 0.14807853 0.46783787
0.83911169 0.098718986 0.46783784
0.83911169 0.049359515 0.46783793
0.83911169 8.9406967e-08 0.46783781
0.83911169 -0.049359456 0.46783781
0.83911169 -0.098719075 0.46783787
0.83911496 -0.14807916 0.46784747
0.83911496 -0.19743878 0.46784753
0.83911496 -0.2467985 0.46784747
0.83911496 -0.29615819 0.46784747
0.83911496 -0.34551799 0.46784753
0.83911496 -0.39487761 0.46784759
0.89599496 0.4977749 0.48873699
0.89599496 0.44799748 0.48873714
0.89599496 0.39821991 0.48873708
0.89599496 0.34844241 0.48873699
0.89599496 0.29866508 0.48873705
0.89599848 0.24888846 0.48874688
0.89599848 0.1991109 0.48874688
0.89599848 0.14933303 0.48874688
0.89599848 0.099555463 0.48874685
0.89599848 0.049777776 0.48874688
0.89599848 -1.3411045e-07 0.48874685
0.89600199 -0.049777925 0.48875678
0.89600199 -0.099555746 0.48875663
0.89600199 -0.14933367 0.48875675
0.89600199 -0.19911151 0.4887566
0.89600199 -0.24888951 0.48875666
0.89600199 -0.29866734 0.48875669
0.89600551 -0.34844661 0.48876655
0.95385355 0.40162253 0.51000309
0.95385736 0.35142094 0.5100131
0.95385736 0.30121803 0.51001316
0.95385736 0.25101513 0.51001328
0.95385736 0.20081198 0.51001328
0.95385736 0.15060902 0.51001322
0.95385736 0.10040602 0.51001322
0.95385736 0.050202966 0.51001316
0.95386118 -0 0.51002324
0.95386118 -0.05020313 0.51002318
0.95386118 -0.10040645 0.51002318
0.95386118 -0.1506096 0.51002318
0.95386118 -0.20081285 0.51002324
0.95386493 -0.25101715 0.51003319
0.95386493 -0.30122057 0.51003325
0.95386493 -0.35142404 0.51003319
1.0127136 0.25317839 0.53164613
1.0127136 0.20254266 0.53164619
1.0127176 0.15190744 0.53165621
1.0127176 0.10127172 0.53165627
1.0127176 0.0506358 0.53165621
1.0127176 -2.9802322e-08 0.53165638
1.0127176 -0.05063583 0.53165632
1.0127176 -0.10127172 0.53165627
1.0127217 -0.15190813 0.53166652
1.0127217 -0.20254438 0.5316664
1.0127217 -0.25318035 0.5316664
1.0127217 -0.30381656 0.53166652
1.0725974 0.15322825 0.55366546
1.0725974 0.10215208 0.55366546
1.0725974 0.051076084 0.55366552
1.0725974 -0 0.55366546
1.0725974 -0.051076114 0.5536654
1.0726017 -0.10215256 0.55367589
1.0726017 -0.1532288 0.55367577
1.0726017 -0.20430507 0.55367589
1.0726017 -0.25538135 0.55367583
1.1335273 0.051523954 0.57606077
1.1335319 -5.9604645e-08 0.5760712
1.1335319 -0.051524103 0.57607126
1.1335319 -0.10304832 0.57607114
1.1335319 -0.15457256 0.57607126
1.1335319 -0.2060966 0.57607114
1.1955403 -0.051979989 0.59886295
1.1955403 -0.1039601 0.59886289
1.1955403 -0.15594 0.59886283
1.2586608 -0.15733264 0.62207228
