# .PCD v0.7 - Point Cloud Data file format
VERSION 0.7
FIELDS x y z
SIZE 4 4 4
TYPE F F F
COUNT 1 1 1
WIDTH 1352
HEIGHT 1
VIEWPOINT 0 0 0 1 0 0 0
POINTS 1352
DATA ascii
-0.94275802 -0.14503972 -0.18714143
-0.91212726 -0.10945526 -0.17588319
-0.91212726 -0.14594033 -0.17588325
-0.91212726 -0.18242541 -0.17588313
-0.88111365 -0.036713157 -0.16448426
-0.88111365 -0.073426187 -0.16448429
-0.88111365 -0.11013921 -0.16448429
-0.88111365 -0.14685215 -0.16448423
-0.88111365 -0.18356536 -0.16448426
-0.84971255 -1.4901161e-08 -0.15293652
-0.84971255 -0.036944043 -0.15293655
-0.84971005 -0.073887758 -0.1529419
-0.84971005 -0.11083169 -0.152942
-0.84971005 -0.14777564 -0.15294196
-0.84971005 -0.1847195 -0.15294199
-0.84971005 -0.22166345 -0.15294194
-0.81791139 0.074355602 -0.1412482
-0.81791139 0.037177697 -0.14124814
-0.81791139 5.2154064e-08 -0.14124814
-0.81791139 -0.037177764 -0.14124815
-0.81791139 -0.074355572 -0.14124817
-0.81791139 -0.11153339 -0.14124817
-0.817909 -0.1487108 -0.14125358
-0.817909 -0.18588835 -0.14125365
-0.817909 -0.223066 -0.14125365
-0.78570527 0.11224359 -0.12941092
-0.78570527 0.074829012 -0.12941086
-0.78570527 0.037414446 -0.12941082
-0.78570527 -2.2351742e-08 -0.12941085
-0.78570527 -0.037414588 -0.1294108
-0.78570527 -0.074829057 -0.12941083
-0.78570527 -0.11224353 -0.12941086
-0.78570527 -0.1496581 -0.1294108
-0.785703 -0.18707216 -0.12941639
-0.785703 -0.22448647 -0.12941641
-0.785703 -0.26190096 -0.12941644
-0.75308639 0.18827164 -0.11742187
-0.75308639 0.15061729 -0.11742181
-0.75308639 0.11296294 -0.11742193
-0.75308639 0.075308658 -0.11742178
-0.75308639 0.037654229 -0.11742182
-0.75308639 -3.3527613e-08 -0.11742184
-0.75308639 -0.037654292 -0.11742186
-0.75308639 -0.075308651 -0.11742181
-0.75308639 -0.11296299 -0.11742192
-0.75308639 -0.15061726 -0.11742178
-0.75308639 -0.18827161 -0.11742188
-0.75308412 -0.22592521 -0.11742734
-0.75308412 -0.2635794 -0.11742745
-0.72004879 0.26528117 -0.10527247
-0.72004879 0.22738382 -0.10527249
-0.72004879 0.18948647 -0.10527249
-0.72004879 0.15158921 -0.1052724
-0.72004879 0.11369195 -0.10527248
-0.72004664 0.075794332 -0.10527808
-0.72004664 0.037897244 -0.10527815
-0.72004664 -2.9802322e-08 -0.10527806
-0.72004664 -0.037897121 -0.10527813
-0.72004664 -0.075794302 -0.10527812
-0.72004664 -0.11369165 -0.10527813
-0.72004664 -0.15158874 -0.10527819
-0.72004664 -0.18948601 -0.1052781
-0.72004449 -0.22738242 -0.10528397
-0.72004449 -0.26527953 -0.10528386
-0.72004449 -0.30317652 -0.10528384
-0.68658006 0.30514669 -0.092971012
-0.68658006 0.2670033 -0.09297096
-0.68658006 0.22885996 -0.09297099
-0.68658006 0.19071667 -0.092971012
-0.68658006 0.15257336 -0.092971042
-0.68658006 0.11442997 -0.09297099
-0.68658006 0.076286659 -0.092971019
-0.68658006 0.038143262 -0.092970967
-0.68657798 -3.7252903e-08 -0.092976823
-0.68657798 -0.038143177 -0.092976838
-0.68657798 -0.07628648 -0.092976868
-0.68657798 -0.11442964 -0.092976719
-0.68657798 -0.15257284 -0.092976816
-0.68657798 -0.19071609 -0.092976756
-0.68657798 -0.22885939 -0.092976786
-0.68657583 -0.26700169 -0.092982568
-0.68657583 -0.30514482 -0.09298259
-0.65267384 0.38392583 -0.080508828
-0.65267384 0.34553322 -0.080508828
-0.65267384 0.30714059 -0.080508821
-0.65267384 0.26874796 -0.080508791
-0.65267384 0.23035547 -0.080508739
-0.65267384 0.191963 -0.080508865
-0.65267384 0.15357034 -0.080508821
-0.65267384 0.11517771 -0.080508955
-0.65267384 0.07678514 -0.080508828
-0.65267384 0.038392581 -0.080508873
-0.65267384 1.8626451e-08 -0.080508903
-0.65267384 -0.038392633 -0.080508873
-0.65267384 -0.076785117 -0.080508821
-0.65267384 -0.11517768 -0.080508865
-0.65267181 -0.15356989 -0.080514714
-0.65267181 -0.19196221 -0.080514647
-0.65267181 -0.23035476 -0.080514692
-0.65267181 -0.26874715 -0.080514714
-0.65266985 -0.30713886 -0.080520533
-0.65266985 -0.34553105 -0.080520451
-0.6183235 0.42509741 -0.067876801
-0.61832166 0.38645101 -0.067882642
-0.61832166 0.34780595 -0.067882717
-0.61832166 0.30916074 -0.067882687
-0.61832166 0.27051574 -0.067882814
-0.61832166 0.23187052 -0.067882776
-0.61832166 0.19322558 -0.067882642
-0.61832166 0.15458037 -0.067882605
-0.61832166 0.11593534 -0.067882724
-0.61832166 0.077290229 -0.067882769
-0.61832166 0.038645029 -0.067882732
-0.61832166 8.9406967e-08 -0.067882761
-0.61832166 -0.038645037 -0.067882642
-0.61832166 -0.077290148 -0.067882687
-0.61832166 -0.11593536 -0.06788265
-0.61831975 -0.15457986 -0.067888565
-0.61831975 -0.19322488 -0.067888685
-0.61831975 -0.23186991 -0.067888632
-0.61831975 -0.27051488 -0.067888677
-0.61831975 -0.30915987 -0.067888618
-0.61831784 -0.34780383 -0.067894578
-0.5835163 0.50571418 -0.055083334
-0.5835163 0.46681303 -0.055083394
-0.5835163 0.42791191 -0.055083424
-0.5835163 0.38901085 -0.055083394
-0.5835163 0.3501097 -0.055083394
-0.5835163 0.3112087 -0.055083267
-0.5835163 0.27230757 -0.055083305
-0.58351451 0.23340578 -0.055089414
-0.58351451 0.19450474 -0.055089362
-0.58351451 0.15560386 -0.055089302
-0.58351451 0.1167029 -0.05508934
-0.58351451 0.077801935 -0.055089377
-0.58351451 0.038900975 -0.05508941
-0.58351451 1.6763806e-08 -0.055089448
-0.58351451 -0.038900942 -0.055089481
-0.58351451 -0.077801824 -0.055089425
-0.58351451 -0.11670288 -0.055089384
-0.58351451 -0.15560393 -0.055089343
-0.58351266 -0.1945042 -0.055095322
-0.58351266 -0.23340508 -0.055095442
-0.58351266 -0.27230585 -0.055095464
-0.58351266 -0.31120682 -0.055095315
-0.58351266 -0.35010761 -0.05509536
-0.58351088 -0.38900721 -0.055101454
-0.54824513 0.54824513 -0.042119458
-0.54824513 0.5090847 -0.042119518
-0.54824513 0.46992436 -0.042119473
-0.54824513 0.43076405 -0.042119473
-0.54824513 0.39160356 -0.042119473
-0.54824513 0.35244328 -0.042119503
-0.54824513 0.31328291 -0.042119443
-0.54824513 0.27412254 -0.042119399
-0.54824513 0.23496212 -0.042119436
-0.54824513 0.19580184 -0.042119466
-0.5482434 0.15664092 -0.042125545
-0.5482434 0.11748072 -0.042125486
-0.5482434 0.078320444 -0.042125508
-0.5482434 0.039160259 -0.042125616
-0.5482434 6.3329935e-08 -0.042125553
-0.5482434 -0.039160132 -0.042125493
-0.5482434 -0.078320488 -0.042125612
-0.5482434 -0.11748068 -0.042125549
-0.5482434 -0.15664098 -0.042125404
-0.5482434 -0.19580132 -0.042125523
-0.54824173 -0.23496072 -0.04213167
-0.54824173 -0.27412075 -0.042131588
-0.54824173 -0.31328094 -0.042131692
-0.54824173 -0.35244113 -0.042131633
-0.54824001 -0.39159995 -0.042137638
-0.51250064 0.63076997 -0.028981566
-0.51250064 0.5913468 -0.028981656
-0.51250064 0.55192375 -0.028981537
-0.51250064 0.51250058 -0.028981611
-0.51250064 0.47307751 -0.028981581
-0.51250064 0.43365431 -0.028981507
-0.51250064 0.3942312 -0.028981477
-0.51250064 0.35480803 -0.028981552
-0.51250064 0.31538498 -0.028981596
-0.51250064 0.27596185 -0.028981522
-0.51250064 0.23653869 -0.02898147
-0.51250064 0.19711557 -0.028981581
-0.51250064 0.15769242 -0.028981533
-0.51250064 0.11826937 -0.028981555
-0.51250064 0.078846224 -0.028981499
-0.51250064 0.039423093 -0.028981613
-0.51249897 -1.8626451e-08 -0.028987726
-0.51249897 -0.039423071 -0.02898775
-0.51249897 -0.07884597 -0.02898759
-0.51249897 -0.11826894 -0.028987691
-0.51249897 -0.15769199 -0.028987713
-0.51249897 -0.19711494 -0.028987817
-0.51249737 -0.23653722 -0.028993867
-0.51249737 -0.27596012 -0.028993882
-0.51249737 -0.31538299 -0.02899389
-0.51249737 -0.35480589 -0.02899389
-0.51249737 -0.3942287 -0.028993815
-0.51249582 -0.43365026 -0.028999984
-0.4762747 0.67472249 -0.015659809
-0.4762747 0.63503283 -0.015659988
-0.4762747 0.59534335 -0.015659988
-0.47627318 0.55565202 -0.015666157
-0.47627318 0.5159626 -0.015666097
-0.47627318 0.47627318 -0.015666127
-0.47627318 0.4365837 -0.015666157
-0.47627318 0.39689428 -0.015666232
-0.47627318 0.35720485 -0.015666127
-0.47627318 0.31751537 -0.015666172
-0.47627318 0.27782607 -0.015666172
-0.47627318 0.23813662 -0.015666045
-0.47627318 0.19844714 -0.015666083
-0.47627318 0.15875776 -0.015666187
-0.47627318 0.11906821 -0.015666138
-0.47627318 0.079378821 -0.015666083
-0.47627318 0.039689448 -0.015666194
-0.47627318 -1.9092113e-08 -0.015666224
-0.47627318 -0.039689496 -0.015666088
-0.47627318 -0.079378799 -0.015666109
-0.47627166 -0.11906788 -0.015672453
-0.47627166 -0.15875727 -0.015672393
-0.47627166 -0.19844657 -0.015672415
-0.47627166 -0.23813587 -0.01567243
-0.47627017 -0.27782428 -0.01567857
-0.47627017 -0.31751341 -0.015678734
-0.47627017 -0.35720265 -0.015678659
-0.47627017 -0.39689183 -0.015678599
-0.47627017 -0.43658096 -0.015678599
-0.43955436 0.75923032 -0.0021632314
-0.43955436 0.71927083 -0.0021633208
-0.43955436 0.67931139 -0.0021632314
-0.43955436 0.63935184 -0.002163291
-0.43955436 0.59939229 -0.0021633208
-0.43955436 0.55943286 -0.0021632612
-0.43955436 0.51947331 -0.0021633208
-0.43955436 0.47951373 -0.0021633059
-0.43955436 0.43955439 -0.0021631718
-0.43955296 0.39959365 -0.0021695793
-0.43955296 0.35963422 -0.0021697134
-0.43955296 0.31967497 -0.0021696538
-0.43955296 0.27971554 -0.002169624
-0.43955296 0.23975611 -0.0021695867
-0.43955296 0.19979677 -0.0021696389
-0.43955296 0.15983748 -0.0021695867
-0.43955296 0.11987814 -0.002169624
-0.43955296 0.079918712 -0.0021695904
-0.43955296 0.039959364 -0.0021696333
-0.43955296 1.0093208e-07 -0.0021695858
-0.43955296 -0.039959244 -0.0021696277
-0.43955296 -0.079918757 -0.0021696836
-0.43955296 -0.11987819 -0.0021696463
-0.43955159 -0.15983698 -0.0021759868
-0.43955159 -0.19979626 -0.0021759421
-0.43955159 -0.23975542 -0.0021759719
-0.43955159 -0.27971461 -0.0021760017
-0.43955019 -0.31967282 -0.0021823794
-0.43955019 -0.35963199 -0.0021822453
-0.43955019 -0.39959109 -0.0021823496
-0.43955019 -0.43955016 -0.00218229
-0.43955019 -0.47950923 -0.0021822304
-0.40233117 0.80466235 0.01151818
-0.40233117 0.76442921 0.011518151
-0.40233117 0.72419614 0.01151818
-0.40233117 0.68396294 0.011518091
-0.40233117 0.64372993 0.01151818
-0.40233117 0.60349679 0.01151821
-0.40233117 0.5632636 0.011518061
-0.40233117 0.52303052 0.01151821
-0.40233117 0.48279741 0.01151821
-0.40233117 0.44256419 0.011518151
-0.40233117 0.40233114 0.011518061
-0.40233117 0.3620981 0.011518165
-0.40232989 0.32186395 0.011511669
-0.40232989 0.28163084 0.011511654
-0.40232989 0.2413979 0.011511676
-0.40232989 0.20116496 0.011511676
-0.40232989 0.16093192 0.011511765
-0.40232989 0.1206989 0.011511691
-0.40232989 0.08046595 0.011511698
-0.40232989 0.040233005 0.011511711
-0.40232989 -1.071021e-07 0.01151171
-0.40232989 -0.040233053 0.01151172
-0.40232989 -0.080465995 0.011511732
-0.40232989 -0.12069903 0.011511818
-0.40232861 -0.16093141 0.011505365
-0.40232861 -0.20116436 0.01150538
-0.40232861 -0.24139723 0.011505313
-0.40232861 -0.28162998 0.011505321
-0.40232861 -0.32186294 0.01150535
-0.40232733 -0.36209464 0.011498928
-0.40232733 -0.40232733 0.011498883
-0.40232733 -0.44256011 0.011498898
-0.40232733 -0.48279279 0.011498854
-0.36459583 0.89123416 0.025394738
-0.36459583 0.85072362 0.025394797
-0.3645947 0.81021041 0.0253883
-0.3645947 0.76969993 0.0253883
-0.3645947 0.72918922 0.025388181
-0.3645947 0.68867874 0.025388181
-0.3645947 0.64816821 0.025388181
-0.3645947 0.60765785 0.025388271
-0.3645947 0.56714725 0.02538833
-0.3645947 0.52663684 0.02538833
-0.3645947 0.48612618 0.0253883
-0.3645947 0.44561571 0.0253883
-0.3645947 0.40510523 0.025388271
-0.3645947 0.36459473 0.0253883
-0.3645947 0.3240841 0.025388241
-0.3645947 0.28357363 0.025388271
-0.3645947 0.24306309 0.025388286
-0.3645947 0.20255259 0.025388315
-0.36459351 0.16204154 0.025381714
-0.36459351 0.1215311 0.025381822
-0.36459351 0.081020765 0.025381694
-0.36459351 0.040510416 0.025381733
-0.36459351 -9.3132257e-09 0.025381681
-0.36459351 -0.040510446 0.025381796
-0.36459351 -0.081020877 0.025381744
-0.36459351 -0.12153113 0.025381703
-0.36459351 -0.16204156 0.025381655
-0.36459234 -0.20255125 0.025375143
-0.36459234 -0.24306151 0.025375277
-0.36459234 -0.28357178 0.025375232
-0.36459234 -0.32408202 0.025375202
-0.36459234 -0.36459237 0.025375232
-0.36459115 -0.40510124 0.02536878
-0.36459115 -0.44561142 0.025368676
-0.36459115 -0.48612142 0.02536872
-0.36459115 -0.52663165 0.02536869
-0.32633525 0.93821371 0.03945744
-0.32633525 0.89742184 0.03945744
-0.32633525 0.85662997 0.03945747
-0.32633525 0.81583798 0.03945747
-0.32633525 0.77504611 0.0394575
-0.32633421 0.73425198 0.039451033
-0.32633421 0.69346023 0.039451033
-0.32633421 0.65266836 0.039451003
-0.32633421 0.61187649 0.039450854
-0.32633421 0.5710848 0.039451003
-0.32633421 0.53029299 0.039450943
-0.32633421 0.4895013 0.039450973
-0.32633421 0.44870943 0.039450943
-0.32633421 0.40791774 0.039450973
-0.32633421 0.36712602 0.039451003
-0.32633421 0.32633421 0.039450943
-0.32633421 0.2855424 0.039451048
-0.32633421 0.24475068 0.039450891
-0.32633421 0.20395888 0.039451003
-0.32633421 0.16316707 0.039450936
-0.32633421 0.12237536 0.039450966
-0.32633421 0.081583634 0.039450996
-0.32633421 0.04079175 0.039451007
-0.32633314 7.4505806e-09 0.039444439
-0.32633314 -0.04079162 0.039444387
-0.32633314 -0.081583254 0.039444335
-0.32633314 -0.12237497 0.039444365
-0.32633314 -0.16316661 0.039444312
-0.32633314 -0.20395815 0.03944435
-0.32633206 -0.24474913 0.039437748
-0.32633206 -0.28554052 0.039437808
-0.32633206 -0.32633206 0.039437845
-0.32633206 -0.3671236 0.039437711
-0.32633102 -0.40791374 0.039431185
-0.32633102 -0.44870505 0.039431155
-0.32633102 -0.48949653 0.03943111
-0.32633102 -0.53028786 0.03943117
-0.28753966 1.0269274 0.053717017
-0.28753966 0.98585033 0.053717136
-0.28753966 0.94477314 0.053717047
-0.28753966 0.90369594 0.053716958
-0.28753966 0.86261898 0.053717017
-0.28753966 0.82154202 0.053717107
-0.28753966 0.78046483 0.053717017
-0.28753966 0.73938763 0.053716958
-0.28753966 0.69831061 0.053717017
-0.28753966 0.65723348 0.053716928
-0.28753966 0.61615646 0.053717047
-0.28753874 0.57507747 0.053710341
-0.28753874 0.53400052 0.053710356
-0.28753874 0.49292344 0.053710312
-0.28753874 0.4518466 0.053710282
-0.28753874 0.41076958 0.053710371
-0.28753874 0.36969268 0.053710371
-0.28753874 0.32861561 0.053710356
-0.28753874 0.28753871 0.053710163
-0.28753874 0.24646182 0.053710319
-0.28753874 0.20538485 0.053710222
-0.28753874 0.16430786 0.053710289
-0.28753874 0.12323087 0.053710353
-0.28753874 0.082153983 0.053710341
-0.28753874 0.041076921 0.053710315
-0.28753874 -4.8428774e-08 0.053710215
-0.28753874 -0.041076954 0.053710375
-0.28753781 -0.082153529 0.053703621
-0.28753781 -0.12323042 0.053703614
-0.28753781 -0.16430731 0.053703602
-0.28753781 -0.20538412 0.053703509
-0.28753686 -0.2464602 0.05369696
-0.28753686 -0.28753683 0.053696886
-0.28753686 -0.32861355 0.053696886
-0.28753686 -0.36969018 0.05369699
-0.28753686 -0.41076684 0.053696916
-0.28753594 -0.45184213 0.05369015
-0.28753594 -0.4929187 0.05369018
-0.28753594 -0.53399527 0.053690195
-0.28753594 -0.57507175 0.053690314
-0.24819778 1.0755236 0.068177164
-0.24819778 1.0341574 0.068177104
-0.24819778 0.9927913 0.068177253
-0.24819778 0.9514249 0.068177283
-0.24819778 0.91005862 0.068177253
-0.24819778 0.86869228 0.068177223
-0.24819778 0.82732606 0.068177193
-0.24819778 0.78595966 0.068177193
-0.24819778 0.7445935 0.068177372
-0.24819778 0.70322704 0.068177164
-0.24819778 0.6618607 0.068177193
-0.24819778 0.62049443 0.068177164
-0.24819778 0.57912815 0.068177134
-0.24819778 0.53776193 0.068177223
-0.24819778 0.49639559 0.068177238
-0.24819778 0.45502931 0.068177164
-0.24819697 0.41366166 0.068170458
-0.24819697 0.37229544 0.068170354
-0.24819697 0.33092934 0.068170503
-0.24819697 0.28956318 0.068170495
-0.24819697 0.24819699 0.068170391
-0.24819697 0.20683086 0.068170391
-0.24819697 0.16546464 0.068170451
-0.24819697 0.12409849 0.068170443
-0.24819697 0.082732372 0.068170428
-0.24819697 0.041366078 0.068170406
-0.24819697 2.6077032e-08 0.068170488
-0.24819697 -0.041366182 0.068170384
-0.24819697 -0.082732305 0.068170376
-0.24819617 -0.12409811 0.068163626
-0.24819617 -0.16546407 0.068163626
-0.24819617 -0.20683011 0.0681637
-0.24819617 -0.24819615 0.068163618
-0.24819535 -0.28956127 0.06815692
-0.24819535 -0.33092716 0.068156853
-0.24819535 -0.37229294 0.068156853
-0.24819535 -0.41365892 0.068156868
-0.24819535 -0.45502478 0.068156779
-0.24819455 -0.49638897 0.068150058
-0.24819455 -0.53775477 0.068150088
-0.24819455 -0.57912046 0.068150014
-0.20829871 1.0831532 0.082849503
-0.20829871 1.0414935 0.082849473
-0.20829801 0.99983037 0.08284235
-0.20829801 0.95817089 0.08284241
-0.20829801 0.91651118 0.08284235
-0.20829801 0.8748517 0.082842469
-0.20829801 0.83319205 0.08284241
-0.20829801 0.79153228 0.08284235
-0.20829801 0.7498728 0.082842469
-0.20829801 0.70821315 0.08284241
-0.20829801 0.66655374 0.082842678
-0.20829801 0.62489414 0.082842588
-0.20829801 0.58323455 0.082842588
-0.20829801 0.5415749 0.082842514
-0.20829801 0.49991524 0.082842588
-0.20829801 0.45825565 0.082842469
-0.20829801 0.41659606 0.082842469
-0.20829801 0.37493646 0.082842499
-0.20829801 0.33327678 0.082842425
-0.20829801 0.29161721 0.082842439
-0.20829733 0.24995685 0.082835555
-0.20829733 0.20829734 0.082835667
-0.20829733 0.16663791 0.082835704
-0.20829733 0.12497833 0.082835548
-0.20829733 0.083318904 0.08283557
-0.20829733 0.041659482 0.082835607
-0.20829733 5.5879354e-08 0.08283563
-0.20829733 -0.041659534 0.082835652
-0.20829733 -0.083318859 0.082835607
-0.20829733 -0.12497838 0.082835704
-0.20829664 -0.16663738 0.082828753
-0.20829664 -0.20829654 0.082828723
-0.20829664 -0.24995604 0.082828656
-0.20829664 -0.29161531 0.082828701
-0.20829596 -0.33327362 0.082821794
-0.20829596 -0.37493271 0.082821861
-0.20829596 -0.41659188 0.082821816
-0.20829596 -0.45825112 0.082821846
-0.20829596 -0.49991027 0.082821831
-0.20829527 -0.54156756 0.082814991
-0.20829527 -0.58322674 0.082814947
-0.20829527 -0.62488574 0.082814932
-0.16782896 1.0489309 0.097724169
-0.16782896 1.0069737 0.097724229
-0.16782896 0.96501637 0.09772408
-0.16782896 0.92305928 0.097724259
-0.16782896 0.88110191 0.09772411
-0.1678284 0.83914196 0.097717315
-0.1678284 0.79718488 0.097717226
-0.1678284 0.7552278 0.097717196
-0.1678284 0.71327072 0.097717345
-0.1678284 0.67131364 0.097717285
-0.1678284 0.62935656 0.097717315
-0.1678284 0.58739936 0.097717151
-0.1678284 0.54544222 0.097717121
-0.1678284 0.50348508 0.097717166
-0.1678284 0.46152806 0.097717226
-0.1678284 0.41957104 0.097717226
-0.1678284 0.37761393 0.097717151
-0.1678284 0.33565682 0.097717233
-0.1678284 0.29369971 0.097717322
-0.1678284 0.2517426 0.097717226
-0.1678284 0.20978549 0.097717144
-0.16782784 0.16782781 0.09771017
-0.16782784 0.12587085 0.097710267
-0.16782784 0.083913922 0.0977102
-0.16782784 0.041956902 0.097710207
-0.16782784 -3.7252903e-08 0.097710304
-0.16782784 -0.041956969 0.097710229
-0.16782784 -0.0839139 0.097710162
-0.16782784 -0.12587085 0.097710252
-0.16782728 -0.16782728 0.097703293
-0.16782728 -0.20978414 0.097703308
-0.16782728 -0.2517409 0.097703256
-0.16782728 -0.29369766 0.097703196
-0.16782728 -0.3356545 0.097703211
-0.16782671 -0.37761009 0.097696304
-0.16782671 -0.41956687 0.097696245
-0.16782671 -0.46152353 0.097696275
-0.16782671 -0.50348008 0.097696334
-0.16782616 -0.54543507 0.097689211
-0.16782616 -0.58739156 0.097689271
-0.16782616 -0.6293481 0.097689301
-0.12677704 1.0142163 0.112813
-0.12677704 0.97195733 0.112813
-0.12677704 0.92969835 0.11281297
-0.12677704 0.88743925 0.112813
-0.12677704 0.84518027 0.11281297
-0.12677704 0.8029213 0.11281297
-0.12677704 0.7606622 0.11281297
-0.12677704 0.71840322 0.112813
-0.12677662 0.67614192 0.11280584
-0.12677662 0.63388288 0.11280578
-0.12677662 0.59162426 0.11280598
-0.12677662 0.54936534 0.11280586
-0.12677662 0.50710642 0.11280578
-0.12677662 0.46484762 0.1128059
-0.12677662 0.42258877 0.11280592
-0.12677662 0.38032991 0.11280593
-0.12677662 0.33807099 0.11280585
-0.12677662 0.29581213 0.11280587
-0.12677662 0.25355327 0.11280588
-0.12677662 0.21129441 0.11280589
-0.12677662 0.16903555 0.1128059
-0.12677662 0.12677664 0.11280581
-0.12677662 0.084517777 0.11280582
-0.12677662 0.042259011 0.11280592
-0.12677619 7.4505806e-09 0.11279882
-0.12677619 -0.04225868 0.11279884
-0.12677619 -0.084517442 0.11279878
-0.12677619 -0.12677613 0.1127988
-0.12677619 -0.16903497 0.11279882
-0.12677577 -0.21129288 0.11279169
-0.12677577 -0.25355154 0.11279172
-0.12677577 -0.29581016 0.11279167
-0.12677577 -0.33806866 0.11279171
-0.12677577 -0.38032728 0.11279182
-0.12677535 -0.42258456 0.11278465
-0.12677535 -0.464843 0.11278462
-0.12677535 -0.50710142 0.11278459
-0.12677535 -0.5493598 0.11278461
-0.12677492 -0.59161627 0.11277755
-0.12677492 -0.6338746 0.11277761
-0.12677492 -0.67613286 0.11277756
-0.085130326 1.0215639 0.12812042
-0.085130326 0.97899872 0.12812045
-0.085130326 0.93643355 0.12812039
-0.085130326 0.89386851 0.12812054
-0.085130326 0.85130316 0.1281203
-0.085130326 0.80873811 0.12812048
-0.085130326 0.76617289 0.12812045
-0.085130326 0.72360778 0.12812039
-0.085130326 0.68104255 0.12812042
-0.085130326 0.6384775 0.12812054
-0.085130043 0.59591031 0.12811317
-0.085130043 0.5533452 0.12811315
-0.085130043 0.51078027 0.12811323
-0.085130043 0.4682152 0.12811325
-0.085130043 0.42565012 0.12811328
-0.085130043 0.38308525 0.12811317
-0.085130043 0.3405202 0.12811327
-0.085130043 0.29795516 0.1281133
-0.085130043 0.25539008 0.12811333
-0.085130043 0.21282512 0.12811311
-0.085130043 0.1702601 0.12811323
-0.085130043 0.12769502 0.12811325
-0.085130043 0.085130043 0.1281132
-0.085130043 0.04256497 0.12811324
-0.085130043 6.7055225e-08 0.12811327
-0.085130043 -0.042565014 0.1281133
-0.085129753 -0.085129716 0.12810609
-0.085129753 -0.12769471 0.12810603
-0.085129753 -0.17025952 0.12810598
-0.085129753 -0.21282434 0.12810595
-0.085129462 -0.25538838 0.1280988
-0.085129462 -0.29795313 0.12809885
-0.085129462 -0.34051785 0.12809891
-0.085129462 -0.38308251 0.12809888
-0.085129172 -0.42564586 0.12809159
-0.085129172 -0.46821043 0.12809165
-0.085129172 -0.51077497 0.12809171
-0.085129172 -0.55333966 0.12809171
-0.085129172 -0.59590423 0.12809177
-0.085128888 -0.63846666 0.12808447
-0.085128888 -0.68103111 0.12808442
-0.042875778 0.98614287 0.14365125
-0.042875778 0.94326711 0.14365125
-0.042875778 0.90039134 0.14365119
-0.042875778 0.85751563 0.14365137
-0.042875778 0.81463993 0.14365134
-0.042875778 0.77176416 0.14365131
-0.042875778 0.72888833 0.14365131
-0.042875778 0.68601251 0.14365131
-0.042875778 0.64313668 0.14365131
-0.042875778 0.60026091 0.14365129
-0.042875778 0.55738503 0.1436512
-0.042875778 0.51450932 0.1436514
-0.042875778 0.47163367 0.14365128
-0.042875633 0.42875633 0.14364396
-0.042875633 0.38588071 0.14364393
-0.042875633 0.34300503 0.14364401
-0.042875633 0.30012941 0.14364398
-0.042875633 0.25725383 0.14364395
-0.042875633 0.21437821 0.14364395
-0.042875633 0.17150252 0.14364399
-0.042875633 0.12862682 0.14364389
-0.042875633 0.085751213 0.14364403
-0.042875633 0.042875703 0.14364395
-0.042875633 7.4505806e-09 0.14364401
-0.042875633 -0.042875603 0.14364398
-0.042875487 -0.085750923 0.14363664
-0.042875487 -0.12862653 0.14363661
-0.042875487 -0.17150196 0.14363661
-0.042875487 -0.2143774 0.14363661
-0.042875342 -0.25725207 0.14362946
-0.042875342 -0.30012742 0.14362939
-0.042875342 -0.34300277 0.1436293
-0.042875342 -0.38587803 0.1436293
-0.042875342 -0.42875341 0.1436294
-0.042875197 -0.47162709 0.14362209
-0.042875197 -0.51450229 0.14362219
-0.042875197 -0.55737758 0.14362201
-0.042875197 -0.60025275 0.14362212
-0.042875197 -0.64312792 0.14362204
-0.042875051 -0.68600076 0.1436148
-0.042875051 -0.72887582 0.14361471
0 0.95020127 0.15941048
0 0.9070102 0.15941042
0 0.86381936 0.15941048
0 0.82062829 0.15941039
0 0.77743721 0.15941036
0 0.73424637 0.15941042
0 0.6910553 0.15941033
0 0.64786446 0.15941042
0 0.60467339 0.15941033
0 0.56148255 0.15941042
0 0.51829159 0.15941042
0 0.47510052 0.15941036
0 0.43190965 0.15941045
0 0.38871872 0.15941045
0 0.34552652 0.15940301
0 0.30233565 0.15940292
0 0.25914484 0.15940312
0 0.21595415 0.15940304
0 0.17276318 0.15940304
0 0.12957248 0.159403
0 0.086381704 0.159403
0 0.043190736 0.15940301
0 3.7252903e-08 0.15940295
0 -0.043190841 0.15940304
0 -0.086381629 0.15940306
0 -0.12957196 0.15939558
0 -0.17276268 0.15939569
0 -0.21595336 0.15939562
0 -0.25914398 0.15939566
0 -0.30233365 0.15938824
0 -0.34552416 0.15938818
0 -0.38871467 0.15938812
0 -0.43190524 0.15938826
0 -0.47509569 0.15938812
0 -0.51828444 0.15938085
0 -0.5614748 0.15938082
0 -0.60466516 0.15938078
0 -0.64785552 0.15938075
0 -0.69104362 0.15937343
0 -0.73423374 0.15937349
0.043510962 0.91373014 0.17541051
0.043510813 0.87021631 0.175403
0.043510813 0.82670546 0.17540303
0.043510813 0.78319466 0.175403
0.043510813 0.73968387 0.17540297
0.043510813 0.69617301 0.175403
0.043510813 0.65266216 0.17540298
0.043510813 0.60915136 0.17540295
0.043510813 0.56564057 0.17540291
0.043510813 0.52212977 0.17540298
0.043510813 0.47861904 0.17540295
0.043510813 0.43510813 0.17540297
0.043510813 0.39159727 0.175403
0.043510813 0.34808648 0.17540294
0.043510813 0.30457559 0.17540297
0.043510813 0.26106489 0.175403
0.043510813 0.21755409 0.17540295
0.043510664 0.1740426 0.1753955
0.043510664 0.13053198 0.17539546
0.043510664 0.087021276 0.1753955
0.043510664 0.043510657 0.17539546
0.043510664 -5.2154064e-08 0.1753955
0.043510664 -0.043510668 0.17539546
0.043510664 -0.087021276 0.17539543
0.043510664 -0.130532 0.17539547
0.043510515 -0.17404206 0.17538804
0.043510515 -0.2175526 0.1753879
0.043510515 -0.26106313 0.17538796
0.043510515 -0.3045736 0.17538793
0.043510366 -0.34808287 0.17538047
0.043510366 -0.39159319 0.17538047
0.043510366 -0.43510354 0.17538053
0.043510366 -0.47861397 0.17538051
0.043510366 -0.52212435 0.17538041
0.043510213 -0.5656327 0.17537293
0.043510213 -0.60914302 0.17537309
0.043510213 -0.6526531 0.17537291
0.043510213 -0.69616348 0.17537296
0.043510064 -0.73967111 0.17536545
0.043510064 -0.78318119 0.17536536
0.087671183 0.87671185 0.19164187
0.087671183 0.83287621 0.19164181
0.087670878 0.78903794 0.19163427
0.087670878 0.74520242 0.19163415
0.087670878 0.70136702 0.19163424
0.087670878 0.6575315 0.19163416
0.087670878 0.61369616 0.19163416
0.087670878 0.56986058 0.19163409
0.087670878 0.52602524 0.19163413
0.087670878 0.48218977 0.19163427
0.087670878 0.43835437 0.19163422
0.087670878 0.394519 0.1916343
0.087670878 0.35068339 0.19163422
0.087670878 0.30684814 0.19163421
0.087670878 0.26301271 0.19163418
0.087670878 0.21917717 0.19163422
0.087670878 0.17534181 0.19163427
0.087670878 0.13150631 0.19163415
0.087670572 0.087670505 0.19162656
0.087670572 0.043835312 0.19162662
0.087670572 3.7252903e-08 0.19162659
0.087670572 -0.043835223 0.19162656
0.087670572 -0.08767058 0.19162662
0.087670572 -0.13150594 0.1916265
0.087670267 -0.17534056 0.19161901
0.087670267 -0.21917565 0.19161899
0.087670267 -0.26301083 0.19161889
0.087670267 -0.30684593 0.19161904
0.087670267 -0.35068101 0.19161886
0.087669969 -0.39451474 0.19161135
0.087669969 -0.43834984 0.19161135
0.087669969 -0.48218477 0.19161132
0.087669969 -0.52601987 0.19161132
0.087669656 -0.56985283 0.19160379
0.087669656 -0.61368746 0.19160372
0.087669656 -0.6575225 0.19160379
0.087669656 -0.70135719 0.19160372
0.087669656 -0.74519199 0.19160366
0.08766935 -0.78902411 0.191596
0.1324953 0.88330185 0.20811713
0.1324953 0.8391369 0.20811722
0.1324953 0.79497176 0.20811719
0.1324953 0.75080657 0.20811713
0.1324953 0.70664155 0.20811725
0.1324953 0.66247654 0.20811716
0.13249484 0.61830926 0.20810945
0.13249484 0.57414412 0.20810935
0.13249484 0.52997935 0.20810957
0.13249484 0.48581448 0.20810945
0.13249484 0.44164938 0.20810948
0.13249484 0.39748442 0.20810944
0.13249484 0.35331967 0.2081095
0.13249484 0.30915469 0.20810944
0.13249484 0.26498961 0.20810947
0.13249484 0.22082481 0.20810944
0.13249484 0.17665981 0.20810939
0.13249484 0.13249481 0.20810951
0.13249484 0.088329926 0.20810938
0.13249484 0.044165015 0.20810944
0.13249484 -6.7055225e-08 0.20810947
0.13249436 -0.044164807 0.20810166
0.13249436 -0.088329554 0.20810172
0.13249436 -0.13249438 0.20810167
0.13249436 -0.17665918 0.20810163
0.1324939 -0.22082311 0.2080939
0.1324939 -0.26498786 0.20809396
0.1324939 -0.30915231 0.20809394
0.1324939 -0.35331705 0.20809399
0.1324939 -0.39748171 0.208094
0.13249344 -0.44164476 0.20808612
0.13249344 -0.48580933 0.20808619
0.13249344 -0.52997375 0.20808628
0.13249344 -0.57413822 0.20808628
0.13249297 -0.61830056 0.20807847
0.13249297 -0.66246492 0.20807847
0.13249297 -0.70662916 0.20807838
0.13249297 -0.75079346 0.20807838
0.13249251 -0.79495496 0.20807073
0.13249251 -0.8391192 0.20807084
0.17799838 0.84549236 0.22484216
0.17799838 0.80099285 0.22484216
0.17799838 0.75649321 0.22484219
0.17799838 0.71199352 0.2248421
0.17799838 0.667494 0.22484206
0.17799838 0.62299442 0.2248421
0.17799838 0.57849467 0.22484201
0.17799775 0.53399324 0.22483419
0.17799775 0.48949373 0.22483416
0.17799775 0.44499439 0.22483417
0.17799775 0.40049493 0.22483411
0.17799775 0.35599554 0.22483429
0.17799775 0.31149602 0.22483429
0.17799775 0.26699665 0.22483429
0.17799775 0.22249722 0.22483422
0.17799775 0.17799778 0.22483414
0.17799775 0.13349825 0.22483429
0.17799775 0.088998824 0.22483423
0.17799775 0.044499382 0.22483414
0.17799775 1.0430813e-07 0.22483425
0.17799775 -0.04449942 0.22483425
0.17799713 -0.088998623 0.22482641
0.17799713 -0.13349789 0.22482634
0.17799713 -0.17799717 0.22482628
0.17799713 -0.22249644 0.22482638
0.1779965 -0.26699471 0.22481853
0.1779965 -0.3114939 0.22481856
0.1779965 -0.35599291 0.22481857
0.1779965 -0.40049204 0.22481854
0.17799588 -0.44498968 0.22481063
0.17799588 -0.48948872 0.22481069
0.17799588 -0.53398764 0.22481062
0.17799588 -0.57848656 0.22481059
0.17799588 -0.62298548 0.22481056
0.17799525 -0.66748214 0.22480282
0.17799525 -0.71198094 0.22480285
0.17799525 -0.75647986 0.22480291
0.17799525 -0.8009786 0.22480288
0.17799462 -0.84547436 0.22479498
0.224196 0.80710566 0.24182242
0.224196 0.76226628 0.24182215
0.224196 0.71742719 0.24182224
0.224196 0.67258799 0.24182223
0.224196 0.62774873 0.24182215
0.224196 0.58290958 0.24182233
0.224196 0.53807038 0.24182224
0.224196 0.4932313 0.24182235
0.224196 0.44839191 0.24182227
0.224196 0.4035528 0.24182224
0.22419521 0.3587124 0.24181423
0.22419521 0.31387326 0.24181424
0.22419521 0.2690343 0.24181427
0.22419521 0.22419515 0.24181427
0.22419521 0.17935611 0.2418142
0.22419521 0.13451713 0.2418144
0.22419521 0.089678079 0.24181432
0.22419521 0.044839047 0.24181426
0.22419521 -2.2351742e-08 0.24181435
0.22419521 -0.044839062 0.24181429
0.22419441 -0.089677773 0.24180621
0.22419441 -0.13451658 0.24180624
0.22419441 -0.17935553 0.24180627
0.22419441 -0.22419444 0.24180639
0.22419362 -0.2690323 0.24179837
0.22419362 -0.31387103 0.24179833
0.22419362 -0.35870963 0.24179837
0.22419362 -0.40354845 0.2417984
0.22419362 -0.44838715 0.24179837
0.22419281 -0.49322426 0.24179032
0.22419281 -0.53806269 0.24179038
0.22419281 -0.58290136 0.24179044
0.22419281 -0.62773991 0.2417904
0.22419281 -0.67257851 0.24179046
0.22419202 -0.7174145 0.24178232
0.22419202 -0.76225293 0.24178237
0.22419202 -0.80709136 0.24178243
0.22419202 -0.85192966 0.24178234
0.22419122 -0.89676476 0.24177432
0.27110416 0.7681284 0.25906348
0.27110416 0.72294438 0.25906363
0.27110416 0.67776036 0.25906351
0.27110416 0.63257635 0.2590636
0.27110416 0.58739221 0.25906354
0.27110416 0.54220831 0.2590636
0.27110416 0.49702424 0.25906351
0.27110416 0.45184025 0.25906366
0.27110416 0.40665609 0.2590636
0.27110416 0.36147228 0.25906357
0.27110416 0.31628814 0.25906354
0.27110317 0.27110329 0.25905558
0.27110317 0.22591932 0.25905555
0.27110317 0.1807355 0.25905555
0.27110317 0.13555169 0.25905555
0.27110317 0.090367705 0.25905553
0.27110317 0.04518389 0.2590555
0.27110317 -8.9406967e-08 0.25905547
0.27110317 -0.045183904 0.25905547
0.27110317 -0.09036772 0.25905544
0.27110222 -0.13555112 0.25904733
0.27110222 -0.18073484 0.25904742
0.27110222 -0.2259185 0.25904742
0.27110222 -0.27110213 0.25904742
0.27110127 -0.31628487 0.25903937
0.27110127 -0.36146826 0.25903931
0.27110127 -0.40665188 0.25903931
0.27110127 -0.45183539 0.25903928
0.27110127 -0.49701887 0.25903934
0.27110028 -0.54220062 0.25903124
0.27110028 -0.58738399 0.25903127
0.27110028 -0.63256735 0.25903121
0.27110028 -0.67775059 0.25903124
0.2710993 -0.7229315 0.25902316
0.2710993 -0.76811475 0.25902325
0.2710993 -0.81329787 0.25902313
0.2710993 -0.85848117 0.25902316
0.27109835 -0.90366113 0.25901508
0.31873938 0.72854716 0.27657211
0.31873938 0.68301284 0.2765722
0.31873938 0.63747889 0.27657235
0.31873938 0.59194458 0.27657211
0.31873938 0.54641044 0.27657208
0.31873938 0.50087607 0.2765722
0.31873938 0.45534194 0.2765722
0.31873938 0.40980786 0.27657223
0.31873938 0.36427352 0.2765722
0.31873938 0.31873938 0.27657214
0.31873938 0.27320528 0.2765722
0.31873938 0.22767104 0.27657223
0.31873938 0.18213671 0.2765722
0.31873938 0.13660257 0.27657217
0.31873822 0.091067985 0.276564
0.31873822 0.045533992 0.27656397
0.31873822 1.4901161e-08 0.27656394
0.31873822 -0.045533977 0.27656394
0.31873822 -0.091068067 0.27656397
0.31873822 -0.13660222 0.27656394
0.31873709 -0.18213542 0.27655572
0.31873709 -0.22766925 0.27655569
0.31873709 -0.27320331 0.27655575
0.31873709 -0.31873706 0.27655581
0.31873593 -0.36426967 0.27654752
0.31873593 -0.40980333 0.27654752
0.31873593 -0.45533705 0.27654743
0.31873593 -0.50087082 0.27654755
0.31873593 -0.54640436 0.27654746
0.31873479 -0.59193593 0.27653933
0.31873479 -0.63746965 0.27653942
0.31873479 -0.68300301 0.27653936
0.31873479 -0.72853661 0.27653927
0.31873363 -0.7740674 0.2765311
0.31873363 -0.8196007 0.27653098
0.31873363 -0.86513412 0.2765311
0.31873363 -0.91066754 0.27653107
0.3187325 -0.95619738 0.27652293
0.36711875 0.73423755 0.29435432
0.36711875 0.68834758 0.2943542
0.36711875 0.64245784 0.29435429
0.36711875 0.59656781 0.29435426
0.36711875 0.55067807 0.29435432
0.36711875 0.50478816 0.2943542
0.36711875 0.45889843 0.29435426
0.36711875 0.41300869 0.29435435
0.36711875 0.36711878 0.29435426
0.36711875 0.32122895 0.29435438
0.36711875 0.27533898 0.29435417
0.36711875 0.22944921 0.29435423
0.36711875 0.1835593 0.29435429
0.36711875 0.13766947 0.29435426
0.36711875 0.091779716 0.29435432
0.36711875 0.045889892 0.29435432
0.3671174 8.9406967e-08 0.29434592
0.3671174 -0.045889735 0.29434592
0.3671174 -0.091779403 0.29434589
0.3671174 -0.13766898 0.29434597
0.36711603 -0.183558 0.29433757
0.36711603 -0.22944757 0.29433763
0.36711603 -0.27533698 0.29433757
0.36711603 -0.3212266 0.29433763
0.36711603 -0.36711597 0.29433757
0.36711469 -0.41300401 0.2943292
0.36711469 -0.45889348 0.29432923
0.36711469 -0.50478268 0.29432926
0.36711469 -0.55067211 0.29432923
0.36711335 -0.59655923 0.29432088
0.36711335 -0.64244843 0.29432094
0.36711335 -0.68833762 0.29432085
0.36711335 -0.7342267 0.29432079
0.36711335 -0.78011572 0.29432076
0.36711204 -0.82600212 0.29431254
0.36711204 -0.87189108 0.2943126
0.36711204 -0.91777986 0.29431248
0.36711204 -0.96366912 0.29431254
0.41626126 0.69376886 0.31242496
0.41626126 0.64751762 0.31242484
0.41626126 0.60126626 0.31242484
0.41625974 0.55501306 0.31241637
0.41625974 0.50876176 0.31241629
0.41625974 0.46251082 0.31241632
0.41625974 0.41625983 0.31241632
0.41625974 0.37000862 0.31241646
0.41625974 0.3237575 0.31241629
0.41625974 0.27750653 0.31241629
0.41625974 0.23125544 0.31241637
0.41625974 0.18500426 0.31241637
0.41625974 0.13875328 0.31241637
0.41625974 0.092502207 0.31241629
0.41625974 0.046251044 0.31241629
0.41625974 -2.9802322e-08 0.31241637
0.41625822 -0.046250984 0.31240785
0.41625822 -0.092501879 0.31240779
0.41625822 -0.1387527 0.31240779
0.41625822 -0.1850037 0.31240779
0.41625667 -0.23125371 0.31239927
0.41625667 -0.27750444 0.31239936
0.41625667 -0.3237552 0.3123993
0.41625667 -0.37000594 0.31239942
0.41625667 -0.4162567 0.31239936
0.41625515 -0.46250567 0.31239089
0.41625515 -0.50875634 0.31239092
0.41625515 -0.5550068 0.31239077
0.41625515 -0.6012575 0.3123908
0.41625363 -0.64750546 0.31238228
0.41625363 -0.69375592 0.31238228
0.41625363 -0.74000645 0.31238234
0.41625363 -0.78625691 0.3123824
0.41625208 -0.83250427 0.31237394
0.41625208 -0.87875426 0.31237385
0.41625208 -0.92500454 0.31237382
0.41625208 -0.97125494 0.31237397
0.41625208 -1.0175052 0.31237394
0.46618226 0.65265518 0.33077368
0.46618226 0.6060369 0.33077353
0.46618226 0.55941874 0.33077353
0.46618226 0.51280046 0.33077365
0.46618053 0.46618056 0.3307651
0.46618053 0.41956255 0.33076504
0.46618053 0.37294438 0.33076507
0.46618053 0.32632649 0.33076498
0.46618053 0.27970824 0.33076492
0.46618053 0.23309025 0.33076495
0.46618053 0.1864721 0.33076498
0.46618053 0.13985422 0.33076492
0.46618053 0.093236126 0.33076501
0.46618053 0.046618149 0.33076504
0.46618053 -8.9406967e-08 0.33076498
0.46618053 -0.046618074 0.33076501
0.46617883 -0.093235843 0.33075634
0.46617883 -0.13985357 0.33075631
0.46617883 -0.18647155 0.33075634
0.46617883 -0.23308939 0.3307564
0.46617708 -0.27970621 0.33074769
0.46617708 -0.32632396 0.33074766
0.46617708 -0.37294158 0.33074772
0.46617708 -0.41955942 0.33074775
0.46617535 -0.46617541 0.33073914
0.46617535 -0.51279283 0.33073911
0.46617535 -0.55941057 0.33073908
0.46617535 -0.60602796 0.33073908
0.46617535 -0.65264559 0.33073914
0.46617365 -0.69926041 0.33073044
0.46617365 -0.74587774 0.33073038
0.46617365 -0.79249513 0.33073038
0.46617365 -0.83911246 0.3307305
0.46617192 -0.88572657 0.33072186
0.46617192 -0.93234372 0.33072174
0.46617192 -0.97896105 0.33072183
0.46617192 -1.0255781 0.33072183
0.51690179 0.61088389 0.3494159
0.51690179 0.56389302 0.34941605
0.51690179 0.51690167 0.3494159
0.51690179 0.46991074 0.34941575
0.51690179 0.42291972 0.34941596
0.51690179 0.37592858 0.34941596
0.51690179 0.32893744 0.34941584
0.51689988 0.28194541 0.34940717
0.51689988 0.23495452 0.34940711
0.51689988 0.1879636 0.34940726
0.51689988 0.14097272 0.3494072
0.51689988 0.093981817 0.34940714
0.51689988 0.046990842 0.3494072
0.51689988 -4.4703484e-08 0.34940714
0.51689988 -0.046990857 0.34940717
0.51689792 -0.093981445 0.34939837
0.51689792 -0.14097218 0.34939831
0.51689792 -0.18796282 0.34939837
0.51689792 -0.23495352 0.34939837
0.51689601 -0.28194326 0.34938961
0.51689601 -0.32893384 0.34938958
0.51689601 -0.37592432 0.34938964
0.51689601 -0.42291486 0.34938964
0.51689601 -0.46990553 0.34938967
0.51689404 -0.51689416 0.34938091
0.51689404 -0.5638845 0.34938082
0.51689404 -0.61087489 0.34938091
0.51689404 -0.65786517 0.34938091
0.51689404 -0.70485544 0.34938082
0.51689214 -0.75184304 0.34937215
0.51689214 -0.79883331 0.34937215
0.51689214 -0.84582341 0.34937191
0.51689214 -0.89281368 0.34937215
0.51689029 -0.9398005 0.34936333
0.51689029 -0.98679048 0.34936333
0.51689029 -1.0337805 0.34936327
0.51689029 -1.0807703 0.34936327
0.56843919 0.56843925 0.36835894
0.56843919 0.52106935 0.36835885
0.56843919 0.47369936 0.36835888
0.56843919 0.42632931 0.36835864
0.56843919 0.37895939 0.36835891
0.56843919 0.33158952 0.36835885
0.56843919 0.28421962 0.36835879
0.56843919 0.23684964 0.36835879
0.56843704 0.18947896 0.36834979
0.56843704 0.14210925 0.36834991
0.56843704 0.094739541 0.36834988
0.56843704 0.047369719 0.36834991
0.56843704 7.4505806e-08 0.36834994
0.56843704 -0.047369808 0.36834988
0.56843704 -0.094739527 0.36834985
0.56843489 -0.14210874 0.36834103
0.56843489 -0.18947831 0.36834097
0.56843489 -0.23684785 0.36834094
0.56843489 -0.28421748 0.36834097
0.56843281 -0.33158574 0.36833209
0.56843281 -0.37895522 0.36833215
0.56843281 -0.42632449 0.36833203
0.56843281 -0.47369394 0.36833209
0.56843281 -0.52106333 0.36833206
0.5684306 -0.56843054 0.36832309
0.5684306 -0.61579967 0.36832315
0.5684306 -0.66316903 0.36832321
0.5684306 -0.71053815 0.36832312
0.56842846 -0.75790465 0.36831436
0.56842846 -0.80527371 0.36831433
0.56842846 -0.85264277 0.36831433
0.56842846 -0.9000119 0.36831427
0.56842637 -0.9473772 0.36830541
0.56842637 -0.99474597 0.36830533
0.56842637 -1.042115 0.36830544
0.62081432 0.57305932 0.38760963
0.62081432 0.52530456 0.38760972
0.62081432 0.47754943 0.38760954
0.62081432 0.42979446 0.38760951
0.62081432 0.38203967 0.38760969
0.62081432 0.33428469 0.38760966
0.62081432 0.28652963 0.38760954
0.62081432 0.23877482 0.38760969
0.62081432 0.19101977 0.3876096
0.62081432 0.1432648 0.3876096
0.62081432 0.095509902 0.38760966
0.62081432 0.047754943 0.3876096
0.62081194 2.9802322e-08 0.38760057
0.62081194 -0.047754765 0.38760054
0.62081194 -0.095509499 0.38760066
0.62081194 -0.14326437 0.38760054
0.62080961 -0.19101833 0.38759145
0.62080961 -0.2387729 0.38759154
0.62080961 -0.28652745 0.38759151
0.62080961 -0.33428198 0.3875916
0.62080723 -0.3820352 0.38758248
0.62080723 -0.42978966 0.38758251
0.62080723 -0.47754407 0.38758245
0.62080723 -0.52529842 0.38758257
0.62080723 -0.57305276 0.38758248
0.62080491 -0.62080497 0.38757345
0.62080491 -0.66855913 0.38757348
0.62080491 -0.71631336 0.38757345
0.62080491 -0.76406759 0.38757339
0.62080258 -0.81181866 0.38756424
0.62080258 -0.85957265 0.38756436
0.62080258 -0.90732682 0.38756439
0.62080258 -0.95508099 0.38756442
0.67404783 0.52960896 0.40717599
0.67404783 0.4814626 0.40717578
0.67404783 0.43331644 0.40717605
0.67404783 0.38517004 0.40717584
0.67404783 0.33702397 0.40717602
0.67404783 0.28887752 0.4071759
0.67404783 0.24073145 0.40717608
0.67404783 0.19258507 0.40717605
0.67404783 0.14443874 0.40717596
0.67404783 0.096292615 0.40717605
0.67404783 0.048146218 0.40717602
0.67404526 -0 0.40716672
0.67404526 -0.048146144 0.40716678
0.67404526 -0.096292198 0.40716681
0.67404526 -0.14443827 0.40716681
0.6740427 -0.19258356 0.40715766
0.6740427 -0.24072954 0.40715757
0.6740427 -0.2888754 0.40715757
0.6740427 -0.33702132 0.4071576
0.6740427 -0.38516727 0.40715754
0.67404008 -0.43331137 0.4071483
0.67404008 -0.48145708 0.40714833
0.67404008 -0.52960289 0.40714845
0.67404008 -0.57774872 0.40714839
0.67404008 -0.62589431 0.40714833
0.67403752 -0.6740374 0.40713918
0.67403752 -0.72218305 0.40713912
0.67403752 -0.77032864 0.40713918
0.67403752 -0.81847417 0.40713918
0.67403495 -0.86661637 0.40712994
0.72816098 0.48544061 0.42706555
0.72816098 0.43689668 0.42706573
0.72816098 0.38835242 0.42706558
0.72816098 0.33980837 0.42706561
0.72816098 0.29126453 0.42706573
0.72816098 0.24272031 0.42706558
0.72816098 0.19417626 0.42706561
0.72816098 0.14563224 0.42706573
0.72816098 0.097088203 0.42706561
0.72816098 0.048544124 0.42706561
0.72816098 5.9604645e-08 0.42706561
0.72815818 -0.04854393 0.42705628
0.72815818 -0.097087726 0.42705625
0.72815818 -0.14563164 0.42705628
0.72815818 -0.19417556 0.42705631
0.72815537 -0.24271852 0.42704687
0.72815537 -0.29126206 0.42704695
0.72815537 -0.3398059 0.42704687
0.72815537 -0.38834953 0.42704701
0.72815537 -0.43689317 0.42704681
0.72815257 -0.48543513 0.42703763
0.72815257 -0.53397864 0.4270376
0.72815257 -0.58252203 0.4270376
0.72815257 -0.63106567 0.42703766
0.72814977 -0.67960644 0.42702821
0.72814977 -0.72814971 0.42702818
0.72814977 -0.77669311 0.42702812
0.78317887 0.4405382 0.44729623
0.78317583 0.39158791 0.44728675
0.78317583 0.34263951 0.44728678
0.78317583 0.29369092 0.44728661
0.78317583 0.24474242 0.44728667
0.78317583 0.19579399 0.44728667
0.78317583 0.14684549 0.44728675
0.78317583 0.097896963 0.44728667
0.78317583 0.048948541 0.44728684
0.78317583 -4.4703484e-08 0.44728667
0.78317583 -0.048948467 0.44728667
0.78317273 -0.097896621 0.44727731
0.78317273 -0.14684494 0.44727725
0.78317273 -0.19579311 0.44727716
0.78317273 -0.24474144 0.44727707
0.78316975 -0.29368865 0.44726768
0.78316975 -0.34263667 0.44726765
0.78316975 -0.39158475 0.44726768
0.78316975 -0.44053298 0.44726768
0.78316671 -0.48947915 0.44725811
0.78316671 -0.53842723 0.44725814
0.78316671 -0.58737504 0.44725829
0.78316671 -0.63632303 0.44725823
0.78316671 -0.68527079 0.44725811
0.8391183 0.39487928 0.46785718
0.8391183 0.34551936 0.4678573
0.8391183 0.29615942 0.46785718
0.8391183 0.24679965 0.46785721
0.83911496 0.19743887 0.46784759
0.83911496 0.14807908 0.46784744
0.83911496 0.098719373 0.46784759
0.83911496 0.049359649 0.46784756
0.83911496 -5.9604645e-08 0.46784753
0.83911496 -0.049359769 0.46784753
0.83911169 -0.098719075 0.46783787
0.83911169 -0.14807852 0.46783778
0.83911169 -0.197438 0.46783787
0.83911169 -0.24679753 0.46783784
0.83911169 -0.29615706 0.46783784
0.83910841 -0.34551531 0.46782821
0.83910841 -0.39487457 0.46782809
0.83910841 -0.44423378 0.46782812
0.83910841 -0.49359307 0.46782807
0.83910513 -0.54295027 0.4678185
0.83910513 -0.59230947 0.4678185
0.89600551 0.39822474 0.48876661
0.89600551 0.34844649 0.48876652
0.89600551 0.29866847 0.48876652
0.89600551 0.24889046 0.48876655
0.89600551 0.19911221 0.48876646
0.89600551 0.14933428 0.48876661
0.89600551 0.099556297 0.48876661
0.89600199 0.049777821 0.4887566
0.89600199 7.4505806e-08 0.48875678
0.89600199 -0.049777925 0.48875678
0.89600199 -0.099555746 0.48875663
0.89599848 -0.14933313 0.48874682
0.89599848 -0.19911081 0.48874688
0.89599848 -0.24888848 0.48874691
0.89599848 -0.29866612 0.48874679
0.89599496 -0.34844241 0.48873696
0.89599496 -0.39821991 0.48873702
0.89599496 -0.44799739 0.48873693
0.89599496 -0.4977749 0.48873699
0.95386493 0.35142386 0.51003325
0.95386493 0.3012206 0.51003331
0.95386493 0.25101697 0.51003313
0.95386493 0.20081374 0.51003313
0.95386493 0.15061024 0.51003313
0.95386493 0.10040691 0.51003325
0.95386493 0.050203353 0.51003313
0.95386118 -0 0.51002324
0.95386118 -0.05020313 0.51002318
0.95386118 -0.10040645 0.51002318
0.95386118 -0.1506096 0.51002318
0.95385736 -0.20081204 0.51001322
0.95385736 -0.2510151 0.51001316
0.95385736 -0.30121818 0.51001322
0.95385736 -0.35142115 0.51001322
1.0127217 0.30381668 0.53166652
1.0127217 0.25318038 0.53166646
1.0127217 0.20254436 0.5316664
1.0127217 0.15190829 0.53166652
1.0127217 0.10127221 0.53166658
1.0127217 0.050635993 0.53166646
1.0127176 -2.9802322e-08 0.53165638
1.0127176 -0.05063583 0.53165632
1.0127176 -0.10127172 0.53165627
1.0127176 -0.15190765 0.53165632
1.0127136 -0.20254269 0.53164607
1.0127136 -0.25317836 0.53164625
1.0726017 0.25538132 0.55367583
1.0726017 0.20430496 0.55367565
1.0726017 0.15322883 0.55367601
1.0726017 0.10215251 0.55367583
1.0726017 0.051076338 0.55367583
1.0726017 -0 0.55367583
1.0725974 -0.051076114 0.5536654
1.0725974 -0.1021522 0.55366552
1.0725974 -0.15322812 0.55366546
1.1335319 0.20609671 0.5760712
1.1335319 0.15457238 0.5760712
1.1335319 0.10304825 0.57607102
1.1335319 0.051524162 0.57607126
1.1335319 -5.9604645e-08 0.5760712
1.1335319 -0.051524103 0.57607126
1.1955452 0.15594073 0.59887362
1.1955403 0.10396002 0.59886271
1.1955403 0.051979899 0.59886271
1.2586608 0.15733261 0.62207234
