# .PCD v0.7 - Point Cloud Data file format
VERSION 0.7
FIELDS x y z
SIZE 4 4 4
TYPE F F F
COUNT 1 1 1
WIDTH 1386
HEIGHT 1
VIEWPOINT 0 0 0 1 0 0 0
POINTS 1386
DATA ascii
-0.88222837 0.23526084 0.94062352
-0.90908355 0.18181667 1.0301408
-0.9376204 0.12501588 1.1252635
-0.9680118 0.064534128 1.2265682
-0.99626893 -1.1920929e-07 1.3207588
-0.96410686 -0.064273894 1.2135515
-0.93395627 -0.12452736 1.1130499
-0.90563869 -0.18112782 1.0186577
-0.87898368 -0.23439568 0.92980772
-0.85385281 -0.28461769 0.84603822
-0.83011901 -0.33204755 0.76692563
-0.80767238 -0.37691373 0.69210356
-0.78640449 -0.41941577 0.62121058
-0.7662279 -0.45973668 0.55395532
-0.74706376 -0.4980424 0.49007469
-0.72883195 -0.53447676 0.42930219
-0.7222631 -0.57781029 0.40740576
-0.72224104 -0.62594223 0.40733227
-0.55759591 0.87622219 -0.0087236762
-0.55765057 0.83647597 -0.0085284412
-0.55767351 0.79667652 -0.0084466636
-0.55767351 0.75684261 -0.0084466338
-0.55767351 0.71700871 -0.008446753
-0.55767351 0.67717493 -0.008446753
-0.55767351 0.63734114 -0.0084466636
-0.55767351 0.5975073 -0.0084466934
-0.55767351 0.55767345 -0.0084466934
-0.55767351 0.51783961 -0.0084467232
-0.55767351 0.47800583 -0.0084467232
-0.55767351 0.43817204 -0.0084466487
-0.55767351 0.39833814 -0.008446753
-0.55767351 0.35850441 -0.0084466785
-0.55767351 0.31867057 -0.0084466934
-0.55767351 0.27883673 -0.0084467083
-0.55767351 0.239003 -0.0084467903
-0.55767351 0.19916907 -0.0084467232
-0.55767351 0.15933524 -0.0084467381
-0.55767351 0.11950149 -0.0084466636
-0.55767351 0.079667576 -0.0084467642
-0.55767351 0.039833829 -0.008446686
-0.55767351 -3.7252903e-09 -0.008446699
-0.55767351 -0.039833836 -0.0084467102
-0.55767351 -0.079667583 -0.0084466338
-0.55767351 -0.11950149 -0.0084467381
-0.55767351 -0.15933526 -0.0084466636
-0.55767351 -0.19916916 -0.0084467605
-0.55767351 -0.23900291 -0.008446686
-0.55767351 -0.27883676 -0.0084466934
-0.55767351 -0.31867057 -0.0084467083
-0.55767351 -0.35850441 -0.0084467232
-0.55767351 -0.39833826 -0.0084467381
-0.55767351 -0.43817198 -0.0084466636
-0.55767351 -0.47800583 -0.0084466785
-0.55767351 -0.51783967 -0.0084466934
-0.55767351 -0.55767339 -0.0084467828
-0.55767351 -0.59750736 -0.0084467232
-0.55767351 -0.63734114 -0.0084467232
-0.55767351 -0.67717493 -0.0084466338
-0.55767351 -0.71700883 -0.008446753
-0.55767351 -0.75684255 -0.0084466636
-0.55767351 -0.79667652 -0.0084466338
-0.55764353 -0.83646524 -0.0085538328
-0.55758888 -0.87621099 -0.0087488592
-0.50364804 0.92981172 -0.063029885
-0.50364804 0.89106965 -0.063029736
-0.50364804 0.85232747 -0.063029736
-0.50364804 0.81358528 -0.063029796
-0.50364804 0.77484322 -0.063029796
-0.50364804 0.73610103 -0.063029796
-0.50364804 0.69735885 -0.063029855
-0.50364804 0.65861678 -0.063029736
-0.50364804 0.61987448 -0.063029826
-0.50364804 0.58113235 -0.063029796
-0.50364804 0.54239017 -0.063029841
-0.50364804 0.50364804 -0.063029781
-0.50364804 0.46490583 -0.063029811
-0.50364804 0.42616379 -0.063029811
-0.50364804 0.38742161 -0.063029841
-0.50364804 0.34867948 -0.063029811
-0.50364804 0.30993724 -0.063029826
-0.50364804 0.27119502 -0.063029826
-0.50364804 0.23245296 -0.063029833
-0.50364804 0.1937108 -0.063029751
-0.50364804 0.15496859 -0.063029766
-0.50364804 0.11622644 -0.063029848
-0.50364804 0.077484295 -0.063029766
-0.50364804 0.038742229 -0.063029766
-0.50364804 -7.8231096e-08 -0.06302987
-0.50364804 -0.038742229 -0.063029788
-0.50364804 -0.077484295 -0.063029788
-0.50364804 -0.11622652 -0.063029788
-0.50364804 -0.15496866 -0.063029885
-0.50364804 -0.19371071 -0.063029878
-0.50364804 -0.23245287 -0.063029803
-0.50364804 -0.27119511 -0.063029811
-0.50364804 -0.30993724 -0.0630299
-0.50364804 -0.34867939 -0.063029811
-0.50364804 -0.38742161 -0.063029826
-0.50364804 -0.42616367 -0.063029826
-0.50364804 -0.46490586 -0.063029751
-0.50364804 -0.5036481 -0.063029766
-0.50364804 -0.54239023 -0.063029855
-0.50364804 -0.58113241 -0.063029766
-0.50364804 -0.61987448 -0.063029766
-0.50364804 -0.65861678 -0.063029855
-0.50364804 -0.69735891 -0.063029766
-0.50364804 -0.73610091 -0.063029766
-0.50364804 -0.77484322 -0.063029855
-0.50364804 -0.8135854 -0.063029736
-0.50364804 -0.85232747 -0.063029796
-0.50364804 -0.89106965 -0.063029766
-0.50364804 -0.92981184 -0.063029736
-0.46817577 0.93635166 -0.049405247
-0.46817577 0.89733684 -0.049405307
-0.46817577 0.85832226 -0.049405247
-0.46817577 0.81930757 -0.049405396
-0.46817577 0.78029299 -0.049405187
-0.46817577 0.74127829 -0.049405336
-0.46817577 0.70226371 -0.049405366
-0.46817577 0.66324902 -0.049405366
-0.46817577 0.62423432 -0.049405366
-0.46817577 0.58521974 -0.049405336
-0.46817577 0.54620504 -0.049405307
-0.46817577 0.50719035 -0.049405351
-0.46817577 0.4681758 -0.049405247
-0.46817577 0.4291611 -0.049405262
-0.46817577 0.39014646 -0.049405307
-0.46817577 0.3511318 -0.049405336
-0.46817577 0.31211716 -0.049405381
-0.46817577 0.27310252 -0.04940524
-0.46817577 0.23408788 -0.049405284
-0.46817577 0.19507331 -0.049405232
-0.46817577 0.15605867 -0.049405273
-0.46817577 0.11704395 -0.049405403
-0.46817577 0.07802929 -0.049405269
-0.46817577 0.039014649 -0.049405307
-0.46817577 8.3819032e-08 -0.049405254
-0.46817577 -0.039014645 -0.049405217
-0.46817577 -0.078029372 -0.049405348
-0.46817577 -0.11704393 -0.049405299
-0.46817577 -0.15605867 -0.049405258
-0.46817577 -0.19507323 -0.049405202
-0.46817577 -0.23408788 -0.049405247
-0.46817577 -0.27310258 -0.049405374
-0.46817577 -0.31211716 -0.049405307
-0.46817577 -0.3511318 -0.049405351
-0.46817577 -0.39014643 -0.049405217
-0.46817577 -0.4291611 -0.049405262
-0.46817577 -0.46817583 -0.049405396
-0.46817577 -0.50719035 -0.049405351
-0.46817577 -0.54620504 -0.049405381
-0.46817577 -0.58521968 -0.049405247
-0.46817577 -0.62423444 -0.049405217
-0.46817577 -0.66324902 -0.049405247
-0.46817577 -0.70226371 -0.049405307
-0.46817577 -0.74127829 -0.049405307
-0.46817577 -0.78029287 -0.049405277
-0.46817577 -0.81930768 -0.049405277
-0.46817577 -0.85832238 -0.049405217
-0.46817577 -0.89733696 -0.049405307
-0.46817577 -0.9363516 -0.049405217
-0.43219966 0.90368998 -0.035594046
-0.43219966 0.86439931 -0.035593837
-0.43219966 0.82510853 -0.035593778
-0.43219966 0.7858175 -0.035593897
-0.43219966 0.7465266 -0.035593927
-0.43219966 0.70723575 -0.035593897
-0.43219966 0.66794479 -0.035593927
-0.43219966 0.62865406 -0.035593778
-0.43219966 0.5893631 -0.035593957
-0.43219966 0.55007225 -0.035593927
-0.43219966 0.51078147 -0.035593867
-0.43219966 0.47149056 -0.035593912
-0.43219966 0.43219966 -0.035593808
-0.43219966 0.39290878 -0.035593897
-0.43219966 0.35361779 -0.035593882
-0.43219966 0.31432691 -0.035593957
-0.43219966 0.27503616 -0.0355938
-0.43219966 0.23574528 -0.035593897
-0.43219966 0.19645433 -0.035593912
-0.43219966 0.15716356 -0.035593916
-0.43219966 0.11787261 -0.035593927
-0.43219966 0.078581735 -0.035593852
-0.43219966 0.039290965 -0.035593856
-0.43219966 1.6763806e-08 -0.035593875
-0.43219966 -0.039290838 -0.035593964
-0.43219966 -0.07858178 -0.035593979
-0.43219966 -0.11787266 -0.035593908
-0.43219966 -0.15716353 -0.03559383
-0.43219966 -0.19645438 -0.035593919
-0.43219966 -0.23574525 -0.035593837
-0.43219966 -0.2750361 -0.035593942
-0.43219966 -0.31432706 -0.035593957
-0.43219966 -0.35361785 -0.035593957
-0.43219966 -0.39290878 -0.035593793
-0.43219966 -0.43219966 -0.035593897
-0.43219966 -0.47149056 -0.035593897
-0.43219966 -0.51078135 -0.035593912
-0.43219966 -0.55007231 -0.035593927
-0.43219966 -0.5893631 -0.035593927
-0.43219966 -0.628654 -0.035593778
-0.43219966 -0.66794491 -0.035593867
-0.43219966 -0.70723581 -0.035593897
-0.43219966 -0.7465266 -0.035593837
-0.43219966 -0.78581744 -0.035593957
-0.43219966 -0.82510841 -0.035593927
-0.43219966 -0.86439925 -0.035593867
-0.43219966 -0.9036901 -0.035593927
-0.39571166 0.91013694 -0.021579325
-0.39571166 0.87056577 -0.021579266
-0.39571166 0.83099449 -0.021579385
-0.39571166 0.79142332 -0.021579325
-0.39571166 0.75185221 -0.021579295
-0.39571166 0.71228099 -0.021579325
-0.39571166 0.67270982 -0.021579355
-0.39571166 0.63313854 -0.021579385
-0.39571166 0.59356755 -0.021579266
-0.39571166 0.55399632 -0.021579295
-0.39571166 0.5144251 -0.02157934
-0.39571166 0.47485399 -0.02157931
-0.39571166 0.43528286 -0.021579385
-0.39571166 0.39571166 -0.02157928
-0.39571166 0.35614043 -0.021579325
-0.39571166 0.31656939 -0.021579325
-0.39571166 0.27699807 -0.02157928
-0.39571166 0.23742703 -0.02157931
-0.39571166 0.1978558 -0.021579333
-0.39571166 0.15828466 -0.021579273
-0.39571166 0.11871354 -0.021579381
-0.39571166 0.079142317 -0.021579413
-0.39571166 0.039571173 -0.021579351
-0.39571166 -4.5634806e-08 -0.021579381
-0.39571166 -0.039571188 -0.021579321
-0.39571166 -0.079142407 -0.021579351
-0.39571166 -0.11871346 -0.02157937
-0.39571166 -0.15828477 -0.021579325
-0.39571166 -0.19785583 -0.02157934
-0.39571166 -0.23742706 -0.021579362
-0.39571166 -0.27699816 -0.02157931
-0.39571166 -0.31656939 -0.02157934
-0.39571166 -0.35614055 -0.02157928
-0.39571166 -0.39571166 -0.0215794
-0.39571166 -0.43528283 -0.021579325
-0.39571166 -0.47485405 -0.021579355
-0.39571166 -0.51442516 -0.021579295
-0.39571166 -0.55399632 -0.021579385
-0.39571166 -0.59356755 -0.021579266
-0.39571166 -0.63313866 -0.021579385
-0.39571166 -0.67270982 -0.021579325
-0.39571166 -0.71228099 -0.021579355
-0.39571166 -0.75185227 -0.021579355
-0.39571166 -0.79142332 -0.021579266
-0.39571166 -0.83099449 -0.021579385
-0.39571166 -0.87056565 -0.021579325
-0.39571166 -0.91013682 -0.021579295
-0.35869825 0.91667324 -0.0073696971
-0.35869825 0.87681806 -0.0073695481
-0.35869825 0.8369627 -0.0073695183
-0.35869825 0.79710734 -0.0073695183
-0.35869825 0.75725186 -0.0073697269
-0.35869825 0.71739638 -0.0073696971
-0.35869825 0.67754108 -0.0073697269
-0.35869825 0.63768578 -0.0073696971
-0.35869825 0.59783041 -0.0073696673
-0.35869825 0.55797499 -0.0073696673
-0.35869825 0.51811969 -0.0073696971
-0.35869825 0.47826433 -0.0073697418
-0.35869825 0.43840897 -0.0073695928
-0.35869825 0.39855364 -0.0073696375
-0.35869825 0.35869825 -0.0073696226
-0.35869825 0.31884289 -0.0073696226
-0.35869825 0.2789875 -0.0073697716
-0.35869825 0.2391322 -0.0073696822
-0.35869825 0.1992768 -0.0073696747
-0.35869825 0.15942141 -0.0073696673
-0.35869825 0.11956604 -0.0073696636
-0.35869825 0.079710729 -0.0073695667
-0.35869825 0.039855435 -0.0073696375
-0.35869825 5.0291419e-08 -0.0073696319
-0.35869825 -0.039855335 -0.0073696263
-0.35869825 -0.079710707 -0.0073697902
-0.35869825 -0.11956611 -0.0073696114
-0.35869825 -0.15942149 -0.0073696151
-0.35869825 -0.19927679 -0.0073696822
-0.35869825 -0.23913217 -0.0073696747
-0.35869825 -0.27898756 -0.0073696822
-0.35869825 -0.31884277 -0.0073696524
-0.35869825 -0.35869825 -0.0073695779
-0.35869825 -0.39855373 -0.0073696524
-0.35869825 -0.438409 -0.0073697269
-0.35869825 -0.47826433 -0.0073696226
-0.35869825 -0.51811969 -0.0073696077
-0.35869825 -0.55797499 -0.0073696971
-0.35869825 -0.59783041 -0.0073696077
-0.35869825 -0.63768578 -0.0073696971
-0.35869825 -0.67754108 -0.0073696077
-0.35869825 -0.7173965 -0.0073696673
-0.35869825 -0.75725186 -0.0073697269
-0.35869825 -0.79710722 -0.0073696077
-0.35869825 -0.83696258 -0.0073696673
-0.35869825 -0.87681794 -0.0073696673
-0.35869825 -0.9166733 -0.0073696077
-0.32115036 0.9233073 0.0070520043
-0.32115036 0.88316333 0.0070518553
-0.32115036 0.84301972 0.0070520937
-0.32115036 0.80287588 0.0070519745
-0.32115036 0.76273209 0.0070520341
-0.32115036 0.72258818 0.0070518851
-0.32115036 0.68244457 0.0070520043
-0.32115036 0.64230072 0.0070519745
-0.32115036 0.60215688 0.0070519447
-0.32115036 0.56201321 0.0070520937
-0.32115036 0.52186936 0.0070520341
-0.32115036 0.48172551 0.0070519894
-0.32115036 0.44158179 0.0070520192
-0.32115036 0.40143794 0.0070519894
-0.32115036 0.36129421 0.0070519894
-0.32115036 0.32115036 0.0070519745
-0.32115036 0.28100657 0.0070520341
-0.32115036 0.24086282 0.0070519373
-0.32115036 0.20071906 0.0070520118
-0.32115036 0.16057502 0.0070519745
-0.32115036 0.12043133 0.0070519634
-0.32115036 0.080287479 0.0070519447
-0.32115036 0.040143788 0.0070519354
-0.32115036 1.1175871e-08 0.0070520029
-0.32115036 -0.040143844 0.007051982
-0.32115036 -0.080287531 0.0070519708
-0.32115036 -0.12043139 0.0070519485
-0.32115036 -0.16057508 0.0070519373
-0.32115036 -0.20071894 0.0070519224
-0.32115036 -0.24086282 0.0070520714
-0.32115036 -0.28100657 0.0070519745
-0.32115036 -0.32115036 0.0070520341
-0.32115036 -0.36129409 0.0070519298
-0.32115036 -0.40143788 0.0070520192
-0.32115036 -0.44158167 0.0070520788
-0.32115036 -0.48172545 0.0070519745
-0.32115036 -0.5218693 0.0070519745
-0.32115036 -0.56201315 0.0070519447
-0.32115036 -0.60215694 0.0070520043
-0.32115036 -0.64230078 0.0070519745
-0.32115036 -0.68244445 0.0070519745
-0.32115036 -0.7225883 0.0070519745
-0.32115036 -0.76273203 0.0070519447
-0.32115036 -0.802876 0.0070520043
-0.32115036 -0.8430196 0.0070520043
-0.32115036 -0.88316345 0.0070518851
-0.32115036 -0.92330742 0.0070520937
-0.28305411 0.93003488 0.021677315
-0.28305411 0.88959873 0.021677405
-0.28305411 0.84916234 0.021677405
-0.28305411 0.80872595 0.021677345
-0.28305411 0.7682898 0.021677494
-0.28305411 0.72785348 0.021677405
-0.28305411 0.68741703 0.021677315
-0.28305411 0.64698082 0.021677434
-0.28305411 0.60654461 0.021677434
-0.28305411 0.56610835 0.021677464
-0.28305411 0.5256719 0.021677405
-0.28305411 0.48523566 0.021677375
-0.28305411 0.44479927 0.021677375
-0.28305411 0.40436298 0.021677449
-0.28305411 0.36392665 0.02167736
-0.28305411 0.32349044 0.021677375
-0.28305411 0.28305411 0.021677449
-0.28305411 0.24261785 0.021677367
-0.28305411 0.20218161 0.02167736
-0.28305411 0.16174513 0.021677434
-0.28305411 0.12130892 0.021677434
-0.28305411 0.080872625 0.021677347
-0.28305411 0.040436238 0.021677338
-0.28305411 1.6763806e-08 0.021677341
-0.28305411 -0.040436294 0.02167742
-0.28305411 -0.080872513 0.021677423
-0.28305411 -0.1213089 0.021677412
-0.28305411 -0.16174521 0.021677494
-0.28305411 -0.20218152 0.021677412
-0.28305411 -0.2426178 0.021677323
-0.28305411 -0.28305411 0.021677405
-0.28305411 -0.32349041 0.021677315
-0.28305411 -0.36392671 0.02167739
-0.28305411 -0.40436304 0.021677464
-0.28305411 -0.4447993 0.02167739
-0.28305411 -0.48523563 0.021677464
-0.28305411 -0.52567196 0.02167739
-0.28305411 -0.56610817 0.021677375
-0.28305411 -0.60654449 0.021677375
-0.28305411 -0.64698076 0.021677375
-0.28305411 -0.68741715 0.021677345
-0.28305411 -0.72785354 0.021677375
-0.28305411 -0.76828957 0.021677375
-0.28305411 -0.80872607 0.021677434
-0.28305411 -0.84916234 0.021677524
-0.28305411 -0.88959861 0.021677375
-0.28305411 -0.930035 0.021677464
-0.24439943 0.9368645 0.036524117
-0.24439943 0.89613128 0.036524177
-0.24439943 0.85539794 0.036524087
-0.24439943 0.8146646 0.036523968
-0.24439943 0.7739315 0.036524206
-0.24439943 0.73319829 0.036524057
-0.24439943 0.69246495 0.036524028
-0.24439943 0.65173173 0.036523998
-0.24439943 0.61099845 0.036523968
-0.24439943 0.57026529 0.036524147
-0.24439943 0.52953207 0.036524072
-0.24439943 0.4887988 0.036524117
-0.24439943 0.44806564 0.036524132
-0.24439943 0.4073323 0.036524147
-0.24439943 0.3665992 0.036524013
-0.24439943 0.32586586 0.036524028
-0.24439943 0.28513265 0.036524132
-0.24439943 0.24439941 0.036524072
-0.24439943 0.20366617 0.036524177
-0.24439943 0.16293304 0.036524042
-0.24439943 0.1221998 0.036524147
-0.24439943 0.081466407 0.036524072
-0.24439943 0.040733185 0.036524013
-0.24439943 -5.5879354e-08 0.036524117
-0.24439943 -0.040733278 0.036524057
-0.24439943 -0.081466429 0.036524087
-0.24439943 -0.12219974 0.036524102
-0.24439943 -0.16293289 0.036524132
-0.24439943 -0.20366621 0.036524147
-0.24439943 -0.24439943 0.036524087
-0.24439943 -0.28513265 0.036524028
-0.24439943 -0.32586589 0.036524132
-0.24439943 -0.36659911 0.036524072
-0.24439943 -0.40733236 0.036524191
-0.24439943 -0.44806558 0.036524117
-0.24439943 -0.4887988 0.036524072
-0.24439943 -0.52953213 0.036524072
-0.24439943 -0.57026535 0.036524028
-0.24439943 -0.61099857 0.036524117
-0.24439943 -0.65173185 0.036524057
-0.24439943 -0.69246495 0.036524087
-0.24439943 -0.73319829 0.036524117
-0.24439943 -0.7739315 0.036524206
-0.24439943 -0.81466466 0.036524057
-0.24439943 -0.85539794 0.036524147
-0.24439943 -0.89613116 0.036524087
-0.20517281 0.90276045 0.051590562
-0.20517281 0.86172593 0.051590532
-0.20517281 0.82069135 0.051590562
-0.20517281 0.77965677 0.051590532
-0.20517281 0.73862207 0.051590323
-0.20517281 0.69758749 0.051590323
-0.20517281 0.65655303 0.051590413
-0.20517281 0.61551845 0.051590443
-0.20517281 0.57448387 0.051590413
-0.20517281 0.53344929 0.051590428
-0.20517215 0.4924131 0.051583752
-0.20517215 0.4513787 0.051583782
-0.20517215 0.4103443 0.051583767
-0.20517215 0.36930984 0.051583827
-0.20517215 0.3282755 0.051583663
-0.20517215 0.28724101 0.051583722
-0.20517215 0.24620664 0.05158373
-0.20517215 0.20517208 0.051583707
-0.20517215 0.16413778 0.051583782
-0.20517215 0.12310331 0.051583849
-0.20517215 0.082068853 0.051583752
-0.20517215 0.041034378 0.051583823
-0.20517215 8.9406967e-08 0.051583737
-0.20517215 -0.04103446 0.051583715
-0.20517215 -0.082068838 0.051583707
-0.20517215 -0.12310331 0.051583782
-0.20517215 -0.16413769 0.051583767
-0.20517215 -0.20517215 0.051583834
-0.20517215 -0.24620661 0.051583737
-0.20517215 -0.28724098 0.05158373
-0.20517215 -0.32827538 0.051583722
-0.20517215 -0.3693099 0.051583692
-0.20517215 -0.4103443 0.051583692
-0.20517215 -0.4513787 0.051583856
-0.20517215 -0.49241316 0.051583752
-0.20517215 -0.53344762 0.051583841
-0.20517215 -0.57448196 0.051583797
-0.20517215 -0.61551642 0.051583707
-0.20517215 -0.65655082 0.051583707
-0.20517215 -0.69758523 0.051583678
-0.20517215 -0.7386198 0.051583827
-0.20517215 -0.77965409 0.051583767
-0.20517215 -0.82068849 0.051583767
-0.20517215 -0.86172301 0.051583737
-0.20517215 -0.90275741 0.051583737
-0.16536099 0.90948546 0.066874653
-0.16536099 0.86814517 0.066874564
-0.16536099 0.826805 0.066874683
-0.16536099 0.78546464 0.066874564
-0.16536099 0.74412453 0.066874683
-0.16536099 0.70278418 0.066874623
-0.16536099 0.66144383 0.066874504
-0.16536099 0.6201036 0.066874534
-0.16536099 0.57876337 0.066874534
-0.16536099 0.53742313 0.066874593
-0.16536099 0.49608293 0.066874534
-0.16536099 0.4547427 0.066874519
-0.16536099 0.41340244 0.066874564
-0.16536099 0.37206227 0.066874534
-0.16536099 0.33072191 0.066874638
-0.16536099 0.28938174 0.066874593
-0.16536099 0.24804138 0.066874534
-0.16536099 0.20670119 0.066874497
-0.16536099 0.16536093 0.066874534
-0.16536099 0.12402066 0.066874564
-0.16536099 0.082680553 0.066874608
-0.16536099 0.041340292 0.066874646
-0.16536099 1.8626451e-08 0.066874683
-0.16536099 -0.041340157 0.066874638
-0.16536099 -0.082680501 0.066874579
-0.16536099 -0.12402068 0.066874534
-0.16536099 -0.16536105 0.066874646
-0.16536099 -0.20670122 0.066874608
-0.16536099 -0.24804148 0.066874631
-0.16536099 -0.28938168 0.066874593
-0.16536099 -0.33072191 0.066874638
-0.16536099 -0.37206227 0.066874579
-0.16536099 -0.41340244 0.066874534
-0.16536099 -0.45474273 0.066874564
-0.16536099 -0.49608299 0.066874608
-0.16536099 -0.53742319 0.066874549
-0.16536099 -0.57876343 0.066874593
-0.16536099 -0.6201036 0.066874534
-0.16536099 -0.66144407 0.066874564
-0.16536099 -0.7027843 0.066874623
-0.16536099 -0.74412435 0.066874564
-0.16536099 -0.78546458 0.066874593
-0.16536099 -0.82680494 0.066874713
-0.16536099 -0.86814499 0.066874474
-0.16536099 -0.90948546 0.066874653
-0.12495196 0.91631448 0.082395226
-0.12495196 0.87466371 0.082395047
-0.12495196 0.83301306 0.082395047
-0.12495196 0.79136246 0.082395047
-0.12495196 0.74971175 0.082395077
-0.12495196 0.70806116 0.082395077
-0.12495196 0.66641033 0.082394898
-0.12495196 0.62475991 0.082395077
-0.12495196 0.58310926 0.082395107
-0.12495196 0.54145849 0.082395151
-0.12495196 0.49980783 0.082395077
-0.12495196 0.45815712 0.082395121
-0.12495196 0.41650644 0.082395002
-0.12495196 0.37485588 0.082395107
-0.12495196 0.33320525 0.082395107
-0.12495196 0.29155457 0.08239501
-0.12495196 0.24990392 0.082395017
-0.12495196 0.20825329 0.082395025
-0.12495196 0.16660255 0.082395099
-0.12495196 0.12495193 0.082395099
-0.12495196 0.083301224 0.08239501
-0.12495196 0.041650668 0.082395107
-0.12495196 -3.7252903e-08 0.082395017
-0.12495196 -0.041650668 0.082395017
-0.12495196 -0.083301298 0.082395017
-0.12495196 -0.12495193 0.082395017
-0.12495196 -0.16660266 0.082395099
-0.12495196 -0.20825335 0.082395002
-0.12495196 -0.24990392 0.082395099
-0.12495196 -0.29155454 0.082395092
-0.12495196 -0.33320525 0.08239501
-0.12495196 -0.37485588 0.082395002
-0.12495196 -0.41650653 0.082395017
-0.12495196 -0.45815715 0.082395002
-0.12495196 -0.49980783 0.082395092
-0.12495196 -0.54145861 0.082394987
-0.12495196 -0.58310914 0.082395107
-0.12495196 -0.62475985 0.082395017
-0.12495196 -0.66641045 0.082394987
-0.12495196 -0.7080611 0.082394987
-0.12495196 -0.74971181 0.082395077
-0.12495196 -0.79136235 0.082395017
-0.12495196 -0.83301318 0.082395077
-0.12495196 -0.87466359 0.082394987
-0.12495196 -0.91631436 0.082395047
-0.083931245 0.92324364 0.098143339
-0.083931245 0.88127786 0.09814319
-0.083931245 0.83931243 0.098143369
-0.083931245 0.79734683 0.098143369
-0.083931245 0.75538123 0.098143399
-0.083931245 0.71341562 0.098143429
-0.083931245 0.67145002 0.098143399
-0.083931245 0.6294843 0.098143339
-0.083931245 0.58751869 0.098143339
-0.083931245 0.54555303 0.098143429
-0.083931245 0.50358748 0.098143384
-0.083931245 0.46162194 0.098143369
-0.083931245 0.41965622 0.098143339
-0.083931245 0.37769064 0.098143294
-0.083931245 0.33572501 0.098143332
-0.083931245 0.29375935 0.098143391
-0.083931245 0.25179362 0.098143354
-0.083931245 0.20982808 0.098143317
-0.083931245 0.16786243 0.098143362
-0.083931245 0.12589687 0.098143332
-0.083931245 0.083931312 0.098143302
-0.083931245 0.041965589 0.098143265
-0.083931245 2.9802322e-08 0.098143227
-0.083931245 -0.041965626 0.098143443
-0.083931245 -0.083931185 0.098143414
-0.083931245 -0.12589692 0.098143369
-0.083931245 -0.16786247 0.098143339
-0.083931245 -0.20982811 0.098143384
-0.083931245 -0.25179368 0.098143362
-0.083931245 -0.29375932 0.098143242
-0.083931245 -0.33572495 0.098143287
-0.083931245 -0.37769061 0.098143339
-0.083931245 -0.41965625 0.098143384
-0.083931245 -0.46162182 0.098143354
-0.083931245 -0.50358748 0.098143309
-0.083931245 -0.54555309 0.098143265
-0.083931245 -0.58751869 0.098143414
-0.083931245 -0.62948418 0.098143399
-0.083931245 -0.67144996 0.098143339
-0.083931245 -0.7134155 0.098143309
-0.083931245 -0.75538111 0.098143369
-0.083931245 -0.79734677 0.098143399
-0.083931245 -0.83931249 0.098143369
-0.083931245 -0.88127798 0.09814325
-0.083931245 -0.92324364 0.098143309
-0.042285532 0.93028158 0.11413863
-0.042285532 0.8879962 0.11413875
-0.042285532 0.84571052 0.11413875
-0.042285532 0.80342507 0.11413884
-0.042285532 0.76113951 0.11413875
-0.042285532 0.71885395 0.11413866
-0.042285532 0.67656839 0.11413863
-0.042285532 0.63428295 0.11413872
-0.042285532 0.59199739 0.11413865
-0.042285532 0.54971188 0.1141388
-0.042285532 0.50742626 0.11413862
-0.042285532 0.46514076 0.1141388
-0.042285532 0.42285532 0.11413877
-0.042285532 0.38056976 0.11413868
-0.042285532 0.33828419 0.11413875
-0.042285532 0.29599872 0.11413874
-0.042285532 0.25371316 0.11413864
-0.042285532 0.21142769 0.11413863
-0.042285532 0.16914213 0.11413871
-0.042285532 0.12685657 0.11413878
-0.042285532 0.084571011 0.11413869
-0.042285532 0.04228545 0.11413875
-0.042285532 -2.6077032e-08 0.11413875
-0.042285532 -0.042285576 0.11413865
-0.042285532 -0.084571145 0.11413871
-0.042285532 -0.12685661 0.11413871
-0.042285532 -0.16914208 0.11413871
-0.042285532 -0.21142757 0.11413869
-0.042285532 -0.25371313 0.11413877
-0.042285532 -0.2959986 0.11413876
-0.042285532 -0.33828416 0.11413866
-0.042285532 -0.3805697 0.11413874
-0.042285532 -0.4228552 0.11413872
-0.042285532 -0.46514085 0.11413871
-0.042285532 -0.50742638 0.1141388
-0.042285532 -0.54971188 0.11413878
-0.042285532 -0.59199733 0.11413877
-0.042285532 -0.63428301 0.11413875
-0.042285532 -0.67656839 0.11413866
-0.042285532 -0.71885395 0.11413872
-0.042285532 -0.76113957 0.11413872
-0.042285532 -0.80342495 0.11413863
-0.042285532 -0.84571052 0.11413869
-0.042285532 -0.88799608 0.11413878
-0.042285532 -0.93028152 0.11413857
0 0.9374246 0.13037267
0 0.89481425 0.13037255
0 0.85220408 0.13037261
0 0.80959392 0.13037267
0 0.76698363 0.13037249
0 0.72437346 0.13037255
0 0.68176329 0.13037261
0 0.63915312 0.13037264
0 0.59654289 0.13037275
0 0.55393279 0.13037275
0 0.5113225 0.13037272
0 0.46871221 0.1303727
0 0.4261021 0.13037269
0 0.38349181 0.13037269
0 0.34088159 0.13037261
0 0.29827139 0.1303727
0 0.25566128 0.1303727
0 0.21305098 0.1303727
0 0.17044087 0.1303727
0 0.12783065 0.13037261
0 0.085220367 0.13037261
0 0.042610239 0.13037261
0 2.2351742e-08 0.1303727
0 -0.042610176 0.13037263
0 -0.085220389 0.1303727
0 -0.12783059 0.13037263
0 -0.17044079 0.13037254
0 -0.21305101 0.13037263
0 -0.25566122 0.1303727
0 -0.29827151 0.1303727
0 -0.34088165 0.1303727
0 -0.38349193 0.1303727
0 -0.42610213 0.13037261
0 -0.46871227 0.13037264
0 -0.51132244 0.13037272
0 -0.55393267 0.13037263
0 -0.59654289 0.13037272
0 -0.63915306 0.13037263
0 -0.68176329 0.13037252
0 -0.72437352 0.13037261
0 -0.76698375 0.1303727
0 -0.8095938 0.13037255
0 -0.85220402 0.13037264
0 -0.89481437 0.13037264
0.042940058 0.90174121 0.14686513
0.042940058 0.85880113 0.14686519
0.042940058 0.81586111 0.14686513
0.042940058 0.77292097 0.14686498
0.042940058 0.72998095 0.14686519
0.042940058 0.68704081 0.14686501
0.042940058 0.6441009 0.14686522
0.042940058 0.60116088 0.14686519
0.042940058 0.5582208 0.14686505
0.042940058 0.51528072 0.14686525
0.042940058 0.4723407 0.14686505
0.042940058 0.42940062 0.14686511
0.042940058 0.38646042 0.14686507
0.042940058 0.34352049 0.14686513
0.042940058 0.30058038 0.14686517
0.042940058 0.25764039 0.14686516
0.042940058 0.21470021 0.14686511
0.042940058 0.1717602 0.14686508
0.042940058 0.12882011 0.14686513
0.042940058 0.085880086 0.14686511
0.042940058 0.042940065 0.14686525
0.042940058 6.7055225e-08 0.14686504
0.042940058 -0.042940035 0.1468651
0.042940058 -0.085880041 0.14686507
0.042940058 -0.12882015 0.14686511
0.042940058 -0.17176016 0.1468651
0.042940058 -0.21470025 0.14686514
0.042940058 -0.25764042 0.1468651
0.042940058 -0.30058044 0.14686508
0.042940058 -0.34352046 0.14686522
0.042940058 -0.38646048 0.14686519
0.042940058 -0.42940056 0.14686523
0.042940058 -0.47234058 0.14686504
0.042940058 -0.51528066 0.14686511
0.042940058 -0.55822068 0.14686505
0.042940058 -0.60116076 0.14686513
0.042940058 -0.64410079 0.14686508
0.042940058 -0.68704087 0.14686498
0.042940058 -0.72998101 0.14686519
0.042940058 -0.77292103 0.14686516
0.042940058 -0.81586105 0.14686513
0.042940058 -0.85880101 0.1468651
0.042940058 -0.90174127 0.14686516
0.086549804 0.90877306 0.16360757
0.086549804 0.86549807 0.16360751
0.086549804 0.82222331 0.1636076
0.086549804 0.77894831 0.16360754
0.086549804 0.73567331 0.16360745
0.086549804 0.69239855 0.16360751
0.086549804 0.64912343 0.16360745
0.086549804 0.60584867 0.16360754
0.086549804 0.56257367 0.16360748
0.086549804 0.51929891 0.16360752
0.086549804 0.47602388 0.16360749
0.086549804 0.43274909 0.16360758
0.086549804 0.38947409 0.16360748
0.086549804 0.34619921 0.16360748
0.086549804 0.30292434 0.16360746
0.086549804 0.25964937 0.16360754
0.086549804 0.21637455 0.16360745
0.086549804 0.17309958 0.16360752
0.086549804 0.1298247 0.16360751
0.086549804 0.086549811 0.16360751
0.086549804 0.04327492 0.16360749
0.086549804 3.7252903e-08 0.16360749
0.086549804 -0.043274857 0.16360748
0.086549804 -0.086549744 0.16360748
0.086549804 -0.12982471 0.16360755
0.086549804 -0.17309961 0.16360754
0.086549804 -0.2163745 0.16360754
0.086549804 -0.25964946 0.16360743
0.086549804 -0.30292445 0.16360751
0.086549804 -0.34619921 0.16360742
0.086549804 -0.38947412 0.1636074
0.086549804 -0.43274912 0.16360749
0.086549804 -0.47602382 0.16360749
0.086549804 -0.51929879 0.16360755
0.086549804 -0.56257367 0.16360757
0.086549804 -0.60584867 0.16360763
0.086549804 -0.64912361 0.16360754
0.086549804 -0.69239843 0.16360745
0.086549804 -0.73567343 0.16360751
0.086549804 -0.77894843 0.1636076
0.086549804 -0.82222319 0.16360751
0.086549804 -0.86549801 0.16360742
0.086549804 -0.90877295 0.16360751
0.13084549 0.91591847 0.18062052
0.13084549 0.87230343 0.1806207
0.13084549 0.82868803 0.18062049
0.13084549 0.78507304 0.18062061
0.13084549 0.74145782 0.18062061
0.13084549 0.69784266 0.18062058
0.13084549 0.65422744 0.18062058
0.13084549 0.61061227 0.18062054
0.13084549 0.56699705 0.18062052
0.13084549 0.52338195 0.18062061
0.13084549 0.47976679 0.18062054
0.13084549 0.43615165 0.1806206
0.13084549 0.3925364 0.18062046
0.13084549 0.34892124 0.18062058
0.13084549 0.30530614 0.18062064
0.13084549 0.26169097 0.18062058
0.13084549 0.2180758 0.18062055
0.13084549 0.17446055 0.18062057
0.13084549 0.13084544 0.18062061
0.13084549 0.08723028 0.18062057
0.13084549 0.0436152 0.18062045
0.13084549 1.4901161e-08 0.18062057
0.13084549 -0.04361508 0.18062061
0.13084549 -0.087230235 0.18062057
0.13084549 -0.13084541 0.18062052
0.13084549 -0.17446066 0.18062055
0.13084549 -0.21807577 0.18062061
0.13084549 -0.26169094 0.18062055
0.13084549 -0.30530614 0.18062051
0.13084549 -0.34892136 0.18062054
0.13084549 -0.39253646 0.18062058
0.13084549 -0.43615162 0.18062052
0.13084549 -0.47976682 0.18062049
0.13084549 -0.52338207 0.18062052
0.13084549 -0.56699717 0.18062058
0.13084549 -0.61061221 0.18062061
0.13084549 -0.6542275 0.18062063
0.13084549 -0.69784266 0.1806206
0.13084549 -0.7414577 0.18062058
0.13084549 -0.78507292 0.18062058
0.13084549 -0.82868809 0.18062055
0.13084549 -0.87230325 0.18062049
0.13084549 -0.91591841 0.18062055
0.17584267 0.92317408 0.19789577
0.17584267 0.87921333 0.19789565
0.17584267 0.83525264 0.19789559
0.17584267 0.79129201 0.19789568
0.17584267 0.74733126 0.19789559
0.17584267 0.70337069 0.19789568
0.17584267 0.65941012 0.19789578
0.17584267 0.61544943 0.19789569
0.17584267 0.57148868 0.19789559
0.17584267 0.52752805 0.19789572
0.17584267 0.48356742 0.19789568
0.17584267 0.43960664 0.19789563
0.17584267 0.39564601 0.19789577
0.17584267 0.3516854 0.19789569
0.17584267 0.30772462 0.19789565
0.17584267 0.26376402 0.19789562
0.17584267 0.2198033 0.19789563
0.17584267 0.1758426 0.19789568
0.17584267 0.13188198 0.19789563
0.17584267 0.087921292 0.19789568
0.17584267 0.043960661 0.1978958
0.17584267 -2.2351742e-08 0.19789566
0.17584267 -0.043960631 0.19789562
0.17584267 -0.087921336 0.19789565
0.17584267 -0.13188195 0.19789562
0.17584267 -0.17584264 0.19789565
0.17584267 -0.21980327 0.19789562
0.17584267 -0.26376396 0.19789565
0.17584267 -0.30772465 0.19789568
0.17584267 -0.35168529 0.19789565
0.17584267 -0.39564598 0.19789568
0.17584267 -0.43960667 0.19789571
0.17584267 -0.4835673 0.19789568
0.17584267 -0.52752805 0.19789562
0.17584267 -0.57148868 0.19789574
0.17584267 -0.61544931 0.19789571
0.17584267 -0.65941006 0.19789563
0.17584267 -0.70337063 0.19789569
0.17584267 -0.74733132 0.19789574
0.17584267 -0.79129195 0.19789559
0.17584267 -0.83525282 0.19789571
0.17584267 -0.87921333 0.19789577
0.17584267 -0.92317402 0.19789562
0.22155921 0.93054867 0.2154544
0.22155921 0.88623679 0.21545437
0.22155921 0.84192491 0.21545431
0.22155921 0.7976132 0.21545446
0.22155921 0.75330138 0.2154544
0.22155921 0.70898938 0.21545437
0.22155921 0.66467768 0.21545452
0.22155921 0.6203658 0.21545446
0.22155921 0.57605398 0.21545438
0.22155921 0.53174198 0.21545441
0.22155921 0.48743027 0.21545437
0.22155921 0.44311839 0.21545433
0.22155921 0.39880657 0.21545437
0.22155921 0.35449478 0.21545441
0.22155921 0.3101829 0.21545437
0.22155921 0.26587108 0.21545441
0.22155921 0.2215592 0.21545438
0.22155921 0.17724739 0.21545443
0.22155921 0.13293551 0.21545437
0.22155921 0.08862371 0.21545441
0.22155921 0.044311814 0.21545437
0.22155921 1.4901161e-08 0.21545443
0.22155921 -0.044311799 0.21545446
0.22155921 -0.08862368 0.21545443
0.22155921 -0.13293555 0.21545438
0.22155921 -0.17724736 0.21545441
0.22155921 -0.22155926 0.21545437
0.22155921 -0.26587114 0.21545433
0.22155921 -0.31018287 0.21545446
0.22155921 -0.35449466 0.21545434
0.22155921 -0.39880657 0.21545446
0.22155921 -0.44311845 0.21545441
0.22155921 -0.48743021 0.2154543
0.22155921 -0.53174216 0.21545441
0.22155921 -0.57605386 0.21545438
0.22155921 -0.62036574 0.21545433
0.22155921 -0.66467762 0.21545446
0.22155921 -0.70898938 0.21545434
0.22155921 -0.75330132 0.21545431
0.22155921 -0.7976132 0.21545443
0.22155921 -0.84192491 0.2154544
0.22155921 -0.88623679 0.21545449
0.22155921 -0.93054879 0.21545455
0.26801109 0.93803883 0.23328811
0.26801109 0.89337039 0.23328808
0.26801109 0.84870183 0.23328811
0.26801109 0.80403334 0.23328808
0.26801109 0.75936466 0.2332879
0.26801109 0.71469629 0.23328808
0.26801109 0.67002773 0.23328812
0.26801109 0.6253593 0.23328809
0.26801109 0.58069062 0.23328796
0.26801109 0.53602207 0.23328793
0.26801109 0.49135363 0.23328793
0.26801109 0.44668514 0.23328808
0.26801109 0.4020167 0.23328814
0.26801109 0.35734808 0.23328796
0.26801109 0.31267965 0.23328802
0.26801109 0.26801109 0.23328806
0.26801109 0.22334252 0.23328796
0.26801109 0.17867403 0.23328812
0.26801109 0.13400555 0.23328793
0.26801109 0.089336976 0.23328799
0.26801109 0.044668578 0.23328806
0.26801109 -7.4505806e-08 0.23328803
0.26801109 -0.044668488 0.23328811
0.26801109 -0.089337051 0.23328799
0.26801109 -0.13400552 0.23328798
0.26801109 -0.17867401 0.23328796
0.26801109 -0.22334258 0.23328802
0.26801109 -0.268011 0.23328809
0.26801109 -0.31267965 0.23328808
0.26801109 -0.35734805 0.23328796
0.26801109 -0.40201664 0.23328803
0.26801109 -0.44668508 0.23328802
0.26801109 -0.49135366 0.23328805
0.26801109 -0.53602213 0.23328803
0.26801109 -0.5806908 0.23328802
0.26801109 -0.62535918 0.23328809
0.26801109 -0.67002767 0.23328806
0.26801109 -0.71469635 0.23328805
0.26801109 -0.7593646 0.23328798
0.26801109 -0.80403316 0.23328787
0.26801109 -0.84870178 0.23328808
0.26801109 -0.89337027 0.23328799
0.31521797 0.90062261 0.25141895
0.31521797 0.85559154 0.25141907
0.31521797 0.81056052 0.25141916
0.31521797 0.76552933 0.25141913
0.31521797 0.72049814 0.25141901
0.31521797 0.67546707 0.25141916
0.31521797 0.63043588 0.25141907
0.31521797 0.58540487 0.25141919
0.31521797 0.54037362 0.25141916
0.31521797 0.49534243 0.25141907
0.31521797 0.45031142 0.25141916
0.31521797 0.40528029 0.25141907
0.31521797 0.3602491 0.25141913
0.31521797 0.31521797 0.25141928
0.31521797 0.27018675 0.2514191
0.31521797 0.22515574 0.25141916
0.31521797 0.1801246 0.25141907
0.31521797 0.13509342 0.25141913
0.31521797 0.090062164 0.25141913
0.31521797 0.045031235 0.2514191
0.31521797 -7.4505806e-09 0.2514191
0.31521797 -0.045031086 0.2514191
0.31521797 -0.09006235 0.25141907
0.31521797 -0.13509345 0.25141922
0.31521797 -0.18012452 0.25141904
0.31521797 -0.22515568 0.25141913
0.31521797 -0.27018678 0.2514191
0.31521797 -0.31521794 0.25141916
0.31521797 -0.36024913 0.25141925
0.31521797 -0.4052802 0.25141904
0.31521797 -0.45031136 0.25141913
0.31521797 -0.49534246 0.25141913
0.31521797 -0.5403735 0.25141913
0.31521797 -0.58540475 0.25141907
0.31521797 -0.63043588 0.25141907
0.31521797 -0.67546707 0.25141895
0.31521797 -0.72049826 0.25141919
0.31521797 -0.76552927 0.25141904
0.31521797 -0.81056046 0.2514191
0.31521797 -0.8555916 0.25141916
0.31521797 -0.90062284 0.25141925
0.36319622 0.90799063 0.26983884
0.36319622 0.86259109 0.26983884
0.36319622 0.8171916 0.26983881
0.36319622 0.77179205 0.2698389
0.36319622 0.72639239 0.26983869
0.36319622 0.68099296 0.26983887
0.36319622 0.63559353 0.26983881
0.36319622 0.59019375 0.26983875
0.36319622 0.54479444 0.26983881
0.36319622 0.49939495 0.26983881
0.36319622 0.45399535 0.26983887
0.36319622 0.4085958 0.26983887
0.36319622 0.36319622 0.26983875
0.36319622 0.31779674 0.26983878
0.36319622 0.27239719 0.26983893
0.36319622 0.22699758 0.26983884
0.36319622 0.18159817 0.26983875
0.36319622 0.13619857 0.26983881
0.36319622 0.090799056 0.26983881
0.36319622 0.045399532 0.26983881
0.36319622 1.4901161e-08 0.26983878
0.36319622 -0.045399487 0.26983878
0.36319622 -0.090799101 0.26983884
0.36319622 -0.13619852 0.26983875
0.36319622 -0.18159813 0.26983884
0.36319622 -0.22699764 0.26983881
0.36319622 -0.27239716 0.26983881
0.36319622 -0.31779668 0.26983881
0.36319622 -0.36319619 0.26983881
0.36319622 -0.4085958 0.26983887
0.36319622 -0.45399532 0.26983884
0.36319622 -0.49939489 0.26983875
0.36319622 -0.54479426 0.26983878
0.36319622 -0.59019399 0.2698389
0.36319622 -0.63559341 0.26983881
0.36319622 -0.68099296 0.26983872
0.36319622 -0.72639239 0.26983863
0.36319622 -0.77179205 0.26983893
0.36319622 -0.81719154 0.26983887
0.36319622 -0.86259121 0.26983884
0.36319622 -0.90799057 0.26983878
0.41196752 0.91548347 0.28857079
0.41196752 0.86970913 0.28857076
0.41196752 0.82393497 0.28857067
0.41196752 0.77816087 0.28857079
0.41196752 0.73238665 0.28857064
0.41196752 0.68661261 0.2885707
0.41196752 0.64083827 0.2885707
0.41196752 0.5950641 0.28857058
0.41196752 0.54928994 0.2885707
0.41196752 0.50351578 0.28857058
0.41196752 0.45774165 0.2885707
0.41196752 0.41196761 0.28857076
0.41196752 0.36619335 0.28857055
0.41196752 0.32041919 0.28857067
0.41196752 0.27464509 0.28857061
0.41196752 0.22887087 0.28857085
0.41196752 0.18309668 0.2885707
0.41196752 0.13732249 0.28857073
0.41196752 0.091548286 0.28857061
0.41196752 0.04577408 0.28857064
0.41196752 4.4703484e-08 0.2885707
0.41196752 -0.045774154 0.28857076
0.41196752 -0.091548279 0.2885707
0.41196752 -0.13732256 0.28857064
0.41196752 -0.18309668 0.28857061
0.41196752 -0.22887078 0.28857058
0.41196752 -0.274645 0.28857079
0.41196752 -0.3204191 0.28857073
0.41196752 -0.36619341 0.2885707
0.41196752 -0.41196752 0.28857067
0.41196752 -0.45774171 0.28857067
0.41196752 -0.50351584 0.28857064
0.41196752 -0.54929006 0.2885707
0.41196752 -0.59506416 0.28857064
0.41196752 -0.64083827 0.28857061
0.41196752 -0.68661267 0.28857082
0.41196752 -0.73238671 0.28857076
0.41196752 -0.77816087 0.28857073
0.41196752 -0.82393509 0.28857058
0.41196752 -0.86970913 0.28857064
0.41196752 -0.91548342 0.28857079
0.46154872 0.92309737 0.30760577
0.46154872 0.87694252 0.30760571
0.46154872 0.83078766 0.30760583
0.46154872 0.7846328 0.30760577
0.46154872 0.73847795 0.30760592
0.46154872 0.69232309 0.3076058
0.46154872 0.64616835 0.30760595
0.46154872 0.60001326 0.30760568
0.46154872 0.55385846 0.3076058
0.46154872 0.5077036 0.30760571
0.46154872 0.46154878 0.30760589
0.46154872 0.41539389 0.3076058
0.46154872 0.36923909 0.30760595
0.46154872 0.32308406 0.30760583
0.46154872 0.27692929 0.30760589
0.46154872 0.23077433 0.30760586
0.46154872 0.18461952 0.30760589
0.46154872 0.13846457 0.30760583
0.46154872 0.092309751 0.30760583
0.46154872 0.046154857 0.30760589
0.46154872 5.9604645e-08 0.30760586
0.46154872 -0.046154916 0.30760586
0.46154872 -0.092309713 0.30760586
0.46154872 -0.1384646 0.30760592
0.46154872 -0.18461949 0.30760583
0.46154872 -0.23077437 0.30760589
0.46154872 -0.27692908 0.3076058
0.46154872 -0.32308406 0.30760577
0.46154872 -0.36923894 0.30760586
0.46154872 -0.41539386 0.30760574
0.46154872 -0.46154875 0.3076058
0.46154872 -0.50770366 0.30760586
0.46154872 -0.5538584 0.30760568
0.46154872 -0.60001332 0.30760574
0.46154872 -0.64616817 0.3076058
0.46154872 -0.69232297 0.3076058
0.46154872 -0.73847783 0.30760571
0.46154872 -0.78463274 0.30760568
0.46154872 -0.83078772 0.30760583
0.46154872 -0.87694252 0.30760586
0.46154872 -0.92309737 0.30760577
0.51196343 0.9308427 0.32696891
0.51196343 0.88430047 0.32696885
0.51196343 0.83775848 0.326969
0.51196343 0.79121614 0.32696876
0.51196343 0.74467403 0.3269687
0.51196343 0.69813204 0.32696885
0.51196343 0.65158987 0.32696879
0.51196343 0.60504788 0.32696891
0.51196343 0.55850559 0.32696894
0.51196343 0.51196343 0.32696885
0.51196343 0.46542126 0.32696882
0.51196343 0.41887912 0.32696879
0.51196343 0.3723371 0.32696888
0.51196343 0.32579497 0.32696885
0.51196343 0.27925283 0.32696891
0.51196343 0.23271069 0.32696882
0.51196343 0.18616852 0.32696879
0.51196343 0.13962644 0.32696885
0.51196343 0.093084268 0.32696894
0.51196343 0.046542093 0.32696891
0.51196343 -5.9604645e-08 0.32696885
0.51196343 -0.046542153 0.32696888
0.51196343 -0.093084238 0.32696891
0.51196343 -0.1396264 0.32696888
0.51196343 -0.18616848 0.32696891
0.51196343 -0.23271066 0.32696885
0.51196343 -0.27925283 0.32696882
0.51196343 -0.32579491 0.32696885
0.51196343 -0.37233707 0.32696897
0.51196343 -0.41887924 0.32696891
0.51196343 -0.46542132 0.32696897
0.51196343 -0.51196343 0.32696882
0.51196343 -0.55850565 0.32696885
0.51196343 -0.60504764 0.32696879
0.51196343 -0.65158987 0.32696891
0.51196343 -0.69813204 0.32696888
0.51196343 -0.74467409 0.32696891
0.51196343 -0.79121625 0.32696888
0.51196343 -0.83775842 0.32696882
0.51196343 -0.88430047 0.32696885
0.51196343 -0.93084264 0.32696882
0.56322926 0.93871552 0.34665087
0.56322926 0.89177954 0.34665078
0.56322926 0.84484386 0.34665081
0.56322926 0.79790819 0.34665084
0.56322926 0.75097251 0.34665096
0.56322926 0.70403653 0.3466509
0.56322926 0.65710092 0.34665084
0.56322926 0.61016512 0.34665096
0.56322926 0.56322926 0.34665084
0.56322926 0.51629341 0.34665069
0.56322926 0.46935758 0.34665078
0.56322926 0.4224219 0.34665084
0.56322926 0.37548617 0.3466509
0.56322926 0.32855034 0.34665078
0.56322926 0.2816146 0.34665081
0.56322926 0.23467892 0.34665084
0.56322926 0.18774311 0.34665096
0.56322926 0.14080742 0.34665087
0.56322926 0.093871482 0.34665078
0.56322926 0.046935782 0.34665084
0.56322926 -1.4901161e-08 0.34665078
0.56322926 -0.046935722 0.34665084
0.56322926 -0.093871504 0.34665078
0.56322926 -0.1408073 0.3466509
0.56322926 -0.18774308 0.34665087
0.56322926 -0.23467885 0.34665081
0.56322926 -0.28161466 0.34665078
0.56322926 -0.32855034 0.34665081
0.56322926 -0.37548614 0.34665078
0.56322926 -0.42242193 0.3466509
0.56322926 -0.46935764 0.34665078
0.56322926 -0.51629341 0.3466509
0.56322926 -0.56322938 0.34665084
0.56322926 -0.61016488 0.34665072
0.56322926 -0.6571008 0.34665078
0.56322926 -0.70403647 0.34665081
0.56322926 -0.75097245 0.34665093
0.56322926 -0.79790819 0.34665093
0.56322926 -0.84484375 0.34665078
0.56322926 -0.89177966 0.3466509
0.61537194 0.89938974 0.36667749
0.61537194 0.8520534 0.3666774
0.61537194 0.80471706 0.36667737
0.61537194 0.75738072 0.36667737
0.61537194 0.71004462 0.36667746
0.61537194 0.66270822 0.36667749
0.61537194 0.61537188 0.3666774
0.61537194 0.56803554 0.36667737
0.61537194 0.52069938 0.36667752
0.61537194 0.47336304 0.36667749
0.61537194 0.4260267 0.36667743
0.61537194 0.37869045 0.36667731
0.61537194 0.33135417 0.36667752
0.61537194 0.28401786 0.36667749
0.61537194 0.23668152 0.36667746
0.61537194 0.18934527 0.36667749
0.61537194 0.14200893 0.36667746
0.61537194 0.094672605 0.36667743
0.61537194 0.047336265 0.36667734
0.61537194 1.4901161e-08 0.3666774
0.61537194 -0.047336325 0.36667737
0.61537194 -0.094672576 0.3666774
0.61537194 -0.14200899 0.36667746
0.61537194 -0.18934515 0.36667743
0.61537194 -0.23668149 0.3666774
0.61537194 -0.28401783 0.36667752
0.61537194 -0.33135417 0.36667746
0.61537194 -0.37869033 0.36667743
0.61537194 -0.42602667 0.36667737
0.61537194 -0.47336298 0.36667734
0.61537194 -0.52069944 0.3666774
0.61537194 -0.56803554 0.36667734
0.61537194 -0.61537206 0.36667749
0.61537194 -0.66270816 0.36667734
0.61537194 -0.7100445 0.36667734
0.61537194 -0.7573809 0.36667752
0.61537194 -0.80471706 0.36667734
0.61537194 -0.85205334 0.36667737
0.61537194 -0.89938986 0.36667746
0.66840971 0.90712738 0.38703975
0.66840971 0.85938382 0.38703966
0.66840971 0.81164038 0.38703978
0.66840971 0.76389694 0.38703984
0.66840971 0.71615314 0.38703966
0.66840971 0.66840971 0.38703975
0.66840971 0.62066615 0.38703966
0.66840971 0.57292271 0.38703978
0.66840971 0.52517903 0.38703975
0.66840971 0.47743535 0.38703972
0.66840971 0.42969197 0.38703981
0.66840971 0.38194841 0.38703969
0.66840971 0.33420491 0.38703984
0.66840971 0.2864612 0.38703972
0.66840971 0.23871773 0.38703972
0.66840971 0.19097425 0.38703984
0.66840971 0.14323071 0.38703975
0.66840971 0.095487118 0.38703981
0.66840971 0.047743559 0.3870399
0.66840971 -0 0.38703975
0.66840971 -0.047743469 0.38703975
0.66840971 -0.095487118 0.38703972
0.66840971 -0.14323068 0.38703978
0.66840971 -0.19097425 0.38703984
0.66840971 -0.23871773 0.38703981
0.66840971 -0.28646126 0.38703969
0.66840971 -0.33420485 0.38703975
0.66840971 -0.3819485 0.38703972
0.66840971 -0.42969209 0.38703978
0.66840971 -0.47743535 0.38703978
0.66840971 -0.52517903 0.38703975
0.66840971 -0.57292259 0.38703981
0.66840971 -0.62066603 0.38703963
0.66840971 -0.66840971 0.38703975
0.66840971 -0.7161532 0.38703978
0.66840971 -0.7638967 0.38703972
0.66840971 -0.81164038 0.38703978
0.66840971 -0.85938382 0.38703978
0.66840971 -0.90712738 0.38703966
0.72237068 0.91500306 0.40776476
0.72237068 0.86684483 0.40776467
0.72237068 0.81868684 0.40776479
0.72237068 0.77052867 0.40776464
0.72237068 0.72237074 0.40776473
0.72237068 0.67421275 0.40776473
0.72237068 0.62605458 0.40776464
0.72237068 0.5778966 0.4077647
0.72237068 0.52973837 0.40776467
0.72237068 0.48158044 0.4077647
0.72237068 0.43342245 0.40776476
0.72237068 0.38526431 0.40776461
0.72237068 0.33710632 0.4077647
0.72237068 0.28894821 0.40776458
0.72237068 0.24079022 0.40776461
0.72237068 0.19263214 0.40776458
0.72237068 0.14447416 0.40776482
0.72237068 0.096316099 0.40776479
0.72237068 0.048157975 0.40776464
0.72237068 -0 0.40776473
0.72237068 -0.04815805 0.40776467
0.72237068 -0.096316099 0.40776464
0.72237068 -0.14447409 0.40776467
0.72237068 -0.19263215 0.40776467
0.72237068 -0.24079019 0.40776464
0.72237068 -0.28894827 0.40776476
0.72237068 -0.33710632 0.40776473
0.72237068 -0.3852644 0.40776467
0.72237068 -0.43342242 0.40776467
0.72237068 -0.48158059 0.4077647
0.72237068 -0.52973855 0.40776458
0.72237068 -0.57789671 0.40776479
0.72237068 -0.62605464 0.40776479
0.72237068 -0.67421275 0.40776482
0.72237068 -0.72237068 0.4077647
0.72237068 -0.77052885 0.40776479
0.72237068 -0.81868684 0.40776467
0.72237068 -0.86684483 0.40776476
0.72237068 -0.91500282 0.40776464
0.77727389 0.92301273 0.42884326
0.77727389 0.87443316 0.42884338
0.77727389 0.82585347 0.42884326
0.77727389 0.77727389 0.42884311
0.77727389 0.72869432 0.42884326
0.77727389 0.68011463 0.42884308
0.77727389 0.63153493 0.42884326
0.77727389 0.58295548 0.42884332
0.77727389 0.53437579 0.42884326
0.77727389 0.48579618 0.42884338
0.77727389 0.4372167 0.42884341
0.77727389 0.3886368 0.42884314
0.77727389 0.34005731 0.4288432
0.77727389 0.29147774 0.42884329
0.77727389 0.24289817 0.42884326
0.77727389 0.19431853 0.42884326
0.77727389 0.14573886 0.42884329
0.77727389 0.097159192 0.42884332
0.77727389 0.048579633 0.42884326
0.77727389 -1.4901161e-08 0.42884329
0.77727389 -0.048579574 0.42884326
0.77727389 -0.097159252 0.42884326
0.77727389 -0.1457389 0.42884326
0.77727389 -0.19431846 0.42884323
0.77727389 -0.24289812 0.42884326
0.77727389 -0.29147768 0.4288432
0.77727389 -0.34005743 0.42884329
0.77727389 -0.38863701 0.42884344
0.77727389 -0.43721664 0.42884326
0.77727389 -0.48579621 0.4288432
0.77727389 -0.53437579 0.42884317
0.77727389 -0.58295548 0.42884335
0.77727389 -0.63153505 0.42884323
0.77727389 -0.68011469 0.42884314
0.77727389 -0.72869414 0.4288432
0.77727389 -0.77727389 0.42884332
0.77727389 -0.82585353 0.4288432
0.77727389 -0.87443304 0.4288432
0.77727389 -0.92301273 0.42884329
0.83315009 0.93116772 0.45030376
0.83315009 0.88215888 0.45030364
0.83315009 0.83315015 0.45030373
0.83315009 0.78414118 0.45030364
0.83315009 0.73513222 0.45030358
0.83315009 0.68612355 0.45030361
0.83315009 0.63711464 0.45030361
0.83315009 0.58810604 0.45030388
0.83315009 0.53909713 0.45030373
0.83315009 0.49008831 0.45030358
0.83315009 0.44107953 0.45030373
0.83315009 0.39207059 0.45030367
0.83315009 0.34306192 0.4503037
0.83315009 0.29405299 0.45030364
0.83315009 0.24504402 0.45030358
0.83315009 0.19603533 0.45030361
0.83315009 0.14702649 0.45030367
