# .PCD v0.7 - Point Cloud Data file format
VERSION 0.7
FIELDS x y z
SIZE 4 4 4
TYPE F F F
COUNT 1 1 1
WIDTH 936
HEIGHT 1
VIEWPOINT 0 0 0 1 0 0 0
POINTS 936
DATA ascii
-1.0922716 -2.6077032e-08 -0.04965283
-1.0874467 0.040275767 0.013652504
-1.0431617 -1.1175871e-08 -0.068356603
-1.0368067 0.039877128 -0.0062788073
-0.99498492 3.3527613e-08 -0.086705044
-1.0430775 -0.040118337 0.0057804529
-1.0364572 0.082916453 0.072776645
-0.98715913 0.03948649 -0.02581946
-0.94771481 1.1175871e-08 -0.10470813
-0.99307388 -0.039723001 -0.013989781
-1.0429726 -0.083437793 0.085807428
-1.0360825 0.1295103 0.15836741
-0.98486483 0.082072072 0.051663954
-0.93847525 0.039103091 -0.044980921
-0.90132844 -2.6077032e-08 -0.12237017
-0.94404346 -0.039335169 -0.033380389
-0.99099898 -0.082583204 0.064443372
-0.98238635 0.12813739 0.13548486
-0.93431276 0.08124461 0.030976878
-0.8907274 0.038727298 -0.0637739
-0.8557961 -2.2351742e-08 -0.13971137
-0.89596117 -0.038954839 -0.052395932
-0.94008207 -0.081746295 0.04351905
-0.98874986 -0.12896734 0.14931861
-0.97969335 0.17812599 0.22643799
-0.92981678 0.12679313 0.11308223
-0.88477272 0.080433831 0.010709334
-0.84388858 0.038358621 -0.082208991
-0.81109703 3.7252903e-08 -0.15673535
-0.84879971 -0.038581792 -0.07104747
-0.89017844 -0.080925331 0.022995034
-0.93578565 -0.12760711 0.12664789
-0.9863115 -0.17932937 0.24147932
-0.92493886 0.17617884 0.20209759
-0.87833869 0.12547699 0.091144852
-0.83620894 0.079638921 -0.0091640987
-0.79793328 0.037996799 -0.10029653
-0.76720858 -6.7055225e-08 -0.17345059
-0.80253291 -0.038215794 -0.089344956
-0.84126717 -0.08012066 0.0028793253
-0.88392711 -0.12627523 0.10445052
-0.93112493 -0.17735711 0.21682632
-0.91963524 0.22990882 0.29895023
-0.87136853 0.17427367 0.17828356
-0.82791835 0.12418774 0.069658175
-0.78859568 0.078859568 -0.028648514
-0.75283897 0.037641972 -0.11804041
-0.72410893 7.4505806e-09 -0.18986541
-0.75713563 -0.037856761 -0.10729887
-0.79332143 -0.079332083 -0.016834226
-0.83313698 -0.12497051 0.082704686
-0.87714201 -0.17542836 0.19271725
-0.92605138 -0.23151284 0.3149907
-0.91384012 0.2885811 0.40470463
-0.86379528 0.22731456 0.27300781
-0.81894714 0.17240997 0.15498638
-0.77852362 0.12292472 0.048608631
-0.74190533 0.078095339 -0.047755189
-0.70857698 0.037293531 -0.13546135
-0.681777 -5.2154064e-08 -0.20598789
-0.71258342 -0.03750436 -0.12491814
-0.74630797 -0.078558683 -0.036169395
-0.78338069 -0.12369172 0.061390296
-0.82431775 -0.17354056 0.16911946
-0.8697629 -0.22888499 0.28871197
-0.92050773 -0.2906867 0.42225102
-0.85553032 0.28517678 0.37633547
-0.80920154 0.22477818 0.24764434
-0.76763254 0.17058496 0.13217492
-0.7301234 0.1216872 0.027982984
-0.69611126 0.077345781 -0.066495225
-0.66512698 0.036951482 -0.15256284
-0.64019233 5.2154064e-08 -0.22182567
-0.66885495 -0.037158526 -0.14220724
-0.70020229 -0.077800259 -0.055131398
-0.73463237 -0.12243874 0.040507857
-0.77262092 -0.17169353 0.14603154
-0.81473792 -0.22631608 0.26302329
-0.86170816 -0.28723609 0.39349607
-0.84648156 0.34855109 0.48951387
-0.79858023 0.28185186 0.34862775
-0.75581259 0.22229785 0.22284053
-0.71739292 0.16879828 0.10984148
-0.68268806 0.12047435 0.0077682473
-0.65118802 0.076610371 -0.084878884
-0.62246662 0.036615714 -0.16935343
-0.59933549 -4.4703484e-08 -0.23738635
-0.62592369 -0.036818989 -0.15918577
-0.65497839 -0.077056274 -0.073730774
-0.68686175 -0.12121093 0.020044059
-0.72200811 -0.16988428 0.12341553
-0.76093173 -0.22380342 0.23789662
-0.80428815 -0.28386644 0.36541578
-0.85288054 -0.35118604 0.50833446
-0.83652431 0.41826203 0.61400068
-0.78696281 0.34429613 0.45912096
-0.74294287 0.27860358 0.32155877
-0.70358914 0.21987154 0.19857819
-0.66819477 0.16704877 0.087970987
-0.63619095 0.11928575 -0.012041036
-0.60711086 0.075888857 -0.10291617
-0.58057475 0.036285989 -0.18584172
-0.55918896 -2.2351742e-08 -0.25267205
-0.58376992 -0.03648562 -0.17585683
-0.61061126 -0.076326422 -0.091977723
-0.64003974 -0.12000747 -1.3463199e-05
-0.67244864 -0.16811205 0.1012641
-0.70830959 -0.22134684 0.21332975
-0.74819702 -0.28057387 0.33797807
-0.79284811 -0.34687105 0.47751254
-0.84316319 -0.42158166 0.63474745
-0.77419519 0.41290411 0.58051294
-0.72887969 0.34014383 0.42946133
-0.68857574 0.27543035 0.29511485
-0.6524933 0.21749771 0.17483978
-0.62000608 0.16533494 0.066549152
-0.59060049 0.11812015 -0.031469461
-0.56385624 0.075180851 -0.12061716
-0.53943068 0.035962053 -0.20203555
-0.5197314 2.9802322e-08 -0.26769987
-0.54237276 -0.036158226 -0.19222862
-0.56707662 -0.075610191 -0.10988225
-0.59413838 -0.11882772 -0.01967657
-0.62391442 -0.16637714 0.079577088
-0.65682793 -0.21894269 0.18928863
-0.69339466 -0.27735788 0.31117782
-0.7342701 -0.34265938 0.44742927
-0.7802698 -0.4161438 0.60076153
-0.76010495 0.48863888 0.7145229
-0.71344286 0.40768167 0.54787254
-0.67218095 0.33609051 0.40050855
-0.63543093 0.27232745 0.26925829
-0.60248899 0.21517475 0.15160851
-0.57279605 0.163656 0.045562465
-0.54589242 0.11697698 -0.05052188
-0.52140272 0.074486107 -0.13798508
-0.49901456 0.035643987 -0.21794283
-0.48094657 -4.4703484e-08 -0.28247127
-0.50171202 -0.035836548 -0.20830923
-0.52435148 -0.074907325 -0.12745391
-0.54913241 -0.11767128 -0.038950659
-0.57636988 -0.16467713 0.058326259
-0.60645044 -0.21658939 0.16575682
-0.6398344 -0.27421468 0.28498518
-0.67710018 -0.33855006 0.41807699
-0.71897817 -0.41084462 0.56764144
-0.76637465 -0.4926694 0.73691452
-0.74446785 0.57266748 0.86320007
-0.69642711 0.48214185 0.67842811
-0.65420806 0.4025895 0.51604712
-0.61681759 0.33213264 0.37223774
-0.58347011 0.26929384 0.24397804
-0.55354345 0.21290141 0.12887546
-0.52653521 0.16201082 0.024997741
-0.50204146 0.11585568 -0.069208995
-0.47972524 0.073803857 -0.15504055
-0.45930728 0.035331316 -0.23357123
-0.4428176 -7.4505806e-08 -0.29699299
-0.46176821 -0.035520636 -0.22410621
-0.48241329 -0.074217387 -0.14470187
-0.50499243 -0.11653678 -0.057859108
-0.52978718 -0.1630114 0.037505396
-0.55714256 -0.21428551 0.14271811
-0.58747238 -0.27114105 0.25937149
-0.62128514 -0.33453822 0.38942054
-0.65922529 -0.40567711 0.53534412
-0.70210356 -0.48607153 0.70026028
-0.75094426 -0.57764947 0.88810962
-0.67757046 0.56464201 0.82307243
-0.63442034 0.47581521 0.64328033
-0.5964371 0.39762485 0.48501697
-0.56274301 0.32826674 0.34462485
-0.53265417 0.26632699 0.21925473
-0.50561959 0.21067491 0.1066107
-0.48119518 0.16039838 0.004842326
-0.45902315 0.11475567 -0.087541327
-0.43880433 0.07313405 -0.17178632
-0.42029151 0.035024315 -0.248923
-0.40532795 -1.0430813e-07 -0.31127128
-0.42252254 -0.035210252 -0.23962709
-0.44124192 -0.073540285 -0.16162968
-0.46169546 -0.11542389 -0.076406635
-0.48413739 -0.16137916 0.017101392
-0.50887251 -0.21203017 0.12016435
-0.53627312 -0.2681365 0.23433335
-0.56677538 -0.33061892 0.36142632
-0.60095924 -0.40063953 0.50385892
-0.63952839 -0.47964627 0.66456378
-0.68339092 -0.56949234 0.84732431
-0.65656102 0.65656096 0.98423046
-0.61252218 0.55683821 0.78405398
-0.57401985 0.46965271 0.6090433
-0.54007161 0.39277947 0.45473325
-0.50991273 0.32448992 0.31764746
-0.48294571 0.26342496 0.19507018
-0.45868775 0.2084945 0.084806696
-0.43675017 0.15881819 -0.014909662
-0.41681397 0.11367651 -0.10552887
-0.39861947 0.072476223 -0.18823102
-0.38194701 0.034722447 -0.26401496
-0.36846164 4.4703484e-08 -0.32531214
-0.38395691 -0.034905143 -0.25487912
-0.40081382 -0.072875202 -0.17825662
-0.41921759 -0.11433218 -0.094603181
-0.43939278 -0.15977925 -0.002897948
-0.46160799 -0.20982179 0.098080464
-0.48619094 -0.26519504 0.20982096
-0.5135299 -0.32679179 0.33408919
-0.54412246 -0.39572549 0.47314611
-0.57858843 -0.47339055 0.62980974
-0.61771601 -0.56156003 0.80766237
-0.66252267 -0.66252279 1.0113291
-0.63301092 0.75961304 1.1649171
-0.58816326 0.64697951 0.94067836
-0.54924738 0.54924726 0.74609929
-0.5151639 0.4636474 0.57568145
-0.48506325 0.38805053 0.42517847
-0.45828432 0.32079896 0.29128382
-0.43430895 0.26058543 0.171407
-0.41271743 0.2063587 0.063449472
-0.3931711 0.15726832 -0.034282364
-0.37539133 0.11261746 -0.12318107
-0.35915107 0.071830258 -0.20438237
-0.34425771 0.034425855 -0.27884918
-0.33220327 2.9802322e-08 -0.3391214
-0.3460547 -0.034605481 -0.26986423
-0.36111042 -0.072222091 -0.19458559
-0.37753579 -0.11326077 -0.11245866
-0.39552665 -0.15821064 -0.022504531
-0.41531926 -0.20765968 0.076458633
-0.43719566 -0.26231739 0.18584049
-0.46150309 -0.32305205 0.30737773
-0.48866117 -0.39092886 0.44316813
-0.51921767 -0.46729589 0.59595048
-0.55384803 -0.55384809 0.76910233
-0.59343076 -0.65277368 0.9670161
-0.63910365 -0.76692438 1.1953804
-0.56089753 0.74786329 1.1159595
-0.52173066 0.63767081 0.89836597
-0.48767462 0.54186058 0.70916557
-0.45779401 0.45779395 0.54316235
-0.4313637 0.38343436 0.3963272
-0.40781862 0.31719226 0.26552126
-0.38670954 0.25780636 0.14824858
-0.36767936 0.20426625 0.042525306
-0.35043427 0.15574867 -0.053280607
-0.33473343 0.11157784 -0.14050746
-0.32038006 0.071195655 -0.22024849
-0.30720705 0.03413406 -0.29343188
-0.29653791 4.4703484e-08 -0.35270476
-0.30879697 -0.034310736 -0.28459904
-0.32211238 -0.071580537 -0.21062447
-0.3366279 -0.11220929 -0.12998267
-0.35251337 -0.15667263 -0.041729979
-0.3699736 -0.2055409 0.055271253
-0.38925225 -0.25950155 0.16237484
-0.41065049 -0.31939483 0.28125405
-0.43452993 -0.38624886 0.41391748
-0.46135429 -0.46135432 0.56294155
-0.49171042 -0.546345 0.73158705
-0.52634031 -0.64330482 0.92397487
-0.56622028 -0.75496042 1.1455306
-0.53017557 0.86153525 1.3134594
-0.49098095 0.73647147 1.0684934
-0.45718262 0.62862611 0.85725355
-0.4277378 0.53467214 0.67322332
-0.40185463 0.45208639 0.51145375
-0.37892669 0.37892672 0.36815408
-0.35847381 0.31366462 0.24032372
-0.34011465 0.25508597 0.12557894
-0.32354543 0.20221588 0.022021264
-0.30851564 0.15425776 -0.071915068
-0.29482019 0.11055761 -0.15751156
-0.28228819 0.070572026 -0.23583654
-0.27077886 0.033847317 -0.30776966
-0.26145184 -8.9406967e-08 -0.36606362
-0.27216843 -0.034021035 -0.29908496
-0.28380111 -0.070950307 -0.22638087
-0.29647255 -0.11117715 -0.14718439
-0.31032935 -0.15516467 -0.060579319
-0.32554391 -0.20346493 0.034511797
-0.34232727 -0.25674543 0.13940772
-0.36093518 -0.31581831 0.25570729
-0.38167801 -0.38167801 0.38534996
-0.40494549 -0.45556378 0.53077167
-0.43123209 -0.53904009 0.69506294
-0.46117049 -0.63410944 0.88217783
-0.49557352 -0.74336016 1.0971967
-0.53552604 -0.87022978 1.3469001
-0.4563989 0.84759796 1.2598544
-0.42316252 0.72542137 1.0224516
-0.39444005 0.61983424 0.81729108
-0.36936888 0.52766985 0.63821137
-0.34729296 0.44651964 0.48052651
-0.32770827 0.37452379 0.34063569
-0.31021455 0.31021452 0.21568044
-0.29449385 0.25242326 0.10338967
-0.28028873 0.20020616 0.0019247532
-0.2673918 0.15279528 -0.090196326
-0.25562951 0.10955539 -0.17421286
-0.24485841 0.069959544 -0.25114909
-0.23495768 0.033565462 -0.32186854
-0.22692963 8.9406967e-08 -0.37921175
-0.23615333 -0.033736184 -0.31332833
-0.24615858 -0.070331044 -0.24186219
-0.25704989 -0.11016419 -0.16406707
-0.26894876 -0.15368503 -0.079074994
-0.28200275 -0.20143056 0.014167488
-0.29638854 -0.25404724 0.11692324
-0.31232095 -0.31232083 0.23072615
-0.33006358 -0.37721542 0.35745931
-0.3499338 -0.44991478 0.49938923
-0.37235123 -0.53193033 0.65951401
-0.39783573 -0.62517035 0.84154588
-0.42706695 -0.73211473 1.0503404
-0.46093202 -0.85601664 1.2922338
-0.38497326 0.83410865 1.2079725
-0.35734907 0.71469796 0.97777098
-0.33342829 0.61128509 0.77843118
-0.31250906 0.52084845 0.60410452
-0.29405981 0.44108969 0.45036077
-0.27766648 0.37022194 0.31374961
-0.26300532 0.30683962 0.19157322
-0.24981476 0.24981478 0.081651933
-0.23788412 0.19823678 -0.017770104
-0.22704042 0.15136026 -0.10813409
-0.21714285 0.10857148 -0.19061393
-0.20807217 0.069357432 -0.26620293
-0.19972838 0.033288166 -0.33573443
-0.19295852 -0 -0.39214996
-0.20073633 -0.033455983 -0.32733512
-0.20916745 -0.069722466 -0.25707561
-0.2183385 -0.10916923 -0.18065022
-0.22834995 -0.15223333 -0.097221442
-0.23932366 -0.19943637 -0.0057739988
-0.2514053 -0.25140527 0.094906278
-0.26477253 -0.30890131 0.20630018
-0.27964005 -0.37285349 0.33019602
-0.29627079 -0.44440603 0.46878541
-0.3150034 -0.52500558 0.62489057
-0.33626327 -0.61648262 0.80205613
-0.36060223 -0.72120446 1.0048809
-0.38873747 -0.84226441 1.2393413
-0.31578538 0.82104194 1.157716
-0.29345572 0.70429373 0.93441963
-0.27407664 0.60296857 0.7406286
-0.25710061 0.51420128 0.57086825
-0.24210484 0.43578863 0.42091075
-0.22876117 0.36601782 0.28747389
-0.21681227 0.30353713 0.16798501
-0.20604967 0.24725959 0.060358986
-0.19630505 0.19630507 -0.037087165
-0.18743995 0.14995195 -0.12573814
-0.17934145 0.10760488 -0.20672323
-0.17191377 0.068765484 -0.2809999
-0.1650769 0.03301537 -0.34936881
-0.15952544 -4.4703484e-08 -0.40488318
-0.16590266 -0.03318052 -0.3411113
-0.17281143 -0.069124579 -0.27202317
-0.18032013 -0.10819207 -0.19693647
-0.18851097 -0.15080883 -0.1150281
-0.19748132 -0.19748132 -0.025324479
-0.20734805 -0.24881759 0.07334283
-0.21825333 -0.30555466 0.18239559
-0.23036854 -0.3685897 0.30354774
-0.24390596 -0.43903074 0.43892196
-0.25912842 -0.51825678 0.59114629
-0.27637866 -0.60803312 0.76364875
-0.29608801 -0.71061105 0.96074229
-0.3188259 -0.82894719 1.1881211
-0.26887554 0.94106436 1.3608066
-0.24873182 0.80837846 1.10901
-0.23139599 0.694188 0.89231223
-0.21631923 0.59487784 0.70385259
-0.20308858 0.50772148 0.53846973
-0.19138384 0.4306137 0.39216024
-0.18095474 0.36190945 0.26179633
-0.17160295 0.3003051 0.1448992
-0.1631708 0.24475625 0.039497122
-0.1555285 0.19441074 -0.056031518
-0.14857005 0.14857006 -0.14301215
-0.14220718 0.10665543 -0.22254804
-0.13636731 0.068183742 -0.29554635
-0.13098815 0.032747045 -0.36278579
-0.1266177 -1.0430813e-07 -0.41741645
-0.13163805 -0.032909468 -0.35466224
-0.13707331 -0.068536684 -0.28672153
-0.14297631 -0.10723232 -0.21293375
-0.14941065 -0.14941059 -0.1325046
-0.15645139 -0.19556427 -0.044495478
-0.16418904 -0.24628353 0.052225269
-0.1727313 -0.30227977 0.15900339
-0.18221119 -0.36442238 0.27750212
-0.19279206 -0.43378225 0.40976295
-0.20467255 -0.51168144 0.55826926
-0.21811248 -0.59980929 0.72626841
-0.23344263 -0.70032793 0.91789508
-0.25108942 -0.81604046 1.1384798
-0.19834855 0.92562652 1.3056715
-0.18371528 0.79609954 1.0617834
-0.17109202 0.68436819 0.85139614
-0.16009197 0.58700383 0.66806179
-0.15042092 0.50140309 0.5068773
-0.14185333 0.42555994 0.36408451
-0.13420913 0.35789102 0.23668109
-0.12734625 0.29714128 0.12229963
-0.12115148 0.24230289 0.019053593
-0.11553144 0.19255246 -0.074613675
-0.1104097 0.14721292 -0.15997607
-0.1057225 0.10572246 -0.23809609
-0.10141733 0.067611493 -0.30984879
-0.097449072 0.032483131 -0.37598649
-0.094223008 -1.4901161e-08 -0.42975426
-0.097928897 -0.032643065 -0.36798942
-0.10193796 -0.067958608 -0.30117175
-0.10628928 -0.10628929 -0.22864971
-0.11102866 -0.14803818 -0.14966013
-0.1162104 -0.19368398 -0.063297793
-0.12189988 -0.24379987 0.031527013
-0.12817472 -0.29907432 0.13610739
-0.13513058 -0.36034825 0.25203866
-0.14288478 -0.42865416 0.381275
-0.1515812 -0.50527078 0.52621573
-0.16140209 -0.59180766 0.689897
-0.17258449 -0.69033796 0.87627041
-0.18543082 -0.80353355 1.0903761
-0.13009951 0.91069651 1.2523499
-0.12064432 0.78418815 1.0159703
-0.11247037 0.67482209 0.81162137
-0.10533374 0.57933563 0.63320583
-0.099049151 0.4952457 0.47609091
-0.093471915 0.42062354 0.33665988
-0.08849021 0.35396087 0.2121174
-0.08401265 0.29404426 0.10017853
-0.079966135 0.23989847 -0.00098433346
-0.076291747 0.19072938 -0.092844054
-0.072940201 0.14588034 -0.17663288
-0.069870524 0.10480581 -0.25337449
-0.067048982 0.067049012 -0.32391325
-0.064446464 0.03222321 -0.38897604
-0.06232946 -4.4703484e-08 -0.44190121
-0.064761236 -0.0323807 -0.38110667
-0.0673903 -0.06739039 -0.31538031
-0.070241846 -0.10536273 -0.24409166
-0.073345371 -0.14669079 -0.16650341
-0.076736063 -0.19184023 -0.081736051
-0.080455191 -0.24136567 0.011242069
-0.084553182 -0.29593611 0.11369186
-0.089091048 -0.35636425 0.22713841
-0.094143622 -0.4236463 0.35345265
-0.099803329 -0.49901667 0.49494556
-0.10618484 -0.58401668 0.65448332
-0.11343766 -0.68062609 0.83580375
-0.12175449 -0.79140425 1.0437244
-0.13138664 -0.91970646 1.2845283
-0.064016521 0.89623123 1.2006881
-0.059432909 0.77262777 0.97150761
-0.055461574 0.66553897 0.77294099
-0.05198773 0.57186514 0.59924877
-0.048923407 0.48923406 0.44603252
-0.046200387 0.41580343 0.30988151
-0.043764502 0.35011601 0.18808743
-0.041572891 0.29101026 0.078506745
-0.039590187 0.23754118 -0.020628393
-0.037788104 0.18894054 -0.11073239
-0.036142938 0.14457172 -0.19299076
-0.034635045 0.10390522 -0.26838538
-0.033247843 0.066495731 -0.33774549
-0.031967565 0.031967625 -0.40175945
-0.030925598 -4.4703484e-08 -0.4538579
-0.032122459 -0.032122478 -0.39401484
-0.03341569 -0.066831313 -0.32935312
-0.03481742 -0.10445219 -0.25926661
-0.036341902 -0.14536756 -0.18304276
-0.038006105 -0.19003044 -0.099832468
-0.039829917 -0.2389795 -0.0086418167
-0.041837592 -0.29286313 0.091741942
-0.044058412 -0.35246727 0.20278275
-0.046528388 -0.41875541 0.32628158
-0.049291559 -0.49291554 0.46444011
-0.052402332 -0.57642573 0.61997896
-0.055932198 -0.67118633 0.79647219
-0.059971672 -0.77963179 0.99844599
-0.064640373 -0.90496522 1.2318808
0 0.88222277 1.150658
0 0.76140344 0.92833704
0 0.65650755 0.73531055
0 0.56458473 0.56615645
0 0.48336852 0.4167046
0 0.41109255 0.2837097
0 0.34635505 0.1645813
0 0.28803813 0.057277843
0 0.23523052 -0.039884105
0 0.18718486 -0.12828833
0 0.14328647 -0.20905785
0 0.10301961 -0.28314534
0 0.065951467 -0.35135126
0 0.031715915 -0.41434145
0 -0 -0.46563613
0 -0.031868413 -0.4067187
0 -0.066281721 -0.34309626
0 -0.10355742 -0.27418172
0 -0.14406852 -0.19928113
0 -0.1882547 -0.11759062
0 -0.23664019 -0.028136373
0 -0.28985327 0.070243143
0 -0.34865469 0.17895389
0 -0.41397485 0.29972222
0 -0.486958 0.43465275
0 -0.56903177 0.58637047
0 -0.66200215 0.75820458
0 -0.76820797 0.95450878
0 -0.89068437 1.1808785
0.062046111 0.86864567 1.102168
0.057730813 0.75050056 0.88640285
0.053976506 0.64771807 0.69868749
0.050680678 0.55748749 0.53389609
0.047764178 0.47764173 0.38807121
0.045165244 0.40648723 0.25812447
0.042834394 0.34267518 0.14158197
0.040732313 0.28512615 0.036477923
0.038827263 0.23296355 -0.058774583
0.037092332 0.18546167 -0.14552103
0.035505921 0.14202365 -0.22484165
0.034049641 0.10214893 -0.29765567
0.032708112 0.065416247 -0.36473197
0.031468213 0.031468242 -0.42672724
0.030458026 2.9802322e-08 -0.47723639
0.031618293 -0.031618312 -0.41922313
0.032870457 -0.065740973 -0.35661492
0.034225982 -0.10267792 -0.28883868
0.035698012 -0.14279206 -0.2152371
0.037302356 -0.1865118 -0.13501984
0.039057694 -0.23434617 -0.047253147
0.040986389 -0.28690469 0.049181707
0.043115605 -0.34492478 0.15564252
0.045478001 -0.409302 0.27376252
0.048114292 -0.48114291 0.40557671
0.05107503 -0.56182539 0.55361384
0.054422397 -0.65306878 0.72098207
0.058239296 -0.75711089 0.91182721
0.062632285 -0.87685186 1.1314764
0.12221141 0.85547984 1.0551474
0.11383161 0.73990548 0.84565258
0.1065268 0.63916087 0.66303229
0.10010298 0.55056649 0.50243688
0.094409846 0.4720493 0.36010855
0.089329749 0.4019838 0.23310602
0.084768154 0.33907253 0.11906627
0.080649808 0.28227431 0.01610741
0.07691332 0.23073994 -0.077304773
0.073508151 0.18377039 -0.16243391
0.070391513 0.14078304 -0.24034974
0.067528598 0.10129289 -0.31192279
0.064889446 0.064889371 -0.37790149
0.062448677 0.031224295 -0.4389208
0.060459003 -2.9802322e-08 -0.4886626
0.062744193 -0.03137213 -0.43153286
0.065208919 -0.065208882 -0.36991498
0.067875378 -0.10181305 -0.30325341
0.070768997 -0.14153802 -0.23091266
0.073920332 -0.18480079 -0.15212947
0.077365406 -0.2320962 -0.066002712
0.081147544 -0.28401643 0.028550953
0.0853182 -0.3412728 0.13281736
0.089940801 -0.4047336 0.2483823
0.09509299 -0.47546482 0.37718713
0.10087134 -0.55479234 0.52164578
0.10739554 -0.64437318 0.68475068
0.11482047 -0.74633306 0.87037402
0.12334893 -0.86344254 1.0835855
0.18058012 0.84270722 1.0095311
0.16836973 0.7296021 0.80602443
0.15770668 0.63082671 0.62830698
0.14831321 0.5438152 0.47174919
0.13997585 0.46658614 0.33279294
0.13252594 0.39757782 0.20862809
0.1258294 0.335545 0.097019047
0.11977669 0.27947891 -0.0038595647
0.11427955 0.22855906 -0.095478676
0.10926548 0.18210912 -0.17904645
0.1046729 0.13956389 -0.25558931
0.10045109 0.10045115 -0.32595289
0.096556634 0.064371109 -0.39086053
0.092952877 0.030984342 -0.45092303
0.090013154 4.4703484e-08 -0.49991861
0.093389116 -0.031129733 -0.44365245
0.097028434 -0.064685568 -0.38299713
0.10096262 -0.10096253 -0.31742734
0.10522934 -0.14030585 -0.24631537
0.10987259 -0.18312091 -0.16892789
0.11494453 -0.22988904 -0.084395528
0.12050778 -0.28118485 0.0083250999
0.12663649 -0.33769733 0.11047044
0.133422 -0.40026596 0.22356227
0.14097585 -0.46991953 0.34945974
0.14943695 -0.54793549 0.49047819
0.15897588 -0.6359036 0.64946032
0.16981333 -0.73585773 0.83008456
0.18223561 -0.85043269 1.0371224
0.23723157 0.83031052 0.96525687
0.22141173 0.7195881 0.76750892
0.20756905 0.62270713 0.59447539
0.1953554 0.53722739 0.44180501
0.18449922 0.46124801 0.30610257
0.1747867 0.39327002 0.18469605
0.16604508 0.33209005 0.075425804
0.1581362 0.27673841 -0.023435146
0.1509465 0.22641972 -0.11330645
0.14438252 0.18047822 -0.19535613
0.13836603 0.13836604 -0.27056241
0.13283089 0.099623069 -0.3397516
0.12772189 0.063860908 -0.40361413
0.12299134 0.030747801 -0.46274602
0.11913037 5.9604645e-08 -0.51100814
0.12356412 -0.030891046 -0.45558619
0.12834099 -0.06417051 -0.39587516
0.13350171 -0.10012636 -0.33136639
0.13909484 -0.13909484 -0.26145217
0.14517713 -0.18147133 -0.1854237
0.15181611 -0.22772413 -0.10243639
0.15909091 -0.27840912 -0.011501446
0.16709799 -0.33419597 0.088586897
0.17595376 -0.39589599 0.19928421
0.18580143 -0.46450359 0.32238021
0.19681598 -0.54124379 0.46006197
0.20921874 -0.6276561 0.61509645
0.22328287 -0.72566926 0.79089808
0.23937526 -0.83781332 0.99205279
0.29224041 0.81827307 0.92226636
0.27301505 0.70983911 0.73001277
0.25616413 0.6147939 0.56150365
0.2412715 0.53079736 0.41257736
0.22801536 0.45603067 0.28001586
0.21613999 0.38905209 0.16126235
0.20544104 0.32870573 0.054272786
0.19575074 0.27405107 -0.04263036
0.1869334 0.22432002 -0.13080379
0.17887615 0.1788761 -0.21137625
0.17148523 0.13718823 -0.28528529
0.16468129 0.09880881 -0.35332486
0.15839705 0.063358858 -0.41616723
0.15257479 0.030515015 -0.47438979
0.14782028 5.9604645e-08 -0.52193499
0.15328032 -0.030656055 -0.46733445
0.1591588 -0.063663527 -0.40854973
0.16550612 -0.099303752 -0.34507644
0.17238078 -0.13790463 -0.27632996
0.17985128 -0.1798514 -0.201625
0.18799917 -0.22559908 -0.12014607
0.19691974 -0.27568769 -0.030940384
0.20672904 -0.3307665 0.067152545
0.21756683 -0.39162037 0.17553067
0.22960471 -0.45920932 0.29590935
0.24305175 -0.53471375 0.43037972
0.25817186 -0.61961234 0.58158082
0.27529317 -0.71576232 0.75279409
0.29484391 -0.82556307 0.94830149
0.37146103 0.92865264 1.0953709
0.34567705 0.80657971 0.88050443
0.32324022 0.70035374 0.69353068
0.30353966 0.60707921 0.5293594
0.28610146 0.52451938 0.38404113
0.27055803 0.45092997 0.25451249
0.2566165 0.38492477 0.13833308
0.2440421 0.32538944 0.033546478
0.23264176 0.27141541 -0.061456539
0.22225899 0.22225904 -0.14797945
0.21276338 0.17730284 -0.22710946
0.20404647 0.136031 -0.29975057
0.19601518 0.098007634 -0.36667776
0.18859358 0.062864572 -0.42852437
0.18171349 0.030285612 -0.48585856
0.17609221 -1.1920929e-07 -0.53270268
0.18254742 -0.030424535 -0.47890913
0.18949345 -0.063164487 -0.42102572
0.19698897 -0.098494388 -0.35856301
0.20510189 -0.13673459 -0.29095528
0.21391238 -0.1782603 -0.21753438
0.22351313 -0.22351317 -0.13752832
0.23401618 -0.27301884 -0.050003029
0.24555498 -0.32740667 0.046153694
0.25829157 -0.3874374 0.15229207
0.27242073 -0.45403445 0.27003512
0.28818515 -0.52833939 0.40140516
0.30588615 -0.6117723 0.54891336
0.32590249 -0.7061221 0.7157163
0.34871224 -0.81366181 0.90579754
0.42681697 0.9146077 1.0485547
0.39760798 0.79521596 0.83991945
0.37214077 0.69111848 0.6580106
0.34974095 0.59955597 0.49801207
0.32988337 0.51838815 0.35617208
0.3121596 0.44594228 0.22957364
0.29624322 0.38088411 0.1158853
0.28187209 0.3221395 0.013234317
0.26882994 0.26882988 -0.079923868
0.25694135 0.22023545 -0.16484243
0.24605972 0.17575692 -0.24256825
0.23606294 0.13489312 -0.31397367
0.22684619 0.097219795 -0.37980777
0.21832263 0.06237787 -0.44069034
0.21041742 0.030059561 -0.49715626
0.20395572 -0 -0.54331124
0.21137583 -0.030196503 -0.49031034
0.21935622 -0.062673226 -0.43330759
0.22796287 -0.097698361 -0.37183166
0.23727246 -0.13558428 -0.30533463
0.24737549 -0.17669679 -0.23317008
0.25837639 -0.22146553 -0.15459211
0.27040127 -0.27040136 -0.068700008
0.28360006 -0.32411441 0.025577113
0.29815453 -0.38334152 0.12953737
0.31428254 -0.448975 0.24473751
0.33225515 -0.52211535 0.37311333
0.35240799 -0.60412782 0.51706225
0.37516505 -0.69673502 0.67961264
0.40105134 -0.80210257 0.86451471
0.43077263 -0.92308408 1.0768094
0.48052341 0.90098125 1.0031335
0.44809598 0.78416795 0.80046189
0.41976845 0.68212378 0.62341517
0.39481115 0.59221679 0.46743199
0.37265357 0.51239872 0.32894722
0.35285091 0.44106364 0.20518042
0.33504665 0.37692747 0.093903854
0.31895384 0.31895384 -0.0066762269
0.30433521 0.26629326 -0.098042741
0.29099783 0.21824837 -0.18140121
0.27878046 0.17423768 -0.25776002
0.26754826 0.13377416 -0.32796091
0.25718549 0.096444502 -0.39272827
0.24759555 0.061898842 -0.45266548
0.2386962 0.029837072 -0.50828648
0.23141871 -2.9802322e-08 -0.55377078
0.23977531 -0.029971823 -0.50154185
0.24875808 -0.06218949 -0.44539988
0.2584407 -0.0969152 -0.38488325
0.26890695 -0.13445351 -0.3194693
0.28025666 -0.17516044 -0.24853359
0.29260668 -0.21945496 -0.17134599
0.3060953 -0.26783335 -0.087041907
0.3208887 -0.3208887 0.0054166317
0.33718345 -0.37933141 0.10725881
0.35522163 -0.44402707 0.2199975
0.37529886 -0.51603591 0.3454802
0.39778161 -0.59667248 0.48599753
0.4231315 -0.68758863 0.64443409
0.45192218 -0.79086375 0.82437587
0.48491219 -0.90921038 1.0305635
0.53265309 0.8877551 0.95904595
0.49720028 0.77342272 0.76208597
0.46617237 0.67336011 0.58970863
0.43878958 0.58505285 0.43758217
0.41444671 0.50654602 0.30234402
0.39266151 0.4362905 0.18131512
0.37305221 0.37305221 0.072374418
0.35530826 0.31582958 -0.026202992
0.33917665 0.26380405 -0.11582292
0.32444534 0.21629685 -0.19766366
0.31094036 0.1727446 -0.27269128
0.29851556 0.13267362 -0.34171808
0.28704479 0.095681608 -0.40544444
0.27642298 0.061427355 -0.46445441
0.26655921 0.029617682 -0.51925313
0.25849018 -0 -0.56408119
0.26775542 -0.0297506 -0.51260763
0.27770957 -0.061713248 -0.4573068
0.28843313 -0.096144393 -0.39773148
0.30001736 -0.13334104 -0.33337486
0.31257099 -0.17365059 -0.26363221
0.32622108 -0.21748072 -0.18779837
0.34111881 -0.26531464 -0.10503314
0.35744128 -0.31772566 -0.014352843
0.37540427 -0.37540418 0.085441634
0.39526823 -0.43918684 0.19579694
0.41735178 -0.51009667 0.31848329
0.4420507 -0.58940089 0.45569941
0.46985489 -0.67867929 0.61016726
0.50138932 -0.77993894 0.78535873
0.53744847 -0.89574736 0.98568702
0.58327436 0.87491149 0.91623402
0.54497701 0.76296771 0.72474742
0.51139903 0.66481876 0.55685723
0.48172036 0.5780645 0.40846437
0.45529592 0.50082552 0.27634189
0.4316197 0.43161964 0.15796083
0.41028416 0.36925575 0.051283181
0.3909598 0.3127678 -0.045338705
0.37337276 0.261361 -0.13327369
0.35729992 0.21437992 -0.21363807
0.34255376 0.17127687 -0.28736886
0.32897741 0.13159093 -0.35525069
0.31643537 0.094930604 -0.41796082
0.30481452 0.060962871 -0.47606516
0.29401699 0.029401645 -0.53005296
0.28517842 5.9604645e-08 -0.57424575
0.29532531 -0.029532522 -0.52351105
0.30622172 -0.061244428 -0.46902913
0.31795216 -0.095385641 -0.4103767
0.33061716 -0.13224691 -0.34705198
0.34433296 -0.17216651 -0.2784729
0.35923603 -0.21554162 -0.20395748
0.37548861 -0.26284212 -0.12269466
0.39328027 -0.31462425 -0.033736408
0.41284183 -0.37155765 0.064071298
0.43445119 -0.43445116 0.17211817
0.45844933 -0.50429434 0.29210907
0.4852519 -0.58230215 0.42612168
0.51538295 -0.66999781 0.57677716
0.54950368 -0.76930511 0.74738044
0.58844882 -0.8826732 0.94210631
0.63245183 0.86243427 0.87464327
0.59147942 0.752792 0.68840504
0.55549264 0.6564911 0.52482867
0.52363378 0.57123685 0.38001573
0.49523279 0.49523276 0.25092041
0.46975258 0.42704785 0.13510127
0.44676602 0.36553586 0.03061682
0.42592415 0.30976295 -0.064118877
0.40694135 0.25896275 -0.15040429
0.38957733 0.2124967 -0.22933169
0.37363452 0.16983387 -0.301799
0.35894525 0.13052554 -0.36856836
0.34536818 0.094191283 -0.43028244
0.34200016 0.062181875 -0.4455916
0.34200436 0.031091258 -0.44557238
0.34200776 -2.9802322e-08 -0.445557
0.34200352 -0.031091198 -0.44557622
0.34200016 -0.062181801 -0.44559151
0.34700897 -0.094638839 -0.42282426
0.36071888 -0.13117045 -0.36050653
0.37555665 -0.17070764 -0.29306197
0.39166856 -0.21363734 -0.21982597
0.40922371 -0.26041508 -0.14003006
0.42842638 -0.31158283 -0.052745163
0.44951993 -0.36778897 0.043134645
0.47279811 -0.42981645 0.14894453
0.49862066 -0.49862063 0.2663199
0.52742487 -0.57537246 0.397248
0.55976099 -0.66153568 0.54423034
0.59632111 -0.75895405 0.71041262
0.63798475 -0.86997926 0.89979291
0.68024629 0.85030788 0.83422196
0.63675761 0.7428838 0.65301901
0.5984953 0.64837003 0.4935928
0.56457072 0.56457067 0.35224015
0.53428757 0.4897635 0.22606035
0.50708604 0.42257178 0.11272091
0.48252013 0.36189014 0.010362908
0.46022442 0.30681622 -0.082535878
0.43989944 0.25660807 -0.16722342
0.43126884 0.21563442 -0.20318414
0.43127501 0.17969787 -0.20315851
0.69919145 0.23306382 0.91315991
0.69919145 0.17479783 0.91315991
0.69919145 0.11653173 0.91315973
0.69919145 0.058265924 0.91315997
0.69919145 -5.9604645e-08 0.91315979
0.69919145 -0.058265954 0.91316003
0.69919145 -0.116532 0.91315985
0.69919145 -0.17479795 0.91315985
0.43129101 -0.14376374 -0.20309193
0.43127379 -0.17969735 -0.20316362
0.43126762 -0.21563375 -0.20318928
0.44234151 -0.25803259 -0.15704817
0.46289948 -0.30859965 -0.071389854
0.48546144 -0.36409608 0.022618324
0.51033729 -0.42528105 0.12626749
0.53789818 -0.4930732 0.24110466
0.5686059 -0.56860596 0.36905336
0.60303199 -0.65328461 0.51249546
0.64189535 -0.74887788 0.6744262
0.6861161 -0.85764503 0.85867941
0.72671545 0.83851779 0.79492158
0.68085951 0.73323327 0.61855245
0.64044708 0.64044702 0.46312034
0.60456324 0.55805832 0.32510549
0.57248914 0.48441395 0.20174359
0.55352098 0.4257853 0.1287891
0.55353403 0.38321584 0.12883952
0.75221997 0.46290463 0.89301598
0.75221997 0.40504158 0.89301604
0.75221997 0.34717852 0.89301604
0.75221997 0.28931537 0.89301616
0.75221997 0.23145238 0.89301622
0.75221997 0.17358926 0.89301598
0.75221997 0.11572623 0.89301604
0.75221997 0.057863086 0.89301616
0.75221997 5.9604645e-08 0.89301616
0.75221997 -0.057862967 0.89301622
0.75221997 -0.1157262 0.8930161
0.75221997 -0.17358929 0.89301616
0.75221997 -0.23145235 0.89301622
0.75221997 -0.28931519 0.89301604
0.75221997 -0.34717834 0.89301598
0.75221997 -0.4050414 0.89301598
0.75221997 -0.46290445 0.89301598
0.55352843 -0.38321203 0.12881792
0.55351913 -0.42578393 0.12878193
0.57631129 -0.48764807 0.21644416
0.6088295 -0.56199652 0.34151438
0.64523685 -0.64523679 0.48154253
0.68627822 -0.73906875 0.63939387
0.73289198 -0.84564447 0.81867743
0.77191353 0.82705027 0.75669628
0.73117614 0.73117632 0.61120588
0.73125499 0.67902267 0.61148721
0.80451655 0.68958563 0.87313563
0.80451655 0.63212019 0.87313581
0.80451655 0.5746547 0.87313581
0.80451655 0.51718915 0.87313575
0.80451655 0.45972374 0.87313569
0.80451655 0.40225834 0.87313581
0.80451655 0.34479284 0.87313575
0.80451655 0.28732741 0.87313569
0.80451655 0.2298618 0.87313575
0.80451655 0.17239648 0.87313586
0.80451655 0.11493105 0.87313569
0.80451655 0.057465464 0.87313581
0.80451655 1.7881393e-07 0.87313592
0.80451655 -0.057465374 0.87313581
0.80451655 -0.1149309 0.87313581
0.80451655 -0.1723963 0.87313569
0.80452025 -0.2298629 0.87314892
0.80452025 -0.28732866 0.87314874
0.80452025 -0.3447943 0.8731488
0.80452025 -0.40226024 0.8731488
0.80452025 -0.45972586 0.87314886
0.80452025 -0.51719159 0.87314886
0.80452025 -0.57465726 0.8731488
0.80452025 -0.63212311 0.87314892
0.80452025 -0.68958884 0.87314892
0.73124284 -0.67901123 0.61144388
0.73117614 -0.73117608 0.6112057
0.77837688 -0.83397502 0.77977961
