# .PCD v0.7 - Point Cloud Data file format
VERSION 0.7
FIELDS x y z
SIZE 4 4 4
TYPE F F F
COUNT 1 1 1
WIDTH 1404
HEIGHT 1
VIEWPOINT 0 0 0 1 0 0 0
POINTS 1404
DATA ascii
-0.84748459 -0.44392052 0.017682761
-0.84748459 -0.48427689 0.017682806
-0.84748459 -0.52463329 0.017682776
-0.84748459 -0.56498981 0.017682821
-0.84748459 -0.60534608 0.017682821
-0.84748459 -0.64570254 0.017682731
-0.84748459 -0.686059 0.017682791
-0.84748459 -0.7264154 0.01768285
-0.80999434 0.72899485 0.024848044
-0.80999434 0.68849516 0.024847984
-0.80999434 0.64799541 0.024848014
-0.80999434 0.60749567 0.024847895
-0.80999434 0.56699598 0.024848014
-0.80999434 0.52649641 0.024848059
-0.80999434 0.48599654 0.024847999
-0.80999434 0.4454968 0.024848014
-0.80999434 0.4049972 0.024848089
-0.80999434 0.36449742 0.024847969
-0.80999434 0.32399774 0.02484794
-0.80999434 0.28349802 0.024848089
-0.80999434 0.24299824 0.024847977
-0.80999434 0.20249856 0.024847955
-0.80999434 0.16199893 0.024848022
-0.80999434 0.12149924 0.024848007
-0.80999434 0.080999382 0.024847971
-0.80999434 0.040499765 0.024848036
-0.80999434 6.9849193e-08 0.024848014
-0.80999434 -0.040499702 0.024847902
-0.80999434 -0.080999404 0.024848046
-0.80999434 -0.1214992 0.024848104
-0.80999434 -0.16199896 0.024847992
-0.80999434 -0.20249857 0.024848059
-0.80999434 -0.24299827 0.024848044
-0.80999434 -0.28349796 0.024848014
-0.80999434 -0.32399774 0.024848074
-0.80999434 -0.36449742 0.024848044
-0.80999434 -0.40499714 0.024848014
-0.80999434 -0.44549683 0.024847999
-0.80999434 -0.48599651 0.024847999
-0.80999434 -0.52649629 0.024848044
-0.80999434 -0.56699598 0.024848014
-0.80999434 -0.60749567 0.024847984
-0.80999434 -0.64799535 0.024847984
-0.80999434 -0.68849498 0.024848044
-0.80999434 -0.72899485 0.024848014
-0.77223426 0.73159039 0.032057703
-0.77223426 0.69094634 0.032057673
-0.77223426 0.65030253 0.032057643
-0.77223426 0.6096586 0.032057643
-0.77223426 0.56901467 0.032057703
-0.77223426 0.5283708 0.032057703
-0.77223426 0.48772687 0.032057703
-0.77223426 0.447083 0.032057732
-0.77223426 0.40643904 0.032057643
-0.77223426 0.36579514 0.032057658
-0.77223426 0.32515126 0.032057658
-0.77223426 0.28450727 0.032057747
-0.77223426 0.24386346 0.03205768
-0.77223426 0.20321959 0.032057695
-0.77223426 0.1625756 0.032057784
-0.77223426 0.1219318 0.032057714
-0.77223426 0.081287824 0.032057799
-0.77223426 0.040643934 0.032057811
-0.77223426 5.4016709e-08 0.03205765
-0.77223426 -0.04064393 0.032057736
-0.77223426 -0.081287816 0.032057747
-0.77223426 -0.12193171 0.032057755
-0.77223426 -0.1625756 0.032057762
-0.77223426 -0.20321956 0.03205768
-0.77223426 -0.24386345 0.032057688
-0.77223426 -0.28450733 0.032057703
-0.77223426 -0.32515123 0.032057703
-0.77223426 -0.36579514 0.032057717
-0.77223426 -0.4064391 0.032057628
-0.77223426 -0.44708306 0.032057717
-0.77223426 -0.48772687 0.032057643
-0.77223426 -0.52837074 0.032057658
-0.77223426 -0.56901473 0.032057732
-0.77223426 -0.60965854 0.032057673
-0.77223426 -0.65030253 0.032057762
-0.77223426 -0.6909464 0.032057762
-0.77223426 -0.73159027 0.032057762
-0.7342068 0.7342068 0.039325595
-0.7342068 0.69341755 0.039325535
-0.7342068 0.6526283 0.039325625
-0.7342068 0.61183894 0.039325535
-0.7342068 0.57104963 0.039325476
-0.7342068 0.53026044 0.03932552
-0.7342068 0.48947111 0.039325565
-0.7342068 0.44868195 0.039325565
-0.7342068 0.40789264 0.039325565
-0.7342068 0.3671034 0.039325505
-0.7342068 0.32631403 0.039325535
-0.7342068 0.28552493 0.039325513
-0.7342068 0.24473558 0.039325535
-0.7342068 0.20394629 0.039325662
-0.7342068 0.16315714 0.039325535
-0.7342068 0.12236777 0.039325573
-0.7342068 0.081578508 0.039325524
-0.7342068 0.040789321 0.039325569
-0.7342068 -3.1664968e-08 0.039325602
-0.7342068 -0.040789295 0.039325554
-0.7342068 -0.081578478 0.039325595
-0.7342068 -0.12236783 0.039325457
-0.7342068 -0.16315711 0.03932558
-0.7342068 -0.20394628 0.039325461
-0.7342068 -0.24473555 0.039325587
-0.7342068 -0.2855249 0.03932561
-0.7342068 -0.32631406 0.039325491
-0.7342068 -0.36710343 0.03932552
-0.7342068 -0.40789264 0.039325565
-0.7342068 -0.44868189 0.03932552
-0.7342068 -0.48947117 0.03932564
-0.7342068 -0.53026044 0.039325595
-0.7342068 -0.57104969 0.039325535
-0.7342068 -0.61183894 0.039325505
-0.7342068 -0.6526283 0.039325535
-0.7342068 -0.69341749 0.039325565
-0.7342068 -0.73420668 0.039325476
-0.69590402 0.73683953 0.046638876
-0.69590402 0.69590414 0.046638966
-0.69590402 0.65496862 0.046638995
-0.69590402 0.61403298 0.046638966
-0.69590402 0.57309735 0.046638787
-0.69590402 0.53216183 0.046638817
-0.69590402 0.49122643 0.046638891
-0.69590402 0.45029083 0.046638846
-0.69590402 0.40935534 0.046638846
-0.69590402 0.36841977 0.046638936
-0.69590402 0.32748425 0.046638936
-0.69590402 0.28654879 0.046638943
-0.69590402 0.24561319 0.046639025
-0.69590402 0.20467763 0.046638943
-0.69590402 0.16374213 0.04663894
-0.69590402 0.12280657 0.046638854
-0.69590402 0.081870988 0.046638936
-0.69590402 0.040935587 0.046638865
-0.69590402 9.6857548e-08 0.046638869
-0.69590402 -0.040935565 0.046638858
-0.69590402 -0.081871055 0.046638865
-0.69590402 -0.12280654 0.046638872
-0.69590402 -0.16374213 0.046638954
-0.69590402 -0.20467761 0.046638958
-0.69590402 -0.24561319 0.046638876
-0.69590402 -0.28654867 0.046638876
-0.69590402 -0.32748434 0.046638876
-0.69590402 -0.36841983 0.046638876
-0.69590402 -0.40935534 0.046638876
-0.69590402 -0.45029092 0.046638966
-0.69590402 -0.49122646 0.046638891
-0.69590402 -0.53216195 0.046638876
-0.69590402 -0.57309747 0.046638876
-0.69590402 -0.61403292 0.046638906
-0.69590402 -0.65496844 0.046638876
-0.69590402 -0.69590402 0.046638995
-0.69590402 -0.73683965 0.046638966
-0.65732777 0.73949373 0.054011494
-0.65732777 0.69841075 0.054011643
-0.65732777 0.65732789 0.054011613
-0.65732777 0.61624479 0.054011613
-0.65732777 0.57516181 0.054011643
-0.65732777 0.53407878 0.054011568
-0.65732777 0.4929958 0.054011598
-0.65732777 0.45191279 0.054011539
-0.65732777 0.41082987 0.054011658
-0.65732777 0.3697468 0.054011613
-0.65732777 0.32866392 0.054011598
-0.65732777 0.28758085 0.054011554
-0.65732777 0.24649787 0.054011598
-0.65732777 0.20541498 0.054011568
-0.65732777 0.16433191 0.05401152
-0.65732777 0.12324901 0.054011658
-0.65732777 0.082165949 0.054011609
-0.65732777 0.041083056 0.05401158
-0.65732777 -9.6857548e-08 0.054011617
-0.65732777 -0.041082993 0.054011583
-0.65732777 -0.082165979 0.054011632
-0.65732777 -0.12324895 0.054011509
-0.65732777 -0.16433194 0.054011561
-0.65732777 -0.20541492 0.054011606
-0.65732777 -0.24649781 0.054011576
-0.65732777 -0.28758097 0.054011613
-0.65732777 -0.32866389 0.054011583
-0.65732777 -0.36974686 0.054011628
-0.65732777 -0.4108299 0.054011583
-0.65732777 -0.45191279 0.054011554
-0.65732777 -0.4929958 0.054011613
-0.65732777 -0.53407878 0.054011658
-0.65732777 -0.57516181 0.054011613
-0.65732777 -0.61624479 0.054011464
-0.65732777 -0.65732771 0.054011643
-0.65732777 -0.69841075 0.054011583
-0.65732777 -0.73949373 0.054011613
-0.61847258 0.74216717 0.061437666
-0.61847258 0.7009356 0.061437577
-0.61847258 0.65970421 0.061437666
-0.61847258 0.61847258 0.061437637
-0.61847258 0.57724106 0.061437547
-0.61847258 0.53600955 0.061437547
-0.61847258 0.49477798 0.061437503
-0.61847258 0.45354652 0.061437473
-0.61847258 0.41231504 0.061437666
-0.61847258 0.3710835 0.061437592
-0.61847258 0.32985198 0.061437607
-0.61847258 0.2886205 0.061437614
-0.61847258 0.24738911 0.061437562
-0.61847258 0.20615754 0.06143748
-0.61847258 0.16492613 0.061437592
-0.61847258 0.12369447 0.061437596
-0.61847258 0.082462981 0.061437607
-0.61847258 0.041231498 0.061437622
-0.61847258 1.1175871e-08 0.061437637
-0.61847258 -0.041231558 0.061437562
-0.61847258 -0.082463041 0.061437573
-0.61847258 -0.12369452 0.061437588
-0.61847258 -0.16492593 0.061437529
-0.61847258 -0.20615758 0.061437532
-0.61847258 -0.24738899 0.061437637
-0.61847258 -0.28862056 0.061437562
-0.61847258 -0.32985204 0.061437577
-0.61847258 -0.37108353 0.061437592
-0.61847258 -0.41231501 0.061437607
-0.61847258 -0.45354658 0.061437532
-0.61847258 -0.4947781 0.061437726
-0.61847258 -0.53600955 0.061437547
-0.61847258 -0.57724106 0.061437577
-0.61847258 -0.61847252 0.061437607
-0.61847258 -0.65970403 0.061437607
-0.61847258 -0.7009356 0.061437517
-0.61847258 -0.74216712 0.061437547
-0.57933354 0.74485743 0.068910718
-0.57933354 0.70347649 0.068910778
-0.57933354 0.66209543 0.068910718
-0.57933354 0.62071455 0.068910688
-0.57933354 0.57933354 0.068910599
-0.57933354 0.53795254 0.068910643
-0.57933354 0.4965716 0.068910688
-0.57933354 0.4551906 0.068910778
-0.57933354 0.41380978 0.068910688
-0.57933354 0.37242875 0.068910614
-0.57933354 0.33104771 0.068910673
-0.57933354 0.28966674 0.068910584
-0.57933354 0.2482858 0.068910755
-0.57933354 0.20690481 0.068910666
-0.57933354 0.1655238 0.068910733
-0.57933354 0.12414297 0.068910658
-0.57933354 0.082761876 0.068910643
-0.57933354 0.041381035 0.068910733
-0.57933354 3.7252903e-08 0.068910643
-0.57933354 -0.041380972 0.068910718
-0.57933354 -0.082761966 0.068910636
-0.57933354 -0.12414297 0.068910703
-0.57933354 -0.16552381 0.068910629
-0.57933354 -0.20690483 0.068910696
-0.57933354 -0.24828574 0.068910711
-0.57933354 -0.28966683 0.068910696
-0.57933354 -0.33104774 0.068910688
-0.57933354 -0.37242869 0.068910688
-0.57933354 -0.4138096 0.068910688
-0.57933354 -0.4551906 0.068910584
-0.57933354 -0.4965716 0.068910673
-0.57933354 -0.5379526 0.068910584
-0.57933354 -0.57933354 0.068910763
-0.57933354 -0.62071455 0.068910658
-0.57933354 -0.66209555 0.068910718
-0.57933354 -0.70347643 0.068910658
-0.57933354 -0.74485749 0.068910629
-0.53991151 0.74756968 0.076444834
-0.53991151 0.70603818 0.076445043
-0.53991151 0.66450638 0.076444864
-0.53991151 0.62297487 0.076445073
-0.53991151 0.58144319 0.076444954
-0.53991151 0.53991151 0.076444954
-0.53991151 0.49837995 0.076445028
-0.53991151 0.45684823 0.076444909
-0.53991151 0.41531652 0.076444954
-0.53991151 0.3737849 0.076444924
-0.53991151 0.33225328 0.076445073
-0.53991151 0.29072157 0.076444961
-0.53991151 0.24918985 0.076445013
-0.53991151 0.20765823 0.076444976
-0.53991151 0.16612661 0.076444954
-0.53991151 0.12459499 0.076444924
-0.53991151 0.083063282 0.076444983
-0.53991151 0.041531656 0.076444954
-0.53991151 3.7252903e-08 0.076444924
-0.53991151 -0.041531511 0.076444991
-0.53991151 -0.083063386 0.076445028
-0.53991151 -0.12459502 0.076445006
-0.53991151 -0.16612662 0.076444983
-0.53991151 -0.20765825 0.076444961
-0.53991151 -0.24918997 0.076445013
-0.53991151 -0.2907216 0.076444983
-0.53991151 -0.33225322 0.076444961
-0.53991151 -0.37378484 0.076444924
-0.53991151 -0.41531652 0.076444983
-0.53991151 -0.45684814 0.076444954
-0.53991151 -0.49837977 0.076444924
-0.53991151 -0.53991151 0.076444969
-0.53991151 -0.58144319 0.076445043
-0.53991151 -0.62297481 0.076445013
-0.53991151 -0.66450644 0.076444983
-0.53991151 -0.706038 0.076444894
-0.50020128 0.75030184 0.084034204
-0.50020128 0.70861852 0.084034353
-0.50020128 0.66693509 0.084034353
-0.50020128 0.62525165 0.084034443
-0.50020128 0.58356816 0.084034324
-0.50020128 0.54188478 0.084034413
-0.50020128 0.50020123 0.084034294
-0.50020128 0.45851788 0.084034353
-0.50020128 0.41683447 0.084034294
-0.50020128 0.37515095 0.084034324
-0.50020128 0.33346754 0.084034279
-0.50020128 0.29178411 0.084034406
-0.50020128 0.25010067 0.084034353
-0.50020128 0.20841724 0.084034309
-0.50020128 0.1667338 0.084034435
-0.50020128 0.12505038 0.084034383
-0.50020128 0.083366796 0.084034324
-0.50020128 0.041683376 0.084034279
-0.50020128 2.9802322e-08 0.084034324
-0.50020128 -0.04168348 0.084034353
-0.50020128 -0.083366901 0.084034309
-0.50020128 -0.12505025 0.084034353
-0.50020128 -0.16673376 0.084034376
-0.50020128 -0.20841718 0.084034324
-0.50020128 -0.25010067 0.084034361
-0.50020128 -0.29178402 0.084034413
-0.50020128 -0.33346745 0.084034353
-0.50020128 -0.37515098 0.084034398
-0.50020128 -0.41683438 0.084034339
-0.50020128 -0.45851791 0.084034383
-0.50020128 -0.50020134 0.084034309
-0.50020128 -0.54188478 0.084034279
-0.50020128 -0.58356822 0.084034413
-0.50020128 -0.62525159 0.084034353
-0.50020128 -0.66693509 0.084034383
-0.50020128 -0.70861852 0.084034353
-0.46019822 0.71121538 0.091672421
-0.46019822 0.66937929 0.09167248
-0.46019822 0.62754297 0.091672421
-0.46019822 0.58570677 0.091672421
-0.46019822 0.54387069 0.091672465
-0.46019822 0.50203454 0.091672525
-0.46019822 0.46019822 0.091672495
-0.46019822 0.41836196 0.09167254
-0.46019822 0.37652582 0.091672465
-0.46019822 0.33468956 0.09167251
-0.46019822 0.29285342 0.091672458
-0.46019822 0.25101715 0.091672473
-0.46019822 0.2091811 0.091672517
-0.46019822 0.16734478 0.09167245
-0.46019822 0.12550864 0.091672398
-0.46019822 0.083672464 0.091672517
-0.46019822 0.041836236 0.091672376
-0.46019822 6.7055225e-08 0.091672488
-0.46019822 -0.041836172 0.09167251
-0.46019822 -0.083672404 0.091672368
-0.46019822 -0.12550867 0.09167257
-0.46019822 -0.16734481 0.09167251
-0.46019822 -0.20918113 0.091672435
-0.46019822 -0.25101721 0.09167248
-0.46019822 -0.29285344 0.091672502
-0.46019822 -0.33468968 0.091672361
-0.46019822 -0.37652585 0.091672495
-0.46019822 -0.41836199 0.091672421
-0.46019822 -0.46019822 0.091672465
-0.46019822 -0.50203437 0.091672391
-0.46019822 -0.54387063 0.091672421
-0.46019822 -0.58570689 0.091672435
-0.46019822 -0.62754303 0.091672421
-0.46019822 -0.66937923 0.091672421
-0.46019822 -0.71121532 0.09167245
-0.41990229 0.71383399 0.099373937
-0.41990229 0.67184365 0.099373817
-0.41990229 0.62985343 0.099373728
-0.41990229 0.58786321 0.099373698
-0.41990229 0.54587299 0.099373847
-0.41990229 0.50388288 0.099373758
-0.41990229 0.46189249 0.099373728
-0.41990229 0.41990232 0.099373832
-0.41990229 0.37791201 0.099373758
-0.41990229 0.33592185 0.099373676
-0.41990229 0.2939316 0.099373698
-0.41990229 0.25194138 0.099373706
-0.41990229 0.20995113 0.099373728
-0.41990229 0.16796091 0.099373728
-0.41990229 0.12597074 0.099373832
-0.41990229 0.083980419 0.09937375
-0.41990229 0.041990347 0.099373773
-0.41990229 2.9802322e-08 0.099373698
-0.41990229 -0.041990135 0.099373803
-0.41990229 -0.083980449 0.099373721
-0.41990229 -0.12597069 0.099373735
-0.41990229 -0.16796094 0.099373743
-0.41990229 -0.20995116 0.099373758
-0.41990229 -0.25194141 0.099373765
-0.41990229 -0.29393166 0.099373773
-0.41990229 -0.33592188 0.099373795
-0.41990229 -0.37791204 0.099373728
-0.41990229 -0.41990227 0.099373743
-0.41990229 -0.46189255 0.099373758
-0.41990229 -0.50388265 0.099373847
-0.41990229 -0.54587299 0.099373773
-0.41990229 -0.58786321 0.099373788
-0.41990229 -0.62985349 0.099373788
-0.41990229 -0.67184371 0.099373817
-0.41990229 -0.71383399 0.099373817
-0.37930727 0.71646935 0.10712492
-0.37930727 0.67432392 0.10712478
-0.37930727 0.63217872 0.10712484
-0.37930727 0.59003353 0.10712488
-0.37930727 0.54788828 0.10712495
-0.37930727 0.50574303 0.10712503
-0.37930727 0.46359777 0.10712497
-0.37930727 0.42145246 0.10712495
-0.37930727 0.3793073 0.10712498
-0.37930727 0.33716208 0.1071249
-0.37930727 0.29501677 0.10712499
-0.37930727 0.25287154 0.10712492
-0.37930727 0.2107262 0.10712492
-0.37930727 0.16858104 0.10712492
-0.37930727 0.12643579 0.10712501
-0.37930727 0.084290527 0.10712493
-0.37930727 0.042145193 0.10712494
-0.37930727 2.6077032e-08 0.10712495
-0.37930727 -0.042145312 0.10712495
-0.37930727 -0.084290564 0.10712487
-0.37930727 -0.12643582 0.10712496
-0.37930727 -0.16858099 0.10712498
-0.37930727 -0.21072632 0.10712498
-0.37930727 -0.25287157 0.1071249
-0.37930727 -0.29501674 0.10712492
-0.37930727 -0.3371619 0.10712494
-0.37930727 -0.37930733 0.10712485
-0.37930727 -0.42145246 0.10712485
-0.37930727 -0.46359777 0.10712495
-0.37930727 -0.50574291 0.10712497
-0.37930727 -0.54788834 0.10712487
-0.37930727 -0.59003353 0.10712488
-0.37930727 -0.63217878 0.10712498
-0.37930727 -0.67432404 0.10712489
-0.37930727 -0.71646929 0.10712484
-0.33841255 0.71912652 0.11494049
-0.33841255 0.67682505 0.11494061
-0.33841255 0.63452351 0.1149407
-0.33841255 0.59222198 0.11494073
-0.33841255 0.54992032 0.11494054
-0.33841255 0.50761878 0.11494066
-0.33841255 0.46531731 0.11494061
-0.33841255 0.42301565 0.11494067
-0.33841255 0.38071406 0.11494058
-0.33841255 0.33841243 0.11494067
-0.33841255 0.2961109 0.11494066
-0.33841255 0.25380945 0.11494058
-0.33841255 0.21150784 0.11494066
-0.33841255 0.16920631 0.11494064
-0.33841255 0.12690461 0.11494063
-0.33841255 0.084603243 0.11494064
-0.33841255 0.042301539 0.11494061
-0.33841255 7.4505806e-09 0.11494061
-0.33841255 -0.042301614 0.11494067
-0.33841255 -0.084603146 0.11494067
-0.33841255 -0.12690468 0.11494067
-0.33841255 -0.16920629 0.11494058
-0.33841255 -0.21150775 0.11494065
-0.33841255 -0.25380945 0.11494064
-0.33841255 -0.2961109 0.11494072
-0.33841255 -0.33841252 0.11494063
-0.33841255 -0.38071412 0.11494052
-0.33841255 -0.42301565 0.11494067
-0.33841255 -0.46531731 0.1149406
-0.33841255 -0.50761884 0.11494075
-0.33841255 -0.54992038 0.1149406
-0.33841255 -0.59222192 0.11494075
-0.33841255 -0.63452351 0.11494066
-0.33841255 -0.67682505 0.11494049
-0.33841255 -0.71912658 0.11494064
-0.29721332 0.72180378 0.1228146
-0.29721332 0.67934465 0.12281445
-0.29721332 0.63688558 0.12281445
-0.29721332 0.59442669 0.12281464
-0.29721332 0.55196762 0.12281457
-0.29721332 0.50950855 0.12281455
-0.29721332 0.46704942 0.12281451
-0.29721332 0.42459041 0.12281451
-0.29721332 0.38213134 0.12281454
-0.29721332 0.33967242 0.12281463
-0.29721332 0.29721326 0.12281459
-0.29721332 0.25475425 0.12281457
-0.29721332 0.21229516 0.12281463
-0.29721332 0.16983625 0.12281452
-0.29721332 0.12737709 0.12281449
-0.29721332 0.084918171 0.12281456
-0.29721332 0.042459097 0.12281445
-0.29721332 9.3132257e-08 0.12281459
-0.29721332 -0.042458981 0.12281448
-0.29721332 -0.084918067 0.12281454
-0.29721332 -0.12737706 0.12281451
-0.29721332 -0.16983615 0.12281457
-0.29721332 -0.21229522 0.12281445
-0.29721332 -0.25475425 0.1228146
-0.29721332 -0.29721332 0.1228145
-0.29721332 -0.3396723 0.12281463
-0.29721332 -0.3821314 0.12281453
-0.29721332 -0.42459038 0.12281451
-0.29721332 -0.46704948 0.12281458
-0.29721332 -0.50950849 0.12281452
-0.29721332 -0.55196762 0.12281451
-0.29721332 -0.59442651 0.12281458
-0.29721332 -0.6368857 0.12281454
-0.29721332 -0.67934465 0.12281445
-0.29721332 -0.72180378 0.12281457
-0.25570533 0.72449851 0.13074014
-0.25570533 0.68188083 0.13074005
-0.25570533 0.63926339 0.13074014
-0.25570533 0.59664571 0.13073999
-0.25570533 0.55402827 0.13074005
-0.25570533 0.51141071 0.13074011
-0.25570533 0.46879303 0.13074008
-0.25570533 0.42617553 0.13074011
-0.25570533 0.38355798 0.13074008
-0.25570533 0.34094051 0.13074014
-0.25570533 0.29832295 0.13074011
-0.25570533 0.25570539 0.13074008
-0.25570533 0.21308783 0.13074005
-0.25570533 0.17047018 0.13074009
-0.25570533 0.12785262 0.13074005
-0.25570533 0.085235067 0.13074002
-0.25570533 0.042617582 0.13074008
-0.25570533 2.2351742e-08 0.13074005
-0.25570533 -0.042617537 0.13074
-0.25570533 -0.085235097 0.13073997
-0.25570533 -0.12785259 0.13074003
-0.25570533 -0.17047022 0.13074006
-0.25570533 -0.21308778 0.13074005
-0.25570533 -0.25570527 0.13074009
-0.25570533 -0.29832283 0.13074005
-0.25570533 -0.34094048 0.13074011
-0.25570533 -0.38355803 0.13074008
-0.25570533 -0.4261755 0.13074014
-0.25570533 -0.46879315 0.13074017
-0.25570533 -0.51141071 0.13074015
-0.25570533 -0.55402815 0.1307402
-0.25570533 -0.59664577 0.13074017
-0.25570533 -0.63926333 0.13074012
-0.25570533 -0.68188083 0.13074008
-0.25570533 -0.72449851 0.13074014
-0.21388701 0.72721589 0.1387324
-0.21388701 0.68443847 0.13873225
-0.21388701 0.64166105 0.13873234
-0.21388701 0.59888357 0.13873224
-0.21388701 0.55610609 0.13873227
-0.21388701 0.51332891 0.13873236
-0.21388701 0.47055149 0.13873228
-0.21388701 0.42777401 0.13873231
-0.21388701 0.38499656 0.13873218
-0.21388701 0.34221917 0.13873228
-0.21388701 0.29944167 0.13873231
-0.21388701 0.25666437 0.13873234
-0.21388701 0.21388698 0.13873228
-0.21388701 0.1711095 0.1387323
-0.21388701 0.12833218 0.13873234
-0.21388701 0.085554808 0.13873228
-0.21388701 0.042777412 0.13873224
-0.21388701 -5.9604645e-08 0.13873225
-0.21388701 -0.042777374 0.13873228
-0.21388701 -0.085554764 0.13873224
-0.21388701 -0.12833224 0.13873225
-0.21388701 -0.17110954 0.13873228
-0.21388701 -0.21388695 0.13873224
-0.21388701 -0.25666434 0.13873234
-0.21388701 -0.29944173 0.1387323
-0.21388701 -0.34221917 0.13873217
-0.21388701 -0.38499659 0.13873227
-0.21388701 -0.42777398 0.13873221
-0.21388701 -0.47055131 0.13873225
-0.21388701 -0.51332879 0.13873228
-0.21388701 -0.55610627 0.1387323
-0.21388701 -0.59888357 0.13873233
-0.21388701 -0.64166093 0.13873228
-0.21388701 -0.68443835 0.13873222
-0.21388701 -0.72721589 0.13873234
-0.17175321 0.72995102 0.1467773
-0.17175321 0.68701285 0.14677733
-0.17175321 0.64407444 0.14677718
-0.17175321 0.60113627 0.14677745
-0.17175321 0.55819798 0.14677735
-0.17175321 0.51525956 0.14677724
-0.17175321 0.4723213 0.14677741
-0.17175321 0.42938313 0.14677736
-0.17175321 0.38644475 0.14677738
-0.17175321 0.34350634 0.14677736
-0.17175321 0.3005681 0.14677721
-0.17175321 0.25762987 0.14677741
-0.17175321 0.21469145 0.14677741
-0.17175321 0.17175323 0.14677726
-0.17175321 0.12881489 0.14677736
-0.17175321 0.085876584 0.14677729
-0.17175321 0.042938344 0.1467773
-0.17175321 1.4901161e-08 0.14677739
-0.17175321 -0.042938303 0.14677733
-0.17175321 -0.085876539 0.14677735
-0.17175321 -0.12881494 0.14677735
-0.17175321 -0.17175327 0.14677727
-0.17175321 -0.21469143 0.14677739
-0.17175321 -0.25762984 0.14677739
-0.17175321 -0.30056816 0.14677732
-0.17175321 -0.3435064 0.14677733
-0.17175321 -0.38644472 0.14677727
-0.17175321 -0.42938295 0.14677747
-0.17175321 -0.47232127 0.14677739
-0.17175321 -0.51525962 0.14677732
-0.17175321 -0.55819792 0.14677741
-0.17175321 -0.60113621 0.14677733
-0.17175321 -0.64407456 0.14677726
-0.17175321 -0.68701273 0.14677736
-0.17175321 -0.72995114 0.14677739
-0.12930168 0.73270965 0.15489057
-0.12930168 0.68960905 0.15489057
-0.12930168 0.64650857 0.15489069
-0.12930168 0.60340798 0.15489064
-0.12930168 0.56030738 0.15489049
-0.12930168 0.51720679 0.15489045
-0.12930168 0.47410613 0.15489051
-0.12930168 0.43100554 0.15489048
-0.12930168 0.38790518 0.15489058
-0.12930168 0.34480458 0.15489055
-0.12930168 0.30170396 0.15489052
-0.12930168 0.25860336 0.15489051
-0.12930168 0.21550283 0.15489057
-0.12930168 0.17240223 0.15489055
-0.12930168 0.12930171 0.15489045
-0.12930168 0.086201191 0.15489052
-0.12930168 0.043100499 0.15489058
-0.12930168 -1.4901161e-08 0.15489048
-0.12930168 -0.04310054 0.15489055
-0.12930168 -0.086201139 0.15489054
-0.12930168 -0.12930158 0.15489054
-0.12930168 -0.17240228 0.15489058
-0.12930168 -0.21550287 0.15489057
-0.12930168 -0.2586033 0.15489057
-0.12930168 -0.3017039 0.15489054
-0.12930168 -0.34480458 0.1548906
-0.12930168 -0.38790503 0.15489058
-0.12930168 -0.43100563 0.15489057
-0.12930168 -0.47410625 0.15489054
-0.12930168 -0.51720667 0.15489055
-0.12930168 -0.56030738 0.15489058
-0.12930168 -0.60340786 0.15489051
-0.12930168 -0.6465084 0.15489039
-0.12930168 -0.68960917 0.15489054
-0.12930168 -0.73270959 0.15489054
-0.086528122 0.73548913 0.1630654
-0.086528122 0.69222504 0.16306534
-0.086528122 0.64896095 0.16306534
-0.086528122 0.6056968 0.16306533
-0.086528122 0.56243277 0.16306525
-0.086528122 0.51916862 0.16306525
-0.086528122 0.47590458 0.1630652
-0.086528122 0.43264061 0.16306524
-0.086528122 0.38937652 0.16306517
-0.086528122 0.34611246 0.16306528
-0.086528122 0.3028484 0.16306524
-0.086528122 0.25958431 0.16306518
-0.086528122 0.21632032 0.16306522
-0.086528122 0.17305626 0.16306533
-0.086528122 0.12979218 0.16306528
-0.086528122 0.086528033 0.1630653
-0.086528122 0.043263968 0.16306524
-0.086528122 -1.4901161e-08 0.16306528
-0.086528122 -0.043264005 0.16306531
-0.086528122 -0.086528063 0.16306525
-0.086528122 -0.12979214 0.1630652
-0.086528122 -0.17305629 0.16306522
-0.086528122 -0.21632029 0.16306525
-0.086528122 -0.25958434 0.16306521
-0.086528122 -0.30284834 0.16306525
-0.086528122 -0.34611249 0.16306527
-0.086528122 -0.38937658 0.16306522
-0.086528122 -0.43264061 0.16306533
-0.086528122 -0.4759047 0.16306525
-0.086528122 -0.51916867 0.16306531
-0.086528122 -0.56243277 0.16306524
-0.086528122 -0.6056968 0.16306521
-0.086528122 -0.64896083 0.16306522
-0.086528122 -0.69222498 0.16306525
-0.086528122 -0.73548901 0.1630652
-0.043428648 0.73828709 0.17129481
-0.043428648 0.69485819 0.17129463
-0.043428648 0.65142971 0.17129475
-0.043428648 0.60800111 0.17129466
-0.043428648 0.56457251 0.1712949
-0.043428648 0.52114385 0.17129481
-0.043428648 0.47771531 0.17129482
-0.043428648 0.43428642 0.17129479
-0.043428648 0.39085782 0.17129472
-0.043428648 0.34742916 0.17129479
-0.043428648 0.30400053 0.17129469
-0.043428648 0.2605719 0.17129478
-0.043428648 0.21714325 0.17129487
-0.043428648 0.17371462 0.17129478
-0.043428648 0.13028599 0.17129469
-0.043428648 0.086857274 0.17129485
-0.043428648 0.043428641 0.17129475
-0.043428648 -7.4505806e-09 0.17129484
-0.043428648 -0.043428622 0.17129475
-0.043428648 -0.086857349 0.17129475
-0.043428648 -0.13028599 0.17129482
-0.043428648 -0.17371462 0.17129475
-0.043428648 -0.21714316 0.17129475
-0.043428648 -0.2605719 0.17129473
-0.043428648 -0.3040005 0.17129481
-0.043428648 -0.34742925 0.17129481
-0.043428648 -0.39085785 0.17129472
-0.043428648 -0.43428642 0.17129472
-0.043428648 -0.47771519 0.17129478
-0.043428648 -0.52114379 0.17129482
-0.043428648 -0.56457239 0.17129473
-0.043428648 -0.60800099 0.17129464
-0.043428648 -0.65142977 0.17129479
-0.043428648 -0.69485849 0.17129479
-0.043428648 -0.73828691 0.17129469
0 0.74110895 0.17959467
0 0.6975143 0.17959455
0 0.65391958 0.17959453
0 0.61032504 0.17959458
0 0.56673032 0.17959455
0 0.5231359 0.17959471
0 0.47954112 0.17959465
0 0.43594652 0.17959471
0 0.39235181 0.17959464
0 0.34875709 0.17959458
0 0.30516252 0.1795947
0 0.2615678 0.17959464
0 0.21797326 0.17959458
0 0.17437863 0.17959461
0 0.13078389 0.17959473
0 0.087189257 0.17959476
0 0.043594643 0.17959461
0 -0 0.17959464
0 -0.043594636 0.17959467
0 -0.087189272 0.1795947
0 -0.13078392 0.17959474
0 -0.17437854 0.17959476
0 -0.21797326 0.1795947
0 -0.2615678 0.17959465
0 -0.30516252 0.17959458
0 -0.34875727 0.1795947
0 -0.39235187 0.17959474
0 -0.43594652 0.17959459
0 -0.47954112 0.17959462
0 -0.52313578 0.17959465
0 -0.56673038 0.17959461
0 -0.61032504 0.1795947
0 -0.6539197 0.17959473
0 -0.69751441 0.17959467
0 -0.74110895 0.17959461
0.043761767 0.74395007 0.18795064
0.043761767 0.70018834 0.18795073
0.043761767 0.65642655 0.18795063
0.043761767 0.61266464 0.1879506
0.043761767 0.56890303 0.18795063
0.043761767 0.52514124 0.18795064
0.043761767 0.48137933 0.18795061
0.043761767 0.4376176 0.1879506
0.043761767 0.39385593 0.18795067
0.043761767 0.35009423 0.18795064
0.043761767 0.30633241 0.1879507
0.043761767 0.26257059 0.18795061
0.043761767 0.21880893 0.18795069
0.043761767 0.17504703 0.18795066
0.043761767 0.13128531 0.18795063
0.043761767 0.087523475 0.18795069
0.043761767 0.043761835 0.1879506
0.043761767 -0 0.18795064
0.043761767 -0.04376182 0.1879507
0.043761767 -0.087523557 0.18795069
0.043761767 -0.13128528 0.18795067
0.043761767 -0.17504703 0.18795066
0.043761767 -0.21880883 0.18795072
0.043761767 -0.26257056 0.18795069
0.043761767 -0.30633229 0.18795067
0.043761767 -0.3500942 0.18795064
0.043761767 -0.39385587 0.1879507
0.043761767 -0.43761769 0.18795058
0.043761767 -0.48137933 0.18795069
0.043761767 -0.52514124 0.18795066
0.043761767 -0.56890303 0.18795072
0.043761767 -0.6126647 0.1879506
0.043761767 -0.65642643 0.1879506
0.043761767 -0.70018834 0.1879507
0.043761767 -0.74395007 0.1879507
0.087860651 0.74681544 0.19637853
0.087860651 0.70288515 0.19637862
0.087860651 0.65895498 0.19637863
0.087860651 0.61502463 0.19637877
0.087860651 0.57109427 0.19637863
0.087860651 0.52716398 0.19637869
0.087860651 0.48323351 0.1963786
0.087860651 0.43930316 0.1963786
0.087860651 0.39537299 0.19637859
0.087860651 0.35144264 0.19637859
0.087860651 0.30751234 0.19637866
0.087860651 0.2635819 0.19637871
0.087860651 0.21965165 0.19637863
0.087860651 0.17572129 0.19637862
0.087860651 0.13179103 0.19637869
0.087860651 0.087860674 0.19637853
0.087860651 0.043930389 0.19637859
0.087860651 -5.2154064e-08 0.19637866
0.087860651 -0.043930329 0.19637874
0.087860651 -0.087860674 0.19637856
0.087860651 -0.13179094 0.19637863
0.087860651 -0.1757213 0.19637863
0.087860651 -0.21965149 0.19637863
0.087860651 -0.26358202 0.1963786
0.087860651 -0.30751231 0.19637869
0.087860651 -0.35144264 0.19637866
0.087860651 -0.3953729 0.19637859
0.087860651 -0.43930325 0.19637859
0.087860651 -0.48323363 0.19637857
0.087860651 -0.52716386 0.19637865
0.087860651 -0.57109427 0.19637862
0.087860651 -0.61502451 0.19637854
0.087860651 -0.65895498 0.19637859
0.087860651 -0.70288515 0.19637862
0.13230057 0.74970305 0.20487165
0.13230057 0.705603 0.20487177
0.13230057 0.66150284 0.20487173
0.13230057 0.61740255 0.20487171
0.13230057 0.57330239 0.20487162
0.13230057 0.52920222 0.20487161
0.13230057 0.48510218 0.20487186
0.13230057 0.44100204 0.20487179
0.13230057 0.39690179 0.20487177
0.13230057 0.35280153 0.20487176
0.13230057 0.30870146 0.20487174
0.13230057 0.26460111 0.20487182
0.13230057 0.22050089 0.2048718
0.13230057 0.17640074 0.20487173
0.13230057 0.1323005 0.2048717
0.13230057 0.088200323 0.20487177
0.13230057 0.044100165 0.20487168
0.13230057 -0 0.20487177
0.13230057 -0.044100247 0.20487176
0.13230057 -0.088200487 0.20487174
0.13230057 -0.13230056 0.20487174
0.13230057 -0.1764008 0.20487173
0.13230057 -0.22050098 0.2048718
0.13230057 -0.26460111 0.20487171
0.13230057 -0.30870137 0.20487171
0.13230057 -0.35280156 0.20487177
0.13230057 -0.3969017 0.20487168
0.13230057 -0.44100186 0.20487177
0.13230057 -0.48510212 0.20487174
0.13230057 -0.52920228 0.20487167
0.13230057 -0.57330239 0.20487176
0.13230057 -0.61740267 0.20487173
0.13230057 -0.66150284 0.2048718
0.13230057 -0.705603 0.20487171
0.17708486 0.70833939 0.21342298
0.17708486 0.66406816 0.21342312
0.17708486 0.61979693 0.21342295
0.17708486 0.57552594 0.21342324
0.17708486 0.53125465 0.21342312
0.17708486 0.48698348 0.21342303
0.17708486 0.44271213 0.21342312
0.17708486 0.39844102 0.21342301
0.17708486 0.35416967 0.2134231
0.17708486 0.30989856 0.213423
0.17708486 0.26562721 0.21342304
0.17708486 0.22135608 0.21342298
0.17708486 0.17708485 0.21342297
0.17708486 0.13281369 0.21342304
0.17708486 0.088542461 0.21342304
0.17708486 0.044271223 0.21342303
0.17708486 7.4505806e-08 0.2134231
0.17708486 -0.044271164 0.2134231
0.17708486 -0.088542394 0.2134231
0.17708486 -0.13281371 0.21342298
0.17708486 -0.17708486 0.21342307
0.17708486 -0.22135609 0.21342306
0.17708486 -0.26562732 0.21342306
0.17708486 -0.30989856 0.21342304
0.17708486 -0.3541697 0.2134231
0.17708486 -0.39844084 0.21342304
0.17708486 -0.44271216 0.2134231
0.17708486 -0.4869833 0.213423
0.17708486 -0.53125465 0.21342307
0.17708486 -0.57552588 0.21342309
0.17708486 -0.61979711 0.21342306
0.17708486 -0.66406822 0.21342298
0.17708486 -0.70833939 0.21342306
0.22221865 0.71109974 0.22204891
0.22221865 0.66665608 0.22204888
0.22221865 0.62221211 0.22204877
0.22221865 0.5777685 0.22204876
0.22221865 0.53332484 0.22204873
0.22221865 0.48888099 0.22204886
0.22221865 0.44443727 0.22204873
0.22221865 0.39999351 0.22204877
0.22221865 0.35554993 0.22204885
0.22221865 0.31110603 0.2220487
0.22221865 0.2666623 0.22204877
0.22221865 0.22221869 0.22204883
0.22221865 0.17777497 0.2220487
0.22221865 0.13333113 0.22204883
0.22221865 0.088887483 0.2220488
0.22221865 0.044443652 0.22204876
0.22221865 -0 0.22204873
0.22221865 -0.044443749 0.22204879
0.22221865 -0.088887483 0.22204883
0.22221865 -0.13333122 0.22204871
0.22221865 -0.17777479 0.22204877
0.22221865 -0.22221871 0.22204882
0.22221865 -0.26666239 0.22204879
0.22221865 -0.31110612 0.22204883
0.22221865 -0.35554984 0.22204871
0.22221865 -0.3999936 0.22204876
0.22221865 -0.44443733 0.22204882
0.22221865 -0.48888099 0.22204879
0.22221865 -0.53332472 0.22204867
0.22221865 -0.5777685 0.22204889
0.22221865 -0.62221229 0.22204885
0.22221865 -0.6666559 0.22204874
0.22221865 -0.71109962 0.22204879
0.26770556 0.71388149 0.23074201
0.26770556 0.66926384 0.23074192
0.26770556 0.62464631 0.23074196
0.26770556 0.58002859 0.23074192
0.26770556 0.53541112 0.23074204
0.26770556 0.49079365 0.23074204
0.26770556 0.44617599 0.23074195
0.26770556 0.40155846 0.23074207
0.26770556 0.35694078 0.23074198
0.26770556 0.31232309 0.23074189
0.26770556 0.26770565 0.23074195
0.26770556 0.22308795 0.23074202
0.26770556 0.17847045 0.23074195
0.26770556 0.13385274 0.23074204
0.26770556 0.089235231 0.23074198
0.26770556 0.044617631 0.23074198
0.26770556 2.2351742e-08 0.23074198
0.26770556 -0.044617586 0.23074199
0.26770556 -0.089235187 0.23074201
0.26770556 -0.13385279 0.23074202
0.26770556 -0.1784703 0.23074195
0.26770556 -0.22308809 0.23074195
0.26770556 -0.26770553 0.23074198
0.26770556 -0.31232318 0.23074205
0.26770556 -0.35694072 0.23074198
0.26770556 -0.4015584 0.23074189
0.26770556 -0.44617593 0.23074199
0.26770556 -0.49079353 0.23074201
0.26770556 -0.53541112 0.23074201
0.26770556 -0.58002877 0.23074187
0.26770556 -0.62464631 0.23074196
0.26770556 -0.66926396 0.23074207
0.26770556 -0.71388155 0.23074208
0.31354865 0.71668267 0.23949555
0.31354865 0.67189002 0.23949555
0.31354865 0.62709725 0.23949543
0.31354865 0.58230478 0.23949562
0.31354865 0.53751194 0.23949549
0.31354865 0.49271929 0.23949555
0.31354865 0.44792658 0.23949552
0.31354865 0.40313399 0.23949565
0.31354865 0.35834128 0.23949544
0.31354865 0.31354871 0.23949558
0.31354865 0.26875606 0.23949544
0.31354865 0.22396332 0.23949559
0.31354865 0.17917067 0.23949564
0.31354865 0.13437803 0.23949552
0.31354865 0.089585379 0.23949558
0.31354865 0.044792652 0.23949555
0.31354865 -7.4505806e-09 0.23949559
0.31354865 -0.04479257 0.23949556
0.31354865 -0.089585304 0.23949552
0.31354865 -0.13437796 0.23949558
0.31354865 -0.17917068 0.23949553
0.31354865 -0.22396332 0.23949558
0.31354865 -0.26875588 0.23949556
0.31354865 -0.31354862 0.23949552
0.31354865 -0.35834128 0.23949558
0.31354865 -0.40313402 0.23949555
0.31354865 -0.44792667 0.23949558
0.31354865 -0.4927192 0.23949558
0.31354865 -0.53751194 0.2394955
0.31354865 -0.5823046 0.23949556
0.31354865 -0.62709737 0.23949553
0.31354865 -0.67188996 0.23949559
0.31354865 -0.71668255 0.23949556
0.3597542 0.71950841 0.24832603
0.3597542 0.67453909 0.24832608
0.3597542 0.62956989 0.24832612
0.3597542 0.58460045 0.24832596
0.3597542 0.53963125 0.24832593
0.3597542 0.49466217 0.24832611
0.3597542 0.44969279 0.24832606
0.3597542 0.4047235 0.24832615
0.3597542 0.3597542 0.24832603
0.3597542 0.31478488 0.24832606
0.3597542 0.26981559 0.24832599
0.3597542 0.22484645 0.24832605
0.3597542 0.17987707 0.24832602
0.3597542 0.13490778 0.24832608
0.3597542 0.089938566 0.24832605
0.3597542 0.044969261 0.24832612
0.3597542 -2.9802322e-08 0.248326
0.3597542 -0.044969171 0.24832609
0.3597542 -0.089938536 0.24832606
0.3597542 -0.13490784 0.24832611
0.3597542 -0.17987713 0.248326
0.3597542 -0.22484627 0.24832608
0.3597542 -0.26981565 0.24832603
0.3597542 -0.31478488 0.24832602
0.3597542 -0.35975415 0.24832591
0.3597542 -0.4047235 0.24832612
0.3597542 -0.44969279 0.24832603
0.3597542 -0.49466199 0.248326
0.3597542 -0.53963131 0.24832608
0.3597542 -0.58460051 0.24832606
0.3597542 -0.62956977 0.24832594
0.3597542 -0.67453909 0.24832602
0.3597542 -0.71950829 0.248326
0.40632409 0.72235382 0.25721836
0.40632409 0.67720687 0.25721833
0.40632409 0.63205969 0.25721848
0.40632409 0.58691251 0.25721836
0.40632409 0.54176545 0.25721845
0.40632409 0.49661827 0.2572183
0.40632409 0.45147118 0.25721842
0.40632409 0.40632415 0.25721848
0.40632409 0.36117703 0.25721845
0.40632409 0.31602988 0.25721845
0.40632409 0.27088284 0.25721833
0.40632409 0.22573553 0.2572183
0.40632409 0.18058848 0.25721839
0.40632409 0.13544136 0.25721836
0.40632409 0.09029422 0.25721833
0.40632409 0.045147173 0.25721842
0.40632409 2.9802322e-08 0.25721839
0.40632409 -0.045147099 0.25721836
0.40632409 -0.090294227 0.25721836
0.40632409 -0.13544145 0.25721842
0.40632409 -0.18058859 0.25721839
0.40632409 -0.22573555 0.25721839
0.40632409 -0.2708827 0.25721836
0.40632409 -0.31602982 0.25721836
0.40632409 -0.36117694 0.25721836
0.40632409 -0.40632409 0.2572183
0.40632409 -0.45147121 0.2572183
0.40632409 -0.49661836 0.25721845
0.40632409 -0.54176539 0.25721836
0.40632409 -0.58691263 0.25721842
0.40632409 -0.63205969 0.2572183
0.40632409 -0.67720687 0.25721836
0.40632409 -0.72235399 0.25721836
0.45326546 0.72522467 0.26618946
0.45326546 0.67989814 0.26618946
0.45326546 0.63457155 0.26618952
0.45326546 0.58924508 0.26618946
0.45326546 0.54391849 0.26618949
0.45326546 0.49859193 0.26618952
0.45326546 0.45326543 0.26618949
0.45326546 0.40793896 0.26618946
0.45326546 0.36261249 0.26618958
0.45326546 0.31728581 0.26618952
0.45326546 0.27195925 0.26618958
0.45326546 0.22663274 0.26618952
0.45326546 0.18130626 0.26618949
0.45326546 0.13597961 0.26618943
0.45326546 0.090653025 0.26618946
0.45326546 0.045326538 0.26618943
0.45326546 4.4703484e-08 0.26618955
0.45326546 -0.045326613 0.26618952
0.45326546 -0.090653092 0.26618946
0.45326546 -0.13597958 0.26618943
0.45326546 -0.18130615 0.26618946
0.45326546 -0.22663274 0.26618949
0.45326546 -0.27195922 0.26618946
0.45326546 -0.31728581 0.26618949
0.45326546 -0.36261237 0.26618952
0.45326546 -0.40793902 0.26618949
0.45326546 -0.45326534 0.26618946
0.45326546 -0.4985919 0.26618949
0.45326546 -0.54391843 0.26618946
0.45326546 -0.58924514 0.26618946
0.45326546 -0.63457167 0.26618943
0.45326546 -0.67989802 0.26618946
0.45326546 -0.72522461 0.26618952
0.50058138 0.72811842 0.2752322
0.50058138 0.68261087 0.27523211
0.50058138 0.63710356 0.27523226
0.50058138 0.59159625 0.27523232
0.50058138 0.5460887 0.27523202
0.50058138 0.50058138 0.27523214
0.50058138 0.45507395 0.27523205
0.50058138 0.40956658 0.2752322
0.50058138 0.36405921 0.2752322
0.50058138 0.31855184 0.2752322
0.50058138 0.27304447 0.27523217
0.50058138 0.22753704 0.27523211
0.50058138 0.18202966 0.27523226
0.50058138 0.13652222 0.27523214
0.50058138 0.091014765 0.27523223
0.50058138 0.045507401 0.27523223
0.50058138 -4.4703484e-08 0.27523214
0.50058138 -0.045507513 0.2752322
0.50058138 -0.09101487 0.2752322
0.50058138 -0.13652216 0.27523226
0.50058138 -0.1820296 0.2752322
0.50058138 -0.22753696 0.27523217
0.50058138 -0.27304441 0.27523226
0.50058138 -0.31855187 0.27523214
0.50058138 -0.36405924 0.27523217
0.50058138 -0.40956649 0.27523223
0.50058138 -0.45507386 0.27523223
0.50058138 -0.50058138 0.2752322
0.50058138 -0.5460887 0.27523214
0.50058138 -0.59159607 0.27523211
0.50058138 -0.6371035 0.27523202
0.50058138 -0.68261117 0.27523226
0.50058138 -0.72811842 0.27523234
0.5482744 0.73103249 0.28433889
0.5482744 0.68534297 0.28433904
0.5482744 0.63965333 0.28433901
0.5482744 0.59396386 0.28433913
0.5482744 0.54827434 0.28433907
0.5482744 0.50258487 0.28433913
0.5482744 0.45689529 0.28433907
0.5482744 0.4112058 0.2843391
0.5482744 0.36551619 0.28433904
0.5482744 0.31982675 0.28433916
0.5482744 0.27413717 0.2843391
0.5482744 0.22844757 0.28433901
0.5482744 0.18275806 0.28433901
0.5482744 0.13706855 0.28433907
0.5482744 0.091379039 0.28433907
0.5482744 0.045689531 0.2843391
0.5482744 -5.9604645e-08 0.28433901
0.5482744 -0.045689575 0.28433904
0.5482744 -0.091379084 0.28433907
0.5482744 -0.13706867 0.28433901
0.5482744 -0.1827582 0.28433901
0.5482744 -0.22844771 0.28433904
0.5482744 -0.2741372 0.28433907
0.5482744 -0.31982678 0.28433898
0.5482744 -0.3655163 0.28433901
0.5482744 -0.41120583 0.28433904
0.5482744 -0.45689535 0.28433907
0.5482744 -0.50258493 0.28433898
0.5482744 -0.5482744 0.28433901
0.5482744 -0.59396398 0.28433901
0.5482744 -0.63965344 0.28433904
0.5482744 -0.68534297 0.28433907
0.5482744 -0.73103255 0.28433913
0.59635293 0.73397291 0.29352742
0.59635293 0.68809962 0.29352742
0.59635293 0.64222634 0.29352742
0.59635293 0.59635311 0.29352742
0.59635293 0.55047959 0.29352736
0.59635293 0.50460631 0.29352739
0.59635293 0.45873296 0.29352748
0.59635293 0.41285971 0.29352748
0.59635293 0.36698636 0.29352739
0.59635293 0.32111317 0.29352748
0.59635293 0.27523983 0.2935276
0.59635293 0.22936648 0.29352754
0.59635293 0.18349321 0.29352754
0.59635293 0.13761988 0.29352745
0.59635293 0.091746613 0.29352748
0.59635293 0.045873277 0.29352739
0.59635293 -0 0.29352757
0.59635293 -0.045873344 0.29352748
0.59635293 -0.091746598 0.29352751
0.59635293 -0.13761994 0.29352742
0.59635293 -0.1834932 0.29352745
0.59635293 -0.22936654 0.29352754
0.59635293 -0.27523988 0.29352745
0.59635293 -0.32111314 0.29352745
0.59635293 -0.36698651 0.29352742
0.59635293 -0.41285971 0.29352751
0.59635293 -0.45873302 0.29352742
0.59635293 -0.50460637 0.29352751
0.59635293 -0.55047965 0.29352736
0.59635293 -0.59635293 0.29352754
0.59635293 -0.64222616 0.29352736
0.59635293 -0.6880995 0.29352748
0.59635293 -0.73397285 0.29352739
0.64481741 0.73693419 0.30278167
0.64481741 0.69087583 0.30278173
0.64481741 0.64481747 0.30278176
0.64481741 0.59875894 0.3027817
0.64481741 0.55270064 0.30278176
0.64481741 0.5066424 0.30278167
0.64481741 0.46058387 0.30278155
0.64481741 0.41452551 0.30278164
0.64481741 0.36846712 0.30278173
0.64481741 0.3224088 0.30278161
0.64481741 0.27635032 0.30278161
0.64481741 0.23029196 0.3027817
0.64481741 0.18423352 0.30278167
0.64481741 0.13817514 0.30278173
0.64481741 0.092116781 0.30278164
0.64481741 0.046058334 0.30278164
0.64481741 -2.9802322e-08 0.3027817
0.64481741 -0.046058476 0.3027817
0.64481741 -0.092116669 0.30278164
0.64481741 -0.13817511 0.30278158
0.64481741 -0.18423358 0.30278158
0.64481741 -0.23029193 0.30278164
0.64481741 -0.27635038 0.30278164
0.64481741 -0.32240877 0.30278155
0.64481741 -0.36846709 0.30278164
0.64481741 -0.41452557 0.30278161
0.64481741 -0.46058384 0.30278176
0.64481741 -0.50664222 0.3027817
0.64481741 -0.55270058 0.30278161
0.64481741 -0.598759 0.30278173
0.64481741 -0.64481735 0.30278164
0.64481741 -0.69087577 0.3027817
0.64481741 -0.73693419 0.3027817
0.69367713 0.73992229 0.31211931
0.69367713 0.69367707 0.31211933
0.69367713 0.64743191 0.31211931
0.69367713 0.60118687 0.31211925
0.69367713 0.55494165 0.31211931
0.69367713 0.5086965 0.31211931
0.69367713 0.46245146 0.31211925
0.69367713 0.41620621 0.31211931
0.69367713 0.36996096 0.31211925
0.69367713 0.32371607 0.31211936
0.69367713 0.27747089 0.31211936
0.69367713 0.23122573 0.31211936
0.69367713 0.1849805 0.31211931
0.69367713 0.1387355 0.31211931
0.69367713 0.092490353 0.31211933
0.69367713 0.046245113 0.31211942
0.69367713 2.9802322e-08 0.31211936
0.69367713 -0.046245202 0.31211931
0.69367713 -0.092490368 0.31211931
0.69367713 -0.13873541 0.31211925
0.69367713 -0.1849806 0.31211925
0.69367713 -0.23122567 0.31211933
0.69367713 -0.27747071 0.31211928
0.69367713 -0.32371598 0.31211936
0.69367713 -0.36996114 0.31211939
0.69367713 -0.4162063 0.31211939
0.69367713 -0.46245146 0.31211925
0.69367713 -0.5086965 0.31211919
0.69367713 -0.55494177 0.31211942
0.69367713 -0.60118681 0.31211936
0.69367713 -0.64743191 0.31211931
0.69367713 -0.69367707 0.31211931
0.69367713 -0.73992223 0.31211936
0.74293464 0.74293458 0.32153296
0.74293464 0.69650114 0.32153288
0.74293464 0.65006787 0.32153308
0.74293464 0.60363424 0.32153291
0.74293464 0.55720103 0.32153302
0.74293464 0.51076752 0.32153302
0.74293464 0.46433413 0.32153296
0.74293464 0.41790068 0.32153296
0.74293464 0.37146735 0.32153314
0.74293464 0.32503381 0.32153291
0.74293464 0.27860039 0.32153299
0.74293464 0.23216712 0.32153299
0.74293464 0.18573356 0.32153293
0.74293464 0.13930017 0.32153302
0.74293464 0.092866868 0.32153305
0.74293464 0.046433389 0.32153305
0.74293464 -0 0.32153296
0.74293464 -0.046433389 0.32153308
0.74293464 -0.09286686 0.32153308
0.74293464 -0.13930026 0.32153302
0.74293464 -0.18573365 0.32153311
0.74293464 -0.23216702 0.32153305
0.74293464 -0.27860051 0.32153308
0.74293464 -0.3250339 0.32153314
0.74293464 -0.37146735 0.32153299
0.74293464 -0.41790074 0.32153293
0.74293464 -0.46433404 0.32153293
0.74293464 -0.51076758 0.32153302
0.74293464 -0.55720091 0.32153291
0.74293464 -0.6036343 0.32153296
0.74293464 -0.65006775 0.32153299
0.74293464 -0.6965012 0.32153296
0.74293464 -0.74293464 0.32153311
0.79259193 0.74596894 0.33101511
0.79259193 0.69934583 0.33101502
0.79259193 0.65272272 0.33101487
0.79259193 0.60609961 0.33101508
0.79259193 0.55947673 0.33101508
0.79259193 0.51285362 0.33101499
0.79259193 0.46623057 0.33101514
0.79259193 0.41960752 0.33101499
0.79259193 0.37298453 0.33101505
0.79259193 0.3263613 0.33101505
0.79259193 0.27973834 0.33101511
0.79259193 0.23311536 0.33101502
0.79259193 0.18649215 0.33101502
0.79259193 0.13986915 0.33101511
0.79259193 0.093246207 0.33101499
0.79259193 0.046623051 0.33101511
0.79259193 1.4901161e-08 0.33101508
0.79259193 -0.046622962 0.33101499
0.79259193 -0.09324611 0.33101505
0.79259193 -0.13986915 0.33101505
0.79259193 -0.1864922 0.33101505
0.79259193 -0.23311529 0.33101505
0.79259193 -0.27973834 0.33101505
0.79259193 -0.32636139 0.33101505
0.79259193 -0.37298444 0.33101505
0.79259193 -0.41960749 0.33101502
0.79259193 -0.46623054 0.33101502
0.79259193 -0.51285362 0.33101502
0.79259193 -0.55947667 0.33101502
0.79259193 -0.60609972 0.33101499
0.79259193 -0.65272266 0.33101508
0.79259193 -0.69934601 0.33101514
0.84265965 0.74903083 0.3405835
0.84265965 0.70221627 0.3405835
0.84265965 0.65540183 0.3405835
0.84265965 0.60858762 0.34058362
0.84265965 0.56177318 0.34058353
0.84265965 0.51495874 0.34058353
0.84265965 0.46814433 0.34058374
0.84265965 0.42132971 0.34058356
0.84265965 0.37451535 0.34058341
0.84265965 0.32770097 0.34058353
0.84265965 0.28088653 0.34058362
0.84265965 0.23407212 0.34058356
0.84265965 0.1872578 0.34058356
0.84265965 0.1404433 0.34058359
0.84265965 0.093628809 0.34058362
0.84265965 0.046814397 0.34058353
0.84265965 5.9604645e-08 0.34058356
0.84265965 -0.046814442 0.34058356
0.84265965 -0.093628854 0.3405835
0.84265965 -0.14044335 0.3405835
0.84265965 -0.18725766 0.34058353
0.84265965 -0.23407218 0.34058353
0.84265965 -0.28088656 0.3405835
0.84265965 -0.327701 0.34058359
0.84265965 -0.37451532 0.34058362
0.84265965 -0.42132983 0.34058344
0.84265965 -0.46814415 0.34058347
0.84265965 -0.51495868 0.34058365
0.84265965 -0.56177312 0.34058347
0.84265965 -0.60858756 0.34058362
0.84265965 -0.65540195 0.3405835
0.84265965 -0.70221627 0.34058338
0.89314008 0.70511061 0.35023096
0.89314008 0.65810317 0.35023084
0.89314008 0.61109591 0.35023099
0.89314008 0.56408858 0.35023105
0.89314008 0.5170812 0.35023087
0.89314008 0.47007376 0.35023081
0.89314008 0.42306635 0.35023099
0.89314008 0.37605891 0.3502309
0.89314008 0.32905158 0.35023099
0.89314008 0.28204423 0.35023099
0.89314008 0.23503678 0.35023093
0.89314008 0.1880295 0.35023084
0.89314008 0.14102212 0.35023087
0.89314008 0.094014823 0.35023096
0.89314008 0.047007352 0.35023087
0.89314008 -1.4901161e-08 0.35023087
0.89314008 -0.047007397 0.35023087
0.89314008 -0.094014764 0.35023087
0.89314008 -0.141022 0.35023093
0.89314008 -0.18802944 0.35023084
0.89314008 -0.23503679 0.35023084
0.89314008 -0.2820442 0.35023102
0.89314008 -0.32905164 0.35023093
0.89314008 -0.37605906 0.35023093
0.89314008 -0.42306641 0.35023096
0.89314008 -0.47007376 0.35023096
0.89314008 -0.51708114 0.35023096
0.89314008 -0.56408852 0.35023096
0.89314008 -0.61109591 0.35023099
0.89314008 -0.65810323 0.3502309
0.89314008 -0.70511049 0.35023084
0.94403487 0.70802623 0.35994944
0.94403487 0.66082436 0.35994923
0.94403487 0.61362255 0.35994935
0.94403487 0.56642091 0.35994929
0.94403487 0.5192191 0.35994935
0.94403487 0.47201741 0.35994932
0.94403487 0.42481557 0.35994914
0.94403487 0.37761402 0.35994932
0.94403487 0.33041227 0.35994935
0.94403487 0.2832104 0.35994935
0.94403487 0.23600872 0.35994935
0.94403487 0.18880686 0.35994929
0.94403487 0.14160523 0.3599492
0.94403487 0.094403468 0.35994923
0.94403487 0.047201768 0.35994923
0.94403487 -1.4901161e-08 0.35994929
0.94403487 -0.047201782 0.35994935
0.94403487 -0.094403476 0.35994935
