# .PCD v0.7 - Point Cloud Data file format
VERSION 0.7
FIELDS x y z
SIZE 4 4 4
TYPE F F F
COUNT 1 1 1
WIDTH 1285
HEIGHT 1
VIEWPOINT 0 0 0 1 0 0 0
POINTS 1285
DATA ascii
-1.0136809 0.69114614 0.30368248
-1.0200394 0.64911586 0.31813359
-1.0264744 0.60655296 0.33275831
-1.0329947 0.56345177 0.34757766
-1.0395948 0.51979738 0.36257738
-1.0462835 0.47558334 0.37777904
-1.0530589 0.43079686 0.39317802
-1.0599185 0.38542479 0.40876797
-1.0668722 0.33945933 0.42457205
-1.0739137 0.29288569 0.44057524
-1.0810529 0.24569389 0.4568007
-1.0882833 0.19786955 0.4732334
-0.95961595 0.68544006 0.28466213
-0.96558517 0.64372343 0.29887474
-0.97162575 0.60148263 0.31325683
-0.97774589 0.55871195 0.32782853
-0.98393989 0.51539719 0.34257638
-0.99021667 0.47153181 0.35752103
-0.99657029 0.42710155 0.37264854
-1.0030097 0.38209903 0.3879807
-1.0095329 0.33651096 0.40351209
-1.0161377 0.29032502 0.41923743
-1.0228333 0.24353179 0.43517977
-1.0296139 0.19611695 0.45132375
-1.0364889 0.14806974 0.46769285
-1.0434563 0.099376827 0.4842822
-1.050514 0.05002442 0.50108582
-1.0576719 -5.9604645e-08 0.51812845
-1.0649238 -0.050710589 0.53539509
-1.0722802 -0.10212183 0.55291021
-1.0797344 -0.15424776 0.57065845
-1.0872976 -0.20710427 0.5886659
-1.0949674 -0.26070642 0.60692734
-1.1027416 -0.31506896 0.6254375
-1.1106316 -0.37021056 0.64422333
-1.1186308 -0.42614481 0.66326857
-1.1267506 -0.48289311 0.68260169
-0.90643638 0.67982721 0.26595306
-0.91202843 0.63841975 0.27993327
-0.91768652 0.59649616 0.29407853
-0.9234187 0.55405116 0.30840886
-0.92921948 0.51107085 0.32291099
-0.9350971 0.46754849 0.337605
-0.94104958 0.42347234 0.35248616
-0.94707465 0.37882978 0.367549
-0.95318103 0.33361343 0.38281509
-0.9593631 0.2878089 0.39826992
-0.96562952 0.2414075 0.41393608
-0.97197455 0.1943948 0.42979866
-0.97840732 0.14676104 0.44588071
-0.98492205 0.09849216 0.46216729
-0.99152797 0.049576432 0.47868198
-0.99822301 -1.4901161e-08 0.4954198
-1.0050051 -0.050250217 0.51237524
-1.0118842 -0.10118847 0.52957261
-1.0188539 -0.1528281 0.54699683
-1.0259243 -0.20518479 0.5646733
-1.0330938 -0.25827345 0.58259678
-1.0403597 -0.31210792 0.60076165
-1.0477329 -0.36670655 0.61919487
-1.055207 -0.4220829 0.63788003
-1.0627931 -0.47825688 0.65684485
-1.0704844 -0.53524226 0.67607337
-1.0782925 -0.59306097 0.69559336
-1.0862153 -0.65172917 0.71540028
-1.0942506 -0.71126276 0.73548859
-0.85412061 0.67430574 0.24754813
-0.85934687 0.63320291 0.2613014
-0.86463428 0.59159201 0.27521586
-0.86999041 0.54946762 0.28931075
-0.87541008 0.50681627 0.30357292
-0.88090098 0.46363214 0.31802261
-0.88645786 0.41990104 0.33264604
-0.89208865 0.37561625 0.34746385
-0.89779139 0.33076531 0.36247128
-0.90356416 0.28533593 0.3776626
-0.90941501 0.23931974 0.39305964
-0.9153387 0.19270283 0.40864831
-0.92134362 0.14547533 0.42445064
-0.92742419 0.097623512 0.44045222
-0.93358928 0.049136177 0.45667601
-0.93983686 4.4703484e-08 0.47311699
-0.94616485 -0.049798161 0.48976964
-0.95258242 -0.10027173 0.50665796
-0.9590838 -0.15143438 0.52376688
-0.96567845 -0.20330079 0.54112124
-0.97236443 -0.2558853 0.55871576
-0.97913957 -0.30920196 0.57654524
-0.98601383 -0.36326835 0.59463561
-0.9929812 -0.41809726 0.61297083
-1.000052 -0.47370884 0.63157809
-1.00722 -0.53011578 0.65044123
-1.0144956 -0.58733952 0.66958761
-1.0218773 -0.64539623 0.68901312
-1.0293627 -0.70430082 0.70871145
-0.80264783 0.66887319 0.2294396
-0.80751932 0.62807059 0.24297155
-0.81244737 0.58676749 0.25666052
-0.8174389 0.54495931 0.27052605
-0.82248914 0.50263232 0.28455454
-0.82760525 0.45978063 0.2987656
-0.83278227 0.41639125 0.31314653
-0.83802766 0.37245658 0.32771665
-0.84333944 0.32796535 0.34247187
-0.84871584 0.28290522 0.35740626
-0.85416448 0.23726796 0.3725414
-0.85968029 0.19104007 0.38786307
-0.86527103 0.14421189 0.40339294
-0.87093168 0.096770212 0.41911697
-0.87667024 0.048703909 0.43505734
-0.88248491 1.4901161e-08 0.45120916
-0.88837379 -0.049354151 0.46756715
-0.89434528 -0.099371642 0.4841547
-0.90039402 -0.15006565 0.50095677
-0.90652877 -0.20145088 0.5179978
-0.91274405 -0.25353992 0.53526241
-0.91904885 -0.30634955 0.55277562
-0.92544132 -0.3598938 0.57053268
-0.93191952 -0.41418657 0.5885278
-0.93849295 -0.46924648 0.6067872
-0.94515586 -0.52508676 0.62529534
-0.95191807 -0.58172756 0.64407903
-0.95877767 -0.63918519 0.66313356
-0.96573687 -0.69747651 0.68246454
-0.75199783 0.66352749 0.21162049
-0.75652516 0.62302071 0.22493625
-0.7611047 0.58202118 0.23840544
-0.76574272 0.5405243 0.25204676
-0.77043486 0.49851656 0.26584709
-0.77518767 0.45599282 0.27982616
-0.77999663 0.41293943 0.29397011
-0.78486848 0.36934987 0.30829915
-0.78980166 0.32521242 0.32280815
-0.7947942 0.28051558 0.33749238
-0.79985327 0.23525092 0.35237199
-0.80497414 0.18940574 0.36743337
-0.81016409 0.14297011 0.38269776
-0.8154183 0.0959315 0.39815134
-0.82074422 0.048279107 0.4138158
-0.82614011 -2.9802322e-08 0.42968613
-0.83160424 -0.048917994 0.44575718
-0.83714449 -0.098487616 0.46205199
-0.84275568 -0.14872152 0.47855532
-0.84844589 -0.19963431 0.49529138
-0.85421014 -0.25123829 0.512245
-0.8600567 -0.30354953 0.52944076
-0.86598378 -0.35658142 0.54687333
-0.87198961 -0.41034806 0.56453764
-0.87808293 -0.46486744 0.58245921
-0.88425833 -0.52015197 0.60062212
-0.89052492 -0.57622206 0.6190533
-0.89688098 -0.63309246 0.63774759
-0.90332842 -0.69078052 0.65671062
-0.702151 0.65826654 0.19408405
-0.70634204 0.61804944 0.20718136
-0.71058601 0.57735115 0.22044356
-0.71488124 0.53616089 0.23386599
-0.71922612 0.49446791 0.24744384
-0.72362673 0.45226663 0.26119575
-0.72807896 0.40954456 0.27510905
-0.73258889 0.36629444 0.28920269
-0.7371524 0.32250428 0.30346367
-0.74177587 0.27816597 0.31791177
-0.74645764 0.23326795 0.33254245
-0.75119615 0.18779896 0.34735021
-0.75599802 0.14174953 0.36235601
-0.76085877 0.095107317 0.37754598
-0.7657854 0.047861576 0.39294159
-0.77077323 4.4703484e-08 0.40852863
-0.77582949 -0.048489347 0.4243294
-0.78095251 -0.097618952 0.44033885
-0.78614056 -0.14740145 0.45655155
-0.79140115 -0.19785023 0.4729909
-0.79672945 -0.24897796 0.48964176
-0.80213314 -0.30080003 0.50652832
-0.80761069 -0.35332966 0.52364564
-0.81316024 -0.40658 0.54098797
-0.8187899 -0.46056932 0.55858088
-0.82449472 -0.5153091 0.57640833
-0.83028299 -0.5708195 0.59449661
-0.83615315 -0.62711489 0.61284083
-0.84210688 -0.68421191 0.63144624
-0.84814596 -0.7421276 0.65031832
-0.66908389 0.66908395 0.23014195
-0.65695572 0.6131587 0.18971474
-0.66087157 0.57275516 0.20276731
-0.66483426 0.5318675 0.21597654
-0.66884243 0.49048442 0.22933707
-0.67290163 0.44860107 0.24286774
-0.67700791 0.4062047 0.25655541
-0.68116719 0.36328927 0.27041963
-0.68537533 0.31984183 0.28444678
-0.68963832 0.27585536 0.29865667
-0.69395471 0.23131821 0.31304461
-0.69832283 0.18621939 0.32760492
-0.70274889 0.14054976 0.34235862
-0.70722878 0.094297156 0.35729176
-0.71176893 0.047451258 0.3724252
-0.71636492 1.4901161e-08 0.38774544
-0.72102344 -0.04806824 0.4032737
-0.725743 -0.096765712 0.41900539
-0.73052186 -0.14610437 0.43493497
-0.73536688 -0.19609787 0.45108524
-0.74027377 -0.24675795 0.46744156
-0.74524957 -0.29809988 0.48402736
-0.75028962 -0.35013518 0.50082779
-0.75540143 -0.40288067 0.51786697
-0.76058334 -0.45634997 0.53514004
-0.76583368 -0.51055568 0.55264121
-0.77116019 -0.56551737 0.57039618
-0.77656132 -0.62124896 0.58840001
-0.78203869 -0.67776692 0.60665786
-0.78759378 -0.73508769 0.625175
-0.70255399 0.75273639 0.50898373
-0.60834491 0.60834491 0.17252275
-0.61194229 0.56823218 0.18537042
-0.61558038 0.52764034 0.19836344
-0.61926407 0.48656464 0.21151951
-0.62299216 0.44499439 0.22483417
-0.62676316 0.4029192 0.23830217
-0.63058233 0.3603327 0.25194213
-0.63444608 0.31722304 0.26574123
-0.63835984 0.27358273 0.27971879
-0.64232212 0.22940071 0.29386973
-0.64633149 0.18466617 0.30818912
-0.65039372 0.13937005 0.32269686
-0.65450484 0.093500622 0.33737957
-0.65867072 0.047047853 0.35225773
-0.66288751 2.9802322e-08 0.36731774
-0.66716117 -0.047654405 0.38258058
-0.67149031 -0.095927164 0.39804173
-0.67587334 -0.14483003 0.4136956
-0.68031663 -0.19437622 0.42956442
-0.68481606 -0.24457707 0.4456338
-0.68937808 -0.29544768 0.46192679
-0.69400132 -0.34700066 0.47843838
-0.69868422 -0.39924806 0.4951629
-0.70343345 -0.45220721 0.51212478
-0.70824784 -0.50589126 0.52931881
-0.71312565 -0.56031287 0.54673952
-0.71807402 -0.61549187 0.5644123
-0.72309154 -0.67144215 0.58233213
-0.72817969 -0.72817969 0.60050398
-0.66104722 0.76274693 0.54235172
-0.56049132 0.6036061 0.15559831
-0.56377983 0.56377971 0.16824609
-0.56710511 0.52348167 0.18103585
-0.57047182 0.48270699 0.19398478
-0.57387877 0.44144517 0.20708846
-0.57732463 0.39968628 0.22034162
-0.58081424 0.35742414 0.23376313
-0.58434415 0.31464681 0.24733961
-0.58791935 0.2713474 0.26109037
-0.5915364 0.22751398 0.27500224
-0.59520042 0.18313867 0.28909454
-0.59891009 0.13820997 0.30336243
-0.60266411 0.092717633 0.317801
-0.60646766 0.046651378 0.33243021
-0.61031729 -2.9802322e-08 0.34723651
-0.61421841 -0.047247648 0.36224091
-0.61816978 -0.095102966 0.37743825
-0.62216991 -0.14357765 0.3928234
-0.62622452 -0.19268441 0.40841812
-0.63032991 -0.2424345 0.42420816
-0.63449192 -0.29284239 0.44021606
-0.63870686 -0.3439191 0.4564271
-0.64298064 -0.39568034 0.47286469
-0.64731199 -0.44813898 0.48952371
-0.65170205 -0.50130916 0.50640863
-0.65615213 -0.55520576 0.52352434
-0.66066068 -0.60984075 0.54086512
-0.66523445 -0.66523439 0.558456
-0.66987181 -0.7214005 0.5762924
-0.67457443 -0.77835506 0.59437925
-0.61842418 0.7730301 0.57662946
-0.51337761 0.59894049 0.13893566
-0.51636618 0.55939662 0.151388
-0.51938802 0.51938796 0.16397895
-0.52244723 0.47890997 0.17672573
-0.52554268 0.43795228 0.18962353
-0.52867317 0.39650482 0.20266721
-0.53184313 0.3545621 0.21587515
-0.53504932 0.31211206 0.22923455
-0.5382964 0.26914829 0.24276388
-0.54158312 0.22565955 0.25645852
-0.54490823 0.1816361 0.27031317
-0.54827642 0.13706914 0.28434739
-0.5516845 0.091947466 0.29854766
-0.55513722 0.04626143 0.31293416
-0.55863142 2.9802322e-08 0.32749322
-0.56217194 -0.046847641 0.34224546
-0.56575763 -0.094292954 0.35718584
-0.56938726 -0.14234686 0.37230921
-0.57306588 -0.19102192 0.38763678
-0.57679015 -0.24032928 0.40315467
-0.58056539 -0.29028261 0.41888469
-0.58438814 -0.34089309 0.43481272
-0.58826381 -0.39217582 0.45096126
-0.59219122 -0.44414335 0.46732563
-0.59617144 -0.49680951 0.48390985
-0.60020548 -0.55018842 0.50071853
-0.6042946 -0.6042946 0.51775628
-0.60843968 -0.65914315 0.5350278
-0.61263967 -0.71474612 0.55252743
-0.6169005 -0.7711255 0.57028091
-0.59259689 0.80808663 0.69348449
-0.46698657 0.59434658 0.12252857
-0.46968415 0.55508119 0.13479012
-0.47241142 0.51535791 0.14718704
-0.47517225 0.47517222 0.15973614
-0.47796553 0.43451411 0.17243272
-0.48079014 0.39337367 0.18527183
-0.48365003 0.35174549 0.19827135
-0.4865424 0.30961794 0.21141876
-0.48947135 0.26698434 0.22473204
-0.49243402 0.22383365 0.23819877
-0.49543455 0.180158 0.25183755
-0.49847186 0.13594687 0.26564348
-0.50154483 0.091189951 0.27961153
-0.50465775 0.045878045 0.29376119
-0.50780773 1.4901161e-08 0.30807921
-0.51099914 -0.046454519 0.32258558
-0.51423091 -0.093496561 0.33727551
-0.51750189 -0.14113687 0.35214356
-0.52081668 -0.18938789 0.36721089
-0.52417231 -0.23826014 0.3824636
-0.52757335 -0.28776729 0.39792311
-0.53101689 -0.3379198 0.41357538
-0.53450769 -0.38873294 0.42944261
-0.53804469 -0.44021842 0.44551983
-0.54162878 -0.49238983 0.4618113
-0.54526103 -0.54526109 0.47832131
-0.54894227 -0.59884602 0.49505436
-0.55267352 -0.6531598 0.51201469
-0.55645365 -0.70821375 0.52919692
-0.56028807 -0.7640292 0.54662621
-0.42130178 0.58982253 0.10637122
-0.42371681 0.55083191 0.11844653
-0.42615828 0.51138997 0.13065363
-0.42862946 0.47149247 0.14300968
-0.43112949 0.43112946 0.1555097
-0.43365738 0.39029163 0.16814911
-0.43621656 0.34897316 0.18094517
-0.43880463 0.3071633 0.19388543
-0.44142514 0.26485506 0.20698802
-0.44407555 0.22203781 0.22024009
-0.44675958 0.17870386 0.2336601
-0.44947624 0.13484287 0.24724355
-0.45222452 0.090444885 0.2609849
-0.45500827 0.04550083 0.27490363
-0.45782483 2.9802322e-08 0.28898638
-0.46067816 -0.046067759 0.30325305
-0.46356556 -0.092713118 0.31769013
-0.46649116 -0.13994735 0.33231804
-0.46945387 -0.18778153 0.34713167
-0.47245267 -0.23622631 0.36212575
-0.47549188 -0.28529507 0.37732163
-0.47857043 -0.33499917 0.39271438
-0.48168725 -0.38534975 0.40829843
-0.48484677 -0.43636215 0.42409623
-0.48804805 -0.48804799 0.44010258
-0.49129191 -0.54042107 0.45632166
-0.49457917 -0.59349507 0.47275797
-0.49791068 -0.64728391 0.48941565
-0.50128734 -0.70180237 0.5062992
-0.5047102 -0.75706524 0.52341318
-0.37630722 0.58536673 0.090457916
-0.37844795 0.54664707 0.10235095
-0.3806119 0.50748253 0.11437286
-0.38280204 0.46786913 0.12654009
-0.38501751 0.42779726 0.13884847
-0.38725746 0.38725752 0.1512927
-0.38952497 0.34624451 0.16388988
-0.39181784 0.30474725 0.17662799
-0.3941392 0.26275948 0.18952446
-0.39648688 0.22027045 0.20256718
-0.39886409 0.17727299 0.21577387
-0.40126997 0.13375662 0.22913995
-0.4037036 0.089711815 0.24266016
-0.40616843 0.045129813 0.25635341
-0.40866202 -2.9802322e-08 0.27020681
-0.41118795 -0.045687497 0.28423965
-0.41374373 -0.091943085 0.29843864
-0.41633308 -0.13877767 0.31282374
-0.418955 -0.1862022 0.32739004
-0.4216086 -0.23422696 0.34213227
-0.4242976 -0.28286502 0.35707128
-0.42702115 -0.33212745 0.37220204
-0.42977986 -0.38202646 0.38752818
-0.43257284 -0.43257281 0.40304464
-0.43540397 -0.48378229 0.41877332
-0.43827245 -0.53566629 0.43470913
-0.44117898 -0.58823866 0.4508566
-0.44412428 -0.64151281 0.46721923
-0.44710919 -0.69550323 0.48380235
-0.45013449 -0.75022411 0.50060952
-0.453201 -0.80569071 0.51764566
-0.33198738 0.58097792 0.074783415
-0.33386177 0.54252541 0.086498246
-0.33575627 0.50363445 0.098339006
-0.33767354 0.46430117 0.11032206
-0.33961174 0.42451465 0.12243541
-0.34157342 0.38427013 0.1346961
-0.34355789 0.34355795 0.1470992
-0.34556442 0.30236882 0.15963992
-0.34759569 0.26069668 0.17233539
-0.34964979 0.21853109 0.18517336
-0.35172951 0.17586479 0.19817175
-0.35383412 0.13268787 0.21132559
-0.35596284 0.088990793 0.22463001
-0.35811856 0.044764824 0.23810343
-0.36029932 -3.7252903e-08 0.25173292
-0.36250806 -0.045313425 0.26553762
-0.36474273 -0.091185689 0.2795043
-0.36700645 -0.13762739 0.29365274
-0.36929846 -0.18464917 0.3079778
-0.37161791 -0.23226111 0.32247439
-0.37396806 -0.28047603 0.33716276
-0.37634814 -0.32930467 0.35203823
-0.3787587 -0.3787587 0.3671042
-0.38120034 -0.42885047 0.38236448
-0.38367224 -0.4795903 0.39781359
-0.38617784 -0.53099442 0.41347361
-0.38871637 -0.58307457 0.42933962
-0.39128852 -0.63584381 0.44541547
-0.39389494 -0.68931597 0.46170548
-0.39653629 -0.74350554 0.47821414
-0.39921331 -0.79842663 0.49494562
-0.28832719 0.57665431 0.059342086
-0.28994286 0.53846526 0.070882723
-0.29157579 0.49984425 0.082546428
-0.29322821 0.46078715 0.094349414
-0.29489842 0.42128348 0.10627964
-0.29658881 0.38132849 0.11835377
-0.29829866 0.34091285 0.13056721
-0.30002737 0.30002734 0.14291489
-0.30177724 0.25866625 0.15541393
-0.30354658 0.21681894 0.16805221
-0.30533785 0.17447877 0.18084717
-0.30715042 0.13163592 0.19379383
-0.3089835 0.088281035 0.20688739
-0.31083974 0.044405669 0.22014616
-0.31271729 -4.4703484e-08 0.23355722
-0.31461877 -0.044945583 0.24713936
-0.31654242 -0.090440661 0.26087928
-0.31849083 -0.13649608 0.27479678
-0.32046339 -0.18312189 0.28888664
-0.3224594 -0.23032811 0.30314353
-0.32448158 -0.27812707 0.31758776
-0.32652929 -0.32652932 0.33221436
-0.328603 -0.37554628 0.34702671
-0.33070326 -0.42518994 0.36202833
-0.33283049 -0.47547212 0.37722304
-0.33498403 -0.52640355 0.39260539
-0.33716688 -0.57800037 0.40819716
-0.33937842 -0.63027418 0.42399365
-0.34161907 -0.68323815 0.43999863
-0.34388956 -0.73690611 0.45621639
-0.34619045 -0.79129237 0.47265109
-0.24531199 0.57239473 0.044128984
-0.24667643 0.53446555 0.055499181
-0.24805532 0.49611062 0.066989958
-0.2494505 0.45732597 0.07861647
-0.25086066 0.4181011 0.090367824
-0.25228769 0.37843156 0.10225964
-0.25373104 0.33830804 0.11428773
-0.25519016 0.29772186 0.12644693
-0.25666702 0.25666699 0.13875401
-0.25816017 0.21513346 0.15119714
-0.25967172 0.17311457 0.1637933
-0.26120016 0.13060005 0.17653018
-0.26274759 0.087582476 0.18942562
-0.26431349 0.044052266 0.20247474
-0.26589724 1.4901161e-08 0.21567249
-0.267501 -0.044583507 0.22903733
-0.26912329 -0.089707829 0.24255642
-0.27076635 -0.13538313 0.25624841
-0.27242959 -0.18161969 0.27010873
-0.27411237 -0.22842693 0.28413188
-0.2758171 -0.2758171 0.29833803
-0.27754316 -0.32380041 0.31272188
-0.27929094 -0.37238795 0.32728684
-0.2810609 -0.42159131 0.34203658
-0.28285345 -0.47142231 0.35697421
-0.28466898 -0.52189302 0.37210369
-0.28650796 -0.57301587 0.38742858
-0.28836977 -0.62480122 0.40294373
-0.29025707 -0.67726648 0.41867113
-0.29216921 -0.73042291 0.43460566
-0.29410672 -0.78428453 0.45075157
-0.2960701 -0.83886522 0.46711308
-0.20292766 0.56819749 0.029138952
-0.20404804 0.53052485 0.040342525
-0.20518017 0.49243236 0.05166398
-0.20632562 0.45391637 0.063118294
-0.20748323 0.41496634 0.074694574
-0.20865461 0.37557825 0.086408406
-0.20983928 0.33574283 0.098255031
-0.21103679 0.29545155 0.11023013
-0.21224876 0.25469846 0.12234973
-0.21347399 0.21347395 0.13460213
-0.21471418 0.17177135 0.1470041
-0.21596813 0.1295809 0.15954357
-0.21723756 0.086895078 0.17223793
-0.21852203 0.04370442 0.18508242
-0.21982098 7.4505806e-09 0.19807199
-0.22113624 -0.044227272 0.2112247
-0.22246656 -0.08898662 0.22452793
-0.22381377 -0.13428828 0.23800005
-0.22517741 -0.18014196 0.25163642
-0.22655776 -0.22655775 0.2654399
-0.22795431 -0.27354512 0.27940542
-0.22936903 -0.3211166 0.29355249
-0.23080142 -0.36928231 0.30787626
-0.23225179 -0.41805321 0.3223801
-0.23372051 -0.46744108 0.33706748
-0.23520793 -0.51745749 0.3519417
-0.23671441 -0.56811458 0.36700642
-0.23824033 -0.61942482 0.38226545
-0.2397851 -0.6713981 0.39771307
-0.24135096 -0.72405291 0.41337198
-0.24293745 -0.77739978 0.42923641
-0.24454488 -0.83145243 0.44531098
-0.16116039 0.56406128 0.014367074
-0.16204365 0.52664185 0.025407746
-0.16293611 0.48880827 0.03656359
-0.16383898 0.45055723 0.047849625
-0.16475138 0.41187841 0.059254602
-0.16567455 0.37276769 0.070794284
-0.16660759 0.33321515 0.082456946
-0.16755173 0.29321548 0.09425886
-0.16850662 0.25275987 0.10619514
-0.1694719 0.21183994 0.11826113
-0.1704489 0.1704489 0.13047345
-0.17143662 0.12857753 0.14282015
-0.17243648 0.086218148 0.15531802
-0.17344803 0.04336204 0.16796266
-0.17447093 -4.4703484e-08 0.18074879
-0.17550658 -0.043876685 0.19369438
-0.17655398 -0.088276945 0.20678696
-0.17761457 -0.13321093 0.22004452
-0.17868799 -0.17868803 0.23346223
-0.17977446 -0.22471806 0.24704309
-0.18087423 -0.27131134 0.26079014
-0.18198688 -0.31847706 0.27469823
-0.18311396 -0.36622784 0.28878683
-0.18425509 -0.41457406 0.30305097
-0.18541054 -0.46352628 0.31749412
-0.18658057 -0.51309651 0.33211941
-0.18776546 -0.56329638 0.3469305
-0.18896548 -0.61413789 0.36193091
-0.19018096 -0.66563326 0.3771244
-0.19141145 -0.71779287 0.39250541
-0.19265869 -0.77063477 0.40809596
-0.19392231 -0.82416987 0.42389116
-0.11999679 0.55998504 -0.0001912117
-0.12064967 0.52281517 0.010690033
-0.1213093 0.48523721 0.021683902
-0.12197657 0.44724745 0.03280513
-0.12265084 0.4088361 0.0440429
-0.12333298 0.36999893 0.055412039
-0.12402237 0.33072627 0.066901758
-0.12471991 0.29101306 0.078527316
-0.12542534 0.25085068 0.090284631
-0.12613837 0.21023068 0.10216849
-0.12685999 0.16914673 0.11419551
-0.12758948 0.12758946 0.12635368
-0.12832785 0.085551955 0.13865964
-0.12907436 0.04302476 0.15110172
-0.12983006 -2.2351742e-08 0.16369665
-0.13059466 -0.043531537 0.17643988
-0.13136786 -0.08757855 0.1893267
-0.13215075 -0.13215066 0.20237468
-0.132943 -0.17725731 0.21557903
-0.13374482 -0.22290808 0.22894272
-0.13455638 -0.26911268 0.24246855
-0.13537784 -0.31588161 0.25615963
-0.13620891 -0.36322373 0.27001056
-0.13705072 -0.41115218 0.28404099
-0.13790302 -0.45967662 0.29824588
-0.13876598 -0.50880849 0.31262848
-0.13963979 -0.55855912 0.32719228
-0.14052472 -0.6089403 0.34194064
-0.1414209 -0.65996426 0.35687727
-0.14232859 -0.71164286 0.37200546
-0.14324747 -0.76398659 0.38732022
-0.14417885 -0.81701344 0.40284306
-0.079423882 0.55596721 -0.014540553
-0.079852894 0.5190438 -0.0038153231
-0.080286309 0.48171785 0.0070200264
-0.080724709 0.443986 0.017980084
-0.081167668 0.40583831 0.029053971
-0.081615776 0.36727098 0.040256605
-0.082068592 0.32827437 0.051577076
-0.082526736 0.28884357 0.063030638
-0.082990013 0.24897012 0.074612617
-0.083458252 0.20864561 0.086318515
-0.083932079 0.16786417 0.098164365
-0.08441104 0.12661657 0.11013818
-0.084895782 0.084895864 0.12225676
-0.085385829 0.042692911 0.13450803
-0.085881874 4.4703484e-08 0.146909
-0.0863837 -0.043191861 0.15945478
-0.086891137 -0.086891145 0.1721406
-0.087404869 -0.13110723 0.18498388
-0.087924711 -0.17584938 0.19798002
-0.088450775 -0.22112691 0.21113156
-0.088983171 -0.26694956 0.2244415
-0.089522019 -0.31332707 0.23791268
-0.090067424 -0.36026967 0.25154781
-0.090619519 -0.40778789 0.26535025
-0.091178097 -0.45589051 0.27931461
-0.091743931 -0.50459158 0.29346055
-0.092316844 -0.55390096 0.30778319
-0.092896946 -0.60383022 0.32228601
-0.093484394 -0.65439087 0.33697212
-0.094079316 -0.70559484 0.35184506
-0.094681859 -0.75745463 0.36690849
-0.095291801 -0.80998033 0.38215721
-0.095910028 -0.86319029 0.39761287
-0.039429042 0.5520066 -0.02868554
-0.039640371 0.51532483 -0.018119141
-0.039854102 0.47824925 -0.00743258
-0.04007015 0.44077164 0.0033696741
-0.040288422 0.40288424 0.014283374
-0.040509216 0.36458305 0.025323123
-0.040732313 0.32585844 0.036478013
-0.040958017 0.28670615 0.047763087
-0.041186232 0.24711746 0.05917383
-0.041416869 0.20708434 0.070705779
-0.041650239 0.16660105 0.082374364
-0.041886121 0.12565836 0.094168201
-0.042124826 0.084249608 0.1061036
-0.042366128 0.04236608 0.1181687
-0.042610351 -7.4505806e-08 0.13037989
-0.042857409 -0.042857349 0.14273265
-0.043107349 -0.086214617 0.15522966
-0.043360069 -0.13008021 0.16786563
-0.043615919 -0.1744637 0.18065828
-0.043874811 -0.21937415 0.19360282
-0.044136792 -0.26482084 0.20670192
-0.044401921 -0.3108134 0.21995835
-0.044670258 -0.35736206 0.23337501
-0.044941854 -0.40447664 0.24695496
-0.045216609 -0.45216617 0.26069278
-0.04549491 -0.50044405 0.27460799
-0.045776661 -0.54931992 0.28869534
-0.046061926 -0.59880501 0.3029584
-0.046350762 -0.64891064 0.3174004
-0.046643242 -0.69964856 0.33202437
-0.046939444 -0.7510311 0.34683439
-0.047239423 -0.80307019 0.36183351
-0.04754309 -0.85577571 0.3770169
0 0.55228662 -0.027685761
0 0.51166189 -0.032207236
0 0.47483015 -0.021678701
0 0.4376035 -0.011030599
0 0.39997286 -0.00027371943
0 0.36193407 0.010606691
0 0.32347792 0.021599531
0 0.28460008 0.032719895
0 0.24529134 0.043956518
0 0.20554632 0.055324897
0 0.16535664 0.066820294
0 0.12471454 0.078438222
0 0.083613276 0.090194426
0 0.042044245 0.10207729
0 -2.6077032e-08 0.11410317
0 -0.042528152 0.12626752
0 -0.085548416 0.13857262
0 -0.12906952 0.1510208
0 -0.17309961 0.16360754
0 -0.21764877 0.1763498
0 -0.26272565 0.18924302
0 -0.30833986 0.20228997
0 -0.35450098 0.21549337
0 -0.4012188 0.22885597
0 -0.44850358 0.24238077
0 -0.49636582 0.25607064
0 -0.54481393 0.26992047
0 -0.59386277 0.28394991
0 -0.64352167 0.29815364
0 -0.69380194 0.3125352
0 -0.74471539 0.32709771
0 -0.79627419 0.3418451
0 -0.84849054 0.35678035
0.062902689 0.88063759 1.1449968
0.039080583 0.50804758 -0.046108544
0.039288305 0.47145966 -0.035722524
0.039498243 0.43448076 -0.02522552
0.039710313 0.39710325 -0.014621869
0.039924804 0.3593232 -0.003897503
0.040141493 0.32113189 0.0069369376
0.040360678 0.28252465 0.017896071
0.040582135 0.24349284 0.028969005
0.040806171 0.20403089 0.040170774
0.041032694 0.16413082 0.051496889
0.04126161 0.12378471 0.062942728
0.041493233 0.082986429 0.074523799
0.041727331 0.041727342 0.086228669
0.041964225 1.1175871e-08 0.098073497
0.042203825 -0.04220384 0.11005346
0.042446174 -0.084892407 0.1221711
0.042691324 -0.12807398 0.13442849
0.042939328 -0.17175721 0.14682855
0.043190073 -0.21595034 0.1593661
0.043443922 -0.26066351 0.17205824
0.043700766 -0.30590537 0.18490061
0.043960668 -0.35168529 0.19789565
0.044223681 -0.39801309 0.21104616
0.044489857 -0.44489861 0.2243551
0.044759259 -0.49235186 0.23782516
0.045031942 -0.54038316 0.25145921
0.045307804 -0.58900154 0.26525247
0.045587234 -0.6382212 0.27922404
0.045870129 -0.68805194 0.29336882
0.046156563 -0.73850501 0.30769035
0.046446592 -0.78959203 0.32219186
0.04674029 -0.84132528 0.33687687
0.047037724 -0.89371681 0.3517485
0.1279096 0.89536703 1.1976022
0.07761316 0.50448549 -0.059808865
0.078022778 0.46813658 -0.0495684
0.078436747 0.43140209 -0.039219156
0.078854881 0.39427441 -0.028765738
0.079277754 0.35674989 -0.01819396
0.079704925 0.31881964 -0.007514596
0.080136985 0.28047937 0.0032868087
0.080573492 0.24172044 0.014199726
0.08101505 0.20253766 0.025238536
0.081461474 0.16292296 0.036399052
0.08191257 0.12286885 0.047676548
0.082368962 0.082368955 0.059086297
0.082830206 0.041415125 0.070617206
0.08329691 4.4703484e-08 0.08228489
0.083768904 -0.041884392 0.09408468
0.084246278 -0.08424633 0.1060192
0.08472912 -0.12709376 0.11809032
0.085217535 -0.170435 0.13030061
0.085711613 -0.21427898 0.1426525
0.086211152 -0.25863349 0.15514114
0.086716853 -0.30350903 0.16778362
0.087228522 -0.34891406 0.18057536
0.087746263 -0.39485812 0.19351882
0.088270187 -0.441351 0.20661695
0.0888004 -0.48840228 0.21987243
0.089337029 -0.53602213 0.23328803
0.089880176 -0.58422112 0.24686682
0.090429656 -0.63300741 0.26060361
0.090986215 -0.68239653 0.27451754
0.091549665 -0.73239744 0.28860402
0.092120141 -0.78302115 0.3028658
0.092697769 -0.83427989 0.31730658
0.093282692 -0.88618541 0.3319295
0.19512911 0.91060245 1.252014
0.11560916 0.50097299 -0.073318392
0.11621504 0.46486014 -0.063220382
0.11682731 0.42836672 -0.053015873
0.11744571 0.39148566 -0.04270941
0.11807104 0.35421306 -0.032287166
0.11870269 0.31654057 -0.021759465
0.11934153 0.27846351 -0.011112273
0.11998688 0.23997375 -0.00035620481
0.12063966 0.20106608 0.010523178
0.12129956 0.16173285 0.021521762
0.12196634 0.12196632 0.032634579
0.12264089 0.081760615 0.043877088
0.12332293 0.041107733 0.055244379
0.1240122 2.9802322e-08 0.066732176
0.12470962 -0.041569874 0.078355998
0.12541494 -0.083610021 0.090111278
0.12612829 -0.12612827 0.10200023
0.12684977 -0.16913298 0.11402519
0.12757957 -0.2126326 0.12618858
0.12831782 -0.25663561 0.13849266
0.12906423 -0.30114985 0.15093268
0.12981981 -0.34618622 0.16352579
0.1305843 -0.39175287 0.17626707
0.13135783 -0.43785933 0.18915936
0.13214058 -0.48451543 0.20220536
0.13293272 -0.53173083 0.21540767
0.13373442 -0.57951581 0.2287692
0.13454585 -0.62788057 0.24229294
0.13536669 -0.67683333 0.25597376
0.1361981 -0.72638988 0.26983061
0.1370398 -0.77655864 0.28385869
0.13789195 -0.82735169 0.29806152
0.13875477 -0.87878019 0.31244171
0.2646744 0.92636031 1.3082924
0.15307973 0.49750912 -0.086641014
0.15387641 0.46162924 -0.076682597
0.15468095 0.42537257 -0.066625819
0.15549444 0.38873613 -0.056457236
0.15631652 0.35171217 -0.046181276
0.15714684 0.31429374 -0.035802141
0.15798654 0.27647647 -0.025306068
0.15883476 0.23825207 -0.014703207
0.15969263 0.19961579 -0.0039797202
0.16055931 0.16055927 0.0068537965
0.16143599 0.12107696 0.017812073
0.16232227 0.081161067 0.028890641
0.16321833 0.040804509 0.040091526
0.16412435 -4.2840838e-08 0.051416799
0.16503996 -0.041260019 0.062861688
0.16596636 -0.082983166 0.074441858
0.16690324 -0.1251775 0.086152732
0.16785075 -0.16785073 0.09799654
0.16880907 -0.21101139 0.10997579
0.16977841 -0.25466767 0.12209249
0.17075895 -0.29882818 0.13434905
0.17175087 -0.34350169 0.1467481
0.1727538 -0.38869601 0.15928461
0.1737691 -0.43442279 0.17197591
0.1747964 -0.48069006 0.18481721
0.17583592 -0.52750772 0.19781134
0.17688788 -0.57488561 0.21096094
0.17795251 -0.62283385 0.22426876
0.17903005 -0.67136264 0.23773783
0.18012005 -0.72048008 0.2513628
0.18122406 -0.77020222 0.26516294
0.18234168 -0.82053763 0.27913338
0.18347317 -0.87149763 0.293277
0.32735744 0.9166007 1.2734367
0.19003569 0.4940927 -0.099780843
0.19101787 0.45844287 -0.08995901
0.19200969 0.42242134 -0.080040842
0.19301243 0.38602489 -0.070013374
0.19402573 0.34924632 -0.05988054
0.19504909 0.31207848 -0.04964675
0.19608392 0.27451748 -0.039298564
0.19712919 0.23655508 -0.028845884
0.19818626 0.19818631 -0.018274955
0.19925413 0.15940331 -0.0075965077
0.20033418 0.12020045 0.0032040887
0.20142601 0.080570459 0.014122415
0.2025298 0.040506009 0.025160383
0.20364577 1.4901161e-08 0.036320001
0.2047741 -0.040954769 0.047603279
0.20591433 -0.08236561 0.059005622
0.20706803 -0.12424082 0.070542388
0.20823468 -0.16658777 0.082209229
0.20941459 -0.20941466 0.094008163
0.21060795 -0.25272951 0.10594175
0.21181497 -0.29654092 0.11801202
0.21303591 -0.34085748 0.13022134
0.21427101 -0.38568789 0.14257234
0.21551977 -0.43103951 0.15506008
0.21678393 -0.47692466 0.16770157
0.218063 -0.52335119 0.18049221
0.21935725 -0.57032883 0.19343488
0.22066697 -0.61786735 0.20653184
0.2219924 -0.66597724 0.21978638
0.22333387 -0.71466827 0.23320086
0.22469084 -0.7639488 0.24677056
0.22606522 -0.81383479 0.26051435
0.22745651 -0.8643347 0.27442726
0.22886503 -0.91545999 0.28851247
0.36775219 0.85808849 1.064464
0.22648756 0.49072307 -0.11274137
0.22765012 0.45530027 -0.10305327
0.22882399 0.41951066 -0.093271136
0.23001073 0.38335118 -0.083381653
0.23120983 0.34681481 -0.073389128
0.2324208 0.30989438 -0.063297786
0.23364525 0.27258617 -0.053094022
0.23488192 0.23488191 -0.042788498
0.23613249 0.19677711 -0.032367103
0.23739569 0.15826383 -0.021840289
0.23867325 0.11933671 -0.011193842
0.23996465 0.079988144 -0.00043237209
0.2412701 0.04021164 0.010446261
0.2425898 5.5879354e-08 0.021443808
0.24392404 -0.040653966 0.032562524
0.24527302 -0.081757642 0.043804068
0.24663621 -0.12331818 0.055163946
0.24801545 -0.16534361 0.06665761
0.24941021 -0.20784184 0.078280523
0.25082073 -0.25082064 0.090034984
0.2522473 -0.29428852 0.10192314
0.25369021 -0.33825356 0.11394711
0.25514969 -0.38272458 0.12610972
0.25662607 -0.42771018 0.13841294
0.25811875 -0.47321779 0.15085201
0.25962982 -0.51925969 0.16344412
0.26115865 -0.5658437 0.17618442
0.26270562 -0.61297971 0.18907563
0.26427099 -0.66067743 0.20212062
0.26585519 -0.70894706 0.21532206
0.26745841 -0.75779885 0.22868252
0.26908019 -0.80724049 0.24219719
0.27072272 -0.8572886 0.25588492
0.27238542 -0.90795124 0.26974064
0.40329912 0.80659825 0.88057029
0.2624456 0.48739898 -0.12552623
0.26378357 0.45220041 -0.1159694
0.26513442 0.41663986 -0.10632025
0.26650003 0.38071436 -0.096566036
0.26787895 0.34441578 -0.086716667
0.26927301 0.30774063 -0.076758869
0.27068168 0.27068162 -0.066696927
0.27210435 0.23323232 -0.056535162
0.27354288 0.19538772 -0.046260014
0.2749967 0.15714103 -0.035875682
0.27646518 0.11848514 -0.025386415
0.27795032 0.079414368 -0.014778353
0.27945149 0.039921682 -0.0040556435
0.28096896 4.6566129e-10 0.0067835608
0.28250301 -0.040357556 0.017740946
0.28405392 -0.081158265 0.028818855
0.28562191 -0.12240942 0.04001886
0.28720641 -0.16411789 0.05133665
0.28880951 -0.20629248 0.062787384
0.29043061 -0.2489405 0.074366815
0.29207003 -0.29207009 0.086076781
0.29372805 -0.33568913 0.097919822
0.295405 -0.37980643 0.10989802
0.29710123 -0.42443034 0.12201387
0.29881701 -0.46956956 0.13426952
0.30055171 -0.51523155 0.14666036
0.30230772 -0.56142867 0.15920325
0.30408439 -0.60816878 0.17189361
0.30588204 -0.65546149 0.18473388
0.30770108 -0.70331669 0.19772698
0.30954188 -0.75174439 0.21087551
0.31140479 -0.80075514 0.22418228
0.31328923 -0.85035652 0.2376425
0.31519768 -0.90056467 0.25127417
0.45377514 0.79410648 0.83595675
0.29791978 0.48411959 -0.13813919
0.29942831 0.44914246 -0.12871081
0.3009513 0.41380799 -0.11919211
0.3024908 0.37811348 -0.10957028
0.30404609 0.3420518 -0.099849612
0.30561656 0.30561659 -0.090034261
0.30720425 0.26880372 -0.080111146
0.30880761 0.23160574 -0.070090219
0.31042874 0.19401789 -0.059958179
0.31206694 0.15603343 -0.049719185
0.31372258 0.11764595 -0.039371762
0.31539485 0.078848705 -0.028919872
0.31708607 0.039635696 -0.018349834
0.3187955 -1.1571683e-07 -0.0076658092
0.32052347 -0.040065542 0.0031339861
0.3222703 -0.080567576 0.014051657
0.32403624 -0.12151362 0.025088858
0.32582167 -0.16291076 0.036247604
0.32762578 -0.20476608 0.047523476
0.32945111 -0.24708831 0.058931567
0.33129686 -0.28988475 0.070467591
0.33316338 -0.33316344 0.082133457
0.33505112 -0.3769325 0.093931645
0.33696035 -0.42120028 0.10586427
0.33889142 -0.46597564 0.11793356
0.34084478 -0.5112673 0.13014214
0.34281963 -0.55708194 0.14248489
0.34481868 -0.60343266 0.15497893
0.34684119 -0.65032732 0.16761956
0.34888753 -0.69777507 0.18040937
0.35095817 -0.74578625 0.19335091
0.35305354 -0.79437029 0.20644686
0.35517409 -0.84353846 0.2197004
0.357319 -0.89329743 0.23310596
0.35949126 -0.94366443 0.24668247
0.33291978 0.48088413 -0.15058352
0.33459419 0.4461256 -0.14128104
0.33628458 0.4110145 -0.13189007
0.33799312 0.37554798 -0.12239806
0.33971813 0.33971813 -0.11281487
0.34146181 0.30352163 -0.10312758
0.34322354 0.26695162 -0.093340315
0.34500244 0.23000158 -0.083457395
0.34680095 0.19266723 -0.07346569
0.34861833 0.1549415 -0.063369162
0.35045484 0.11681823 -0.053166255
0.35231084 0.078291267 -0.042855307
0.35418546 0.039353929 -0.032440778
0.35608125 1.5832484e-08 -0.021908505
0.35799745 -0.039777495 -0.011262976
0.35993439 -0.079985335 -0.00050215051
0.36189243 -0.12063075 0.010375634
0.36387184 -0.16172081 0.021372557
0.36587307 -0.20326284 0.032490373
0.36789519 -0.24526343 0.043724537
0.36994103 -0.28773183 0.055090241
0.37200975 -0.33067536 0.066583171
0.37410173 -0.37410167 0.078205273
0.37621734 -0.41801924 0.089958712
0.37835705 -0.46243644 0.10184593
0.38052124 -0.50736165 0.11386912
0.38271031 -0.55280381 0.12603077
0.38492343 -0.59876972 0.1383258
0.38716361 -0.64527273 0.15077128
0.38943002 -0.69232011 0.16336244
0.3917231 -0.73992133 0.17610171
0.39404336 -0.78808659 0.18899202
0.39639127 -0.83682615 0.20203614
0.39876732 -0.88614964 0.21523628
0.40117061 -0.93606484 0.22858787
0.36745504 0.47769153 -0.16286261
0.36929086 0.44314903 -0.15368356
0.371144 0.40825838 -0.14441773
0.37301692 0.37301701 -0.13505295
0.37490779 0.33741698 -0.12559879
0.37681901 0.30145523 -0.11604271
0.37874985 0.26512492 -0.1063886
0.38069937 0.22841963 -0.09664081
0.38267028 0.19133517 -0.086786307
0.38466167 0.1538647 -0.076829374
0.38667393 0.1160022 -0.066768199
0.38870731 0.077741511 -0.056601193
0.39076224 0.039076168 -0.046326715
0.39283773 -3.1664968e-08 -0.035949036
0.39493665 -0.039493583 -0.025454514
0.39705813 -0.079411715 -0.014847148
0.3992025 -0.11976073 -0.0041251183
0.4013702 -0.16054811 0.006713137
0.4035615 -0.20178084 0.017669894
0.40577692 -0.24346617 0.028746985
0.40801549 -0.28561085 0.039939679
0.41028017 -0.32822415 0.051263183
0.41257015 -0.37131312 0.062713102
0.41488588 -0.41488582 0.074291646
0.41722772 -0.45895049 0.086000875
0.41959614 -0.50351536 0.097842991
0.42199159 -0.54858905 0.10982023
0.42441458 -0.59418035 0.12193516
0.42686412 -0.64029622 0.1341828
0.42934352 -0.68694949 0.14657983
0.43185192 -0.7341482 0.15912175
0.4343898 -0.78190148 0.17181122
0.43695766 -0.83021963 0.18465063
0.43955609 -0.87911212 0.19764259
0.44218558 -0.9285897 0.2107901
0.40153477 0.47454116 -0.1749796
0.40352753 0.44021189 -0.16592157
0.40553901 0.40553904 -0.15677851
0.40757185 0.37051982 -0.14753845
0.40962395 0.33514684 -0.13821074
0.41169801 0.29941672 -0.12878305
0.41379321 0.26332295 -0.11925951
0.4159086 0.22685924 -0.10964396
0.41804698 0.19002137 -0.099924102
0.4202075 0.15280275 -0.090103731
0.4223904 0.11519737 -0.080181256
0.42459613 0.077199362 -0.070155241
0.42682505 0.038802259 -0.060023889
0.42907745 3.1664968e-08 -0.04978561
0.43135241 -0.039213751 -0.039444942
0.433653 -0.07884597 -0.02898759
0.43597826 -0.11890312 -0.018418353
0.43832856 -0.15939221 -0.0077351257
0.44070438 -0.20032012 0.0030639619
0.44310606 -0.2416942 0.013980813
0.44553408 -0.28352168 0.025017262
0.44798741 -0.32580894 0.036168769
0.45046937 -0.36856586 0.047450259
0.45297897 -0.41179913 0.05885762
0.4555167 -0.45551664 0.070392758
0.45808303 -0.49972689 0.082057893
0.46067843 -0.54443806 0.093855098
0.46330342 -0.58965886 0.10578685
0.46595848 -0.63539791 0.11785534
0.46864256 -0.68166196 0.13005587
0.47135937 -0.72846437 0.14240474
0.47410786 -0.77581275 0.15489775
0.47688854 -0.8237164 0.16753742
0.47970209 -0.87218559 0.18032625
0.48254901 -0.92122984 0.19326675
0.43516794 0.47143197 -0.18693802
0.43731341 0.43731344 -0.17799848
0.43947887 0.40285563 -0.1689758
0.44166717 0.368056 -0.15985782
0.44387609 0.33290696 -0.15065405
0.44610852 0.29740569 -0.14135234
0.44836348 0.26154536 -0.13195653
0.45064139 0.2253207 -0.12246521
0.45294121 0.18872555 -0.11288266
0.45526597 0.1517553 -0.10319614
0.45761475 0.11440369 -0.09340965
0.45998788 0.076664679 -0.083521605
0.46238574 0.03853206 -0.073530443
0.46480873 5.9604645e-08 -0.063434631
0.46725726 -0.038938127 -0.053232398
0.46973026 -0.078288428 -0.042928234
0.47223106 -0.11805769 -0.032508366
0.4747586 -0.15825288 -0.021976851
0.4773134 -0.19888061 -0.011332057
0.47989577 -0.23994784 -0.00057196617
0.48250628 -0.28146201 0.010305151
0.48514536 -0.32343024 0.021301225
0.48781341 -0.36586004 0.032418251
0.49050942 -0.40875781 0.04365167
0.49323699 -0.45213386 0.055016473
0.49599507 -0.49599499 0.066508502
0.49878421 -0.5403496 0.078129768
0.50160486 -0.58520561 0.089882433
0.50445753 -0.63057196 0.10176879
0.50734293 -0.67645729 0.11379117
0.51025975 -0.72286803 0.12594467
0.51321208 -0.76981813 0.13824609
0.51619875 -0.81731468 0.15069056
0.51922041 -0.86536741 0.16328064
0.52227759 -0.91398579 0.17601916
0.52537107 -0.96318012 0.18890837
0.46836323 0.46836326 -0.19874063
0.47065726 0.43445289 -0.18991745
0.47297251 0.40020746 -0.18101266
0.47531205 0.36562467 -0.17201442
0.47767344 0.330697 -0.16293222
0.48005983 0.29542145 -0.15375376
0.48247015 0.25979152 -0.14448336
0.4849048 0.22380222 -0.13511923
0.48736417 0.18744774 -0.12566012
0.48984718 0.15072221 -0.11611025
0.49235702 0.11362085 -0.10645688
0.49489275 0.076137334 -0.096704103
0.49745476 0.038265862 -0.086850241
0.50004339 -2.9802322e-08 -0.076893821
0.50265908 -0.038666178 -0.066833422
0.50530237 -0.077738814 -0.056667119
0.507972 -0.11722429 -0.04639937
0.51067156 -0.15712969 -0.036016483
0.51339996 -0.19746158 -0.025522582
0.51615763 -0.23822656 -0.014915869
0.51894516 -0.27943206 -0.0041947067
0.52176297 -0.32108489 0.0066428632
0.52461153 -0.36319253 0.017598763
0.52748966 -0.40576118 0.028668523
0.53040123 -0.44880092 0.039866894
0.5333451 -0.49231848 0.051189676
0.53632188 -0.53632194 0.062638879
0.53933209 -0.58081913 0.074216515
0.54237628 -0.62581873 0.085924834
0.54545498 -0.6713292 0.097766131
0.5485689 -0.71735936 0.10974267
0.55171669 -0.7639153 0.12184936
0.55490267 -0.81101155 0.13410318
0.55812567 -0.85865486 0.14649951
0.56138635 -0.90685487 0.15904042
0.56468534 -0.95562124 0.17172894
0.50112915 0.46533427 -0.21039066
0.50356776 0.43162954 -0.20168145
0.50602871 0.39759398 -0.19289225
0.5085153 0.36322522 -0.18401158
0.51102501 0.3285161 -0.17504835
0.51356107 0.29346353 -0.16599099
0.51612246 0.2580612 -0.15684329
0.51870948 0.22230399 -0.14760382
0.52132261 0.18618669 -0.13827127
0.5239622 0.14970346 -0.1288442
0.52662706 0.11284862 -0.11932684
0.52932078 0.075617269 -0.10970645
0.53204215 0.038003013 -0.099987149
0.53479171 7.4505806e-08 -0.090167388
0.53756982 -0.038397737 -0.080245622
0.5403769 -0.077196792 -0.070220277
0.54321343 -0.11640288 -0.060089666
0.54607832 -0.15602237 -0.049858071
0.54897523 -0.19606256 -0.039512075
0.55190301 -0.2365298 -0.029055528
0.5548622 -0.27743113 -0.018486932
0.55785334 -0.31877339 -0.0078043938
0.56087685 -0.36056364 0.002993986
0.56393331 -0.4028095 0.013909951
0.56702334 -0.44551831 0.024945736
0.57014555 -0.48869616 0.036096334
0.57330418 -0.53235382 0.047377065
0.57649797 -0.57649803 0.058783621
0.57972753 -0.62113672 0.070317864
0.58299357 -0.66627836 0.081982195
0.58629656 -0.71193147 0.09377861
0.58963716 -0.7581051 0.10570949
0.59301412 -0.8048048 0.11776984
0.59643203 -0.85204554 0.12997642
0.59988946 -0.89983428 0.14232469
0.6033873 -0.9481802 0.1548169
0.53347403 0.46234417 -0.22189085
0.53605324 0.42884254 -0.21329355
0.53865594 0.39501435 -0.20461777
0.54128563 0.36085713 -0.19585221
0.54393959 0.32636371 -0.18700585
0.54662126 0.29153129 -0.17806697
0.54932946 0.25635383 -0.16903959
0.5520646 0.22082579 -0.15992229
0.55482715 0.18494236 -0.15071374
0.55761755 0.14869799 -0.14141262
0.56043613 0.11208728 -0.13201742
0.5632816 0.075104252 -0.1225324
0.56615788 0.037743881 -0.11294493
0.56906366 1.2665987e-07 -0.10325891
0.57199943 -0.038133346 -0.093473107
0.5749656 -0.076662168 -0.083585665
0.57796276 -0.11559261 -0.073595271
0.58099127 -0.15493099 -0.063500091
0.58404988 -0.1946833 -0.053304732
0.58714277 -0.23485699 -0.042995192
0.59026855 -0.27545866 -0.032575846
0.59342778 -0.31649476 -0.022045225
0.59662104 -0.35797268 -0.011401087
0.59984875 -0.39989918 -0.00064180791
0.60311174 -0.44228199 0.010234565
0.60641026 -0.48512822 0.021229893
0.60974318 -0.52844417 0.032339543
0.61311495 -0.57224053 0.043578714
0.6165241 -0.61652404 0.054942816
0.61997151 -0.66130292 0.066433966
0.62345767 -0.70658517 0.078054279
0.62698317 -0.75237978 0.089806199
0.63054883 -0.79869521 0.10169175
0.58502489 0.47533268 -0.17193495
0.56812036 0.42609027 -0.22476162
0.57086259 0.39246795 -0.21619216
0.57363147 0.35851961 -0.20753948
0.57642728 0.32424033 -0.19880244
0.57924885 0.28962436 -0.18998496
0.58209991 0.25466868 -0.18107557
0.58497906 0.21936715 -0.17207813
0.58788693 0.1837147 -0.16299111
0.59082383 0.14770585 -0.15381336
0.59379017 0.1113357 -0.14454338
0.5967865 0.074598372 -0.13518
0.59981143 0.037488211 -0.12572716
0.60286897 8.1956387e-08 -0.11617225
0.60595781 -0.037872396 -0.10651954
0.60907853 -0.076134823 -0.096767329
0.61223155 -0.1147934 -0.086914212
0.61541736 -0.15385425 -0.076958515
0.61863649 -0.19332391 -0.066898696
0.62188756 -0.23320779 -0.056739062
0.62517494 -0.27351403 -0.046465993
0.6284973 -0.31424862 -0.036083743
0.63185507 -0.3554185 -0.025590613
0.63524896 -0.39703053 -0.014984742
0.6386795 -0.43909216 -0.0042642355
0.6421473 -0.48161042 0.0065725148
0.64565295 -0.524593 0.017527699
0.64492708 0.49317962 -0.10329325
0.59978008 0.42337427 -0.23607855
0.60265666 0.38995433 -0.22761817
0.6055609 0.35621226 -0.21907625
0.60849327 0.32214352 -0.21045157
0.61145419 0.28774306 -0.20174307
0.61444229 0.25300565 -0.19295445
0.6174615 0.21792768 -0.18407433
0.62051064 0.18250312 -0.17510663
0.62358993 0.14672697 -0.16604967
0.62669992 0.11059416 -0.1569026
0.62984115 0.074098945 -0.14766371
0.63301402 0.037236113 -0.13833171
0.63621712 9.6857548e-08 -0.1289109
0.63945472 -0.03761496 -0.11938849
0.64272541 -0.075614825 -0.10976882
0.64602977 -0.11400528 -0.10005021
0.64936823 -0.15279254 -0.090231076
0.65274143 -0.19198278 -0.080310009
0.65614986 -0.23158219 -0.070285283
0.65959197 -0.27159667 -0.0601613
0.66307253 -0.31203404 -0.049924493
0.63103878 0.42069253 -0.24725211
0.63404602 0.38747257 -0.23889881
0.63708198 0.35393441 -0.23046558
0.64014715 0.32007354 -0.22195117
0.643242 0.28588539 -0.2133543
0.64636695 0.25136498 -0.20467408
0.64952046 0.21650679 -0.19591415
0.6527068 0.18130738 -0.18706325
0.65592456 0.14576107 -0.17812493
0.65917426 0.10986237 -0.16909814
0.66245627 0.073606215 -0.15998146
0.66577113 0.036987327 -0.1507735
0.66911936 4.4703484e-08 -0.14147297
0.67249936 -0.037361182 -0.13208392
0.67591578 -0.075101733 -0.12259401
0.66190404 0.41804466 -0.25828499
0.66503835 0.38502219 -0.25003678
0.66820252 0.35168552 -0.24171002
0.67139691 0.31803012 -0.23330376
0.674622 0.28405133 -0.22481669
0.6778782 0.24974455 -0.21624772
0.68116605 0.21510509 -0.20759545
0.68448395 0.18012738 -0.19886419
0.68783629 0.14480764 -0.19004235
0.69238502 0.41543105 -0.26917511
0.69564122 0.38260266 -0.26103482
0.69893008 0.34946495 -0.25281259
