# .PCD v0.7 - Point Cloud Data file format
VERSION 0.7
FIELDS x y z
SIZE 4 4 4
TYPE F F F
COUNT 1 1 1
WIDTH 1404
HEIGHT 1
VIEWPOINT 0 0 0 1 0 0 0
POINTS 1404
DATA ascii
-0.9660787 -0.27602252 0.3000496
-0.9660787 -0.32202619 0.30004957
-0.9660787 -0.36802995 0.3000496
-0.9660787 -0.41403371 0.30004963
-0.96608216 -0.46003911 0.30005801
-0.96608216 -0.50604314 0.30005813
-0.96608216 -0.55204701 0.3000581
-0.96608216 -0.59805083 0.30005801
-0.96608216 -0.64405477 0.30005804
-0.96608216 -0.69005877 0.30005816
-0.96608216 -0.73606253 0.30005801
-0.91693538 0.7335484 0.2922008
-0.91693538 0.68770146 0.29220074
-0.91693538 0.64185488 0.29220074
-0.91693538 0.59600788 0.29220074
-0.91693538 0.55016124 0.29220077
-0.91693538 0.50431454 0.29220086
-0.91693538 0.45846763 0.2922008
-0.91693538 0.41262099 0.29220083
-0.91693538 0.36677411 0.29220077
-0.91693538 0.32092744 0.29220077
-0.91693538 0.27508059 0.29220071
-0.91693538 0.22923386 0.29220083
-0.91693538 0.18338704 0.29220083
-0.91693538 0.13754034 0.29220077
-0.91693538 0.091693521 0.2922008
-0.91693538 0.045846812 0.29220074
-0.91693538 -0 0.29220074
-0.91693538 -0.045846723 0.29220068
-0.91693538 -0.091693521 0.29220071
-0.91693538 -0.13754043 0.2922008
-0.91693538 -0.18338713 0.29220074
-0.91693538 -0.22923395 0.29220077
-0.91693538 -0.27508065 0.29220071
-0.91693538 -0.32092741 0.2922008
-0.91693538 -0.36677411 0.29220077
-0.91693538 -0.4126209 0.29220077
-0.91693538 -0.45846763 0.29220068
-0.91693538 -0.50431442 0.29220074
-0.91693878 -0.55016315 0.29220915
-0.91693878 -0.59601021 0.29220921
-0.91693878 -0.64185709 0.29220915
-0.91693878 -0.68770409 0.29220915
-0.91693878 -0.73355114 0.29220924
-0.86812639 0.73105371 0.28440526
-0.86812639 0.68536288 0.28440535
-0.86812639 0.63967204 0.28440538
-0.86812639 0.59398127 0.28440538
-0.86812639 0.54829025 0.28440529
-0.86812639 0.50259948 0.28440532
-0.86812639 0.45690843 0.2844052
-0.86812639 0.41121775 0.28440532
-0.86812639 0.3655268 0.28440535
-0.86812639 0.31983602 0.28440532
-0.86812639 0.27414507 0.28440535
-0.86812639 0.22845428 0.28440535
-0.86812639 0.18276341 0.28440526
-0.86812639 0.13707256 0.2844052
-0.86812639 0.091381691 0.28440529
-0.86812639 0.045690827 0.2844052
-0.86812639 4.4703484e-08 0.28440523
-0.86812639 -0.045690902 0.28440523
-0.86812639 -0.091381676 0.28440523
-0.86812639 -0.13707262 0.28440523
-0.86812639 -0.1827634 0.28440523
-0.86812639 -0.22845435 0.28440523
-0.86812639 -0.27414513 0.28440526
-0.86812639 -0.31983608 0.28440523
-0.86812639 -0.36552685 0.28440526
-0.86812639 -0.41121778 0.28440526
-0.86812639 -0.45690858 0.28440529
-0.86812639 -0.50259954 0.28440526
-0.86812639 -0.54829031 0.28440529
-0.86812639 -0.59398115 0.28440523
-0.86812949 -0.63967431 0.28441358
-0.86812949 -0.68536526 0.28441358
-0.86812949 -0.73105645 0.28441364
-0.81964815 0.72857618 0.27666271
-0.81964815 0.68304014 0.27666271
-0.81964815 0.6375041 0.27666268
-0.81964815 0.59196806 0.27666268
-0.81964815 0.54643208 0.27666268
-0.81964815 0.50089604 0.27666268
-0.81964815 0.45536003 0.27666268
-0.81964815 0.4098241 0.27666262
-0.81964815 0.36428806 0.27666274
-0.81964815 0.31875208 0.27666259
-0.81964815 0.27321595 0.27666268
-0.81964815 0.22768012 0.27666268
-0.81964815 0.18214402 0.27666259
-0.81964815 0.13660797 0.27666274
-0.81964815 0.091072045 0.27666268
-0.81964815 0.045535944 0.27666277
-0.81964815 -0 0.27666265
-0.81964815 -0.045536011 0.27666265
-0.81964815 -0.09107203 0.27666265
-0.81964815 -0.13660797 0.27666274
-0.81964815 -0.18214408 0.27666265
-0.81964815 -0.22768007 0.27666265
-0.81964815 -0.27321592 0.27666265
-0.81964815 -0.31875214 0.27666265
-0.81964815 -0.36428815 0.27666265
-0.81964815 -0.4098241 0.27666274
-0.81964815 -0.45536011 0.27666271
-0.81964815 -0.50089604 0.27666265
-0.81964815 -0.54643214 0.27666271
-0.81965107 -0.59197021 0.27667093
-0.81965107 -0.63750637 0.27667093
-0.81965107 -0.68304253 0.2766709
-0.81965107 -0.72857881 0.27667099
-0.77149463 0.72611272 0.26896432
-0.77149463 0.68073052 0.26896411
-0.77149743 0.63535076 0.26897228
-0.77149743 0.58996862 0.2689724
-0.77149743 0.54458654 0.26897246
-0.77149743 0.49920425 0.26897237
-0.77149743 0.45382196 0.26897228
-0.77149743 0.40843982 0.26897228
-0.77149743 0.36305749 0.26897237
-0.77149743 0.31767541 0.26897246
-0.77149743 0.27229321 0.26897246
-0.77149743 0.22691105 0.26897228
-0.77149743 0.18152885 0.26897228
-0.77149743 0.13614658 0.26897234
-0.77149743 0.090764381 0.26897234
-0.77149743 0.045382187 0.26897234
-0.77149743 1.4901161e-08 0.26897237
-0.77149743 -0.045382172 0.26897234
-0.77149743 -0.090764463 0.26897243
-0.77149743 -0.13614656 0.26897234
-0.77149743 -0.18152884 0.26897225
-0.77149743 -0.22691093 0.26897234
-0.77149743 -0.27229321 0.26897228
-0.77149743 -0.31767538 0.26897243
-0.77149743 -0.36305758 0.26897243
-0.77149743 -0.40843987 0.26897234
-0.77149743 -0.45382199 0.2689724
-0.77149743 -0.49920425 0.26897231
-0.77149743 -0.54458642 0.26897234
-0.77149743 -0.5899685 0.26897225
-0.77149743 -0.63535082 0.26897234
-0.77149743 -0.68073308 0.2689724
-0.77149743 -0.72611517 0.26897234
-0.7236709 0.72367084 0.26133382
-0.7236709 0.67844141 0.26133382
-0.7236709 0.63321197 0.26133385
-0.7236709 0.58798265 0.26133376
-0.7236709 0.54275334 0.26133394
-0.7236709 0.49752384 0.26133394
-0.7236709 0.45229441 0.26133397
-0.7236709 0.40706486 0.26133388
-0.7236709 0.36183548 0.26133397
-0.7236709 0.31660601 0.26133397
-0.7236709 0.27137664 0.26133391
-0.7236709 0.22614713 0.26133379
-0.7236709 0.18091774 0.26133373
-0.7236709 0.1356883 0.26133373
-0.7236709 0.090458907 0.26133385
-0.7236709 0.045229457 0.26133382
-0.7236709 -1.4901161e-08 0.26133385
-0.7236709 -0.045229375 0.26133376
-0.7236709 -0.090458833 0.26133376
-0.7236709 -0.13568829 0.26133376
-0.7236709 -0.18091768 0.26133388
-0.7236709 -0.22614712 0.26133388
-0.7236709 -0.27137658 0.26133388
-0.7236709 -0.31660604 0.26133388
-0.7236709 -0.36183542 0.26133382
-0.7236709 -0.40706488 0.26133382
-0.7236709 -0.45229432 0.26133382
-0.7236709 -0.49752373 0.26133391
-0.7236709 -0.54275316 0.26133376
-0.7236709 -0.58798265 0.26133376
-0.7236709 -0.63321209 0.26133376
-0.7236709 -0.67844152 0.26133379
-0.7236709 -0.72367108 0.26133388
-0.6761629 0.72124052 0.25373858
-0.6761629 0.67616296 0.25373846
-0.67616528 0.6310876 0.25374663
-0.67616528 0.58600998 0.25374663
-0.67616528 0.5409323 0.25374663
-0.67616528 0.49585465 0.25374669
-0.67616528 0.45077685 0.25374651
-0.67616528 0.40569919 0.25374651
-0.67616528 0.36062151 0.25374657
-0.67616528 0.31554386 0.25374657
-0.67616528 0.27046606 0.25374642
-0.67616528 0.22538847 0.25374654
-0.67616528 0.18031073 0.25374648
-0.67616528 0.13523299 0.25374657
-0.67616528 0.090155333 0.25374645
-0.67616528 0.045077756 0.25374657
-0.67616528 1.4901161e-08 0.25374651
-0.67616528 -0.045077637 0.25374651
-0.67616528 -0.090155378 0.25374663
-0.67616528 -0.13523304 0.25374648
-0.67616528 -0.18031079 0.25374657
-0.67616528 -0.22538844 0.25374645
-0.67616528 -0.27046618 0.25374654
-0.67616528 -0.31554374 0.25374648
-0.67616528 -0.36062148 0.2537466
-0.67616528 -0.40569916 0.2537466
-0.67616528 -0.45077679 0.25374648
-0.67616528 -0.49585456 0.25374657
-0.67616528 -0.54093218 0.25374645
-0.67616528 -0.58600992 0.25374654
-0.67616528 -0.6310876 0.25374657
-0.67616528 -0.67616522 0.25374642
-0.67616528 -0.72124302 0.25374651
-0.62897515 0.71882868 0.2462019
-0.62897515 0.67390198 0.24620201
-0.62897515 0.62897515 0.24620198
-0.62897515 0.58404833 0.2462019
-0.62897736 0.53912336 0.24620998
-0.62897736 0.4941965 0.24620995
-0.62897736 0.44926947 0.24620992
-0.62897736 0.40434271 0.24620998
-0.62897736 0.35941574 0.24621002
-0.62897736 0.31448868 0.24620998
-0.62897736 0.26956174 0.24621004
-0.62897736 0.22463471 0.24620999
-0.62897736 0.17970783 0.24620998
-0.62897736 0.13478079 0.24620993
-0.62897736 0.08985392 0.24621007
-0.62897736 0.044926882 0.24621004
-0.62897736 1.0430813e-07 0.24620993
-0.62897736 -0.044926926 0.24620989
-0.62897736 -0.08985389 0.24620995
-0.62897736 -0.13478084 0.24620998
-0.62897736 -0.17970788 0.24620995
-0.62897736 -0.22463466 0.24621001
-0.62897736 -0.26956171 0.24620996
-0.62897736 -0.31448868 0.24621002
-0.62897736 -0.35941568 0.24620999
-0.62897736 -0.40434265 0.24621002
-0.62897736 -0.44926944 0.24620995
-0.62897736 -0.49419647 0.24620987
-0.62897736 -0.53912342 0.24620993
-0.62897736 -0.58405048 0.24621005
-0.62897736 -0.62897736 0.24621005
-0.62897736 -0.67390436 0.24620999
-0.62897736 -0.71883124 0.24620996
-0.58210188 0.71643311 0.23871574
-0.58210188 0.67165607 0.23871584
-0.58210188 0.62687892 0.23871578
-0.58210188 0.58210194 0.23871584
-0.58210188 0.53732479 0.23871575
-0.58210188 0.49254784 0.2387158
-0.58210397 0.4477722 0.2387237
-0.58210397 0.40299508 0.2387237
-0.58210397 0.3582179 0.2387238
-0.58210397 0.31344056 0.2387237
-0.58210397 0.26866338 0.23872361
-0.58210397 0.22388612 0.23872362
-0.58210397 0.17910884 0.23872362
-0.58210397 0.13433158 0.23872364
-0.58210397 0.089554489 0.23872365
-0.58210397 0.044777222 0.23872364
-0.58210397 2.9802322e-08 0.23872373
-0.58210397 -0.04477714 0.23872367
-0.58210397 -0.089554399 0.23872367
-0.58210397 -0.13433167 0.23872365
-0.58210397 -0.17910895 0.23872367
-0.58210397 -0.22388619 0.23872367
-0.58210397 -0.26866338 0.23872358
-0.58210397 -0.31344062 0.23872358
-0.58210397 -0.35821775 0.23872359
-0.58210397 -0.40299502 0.23872378
-0.58210397 -0.44777226 0.23872375
-0.58210397 -0.49254945 0.23872368
-0.58210397 -0.53732675 0.2387237
-0.58210397 -0.58210391 0.23872362
-0.58210397 -0.62688124 0.23872368
-0.58210397 -0.6716584 0.23872361
-0.58210397 -0.71643567 0.23872362
-0.53554004 0.71405339 0.23127919
-0.53554004 0.66942501 0.23127919
-0.53554004 0.62479669 0.23127919
-0.53554004 0.58016843 0.23127915
-0.53554004 0.5355401 0.2312791
-0.53554004 0.49091172 0.23127909
-0.53554004 0.44628331 0.23127913
-0.53554004 0.40165499 0.23127913
-0.53554195 0.35702801 0.23128706
-0.53554195 0.31239942 0.23128694
-0.53554195 0.26777101 0.23128702
-0.53554195 0.22314249 0.23128697
-0.53554195 0.17851397 0.23128711
-0.53554195 0.13388547 0.23128708
-0.53554195 0.089257039 0.23128714
-0.53554195 0.044628531 0.23128709
-0.53554195 2.9802322e-08 0.23128706
-0.53554195 -0.044628471 0.23128703
-0.53554195 -0.089256972 0.231287
-0.53554195 -0.13388541 0.23128706
-0.53554195 -0.17851399 0.23128711
-0.53554195 -0.2231425 0.23128708
-0.53554195 -0.26777101 0.23128705
-0.53554195 -0.31239942 0.23128711
-0.53554195 -0.35702795 0.23128706
-0.53554195 -0.40165645 0.23128705
-0.53554195 -0.44628486 0.23128709
-0.53554195 -0.49091345 0.23128715
-0.53554195 -0.53554195 0.23128711
-0.53554195 -0.58017039 0.231287
-0.53554195 -0.62479895 0.23128705
-0.53554195 -0.66942751 0.23128718
-0.53554195 -0.7140559 0.23128709
-0.48928654 0.71168941 0.22389179
-0.48928654 0.66720897 0.22389202
-0.48928654 0.62272835 0.22389205
-0.48928654 0.57824767 0.22389187
-0.48928654 0.53376704 0.22389193
-0.48928654 0.48928648 0.22389197
-0.48928654 0.44480586 0.22389182
-0.48928654 0.4003253 0.22389188
-0.48928654 0.35584474 0.223892
-0.48928654 0.31136408 0.22389194
-0.48928821 0.26688445 0.22389969
-0.48928821 0.22240375 0.2238998
-0.48928821 0.17792299 0.22389965
-0.48928821 0.13344231 0.22389977
-0.48928821 0.088961467 0.22389971
-0.48928821 0.044480719 0.22389974
-0.48928821 3.7252903e-08 0.22389968
-0.48928821 -0.044480719 0.22389972
-0.48928821 -0.088961482 0.22389974
-0.48928821 -0.13344225 0.22389978
-0.48928821 -0.17792301 0.22389963
-0.48928821 -0.22240369 0.22389974
-0.48928821 -0.26688454 0.22389969
-0.48928821 -0.31136522 0.2238998
-0.48928821 -0.35584599 0.22389984
-0.48928821 -0.40032673 0.22389969
-0.48928821 -0.44480741 0.2238998
-0.48928821 -0.48928827 0.22389975
-0.48928821 -0.53376901 0.22389978
-0.48928821 -0.57824981 0.2238998
-0.48928821 -0.62273055 0.22389983
-0.48928821 -0.66721135 0.22389987
-0.48928821 -0.71169192 0.22389974
-0.44333822 0.70934117 0.21655342
-0.44333822 0.66500723 0.21655321
-0.44333822 0.62067354 0.21655339
-0.44333822 0.57633972 0.21655339
-0.44333822 0.53200591 0.21655336
-0.44333822 0.48767203 0.21655339
-0.44333822 0.44333819 0.21655323
-0.44333822 0.39900443 0.21655336
-0.44333822 0.35467046 0.2165533
-0.44333822 0.31033677 0.21655333
-0.44333822 0.26600289 0.21655336
-0.44333822 0.22166912 0.21655332
-0.44333977 0.17733586 0.21656115
-0.44333977 0.13300201 0.2165612
-0.44333977 0.088667974 0.2165612
-0.44333977 0.044334024 0.21656114
-0.44333977 -7.4505806e-09 0.21656114
-0.44333977 -0.044333875 0.21656117
-0.44333977 -0.088667974 0.21656111
-0.44333977 -0.13300192 0.21656103
-0.44333977 -0.17733596 0.21656105
-0.44333977 -0.22166982 0.21656108
-0.44333977 -0.26600385 0.21656108
-0.44333977 -0.3103379 0.21656111
-0.44333977 -0.35467184 0.21656105
-0.44333977 -0.3990058 0.21656115
-0.44333977 -0.44333974 0.21656108
-0.44333977 -0.48767376 0.21656111
-0.44333977 -0.53200769 0.21656103
-0.44333977 -0.57634163 0.21656114
-0.44333977 -0.62067568 0.21656115
-0.44333977 -0.66500962 0.21656108
-0.44333977 -0.70934367 0.21656111
-0.39769214 0.70700836 0.20926318
-0.39769214 0.66282004 0.20926295
-0.39769214 0.6186322 0.20926294
-0.39769214 0.57444417 0.20926312
-0.39769214 0.53025615 0.20926297
-0.39769214 0.48606813 0.20926307
-0.39769214 0.44188014 0.20926304
-0.39769214 0.39769208 0.20926306
-0.39769214 0.35350418 0.20926312
-0.39769214 0.30931622 0.20926306
-0.39769214 0.26512808 0.20926298
-0.39769214 0.22094007 0.20926312
-0.39769214 0.17675202 0.20926313
-0.39769214 0.13256413 0.20926301
-0.39769354 0.088376328 0.20927083
-0.39769354 0.044188194 0.20927078
-0.39769354 3.7252903e-08 0.20927088
-0.39769354 -0.044188194 0.20927089
-0.39769354 -0.088376343 0.20927083
-0.39769354 -0.13256441 0.20927086
-0.39769354 -0.17675272 0.20927081
-0.39769354 -0.22094095 0.20927081
-0.39769354 -0.26512903 0.20927083
-0.39769354 -0.30931717 0.20927078
-0.39769354 -0.3535054 0.20927078
-0.39769354 -0.39769354 0.20927089
-0.39769354 -0.44188169 0.20927083
-0.39769354 -0.48606983 0.20927079
-0.39769354 -0.53025806 0.20927081
-0.39769354 -0.5744462 0.20927091
-0.39769354 -0.61863428 0.20927076
-0.39769354 -0.6628226 0.20927086
-0.39769354 -0.70701069 0.20927088
-0.35234535 0.74873376 0.20202056
-0.35234535 0.70469064 0.20202065
-0.35234535 0.66064739 0.20202057
-0.35234535 0.61660433 0.20202066
-0.35234535 0.57256109 0.20202062
-0.35234535 0.52851808 0.20202067
-0.35234535 0.48447484 0.20202072
-0.35234535 0.44043168 0.2020206
-0.35234535 0.39638847 0.20202065
-0.35234535 0.35234523 0.2020206
-0.35234535 0.30830216 0.20202066
-0.35234535 0.26425892 0.20202063
-0.35234535 0.22021578 0.2020206
-0.35234535 0.17617276 0.20202066
-0.35234535 0.13212958 0.20202053
-0.35234535 0.088086382 0.20202059
-0.35234535 0.044043191 0.20202062
-0.35234657 2.9802322e-08 0.2020282
-0.35234657 -0.04404325 0.20202832
-0.35234657 -0.08808662 0.20202835
-0.35234657 -0.13212997 0.20202823
-0.35234657 -0.17617325 0.20202835
-0.35234657 -0.22021653 0.2020283
-0.35234657 -0.26425996 0.20202824
-0.35234657 -0.30830324 0.2020282
-0.35234657 -0.35234654 0.20202833
-0.35234657 -0.39638981 0.20202827
-0.35234657 -0.44043326 0.20202821
-0.35234657 -0.48447645 0.20202827
-0.35234657 -0.52851981 0.2020283
-0.35234657 -0.57256305 0.20202827
-0.35234657 -0.61660659 0.20202827
-0.35234657 -0.66064972 0.20202824
-0.35234657 -0.7046932 0.20202836
-0.30729485 0.74628741 0.19482538
-0.30729485 0.70238817 0.19482544
-0.30729485 0.65848887 0.19482529
-0.30729485 0.61458969 0.19482556
-0.30729485 0.57069039 0.19482537
-0.30729485 0.52679116 0.19482546
-0.30729485 0.48289183 0.19482544
-0.30729485 0.43899268 0.19482546
-0.30729485 0.39509338 0.19482553
-0.30729485 0.35119414 0.19482544
-0.30729485 0.30729482 0.19482543
-0.30729485 0.26339555 0.19482552
-0.30729485 0.21949631 0.19482543
-0.30729485 0.17559697 0.19482543
-0.30729485 0.13169771 0.1948255
-0.30729485 0.087798469 0.19482541
-0.30729485 0.043899208 0.1948255
-0.30729485 -2.9802322e-08 0.19482541
-0.30729485 -0.04389929 0.19482549
-0.30729592 -0.087798834 0.19483307
-0.30729592 -0.13169836 0.19483306
-0.30729592 -0.1755977 0.1948332
-0.30729592 -0.21949711 0.19483311
-0.30729592 -0.26339653 0.19483317
-0.30729592 -0.30729586 0.19483298
-0.30729592 -0.35119531 0.19483304
-0.30729592 -0.39509478 0.19483304
-0.30729592 -0.43899411 0.19483301
-0.30729592 -0.48289356 0.1948331
-0.30729592 -0.526793 0.19483317
-0.30729592 -0.57069242 0.19483307
-0.30729592 -0.61459184 0.19483314
-0.30729592 -0.65849131 0.19483311
-0.30729592 -0.70239073 0.19483319
-0.26253781 0.74385709 0.1876772
-0.26253781 0.70010072 0.18767712
-0.26253781 0.65634453 0.1876772
-0.26253781 0.61258811 0.18767717
-0.26253781 0.56883192 0.18767722
-0.26253781 0.5250755 0.18767722
-0.26253781 0.48131928 0.18767719
-0.26253781 0.437563 0.18767729
-0.26253781 0.39380652 0.18767715
-0.26253781 0.35005039 0.1876772
-0.26253781 0.30629405 0.18767726
-0.26253781 0.26253781 0.18767722
-0.26253781 0.2187814 0.18767716
-0.26253781 0.17502524 0.18767722
-0.26253781 0.13126883 0.18767717
-0.26253781 0.087512583 0.18767729
-0.26253781 0.043756261 0.18767717
-0.2625387 5.2154064e-08 0.18768483
-0.2625387 -0.043756522 0.18768477
-0.2625387 -0.087512851 0.1876848
-0.2625387 -0.13126941 0.18768474
-0.2625387 -0.17502584 0.18768486
-0.2625387 -0.21878232 0.18768473
-0.2625387 -0.26253864 0.18768476
-0.2625387 -0.30629507 0.18768471
-0.2625387 -0.35005155 0.18768474
-0.2625387 -0.39380807 0.18768477
-0.2625387 -0.43756446 0.18768473
-0.2625387 -0.48132095 0.18768476
-0.2625387 -0.52507746 0.18768477
-0.2625387 -0.56883383 0.18768474
-0.2625387 -0.61259025 0.18768467
-0.2625387 -0.65634686 0.18768479
-0.2625387 -0.70010316 0.18768482
-0.2625387 -0.74385953 0.18768477
-0.2180713 0.74144244 0.18057531
-0.2180713 0.69782811 0.18057519
-0.2180713 0.65421391 0.1805753
-0.2180713 0.61059976 0.18057533
-0.2180713 0.56698555 0.18057539
-0.2180713 0.52337116 0.18057528
-0.2180713 0.47975683 0.1805753
-0.2180713 0.4361425 0.18057531
-0.2180713 0.39252841 0.18057543
-0.2180713 0.34891418 0.18057536
-0.2180713 0.30529994 0.1805753
-0.2180713 0.26168561 0.18057531
-0.2180713 0.21807127 0.18057533
-0.2180713 0.17445704 0.18057527
-0.2180713 0.1308427 0.18057528
-0.2180713 0.087228537 0.18057531
-0.2180713 0.043614298 0.18057525
-0.2180713 -2.2351742e-08 0.18057525
-0.2180713 -0.043614194 0.1805753
-0.21807206 -0.08722882 0.18058281
-0.21807206 -0.13084324 0.1805829
-0.21807206 -0.17445765 0.18058282
-0.21807206 -0.21807207 0.18058293
-0.21807206 -0.26168647 0.18058285
-0.21807206 -0.3053008 0.18058287
-0.21807206 -0.34891531 0.18058287
-0.21807206 -0.39252964 0.18058287
-0.21807206 -0.43614411 0.1805829
-0.21807206 -0.47975844 0.1805829
-0.21807206 -0.52337295 0.1805829
-0.21807206 -0.56698728 0.18058275
-0.21807206 -0.61060172 0.18058284
-0.21807206 -0.65421617 0.18058284
-0.21807206 -0.69783056 0.18058287
-0.21807206 -0.741445 0.18058288
-0.17389257 0.7390433 0.17351928
-0.17389257 0.69557011 0.17351922
-0.17389257 0.65209711 0.17351931
-0.17389257 0.60862392 0.17351928
-0.17389257 0.56515068 0.17351928
-0.17389257 0.52167767 0.17351936
-0.17389257 0.47820449 0.17351928
-0.17389257 0.43473133 0.17351937
-0.17389257 0.39125824 0.1735194
-0.17389257 0.34778506 0.17351931
-0.17389257 0.30431187 0.17351942
-0.17389257 0.26083881 0.17351943
-0.17389257 0.21736571 0.17351928
-0.17389257 0.17389263 0.17351931
-0.17389257 0.13041945 0.17351942
-0.17389257 0.086946264 0.17351934
-0.17389257 0.043473173 0.17351936
-0.17389257 -1.4901161e-08 0.17351946
-0.17389257 -0.043473184 0.17351939
-0.17389257 -0.086946279 0.1735194
-0.17389257 -0.13041937 0.17351943
-0.17389257 -0.17389254 0.17351936
-0.17389257 -0.21736564 0.17351937
-0.17389257 -0.26083881 0.17351948
-0.17389257 -0.30431199 0.1735194
-0.17389257 -0.34778509 0.17351943
-0.17389257 -0.39125824 0.17351954
-0.17389257 -0.43473142 0.1735193
-0.17389257 -0.47820452 0.1735193
-0.17389257 -0.52167773 0.17351939
-0.17389257 -0.56515086 0.17351933
-0.17389257 -0.60862404 0.17351943
-0.17389257 -0.65209717 0.17351946
-0.17389257 -0.69557035 0.17351937
-0.17389257 -0.73904341 0.1735194
-0.1299988 0.73665982 0.16650891
-0.1299988 0.69332695 0.166509
-0.1299988 0.64999396 0.16650894
-0.1299988 0.6066609 0.16650888
-0.1299988 0.56332809 0.16650896
-0.1299988 0.51999521 0.16650903
-0.1299988 0.4766624 0.16650899
-0.1299988 0.4333294 0.16650902
-0.1299988 0.38999647 0.16650903
-0.1299988 0.34666342 0.16650897
-0.1299988 0.30333057 0.16650891
-0.1299988 0.25999761 0.16650894
-0.1299988 0.21666473 0.16650906
-0.1299988 0.17333178 0.16650893
-0.1299988 0.12999882 0.16650896
-0.1299988 0.086665869 0.16650899
-0.1299988 0.043332834 0.16650891
-0.1299988 4.4703484e-08 0.16650896
-0.1299988 -0.043332912 0.16650899
-0.1299988 -0.086665861 0.16650902
-0.1299988 -0.12999891 0.16650896
-0.1299988 -0.17333169 0.166509
-0.1299988 -0.21666464 0.16650902
-0.1299988 -0.25999761 0.16650905
-0.1299988 -0.30333066 0.16650899
-0.1299988 -0.3466635 0.16650894
-0.1299988 -0.38999638 0.16650903
-0.1299988 -0.43332934 0.16650891
-0.1299988 -0.47666228 0.16650894
-0.1299988 -0.51999515 0.16650888
-0.1299988 -0.56332803 0.166509
-0.1299988 -0.60666108 0.16650894
-0.1299988 -0.64999402 0.16650897
-0.1299988 -0.69332689 0.16650891
-0.1299988 -0.73665982 0.16650894
-0.086387254 0.73429179 0.15954378
-0.086387254 0.69109797 0.15954357
-0.086387254 0.64790446 0.15954372
-0.086387254 0.6047107 0.15954353
-0.086387254 0.56151718 0.15954365
-0.086387254 0.5183236 0.15954372
-0.086387254 0.47512984 0.15954359
-0.086387254 0.43193626 0.15954366
-0.086387254 0.38874269 0.15954372
-0.086387254 0.34554896 0.15954359
-0.086387254 0.30235547 0.15954359
-0.086387254 0.25916171 0.15954365
-0.086387254 0.21596813 0.15954369
-0.086387254 0.17277455 0.1595436
-0.086387254 0.1295809 0.15954357
-0.086387254 0.086387232 0.15954372
-0.086387254 0.043193661 0.15954362
-0.086387254 -7.4505806e-09 0.15954359
-0.086387254 -0.043193668 0.15954357
-0.086387254 -0.086387336 0.15954371
-0.086387254 -0.12958083 0.15954368
-0.086387254 -0.17277449 0.15954366
-0.086387254 -0.21596815 0.15954363
-0.086387254 -0.25916174 0.15954371
-0.086387254 -0.30235541 0.15954366
-0.086387254 -0.34554905 0.15954363
-0.086387254 -0.38874263 0.15954354
-0.086387254 -0.43193632 0.15954369
-0.086387254 -0.4751299 0.15954374
-0.086387254 -0.51832348 0.15954365
-0.086387254 -0.56151712 0.1595436
-0.086387254 -0.60471088 0.15954366
-0.086387254 -0.64790446 0.15954374
-0.086387254 -0.69109809 0.15954369
-0.086387254 -0.73429155 0.15954351
-0.043055214 0.73193854 0.15262291
-0.043055214 0.68888342 0.152623
-0.043055214 0.64582837 0.15262306
-0.043055214 0.60277301 0.15262303
-0.043055214 0.55971783 0.15262303
-0.043055214 0.51666254 0.15262295
-0.043055214 0.47360742 0.15262309
-0.043055214 0.43055218 0.15262294
-0.043055214 0.38749698 0.15262295
-0.043055214 0.34444168 0.15262291
-0.043055214 0.30138648 0.15262292
-0.043055214 0.25833124 0.15262295
-0.043055214 0.21527603 0.15262297
-0.043055214 0.1722209 0.15262291
-0.043055214 0.12916559 0.15262303
-0.043055214 0.086110458 0.15262297
-0.043055214 0.043055244 0.152623
-0.043055214 2.2351742e-08 0.15262303
-0.043055214 -0.043055099 0.15262297
-0.043055214 -0.086110488 0.15262298
-0.043055214 -0.12916562 0.15262292
-0.043055214 -0.17222083 0.15262295
-0.043055214 -0.21527605 0.15262298
-0.043055214 -0.25833127 0.152623
-0.043055214 -0.30138639 0.15262295
-0.043055214 -0.34444177 0.15262297
-0.043055214 -0.38749689 0.15262291
-0.043055214 -0.43055212 0.15262294
-0.043055214 -0.47360736 0.15262295
-0.043055214 -0.51666248 0.15262291
-0.043055214 -0.55971777 0.152623
-0.043055214 -0.60277301 0.15262286
-0.043055214 -0.64582825 0.15262291
-0.043055214 -0.68888348 0.152623
-0.043055214 -0.73193854 0.15262288
0 0.72960055 0.14574647
0 0.68668306 0.14574656
0 0.64376521 0.14574632
0 0.60084754 0.14574651
0 0.55792987 0.14574644
0 0.51501226 0.14574642
0 0.47209454 0.14574653
0 0.42917693 0.14574654
0 0.38625914 0.14574656
0 0.34334147 0.1457465
0 0.30042374 0.14574641
0 0.25750604 0.1457465
0 0.21458843 0.14574653
0 0.17167073 0.14574644
0 0.12875313 0.14574645
0 0.085835338 0.14574647
0 0.042917557 0.14574647
0 -5.9604645e-08 0.14574647
0 -0.042917673 0.1457465
0 -0.085835293 0.1457465
0 -0.12875298 0.14574644
0 -0.17167069 0.14574653
0 -0.21458846 0.14574653
0 -0.25750616 0.14574645
0 -0.30042377 0.14574647
0 -0.34334141 0.1457465
0 -0.3862592 0.1457465
0 -0.42917681 0.1457465
0 -0.47209448 0.14574644
0 -0.51501226 0.14574642
0 -0.55792987 0.14574645
0 -0.6008476 0.14574654
0 -0.64376527 0.14574647
0 -0.686683 0.14574656
0 -0.72960061 0.14574641
0.042781029 0.72727752 0.13891381
0.042781029 0.6844964 0.13891369
0.042781029 0.64171541 0.13891375
0.042781029 0.59893441 0.13891381
0.042781029 0.55615336 0.13891378
0.042781029 0.5133723 0.13891387
0.042781029 0.4705914 0.13891372
0.042781029 0.42781037 0.13891384
0.042781029 0.38502932 0.13891377
0.042781029 0.34224823 0.13891378
0.042781029 0.29946721 0.13891371
0.042781029 0.25668615 0.13891381
0.042781029 0.21390513 0.1389139
0.042781029 0.17112412 0.13891383
0.042781029 0.128343 0.13891385
0.042781029 0.085562065 0.13891369
0.042781029 0.042781036 0.1389138
0.042781029 7.4505806e-09 0.13891374
0.042781029 -0.042781021 0.13891384
0.042781029 -0.08556205 0.13891377
0.042781029 -0.12834308 0.13891385
0.042781029 -0.17112409 0.1389138
0.042781029 -0.21390522 0.13891381
0.042781029 -0.25668615 0.13891384
0.042781029 -0.29946718 0.13891375
0.042781029 -0.3422482 0.13891385
0.042781029 -0.38502923 0.13891378
0.042781029 -0.42781034 0.1389138
0.042781029 -0.47059137 0.13891374
0.042781029 -0.51337242 0.13891384
0.042781029 -0.55615336 0.13891384
0.042781029 -0.59893435 0.13891378
0.042781029 -0.64171547 0.1389138
0.042781029 -0.68449658 0.13891381
0.042781029 -0.72727752 0.13891384
0.085290484 0.72496921 0.13212451
0.085290484 0.68232381 0.13212439
0.085290484 0.6396786 0.13212448
0.085290484 0.59703338 0.13212454
0.085290484 0.55438823 0.13212453
0.085290484 0.51174283 0.13212442
0.085290484 0.46909761 0.13212448
0.085290484 0.42645252 0.13212444
0.085290484 0.38380724 0.13212457
0.085290484 0.34116197 0.13212435
0.085290484 0.29851666 0.13212447
0.085290484 0.25587147 0.13212451
0.085290484 0.21322626 0.13212457
0.085290484 0.17058097 0.13212451
0.085290484 0.12793578 0.13212438
0.085290484 0.085290492 0.13212451
0.085290484 0.042645209 0.13212447
0.085290484 7.4505806e-09 0.1321245
0.085290484 -0.042645194 0.13212454
0.085290484 -0.085290469 0.13212433
0.085290484 -0.12793575 0.13212445
0.085290484 -0.17058097 0.1321245
0.085290484 -0.21322624 0.13212445
0.085290484 -0.25587144 0.13212448
0.085290484 -0.29851666 0.13212454
0.085290484 -0.341162 0.13212441
0.085290484 -0.38380721 0.13212445
0.085290484 -0.42645243 0.1321245
0.085290484 -0.46909761 0.13212454
0.085290484 -0.51174289 0.13212448
0.085290484 -0.55438817 0.13212444
0.085290484 -0.59703344 0.13212457
0.085290484 -0.63967866 0.13212444
0.085290484 -0.68232387 0.13212448
0.085290484 -0.72496897 0.13212445
0.12753095 0.72267538 0.12537819
0.12753095 0.68016499 0.12537807
0.12753095 0.63765478 0.12537819
0.12753095 0.59514439 0.12537809
0.12753095 0.55263418 0.12537819
0.12753095 0.51012367 0.12537801
0.12753095 0.46761346 0.12537812
0.12753095 0.42510325 0.12537819
0.12753095 0.38259286 0.12537812
0.12753095 0.34008247 0.12537819
0.12753095 0.29757226 0.12537812
0.12753095 0.25506195 0.12537812
0.12753095 0.21255165 0.12537813
0.12753095 0.17004117 0.12537812
0.12753095 0.12753089 0.12537812
0.12753095 0.085020669 0.12537804
0.12753095 0.042510353 0.12537822
0.12753095 -2.6077032e-08 0.12537813
0.12753095 -0.042510331 0.12537813
0.12753095 -0.085020632 0.12537813
0.12753095 -0.12753093 0.12537815
0.12753095 -0.17004123 0.12537815
0.12753095 -0.21255162 0.12537807
0.12753095 -0.25506192 0.12537824
0.12753095 -0.29757214 0.12537816
0.12753095 -0.34008244 0.12537816
0.12753095 -0.38259292 0.12537816
0.12753095 -0.42510325 0.12537816
0.12753095 -0.46761346 0.12537809
0.12753095 -0.51012373 0.1253781
0.12753095 -0.55263424 0.12537807
0.12753095 -0.59514445 0.12537818
0.12753095 -0.63765466 0.1253781
0.12753095 -0.68016511 0.12537828
0.12753095 -0.7226755 0.12537816
0.1695044 0.72039378 0.11866727
0.16950497 0.67801988 0.1186744
0.16950497 0.63564372 0.1186744
0.16950497 0.59326744 0.11867434
0.16950497 0.55089104 0.1186742
0.16950497 0.50851476 0.11867426
0.16950497 0.4661386 0.11867426
0.16950497 0.42376235 0.11867432
0.16950497 0.3813861 0.11867438
0.16950497 0.33900994 0.11867422
0.16950497 0.29663369 0.11867429
0.16950497 0.25425744 0.11867435
0.16950497 0.21188128 0.11867435
0.16950497 0.169505 0.11867441
0.16950497 0.12712868 0.1186744
0.16950497 0.084752515 0.1186744
0.16950497 0.042376254 0.11867446
0.16950497 1.0430813e-07 0.11867429
0.16950497 -0.042376153 0.11867436
0.16950497 -0.084752485 0.11867434
0.16950497 -0.12712866 0.11867432
0.16950497 -0.16950491 0.1186744
0.16950497 -0.21188125 0.11867438
0.16950497 -0.25425741 0.11867437
0.16950497 -0.29663366 0.11867443
0.16950497 -0.33900991 0.11867435
0.16950497 -0.3813861 0.11867435
0.16950497 -0.42376241 0.11867432
0.16950497 -0.4661386 0.11867431
0.16950497 -0.50851482 0.11867438
0.16950497 -0.55089116 0.11867437
0.16950497 -0.59326732 0.11867435
0.16950497 -0.6356436 0.11867441
0.16950497 -0.67801988 0.11867431
0.16950497 -0.7203961 0.1186744
0.21121433 0.71812874 0.11200562
0.21121433 0.6758858 0.11200556
0.21121433 0.63364291 0.11200547
0.21121505 0.59140205 0.11201265
0.21121505 0.54915917 0.11201277
0.21121505 0.50691605 0.11201271
0.21121505 0.46467316 0.11201268
0.21121505 0.4224301 0.11201276
0.21121505 0.38018706 0.11201265
0.21121505 0.33794403 0.11201274
0.21121505 0.29570097 0.11201264
0.21121505 0.25345808 0.11201274
0.21121505 0.21121496 0.11201271
0.21121505 0.16897209 0.11201264
0.21121505 0.12672904 0.11201271
0.21121505 0.084485918 0.11201269
0.21121505 0.042243131 0.1120127
0.21121505 -3.7252903e-09 0.11201268
0.21121505 -0.042243052 0.11201276
0.21121505 -0.084486097 0.11201266
0.21121505 -0.12672906 0.11201266
0.21121505 -0.16897202 0.11201266
0.21121505 -0.21121505 0.11201273
0.21121505 -0.25345802 0.11201273
0.21121505 -0.29570106 0.11201264
0.21121505 -0.33794409 0.11201271
0.21121505 -0.38018706 0.11201271
0.21121505 -0.42243004 0.1120127
0.21121505 -0.46467316 0.11201268
0.21121505 -0.50691605 0.11201259
0.21121505 -0.54915905 0.1120127
0.21121505 -0.59140211 0.11201276
0.21121505 -0.63364506 0.11201274
0.21121505 -0.67588818 0.11201274
0.21121505 -0.71813107 0.11201265
0.25266284 0.71587801 0.10538581
0.25266284 0.67376739 0.10538557
0.25266284 0.631657 0.10538578
0.25266284 0.58954656 0.10538578
0.25266284 0.54743612 0.10538585
0.25266367 0.50532734 0.10539292
0.25266367 0.46321666 0.10539295
0.25266367 0.4211061 0.10539289
0.25266367 0.37899551 0.10539281
0.25266367 0.33688492 0.10539275
0.25266367 0.29477429 0.10539286
0.25266367 0.25266373 0.10539278
0.25266367 0.21055309 0.1053929
0.25266367 0.16844243 0.10539275
0.25266367 0.12633175 0.10539277
0.25266367 0.084221229 0.1053928
0.25266367 0.042110637 0.10539273
0.25266367 2.6077032e-08 0.10539284
0.25266367 -0.042110655 0.10539286
0.25266367 -0.084221169 0.10539289
0.25266367 -0.12633176 0.10539283
0.25266367 -0.16844246 0.10539284
0.25266367 -0.21055304 0.10539278
0.25266367 -0.25266364 0.10539272
0.25266367 -0.29477423 0.10539284
0.25266367 -0.33688495 0.10539284
0.25266367 -0.37899551 0.10539278
0.25266367 -0.42110604 0.10539281
0.25266367 -0.46321672 0.10539284
0.25266367 -0.50532722 0.10539287
0.25266367 -0.54743791 0.10539289
0.25266367 -0.58954859 0.10539274
0.25266367 -0.63165921 0.10539284
0.25266367 -0.67376977 0.10539275
0.25266367 -0.71588027 0.10539278
0.29385233 0.71364135 0.098807365
0.29385233 0.67166239 0.098807275
0.29385233 0.62968338 0.098807186
0.29385233 0.58770466 0.09880735
0.29385233 0.54572564 0.098807245
0.29385233 0.50374675 0.09880726
0.29385233 0.46176794 0.098807305
0.29385328 0.41979039 0.098814338
0.29385328 0.37781137 0.098814249
0.29385328 0.33583236 0.098814324
0.29385328 0.29385331 0.098814316
0.29385328 0.25187421 0.098814301
0.29385328 0.20989513 0.098814294
0.29385328 0.16791622 0.098814294
0.29385328 0.12593704 0.098814353
0.29385328 0.08395806 0.098814264
0.29385328 0.041979052 0.098814338
0.29385328 6.3329935e-08 0.098814249
0.29385328 -0.04197894 0.098814331
0.29385328 -0.083958186 0.098814309
0.29385328 -0.1259371 0.098814309
0.29385328 -0.16791618 0.098814294
0.29385328 -0.2098951 0.098814294
0.29385328 -0.25187427 0.098814189
0.29385328 -0.29385334 0.098814338
0.29385328 -0.33583236 0.098814249
0.29385328 -0.37781134 0.098814338
0.29385328 -0.41979033 0.098814249
0.29385328 -0.46176952 0.098814309
0.29385328 -0.50374842 0.098814324
0.29385328 -0.54572749 0.098814309
0.29385328 -0.58770657 0.098814294
0.29385328 -0.62968558 0.098814189
0.29385328 -0.67166471 0.098814338
0.29385328 -0.71364367 0.098814279
0.33478522 0.71141863 0.092269868
0.33478522 0.66957045 0.092269897
0.33478522 0.62772226 0.092269838
0.33478522 0.58587408 0.092269659
0.33478522 0.5440259 0.092269748
0.33478522 0.50217777 0.092269793
0.33478522 0.46032959 0.092269868
0.33478522 0.41848144 0.092269778
0.33478522 0.37663329 0.092269838
0.3347863 0.3347863 0.092276782
0.3347863 0.29293808 0.092276767
0.3347863 0.25108981 0.092276752
0.3347863 0.20924149 0.092276812
0.3347863 0.16739316 0.092276871
0.3347863 0.12554485 0.092276774
0.3347863 0.083696596 0.092276759
0.3347863 0.041848358 0.092276752
0.3347863 2.6077032e-08 0.092276812
0.3347863 -0.04184822 0.092276804
0.3347863 -0.083696626 0.092276782
0.3347863 -0.12554488 0.092276759
0.3347863 -0.16739318 0.092276663
0.3347863 -0.20924152 0.092276722
0.3347863 -0.25108975 0.092276707
0.3347863 -0.29293808 0.092276782
0.3347863 -0.33478633 0.092276759
0.3347863 -0.37663457 0.092276752
0.3347863 -0.4184829 0.092276648
0.3347863 -0.46033123 0.092276722
0.3347863 -0.50217944 0.092276692
0.3347863 -0.54402781 0.092276782
0.3347863 -0.58587605 0.092276737
0.3347863 -0.62772429 0.092276752
0.3347863 -0.66957271 0.092276692
0.3347863 -0.71142101 0.092276782
0.3754639 0.70920968 0.085772991
0.3754639 0.66749156 0.085773021
0.3754639 0.62577319 0.085772961
0.3754639 0.58405507 0.085772991
0.3754639 0.54233676 0.085772961
0.3754639 0.50061858 0.085772976
0.3754639 0.45890045 0.085772976
0.3754639 0.41718212 0.085773006
0.3754639 0.37546387 0.085772917
0.3754639 0.33374572 0.085772932
0.3754639 0.29202744 0.08577285
0.3754639 0.2503092 0.085772954
0.3754639 0.20859103 0.085772961
0.3754639 0.1668728 0.085772894
0.3754639 0.12515463 0.085772902
0.3754639 0.083436377 0.085772991
0.3754639 0.041718133 0.085772917
0.3754639 -2.9802322e-08 0.085772932
0.3754639 -0.0417182 0.085772946
0.3754639 -0.083436526 0.085772946
0.3754639 -0.12515469 0.085772961
0.3754639 -0.16687286 0.085772976
0.3754639 -0.20859109 0.085772909
0.3754639 -0.25030926 0.085772917
0.3754639 -0.29202753 0.085773014
0.3754639 -0.33374566 0.085772857
0.3754639 -0.37546384 0.085772872
0.3754639 -0.417182 0.085772887
0.3754639 -0.45890033 0.085772902
0.3754639 -0.50061852 0.085772917
0.3754639 -0.54233664 0.085772917
0.3754639 -0.58405489 0.085772827
0.3754639 -0.62577319 0.085772932
0.3754639 -0.66749132 0.085772932
0.3754639 -0.70920956 0.085772872
0.41589078 0.7486034 0.079316288
0.41589078 0.70701426 0.079316139
0.41589078 0.66542518 0.079316229
0.41589078 0.62383622 0.079316258
0.41589078 0.58224714 0.079316318
0.41589078 0.540658 0.079316244
0.41589078 0.49906892 0.079316169
0.41589078 0.4574798 0.079316288
0.41589078 0.41589081 0.079316199
0.41589078 0.37430161 0.079316229
0.41589078 0.33271268 0.079316214
0.41589078 0.29112351 0.079316266
0.41589078 0.24953449 0.079316154
0.41589078 0.20794538 0.079316296
0.41589078 0.16635638 0.079316176
0.41589078 0.1247672 0.079316229
0.41589078 0.083178274 0.079316206
0.41589078 0.041589085 0.079316251
0.41589078 -1.1175871e-08 0.079316221
0.41589078 -0.041589029 0.079316273
0.41589078 -0.083178215 0.079316325
0.41589078 -0.12476722 0.079316214
0.41589078 -0.16635634 0.079316348
0.41589078 -0.20794533 0.079316229
0.41589078 -0.24953452 0.079316288
0.41589078 -0.29112351 0.079316184
0.41589078 -0.33271265 0.079316311
0.41589078 -0.37430164 0.079316199
0.41589078 -0.41589084 0.079316244
0.41589078 -0.45747983 0.079316318
0.41589078 -0.49906892 0.079316273
0.41589078 -0.54065806 0.079316258
0.41589078 -0.58224702 0.079316288
0.41589078 -0.62383622 0.079316199
0.41589078 -0.66542524 0.079316229
0.41589078 -0.70701432 0.079316378
0.45606819 0.74629343 0.072899401
0.45606819 0.70483261 0.072899371
0.45606819 0.6633718 0.072899312
0.45606819 0.62191117 0.072899401
0.45606819 0.58045042 0.072899371
0.45606819 0.5389896 0.072899327
0.45606819 0.497529 0.072899431
0.45606819 0.45606816 0.072899401
0.45606819 0.41460738 0.072899356
0.45606819 0.37314665 0.072899401
0.45606819 0.33168596 0.072899431
0.45606819 0.29022515 0.072899386
0.45606819 0.24876446 0.072899431
0.45606819 0.20730373 0.072899476
0.45606819 0.16584295 0.072899416
0.45606819 0.12438224 0.072899461
0.45606819 0.082921445 0.072899409
0.45606819 0.041460827 0.072899371
0.45606819 2.2351742e-08 0.072899491
0.45606819 -0.041460674 0.072899356
0.45606819 -0.082921475 0.072899483
0.45606819 -0.12438218 0.072899349
0.45606819 -0.16584298 0.072899468
0.45606819 -0.2073036 0.072899424
0.45606819 -0.24876449 0.072899446
0.45606819 -0.29022509 0.072899416
0.45606819 -0.33168599 0.072899446
0.45606819 -0.37314668 0.072899327
0.45606819 -0.41460741 0.072899356
0.45606819 -0.45606828 0.072899401
0.45606819 -0.49752891 0.072899342
0.45606819 -0.53898966 0.072899446
0.45606819 -0.58045042 0.072899342
0.45606819 -0.62191123 0.072899461
0.45606819 -0.6633718 0.072899431
0.45606819 -0.70483261 0.072899342
0.49599838 0.74399745 0.066522002
0.49599838 0.70266426 0.066522062
0.49599838 0.66133118 0.066522092
0.49599838 0.61999798 0.066522151
0.49599838 0.57866478 0.066522092
0.49599838 0.53733158 0.066522121
0.49599838 0.49599838 0.066522062
0.49599838 0.45466512 0.066522017
0.49599838 0.41333196 0.066522092
0.49599838 0.37199873 0.066522032
0.49599838 0.33066553 0.066522092
0.49599838 0.28933227 0.066522054
0.49599838 0.24799921 0.066522025
0.49599838 0.20666596 0.06652198
0.49599838 0.16533279 0.066522032
0.49599838 0.12399953 0.066522151
0.49599838 0.082666367 0.066522039
0.49599838 0.041333202 0.066522092
0.49599838 -4.4703484e-08 0.066522047
0.49599838 -0.041333124 0.066522025
0.49599838 -0.082666367 0.066521987
0.49599838 -0.12399963 0.066522107
0.49599838 -0.16533288 0.066522062
0.49599838 -0.20666596 0.066522039
0.49599838 -0.24799921 0.066522002
0.49599838 -0.28933239 0.066522047
0.49599838 -0.33066553 0.066521943
0.49599838 -0.37199879 0.066522062
0.49599838 -0.41333199 0.066522107
0.49599838 -0.45466521 0.066522077
0.49599838 -0.49599829 0.066522047
0.49599838 -0.53733152 0.066522002
0.49599838 -0.57866472 0.066522047
0.49599838 -0.61999804 0.066522092
0.49599838 -0.66133112 0.066522062
0.49599838 -0.70266449 0.066522121
0.49599838 -0.74399745 0.066522002
0.53568357 0.74171585 0.060183913
0.53568357 0.70050925 0.060183734
0.53568357 0.65930295 0.060183853
0.53568357 0.61809647 0.060183764
0.53568357 0.57688999 0.060183764
0.53568357 0.53568363 0.060183838
0.53568357 0.49447718 0.060183793
0.53568357 0.45327067 0.060183823
0.53568357 0.41206419 0.060183823
0.53568357 0.37085789 0.060183838
0.53568357 0.32965145 0.060183823
0.53568357 0.28844506 0.060183927
0.53568357 0.24723858 0.06018392
0.53568357 0.20603213 0.060183749
0.53568357 0.16482574 0.060183834
0.53568357 0.12361927 0.060183834
0.53568357 0.082412973 0.060183842
0.53568357 0.041206416 0.06018392
0.53568357 -4.0978193e-08 0.060183749
0.53568357 -0.041206431 0.060183838
0.53568357 -0.082412809 0.060183756
0.53568357 -0.12361936 0.060183834
0.53568357 -0.16482566 0.060183849
0.53568357 -0.20603213 0.060183845
0.53568357 -0.24723861 0.060183838
0.53568357 -0.28844506 0.060183838
0.53568357 -0.32965145 0.060183749
0.53568357 -0.37085783 0.060183853
0.53568357 -0.41206431 0.060183838
0.53568357 -0.45327067 0.060183927
0.53568357 -0.49447715 0.060183764
0.53568357 -0.53568375 0.060183853
0.53568357 -0.57688999 0.060183853
0.53568357 -0.61809647 0.060183823
0.53568357 -0.65930277 0.060183883
0.53568357 -0.70050943 0.060183853
0.53568357 -0.74171579 0.060183764
0.57512617 0.73944795 0.053884387
0.57512617 0.69836748 0.053884327
0.57512617 0.657287 0.053884268
0.57512617 0.61620677 0.053884476
0.57512617 0.57512623 0.053884417
0.57512617 0.53404582 0.053884476
0.57512617 0.49296522 0.053884298
0.57512617 0.45188493 0.053884417
0.57512617 0.41080445 0.053884357
0.57512617 0.36972398 0.053884432
0.57512617 0.32864353 0.053884313
0.57512617 0.28756309 0.05388438
0.57512617 0.24648257 0.053884365
0.57512617 0.2054022 0.053884335
0.57512617 0.16432168 0.053884316
0.57512617 0.12324132 0.053884309
0.57512617 0.08216086 0.053884372
0.57512617 0.041080505 0.053884357
0.57512617 5.5879354e-08 0.053884424
0.57512617 -0.041080385 0.053884316
0.57512617 -0.08216083 0.053884383
0.57512617 -0.12324127 0.053884283
0.57512617 -0.16432172 0.053884346
0.57512617 -0.20540226 0.05388432
0.57512617 -0.24648263 0.053884476
0.57512617 -0.28756306 0.053884365
0.57512617 -0.3286435 0.053884432
0.57512617 -0.36972395 0.053884327
0.57512617 -0.41080439 0.053884402
0.57512617 -0.45188481 0.053884283
0.57512617 -0.49296528 0.053884342
0.57512617 -0.5340457 0.053884253
0.57512617 -0.57512617 0.053884327
0.57512617 -0.61620665 0.053884387
0.57512617 -0.65728706 0.053884447
0.57512617 -0.69836754 0.053884357
0.57512617 -0.73944795 0.053884417
0.61432832 0.73719394 0.047623247
0.61432832 0.69623876 0.047623396
0.61432832 0.65528345 0.047623277
0.61432832 0.61432838 0.047623366
0.61432832 0.57337308 0.047623307
0.61432832 0.53241777 0.047623232
0.61432832 0.49146271 0.047623292
0.61432832 0.45050749 0.047623321
0.61432832 0.40955222 0.047623396
0.61432832 0.36859703 0.047623396
0.61432832 0.32764179 0.047623292
0.61432832 0.28668642 0.047623269
0.61432832 0.24573123 0.047623262
0.61432832 0.20477605 0.047623262
0.61432832 0.16382086 0.047623247
0.61432832 0.12286568 0.047623239
0.61432832 0.081910498 0.047623225
0.61432832 0.040955227 0.047623299
0.61432832 -4.8428774e-08 0.04762337
0.61432832 -0.040955231 0.047623362
0.61432832 -0.081910409 0.047623351
0.61432832 -0.12286559 0.04762334
0.61432832 -0.16382077 0.047623336
0.61432832 -0.20477614 0.047623314
0.61432832 -0.24573132 0.047623299
0.61432832 -0.28668657 0.04762321
0.61432832 -0.32764179 0.047623202
0.61432832 -0.36859694 0.047623187
0.61432832 -0.40955231 0.047623336
0.61432832 -0.45050749 0.047623336
0.61432832 -0.49146271 0.047623336
0.61432832 -0.53241783 0.047623307
0.61432832 -0.57337308 0.047623307
0.61432832 -0.61432827 0.047623307
0.61432832 -0.65528345 0.047623366
0.61432832 -0.69623864 0.047623366
0.61432832 -0.73719406 0.047623336
0.65329218 0.7349537 0.041400284
0.65329218 0.69412285 0.041400224
0.65329218 0.65329218 0.041400343
0.65329218 0.61246139 0.041400373
0.65329218 0.5716306 0.041400254
0.65329218 0.53079987 0.041400358
0.65329218 0.48996907 0.041400254
0.65329218 0.44913837 0.041400254
0.65329218 0.40830749 0.041400358
0.65329218 0.36747682 0.041400298
0.65329218 0.32664606 0.041400328
0.65329218 0.2858153 0.041400187
0.65329218 0.24498451 0.041400366
0.65329218 0.20415378 0.041400231
0.65329218 0.163323 0.041400261
0.65329218 0.1224924 0.041400291
0.65329218 0.081661455 0.041400306
0.65329218 0.04083078 0.04140025
0.65329218 1.1175871e-08 0.041400276
0.65329218 -0.040830757 0.041400302
0.65329218 -0.08166153 0.041400328
0.65329218 -0.12249238 0.041400261
0.65329218 -0.16332299 0.041400295
0.65329218 -0.20415384 0.041400231
0.65329218 -0.2449846 0.041400261
0.65329218 -0.2858153 0.04140038
0.65329218 -0.32664603 0.041400224
0.65329218 -0.36747682 0.041400254
0.65329218 -0.40830767 0.041400343
0.65329218 -0.44913834 0.041400298
0.65329218 -0.48996913 0.041400328
0.65329218 -0.53079987 0.041400164
0.65329218 -0.57163066 0.041400373
0.65329218 -0.61246145 0.041400224
0.65329218 -0.65329218 0.041400254
0.65329218 -0.69412279 0.041400313
0.65329218 -0.73495376 0.041400284
0.69201994 0.73272687 0.035214871
0.69201994 0.69201994 0.03521499
0.69201994 0.65131283 0.035214901
0.69201994 0.61060572 0.035214961
0.69201994 0.56989884 0.03521505
0.69201994 0.52919167 0.035214961
0.69201994 0.48848462 0.03521499
0.69201994 0.44777763 0.035214975
0.69201994 0.40707046 0.035214975
0.69201994 0.36636358 0.03521499
0.69201994 0.32565635 0.03521499
0.69201994 0.28494936 0.035215005
0.69201994 0.24424233 0.035215005
0.69201994 0.20353529 0.03521502
0.69201994 0.16282819 0.035214931
0.69201994 0.12212116 0.035214946
0.69201994 0.081414044 0.035215028
0.69201994 0.040707104 0.035214957
0.69201994 -1.3038516e-08 0.035215046
0.69201994 -0.040707123 0.035214964
0.69201994 -0.081414074 0.035215065
0.69201994 -0.12212118 0.035214983
0.69201994 -0.16282821 0.035214987
0.69201994 -0.20353532 0.035214908
0.69201994 -0.24424234 0.03521508
0.69201994 -0.28494936 0.035214923
0.69201994 -0.32565647 0.03521502
0.69201994 -0.36636341 0.035214946
0.69201994 -0.40707055 0.03521502
0.69201994 -0.44777757 0.035215035
0.69201994 -0.48848468 0.035214946
0.69201994 -0.52919161 0.035215035
0.69201994 -0.56989872 0.035214961
0.69201994 -0.61060572 0.03521499
0.69201994 -0.65131295 0.035214961
0.69201994 -0.69201982 0.03521499
0.69201994 -0.73272705 0.03521502
0.73051375 0.73051357 0.02906695
0.73051375 0.6899296 0.029067039
0.73051375 0.64934552 0.02906698
0.73051375 0.60876149 0.029067099
0.73051375 0.56817734 0.029067069
0.73051375 0.52759326 0.029067099
0.73051375 0.48700911 0.029067054
0.73051375 0.44642508 0.029067039
0.73051375 0.40584099 0.029067084
0.73051375 0.36525685 0.029067025
0.73051375 0.32467273 0.029067129
0.73051375 0.28408861 0.029067054
0.73051375 0.24350464 0.029066987
0.73051375 0.20292042 0.029067002
0.73051375 0.16233638 0.029067025
0.73051375 0.12175232 0.029067039
0.73051375 0.08116819 0.029067138
0.73051375 0.040584058 0.029067069
0.73051375 1.9557774e-08 0.029066922
0.73051375 -0.040584117 0.029067021
0.73051375 -0.081168175 0.029067041
0.73051375 -0.12175238 0.029067047
0.73051375 -0.16233644 0.029067069
0.73051375 -0.20292039 0.02906701
0.73051375 -0.24350452 0.029067107
0.73051375 -0.28408867 0.029067039
0.73051375 -0.32467279 0.02906698
0.73051375 -0.36525694 0.029067069
0.73051375 -0.40584087 0.02906701
0.73051375 -0.44642502 0.029066935
0.73051375 -0.48700917 0.029067039
0.73051375 -0.5275932 0.029067054
0.73051375 -0.56817734 0.029067159
0.73051375 -0.60876137 0.02906701
0.73051375 -0.64934552 0.02906692
0.73051375 -0.6899296 0.029067039
0.73051375 -0.73051363 0.02906698
0.76877564 0.7283138 0.022956133
0.76877564 0.68785197 0.022956192
0.76877564 0.64739001 0.022956163
0.76877564 0.60692817 0.022956103
0.76877564 0.56646621 0.022956133
0.76877564 0.52600437 0.022956163
0.76877564 0.48554248 0.022956118
0.76877564 0.44508064 0.022956192
0.76877564 0.40461874 0.022956178
0.76877564 0.3641569 0.022956237
0.76877564 0.32369506 0.022956133
0.76877564 0.28323317 0.022956103
0.76877564 0.24277124 0.022956058
0.76877564 0.2023094 0.022956125
0.76877564 0.16184749 0.02295626
0.76877564 0.12138566 0.022956155
0.76877564 0.080923751 0.022956124
0.76877564 0.040461838 0.022956096
0.76877564 5.5879354e-09 0.022956155
0.76877564 -0.040461905 0.022956125
0.76877564 -0.080923647 0.022956107
0.76877564 -0.12138556 0.022956081
0.76877564 -0.16184756 0.022956133
0.76877564 -0.2023094 0.022956192
0.76877564 -0.24277131 0.022956163
0.76877564 -0.28323314 0.022956058
0.76877564 -0.32369494 0.022956118
0.76877564 -0.36415678 0.022956178
0.76877564 -0.40461871 0.022956148
0.76877564 -0.4450807 0.022956178
0.76877564 -0.48554265 0.022956163
0.76877564 -0.52600443 0.022956043
0.76877564 -0.56646621 0.022956222
0.76877564 -0.60692811 0.022956163
0.76877564 -0.64739001 0.022956163
0.76877564 -0.68785191 0.022956103
0.76877564 -0.72831368 0.022956103
0.80680788 0.72612703 0.016881913
