# .PCD v0.7 - Point Cloud Data file format
VERSION 0.7
FIELDS x y z
SIZE 4 4 4
TYPE F F F
COUNT 1 1 1
WIDTH 942
HEIGHT 1
VIEWPOINT 0 0 0 1 0 0 0
POINTS 942
DATA ascii
-1.1402214 -0.65155512 0.71467501
-1.1291445 -0.69899434 0.68830174
-1.1136472 -0.38977653 0.78398025
-1.1025503 -0.44102007 0.75623798
-1.0916771 -0.49125463 0.72905505
-1.0810163 -0.54050815 0.70240307
-1.0705616 -0.58880889 0.67626637
-1.0603074 -0.63618451 0.65063071
-1.0502476 -0.682661 0.62548131
-1.0970011 -0.057736903 0.88670707
-1.0856758 -0.11428171 0.85690373
-1.074582 -0.16967088 0.82770932
-1.0637126 -0.22393936 0.79910594
-1.0530609 -0.27712134 0.77107513
-1.0426204 -0.32924834 0.74360019
-1.0323849 -0.3803525 0.71666479
-1.0223485 -0.4304626 0.69025302
-1.0125053 -0.47960764 0.66434979
-1.0028498 -0.52781558 0.63894069
-0.99337667 -0.5751127 0.61401141
-0.98408097 -0.62152481 0.58954901
-0.97495359 -0.66707343 0.56552964
-1.0790845 0.29974553 0.9973191
-1.0675219 0.23722717 0.9652009
-1.0562046 0.17603409 0.93376368
-1.0451247 0.11612499 0.90298617
-1.0342747 0.057459712 0.87284756
-1.0236478 -0 0.84332824
-1.013237 -0.056290895 0.81440961
-1.0030359 -0.11144832 0.78607297
-0.99303371 -0.1655055 0.7582891
-0.98323339 -0.21849623 0.73106587
-0.97362459 -0.27045125 0.70437479
-0.96420169 -0.3214007 0.67820042
-0.95495957 -0.37137318 0.65252763
-0.94589287 -0.42039675 0.62734222
-0.9369967 -0.46849841 0.60263079
-0.92826635 -0.51570338 0.57837981
-0.91969717 -0.56203723 0.55457669
-0.91128474 -0.60752302 0.53120875
-0.90302485 -0.65218461 0.50826454
-1.0597403 0.68571436 1.1167456
-1.0479376 0.6164338 1.0820318
-1.036395 0.54867983 1.0480829
-1.0250989 0.48239949 1.014859
-1.0140512 0.41755056 0.98236597
-1.0032392 0.35408443 0.9505657
-0.99265528 0.29195747 0.91943645
-0.98229223 0.23112765 0.88895702
-0.97214347 0.17155463 0.85910761
-0.96220207 0.11320034 0.82986861
-0.95246208 0.056027263 0.80122149
-0.94291729 2.9802322e-08 0.77314854
-0.93356198 -0.054915279 0.74563271
-0.92439038 -0.10875174 0.71865761
-0.91539723 -0.16154057 0.69220722
-0.90657741 -0.21331227 0.6662665
-0.89792597 -0.26409584 0.64082086
-0.88943434 -0.31391788 0.61584544
-0.88110542 -0.36280826 0.59134895
-0.87293112 -0.4107911 0.56730664
-0.86490703 -0.457892 0.54370648
-0.85702914 -0.50413465 0.52053607
-0.84929347 -0.54954273 0.49778408
-0.8416962 -0.59413844 0.47543919
-0.83423364 -0.63794327 0.45349059
-0.97048259 0.66720665 1.03262
-0.95996249 0.59997654 0.99974513
-0.94966805 0.53418821 0.96757519
-0.93959218 0.469796 0.93608773
-0.92972779 0.40675595 0.9052617
-0.92006838 0.34502554 0.87507594
-0.9106077 0.284565 0.8455112
-0.90133548 0.22533387 0.81653559
-0.89225411 0.16729763 0.78815645
-0.88335401 0.11041921 0.76034331
-0.87462962 0.054664403 0.73307991
-0.86607593 -0 0.70634955
-0.85768789 -0.053605497 0.68013704
-0.84946084 -0.10618263 0.65442729
-0.84139007 -0.15776061 0.62920618
-0.83347118 -0.20836779 0.60445988
-0.82569999 -0.25803113 0.58017474
-0.81807244 -0.30677724 0.55633849
-0.81058443 -0.35463065 0.53293866
-0.80323231 -0.40161622 0.50996327
-0.79601234 -0.44775692 0.48740083
-0.788921 -0.49307567 0.46524048
-0.78195488 -0.5375939 0.4434714
-0.7751078 -0.5813309 0.42207402
-0.76838249 -0.62431079 0.40105739
-0.89547163 0.7163772 0.98476768
-0.88591629 0.64967185 0.95291638
-0.87656265 0.58437502 0.92173773
-0.86740452 0.52044261 0.89121056
-0.85843575 0.45783237 0.86131477
-0.84965056 0.39650357 0.83203077
-0.84104341 0.33641732 0.8033402
-0.83260882 0.27753621 0.77522492
-0.82434177 0.2198244 0.74766803
-0.81623727 0.16324753 0.72065318
-0.80829054 0.10777205 0.69416416
-0.80049372 0.053366274 0.66817462
-0.79284918 8.9406967e-08 0.64269292
-0.78534925 -0.052356541 0.61769307
-0.77798986 -0.10373195 0.59316194
-0.77076721 -0.15415338 0.56908631
-0.76367736 -0.20364726 0.54545343
-0.75671673 -0.25223893 0.52225149
-0.74988192 -0.29995272 0.49946874
-0.74316943 -0.34681231 0.47709358
-0.73657608 -0.39284053 0.45511568
-0.73009861 -0.43805909 0.43352437
-0.72373414 -0.48248929 0.41230932
-0.71747965 -0.52615178 0.39146122
-0.71133232 -0.56906593 0.37097007
-0.70528948 -0.61125094 0.35082719
-0.82279497 0.76402384 0.93841547
-0.81415004 0.69784272 0.90754074
-0.8056848 0.63303804 0.87730795
-0.79739386 0.56956702 0.84769738
-0.78926826 0.5073868 0.8186776
-0.78131008 0.44646284 0.79025543
-0.77351075 0.38675529 0.76240075
-0.76586568 0.32822812 0.73509663
-0.75837022 0.27084649 0.70832711
-0.75101995 0.2145772 0.68207651
-0.74381089 0.15938793 0.65632975
-0.73673886 0.1052483 0.63107252
-0.72980011 0.052128643 0.60629129
-0.72299081 -0 0.58197236
-0.7163074 -0.051164776 0.55810297
-0.70974642 -0.1013923 0.53467089
-0.70330173 -0.15070757 0.51165414
-0.69697583 -0.19913597 0.48906147
-0.69076264 -0.24670094 0.4668715
-0.68465924 -0.29342544 0.44507387
-0.67866278 -0.33933139 0.42365792
-0.6727705 -0.38444024 0.40261385
-0.66697961 -0.42877254 0.38193214
-0.66128755 -0.47234827 0.36160344
-0.6556918 -0.51518649 0.34161866
-0.65019 -0.55730581 0.3219693
-0.64477974 -0.59872389 0.30264691
-0.74455243 0.74455231 0.86352545
-0.73692685 0.68024027 0.83419651
-0.72945595 0.61723191 0.80546206
-0.72213495 0.55548841 0.77730459
-0.7149595 0.49497199 0.74970663
-0.70792526 0.4356463 0.7226516
-0.70102805 0.37747669 0.69612396
-0.69426101 0.32042813 0.6700967
-0.68762624 0.26447177 0.64457852
-0.68111706 0.20957439 0.61954308
-0.67472994 0.15570696 0.5949775
-0.66846156 0.10284023 0.57086825
-0.66230857 0.050946727 0.54720283
-0.65626776 8.9406967e-08 0.52396911
-0.65033621 -0.050025925 0.5011555
-0.64451087 -0.099155486 0.47875032
-0.638789 -0.14741285 0.45674312
-0.63316786 -0.19482088 0.43512315
-0.62764472 -0.24140182 0.41388056
-0.62221718 -0.28717712 0.39300513
-0.61688268 -0.33216763 0.37248778
-0.61163878 -0.37639317 0.35231921
-0.60648334 -0.41987312 0.33249074
-0.60141194 -0.46262449 0.31298512
-0.59642673 -0.50466883 0.29381147
-0.59152359 -0.54602182 0.27495289
-0.58670032 -0.58670038 0.25640202
-0.67703056 0.78986895 0.82082272
-0.67019892 0.72604877 0.79235756
-0.66350377 0.66350371 0.76446128
-0.65694106 0.6021961 0.73711675
-0.65050691 0.54208905 0.71030772
-0.64419758 0.48314813 0.68401873
-0.63800943 0.42533958 0.65823472
-0.63193905 0.36863127 0.63294178
-0.62598312 0.31299156 0.60812521
-0.62013841 0.25839096 0.58377218
-0.61439931 0.20479982 0.5598594
-0.60876787 0.15219198 0.53639525
-0.60323882 0.1005398 0.51335734
-0.59780926 0.049817473 0.49073428
-0.59247661 2.9802322e-08 0.46851459
-0.58723813 -0.048936486 0.44668794
-0.58209163 -0.097015291 0.42524385
-0.57703447 -0.14425868 0.40417242
-0.5720644 -0.19068819 0.38346392
-0.56717926 -0.23632464 0.36310905
-0.56237686 -0.28118846 0.34309912
-0.55765504 -0.3252987 0.32342494
-0.55301189 -0.36867467 0.30407846
-0.54844546 -0.41133401 0.28505158
-0.54395372 -0.45329475 0.2663362
-0.53953505 -0.4945738 0.24792495
-0.53518754 -0.5351876 0.2298104
-0.5309096 -0.57515198 0.21198557
-0.60541487 0.77052802 0.75174803
-0.59945142 0.70844245 0.72464138
-0.59360683 0.64757097 0.698075
-0.58787513 0.58787513 0.67202187
-0.58225304 0.52932096 0.64646673
-0.57673746 0.47187597 0.62139589
-0.57132536 0.41550934 0.59679568
-0.56601393 0.36019069 0.57265282
-0.56080031 0.30589104 0.54895455
-0.55568188 0.25258276 0.52568918
-0.55065608 0.20023856 0.50284433
-0.54572034 0.14883277 0.4804092
-0.54087228 0.098340452 0.45837265
-0.53610963 0.048737258 0.43672431
-0.53142804 1.4901161e-08 0.41544446
-0.52682954 -0.047893599 0.39454201
-0.52230996 -0.094965458 0.37399852
-0.51786727 -0.14123653 0.35380435
-0.5134995 -0.18672708 0.33395088
-0.50920475 -0.23145673 0.31442946
-0.50498128 -0.27544427 0.29523185
-0.50082737 -0.31870824 0.27635017
-0.49674112 -0.36126623 0.25777656
-0.49272108 -0.40313536 0.23950344
-0.48876554 -0.44433233 0.22152381
-0.48487303 -0.48487312 0.20383058
-0.48104206 -0.52477312 0.18641686
-0.47727108 -0.56404763 0.16927645
-0.54248577 0.81372869 0.71229106
-0.5372203 0.75210834 0.68596369
-0.53205615 0.69167292 0.66014272
-0.52699023 0.63238835 0.63481355
-0.52201992 0.57422179 0.60996187
-0.51714247 0.51714247 0.58557469
-0.51235324 0.46111801 0.56162864
-0.50765395 0.40612319 0.53813213
-0.50304013 0.35212794 0.51506275
-0.49850941 0.29910558 0.49240908
-0.4940595 0.24702978 0.47015989
-0.4896884 0.19587544 0.44830421
-0.48539397 0.14561811 0.42683181
-0.48117414 0.096234813 0.40573296
-0.47702706 0.047702745 0.38499767
-0.47295091 -4.4703484e-08 0.36461675
-0.4689438 -0.046894312 0.34458131
-0.46500403 -0.093000829 0.32488239
-0.4611299 -0.13833898 0.30551177
-0.45731977 -0.18292782 0.2864612
-0.45357212 -0.22678605 0.26772293
-0.4498854 -0.26993123 0.2492892
-0.4462581 -0.31238067 0.23115283
-0.44268882 -0.35415104 0.21330643
-0.4391762 -0.39525852 0.19574329
-0.4357174 -0.4357174 0.17844921
-0.4323141 -0.47554547 0.16143273
-0.42896354 -0.51475632 0.1446801
-0.42566457 -0.55336386 0.12818517
-0.47672921 0.79454869 0.64835781
-0.47221002 0.73454899 0.62325138
-0.46777573 0.67567617 0.59861648
-0.46342394 0.61789852 0.57443982
-0.45915237 0.56118619 0.55070871
-0.45495886 0.50550973 0.52741152
-0.45084122 0.45084122 0.50453568
-0.44679743 0.39715332 0.48207048
-0.44282559 0.34441981 0.4600043
-0.43892372 0.29261583 0.43832731
-0.43508831 0.24171573 0.41701955
-0.43132102 0.19169819 0.39609021
-0.42761841 0.14253947 0.37552026
-0.42397884 0.094217472 0.35530013
-0.42040065 0.046711117 0.33542153
-0.41688243 -1.4901161e-08 0.31587568
-0.41342255 -0.045935795 0.29665419
-0.41001961 -0.091115519 0.27774912
-0.4066723 -0.13555744 0.25915277
-0.40337914 -0.17927969 0.24085751
-0.40013891 -0.2222994 0.22285622
-0.3969503 -0.2646336 0.20514192
-0.39381215 -0.30629835 0.18770754
-0.39072323 -0.34730956 0.17054681
-0.38768235 -0.38768232 0.15365309
-0.38468847 -0.42743155 0.13702035
-0.38174042 -0.46657157 0.12064256
-0.37883726 -0.50511634 0.10451372
-0.3759779 -0.54307926 0.088628486
-0.41790846 0.83581686 0.61179006
-0.41400108 0.77625197 0.58736908
-0.41016608 0.71779054 0.56340009
-0.40640149 0.6604023 0.53987151
-0.40270534 0.60405809 0.51677072
-0.39907584 0.54872936 0.49408635
-0.39551121 0.494389 0.47180718
-0.39200965 0.44101089 0.44992271
-0.38856956 0.38856953 0.42842194
-0.38518932 0.33704063 0.40729547
-0.38186738 0.28640053 0.38653344
-0.37860227 0.23662634 0.36612645
-0.3753925 0.18769623 0.3460654
-0.3722367 0.13958877 0.3263416
-0.36913353 0.092283316 0.30694672
-0.36608166 0.045760237 0.28787267
-0.36307853 1.4901161e-08 0.26910302
-0.36012557 -0.045015663 0.25064701
-0.35722023 -0.089304991 0.23248884
-0.35436141 -0.13288553 0.21462113
-0.35154799 -0.17577395 0.19703732
-0.3487789 -0.2179869 0.17973037
-0.34605306 -0.25953984 0.16269396
-0.34336954 -0.30044836 0.14592183
-0.3407273 -0.34072724 0.12940785
-0.33812541 -0.38039112 0.11314607
-0.33556294 -0.41945362 0.097130775
-0.33303905 -0.45792869 0.081356317
-0.33055282 -0.49582925 0.065817401
-0.32810345 -0.53316814 0.050508842
-0.35736445 0.8168329 0.55246532
-0.35409832 0.75878203 0.52913594
-0.35089138 0.70178276 0.50622928
-0.34774199 0.64580661 0.48373359
-0.34464729 0.59082389 0.46162862
-0.34160849 0.53681344 0.43992323
-0.33862284 0.48374695 0.4185968
-0.33568892 0.43160003 0.39764023
-0.3328054 0.38034898 0.37704369
-0.32997099 0.32997102 0.35679784
-0.32718447 0.28044379 0.33689401
-0.32444456 0.23174615 0.3173236
-0.32175022 0.18385728 0.2980783
-0.31910026 0.13675725 0.2791498
-0.31649357 0.090426765 0.26053071
-0.31392911 0.044847019 0.24221312
-0.31140593 -6.7055225e-08 0.22419026
-0.30892292 -0.04413186 0.20645463
-0.30647922 -0.087565482 0.18899973
-0.3040739 -0.13031738 0.17181867
-0.30170602 -0.17240344 0.15490529
-0.29937473 -0.21383925 0.13825321
-0.29707921 -0.2546393 0.12185656
-0.29481858 -0.29481852 0.1057094
-0.29259217 -0.334391 0.089806147
-0.29039812 -0.37336901 0.074134558
-0.28823769 -0.41176811 0.058702856
-0.28610915 -0.44960004 0.043499127
-0.28401187 -0.48687747 0.028518379
-0.28194505 -0.52361226 0.013755441
-0.40164477 -0.80328965 0.86875349
-0.30223423 0.85633039 0.51848096
-0.29950842 0.79868913 0.49576586
-0.29683134 0.7420783 0.47345686
-0.2942017 0.68647063 0.45154309
-0.29161823 0.63183957 0.43001419
-0.28907976 0.57815945 0.40886015
-0.28658506 0.52540594 0.38807115
-0.28413308 0.47355527 0.36763805
-0.28172269 0.42258406 0.34755138
-0.27935183 0.37246907 0.32779408
-0.27702156 0.3231917 0.30837512
-0.27472985 0.27472979 0.28927755
-0.27247569 0.22706302 0.27049312
-0.27025828 0.1801721 0.25201464
-0.26807666 0.13403836 0.23383433
-0.26592994 0.088643253 0.21594533
-0.26381737 0.043969594 0.19834045
-0.26173812 1.4901161e-08 0.18101308
-0.25969133 -0.043281808 0.16395672
-0.25767633 -0.085892081 0.14716518
-0.25569236 -0.12784624 0.13063206
-0.25373873 -0.16915911 0.11435163
-0.25181466 -0.20984562 0.098317996
-0.24991962 -0.24991955 0.082525879
-0.24805287 -0.289395 0.066969551
-0.24621379 -0.32828504 0.051643863
-0.2444018 -0.3666026 0.036543757
-0.24261625 -0.40436047 0.021664381
-0.24085663 -0.44157046 0.0070008337
-0.23912235 -0.47824466 -0.0074516088
-0.23741286 -0.51439458 -0.021697342
-0.34662303 -0.80878717 0.88838768
-0.24634023 0.83755684 0.46326482
-0.24416682 0.78133374 0.44153041
-0.24203138 0.72609425 0.42017633
-0.239933 0.67181236 0.39919227
-0.23787069 0.61846375 0.37856904
-0.23584352 0.5660243 0.35829753
-0.23385063 0.51447123 0.33836842
-0.23189111 0.46378231 0.31877351
-0.22996417 0.41393548 0.29950404
-0.22806899 0.36491045 0.28055215
-0.2262048 0.31668657 0.26191017
-0.22437082 0.269245 0.24357052
-0.22256635 0.22256632 0.2255258
-0.22079067 0.17663266 0.20776896
-0.21904235 0.13142549 0.19028573
-0.21732223 0.086928912 0.17308463
-0.21562892 0.043125812 0.15615149
-0.21396179 3.7252903e-08 0.13948037
-0.21232027 -0.042463981 0.12306489
-0.21070372 -0.084281489 0.10689945
-0.2091116 -0.125467 0.090978324
-0.20754336 -0.16603467 0.07529591
-0.20599848 -0.20599854 0.059847042
-0.20447643 -0.24537176 0.044626519
-0.20297669 -0.28416732 0.029629156
-0.20149879 -0.32239813 0.014850199
-0.20004228 -0.3600761 0.00028496981
-0.19860666 -0.39721331 -0.014071241
-0.19719149 -0.43382126 -0.028222799
-0.19579636 -0.46991122 -0.042174205
-0.19442081 -0.50549412 -0.055929527
-0.29084301 -0.81436038 0.90829229
-0.1945397 0.87542856 0.43160841
-0.19284517 0.81959182 0.41042668
-0.19117989 0.76471961 0.38961098
-0.18954313 0.71078676 0.36915147
-0.18793346 0.657767 0.34903049
-0.1863516 0.6056428 0.32925725
-0.18479612 0.55438817 0.30981374
-0.1832664 0.50398266 0.29069233
-0.18176182 0.45440447 0.27188477
-0.18028173 0.40563393 0.25338387
-0.17882554 0.35765103 0.23518157
-0.17739271 0.31043714 0.21727097
-0.17598264 0.26397395 0.19964512
-0.1745948 0.21824342 0.18229729
-0.1732287 0.17322868 0.16522101
-0.17188379 0.12891285 0.14840966
-0.17055961 0.085279807 0.13185756
-0.16925569 0.042313945 0.11555845
-0.16797155 -4.0978193e-08 0.099506646
-0.16670674 -0.041676696 0.083696596
-0.16546085 -0.08273042 0.068122931
-0.16423343 -0.1231751 0.05278014
-0.1630241 -0.16302407 0.037663538
-0.16183245 -0.20229053 0.022767827
-0.16065809 -0.24098721 0.0080881864
-0.15950064 -0.27912611 -0.0063797235
-0.15835926 -0.31671843 -0.02064696
-0.15723459 -0.35377777 -0.0347054
-0.15612578 -0.39031434 -0.048565537
-0.1550325 -0.42633927 -0.062231526
-0.15395443 -0.46186328 -0.075707465
-0.15289123 -0.49689651 -0.088997245
-0.23428887 -0.82001108 0.92847317
-0.14281406 0.85688436 0.38009658
-0.1415962 0.80237848 0.359799
-0.14039895 0.74879444 0.33984464
-0.13922176 0.6961087 0.32022488
-0.13806416 0.64429945 0.30093157
-0.13692565 0.59334445 0.2819564
-0.13580526 0.543221 0.26328331
-0.13470355 0.49391305 0.24492161
-0.13361958 0.44539848 0.2268551
-0.13255289 0.39765877 0.20907718
-0.13150311 0.35067499 0.19158086
-0.13046984 0.30442956 0.17435946
-0.12945266 0.25890526 0.15740664
-0.12845123 0.2140854 0.14071609
-0.12746517 0.16995355 0.12428167
-0.12649412 0.12649414 0.10809776
-0.12553778 0.08369185 0.092158675
-0.12459578 0.04153192 0.076458581
-0.12366782 8.1956387e-08 0.060992464
-0.12275356 -0.040917903 0.045755129
-0.12185274 -0.081235163 0.03074122
-0.12096503 -0.12096496 0.015946124
-0.12009018 -0.16012022 0.001365073
-0.11922787 -0.19871311 -0.013006531
-0.11837787 -0.23675573 -0.027173206
-0.1175399 -0.27425975 -0.041139394
-0.11671371 -0.3112365 -0.054909274
-0.11589906 -0.34769714 -0.06848684
-0.11509569 -0.38365227 -0.081876278
-0.11430339 -0.41911238 -0.09508127
-0.11352192 -0.45408767 -0.10810581
-0.11275072 -0.48858654 -0.12095898
-0.17694443 -0.82574069 0.94893616
-0.09402632 0.89325005 0.35052022
-0.09323439 0.83910942 0.33072186
-0.092455678 0.78587329 0.3112542
-0.09168987 0.73351896 0.29210901
-0.090936646 0.68202484 0.27327842
-0.090195693 0.63136971 0.25475457
-0.089466721 0.58153367 0.23653044
-0.088749439 0.53249675 0.21859834
-0.088043563 0.48423961 0.20095137
-0.087348834 0.43674415 0.18358302
-0.086664975 0.38999245 0.16648668
-0.08599174 0.3439669 0.14965586
-0.085328892 0.29865101 0.13308457
-0.084676184 0.25402847 0.11676665
-0.084033377 0.21008337 0.10069667
-0.083399989 0.16679992 0.084861785
-0.082776338 0.12416446 0.06927079
-0.082161956 0.082161933 0.053911157
-0.081556626 0.040778264 0.038777895
-0.080960147 4.2840838e-08 0.023865867
-0.080372326 -0.040186163 0.0091704512
-0.079792984 -0.079792932 -0.0053130873
-0.079221942 -0.11883295 -0.019589398
-0.078658998 -0.15731789 -0.033662714
-0.078104012 -0.19526003 -0.047537588
-0.077556796 -0.2326704 -0.061217867
-0.077017196 -0.26956019 -0.074707761
-0.076485053 -0.30594027 -0.088011421
-0.075960211 -0.34182096 -0.10113236
-0.075442523 -0.37721264 -0.11407447
-0.074931853 -0.41212517 -0.12684155
-0.074428037 -0.44656816 -0.13943669
-0.073930956 -0.48055124 -0.1518638
-0.11879355 -0.83155477 0.96970105
-0.046049971 0.87494951 0.30236101
-0.045669999 0.82206011 0.28336233
-0.04529608 0.77003336 0.26466629
-0.044928394 0.71885419 0.24628189
-0.044566635 0.66849947 0.22819383
-0.044210646 0.61894906 0.21039461
-0.043860305 0.57018393 0.19287765
-0.043515474 0.52218574 0.1756359
-0.043176021 0.47493613 0.15866308
-0.042841822 0.42841825 0.14195322
-0.042512756 0.38261482 0.12550008
-0.042188708 0.33750963 0.1092976
-0.041869558 0.29308695 0.093340352
-0.041555207 0.24933125 0.077622749
-0.041245542 0.20622773 0.06213928
-0.040940452 0.16376181 0.046884913
-0.040639844 0.12191954 0.03185463
-0.04034362 0.080687284 0.017043393
-0.040051684 0.040051691 0.0024464838
-0.039763942 -1.3969839e-09 -0.011940666
-0.039480302 -0.039480314 -0.026122529
-0.039200682 -0.078401431 -0.040103551
-0.038925 -0.11677496 -0.053887889
-0.038653161 -0.15461259 -0.067479774
-0.038384978 -0.19192484 -0.080888867
-0.038120605 -0.22872356 -0.094107494
-0.03785985 -0.26501888 -0.10714528
-0.037602637 -0.30082116 -0.12000578
-0.037348896 -0.33614016 -0.13269284
-0.03709856 -0.37098566 -0.14520979
-0.036851551 -0.40536708 -0.15756005
-0.036607813 -0.43929368 -0.16974707
-0.036367279 -0.47277462 -0.18177371
-0.059817679 -0.83744764 0.99074638
0 0.90992463 0.27467376
0 0.85738075 0.25612733
0 0.80568671 0.23788083
0 0.75482213 0.21992722
0 0.70476687 0.20225906
0 0.65550244 0.1848703
0 0.60700965 0.16775383
0 0.55927062 0.1509033
0 0.5122664 0.1343057
0 0.46598351 0.11796933
0 0.42040369 0.10188098
0 0.37551114 0.086035371
0 0.33129042 0.070426777
0 0.28772625 0.05505012
0 0.24480452 0.03989996
0 0.20251098 0.024971686
0 0.16083187 0.010260239
0 0.11975389 -0.0042390004
0 0.079264268 -0.0185306
0 0.039350476 -0.032618865
0 1.8626451e-08 -0.046508443
0 -0.038798667 -0.060203049
0 -0.077057168 -0.073707171
0 -0.11478689 -0.087024532
0 -0.15199825 -0.10015903
0 -0.18870232 -0.11311433
0 -0.2249092 -0.12589432
0 -0.260629 -0.13850228
0 -0.29587129 -0.1509417
0 -0.33064592 -0.16321608
0 -0.36496186 -0.17532842
0 -0.39882824 -0.18728226
0 -0.43225247 -0.19908559
0 -0.46524572 -0.21073113
0 -0.84342444 1.012092
0.044593439 0.89186877 0.2295343
0.044237029 0.84050345 0.21171364
0.04388627 0.78995275 0.19417566
0.043541029 0.74019748 0.17691374
0.043201182 0.69121897 0.15992132
0.042866595 0.64299881 0.14319181
0.042537149 0.59552014 0.12671974
0.042212732 0.54876548 0.11049879
0.041893225 0.50271863 0.094523355
0.041578516 0.45736361 0.078788027
0.041268501 0.41268498 0.063287199
0.040963072 0.3686676 0.048015952
0.040662136 0.32529706 0.032969162
0.040365458 0.28255826 0.01813522
0.040073209 0.24043928 0.00352256
0.039785158 0.1989257 -0.010879859
0.039501216 0.15800484 -0.025076941
0.039221302 0.11766391 -0.039072666
0.038945325 0.077890582 -0.052871503
0.038673203 0.038673155 -0.066477515
0.038404863 8.5681677e-08 -0.079894595
0.038140219 -0.038140163 -0.093126819
0.037879195 -0.075758457 -0.10617801
0.037621722 -0.11286512 -0.11905172
0.037367724 -0.14947094 -0.13175155
0.037117135 -0.18558563 -0.14428109
0.03686988 -0.22121918 -0.15664366
0.036625899 -0.25638124 -0.16884261
0.03638513 -0.29108101 -0.18088135
0.036147498 -0.3253274 -0.19276272
0.035912957 -0.35912958 -0.2044898
0.035681438 -0.39249575 -0.21606579
0.035452884 -0.42543453 -0.22749349
0.035227239 -0.45795408 -0.23877582
0.060677644 -0.84948695 1.0337443
0.088148251 0.92555666 0.20356858
0.08745157 0.87451565 0.18615139
0.086766109 0.82427806 0.16901502
0.08609131 0.77482164 0.15214491
0.085426927 0.72612882 0.13553539
0.084772721 0.67818177 0.11918026
0.084128454 0.63096344 0.10307366
0.083493911 0.58445728 0.08721
0.082868867 0.53864777 0.071584061
0.082253113 0.49351865 0.056190193
0.081646442 0.44905549 0.041023359
0.08104866 0.40524331 0.026078597
0.080459557 0.36206806 0.011351213
0.079878964 0.31951571 -0.0031637102
0.079306684 0.27757329 -0.017470673
0.078742549 0.23622763 -0.031573929
0.078186378 0.19546597 -0.045478255
0.077638023 0.15527603 -0.059187319
0.077097289 0.115646 -0.072705463
0.076564044 0.076564029 -0.086036608
0.076038122 0.038019147 -0.099184692
0.075519376 4.4703484e-08 -0.11215332
0.07500767 -0.037503816 -0.12494616
0.074502833 -0.074502833 -0.13756683
0.074004762 -0.11100715 -0.15001874
0.073513083 -0.14702615 -0.16231072
0.07302811 -0.18257026 -0.17443494
0.072549492 -0.21764849 -0.18640046
0.072077103 -0.25226989 -0.19821003
0.071610831 -0.28644338 -0.20986693
0.071150556 -0.3201775 -0.22137392
0.070696153 -0.35348073 -0.23273388
0.070247523 -0.38636133 -0.24394962
0.069804549 -0.4188273 -0.25502402
0.069367126 -0.45088628 -0.26595962
0.12223392 -0.85563743 1.0557104
0.1296791 0.90775371 0.1611807
0.12867418 0.85782778 0.14443189
0.12768471 0.80866981 0.12794071
0.12671034 0.76026201 0.11170128
0.1257503 0.71258503 0.095700681
0.12480554 0.66562951 0.079954594
0.12387406 0.61937028 0.06442976
0.12295677 0.5737983 0.049141765
0.12205297 0.52889621 0.034078345
0.12116234 0.48464933 0.019234702
0.12028463 0.44104367 0.0046063066
0.11941956 0.39806527 -0.0098118037
0.11856683 0.3557004 -0.024023965
0.11772618 0.31393647 -0.038034633
0.11689738 0.27276063 -0.051848009
0.11608017 0.23216039 -0.065468192
0.1152743 0.19212382 -0.078899294
0.11447955 0.15263942 -0.092145219
0.11369567 0.1136957 -0.10520974
0.11292247 0.075281695 -0.11809664
0.11215971 0.037386592 -0.13080934
0.11140718 7.4505806e-09 -0.14335147
0.11066468 -0.036888212 -0.1557264
0.10993201 -0.073288038 -0.16793749
0.10920898 -0.10920904 -0.17998795
0.10849541 -0.14466062 -0.19188106
0.10779109 -0.17965177 -0.20361955
0.10709586 -0.21419173 -0.21520683
0.10640953 -0.24828893 -0.22664538
0.10573196 -0.28195179 -0.23793834
0.10506295 -0.31518888 -0.24908848
0.10440208 -0.34800696 -0.26010311
0.10374974 -0.38041577 -0.27097535
0.10310551 -0.41242206 -0.28171247
0.10246923 -0.44403329 -0.29231724
0.18468808 -0.86187774 1.077997
0.17095235 0.94023788 0.13676661
0.16964243 0.89062274 0.12039271
0.16835244 0.84176219 0.10426772
0.16708192 0.79363918 0.088386238
0.16583042 0.74623686 0.072742552
0.16459754 0.69953966 0.057331592
0.16338286 0.65353143 0.042148024
0.16218597 0.60819733 0.0271869
0.16100648 0.5635227 0.012443304
0.15984404 0.51949316 -0.0020872355
0.15869825 0.47609472 -0.016409621
0.15756878 0.43331414 -0.030527949
0.15645528 0.3911382 -0.044446871
0.15535739 0.34955406 -0.058170393
0.15427433 0.30854857 -0.071708612
0.15320674 0.2681118 -0.085053556
0.15215382 0.22823077 -0.098214999
0.15111527 0.18889409 -0.1111968
0.1500908 0.15009081 -0.12400257
0.14908014 0.11181012 -0.1366359
0.14808299 0.074041516 -0.14910033
0.14709909 0.036774851 -0.16139892
0.14612819 -0 -0.17353535
0.14517002 -0.036292471 -0.18551251
0.14422432 -0.072112188 -0.19733374
0.14329086 -0.10746817 -0.20900182
0.14236942 -0.14236942 -0.22051987
0.14145976 -0.17682472 -0.23189078
0.14056164 -0.21084246 -0.24311717
0.13967484 -0.24443102 -0.25420195
0.13879918 -0.27759841 -0.26514792
0.13793443 -0.31035247 -0.27595735
0.13708039 -0.34270096 -0.28663301
0.13623685 -0.37465143 -0.29717714
0.13540363 -0.40621081 -0.30759248
0.13458054 -0.43738675 -0.31788108
0.14092708 -0.49324483 -0.23854928
0.20970242 0.92269063 0.096886337
0.20812534 0.87412643 0.081115633
0.20657182 0.82628715 0.065580338
0.2050413 0.7791568 0.050275147
0.20353331 0.7327199 0.035195351
0.20204732 0.68696094 0.020335555
0.20058289 0.64186525 0.0056911409
0.19913952 0.59741849 -0.0087425709
0.19771679 0.55360693 -0.022969931
0.19631423 0.51041698 -0.036995471
0.19493143 0.46783543 -0.05082339
0.19356798 0.42584944 -0.064457953
0.19222347 0.38444686 -0.077903092
0.19089751 0.34361547 -0.091162622
0.18958972 0.3033435 -0.10424057
0.18829972 0.2636196 -0.11714051
0.18702716 0.22443262 -0.12986618
0.18577169 0.1857717 -0.14242083
0.18453294 0.14762637 -0.15480821
0.18331063 0.10998641 -0.16703141
0.18210439 0.072841726 -0.1790939
0.18091393 0.036182843 -0.19099848
0.17973892 7.4505806e-09 -0.20274842
0.17857859 -0.03571564 -0.21435195
0.17743362 -0.070973441 -0.22580147
0.17630325 -0.10578194 -0.2371051
0.1751872 -0.1401498 -0.24826573
0.17408518 -0.17408517 -0.2592859
0.17299694 -0.20759635 -0.27016824
0.17192222 -0.24069105 -0.2809155
0.17086078 -0.27337733 -0.29152995
0.16981235 -0.30566224 -0.30201408
0.16877672 -0.33755341 -0.31237051
0.16775364 -0.36905792 -0.32260123
0.16674289 -0.4001829 -0.33270869
0.16574426 -0.43093508 -0.34269527
0.17043054 -0.47720546 -0.29583222
0.24888481 0.95405853 0.073902458
0.24703345 0.90578926 0.058474243
0.24520938 0.8582328 0.043273777
0.24341208 0.81137365 0.028296322
0.24164093 0.76519632 0.013536751
0.23989536 0.71968603 -0.0010097027
0.23817484 0.67482877 -0.015347332
0.23647808 0.63060808 -0.029487133
0.23480606 0.58701509 -0.043420613
0.23315752 0.54403424 -0.05715844
0.23153195 0.50165248 -0.070704877
0.2299289 0.45985776 -0.08406359
0.22834788 0.41863787 -0.097238541
0.22678848 0.37798083 -0.11023378
0.22525021 0.33787537 -0.12305249
0.22373269 0.29831022 -0.13569862
0.22223547 0.25927481 -0.14817546
0.22075815 0.22075804 -0.16048639
0.21930036 0.1827503 -0.17263474
0.21786168 0.14524108 -0.18462375
0.21644175 0.10822088 -0.19645637
0.21504022 0.071680062 -0.20813581
0.21365672 0.035609439 -0.21966499
0.21229091 2.9802322e-08 -0.23104686
0.21094245 -0.035157129 -0.24228394
0.20961101 -0.069870315 -0.25337929
0.20829628 -0.10414816 -0.26433542
0.20699793 -0.13799867 -0.27515501
0.20571567 -0.17142975 -0.28584051
0.20444919 -0.20444919 -0.29639438
0.20319822 -0.23706448 -0.30681926
0.20196247 -0.26928324 -0.31711721
0.20074165 -0.30111256 -0.32729065
0.19953497 -0.33255821 -0.33734623
0.19834325 -0.36362922 -0.34727746
0.19716567 -0.39433128 -0.35709059
0.19600198 -0.42467096 -0.36678794
0.19807515 -0.46217531 -0.3495115
0.28510317 0.9367677 0.036313534
0.2830205 0.88949299 0.021437347
0.28096807 0.84290421 0.0067771077
0.27894518 0.79698634 -0.007671982
0.27695122 0.7517246 -0.02191478
0.27498555 0.70710576 -0.035955191
0.2730476 0.66311562 -0.049797654
0.27113676 0.6197412 -0.063446522
0.26925248 0.57696962 -0.076905668
0.26739421 0.53478837 -0.090179041
0.26556143 0.49318552 -0.10327032
0.26375359 0.45214903 -0.1161835
0.26197019 0.41166744 -0.12892199
0.26021001 0.37172854 -0.14149487
0.25847405 0.33232379 -0.15389456
0.2567611 0.29344124 -0.16612986
0.25507072 0.25507069 -0.17820401
0.25340244 0.21720208 -0.19012021
0.25175586 0.17982563 -0.20188162
0.25013053 0.14293168 -0.21349111
0.24852604 0.10651117 -0.22495173
0.24694201 0.070554808 -0.23626617
0.24537803 0.035053961 -0.24743736
0.24383377 1.4901161e-08 -0.25846797
0.24230881 -0.034615524 -0.26936054
0.24080279 -0.068800762 -0.28011775
0.23931541 -0.1025638 -0.29074198
0.23784626 -0.13591221 -0.30123588
0.23639506 -0.16885364 -0.31160167
0.23496145 -0.20139557 -0.32184169
0.23354511 -0.23354509 -0.33195832
0.23214576 -0.26530942 -0.34195372
0.23076308 -0.29669535 -0.35183001
0.22939676 -0.32770967 -0.36158937
0.22804654 -0.35835871 -0.37123394
0.22671211 -0.38864926 -0.38076556
0.22539322 -0.41858742 -0.39018622
0.22408956 -0.4481791 -0.39949799
0.32236201 0.96708596 0.014624745
0.32003209 0.92009234 6.2823296e-05
0.31773561 0.8737728 -0.014290392
0.31547183 0.82811362 -0.028438658
0.31324011 0.78310025 -0.042387098
0.31103972 0.73871934 -0.056139439
0.30887005 0.69495761 -0.069699943
0.30673042 0.65180206 -0.083072633
0.30462024 0.60924047 -0.096261248
0.3025389 0.5672605 -0.10926956
0.30048579 0.52585006 -0.12210149
0.29846039 0.48499811 -0.13476035
0.29646209 0.44469309 -0.14724977
0.29449037 0.40492421 -0.1595729
0.29254469 0.36568087 -0.17173333
0.29062456 0.32695261 -0.18373409
0.28872952 0.28872958 -0.19557829
0.28685898 0.25100157 -0.20726907
0.28501251 0.21375941 -0.21880943
0.28318968 0.17699352 -0.23020206
0.28139004 0.14069501 -0.24144992
0.27961311 0.10485489 -0.25255573
0.27785847 0.069464572 -0.26352221
0.27612576 0.034515671 -0.27435184
0.27441373 -1.4901161e-08 -0.28505188
0.27272356 -0.034090564 -0.29561555
0.27105406 -0.06776353 -0.30604985
0.26940489 -0.10102681 -0.31635711
0.26777568 -0.1338878 -0.32653993
0.26616603 -0.16635379 -0.33659995
0.26457563 -0.19843173 -0.34654
0.26300412 -0.23012862 -0.35636199
0.26145115 -0.26145118 -0.3660678
0.25991645 -0.29240611 -0.37565991
0.25839967 -0.32299957 -0.38513985
0.25690043 -0.35323811 -0.39450994
0.25541854 -0.38312784 -0.40377191
0.25395364 -0.41267467 -0.41292754
0.25250542 -0.44188458 -0.42197874
0.35627028 0.95005393 -0.020858496
0.3537403 0.9040029 -0.034913927
0.351246 0.85860133 -0.048770934
0.34878665 0.8138355 -0.062434077
0.34636149 0.76969218 -0.07590732
0.34396875 0.72615623 -0.089200228
0.3416099 0.68321979 -0.10230488
0.3392832 0.64086819 -0.11523113
0.33698794 0.59908968 -0.12798241
0.33472353 0.55787259 -0.14056242
0.33248937 0.51720572 -0.15297444
0.33028486 0.47707802 -0.165222
0.32810935 0.43747911 -0.17730802
0.32596233 0.39839834 -0.18923594
0.32384321 0.35982579 -0.20100874
0.32175148 0.32175145 -0.2126295
0.31968659 0.28416586 -0.2241012
0.31764805 0.24705963 -0.23542644
0.31563532 0.21042353 -0.24660817
0.31364796 0.17424887 -0.25764924
0.31168541 0.13852695 -0.26855204
0.30974734 0.10324906 -0.27931917
0.30783319 0.068407394 -0.28995341
0.30594257 0.033993617 -0.30045685
0.304075 1.4901161e-08 -0.31083208
0.30223012 -0.033581093 -0.32108161
0.3004075 -0.066757247 -0.33120722
0.29860669 -0.099535532 -0.3412115
0.29682738 -0.13192323 -0.35109669
0.29506913 -0.16392733 -0.36086485
0.29333159 -0.19555436 -0.3705177
0.29161441 -0.2268112 -0.38005775
0.2899172 -0.25770417 -0.38948664
0.28823891 -0.28823897 -0.39881051
0.28658065 -0.31842297 -0.408023
0.28494138 -0.34826165 -0.41713023
0.28332072 -0.37776095 -0.42613363
0.28171843 -0.40692657 -0.43503541
0.28013414 -0.43576416 -0.44383708
0.56974989 -0.94958317 1.1651394
0.35874724 0.43049669 -0.20640147
0.35643694 0.39208061 -0.217953
0.35415524 0.35415521 -0.2293615
0.35190353 0.31671318 -0.24061999
0.34968027 0.2797443 -0.25173625
0.34748495 0.2432394 -0.26271299
0.34531698 0.20719016 -0.27355269
0.34317592 0.17158794 -0.28425807
0.34106126 0.13642448 -0.2948314
0.33897251 0.10169178 -0.30527526
0.33690915 0.067381814 -0.31559199
0.33487076 0.033487186 -0.32578385
0.33285692 -0 -0.33585319
0.33086714 -0.033086717 -0.34580201
0.32890099 -0.065780252 -0.35563269
0.32695809 -0.098087445 -0.36534721
0.32503802 -0.13001518 -0.37494767
0.32314035 -0.16157022 -0.38443604
0.32126471 -0.19275883 -0.39381418
0.31941074 -0.22358744 -0.40308401
0.31757802 -0.25406247 -0.41224766
0.31576622 -0.28418958 -0.42130667
0.31397495 -0.31397495 -0.43026283
0.31220391 -0.34342426 -0.43911806
0.31045276 -0.37254325 -0.44787395
0.30872113 -0.4013375 -0.456532
0.30700871 -0.42981225 -0.46509415
