# .PCD v0.7 - Point Cloud Data file format
VERSION 0.7
FIELDS x y z
SIZE 4 4 4
TYPE F F F
COUNT 1 1 1
WIDTH 1285
HEIGHT 1
VIEWPOINT 0 0 0 1 0 0 0
POINTS 1285
DATA ascii
-1.0873743 -0.19770446 0.47116733
-1.0801516 -0.245489 0.45475227
-1.0730284 -0.29264408 0.43856323
-1.0659944 -0.33918005 0.42257696
-1.0590562 -0.38511145 0.40680817
-1.0522037 -0.43044695 0.39123422
-1.0454432 -0.4752014 0.37586948
-1.0387651 -0.5193826 0.36069208
-1.0321755 -0.56300491 0.34571591
-1.0256655 -0.60607505 0.33092022
-1.0192406 -0.64860767 0.31631833
-1.0128921 -0.69060832 0.30188984
-1.1339437 0.5399732 0.69972813
-1.1257203 0.48245156 0.68014854
-1.1176199 0.42575997 0.66086173
-1.1096305 0.36987686 0.64183956
-1.1017592 0.31478834 0.62309831
-1.0939943 0.2604748 0.60461044
-1.0863425 0.20692235 0.58639193
-1.0787926 0.15411331 0.56841594
-1.0713512 0.10203332 0.55069846
-1.0640076 0.050666928 0.53321362
-1.0567681 -0 0.51597691
-1.0496223 -0.049981967 0.498963
-1.0425767 -0.099292994 0.48218769
-1.0356209 -0.14794585 0.46562624
-1.0287614 -0.19595455 0.44929403
-1.021988 -0.24333052 0.43316725
-1.0153074 -0.29008773 0.41726074
-1.0087095 -0.33623642 0.40155157
-1.0022007 -0.38179073 0.38605452
-0.99577534 -0.42676094 0.37075594
-0.98942816 -0.47115633 0.35564366
-0.98316139 -0.51498926 0.34072262
-0.97697711 -0.5582726 0.32599813
-0.97087008 -0.60101479 0.31145763
-0.96483546 -0.64322364 0.29708958
-0.95887536 -0.68491101 0.28289884
-1.0932301 0.7105996 0.73293763
-1.0852097 0.65112579 0.71288651
-1.0773015 0.59251577 0.69311619
-1.0695124 0.53475606 0.67364311
-1.0618304 0.47782367 0.65443838
-1.0542625 0.42170504 0.63551879
-1.0467975 0.36637905 0.61685574
-1.0394416 0.31183243 0.59846634
-1.0321884 0.2580471 0.58033323
-1.0250316 0.20500635 0.56244129
-1.0179774 0.15269661 0.54480565
-1.0110155 0.10110156 0.52740127
-1.0041524 0.050207675 0.51024324
-0.99737775 7.4505806e-08 0.49330673
-0.99069786 -0.049534932 0.47660691
-0.98410302 -0.098410308 0.46011966
-0.97759902 -0.14663979 0.44386005
-0.97117686 -0.19423535 0.4278045
-0.96484214 -0.24121059 0.41196772
-0.95858592 -0.28757572 0.39632708
-0.95241392 -0.33334488 0.38089705
-0.94631732 -0.37852693 0.36565566
-0.94030184 -0.42313582 0.35061675
-0.93435878 -0.46717933 0.33575916
-0.92849386 -0.5106715 0.32109678
-0.92269868 -0.55361915 0.30660897
-0.91697878 -0.59603614 0.29230922
-0.91132599 -0.63792825 0.27817741
-0.90574253 -0.67930686 0.26421878
-1.0284166 0.7036534 0.7062217
-1.0209405 0.6448046 0.68654811
-1.0135767 0.58680773 0.66716951
-1.006314 0.52963901 0.64805722
-0.99915898 0.47328585 0.62922806
-0.99210083 0.41772667 0.61065394
-0.98514581 0.36294848 0.5923512
-0.97828352 0.30893162 0.57429254
-0.97152007 0.25566316 0.55649412
-0.96484578 0.20312534 0.53892994
-0.9582662 0.15130527 0.52161562
-0.95177209 0.1001866 0.50452572
-0.94536912 0.049756333 0.48767585
-0.93904805 -0 0.47104138
-0.9328146 -0.049095541 0.4546375
-0.9266597 -0.097543165 0.43844062
-0.92058909 -0.14535628 0.42246521
-0.91459399 -0.19254607 0.40668869
-0.90867996 -0.23912627 0.39112526
-0.90284187 -0.28510797 0.37576187
-0.897075 -0.33050126 0.36058587
-0.8913846 -0.37531981 0.34561121
-0.88576269 -0.4195717 0.33081675
-0.88021451 -0.46327081 0.31621611
-0.87473214 -0.50642389 0.30178908
-0.86931771 -0.54904264 0.28754041
-0.8639729 -0.59113932 0.27347535
-0.85869044 -0.63271928 0.25957406
-0.85347217 -0.67379373 0.24584168
-0.96485382 0.69683886 0.68001169
-0.95791125 0.63860756 0.66072696
-0.95106399 0.58120561 0.64170665
-0.94431782 0.52462107 0.6229673
-0.93766284 0.46883154 0.60448134
-0.93110484 0.41382432 0.58626449
-0.9246341 0.35957998 0.56829029
-0.91825646 0.30608541 0.55057454
-0.91196245 0.25332299 0.53309143
-0.90575784 0.20127943 0.51585627
-0.89963347 0.14993899 0.49884421
-0.89359486 0.09928827 0.48207024
-0.88763338 0.049312904 0.46551055
-0.88175434 2.9802322e-08 0.44917977
-0.8759492 -0.04866375 0.43305445
-0.87022334 -0.096691489 0.41714945
-0.86456865 -0.14409481 0.4014419
-0.85899013 -0.19088659 0.38594598
-0.85347998 -0.23707776 0.37064001
-0.8480432 -0.28268111 0.35553789
-0.84267223 -0.32770592 0.34061837
-0.83737183 -0.3721652 0.32589519
-0.83213466 -0.4160673 0.31134748
-0.82696563 -0.45942533 0.29698908
-0.82185745 -0.50224626 0.2827996
-0.81681198 -0.54454136 0.26878446
-0.811831 -0.58632243 0.25494844
-0.80690747 -0.62759471 0.24127199
-0.80204338 -0.66836953 0.22776064
-0.9090392 0.74862039 0.67350692
-0.90251034 0.69015491 0.65430427
-0.89607823 0.63252574 0.63538647
-0.88973355 0.57570982 0.6167255
-0.88348162 0.51969504 0.59833783
-0.87731349 0.46446007 0.58019602
-0.8712343 0.40999258 0.56231612
-0.86523539 0.35627329 0.54467201
-0.85932189 0.30329001 0.52727968
-0.85348535 0.25102517 0.51011324
-0.84773088 0.19946615 0.49318835
-0.84205341 0.14859758 0.47648996
-0.83644831 0.098405704 0.46000436
-0.83092058 0.048877686 0.44374615
-0.82546216 -1.4901161e-08 0.42769217
-0.82007819 -0.048239902 0.41185701
-0.81476086 -0.095854133 0.39621782
-0.80951512 -0.1428556 0.3807891
-0.80433351 -0.18925488 0.36554903
-0.79922074 -0.23506489 0.35051143
-0.7941696 -0.28029513 0.3356553
-0.78918487 -0.32495844 0.32099432
-0.78425944 -0.36906326 0.30650765
-0.7793979 -0.41262257 0.29220909
-0.77459353 -0.45564321 0.27807859
-0.76984799 -0.49813685 0.26412112
-0.7651602 -0.54011315 0.25033367
-0.76053196 -0.58158332 0.23672092
-0.75595659 -0.62255239 0.22326416
-0.76666069 -0.67646521 0.25474656
-0.84737968 0.74145734 0.64792377
-0.84135497 0.68360072 0.62909639
-0.83541179 0.62655896 0.61052424
-0.82955545 0.57031929 0.59222293
-0.82377732 0.51486075 0.57416618
-0.81808239 0.46017143 0.55636972
-0.81246239 0.40623128 0.53880727
-0.80692232 0.35302848 0.52149439
-0.80145407 0.30054525 0.50440621
-0.79606265 0.24876943 0.48755789
-0.79074007 0.19768512 0.47092533
-0.78549135 0.14727966 0.45452279
-0.78030878 0.09753865 0.4383274
-0.77519715 0.048449829 0.42235342
-0.77014917 4.4703484e-08 0.40657827
-0.76516932 -0.047823057 0.39101648
-0.76025063 -0.095031306 0.3756454
-0.75539762 -0.14163706 0.36047971
-0.75060332 -0.18765073 0.3454977
-0.74587232 -0.2330851 0.33071315
-0.74120051 -0.27795017 0.31611398
-0.73658425 -0.32225561 0.30168802
-0.73202777 -0.36601385 0.28744903
-0.7275247 -0.40923268 0.27337679
-0.72307664 -0.45192286 0.25947678
-0.71868271 -0.49409425 0.2457457
-0.71434182 -0.53575635 0.23218028
-0.71005303 -0.57691795 0.21877788
-0.70581794 -0.61759067 0.20554328
-0.78187001 -0.73300308 0.44320607
-0.78688896 0.73442966 0.62282532
-0.78134692 0.67716736 0.60435212
-0.77587932 0.62070346 0.58612657
-0.77049077 0.56502652 0.56816465
-0.76517344 0.51011556 0.55044037
-0.7599321 0.4559592 0.53296912
-0.75475901 0.40253812 0.51572555
-0.74965888 0.34984076 0.49872512
-0.74462724 0.29785097 0.48195302
-0.73965973 0.24655327 0.46539471
-0.734761 0.19593626 0.44906545
-0.72992384 0.14598477 0.43294162
-0.72515279 0.096687078 0.41703814
-0.72044092 0.048029274 0.4013319
-0.7157926 -4.4703484e-08 0.3858375
-0.71120119 -0.047413394 0.37053293
-0.706671 -0.094222829 0.35543227
-0.70219553 -0.14043906 0.340514
-0.69777894 -0.18607438 0.32579201
-0.69341505 -0.23113835 0.31124574
-0.68910789 -0.27564308 0.29688862
-0.68485141 -0.31959736 0.28270036
-0.6806497 -0.36301321 0.26869449
-0.6764968 -0.40589809 0.25485146
-0.67239422 -0.44826281 0.24117638
-0.6683411 -0.49011669 0.22766608
-0.66433656 -0.53146929 0.21431775
-0.66037983 -0.5723291 0.20112827
-0.65647209 -0.61270714 0.18810263
-0.74249518 -0.74249518 0.47484604
-0.7275371 0.72753716 0.5982092
-0.72245789 0.67085367 0.58006907
-0.71745205 0.61495876 0.56219107
-0.71251225 0.5598309 0.54454881
-0.70764279 0.50545913 0.5271579
-0.70283663 0.45182362 0.50999326
-0.69809812 0.39891317 0.49306992
-0.69342035 0.34671015 0.47636345
-0.68880755 0.2952033 0.4598892
-0.68425304 0.24437609 0.44362307
-0.67976099 0.19421732 0.42757982
-0.67532486 0.14471254 0.41173691
-0.67094892 0.095849901 0.39610845
-0.66662931 0.047616333 0.38068113
-0.66236246 -7.4505806e-08 0.36544245
-0.65815228 -0.047010854 0.35040629
-0.65399295 -0.093427598 0.33555144
-0.64988822 -0.13926172 0.32089174
-0.6458323 -0.18452354 0.30640626
-0.64182907 -0.22922465 0.29210898
-0.63787287 -0.27337411 0.2779797
-0.63396513 -0.31698254 0.26402345
-0.63010716 -0.36006132 0.25024509
-0.62629372 -0.40261739 0.23662567
-0.62252617 -0.44466156 0.22316995
-0.61880362 -0.48620284 0.2098752
-0.61512536 -0.52725029 0.19673851
-0.61149055 -0.56781256 0.18375705
-0.60790056 -0.6079005 0.17093563
-0.67398053 0.77766973 0.5920952
-0.66928625 0.72076982 0.57404011
-0.66465956 0.6646595 0.55624509
-0.66009378 0.6093173 0.53868449
-0.65559286 0.5547325 0.52137345
-0.65115041 0.50088495 0.50428683
-0.64677024 0.44776386 0.48744008
-0.6424461 0.39535144 0.4708088
-0.63818187 0.34363639 0.45440805
-0.63397145 0.29260221 0.43821403
-0.62981868 0.24223791 0.42224172
-0.62571752 0.19252843 0.40646788
-0.6216718 0.14346264 0.3909075
-0.61767572 0.095027044 0.37553799
-0.61373299 0.047210246 0.36037365
-0.60983801 -1.4901161e-08 0.34539294
-0.6059944 -0.04661493 0.33060971
-0.60219663 -0.0926456 0.31600323
-0.59844846 -0.13810347 0.3015871
-0.5947445 -0.18299827 0.28734106
-0.59108818 -0.22734164 0.27327847
-0.58747452 -0.27114207 0.2593796
-0.58390468 -0.31441021 0.2456495
-0.580378 -0.3571558 0.23208542
-0.57689571 -0.39938933 0.21869202
-0.57345301 -0.44111758 0.20545059
-0.57005107 -0.48235101 0.1923663
-0.56668931 -0.52309775 0.17943636
-0.56336689 -0.56336689 0.16665795
-0.56008512 -0.60316867 0.15403603
-0.61636245 0.7704531 0.56803906
-0.61210901 0.71412718 0.55031657
-0.60791636 0.65857589 0.53284693
-0.6037783 0.60377824 0.51560515
-0.59969854 0.5497238 0.49860641
-0.59567124 0.49639255 0.48182574
-0.59170002 0.44377488 0.46527901
-0.58777905 0.39185277 0.44894168
-0.58391201 0.34061527 0.4328289
-0.58009553 0.29004776 0.41692689
-0.57632637 0.24013592 0.40122202
-0.57260805 0.19086927 0.38572916
-0.56893533 0.1422337 0.37042591
-0.56531143 0.09421856 0.35532659
-0.56173134 0.04681097 0.34040967
-0.55819839 -7.4505806e-08 0.32568908
-0.55470765 -0.046225622 0.31114399
-0.5512622 -0.091876991 0.29678807
-0.54785734 -0.13696437 0.28260112
-0.54449624 -0.18149871 0.26859659
-0.54117417 -0.22548932 0.25475472
-0.5378924 -0.26894614 0.2410807
-0.53465021 -0.31187928 0.22757155
-0.53144687 -0.35429791 0.21422432
-0.52828354 -0.39621267 0.20104362
-0.52515578 -0.43762982 0.18801148
-0.52206486 -0.47855949 0.17513254
-0.51901013 -0.51901019 0.16240451
-0.51599091 -0.55899024 0.14982447
-0.51300669 -0.59850782 0.13739008
-0.5598039 0.7633689 0.54442555
-0.5559783 0.7076087 0.52703631
-0.5522024 0.65260285 0.50987315
-0.54847962 0.59834141 0.49295163
-0.54480457 0.54480451 0.47624665
-0.54118055 0.49198237 0.45977393
-0.53760231 0.43985647 0.44350919
-0.53407317 0.38841683 0.42746758
-0.53058803 0.33764699 0.41162616
-0.52715009 0.28753635 0.3959991
-0.52375442 0.23807018 0.38056421
-0.52040416 0.18923785 0.36533585
-0.51709461 0.14102578 0.35029241
-0.51382875 0.093423314 0.33544746
-0.510602 0.046418399 0.32078046
-0.50741738 -8.9406967e-08 0.30630499
-0.50427043 -0.045842722 0.29200059
-0.50116408 -0.091120735 0.27788085
-0.49809396 -0.13584383 0.26392579
-0.49506304 -0.18002285 0.25014871
-0.49206701 -0.2236668 0.23653033
-0.48910701 -0.26678568 0.22307578
-0.48618236 -0.30938882 0.20978227
-0.48329255 -0.35148552 0.19664666
-0.48043856 -0.39308614 0.18367386
-0.4776164 -0.43419662 0.17084587
-0.4748272 -0.47482723 0.15816787
-0.47207043 -0.51498586 0.14563689
-0.46934542 -0.554681 0.13325062
-0.46665174 -0.59392035 0.12100656
-0.5077399 0.81238377 0.53856176
-0.50427598 0.75641394 0.52124226
-0.50086105 0.70120537 0.50416738
-0.49749199 0.6467396 0.48732233
-0.49416605 0.59299922 0.47069255
-0.49088621 0.53997475 0.45429331
-0.48764771 0.48764774 0.43810099
-0.48445353 0.4360081 0.42212993
-0.4812991 0.38503936 0.40635777
-0.47818726 0.33473104 0.39079866
-0.47511366 0.28506821 0.37543058
-0.47208107 0.23604046 0.36026752
-0.46908519 0.18763402 0.34528822
-0.46612883 0.13983861 0.33050629
-0.46320778 0.092641577 0.31590116
-0.46032479 0.046032436 0.30148628
-0.45747581 5.9604645e-08 0.28724134
-0.45466354 -0.045466259 0.27318001
-0.451884 -0.090376817 0.25928229
-0.44913825 -0.13474147 0.24555361
-0.44642726 -0.17857085 0.2319984
-0.44374719 -0.2218736 0.21859826
-0.44109914 -0.26465949 0.20535789
-0.43848252 -0.30693766 0.19227476
-0.43589669 -0.34871739 0.17934585
-0.43334126 -0.39000711 0.16656853
-0.43081707 -0.43081704 0.15394767
-0.42832065 -0.47115269 0.14146551
-0.42585301 -0.51102364 0.12912732
-0.4234136 -0.55043769 0.11693025
-0.421002 -0.58940285 0.10487223
-0.45281202 0.80499923 0.51548463
-0.44975251 0.74958754 0.49848741
-0.44673234 0.69491696 0.48170859
-0.4437542 0.64097828 0.46516317
-0.44081375 0.58775169 0.44882753
-0.43791372 0.53522789 0.43271625
-0.43504995 0.48338884 0.4168064
-0.43222502 0.43222505 0.40111247
-0.42943493 0.3817198 0.38561177
-0.4266822 0.33186391 0.37031883
-0.42396298 0.28264192 0.35521203
-0.42127973 0.23404436 0.34030536
-0.41862872 0.18605715 0.32557747
-0.41601241 0.13867071 0.31104222
-0.41342705 0.091872729 0.29667929
-0.41087514 0.045652904 0.28250194
-0.40835306 8.9406967e-08 0.26849031
-0.4058632 -0.045095898 0.25465783
-0.40340209 -0.089644864 0.24098505
-0.40097064 -0.13365683 0.227477
-0.39856976 -0.17714211 0.21413866
-0.39619604 -0.22010891 0.2009514
-0.39385045 -0.26256689 0.18792027
-0.39153245 -0.30452526 0.17504251
-0.38924161 -0.34599245 0.16231552
-0.38697734 -0.38697737 0.14973652
-0.38474065 -0.42748952 0.13731031
-0.38252833 -0.46753457 0.12501968
-0.38034132 -0.50712174 0.11286965
-0.37817919 -0.54625881 0.10085779
-0.3760415 -0.58495343 0.088981643
-0.39887533 0.79775047 0.49283314
-0.39620283 0.7428804 0.47613004
-0.39356741 0.688743 0.45965862
-0.39096534 0.63531864 0.44339561
-0.38839892 0.58259821 0.42735535
-0.3858645 0.53056365 0.41151533
-0.38336441 0.47920555 0.39588988
-0.38089505 0.42850688 0.38045627
-0.37845874 0.37845874 0.36522937
-0.37605196 0.32904544 0.35018718
-0.37367702 0.28025779 0.33534363
-0.3713305 0.23208156 0.32067785
-0.36901462 0.18450725 0.30620366
-0.36672613 0.1375223 0.29190049
-0.36446717 0.091116741 0.27778199
-0.36223453 0.04527922 0.26382822
-0.36003041 5.2154064e-08 0.25005239
-0.35785165 -0.044731431 0.23643504
-0.35569909 -0.088924818 0.22298166
-0.35357231 -0.13258964 0.20968926
-0.35147202 -0.1757361 0.19656239
-0.34939533 -0.21837209 0.18358301
-0.34734303 -0.26050729 0.1707561
-0.34531468 -0.30215034 0.15807913
-0.34330991 -0.34330985 0.14554909
-0.34132826 -0.38399431 0.13316399
-0.33937052 -0.42421311 0.12092802
-0.33743399 -0.46397167 0.10882461
-0.3355194 -0.50327915 0.096858546
-0.33362645 -0.54214299 0.085027516
-0.33175468 -0.58057064 0.073329151
-0.34589997 0.79062831 0.47057629
-0.34360296 0.736292 0.45416909
-0.34133753 0.68267494 0.43798763
-0.33910051 0.62975812 0.42200893
-0.33689392 0.57753241 0.4062475
-0.33471584 0.52598196 0.3906897
-0.3325645 0.47509223 0.37532303
-0.33044064 0.42485231 0.36015266
-0.32834497 0.37525141 0.34518355
-0.32627568 0.32627571 0.33040288
-0.32423115 0.27791247 0.315799
-0.32221323 0.2301522 0.3013854
-0.32021913 0.1829824 0.28714174
-0.31825069 0.13639322 0.27308154
-0.31630519 0.090372868 0.25918505
-0.31438443 0.044912055 0.24546549
-0.31248578 1.4901161e-08 0.23190367
-0.31060994 -0.044372842 0.21850452
-0.30875641 -0.088216037 0.2052654
-0.30692494 -0.13153914 0.19218326
-0.30511504 -0.17435144 0.17925537
-0.30332741 -0.21666239 0.16648661
-0.30155957 -0.25847968 0.1538592
-0.29981223 -0.2998122 0.1413781
-0.298085 -0.34066859 0.12904078
-0.29637757 -0.38105696 0.116845
-0.29469058 -0.42098653 0.10479499
-0.29302171 -0.46046275 0.092874482
-0.29137161 -0.49949422 0.081088156
-0.28974003 -0.53808862 0.069433987
-0.28812662 -0.57625318 0.057909518
-0.29582223 0.83816302 0.46504748
-0.29386213 0.78363228 0.44871324
-0.29192898 0.72982246 0.43260366
-0.29001996 0.67671299 0.41669503
-0.28813684 0.62429649 0.40100259
-0.28627694 0.57255399 0.38550341
-0.28444198 0.52147692 0.37021208
-0.28262928 0.47104883 0.35510647
-0.28084067 0.42126101 0.34020102
-0.27907348 0.372098 0.32547444
-0.27732939 0.32355091 0.31094053
-0.27560598 0.27560601 0.29657885
-0.27390486 0.22825393 0.28240272
-0.27222362 0.18148246 0.26839241
-0.27056384 0.13528186 0.25456107
-0.26892325 0.089641131 0.24088939
-0.26730338 0.044550508 0.22739047
-0.26570198 -1.4901161e-08 0.21404526
-0.26411963 -0.04401996 0.20085916
-0.26255602 -0.087518737 0.18782908
-0.26101083 -0.13050537 0.17495242
-0.2594837 -0.17298912 0.16222647
-0.25797522 -0.21497938 0.14965588
-0.25648335 -0.25648323 0.13722329
-0.25500858 -0.29751003 0.12493375
-0.25355071 -0.33806753 0.11278459
-0.25210938 -0.37816396 0.10077369
-0.25068435 -0.41780728 0.088898525
-0.24927616 -0.45700639 0.077163741
-0.24788292 -0.49576586 0.065553293
-0.24650514 -0.53409445 0.054071769
-0.24514261 -0.57199937 0.042717367
-0.24434197 0.83076262 0.44328171
-0.24273716 0.77675897 0.42723393
-0.24115424 0.72346264 0.4114047
-0.23959182 0.67085713 0.39578041
-0.23804861 0.61892641 0.38034835
-0.23652604 0.56766248 0.3651228
-0.23502195 0.5170483 0.35008198
-0.23353775 0.46707547 0.33523983
-0.23207131 0.41772833 0.32057539
-0.23062402 0.36899844 0.3061024
-0.22919384 0.32087141 0.29180059
-0.2277821 0.27333844 0.27768326
-0.22638683 0.2263868 0.26373059
-0.22500937 0.18000752 0.24995582
-0.22364776 0.13418864 0.2363399
-0.22230253 0.088920966 0.22288762
-0.22097418 0.044194847 0.20960385
-0.21966083 -4.4703484e-08 0.19647045
-0.218363 -0.043672621 0.18349223
-0.21708041 -0.086832203 0.1706664
-0.2158128 -0.12948766 0.15799037
-0.21455993 -0.17164792 0.14546143
-0.21332222 -0.21332222 0.13308457
-0.212098 -0.25451761 0.1208423
-0.21088776 -0.29524285 0.10873988
-0.20969126 -0.33550602 0.096774764
-0.20850824 -0.37531477 0.08494471
-0.2073385 -0.4146769 0.073247284
-0.20618249 -0.45360148 0.061687231
-0.20503864 -0.49209273 0.050248578
-0.20390739 -0.53015924 0.038936138
-0.20278856 -0.56780797 0.027748019
-0.19376279 0.82349181 0.42189717
-0.19250199 0.77000797 0.40613717
-0.19125676 0.71721298 0.39057189
-0.19002827 0.66509879 0.37521559
-0.18881474 0.61364788 0.36004651
-0.1876173 0.56285203 0.34507871
-0.18643428 0.5126943 0.33029091
-0.18526676 0.46316695 0.31569695
-0.18411312 0.41425443 0.30127606
-0.1829744 0.36594868 0.28704211
-0.18184902 0.31823575 0.272975
-0.18073805 0.27110702 0.25908783
-0.17964058 0.22455071 0.24536942
-0.17855571 0.17855559 0.23180871
-0.17748389 0.13311295 0.21841075
-0.17642483 0.088212475 0.20517273
-0.17537835 0.043844588 0.19209175
-0.17434482 6.7055225e-08 0.17917246
-0.1733228 -0.043330766 0.16639724
-0.17231269 -0.086156383 0.15377088
-0.17131428 -0.12848574 0.14129084
-0.17032738 -0.17032741 0.12895449
-0.16935179 -0.21168971 0.1167597
-0.16838786 -0.25258172 0.10471067
-0.1674343 -0.29301003 0.092791043
-0.16649148 -0.33298302 0.081005692
-0.1655592 -0.3725082 0.069352299
-0.16463733 -0.4115932 0.057828769
-0.16372564 -0.45024556 0.046432763
-0.16282454 -0.48847353 0.035168946
-0.16193277 -0.52628148 0.024021864
-0.16105072 -0.56367749 0.012996346
-0.1450033 0.87001979 0.41658396
-0.14406183 0.81635028 0.40089273
-0.14313196 0.76337051 0.38539496
-0.14221457 0.71107268 0.37010485
-0.14130831 0.65943873 0.35500079
-0.14041406 0.60846102 0.34009671
-0.13953055 0.55812228 0.32537156
-0.1386586 0.50841486 0.31083882
-0.13779695 0.4593232 0.2964783
-0.13694648 0.41083932 0.28230345
-0.13610592 0.36294913 0.26829436
-0.13527612 0.31564426 0.25446421
-0.13445589 0.26891184 0.24079369
-0.13364601 0.22274338 0.22729595
-0.13284537 0.1771272 0.21395198
-0.13205427 0.13205437 0.20076695
-0.13127254 0.087515041 0.187738
-0.1305 0.043500043 0.17486237
-0.12973695 5.2154064e-08 0.16214493
-0.12898234 -0.042994186 0.14956784
-0.12823644 -0.085491002 0.13713625
-0.12749913 -0.12749915 0.12484766
-0.12677024 -0.16902699 0.11269966
-0.12604965 -0.21008274 0.10068971
-0.1253376 -0.25067514 0.08882241
-0.12463316 -0.29081064 0.077081554
-0.12393659 -0.33049762 0.065472022
-0.12324776 -0.36974326 0.053991526
-0.12256654 -0.40855518 0.042637959
-0.12189282 -0.4469403 0.03140913
-0.12122683 -0.48490727 0.020309493
-0.12056772 -0.5224601 0.009324193
-0.11991572 -0.55960667 -0.0015422106
-0.09583199 0.86248779 0.39566192
-0.095215127 0.80932856 0.38024056
-0.094605803 0.75684631 0.36500725
-0.094004571 0.70503443 0.34997678
-0.093410604 0.6538741 0.33512729
-0.092824422 0.60335875 0.3204729
-0.092245221 0.55347121 0.3059926
-0.091673531 0.50420445 0.29170066
-0.091108888 0.45554435 0.27758434
-0.090550832 0.40747869 0.26363298
-0.089999884 0.35999957 0.24985948
-0.089455299 0.31309357 0.23624456
-0.088917561 0.26675275 0.22280142
-0.088385947 0.22096485 0.20951098
-0.087860651 0.17572129 0.19637862
-0.087341562 0.13101241 0.18340133
-0.086828575 0.086828679 0.17057668
-0.086321577 0.043160819 0.15790172
-0.085820757 -3.7252903e-08 0.14538118
-0.08532542 -0.042662755 0.13299781
-0.084835775 -0.08483585 0.12075673
-0.084351718 -0.12652762 0.10865524
-0.083873153 -0.16774632 0.096691102
-0.083399989 -0.20849992 0.0848618
-0.082932398 -0.24879709 0.073172256
-0.082469761 -0.28864413 0.061606228
-0.082012244 -0.32804894 0.050168604
-0.081559792 -0.36701906 0.038857058
-0.081112288 -0.40556142 0.027669579
-0.080669679 -0.44368324 0.016604319
-0.080232129 -0.48139274 0.0056654662
-0.079799049 -0.5186938 -0.005161494
-0.079666637 -0.55766642 -0.0084718764
-0.047504921 0.85508853 0.37510818
-0.047201563 0.80242658 0.35994041
-0.046902236 0.75043577 0.34497398
-0.046606503 0.69909763 0.3301875
-0.046314649 0.64840502 0.31559473
-0.04602626 0.59834129 0.30117518
-0.045741607 0.54889929 0.28694254
-0.045460284 0.50006318 0.27287662
-0.045182567 0.45182574 0.25899082
-0.044908062 0.40417245 0.24526539
-0.044637032 0.35709637 0.23171395
-0.044369098 0.31058359 0.21831697
-0.044104513 0.26462704 0.20508781
-0.043842912 0.2192145 0.19200777
-0.043584395 0.17433752 0.17908201
-0.043328911 0.12998667 0.16630782
-0.043076403 0.086152881 0.15368253
-0.042826824 0.042826779 0.14120349
-0.042580117 -7.4505806e-09 0.1288683
-0.042336382 -0.042336401 0.11668138
-0.042095281 -0.084190585 0.10462633
-0.041856907 -0.12557068 0.092707612
-0.041621219 -0.16648488 0.0809232
-0.041388169 -0.20694089 0.06927073
-0.041157849 -0.24694714 0.057754852
-0.040929947 -0.2865096 0.046359703
-0.040704556 -0.32563657 0.035090119
-0.040481631 -0.36433476 0.023943901
-0.040261138 -0.40261137 0.012919143
-0.04004303 -0.44047338 0.0020137727
-0.039827276 -0.47792727 -0.0087740719
-0.039613955 -0.51498139 -0.019440025
-0.060849316 -0.85189039 1.0423281
0 0.84781182 0.35489517
0 0.79564416 0.3399924
0 0.74413002 0.32526848
0 0.69326246 0.31073719
0 0.64302433 0.29637805
0 0.59340894 0.28220433
0 0.54440016 0.26819643
0 0.49599111 0.25436735
0 0.44816703 0.24069811
0 0.40092102 0.22720149
0 0.35423955 0.2138586
0 0.30811366 0.20067462
0 0.26253414 0.18764685
0 0.21749173 0.17477974
0 0.17297551 0.16205569
0 0.12897715 0.14947981
0 0.085487545 0.13704924
0 0.042498022 0.12476174
0 -4.0978193e-08 0.11261465
0 -0.042015012 0.10061267
0 -0.08355505 0.088739231
0 -0.12462823 0.076999396
0 -0.16524231 0.065390736
0 -0.20540491 0.053911172
0 -0.24512355 0.042558543
0 -0.28440642 0.031337067
0 -0.32325906 0.020231783
0 -0.36168933 0.0092473775
0 -0.39970392 -0.001618281
0 -0.43730947 -0.012367085
0 -0.47451434 -0.022994757
0 -0.51132178 -0.033515334
0 -0.86567074 1.0915436
0.047000185 0.8930034 0.34987146
0.046703223 0.84065795 0.33502334
0.046410158 0.78897274 0.32037038
0.046120584 0.73792934 0.30589139
0.045834765 0.68752152 0.29160053
0.045552302 0.63773239 0.2774775
0.045273464 0.5885551 0.26353538
0.044997856 0.53997421 0.24975502
0.044725742 0.49198323 0.23614937
0.044456743 0.44456732 0.22269933
0.044191115 0.39771998 0.20941803
0.043928489 0.35142785 0.19628662
0.043668967 0.30568281 0.18331064
0.043412492 0.26047501 0.17048688
0.043159164 0.21579583 0.1578203
0.042908624 0.17163453 0.14529353
0.042660981 0.1279829 0.13291129
0.042416174 0.08483234 0.1206711
0.042174164 0.042174149 0.10857053
0.0419349 4.0978193e-08 0.096607298
0.041698474 -0.041698433 0.084786005
0.041464563 -0.082929119 0.073090442
0.04123326 -0.12369981 0.061525278
0.041004524 -0.16401811 0.050088421
0.040778313 -0.2038915 0.038777821
0.040554583 -0.24332748 0.027591296
0.04033342 -0.28233391 0.01653327
0.040114533 -0.32091624 0.0055888742
0.039898008 -0.3590821 -0.0052372813
0.039683808 -0.39683807 -0.015947297
0.039471895 -0.43419075 -0.026543006
0.039262231 -0.47114688 -0.037026018
0.039054908 -0.50771379 -0.047392294
0.062849991 -0.87989986 1.1423616
0.093208872 0.88548422 0.33008403
0.092625216 0.83362693 0.31549263
0.092048489 0.78241205 0.30107433
0.091479227 0.73183388 0.286843
0.090916641 0.68187469 0.27277815
0.090361252 0.6325289 0.25889361
0.089812286 0.58377993 0.24516949
0.089270271 0.53562164 0.23161905
0.088734441 0.4880394 0.21822327
0.088205323 0.44102648 0.20499521
0.087682158 0.39456975 0.19191644
0.087165177 0.34866074 0.17899171
0.086654246 0.30328983 0.16621846
0.086149275 0.25844777 0.15359415
0.085650161 0.21412534 0.14111619
0.085157074 0.17031413 0.12878914
0.084669352 0.12700407 0.11659605
0.084187187 0.084187202 0.10454186
0.083710477 0.041855309 0.092624225
0.083239146 -3.3527613e-08 0.080840826
0.08277335 -0.041386686 0.069196068
0.08231248 -0.082312539 0.057674248
0.081856705 -0.12278511 0.046279959
0.08140596 -0.16281193 0.035011217
0.080960147 -0.20240022 0.023865886
0.080519184 -0.2415576 0.012841873
0.080083013 -0.28029051 0.0019375235
0.07965178 -0.31860721 -0.0088431835
0.079224922 -0.35651216 -0.019514725
0.078802615 -0.39401302 -0.030072331
0.078384787 -0.43111634 -0.040517911
0.077971369 -0.46782821 -0.05085361
0.077562518 -0.50415641 -0.061074749
0.12780128 -0.89460886 1.1948943
0.13864589 0.87809062 0.31062692
0.13778491 0.82670945 0.29627746
0.13693407 0.77595973 0.2820968
0.13609417 0.72583556 0.26809844
0.1352645 0.67632246 0.25427067
0.13444442 0.62740737 0.24060269
0.13363421 0.57908159 0.22709911
0.13283418 0.53133678 0.21376541
0.13204321 0.48415843 0.20058227
0.13126206 0.43754023 0.18756329
0.13048965 0.39146891 0.17468965
0.12972628 0.34593672 0.16196676
0.12897177 0.3009342 0.14939182
0.12822601 0.25645196 0.13696228
0.12748881 0.21248132 0.12467581
0.12676047 0.16901396 0.1125367
0.12603998 0.12603986 0.10052859
0.12532765 0.083551832 0.088656254
0.12462329 0.041541073 0.076917365
0.12392683 6.3329935e-08 0.065309592
0.1232385 -0.041079551 0.053837471
0.1225574 -0.081704929 0.042485602
0.12188377 -0.12188376 0.031258583
0.12121751 -0.16162339 0.020154089
0.12055849 -0.20093089 0.009170495
0.1199066 -0.23981321 -0.0016943887
0.11926172 -0.27827737 -0.01244235
0.11862411 -0.31633103 -0.023069158
0.11799292 -0.35397872 -0.03358905
0.11736841 -0.39122802 -0.043997616
0.11675047 -0.42808503 -0.054296583
0.11613901 -0.46455598 -0.064487591
0.11553427 -0.50064844 -0.074566722
0.19496007 -0.9098137 1.2491968
0.18447424 0.92237103 0.3057901
0.18333106 0.87082243 0.29150045
0.18220131 0.81990576 0.2773785
0.18108605 0.76961577 0.2634379
0.17998371 0.71993482 0.24965861
0.17889534 0.67085749 0.23605408
0.17781945 0.62236792 0.22260524
0.17675702 0.57446027 0.20932506
0.17570661 0.52711976 0.19619483
0.17466861 0.48033866 0.18321986
0.1736434 0.43410856 0.1704047
0.17262957 0.3884165 0.15773174
0.17162749 0.34325489 0.14520583
0.17063698 0.29861471 0.1328246
0.16965784 0.25448674 0.12058538
0.16868989 0.2108624 0.10848586
0.16773346 0.16773354 0.096530661
0.16678728 0.12509046 0.084703282
0.1658517 0.082925834 0.073008507
0.16492656 0.041231766 0.061444316
0.16401169 5.0291419e-08 0.050008334
0.1631069 -0.040776771 0.038698643
0.16221258 -0.081106365 0.027519517
0.1613275 -0.12099564 0.016455807
0.16045199 -0.16045207 0.0055123866
0.15958597 -0.19948258 -0.0053131208
0.15872924 -0.23809387 -0.01602231
0.15788165 -0.27629292 -0.026617199
0.15704356 -0.31408706 -0.037093371
0.15621383 -0.35148108 -0.047464937
0.15539281 -0.38848209 -0.057727516
0.15458041 -0.42509601 -0.067882732
0.15377644 -0.46132925 -0.077932313
0.15298077 -0.49718755 -0.087877959
0.26444253 -0.92554897 1.3053941
0.22868727 0.91474909 0.28673509
0.22728176 0.86367071 0.27267987
0.22589341 0.81321609 0.25879619
0.22452112 0.76337159 0.24507332
0.2231662 0.71413183 0.23152423
0.22182673 0.6654802 0.21812959
0.22050403 0.61741138 0.20490257
0.21919626 0.56991029 0.19182487
0.21790388 0.52296937 0.17890123
0.21662669 0.47657871 0.16612914
0.2153651 0.43073022 0.15351339
0.21411739 0.38541126 0.14103618
0.21288405 0.3406145 0.12870282
0.21166484 0.29633069 0.1165107
0.21045953 0.25255138 0.10445749
0.20926785 0.20926787 0.092540771
0.2080896 0.16647172 0.080758259
0.20692521 0.1241551 0.069114491
0.20577313 0.082309321 0.057593644
0.20463379 0.040926643 0.046200212
0.20350701 -7.0780516e-08 0.034932315
0.20239256 -0.04047861 0.02378786
0.20129089 -0.080516398 0.0127712
0.20020051 -0.12012027 0.0018674657
0.19912191 -0.15929762 -0.0089187324
0.19805484 -0.19805476 -0.019589297
0.19699915 -0.23639902 -0.030146286
0.19595465 -0.27433646 -0.040591091
0.19492179 -0.31187487 -0.050919771
0.19389915 -0.34901839 -0.061146274
0.19288719 -0.38577434 -0.071265891
0.19188572 -0.42214853 -0.08128047
0.19089462 -0.45814705 -0.09119159
0.18991369 -0.49377564 -0.1010008
0.32735744 -0.91660088 1.2734367
0.27217659 0.90725523 0.26800042
0.27051643 0.85663521 0.25416568
0.26887736 0.80663204 0.24050695
0.26725706 0.75722831 0.22700459
0.26565716 0.70841908 0.21367195
0.26407537 0.6601885 0.20049031
0.26251316 0.61253083 0.18747216
0.26096848 0.56543177 0.17459962
0.25944185 0.51888371 0.16187771
0.25793299 0.47287726 0.1493039
0.25644159 0.42740256 0.13687532
0.25496817 0.38245228 0.12459691
0.25351074 0.3380143 0.11245185
0.25206989 0.29408157 0.10044455
0.25064531 0.2506454 0.08857315
0.24923673 0.20769721 0.076835051
0.24784474 0.16522986 0.065235049
0.24646738 0.12323369 0.053757217
0.24510525 0.081701756 0.042406127
0.24375813 0.04062634 0.031179935
0.24242571 8.7544322e-08 0.020076331
0.24110776 -0.040184639 0.009093564
0.23980409 -0.079934716 -0.0017704777
0.23851515 -0.11925763 -0.012511358
0.2372393 -0.15815952 -0.023143642
0.23597701 -0.19664747 -0.033662789
0.23472807 -0.23472811 -0.044070452
0.23349229 -0.27240765 -0.054368548
0.23227017 -0.30969357 -0.064553127
0.23106006 -0.34659004 -0.074637279
0.2298625 -0.38310415 -0.084616944
0.22867729 -0.41924161 -0.094493642
0.22750424 -0.45500845 -0.1042691
0.22634317 -0.49041021 -0.11394466
0.36775219 -0.85808843 1.064464
0.31495801 0.89987999 0.24956223
0.31305355 0.84971666 0.23595887
0.31117085 0.80015355 0.22251114
0.30931178 0.75118566 0.209232
0.30747372 0.70279717 0.19610313
0.3056584 0.65498221 0.18313658
0.30386341 0.60772669 0.17031497
0.3020893 0.56102288 0.15764302
0.30033582 0.51486129 0.14511824
0.29860261 0.46923274 0.13273799
0.29688925 0.42412746 0.12049985
0.29519644 0.3795383 0.1084082
0.29352185 0.33545351 0.096446939
0.29186615 0.29186618 0.084620446
0.29022902 0.24876785 0.07292673
0.28861016 0.20614998 0.061363392
0.28700924 0.16400528 0.049928386
0.28542694 0.12232579 0.038626187
0.28386104 0.081103146 0.02744122
0.28231227 0.04033038 0.016378384
0.28078029 -5.8673322e-08 0.0054356852
0.27926484 -0.039894946 -0.0053888988
0.27776566 -0.079361588 -0.016097255
0.27628335 -0.11840714 -0.026685096
0.27481595 -0.15703773 -0.037166644
0.27336404 -0.19526003 -0.047537588
0.27192739 -0.23308054 -0.057799228
0.27050576 -0.27050567 -0.067953743
0.26909891 -0.30754161 -0.078002609
0.26770741 -0.34419525 -0.08794184
0.26632947 -0.38047063 -0.097784415
0.26496562 -0.4163745 -0.10752618
0.26361567 -0.45191243 -0.11716866
0.26227939 -0.48709026 -0.12671344
0.42613453 -0.85226917 1.0436804
0.35921845 0.94294834 0.24497741
0.35704947 0.89262354 0.23142138
0.35490778 0.84290606 0.21803609
0.35279164 0.79378128 0.20481005
0.35069937 0.74523604 0.19173327
0.34863177 0.69726354 0.17881081
0.3465896 0.64985543 0.16604713
0.34457001 0.60299742 0.15342478
0.34257385 0.55668253 0.14094898
0.34060067 0.51090109 0.12861659
0.33865011 0.465644 0.11642547
0.33672175 0.42090219 0.10437314
0.3348152 0.37666714 0.092457443
0.33293128 0.33293131 0.080682725
0.33106729 0.28968385 0.069032967
0.32922411 0.24691817 0.057512932
0.32740131 0.20462579 0.046120465
0.3255986 0.16279936 0.034853421
0.32381666 0.12143128 0.023716323
0.3220531 0.080513269 0.012694094
0.32030863 0.040038586 0.0017911494
0.31858295 -7.9162419e-09 -0.0089941481
0.31687579 -0.039609436 -0.019664165
0.31518683 -0.078796715 -0.030220099
0.31351674 -0.11756879 -0.040658142
0.31186327 -0.15593158 -0.050992258
0.31022719 -0.19389191 -0.061217807
0.30860817 -0.2314561 -0.071336739
0.30700597 -0.26863027 -0.081350565
0.30542028 -0.30542016 -0.091260873
0.30385184 -0.34183329 -0.1010638
0.30229852 -0.37787309 -0.11077204
0.30076098 -0.41354632 -0.12038153
0.29923901 -0.44885856 -0.12989397
0.29773235 -0.48381504 -0.13931037
0.40086862 0.93536019 0.22691026
0.39846894 0.88548648 0.21357852
0.39609641 0.83620358 0.20039791
0.39375338 0.78750664 0.18738088
0.39143652 0.73938012 0.17450961
0.38914675 0.69181657 0.16178882
0.38688499 0.64480817 0.14922315
0.38464803 0.59834123 0.1367956
0.38243678 0.55240858 0.12451093
0.38025081 0.50700116 0.1123668
0.37808967 0.46210966 0.10036063
0.37595302 0.4177255 0.08848998
0.37384033 0.37384033 0.076752946
0.37175247 0.33044672 0.065153867
0.36968663 0.28753409 0.053676859
0.36764359 0.24509576 0.042326733
0.36562303 0.20312384 0.031101294
0.36362454 0.16161089 0.019998655
0.36164895 0.12054972 0.0090231113
0.35969359 0.07993181 -0.0018401742
0.35775921 0.03975106 -0.01258658
0.35584554 9.4994903e-08 -0.02321808
0.35395226 -0.039327979 -0.033736289
0.352079 -0.078239769 -0.044143379
0.35022652 -0.11674213 -0.054434691
0.3483924 -0.15484102 -0.064624459
0.34657738 -0.19254297 -0.074707821
0.34478119 -0.22985408 -0.084686764
0.34300348 -0.26678044 -0.094562806
0.34124404 -0.30332804 -0.10433754
0.33950359 -0.33950359 -0.11400676
0.33777976 -0.37531084 -0.1235836
0.33607334 -0.41075629 -0.13306355
0.33438411 -0.44584554 -0.14244826
0.33271176 -0.48058367 -0.15173914
0.44185537 0.92789638 0.20913923
0.43922979 0.87845957 0.19601116
0.43663672 0.82960987 0.18304595
0.43407258 0.78133065 0.17022526
0.43153843 0.73361528 0.15755442
0.42903367 0.68645382 0.14503053
0.42655781 0.63983667 0.13265127
0.42411181 0.59375644 0.12042125
0.42169225 0.54819989 0.10832353
0.41930017 0.50316036 0.096363217
0.41693509 0.45862857 0.084537625
0.41459653 0.4145965 0.072844967
0.41228402 0.37105566 0.061282396
0.40999854 0.32799885 0.049855024
0.40773693 0.28541577 0.038546972
0.40550014 0.24330005 0.02736292
0.40328774 0.20164381 0.016300961
0.40109938 0.16043968 0.0053591803
0.3989346 0.11968042 -0.0054646507
0.39679435 0.07935892 -0.016165975
0.3946757 0.039467633 -0.026759379
0.39257956 -4.6566129e-08 -0.03724011
0.39050552 -0.03905056 -0.047610167
0.38845333 -0.077690639 -0.057871141
0.38642257 -0.11592674 -0.068024851
0.38441411 -0.15376568 -0.078067169
0.38242528 -0.19121265 -0.088011399
0.38045689 -0.22827412 -0.097853206
0.37850869 -0.26495606 -0.10759437
0.37658033 -0.30126423 -0.11723626
0.37467149 -0.33720437 -0.1267803
0.37278306 -0.37278301 -0.1362225
0.37091243 -0.40800357 -0.1455756
0.36906049 -0.44287258 -0.15483528
0.36722699 -0.47739512 -0.16400293
0.48506644 0.97013289 0.20470974
0.4821915 0.92054725 0.19164169
0.47934881 0.87154317 0.1787203
0.47654104 0.82311642 0.16595799
0.47376433 0.77525073 0.15333655
0.47101986 0.72793967 0.14086139
0.46830696 0.68117374 0.1285302
0.46562514 0.63494331 0.11634007
0.46297538 0.58924145 0.10429592
0.46035412 0.54405499 0.092381015
0.45776233 0.49937701 0.080600262
0.45519963 0.4551996 0.068951502
0.45266539 0.41151398 0.057432264
0.45015925 0.36831218 0.046040714
0.44768217 0.32558706 0.034781188
0.44523075 0.28332853 0.023638353
0.44280601 0.24153061 0.012616925
0.44040757 0.20018527 0.0017149523
0.43803498 0.15928544 -0.009069778
0.43568778 0.11882387 -0.019738737
0.43336695 0.078793995 -0.03028783
0.4310694 0.039188169 -0.040731233
0.42879611 -3.5390258e-08 -0.051064514
0.42654663 -0.03877699 -0.061289418
0.42432064 -0.077149168 -0.071407594
0.42211774 -0.11512296 -0.08142063
0.41993889 -0.15270509 -0.091324612
0.41778117 -0.18990049 -0.10113239
0.41564551 -0.22671565 -0.11084002
0.41353154 -0.26315641 -0.12044889
0.411439 -0.29922828 -0.12996054
0.4093675 -0.3349371 -0.13937622
0.407318 -0.37028903 -0.14869237
0.40528768 -0.40528759 -0.157921
0.40327752 -0.43993902 -0.16705811
0.4012872 -0.47424859 -0.17610501
0.52498263 0.96246815 0.18728995
0.52189374 0.9133141 0.17441958
0.51884282 0.86473787 0.1617071
0.51582551 0.81672382 0.14913535
0.51284313 0.76926482 0.1367088
0.50989509 0.72235149 0.12442514
0.50698066 0.67597413 0.11228171
0.50409943 0.63012427 0.1002765
0.50125074 0.58479249 0.08840695
0.49843571 0.53997201 0.07667771
0.49565047 0.49565047 0.065072671
0.4928962 0.45182157 0.053596482
0.49017239 0.40847701 0.04224731
0.48747852 0.36560884 0.031022742
0.48481566 0.32321039 0.019927427
0.48218015 0.28127173 0.0089461803
0.47957319 0.23978662 -0.0019161478
0.47699422 0.19874758 -0.012661681
0.47444287 0.15814762 -0.023292482
0.47191864 0.11797968 -0.033809982
0.46942261 0.078237206 -0.044210121
0.4669514 0.03891268 -0.054506872
0.46450606 4.0978193e-08 -0.064695783
0.46208623 -0.038507115 -0.07477843
0.45969146 -0.076615244 -0.084756643
0.45732138 -0.11433032 -0.094631866
0.45497698 -0.15165906 -0.1044002
0.45265517 -0.18860634 -0.11407444
0.4503569 -0.22517848 -0.12365074
0.44808185 -0.26138109 -0.13313
0.44582972 -0.29721978 -0.14251408
0.44360006 -0.33270007 -0.15180416
0.44139391 -0.36782819 -0.16099647
0.4392083 -0.40260762 -0.17010324
0.43704423 -0.43704423 -0.17912005
0.43490139 -0.47114319 -0.18804859
0.56427103 0.95492029 0.17013556
0.56097692 0.90619349 0.15746585
0.55772096 0.85803229 0.14494291
0.55450451 0.81042969 0.13257191
0.55132306 0.76337028 0.12033558
0.5481779 0.71684802 0.10823885
0.5450685 0.67085361 0.096279591
0.54199409 0.62537771 0.084454864
0.5389542 0.58041215 0.072762966
0.53594995 0.53594995 0.061208248
0.53297728 0.49197909 0.049775034
0.53003746 0.44849318 0.038467839
0.52712983 0.40548456 0.027284652
0.52425396 0.36294499 0.016223565
0.52140927 0.32086736 0.0052825361
0.51859695 0.27924451 -0.0055341423
0.51581317 0.23806763 -0.016240895
0.51305914 0.19733046 -0.026833445
0.51033431 0.15702596 -0.03731342
0.50763828 0.11714724 -0.047682762
0.50497216 0.077688083 -0.057937019
0.50233239 0.03864086 -0.068090118
0.49972004 -7.0780516e-08 -0.078137487
0.49713475 -0.038241085 -0.088081017
0.49457601 -0.076088659 -0.097922221
0.49204355 -0.11354844 -0.10766251
0.48953682 -0.15062672 -0.11730371
0.48705703 -0.18732956 -0.12684153
0.48460072 -0.22366177 -0.13628867
0.48216912 -0.25962949 -0.14564109
0.47976181 -0.29523802 -0.15490004
0.47737837 -0.33049273 -0.164067
0.4750199 -0.36539987 -0.17313808
0.47268322 -0.39996269 -0.18212521
0.47036946 -0.43418711 -0.19102436
0.46807823 -0.46807814 -0.19983694
0.60294807 0.94748986 0.15324828
0.59945536 0.89918298 0.14077422
0.59600288 0.85143274 0.12844402
0.59259194 0.80423194 0.11626196
0.58921784 0.75756574 0.10421163
0.58588189 0.71142799 0.092297643
0.58258355 0.66580987 0.080517888
0.5793221 0.62070227 0.068869829
0.57609707 0.57609695 0.057351679
0.57290947 0.53198743 0.045967743
0.56975526 0.48836154 0.034702271
0.56663543 0.44521353 0.0235603
0.5635497 0.4025355 0.012539774
0.56049734 0.36031964 0.0016385168
0.55747789 0.31855878 -0.0091452152
0.55449253 0.27724624 -0.019807175
0.55153728 0.23637307 -0.030361742
0.54861331 0.19593328 -0.040804349
0.54572022 0.1559201 -0.051136844
0.54285747 0.11632662 -0.061361022
0.54002458 0.077146426 -0.071478441
0.5372228 0.038373087 -0.081484929
0.53444827 4.0978193e-08 -0.091393895
0.53170222 -0.037978679 -0.10120114
0.52898431 -0.075569145 -0.11090802
0.52629405 -0.11277723 -0.12051611
0.52363098 -0.14960884 -0.13002707
0.52099627 -0.18607008 -0.13943671
0.51838642 -0.22216563 -0.14875756
0.51580256 -0.25790128 -0.15798555
0.51324439 -0.29328257 -0.16712204
0.51071143 -0.32831445 -0.17616829
0.50820333 -0.36300242 -0.18512566
0.50572127 -0.39735228 -0.19399045
0.5032618 -0.43136725 -0.2027742
0.51664835 -0.47974494 -0.15496485
0.6301012 0.79812825 0.10019967
0.62654054 0.7518487 0.088330895
0.62301999 0.70608932 0.076595515
0.61953872 0.66084135 0.064991415
0.6160962 0.61609614 0.053516179
0.61269164 0.57184553 0.042167813
0.60932654 0.52808297 0.03095071
0.60599619 0.48479697 0.019849718
0.60270214 0.44198155 0.0088693053
0.59944367 0.39962912 -0.0019923449
0.59622025 0.35773218 -0.01273708
0.59303129 0.31628332 -0.023366913
0.58987808 0.27527648 -0.033877462
0.58675641 0.23470263 -0.04428295
0.58366764 0.19455591 -0.054578975
0.58061123 0.15482968 -0.064767025
0.57758665 0.11551723 -0.074849039
0.57459337 0.076612435 -0.084826499
0.57163268 0.038108885 -0.094695292
0.56870067 4.4703484e-08 -0.10446867
0.56579864 -0.037719909 -0.11414225
0.56292599 -0.075056843 -0.12371773
0.56008238 -0.11201642 -0.13319635
0.55726743 -0.14860469 -0.14257967
0.55448216 -0.18482739 -0.15186375
0.55172306 -0.2206893 -0.1610609
0.5489912 -0.25619596 -0.17016697
0.54628634 -0.29135269 -0.17918313
0.54360795 -0.32616472 -0.18811107
0.54095572 -0.36063725 -0.19695193
0.53833079 -0.39477596 -0.20570177
0.53572965 -0.4285838 -0.21437213
0.58390743 -0.50605303 -0.053779706
0.64521086 0.52423382 0.016146123
0.64171201 0.48128402 0.0052124113
0.63824892 0.43879607 -0.0056098253
0.63482296 0.3967644 -0.016315922
0.63143367 0.3551814 -0.026907623
0.62808031 0.31404012 -0.037386745
0.62476236 0.27333364 -0.047755271
0.62148124 0.23305541 -0.058008812
0.61823255 0.19319764 -0.06816116
0.61501753 0.15375446 -0.07820785
0.61183584 0.11471915 -0.088150628
0.60868692 0.076085888 -0.097991109
0.60557026 0.037848204 -0.10773078
0.60248709 -2.9802322e-08 -0.11736563
0.59943342 -0.037464559 -0.12690832
0.59641051 -0.074551255 -0.13635489
0.59341794 -0.11126576 -0.14570661
0.59045529 -0.14761382 -0.15496482
0.58752209 -0.18360056 -0.16413127
0.58461952 -0.21923235 -0.17320168
0.58174384 -0.25451291 -0.18218815
0.57889634 -0.28944811 -0.19108666
0.57607651 -0.32404304 -0.19989856
0.57328409 -0.35830256 -0.20862493
0.57051855 -0.39223149 -0.21726716
0.56778121 -0.42583591 -0.22582147
0.63623512 -0.51694107 -0.011903048
0.66263568 0.31182855 -0.051209196
0.65915972 0.27141872 -0.061432622
0.65572208 0.23143128 -0.071543314
0.65231812 0.19185832 -0.081555009
0.64894933 0.15269393 -0.091463253
0.6456151 0.11393205 -0.10126976
0.64231503 0.075566389 -0.11097601
0.63904846 0.037591044 -0.12058336
0.63581687 6.7055225e-08 -0.13008812
0.63261592 -0.037212647 -0.13950263
0.62944704 -0.074052624 -0.14882293
0.62630975 -0.11052527 -0.15805034
0.62320358 -0.14663613 -0.16718604
0.62012804 -0.18239062 -0.17623168
0.6170845 -0.21779458 -0.18518329
0.61406893 -0.25285199 -0.19405258
0.61108267 -0.28756827 -0.20283565
0.60812539 -0.32194874 -0.2115337
0.60519654 -0.35599798 -0.22014791
0.60229576 -0.38972083 -0.22867954
0.59942436 -0.42312306 -0.23712488
0.6754871 0.075054213 -0.12378473
0.67207503 0.03733743 -0.13326266
0.6686992 7.4505806e-09 -0.14263979
0.66535521 -0.036964152 -0.15192884
0.66204447 -0.073560447 -0.16112529
0.65876651 -0.10979442 -0.17023066
0.65552092 -0.14567129 -0.17924643
0.65230709 -0.18119639 -0.18817367
0.64912647 -0.2163755 -0.19700862
0.64597487 -0.25121239 -0.20576306
0.64285374 -0.28571269 -0.21443285
0.63976264 -0.31988129 -0.2230193
0.63670117 -0.35372278 -0.23152351
0.63366878 -0.38724202 -0.23994678
0.63066691 -0.42044455 -0.24828526
0.68741566 -0.14471908 -0.19114901
0.68406743 -0.18001775 -0.19996034
0.68075353 -0.21497479 -0.208681
0.67746973 -0.24959412 -0.21732271
0.6742174 -0.28388101 -0.22588143
0.67099619 -0.31784028 -0.23435833
0.66780555 -0.35147661 -0.2427547
0.6646452 -0.38479468 -0.25107145
0.66151452 -0.41779864 -0.25930998
0.6985175 -0.34925872 -0.25384405
0.69523245 -0.3823778 -0.26205647
0.69197828 -0.41518706 -0.27019206
