# .PCD v0.7 - Point Cloud Data file format
VERSION 0.7
FIELDS x y z
SIZE 4 4 4
TYPE F F F
COUNT 1 1 1
WIDTH 973
HEIGHT 1
VIEWPOINT 0 0 0 1 0 0 0
POINTS 973
DATA ascii
-0.73784041 0.73784041 1.0741974
-0.73784041 0.67635369 1.0741974
-0.73784041 0.61486703 1.0741974
-0.73784041 0.55338031 1.0741974
-0.73784041 0.49189365 1.0741973
-0.73784041 0.4304069 1.0741974
-0.73784041 0.36892024 1.0741973
-0.73784041 0.30743349 1.0741974
-0.73784041 0.24594682 1.0741973
-0.73784041 0.1844601 1.0741973
-0.73784041 0.12297344 1.0741973
-0.73784041 0.061486691 1.0741973
-0.73784041 5.9604645e-08 1.0741973
-0.73784041 -0.061486602 1.0741973
-0.73783684 -0.12297285 1.0741823
-0.73783684 -0.18445936 1.0741825
-0.73783684 -0.24594566 1.0741825
-0.73783684 -0.307432 1.0741825
-0.73783684 -0.36891851 1.0741825
-0.73783684 -0.43040493 1.0741823
-0.73783684 -0.49189126 1.0741823
-0.73783684 -0.55337775 1.0741825
-0.73783684 -0.61486411 1.0741825
-0.73783684 -0.67635041 1.0741824
-0.73783684 -0.73783702 1.0741824
-0.58127397 0.73980319 0.64201665
-0.58127397 0.6869601 0.64201683
-0.58127397 0.63411713 0.64201689
-0.58127397 0.58127397 0.64201671
-0.58127397 0.52843082 0.64201689
-0.58127397 0.47558787 0.64201689
-0.58127397 0.42274487 0.64201701
-0.58127397 0.36990151 0.64201671
-0.58127397 0.3170585 0.64201677
-0.58127397 0.26421547 0.64201683
-0.58127397 0.21137245 0.64201695
-0.58127397 0.15852924 0.64201683
-0.58127397 0.10568625 0.64201695
-0.58127159 0.052842885 0.64200592
-0.58127159 8.9406967e-08 0.6420058
-0.58127159 -0.052842945 0.64200574
-0.58127159 -0.10568565 0.6420058
-0.58127159 -0.15852866 0.6420058
-0.58127159 -0.21137153 0.6420058
-0.58127159 -0.26421422 0.6420058
-0.58127159 -0.31705731 0.6420058
-0.58127159 -0.36990005 0.6420058
-0.58127159 -0.42274302 0.6420058
-0.58127159 -0.47558588 0.64200586
-0.58127159 -0.52842867 0.64200574
-0.58127159 -0.58127159 0.64200574
-0.58127159 -0.6341145 0.6420058
-0.58127159 -0.6869573 0.64200592
-0.58127159 -0.7398001 0.64200562
-0.46330142 0.74128234 0.31636959
-0.46330142 0.69495219 0.31636953
-0.46330142 0.64862204 0.31636947
-0.46330142 0.60229188 0.31636953
-0.46330142 0.55596179 0.31636941
-0.46330142 0.50963163 0.31636944
-0.46330142 0.46330142 0.31636944
-0.46330142 0.41697133 0.31636938
-0.46330142 0.37064123 0.31636947
-0.46330142 0.32431114 0.31636938
-0.46329972 0.27797976 0.31636095
-0.46329972 0.23164991 0.31636098
-0.46329972 0.18531983 0.31636092
-0.46329972 0.13898981 0.31636095
-0.46329972 0.09266004 0.31636089
-0.46329972 0.04633002 0.31636089
-0.46329972 1.4901161e-08 0.31636095
-0.46329972 -0.04632993 0.31636086
-0.46329972 -0.092659935 0.31636089
-0.46329972 -0.13898996 0.31636089
-0.46329972 -0.1853199 0.31636083
-0.46329972 -0.23164989 0.31636086
-0.46329972 -0.27797991 0.31636086
-0.46329972 -0.32430977 0.31636092
-0.46329972 -0.3706398 0.31636092
-0.46329972 -0.41696984 0.31636095
-0.46329972 -0.46329966 0.31636095
-0.46329972 -0.50962967 0.31636098
-0.46329972 -0.5559597 0.31636101
-0.46329972 -0.60228968 0.31636095
-0.46329972 -0.64861965 0.31636095
-0.46329972 -0.69494957 0.31636089
-0.46329972 -0.74127972 0.31636101
-0.37121838 0.74243677 0.062186569
-0.37121838 0.70119023 0.062186509
-0.37121838 0.6599437 0.062186569
-0.37121838 0.61869723 0.06218648
-0.37121838 0.57745075 0.062186539
-0.37121838 0.53620422 0.062186465
-0.37121838 0.49495789 0.062186524
-0.37121838 0.4537113 0.062186494
-0.37121838 0.41246477 0.062186569
-0.37121713 0.37121713 0.062179729
-0.37121713 0.32997078 0.062179834
-0.37121713 0.28872442 0.062179774
-0.37121713 0.24747804 0.062179863
-0.37121713 0.20623168 0.062179804
-0.37121713 0.16498533 0.062179737
-0.37121713 0.12373905 0.062179763
-0.37121713 0.082492605 0.062179781
-0.37121713 0.041246325 0.062179804
-0.37121713 -3.5390258e-08 0.062179737
-0.37121713 -0.041246407 0.062179841
-0.37121713 -0.082492687 0.06217986
-0.37121713 -0.12373912 0.062179707
-0.37121713 -0.16498539 0.062179729
-0.37121713 -0.20623177 0.062179834
-0.37121713 -0.24747813 0.062179767
-0.37121713 -0.28872442 0.062179796
-0.37121713 -0.32997087 0.062179804
-0.37121713 -0.37121713 0.062179834
-0.37121713 -0.41246349 0.062179759
-0.37121713 -0.45370996 0.062179789
-0.37121713 -0.4949562 0.062179819
-0.37121713 -0.53620255 0.062179729
-0.37121713 -0.57744884 0.062179744
-0.37121713 -0.6186952 0.062179863
-0.37121713 -0.65994155 0.062179804
-0.37121713 -0.70118797 0.062179744
-0.37121713 -0.74243426 0.062179655
-0.29734516 0.74336296 -0.14173046
-0.29734516 0.7061947 -0.14173055
-0.29734516 0.66902655 -0.14173061
-0.29734516 0.63185841 -0.14173058
-0.29734516 0.5946902 -0.14173055
-0.29734516 0.55752212 -0.14173061
-0.29734516 0.52035403 -0.14173052
-0.29734516 0.48318589 -0.14173052
-0.29734516 0.44601777 -0.14173055
-0.29734516 0.4088496 -0.14173052
-0.29734516 0.37168136 -0.14173064
-0.29734516 0.33451325 -0.14173055
-0.29734516 0.29734519 -0.14173061
-0.29734516 0.26017699 -0.14173058
-0.29734516 0.22300881 -0.14173056
-0.29734516 0.18584073 -0.14173062
-0.29734516 0.14867255 -0.14173061
-0.29734516 0.11150444 -0.14173049
-0.29734516 0.07433635 -0.14173055
-0.29734516 0.037168171 -0.14173053
-0.29734516 -8.1956387e-08 -0.14173061
-0.29734516 -0.037168179 -0.14173067
-0.29734516 -0.074336283 -0.14173055
-0.29734516 -0.11150446 -0.14173053
-0.29734516 -0.14867255 -0.14173059
-0.29734516 -0.18584073 -0.14173056
-0.29734516 -0.2230089 -0.14173055
-0.29734516 -0.26017693 -0.14173052
-0.29734516 -0.2973451 -0.14173049
-0.29734516 -0.33451331 -0.14173049
-0.29734516 -0.37168139 -0.14173055
-0.29734516 -0.40884963 -0.14173062
-0.29734516 -0.44601771 -0.14173068
-0.29734516 -0.48318583 -0.14173056
-0.29734516 -0.52035403 -0.14173055
-0.29734516 -0.55752212 -0.14173061
-0.29734516 -0.59469026 -0.14173059
-0.29734516 -0.63185847 -0.14173052
-0.29734516 -0.66902649 -0.14173058
-0.29734516 -0.7061947 -0.14173055
-0.29734516 -0.7433629 -0.14173052
-0.2367662 0.74412227 -0.30895066
-0.2367662 0.7102986 -0.30895054
-0.2367662 0.67647481 -0.30895054
-0.2367662 0.64265114 -0.30895054
-0.2367662 0.60882735 -0.30895054
-0.2367662 0.57500362 -0.30895066
-0.2367662 0.5411799 -0.30895054
-0.2367662 0.50735611 -0.3089506
-0.2367662 0.47353235 -0.30895063
-0.2367662 0.43970862 -0.30895057
-0.2367662 0.40588489 -0.30895066
-0.2367662 0.37206116 -0.30895057
-0.2367662 0.33823749 -0.30895057
-0.2367662 0.30441371 -0.30895057
-0.2367662 0.27058995 -0.30895063
-0.2367662 0.23676625 -0.30895057
-0.2367662 0.20294242 -0.30895057
-0.2367662 0.16911864 -0.30895063
-0.2367662 0.135295 -0.30895063
-0.2367662 0.10147119 -0.30895063
-0.2367662 0.067647368 -0.30895063
-0.2367662 0.033823714 -0.30895063
-0.2367662 7.4505806e-08 -0.3089506
-0.2367662 -0.033823654 -0.30895054
-0.2367662 -0.067647479 -0.30895054
-0.2367662 -0.1014713 -0.30895054
-0.2367662 -0.13529494 -0.30895054
-0.2367662 -0.16911867 -0.30895066
-0.2367662 -0.20294248 -0.30895063
-0.2367662 -0.23676622 -0.30895057
-0.2367662 -0.27058995 -0.30895063
-0.2367662 -0.30441374 -0.30895066
-0.2367662 -0.33823732 -0.30895057
-0.2367662 -0.37206113 -0.30895057
-0.2367662 -0.40588495 -0.30895057
-0.2367662 -0.43970859 -0.30895054
-0.2367662 -0.47353232 -0.30895066
-0.2367662 -0.50735617 -0.30895066
-0.2367662 -0.5411799 -0.30895057
-0.2367662 -0.57500368 -0.3089506
-0.2367662 -0.60882735 -0.30895057
-0.2367662 -0.64265102 -0.3089506
-0.2367662 -0.67647481 -0.30895063
-0.2367662 -0.7102986 -0.3089506
-0.2367662 -0.74412239 -0.30895054
-0.20257765 0.74278474 -0.31199062
-0.20257765 0.70902175 -0.31199071
-0.20257765 0.67525887 -0.31199065
-0.20257765 0.64149582 -0.31199074
-0.20257765 0.60773289 -0.3119908
-0.20257765 0.57397002 -0.31199062
-0.20257765 0.54020703 -0.31199074
-0.20257765 0.50644416 -0.31199071
-0.20257765 0.47268111 -0.31199071
-0.20257765 0.43891817 -0.31199068
-0.20257765 0.4051553 -0.31199068
-0.20257765 0.3713924 -0.31199062
-0.20257765 0.33762938 -0.31199068
-0.20257765 0.30386639 -0.31199071
-0.20257765 0.27010351 -0.31199071
-0.20257765 0.23634058 -0.31199068
-0.20257765 0.20257768 -0.31199065
-0.20257765 0.1688147 -0.31199074
-0.20257765 0.1350518 -0.31199071
-0.20257765 0.10128883 -0.3119908
-0.20257765 0.067525953 -0.31199062
-0.20257765 0.033762917 -0.31199062
-0.20257765 -4.4703484e-08 -0.31199074
-0.20257765 -0.033763006 -0.31199062
-0.20257765 -0.067525961 -0.31199074
-0.20257765 -0.10128885 -0.31199056
-0.20257765 -0.13505171 -0.31199074
-0.20257765 -0.16881467 -0.31199068
-0.20257765 -0.20257764 -0.31199074
-0.20257765 -0.23634058 -0.31199068
-0.20257765 -0.27010348 -0.31199068
-0.20257765 -0.30386651 -0.31199068
-0.20257765 -0.33762941 -0.31199068
-0.20257765 -0.37139243 -0.31199068
-0.20257765 -0.4051553 -0.31199068
-0.20257765 -0.43891817 -0.31199068
-0.20257765 -0.47268111 -0.31199074
-0.20257765 -0.5064441 -0.31199068
-0.20257765 -0.54020703 -0.31199074
-0.20257765 -0.57396996 -0.31199068
-0.20257765 -0.60773289 -0.31199071
-0.20257765 -0.64149582 -0.31199062
-0.20257765 -0.67525876 -0.31199068
-0.20257765 -0.70902181 -0.31199068
-0.20257765 -0.74278474 -0.31199068
-0.1723723 0.72396356 -0.27641487
-0.1723723 0.68948907 -0.27641487
-0.1723723 0.65501469 -0.27641487
-0.1723723 0.62054026 -0.27641484
-0.1723723 0.58606571 -0.27641484
-0.1723723 0.55159128 -0.27641493
-0.1723723 0.51711684 -0.27641484
-0.1723723 0.48264241 -0.27641484
-0.1723723 0.44816792 -0.27641487
-0.1723723 0.41369349 -0.27641481
-0.1723723 0.37921906 -0.27641478
-0.1723723 0.34474456 -0.27641481
-0.1723723 0.3102701 -0.2764149
-0.1723723 0.27579567 -0.27641484
-0.1723723 0.24132113 -0.27641484
-0.1723723 0.20684676 -0.27641484
-0.1723723 0.17237231 -0.27641478
-0.1723723 0.13789785 -0.27641487
-0.1723723 0.10342332 -0.27641487
-0.1723723 0.068948932 -0.27641484
-0.1723723 0.03447438 -0.27641487
-0.1723723 -0 -0.27641484
-0.1723723 -0.03447438 -0.27641484
-0.1723723 -0.068948932 -0.27641481
-0.1723723 -0.10342331 -0.27641481
-0.1723723 -0.13789786 -0.27641481
-0.1723723 -0.17237233 -0.2764149
-0.1723723 -0.2068467 -0.2764149
-0.1723723 -0.24132118 -0.27641481
-0.1723723 -0.27579564 -0.27641487
-0.1723723 -0.3102701 -0.27641478
-0.1723723 -0.34474456 -0.2764149
-0.1723723 -0.37921911 -0.27641487
-0.1723723 -0.41369349 -0.27641487
-0.1723723 -0.44816786 -0.27641484
-0.1723723 -0.48264244 -0.27641487
-0.1723723 -0.51711684 -0.27641487
-0.1723723 -0.55159134 -0.27641481
-0.1723723 -0.58606577 -0.27641481
-0.1723723 -0.6205402 -0.27641493
-0.1723723 -0.65501463 -0.27641484
-0.1723723 -0.68948919 -0.27641481
-0.1723723 -0.72396362 -0.27641484
-0.14086643 0.73954874 -0.23930727
-0.14086643 0.70433211 -0.23930731
-0.14086643 0.66911554 -0.23930731
-0.14086643 0.63389897 -0.23930722
-0.14086643 0.59868234 -0.2393073
-0.14086643 0.56346577 -0.23930724
-0.14086643 0.52824914 -0.23930733
-0.14086643 0.49303246 -0.23930734
-0.14086643 0.45781589 -0.23930728
-0.14086643 0.42259923 -0.23930734
-0.14086643 0.38738266 -0.23930728
-0.14086643 0.35216612 -0.23930724
-0.14086643 0.31694946 -0.2393073
-0.14086643 0.28173295 -0.2393073
-0.14086643 0.24651621 -0.2393073
-0.14086643 0.21129958 -0.23930734
-0.14086643 0.17608309 -0.23930722
-0.14086643 0.14086643 -0.23930725
-0.14086643 0.1056498 -0.23930731
-0.14086643 0.070433304 -0.23930734
-0.14086643 0.035216577 -0.23930731
-0.14086643 -8.1956387e-08 -0.23930734
-0.14086643 -0.035216577 -0.23930722
-0.14086643 -0.070433214 -0.23930727
-0.14086643 -0.10564979 -0.23930722
-0.14086643 -0.14086644 -0.23930728
-0.14086643 -0.17608309 -0.23930731
-0.14086643 -0.21129957 -0.23930736
-0.14086643 -0.24651632 -0.23930731
-0.14086643 -0.28173286 -0.2393073
-0.14086643 -0.31694946 -0.23930725
-0.14086643 -0.35216612 -0.23930728
-0.14086643 -0.38738266 -0.23930724
-0.14086643 -0.42259932 -0.23930728
-0.14086643 -0.45781589 -0.2393074
-0.14086643 -0.4930324 -0.2393073
-0.14086643 -0.52824914 -0.23930728
-0.14086643 -0.56346571 -0.2393073
-0.14086643 -0.59868234 -0.23930725
-0.14086643 -0.63389897 -0.2393073
-0.14086643 -0.66911554 -0.23930724
-0.14086643 -0.70433211 -0.23930725
-0.14086643 -0.73954868 -0.2393074
-0.10797425 0.71982831 -0.2005669
-0.10797425 0.68383688 -0.20056693
-0.10797425 0.64784551 -0.20056692
-0.10797425 0.61185402 -0.20056695
-0.10797425 0.57586265 -0.20056695
-0.10797425 0.53987122 -0.20056699
-0.10797425 0.50387979 -0.20056693
-0.10797425 0.46788833 -0.20056698
-0.10797425 0.43189704 -0.20056686
-0.10797425 0.39590555 -0.20056689
-0.10797425 0.35991418 -0.20056684
-0.10797425 0.32392275 -0.20056693
-0.10797425 0.28793138 -0.2005669
-0.10797425 0.25193992 -0.20056695
-0.10797425 0.21594849 -0.20056686
-0.10797425 0.17995703 -0.20056692
-0.10797425 0.14396557 -0.20056696
-0.10797425 0.10797419 -0.20056693
-0.10797425 0.071982801 -0.20056689
-0.10797425 0.035991423 -0.20056686
-0.10797425 -3.7252903e-08 -0.2005669
-0.10797425 -0.035991333 -0.20056693
-0.10797425 -0.071982801 -0.20056699
-0.10797425 -0.10797417 -0.20056695
-0.10797425 -0.14396563 -0.20056701
-0.10797425 -0.17995702 -0.20056696
-0.10797425 -0.21594848 -0.20056701
-0.10797425 -0.25193986 -0.20056698
-0.10797425 -0.28793126 -0.20056692
-0.10797425 -0.32392272 -0.2005668
-0.10797425 -0.35991418 -0.20056684
-0.10797425 -0.39590558 -0.20056683
-0.10797425 -0.43189704 -0.20056687
-0.10797425 -0.4678885 -0.20056692
-0.10797425 -0.5038799 -0.20056687
-0.10797425 -0.53987122 -0.20056702
-0.10797425 -0.57586259 -0.20056692
-0.10797425 -0.61185408 -0.20056696
-0.10797425 -0.64784539 -0.20056693
-0.10797425 -0.68383682 -0.20056692
-0.10797425 -0.71982831 -0.20056701
-0.073602378 0.73602384 -0.16007805
-0.073602378 0.69922262 -0.16007817
-0.073602378 0.66242152 -0.16007806
-0.073602378 0.62562025 -0.16007818
-0.073602378 0.58881903 -0.16007814
-0.073602378 0.55201787 -0.16007815
-0.073602378 0.51521665 -0.16007815
-0.073602378 0.47841552 -0.16007817
-0.073602378 0.44161427 -0.16007814
-0.073602378 0.40481311 -0.16007815
-0.073602378 0.36801192 -0.16007814
-0.073602378 0.3312107 -0.16007815
-0.073602378 0.29440954 -0.16007815
-0.073602378 0.25760826 -0.16007808
-0.073602378 0.22080718 -0.16007817
-0.073602378 0.18400599 -0.16007817
-0.073602378 0.14720473 -0.16007826
-0.073602378 0.11040352 -0.16007809
-0.073602378 0.073602274 -0.1600782
-0.073602378 0.036801256 -0.16007818
-0.073602378 -7.4505806e-09 -0.16007827
-0.073602378 -0.036801208 -0.16007811
-0.073602378 -0.073602468 -0.1600782
-0.073602378 -0.11040358 -0.16007812
-0.073602378 -0.14720476 -0.16007829
-0.073602378 -0.18400595 -0.16007812
-0.073602378 -0.22080721 -0.16007823
-0.073602378 -0.25760832 -0.16007812
-0.073602378 -0.29440957 -0.16007823
-0.073602378 -0.33121067 -0.16007812
-0.073602378 -0.36801195 -0.16007823
-0.073602378 -0.40481305 -0.16007815
-0.073602378 -0.44161433 -0.16007824
-0.073602378 -0.47841549 -0.16007806
-0.073602378 -0.51521677 -0.16007817
-0.073602378 -0.55201781 -0.16007817
-0.073602378 -0.58881903 -0.16007824
-0.073602378 -0.62562025 -0.16007808
-0.073602378 -0.66242146 -0.16007814
-0.073602378 -0.69922268 -0.16007814
-0.073602378 -0.73602378 -0.16007823
-0.03764813 0.71531445 -0.11773121
-0.03764813 0.67766637 -0.11773118
-0.03764813 0.64001822 -0.11773114
-0.03764813 0.60237008 -0.11773111
-0.03764813 0.56472188 -0.11773117
-0.03764813 0.5270738 -0.11773114
-0.03764813 0.48942572 -0.11773114
-0.03764813 0.45177761 -0.11773114
-0.03764813 0.4141295 -0.11773114
-0.03764813 0.37648124 -0.11773112
-0.03764813 0.33883315 -0.11773112
-0.03764813 0.3011851 -0.11773115
-0.03764813 0.26353693 -0.11773123
-0.03764813 0.22588883 -0.11773121
-0.03764813 0.18824065 -0.11773114
-0.03764813 0.15059255 -0.11773112
-0.03764813 0.11294446 -0.11773112
-0.03764813 0.075296283 -0.11773119
-0.03764813 0.03764819 -0.11773118
-0.03764813 -7.4505806e-08 -0.11773118
-0.03764813 -0.037648171 -0.11773118
-0.03764813 -0.075296268 -0.11773117
-0.03764813 -0.11294436 -0.11773116
-0.03764813 -0.15059255 -0.11773107
-0.03764813 -0.18824063 -0.11773106
-0.03764813 -0.2258888 -0.11773114
-0.03764813 -0.2635369 -0.11773113
-0.03764813 -0.30118507 -0.11773121
-0.03764813 -0.33883327 -0.11773112
-0.03764813 -0.37648135 -0.11773114
-0.03764813 -0.41412947 -0.11773109
-0.03764813 -0.45177746 -0.11773117
-0.03764813 -0.48942566 -0.11773108
-0.03764813 -0.52707386 -0.11773115
-0.03764813 -0.56472194 -0.11773115
-0.03764813 -0.60237008 -0.11773126
-0.03764813 -0.64001822 -0.11773121
-0.03764813 -0.67766631 -0.11773109
-0.03764813 -0.71531451 -0.11773118
0 0.7321645 -0.073389053
0 0.69362956 -0.073389024
0 0.65509462 -0.073389053
0 0.61655951 -0.073389083
0 0.57802463 -0.073389098
0 0.53948963 -0.073389083
0 0.50095463 -0.073389038
0 0.46241972 -0.073389068
0 0.42388475 -0.073389024
0 0.38534969 -0.073389083
0 0.34681481 -0.073389128
0 0.30827981 -0.073389083
0 0.2697449 -0.073389128
0 0.23120983 -0.073389009
0 0.19267485 -0.073388979
0 0.15413988 -0.073389105
0 0.11560489 -0.073389068
0 0.077069916 -0.073389202
0 0.038534924 -0.073389158
0 -5.9604645e-08 -0.073389128
0 -0.038535047 -0.073389091
0 -0.077069938 -0.073389128
0 -0.11560493 -0.073389091
0 -0.15413982 -0.073389135
0 -0.19267482 -0.073389105
0 -0.23120987 -0.073389158
0 -0.26974487 -0.07338912
0 -0.30827984 -0.073389083
0 -0.34681475 -0.073389128
0 -0.38534972 -0.073389083
0 -0.42388463 -0.073389113
0 -0.46241969 -0.073389009
0 -0.50095463 -0.073389068
0 -0.53948963 -0.073389098
0 -0.57802457 -0.073389173
0 -0.61655951 -0.073389113
0 -0.65509444 -0.073389173
0 -0.6936295 -0.073389024
0 -0.7321645 -0.073388994
0.039464604 0.74982744 -0.026907563
0.039464604 0.71036279 -0.026907593
0.039464604 0.67089832 -0.026907474
0.039464604 0.63143373 -0.026907504
0.039464604 0.59196907 -0.026907593
0.039464604 0.55250442 -0.026907623
0.039464604 0.51303983 -0.026907548
0.039464604 0.4735752 -0.026907593
0.039464604 0.4341107 -0.026907563
0.039464604 0.39464602 -0.026907578
0.039464604 0.3551814 -0.026907623
0.039464604 0.31571683 -0.026907578
0.039464604 0.27625218 -0.026907615
0.039464604 0.23678762 -0.026907563
0.039464604 0.19732299 -0.026907615
0.039464604 0.15785836 -0.026907653
0.039464604 0.11839379 -0.026907608
0.039464604 0.078929156 -0.026907649
0.039464604 0.039464597 -0.0269076
0.039464604 -3.7252903e-08 -0.026907641
0.039464604 -0.039464597 -0.026907597
0.039464604 -0.078929156 -0.026907548
0.039464604 -0.11839379 -0.026907589
0.039464604 -0.15785834 -0.026907541
0.039464604 -0.19732299 -0.026907586
0.039464604 -0.23678762 -0.02690763
0.039464604 -0.27625227 -0.026907489
0.039464604 -0.3157168 -0.026907623
0.039464604 -0.3551814 -0.026907563
0.039464604 -0.39464602 -0.026907623
0.039464604 -0.43411058 -0.026907563
0.039464604 -0.47357523 -0.026907608
0.039464604 -0.51303983 -0.026907653
0.039464604 -0.55250442 -0.026907593
0.039464604 -0.59196901 -0.026907653
0.039464604 -0.63143373 -0.026907504
0.039464604 -0.6708982 -0.026907623
0.039464604 -0.71036297 -0.026907593
0.080880389 0.72792351 0.021872014
0.080880389 0.68748331 0.021872014
0.080880389 0.64704311 0.021871984
0.080880389 0.60660291 0.021871984
0.080880389 0.56616271 0.021872073
0.080880389 0.5257225 0.021872044
0.080880389 0.48528236 0.021872014
0.080880389 0.44484222 0.021872103
0.080880389 0.40440196 0.021871924
0.080880389 0.36396176 0.021872059
0.080880389 0.32352158 0.021872029
0.080880389 0.28308129 0.021872073
0.080880389 0.24264121 0.021871954
0.080880389 0.20220101 0.021872088
0.080880389 0.16176081 0.021872059
0.080880389 0.12132054 0.021872099
0.080880389 0.080880433 0.021871986
0.080880389 0.040440235 0.021872118
0.080880389 -3.259629e-08 0.02187199
0.080880389 -0.040440146 0.021872045
0.080880389 -0.080880329 0.021872006
0.080880389 -0.12132052 0.021871973
0.080880389 -0.16176081 0.021872014
0.080880389 -0.20220092 0.021872066
0.080880389 -0.24264111 0.021872029
0.080880389 -0.28308129 0.021871999
0.080880389 -0.32352158 0.021872029
0.080880389 -0.3639617 0.021872088
0.080880389 -0.40440202 0.021872044
0.080880389 -0.44484207 0.021872014
0.080880389 -0.48528233 0.021872059
0.080880389 -0.52572256 0.021872044
0.080880389 -0.56616282 0.021872073
0.080880389 -0.60660279 0.021872044
0.080880389 -0.64704299 0.021871984
0.080880389 -0.68748331 0.021872044
0.080880389 -0.72792351 0.021872014
0.12439614 0.74637681 0.073131293
0.12439614 0.70491135 0.073131204
0.12439614 0.66344607 0.073131263
0.12439614 0.62198073 0.073131323
0.12439614 0.58051527 0.073131353
0.12439614 0.5390498 0.073131263
0.12439614 0.49758458 0.073131248
0.12439614 0.45611915 0.073131278
0.12439614 0.41465387 0.073131338
0.12439614 0.37318841 0.073131353
0.12439614 0.33172306 0.073131323
0.12439614 0.29025763 0.073131338
0.12439614 0.24879226 0.073131286
0.12439614 0.20732692 0.073131248
0.12439614 0.16586153 0.073131368
0.12439614 0.12439619 0.073131308
0.12439614 0.082930736 0.073131338
0.12439614 0.041465387 0.073131293
0.12439614 3.3527613e-08 0.073131248
0.12439614 -0.041465335 0.073131368
0.12439614 -0.082930773 0.073131233
0.12439614 -0.12439614 0.073131353
0.12439614 -0.16586158 0.073131382
0.12439614 -0.20732684 0.073131248
0.12439614 -0.2487922 0.073131375
0.12439614 -0.29025763 0.073131233
0.12439614 -0.33172303 0.07313136
0.12439614 -0.37318844 0.073131382
0.12439614 -0.41465378 0.073131323
0.12439614 -0.45611915 0.073131293
0.12439614 -0.49758452 0.073131248
0.12439614 -0.53904998 0.073131263
0.12439614 -0.58051533 0.073131382
0.12439614 -0.62198067 0.073131353
0.12439614 -0.66344607 0.073131263
0.12439614 -0.70491141 0.073131412
0.17017502 0.72324377 0.12704986
0.17017502 0.68070006 0.12704989
0.17017502 0.63815629 0.12704995
0.17017502 0.59561253 0.12704983
0.17017502 0.55306876 0.12704991
0.17017502 0.51052487 0.12704988
0.17017502 0.46798119 0.12704991
0.17017502 0.42543751 0.12704989
0.17017502 0.3828938 0.12704988
0.17017502 0.34035003 0.12704995
0.17017502 0.29780635 0.12704995
0.17017502 0.25526249 0.12704994
0.17017502 0.2127188 0.12704994
0.17017502 0.17017502 0.12705001
0.17017502 0.12763125 0.12704992
0.17017502 0.085087478 0.12704998
0.17017502 0.042543788 0.12705
0.17017502 -7.4505806e-08 0.12704998
0.17017502 -0.042543761 0.12704997
0.17017502 -0.085087448 0.12704997
0.17017502 -0.12763131 0.12704995
0.17017502 -0.17017499 0.12704994
0.17017502 -0.21271878 0.12705003
0.17017502 -0.25526243 0.12704985
0.17017502 -0.29780623 0.12704992
0.17017502 -0.34034991 0.12704992
0.17017502 -0.38289377 0.12704991
0.17017502 -0.42543745 0.12704989
0.17017502 -0.46798125 0.12704997
0.17017502 -0.51052499 0.12704988
0.17017502 -0.55306876 0.12704995
0.17017502 -0.59561253 0.12704997
0.17017502 -0.63815635 0.12704994
0.17017502 -0.68069994 0.12704986
0.17017502 -0.72324371 0.12704992
0.21839857 0.74255508 0.18384787
0.21839857 0.69887531 0.18384781
0.21839857 0.65519559 0.18384777
0.21839857 0.61151594 0.18384792
0.21839857 0.5678364 0.18384801
0.21839857 0.52415651 0.18384789
0.21839857 0.48047674 0.18384799
0.21839857 0.43679708 0.18384783
0.21839857 0.39311743 0.18384802
0.21839857 0.34943777 0.18384789
0.21839857 0.30575803 0.18384799
0.21839857 0.26207826 0.18384792
0.21839857 0.21839862 0.18384795
0.21839857 0.17471878 0.18384796
0.21839857 0.1310392 0.18384789
0.21839857 0.087359443 0.18384799
0.21839857 0.043679707 0.18384793
0.21839857 -3.7252903e-08 0.18384787
0.21839857 -0.043679632 0.18384798
0.21839857 -0.087359458 0.18384799
0.21839857 -0.13103911 0.18384784
0.21839857 -0.17471887 0.18384795
0.21839857 -0.21839862 0.18384787
0.21839857 -0.2620782 0.18384799
0.21839857 -0.30575803 0.18384799
0.21839857 -0.34943768 0.18384784
0.21839857 -0.39311743 0.18384796
0.21839857 -0.43679702 0.1838479
0.21839857 -0.48047686 0.18384792
0.21839857 -0.52415657 0.18384801
0.21839857 -0.56783628 0.18384787
0.21839857 -0.611516 0.18384796
0.21839857 -0.65519571 0.18384799
0.21839857 -0.69887531 0.18384783
0.21839857 -0.74255508 0.18384793
0.26926798 0.71804804 0.24376234
0.26926798 0.67316991 0.24376212
0.26926798 0.62829208 0.24376234
0.26926798 0.58341396 0.24376215
0.26926798 0.53853607 0.24376233
0.26926798 0.49365792 0.24376218
0.26926798 0.44878012 0.24376228
0.26926798 0.40390202 0.24376222
0.26926798 0.35902393 0.24376217
0.26926798 0.31414598 0.24376225
0.26926798 0.26926807 0.24376221
0.26926798 0.22439006 0.24376224
0.26926798 0.17951204 0.24376224
0.26926798 0.13463402 0.24376228
0.26926798 0.089756005 0.24376228
0.26926798 0.04487808 0.24376222
0.26926798 5.9604645e-08 0.24376225
0.26926798 -0.044877961 0.24376228
0.26926798 -0.089755982 0.2437623
0.26926798 -0.1346339 0.24376224
0.26926798 -0.17951192 0.24376225
0.26926798 -0.22438994 0.24376228
0.26926798 -0.26926795 0.2437623
0.26926798 -0.31414595 0.24376231
0.26926798 -0.3590239 0.24376225
0.26926798 -0.4039019 0.24376227
0.26926798 -0.44877994 0.24376231
0.26926798 -0.49365795 0.24376234
0.26926798 -0.53853589 0.24376227
0.26926798 -0.58341396 0.24376237
0.26926798 -0.62829196 0.24376221
0.26926798 -0.67316991 0.24376217
0.26926798 -0.71804804 0.24376224
0.32300839 0.73830491 0.30706501
0.32300839 0.69216079 0.30706507
0.32300839 0.64601672 0.30706507
0.32300839 0.59987271 0.30706501
0.32300839 0.5537287 0.30706504
0.32300839 0.50758457 0.30706507
0.32300839 0.46144062 0.30706501
0.32300839 0.41529644 0.30706513
0.32300839 0.36915246 0.30706504
0.32300839 0.32300839 0.30706504
0.32300839 0.27686423 0.30706498
0.32300839 0.23072025 0.30706492
0.32300839 0.18457618 0.30706513
0.32300839 0.1384322 0.30706507
0.32300839 0.092288129 0.30706507
0.32300839 0.046144053 0.3070651
0.32300839 7.4505806e-08 0.30706504
0.32300839 -0.046144083 0.30706513
0.32300839 -0.092288062 0.30706507
0.32300839 -0.13843222 0.30706501
0.32300839 -0.18457629 0.30706501
0.32300839 -0.23072027 0.30706498
0.32300839 -0.27686441 0.30706504
0.32300839 -0.32300833 0.30706507
0.32300839 -0.3691524 0.3070651
0.32300839 -0.41529647 0.30706513
0.32300839 -0.46144047 0.30706507
0.32300839 -0.50758451 0.3070651
0.32300839 -0.55372858 0.30706495
0.32300839 -0.59987283 0.30706513
0.32300839 -0.64601684 0.30706507
0.32300839 -0.69216084 0.30706498
0.32300839 -0.73830491 0.30706501
0.37986752 0.71225154 0.37403411
0.37986752 0.66476822 0.37403429
0.37986752 0.61728483 0.37403429
0.37986752 0.56980133 0.37403429
0.37986752 0.52231783 0.37403432
0.37986752 0.47483444 0.37403426
0.37986752 0.42735097 0.37403429
0.37986752 0.37986755 0.37403426
0.37986752 0.33238405 0.37403426
0.37986752 0.28490075 0.37403429
0.37986752 0.23741716 0.37403426
0.37986752 0.18993387 0.37403426
0.37986752 0.14245044 0.3740344
0.37986752 0.094966874 0.37403429
0.37986752 0.047483474 0.37403426
0.37986752 -1.4901161e-08 0.37403429
0.37986752 -0.047483429 0.37403423
0.37986752 -0.094966918 0.37403426
0.37986752 -0.14245024 0.37403429
0.37986752 -0.18993372 0.37403432
0.37986752 -0.23741722 0.37403435
0.37986752 -0.28490061 0.37403429
0.37986752 -0.33238411 0.37403432
0.37986752 -0.3798674 0.37403435
0.37986752 -0.427351 0.37403429
0.37986752 -0.47483432 0.37403417
0.37986752 -0.52231777 0.3740342
0.37986752 -0.56980127 0.3740342
0.37986752 -0.6172846 0.37403426
0.37986752 -0.66476804 0.37403417
0.37986752 -0.7122516 0.37403429
0.44012612 0.73354352 0.44500738
0.44012612 0.68464065 0.44500738
0.44012612 0.63573778 0.4450075
0.44012612 0.58683491 0.44500753
0.44012612 0.53793192 0.44500744
0.44012612 0.48902908 0.44500738
0.44012612 0.44012615 0.44500753
0.44012612 0.39122325 0.44500759
0.44012612 0.34232035 0.44500738
0.44012612 0.29341745 0.44500744
0.44012612 0.24451436 0.44500738
0.44012612 0.19561166 0.44500744
0.44012612 0.14670871 0.44500744
0.44012612 0.097805813 0.4450075
0.44012612 0.048902974 0.44500738
0.44012612 -5.9604645e-08 0.44500744
0.44012612 -0.048902929 0.4450075
0.44012612 -0.097805798 0.44500738
0.44012612 -0.14670873 0.44500732
0.44012612 -0.1956117 0.4450075
0.44012612 -0.24451454 0.44500738
0.44012612 -0.29341742 0.44500741
0.44012612 -0.34232035 0.44500738
0.44012612 -0.39122325 0.44500744
0.44012612 -0.44012612 0.44500735
0.44012612 -0.48902905 0.4450075
0.44012612 -0.5379321 0.44500753
0.44012612 -0.58683485 0.44500735
0.44012612 -0.63573772 0.44500744
0.44012612 -0.68464071 0.44500738
0.44012612 -0.73354357 0.44500744
0.50409847 0.70573771 0.52035463
0.50409847 0.65532815 0.52035475
0.50409847 0.60491812 0.52035475
0.50409847 0.55450833 0.52035481
0.50409847 0.50409853 0.52035481
0.50409847 0.45368859 0.52035463
0.50409847 0.40327889 0.52035463
0.50409847 0.3528688 0.52035463
0.50409847 0.302459 0.52035469
0.50409847 0.25204915 0.52035451
0.50409847 0.20163947 0.52035475
0.50409847 0.15122968 0.52035487
0.50409847 0.10081969 0.52035469
0.50409847 0.050409794 0.52035469
0.50409847 -0 0.52035475
0.50409847 -0.050409809 0.52035469
0.50409847 -0.10081962 0.52035475
0.50409847 -0.15122961 0.52035481
0.50409847 -0.2016394 0.52035469
0.50409847 -0.25204927 0.52035469
0.50409847 -0.30245912 0.52035475
0.50409847 -0.35286897 0.52035469
0.50409847 -0.4032788 0.52035481
0.50409847 -0.45368871 0.52035475
0.50409847 -0.50409842 0.52035475
0.50409847 -0.55450821 0.52035463
0.50409847 -0.60491818 0.52035475
0.50409847 -0.65532798 0.52035463
0.50409847 -0.70573771 0.52035463
0.57213885 0.72817671 0.60049331
0.57213885 0.67616403 0.60049337
0.57213885 0.62415141 0.60049331
0.57213885 0.57213873 0.60049307
0.57213885 0.52012616 0.60049331
0.57213885 0.46811357 0.60049319
0.57213885 0.41610098 0.60049319
0.57213885 0.3640883 0.60049319
0.57213885 0.3120757 0.60049319
0.57213885 0.26006311 0.60049313
0.57213885 0.20805033 0.60049319
0.57213885 0.15603775 0.60049319
0.57213885 0.10402517 0.60049313
0.57213885 0.052012622 0.60049337
0.57213885 2.9802322e-08 0.60049331
0.57213885 -0.052012533 0.60049325
0.57213885 -0.10402524 0.60049331
0.57213885 -0.15603785 0.60049319
0.57213885 -0.20805052 0.60049325
0.57213885 -0.26006311 0.60049319
0.57213885 -0.3120757 0.60049331
0.57213885 -0.3640883 0.60049325
0.57213885 -0.41610098 0.60049331
0.57213885 -0.46811354 0.60049331
0.57213885 -0.52012616 0.60049319
0.57213885 -0.57213867 0.60049331
0.57213885 -0.62415147 0.60049337
0.57213885 -0.67616409 0.60049331
0.57213885 -0.72817671 0.60049319
0.64465064 0.69837141 0.68590653
0.64465064 0.64465046 0.68590641
0.64465064 0.59092981 0.68590677
0.64465064 0.53720886 0.68590665
0.64465064 0.4834879 0.68590659
0.64465064 0.42976695 0.68590653
0.64465064 0.37604621 0.68590659
0.64465064 0.32232526 0.68590653
0.64465064 0.26860446 0.68590659
0.64465064 0.21488351 0.68590653
0.64465064 0.16116272 0.68590665
0.64465064 0.10744169 0.68590665
0.64465064 0.053720832 0.68590653
0.64465064 2.9802322e-08 0.68590659
0.64465064 -0.053720832 0.68590665
0.64465064 -0.10744178 0.68590653
0.64465064 -0.16116267 0.68590653
0.64465064 -0.21488337 0.68590653
0.64465064 -0.26860428 0.68590653
0.64465064 -0.32232535 0.68590665
0.64465064 -0.37604636 0.68590677
0.64465064 -0.42976725 0.68590665
0.64465064 -0.48348802 0.68590677
0.64465064 -0.53720897 0.68590665
0.64465064 -0.59092987 0.68590671
0.64465064 -0.6446507 0.68590671
0.64465064 -0.69837159 0.68590677
0.72208411 0.72208411 0.77710861
0.72208411 0.66653895 0.77710867
0.72208411 0.6109941 0.77710873
0.72208411 0.55544925 0.77710879
0.72208411 0.49990425 0.77710873
0.72208411 0.44435951 0.77710873
0.72208411 0.38881451 0.77710861
0.72208411 0.3332696 0.77710873
0.72208411 0.27772462 0.77710867
0.72208411 0.22217977 0.77710867
0.72208411 0.16663471 0.77710861
0.72208411 0.11108986 0.77710873
0.72208411 0.055545002 0.77710879
0.72208411 -0 0.77710867
0.72208411 -0.055544853 0.77710879
0.72208411 -0.11108989 0.77710867
0.72208411 -0.16663474 0.77710879
0.72208411 -0.22217974 0.77710867
0.72208411 -0.27772462 0.77710879
0.72208411 -0.33326954 0.77710861
0.72208411 -0.38881451 0.77710879
0.72208411 -0.4443596 0.77710873
0.72208411 -0.49990445 0.77710867
0.72208411 -0.55544949 0.77710879
0.72208411 -0.61099434 0.77710867
0.72208411 -0.66653931 0.77710873
0.72208411 -0.72208411 0.77710879
0.80496067 0.74746352 0.87472188
0.80496067 0.68996626 0.87472177
0.80496067 0.63246918 0.87472188
0.80496067 0.57497191 0.87472188
0.80496067 0.51747489 0.87472194
0.80496067 0.45997751 0.87472177
0.80496067 0.40248042 0.87472183
0.80496067 0.34498325 0.874722
0.80496067 0.2874859 0.87472177
0.80496067 0.22998881 0.87472188
0.80496067 0.17249164 0.87472183
0.80496067 0.11499429 0.87472177
0.80496067 0.057497233 0.87472188
0.80496067 -0 0.87472177
0.80496067 -0.057497114 0.874722
0.80496067 -0.11499435 0.87472188
0.80496067 -0.17249167 0.87472188
0.80496067 -0.22998875 0.874722
0.80496067 -0.28748602 0.87472188
0.80496067 -0.34498316 0.87472188
0.80496067 -0.4024803 0.87472188
0.80496067 -0.45997745 0.87472188
0.80496067 -0.51747483 0.874722
0.80496067 -0.5749718 0.87472188
0.80496067 -0.63246918 0.87472194
0.80496067 -0.68996638 0.87472188
0.89387536 0.71510035 0.97944677
0.89387536 0.65550876 0.97944683
0.89387536 0.59591681 0.97944665
0.89387536 0.53632522 0.97944677
0.89387536 0.47673357 0.97944659
0.89387536 0.41714182 0.97944683
0.89387536 0.35755011 0.97944671
0.89387536 0.29795837 0.97944665
0.89387536 0.23836681 0.97944677
0.89387536 0.17877504 0.97944665
0.89387536 0.11918348 0.97944677
0.89387536 0.059591681 0.97944641
0.89387536 5.9604645e-08 0.97944659
0.89387536 -0.059591532 0.97944677
0.89387536 -0.11918342 0.97944671
0.89387536 -0.1787751 0.97944695
0.89387536 -0.2383669 0.97944665
0.89387536 -0.29795843 0.97944665
0.89387536 -0.35755011 0.97944689
0.89387536 -0.41714177 0.97944671
0.89387536 -0.47673339 0.97944665
0.89387536 -0.53632522 0.97944671
0.89387536 -0.59591687 0.97944665
0.89387536 -0.65550858 0.97944671
0.89387536 -0.71510023 0.97944665
