# .PCD v0.7 - Point Cloud Data file format
VERSION 0.7
FIELDS x y z
SIZE 4 4 4
TYPE F F F
COUNT 1 1 1
WIDTH 940
HEIGHT 1
VIEWPOINT 0 0 0 1 0 0 0
POINTS 940
DATA ascii
-1.1305192 0.69984531 0.69157457
-1.0515007 0.68347532 0.62861389
-1.0615846 0.63695067 0.65382367
-1.0718638 0.58952492 0.67952138
-1.0823438 0.54117179 0.70572186
-1.093031 0.49186406 0.73243999
-1.1039313 0.44157249 0.75969052
-1.1150513 0.39026791 0.78749043
-0.97609013 0.66785109 0.56852049
-0.98523486 0.62225354 0.59258568
-0.99455267 0.57579362 0.61710602
-1.0040482 0.5284465 0.64209437
-1.0137268 0.48018634 0.66756445
-1.023594 0.43098694 0.69353056
-1.033655 0.38082021 0.72000706
-1.0439159 0.32965767 0.74700928
-1.0543824 0.27746904 0.77455294
-1.065061 0.22422341 0.80265439
-1.0759581 0.16988799 0.83133078
-1.0870805 0.11442953 0.86060023
-1.0984353 0.057812423 0.89048111
-0.90405047 0.65292525 0.5111137
-0.91232926 0.60821944 0.53411025
-0.92076105 0.56268734 0.55753189
-0.92935014 0.51630563 0.58139032
-0.93810099 0.46905035 0.60569829
-0.94701827 0.42089701 0.63046843
-0.9561106 0.37182087 0.65572524
-0.96537519 0.32179174 0.68146008
-0.97482115 0.2707836 0.70769858
-0.98445368 0.21876754 0.73445576
-0.99427855 0.16571304 0.761747
-1.0043014 0.11158907 0.78958851
-1.0145284 0.056362629 0.81799686
-1.0249659 8.9406967e-08 0.84698981
-1.0356203 -0.057534367 0.8765856
-1.0464987 -0.11627764 0.90680301
-1.0576079 -0.17626804 0.93766218
-1.0689555 -0.23754552 0.96918321
-1.0805494 -0.3001526 1.0013883
-0.83516365 0.63865465 0.45622599
-0.8426429 0.59480667 0.47822386
-0.8502574 0.55016649 0.50061929
-0.85801071 0.50471222 0.52342331
-0.86590677 0.4584212 0.54664677
-0.87394953 0.41127032 0.57030195
-0.88214302 0.36323541 0.59440053
-0.8904916 0.31429115 0.61895531
-0.89899975 0.26441169 0.64397907
-0.90767205 0.21356986 0.66948593
-0.91651326 0.16173765 0.69548953
-0.92552847 0.10888571 0.72200465
-0.93472272 0.054983556 0.74904668
-0.94410157 -0 0.77663136
-0.95367038 -0.056098193 0.80477524
-0.96343523 -0.11334544 0.83349532
-0.97340214 -0.17177695 0.86280978
-0.98357749 -0.2314299 0.89273703
-0.99396771 -0.29234356 0.92329669
-1.0045798 -0.3545576 0.9545086
-1.015421 -0.41811445 0.98639452
-1.0264987 -0.48305815 1.0189761
-1.0378208 -0.54943436 1.0522761
-1.0493954 -0.61729133 1.0863193
-1.061231 -0.68667901 1.1211302
-0.76922077 0.62499189 0.40367717
-0.77596086 0.58197063 0.42474005
-0.78282011 0.53818864 0.44617486
-0.78980172 0.493626 0.46799237
-0.79690892 0.44826129 0.49020272
-0.80414522 0.40207264 0.51281601
-0.8115142 0.35503733 0.53584397
-0.81901938 0.30713239 0.55929798
-0.82666475 0.25833279 0.58318973
-0.83445418 0.20861351 0.60753149
-0.84239179 0.15794848 0.63233662
-0.85048187 0.10631031 0.65761828
-0.85872889 0.053670585 0.68339002
-0.86713737 -0 0.70966673
-0.87571222 -0.054732025 0.73646283
-0.88445824 -0.11055714 0.76379418
-0.89338076 -0.16750872 0.79167724
-0.90248519 -0.22562137 0.82012838
-0.91178113 -0.2849316 0.84917843
-0.92126644 -0.34547496 0.87881982
-0.93095112 -0.40729123 0.90908468
-0.94084156 -0.47042066 0.93999231
-0.95094448 -0.53490627 0.97156382
-0.96126676 -0.60079175 1.0038207
-0.97181547 -0.66812313 1.0367856
-0.7060402 0.61190158 0.35332969
-0.71209598 0.56967688 0.37351564
-0.71825653 0.52672154 0.39405087
-0.72452468 0.48301652 0.41494444
-0.73090309 0.43854186 0.43620607
-0.73739487 0.39327729 0.45784542
-0.744003 0.34720132 0.47987211
-0.75073063 0.30029225 0.5022977
-0.75758106 0.25252697 0.52513236
-0.7645607 0.20388278 0.5483979
-0.77166706 0.15433347 0.57208574
-0.7789067 0.10385422 0.59621787
-0.78628349 0.052418858 0.62080717
-0.79380137 1.4901161e-07 0.64586669
-0.80146432 -0.053430945 0.67140996
-0.8092767 -0.10790345 0.69745135
-0.81724292 -0.16344842 0.72400528
-0.82536751 -0.22009799 0.75108713
-0.83365524 -0.27788496 0.77871299
-0.84211111 -0.3368445 0.80689955
-0.85074031 -0.39701208 0.8356632
-0.85954815 -0.45842582 0.86502284
-0.86854029 -0.52112401 0.89499652
-0.87772262 -0.58514822 0.92560405
-0.88710105 -0.65054071 0.95686579
-0.89668214 -0.7173456 0.98880267
-0.64545196 0.59934819 0.30504781
-0.65087354 0.55789173 0.32441074
-0.65638947 0.51573455 0.34411013
-0.66199708 0.47285512 0.36413771
-0.66770148 0.42923659 0.38451016
-0.67350495 0.38486004 0.40523717
-0.67941022 0.33970502 0.42632723
-0.68541992 0.29375136 0.44779059
-0.69153696 0.24697742 0.46963698
-0.6977641 0.19936107 0.49187678
-0.70410442 0.15087947 0.51452088
-0.71056104 0.10150869 0.53758019
-0.71713716 0.051224083 0.56106639
-0.72383612 2.9802322e-08 0.58499128
-0.73066145 -0.052190095 0.60936737
-0.73761666 -0.10537392 0.63420749
-0.74470562 -0.15957978 0.65952504
-0.75193214 -0.21483774 0.68533409
-0.75930029 -0.27117866 0.71164906
-0.76681429 -0.32863474 0.73848474
-0.77447844 -0.38723922 0.76585674
-0.78229737 -0.44702697 0.79378152
-0.79027581 -0.50803435 0.82227588
-0.79841864 -0.57029891 0.85135734
-0.80673105 -0.63386011 0.88104451
-0.81521833 -0.69875854 0.91135627
-0.58730179 0.58730161 0.25871533
-0.59213501 0.54658604 0.27730447
-0.5970484 0.50519472 0.29620206
-0.60204399 0.4631108 0.31541604
-0.60712391 0.42031649 0.33495417
-0.61229026 0.37679389 0.35482472
-0.61754531 0.33252427 0.37503654
-0.62289137 0.28748822 0.39559823
-0.62833077 0.24166569 0.41651905
-0.63386601 0.19503561 0.43780848
-0.6394996 0.14757688 0.45947617
-0.64523435 0.099266753 0.48153269
-0.6510728 0.05008243 0.50398827
-0.65701783 -2.9802322e-08 0.5268538
-0.66307247 -0.051005572 0.55014098
-0.66923976 -0.10296007 0.57386124
-0.67552286 -0.15588994 0.59802705
-0.681925 -0.20982303 0.62265074
-0.68844968 -0.26478827 0.64774573
-0.69510043 -0.32081556 0.67332554
-0.70188093 -0.37793583 0.69940436
-0.70879507 -0.43618149 0.72599703
-0.71584672 -0.49558607 0.75311875
-0.7230401 -0.55618459 0.78078556
-0.73037952 -0.61801332 0.80901414
-0.73787278 -0.6811133 0.83783436
-0.74551803 -0.74551803 0.86723912
-0.53144127 0.57572794 0.21420082
-0.53572786 0.53572786 0.23206174
-0.54008418 0.4950771 0.250213
-0.54451191 0.45375991 0.26866183
-0.54901284 0.41175967 0.28741592
-0.55358881 0.36905915 0.30648223
-0.55824167 0.32564092 0.3258692
-0.56297344 0.28148669 0.34558502
-0.56778616 0.23657754 0.36563778
-0.57268178 0.19089398 0.38603643
-0.57766259 0.14441562 0.40678984
-0.58273083 0.097121716 0.42790735
-0.58788878 0.048990712 0.44939885
-0.59313881 2.9802322e-08 0.4712739
-0.59848583 -0.049873933 0.49355334
-0.60392779 -0.10065469 0.51622802
-0.60946953 -0.15236734 0.5393188
-0.61511397 -0.20503807 0.56283724
-0.62086397 -0.25869328 0.58679545
-0.62672246 -0.31336129 0.6112057
-0.63269252 -0.36907074 0.63608128
-0.63877749 -0.42585152 0.66143483
-0.64498055 -0.4837355 0.68728125
-0.65130532 -0.54275459 0.71363449
-0.65775532 -0.60294229 0.74050951
-0.66433442 -0.66433436 0.76792234
-0.67104644 -0.72696698 0.79588896
-0.47773987 0.56460166 0.17140698
-0.48151821 0.52529275 0.18858153
-0.48535684 0.48535678 0.20602973
-0.48925716 0.44477928 0.22375844
-0.49322066 0.40354416 0.24177445
-0.49724892 0.36163563 0.26008466
-0.50134355 0.31903684 0.27869645
-0.50550795 0.27573162 0.29762569
-0.50974023 0.23170015 0.31686354
-0.51404405 0.18692511 0.33642611
-0.51842111 0.14138761 0.35632196
-0.5228734 0.095067888 0.37655941
-0.52740276 0.047945648 0.3971476
-0.53201133 -4.4703484e-08 0.41809565
-0.53670114 -0.048791021 0.43941295
-0.54147434 -0.098449871 0.4611094
-0.54633331 -0.14899997 0.48319536
-0.55128014 -0.20046547 0.50568116
-0.55631739 -0.25287163 0.52857786
-0.56144762 -0.30624408 0.55189693
-0.56667328 -0.36061031 0.57564998
-0.57199717 -0.41599807 0.59984946
-0.57742202 -0.4724361 0.6245079
-0.58295077 -0.52995527 0.64963853
-0.58858645 -0.58858651 0.67525518
-0.5943321 -0.64836228 0.70137179
-0.60019106 -0.70931655 0.72800332
-0.60616672 -0.77148491 0.75516534
-0.42607614 0.55389905 0.13024297
-0.42938155 0.51525784 0.14676991
-0.43273863 0.47601259 0.1635555
-0.43614864 0.43614864 0.18060541
-0.43961281 0.39565146 0.19792631
-0.44313246 0.35450593 0.21552448
-0.44670889 0.31269619 0.2334068
-0.45034355 0.27020615 0.25158009
-0.45403782 0.22701888 0.27005145
-0.45779324 0.18311727 0.28882831
-0.46161127 0.13848343 0.30791861
-0.4654935 0.09309876 0.3273299
-0.46944165 0.046944171 0.34707043
-0.47345731 -2.9802322e-08 0.3671487
-0.47754225 -0.047754213 0.38757348
-0.48169827 -0.096339703 0.40835372
-0.48592731 -0.14577819 0.42949885
-0.49023128 -0.19609246 0.45101851
-0.49461213 -0.24730609 0.47292286
-0.49907199 -0.29944319 0.49522227
-0.503613 -0.35252905 0.51792735
-0.50823742 -0.4065899 0.54104948
-0.51294756 -0.46165282 0.56460023
-0.51774585 -0.51774579 0.58859152
-0.52263474 -0.574898 0.61303574
-0.5276168 -0.63314009 0.63794637
-0.53269476 -0.69250327 0.66333622
-0.53787374 -0.75302315 0.68923098
-0.50979263 0.79301077 0.83204359
-0.37633345 0.54359269 0.09060359
-0.37919822 0.50559765 0.106519
-0.38210696 0.46701956 0.12267859
-0.38506064 0.42784512 0.13908806
-0.38806036 0.38806039 0.15575314
-0.39110717 0.34765086 0.17268002
-0.39420223 0.30660176 0.18987459
-0.39734665 0.26489776 0.2073437
-0.40054163 0.22252318 0.2250935
-0.40378842 0.17946148 0.24313121
-0.40708825 0.13569614 0.26146364
-0.41044247 0.091209471 0.2800982
-0.41385245 0.04598359 0.29904246
-0.41731954 1.4901161e-08 0.31830418
-0.42084521 -0.046760619 0.33789119
-0.424431 -0.094317958 0.35781217
-0.42807838 -0.14269288 0.37807536
-0.43178898 -0.19190627 0.39868993
-0.43556449 -0.24198034 0.41966498
-0.4394066 -0.29293773 0.44101012
-0.44331712 -0.34480217 0.46273518
-0.4472996 -0.39759964 0.48486012
-0.45135251 -0.45135248 0.50737631
-0.45547953 -0.50608844 0.53030419
-0.45968273 -0.56183439 0.55365521
-0.46396419 -0.61861902 0.57744122
-0.46832618 -0.67647129 0.6016745
-0.47277096 -0.73542148 0.62636775
-0.47730091 -0.79550147 0.65153408
-0.45621032 0.7983681 0.85117686
-0.328408 0.53366303 0.05241251
-0.33086196 0.49629295 0.0677495
-0.33335286 0.45836025 0.083317727
-0.33588156 0.41985202 0.099121869
-0.33844888 0.38075507 0.11516786
-0.34105578 0.34105569 0.13146091
-0.34370315 0.30074033 0.14800695
-0.34639192 0.25979397 0.16481179
-0.34912309 0.21820202 0.18188161
-0.35189769 0.17594883 0.1992228
-0.35471672 0.13301878 0.21684192
-0.3575826 0.089395665 0.23475343
-0.36049381 0.045061789 0.25294867
-0.36345288 -0 0.27144259
-0.36646086 -0.045807607 0.29024273
-0.36951908 -0.092379816 0.30935657
-0.37262881 -0.13973582 0.32879224
-0.37579128 -0.18789566 0.34855777
-0.37900788 -0.23688 0.36866155
-0.38228005 -0.28670999 0.38911238
-0.38560918 -0.33740804 0.4099198
-0.38899681 -0.38899684 0.43109244
-0.39244452 -0.44150004 0.4526405
-0.39595386 -0.49494228 0.47457394
-0.39952654 -0.54934895 0.49690318
-0.4031643 -0.60474652 0.51963907
-0.4068689 -0.6611619 0.54279274
-0.41064221 -0.7186237 0.56637597
-0.41448614 -0.7771616 0.59040082
-0.40189913 0.80379838 0.87057024
-0.28220209 0.52408957 0.015591502
-0.28427267 0.4873246 0.030381277
-0.28637385 0.45001611 0.045389876
-0.28850633 0.4121519 0.060621768
-0.29067081 0.37371957 0.076082334
-0.29286897 0.33470744 0.091783538
-0.29509968 0.29509974 0.10771708
-0.29736459 0.25488389 0.12389509
-0.29966456 0.21404612 0.14032348
-0.30200037 0.17257164 0.15700787
-0.30437291 0.13044555 0.17395443
-0.30678299 0.087652281 0.19116929
-0.30923152 0.044175938 0.20865893
-0.31171951 6.7055225e-08 0.22643019
-0.31424782 -0.04489246 0.24448961
-0.31681749 -0.090519279 0.26284438
-0.31942955 -0.13689838 0.28150189
-0.32208502 -0.18404859 0.30046952
-0.32478499 -0.23198928 0.31975514
-0.32753065 -0.28074056 0.33936697
-0.3303231 -0.33032307 0.35931301
-0.33316359 -0.38075837 0.37960231
-0.33605334 -0.43206865 0.40024334
-0.33899367 -0.48427674 0.42124569
-0.34198591 -0.53740644 0.44261897
-0.34503144 -0.59148246 0.46437258
-0.34813172 -0.64653021 0.48651728
-0.3512882 -0.70257622 0.5090636
-0.35450244 -0.75964808 0.53202248
-0.35777605 -0.81777394 0.5554055
-0.34684402 0.80930269 0.89022911
-0.23762546 0.51485521 -0.019925445
-0.23933804 0.47867608 -0.0056540519
-0.24107547 0.44197172 0.0088244677
-0.24283832 0.4047305 0.023514882
-0.24462712 0.36694062 0.038421735
-0.24644248 0.32859001 0.053549632
-0.24828498 0.28966582 0.068903834
-0.25015524 0.2501553 0.08448948
-0.25205392 0.21004495 0.10031147
-0.25398162 0.16932108 0.11637565
-0.25593904 0.12796955 0.13268743
-0.25792685 0.085975513 0.14925252
-0.25994575 0.043324322 0.16607699
-0.26199657 -2.2351742e-08 0.18316688
-0.26407996 -0.044013277 0.20052858
-0.26619679 -0.088732347 0.21816862
-0.2683478 -0.13417386 0.23609379
-0.27053386 -0.18035588 0.25431091
-0.2727558 -0.2272965 0.27282748
-0.27501461 -0.27501452 0.29165053
-0.27731109 -0.32352954 0.31078804
-0.27964628 -0.37286156 0.33024773
-0.28202111 -0.4230316 0.35003811
-0.28443769 -0.47406277 0.37017635
-0.28689495 -0.52597404 0.39065352
-0.28939503 -0.57879013 0.4114877
-0.29193911 -0.63253462 0.43268806
-0.29452831 -0.68723261 0.45426464
-0.29716378 -0.74290949 0.47622722
-0.29984689 -0.79959178 0.49858651
-0.30257893 -0.8573069 0.52135319
-0.29103106 0.81488699 0.91017294
-0.19459192 0.50593907 -0.054218397
-0.19596989 0.47032779 -0.040438801
-0.1973675 0.43420851 -0.026462644
-0.19878522 0.39757043 -0.01228568
-0.20022342 0.36040211 0.0020965338
-0.2016826 0.3226921 0.016688243
-0.20316319 0.28442842 0.031494275
-0.20466569 0.24559878 0.046519205
-0.20619057 0.20619059 0.061768107
-0.20773837 0.1661907 0.077245876
-0.20930955 0.12558581 0.092957832
-0.2109047 0.084361903 0.10890929
-0.21252435 0.042504899 0.12510565
-0.21416906 -7.4505806e-09 0.14155276
-0.21583942 -0.043167938 0.15825641
-0.21753605 -0.087014407 0.17522275
-0.21925956 -0.13155574 0.19245782
-0.22101137 -0.17680913 0.20997603
-0.22279063 -0.22279051 0.22776839
-0.22459875 -0.26951852 0.24584964
-0.22643647 -0.31701103 0.26422676
-0.22830449 -0.36528713 0.28290716
-0.2302036 -0.41436651 0.30189824
-0.23213457 -0.46426913 0.321208
-0.23409821 -0.51501608 0.3408443
-0.23609535 -0.56662893 0.36081591
-0.23812687 -0.6191299 0.38113099
-0.24019365 -0.67254221 0.40179881
-0.24229662 -0.72688985 0.42282856
-0.24443676 -0.78219742 0.44422966
-0.24661501 -0.83849084 0.4660123
-0.23444141 0.82054496 0.93038005
-0.15302351 0.49732637 -0.087343961
-0.15408854 0.46226561 -0.07403104
-0.1551685 0.42671341 -0.060531512
-0.15626369 0.39065933 -0.046841457
-0.15737449 0.3540926 -0.032956734
-0.15850116 0.31700236 -0.01887317
-0.15964408 0.27937716 -0.0045865923
-0.16080362 0.24120539 0.0099075511
-0.16198012 0.20247515 0.024613716
-0.16317396 0.16317394 0.039536811
-0.16438606 0.12328964 0.054688118
-0.16561577 0.082807958 0.070059478
-0.16686401 0.041716039 0.085662462
-0.16813122 -2.2351742e-08 0.10150246
-0.1694178 -0.042354424 0.11758494
-0.17072424 -0.085362092 0.13391541
-0.17205098 -0.12903824 0.15049957
-0.17339851 -0.17339857 0.16734371
-0.17476732 -0.21845911 0.18445368
-0.17615789 -0.26423678 0.20183599
-0.17757078 -0.31074885 0.21949705
-0.17900652 -0.35801303 0.23744372
-0.18046565 -0.40604764 0.25568303
-0.18194878 -0.45487195 0.27422211
-0.18345648 -0.50450546 0.29306841
-0.18498939 -0.55496812 0.31222957
-0.18654813 -0.60628146 0.33171389
-0.18813334 -0.65846664 0.35152906
-0.18974574 -0.7115466 0.37168419
-0.19138603 -0.765544 0.39218742
-0.1930549 -0.82048315 0.41304839
-0.19475314 -0.87638903 0.43427652
-0.17706046 0.82628191 0.95086956
-0.11284664 0.48900208 -0.11936052
-0.11361915 0.45447662 -0.10648525
-0.11440195 0.41947383 -0.093438506
-0.11519562 0.38398543 -0.080210552
-0.1160004 0.34800112 -0.066797838
-0.11681648 0.31151062 -0.053196475
-0.11764414 0.27450296 -0.039402232
-0.11848359 0.23696727 -0.025411069
-0.11933512 0.19889194 -0.011218995
-0.12019897 0.16026537 0.0031786934
-0.12107544 0.12107541 0.017786175
-0.12196476 0.081309907 0.032608397
-0.12286726 0.040955804 0.047649879
-0.12378321 2.7939677e-08 0.062915757
-0.12471291 -0.04157095 0.078410774
-0.12565669 -0.083771065 0.0941405
-0.12661487 -0.1266149 0.1101101
-0.12758777 -0.17011705 0.12632497
-0.12857573 -0.21429291 0.14279093
-0.12957911 -0.25915819 0.15951404
-0.13059828 -0.30472934 0.1765001
-0.13163359 -0.35102287 0.19375551
-0.13268547 -0.39805645 0.21128681
-0.13375428 -0.44584763 0.22910042
-0.13484047 -0.49441499 0.24720332
-0.13594443 -0.54377764 0.26560277
-0.13706662 -0.59395534 0.28430593
-0.1382075 -0.64496839 0.3033205
-0.13936752 -0.6968376 0.3226541
-0.14054769 -0.74958766 0.34232378
-0.1417475 -0.80323589 0.36232066
-0.14296797 -0.8578077 0.38266179
-0.11887143 0.83210003 0.97164798
-0.073992811 0.48095322 -0.15031751
-0.074490726 0.44694433 -0.13786967
-0.074995391 0.41247463 -0.12525302
-0.07550694 0.37753469 -0.11246425
-0.076025508 0.34211472 -0.099500038
-0.076551251 0.306205 -0.086356319
-0.077084318 0.26979509 -0.073029667
-0.077624865 0.23287454 -0.05951605
-0.078173049 0.19543262 -0.045811608
-0.078729019 0.15745805 -0.031912088
-0.07929296 0.11893932 -0.017813701
-0.079865038 0.079865061 -0.0035116933
-0.080445431 0.040222652 0.010998069
-0.081034325 6.3329935e-08 0.025720449
-0.081631899 -0.040815942 0.040659629
-0.082238354 -0.082238369 0.055821154
-0.082853891 -0.1242809 0.071209438
-0.083478704 -0.16695738 0.08682996
-0.084113017 -0.2102825 0.10268772
-0.084757037 -0.25427121 0.11878832
-0.085411005 -0.29893851 0.13513744
-0.086075142 -0.34430051 0.15174073
-0.086749978 -0.39037487 0.16861182
-0.087435186 -0.43717587 0.18574186
-0.088131301 -0.48472214 0.20314482
-0.088838585 -0.53303146 0.22082686
-0.08955732 -0.58212256 0.23879527
-0.090287775 -0.63201439 0.25705659
-0.091030248 -0.68272674 0.27561826
-0.091785029 -0.73428023 0.29448789
-0.092552431 -0.78669548 0.31367302
-0.093332775 -0.83999485 0.33318156
-0.094126388 -0.89420062 0.35302207
-0.059857171 0.83800036 0.99272072
-0.036397211 0.47316378 -0.18027715
-0.036638144 0.43965766 -0.16823052
-0.036882289 0.40570518 -0.15602326
-0.037129708 0.37129712 -0.14365235
-0.037380472 0.33642417 -0.1311143
-0.037634641 0.30107707 -0.11840564
-0.037892293 0.26524603 -0.10552304
-0.038153496 0.22892095 -0.09246292
-0.038418327 0.19209167 -0.079221413
-0.038686857 0.1547474 -0.06579487
-0.038959172 0.11687748 -0.052179161
-0.039235346 0.078470692 -0.038370546
-0.039515462 0.03951554 -0.02436481
-0.039799731 4.6566129e-10 -0.010151252
-0.040087994 -0.040087998 0.0042619687
-0.040380459 -0.080760896 0.01888526
-0.040677231 -0.12203173 0.033723757
-0.040978391 -0.16391361 0.048781805
-0.041284047 -0.20642026 0.064064659
-0.041594293 -0.24956572 0.079577029
-0.041909244 -0.29336467 0.095324323
-0.042228997 -0.33783197 0.11131199
-0.042553667 -0.38298303 0.12754557
-0.042883366 -0.42883363 0.14403054
-0.043218214 -0.47540036 0.16077298
-0.043558337 -0.52270007 0.17777899
-0.04390385 -0.57075006 0.19505474
-0.044254892 -0.61956847 0.21260683
-0.044611592 -0.6691739 0.23044205
-0.044974089 -0.71958536 0.24856661
-0.045342527 -0.77082294 0.26698849
-0.045717049 -0.82290691 0.28571475
-0.046097808 -0.87585831 0.30475262
0 0.52423 -0.12788786
0 0.46562257 -0.20928173
0 0.43260488 -0.19761734
0 0.39915437 -0.1857999
0 0.36526227 -0.17382649
0 0.33091992 -0.16169395
0 0.29611808 -0.14939928
0 0.26084867 -0.13693352
0 0.22509995 -0.12430426
0 0.18886362 -0.11150256
0 0.15212899 -0.098524898
0 0.11488621 -0.085367776
0 0.07712438 -0.072027177
0 0.038832776 -0.058499653
0 -1.3038516e-08 -0.04478056
0 -0.039385557 -0.03086653
0 -0.079335362 -0.016752988
0 -0.11986214 -0.0024357252
0 -0.16097817 0.012089856
0 -0.20269662 0.026828192
0 -0.24503061 0.041783974
0 -0.28799397 0.05696211
0 -0.33160084 0.072367653
0 -0.37586576 0.088005587
0 -0.42080379 0.10388125
0 -0.46643046 0.12000026
0 -0.51276147 0.13636823
0 -0.55981332 0.15299076
0 -0.60760331 0.16987401
0 -0.65614861 0.18702424
0 -0.70546728 0.20444743
0 -0.75557804 0.22215058
0 -0.806503 0.24014837
0 -0.85825634 0.25843191
0 -0.91086161 0.2770164
0.036153514 0.50614923 -0.19246195
0.035255324 0.45831922 -0.23737147
0.03548133 0.42577595 -0.22607122
0.035710249 0.39281276 -0.21462516
0.035942148 0.35942143 -0.20303045
0.036177073 0.32559365 -0.19128409
0.036415089 0.29132068 -0.17938322
0.03665626 0.25659379 -0.16732463
0.036900647 0.22140387 -0.15510541
0.037148315 0.18574165 -0.14272209
0.037399329 0.14959732 -0.1301714
0.037653755 0.11296128 -0.11744994
0.037911672 0.07582327 -0.10455422
0.038173143 0.038173154 -0.091480672
0.038438246 7.0780516e-08 -0.078225464
0.038707059 -0.038706977 -0.064784907
0.038979653 -0.077959277 -0.051154941
0.039256118 -0.11776835 -0.037331771
0.039536532 -0.15814617 -0.023311026
0.039820984 -0.19910499 -0.009088628
0.040109552 -0.24065736 0.0053399876
0.040402342 -0.28281638 0.019979194
0.04069943 -0.32559538 0.034833848
0.041000921 -0.36900839 0.04990837
0.041306913 -0.41306913 0.065207958
0.041617509 -0.45779261 0.080737576
0.041932948 -0.50319541 0.096509621
0.042253066 -0.54928982 0.11251551
0.042578105 -0.59609342 0.12876752
0.042908188 -0.64362276 0.14527155
0.043243427 -0.69189477 0.16203354
0.043583944 -0.74092704 0.17905948
0.043929867 -0.79073763 0.19635561
0.044281326 -0.84134519 0.21392852
0.044638455 -0.8927691 0.23178509
0.069896102 0.48927271 -0.25273505
0.069421574 0.45124018 -0.26459843
0.069859684 0.41915807 -0.25364554
0.070303366 0.38666847 -0.24255364
0.07075271 0.35376355 -0.23131999
0.071207836 0.32043526 -0.21994168
0.071668863 0.28667542 -0.20841613
0.072135895 0.25247568 -0.19674028
0.072609052 0.21782711 -0.18491133
0.07308846 0.18272114 -0.17292622
0.073574238 0.1471485 -0.16078173
0.07406652 0.11109972 -0.14847471
0.074565426 0.074565418 -0.13600194
0.075071104 0.037535511 -0.12335993
0.075583689 -2.6077032e-08 -0.11054538
0.076103322 -0.038051702 -0.097554579
0.076630153 -0.076630175 -0.084383979
0.077164322 -0.11574638 -0.071029685
0.077705994 -0.155412 -0.057487886
0.078255564 -0.19563894 -0.043748647
0.078812718 -0.23643818 -0.029819787
0.07937786 -0.27782261 -0.015691206
0.079951175 -0.31980473 -0.0013584644
0.080532819 -0.36239767 0.013182774
0.081122994 -0.40561494 0.027937278
0.081721887 -0.44947043 0.042909414
0.082329683 -0.49397799 0.058104441
0.082946591 -0.5391528 0.073527038
0.083572812 -0.58500963 0.089182556
0.084208563 -0.63156426 0.10507628
0.084854051 -0.67883235 0.12121361
0.085509524 -0.7268309 0.13760045
0.086175196 -0.77557659 0.1542421
0.086851314 -0.82508743 0.17114514
0.087538131 -0.87538135 0.18831548
0.088235885 -0.92647684 0.20575935
0.101919 0.475622 -0.30148774
0.10254844 0.44437659 -0.29099697
0.10318571 0.41274279 -0.28037596
0.10383095 0.38071352 -0.26962185
0.1044843 0.34828106 -0.25873259
0.10514593 0.31543782 -0.2477054
0.105816 0.28217596 -0.23653772
0.10649467 0.24848761 -0.22522676
0.10718208 0.21436417 -0.21376964
0.10787843 0.17979738 -0.2021638
0.10858421 0.14477903 -0.19040087
0.10929896 0.10929887 -0.17848843
0.11002319 0.07334882 -0.16641791
0.11075708 0.036919005 -0.15418661
0.11150081 3.7252903e-08 -0.14179085
0.11225461 -0.037418194 -0.12922756
0.11301867 -0.075345837 -0.1164932
0.1137932 -0.11379314 -0.10358426
0.11457843 -0.15277123 -0.090497449
0.11537456 -0.1922909 -0.077228472
0.11618183 -0.23236369 -0.063773878
0.11700048 -0.27300113 -0.050129771
0.11783075 -0.3142153 -0.036291823
0.11867289 -0.35601866 -0.022256285
0.11952716 -0.39842379 -0.0080185086
0.1203938 -0.44144392 0.0064256042
0.12127312 -0.4850924 0.021080732
0.12216536 -0.52938324 0.035951585
0.12307083 -0.57433051 0.051042795
0.12398983 -0.6199491 0.066359431
0.12492265 -0.66625416 0.081906468
0.12586962 -0.71326113 0.097689211
0.12683105 -0.76098633 0.1137132
0.12780729 -0.80944622 0.12998381
0.12879866 -0.85865772 0.14650673
0.12980555 -0.90863889 0.16328806
0.13386828 0.468539 -0.32678422
0.13468266 0.4377186 -0.31660461
0.135507 0.40652099 -0.30630028
0.13634185 0.37494016 -0.29586443
0.13718671 0.34296674 -0.28530401
0.13804208 0.31059468 -0.27461171
0.13890819 0.27781633 -0.26378536
0.13978523 0.24462423 -0.25282225
0.14067343 0.21101013 -0.24171992
0.14157298 0.17696622 -0.23047549
0.14248411 0.14248411 -0.21908629
0.14340705 0.10755534 -0.20754962
0.14434202 0.07217107 -0.19586256
0.14528926 0.036322385 -0.18402199
0.14624901 2.2351742e-08 -0.17202511
0.14722152 -0.036805395 -0.15986854
0.14820707 -0.074103549 -0.1475493
0.14920589 -0.11190442 -0.13506398
0.15021826 -0.15021829 -0.12240936
0.15124449 -0.18905559 -0.10958163
0.15228482 -0.22842722 -0.096577555
0.15333955 -0.26834416 -0.083393283
0.15440901 -0.30881804 -0.070025265
0.15549347 -0.34986031 -0.056469306
0.15659329 -0.39148316 -0.042721629
0.15770878 -0.43369907 -0.028778076
0.15884027 -0.47652078 -0.014634445
0.15998812 -0.51996124 -0.00028645992
0.16115317 -0.56403607 0.014276922
0.16233481 -0.60875553 0.02904731
0.16353391 -0.65413558 0.04403609
0.16475084 -0.70019108 0.059247881
0.16598603 -0.74693716 0.074687719
0.16723989 -0.79438937 0.09036085
0.16851282 -0.84256411 0.10627261
0.16980529 -0.8914777 0.12242842
0.17111772 -0.94114739 0.13883394
0.16488037 0.46166503 -0.35133404
0.1658686 0.43125832 -0.34145182
0.16686875 0.40048498 -0.33145028
0.16788103 0.36933818 -0.32132757
0.16890566 0.33781135 -0.31108114
0.16994287 0.30589721 -0.30070895
0.17099293 0.27358863 -0.29020858
0.172056 0.2408784 -0.27957767
0.1731324 0.20775893 -0.26881358
0.17422237 0.17422232 -0.25791413
0.17532612 0.14026089 -0.24687658
0.17644396 0.10586631 -0.23569816
0.17757614 0.071030445 -0.22437644
0.17872293 0.035744712 -0.2129084
0.17988464 5.2154064e-08 -0.20129123
0.18106155 -0.036212236 -0.18952207
0.18225397 -0.072901636 -0.17759803
0.18346219 -0.11007737 -0.16551574
0.18468656 -0.14774929 -0.1532722
0.18592736 -0.18592742 -0.14086427
0.18718494 -0.22462194 -0.12828839
0.18845966 -0.26384357 -0.1155411
0.18975241 -0.30360383 -0.1026134
0.19106248 -0.34391236 -0.089513063
0.19239074 -0.38478154 -0.076230362
0.1937376 -0.42622262 -0.062761828
0.19510345 -0.46824819 -0.04910332
0.19648869 -0.51087052 -0.035250902
0.19789374 -0.55410248 -0.021200269
0.19931903 -0.59795713 -0.006947279
0.20076501 -0.64244807 0.0075125396
0.20223212 -0.68758917 0.022183478
0.20372084 -0.73339498 0.037070602
0.20523162 -0.77988011 0.052178562
0.20676498 -0.82705998 0.067512155
0.20832144 -0.87494993 0.083076626
0.2099015 -0.92356658 0.098877341
0.19499515 0.45498866 -0.3751781
0.19614688 0.42498487 -0.36558044
0.19731228 0.39462459 -0.35586867
0.19849162 0.36390126 -0.3460409
0.19968514 0.33280858 -0.33609492
0.2008931 0.30133969 -0.32602841
0.20211577 0.26948765 -0.31583959
0.2033534 0.23724562 -0.3055259
0.20460631 0.20460629 -0.29508525
0.20587473 0.17156231 -0.28451496
0.20715898 0.13810596 -0.27381292
0.20845936 0.10422967 -0.26297653
0.20977615 0.069925405 -0.25200307
0.2111097 0.035184972 -0.24089028
0.21246031 3.7252903e-08 -0.22963516
0.21382891 -0.035638161 -0.21823002
0.21521464 -0.071738198 -0.2066824
0.21661846 -0.10830924 -0.19498375
0.21804072 -0.1453605 -0.18313183
0.21948177 -0.18290144 -0.17112301
0.22094199 -0.22094195 -0.15895444
0.22242177 -0.25949201 -0.14662302
0.22392151 -0.29856205 -0.13412508
0.22544162 -0.33816236 -0.12145758
0.22698249 -0.37830412 -0.10861686
0.22854458 -0.41899839 -0.095599532
0.23012832 -0.46025661 -0.082401708
0.23173416 -0.50209069 -0.069019675
0.23336257 -0.54451263 -0.05544959
0.23501404 -0.58753508 -0.04168734
0.23668905 -0.63117075 -0.027729064
0.23838808 -0.67543292 -0.013570398
0.24011171 -0.72033513 0.0007930994
0.24186043 -0.76589119 0.015365809
0.24363482 -0.81211591 0.030152261
0.2454354 -0.85902393 0.045157433
0.24726285 -0.90663034 0.060385913
0.24911769 -0.95495093 0.075842857
0.44171658 0.94653553 1.1549808
0.22425134 0.44850269 -0.39834237
0.22555688 0.41889131 -0.38901716
0.22687769 0.38893315 -0.37958276
0.22821407 0.35862207 -0.37003723
0.22956629 0.32795182 -0.36037853
0.23093463 0.29691592 -0.35060468
0.23231998 0.26550847 -0.34070927
0.23372145 0.23372138 -0.33069879
0.23513994 0.20154856 -0.32056683
0.23657572 0.16898271 -0.31031117
0.23802917 0.1360167 -0.29992935
0.23950057 0.10264299 -0.28941938
0.24099028 0.068854377 -0.27877861
0.24249864 0.034642637 -0.26800454
0.24402601 -0 -0.25709498
0.24557272 -0.035081863 -0.2460469
0.24713917 -0.070611171 -0.23485789
0.24872573 -0.10659666 -0.22352529
0.2503328 -0.1430473 -0.21204625
0.25196078 -0.17997196 -0.20041786
0.25361004 -0.21738008 -0.18863718
0.25528106 -0.25528112 -0.17670135
0.25697428 -0.29368481 -0.16460721
0.25869006 -0.33260146 -0.15235154
0.26042891 -0.37204134 -0.13993111
0.26219133 -0.4120149 -0.12734258
0.26397774 -0.45253327 -0.11458254
0.26578867 -0.49360752 -0.10164736
0.26762459 -0.53524923 -0.088533357
0.2694861 -0.57747006 -0.075237215
0.27137363 -0.62028259 -0.061754614
0.2732878 -0.66369903 -0.048081905
0.27522922 -0.7077322 -0.034214795
0.27719837 -0.75239545 -0.02014944
0.2791968 -0.79770505 -0.0058749914
0.28122333 -0.84367001 0.0086004138
0.28327954 -0.89030707 0.023287445
0.28536603 -0.93763131 0.038190961
0.46979827 0.88087159 0.93610138
0.25268579 0.44220012 -0.42085156
0.25413606 0.41297111 -0.41178742
0.25560308 0.38340455 -0.40261847
0.25708714 0.35349479 -0.39334312
0.25858852 0.3232356 -0.38395947
0.26010755 0.29262099 -0.37446553
0.26164454 0.26164457 -0.36485931
0.26319978 0.23029989 -0.35513896
0.26477364 0.19858021 -0.3453024
0.26636645 0.16647904 -0.33534753
0.26797849 0.13398919 -0.32527202
0.2696102 0.10110392 -0.31507391
0.2712619 0.06781549 -0.30475086
0.27293396 0.034116715 -0.2943005
0.27462676 -1.4901161e-08 -0.28372049
0.27634066 -0.034542568 -0.27300847
0.27807611 -0.069518991 -0.26216188
0.2798335 -0.10493758 -0.25117829
0.28161326 -0.14080675 -0.24005488
0.28341576 -0.17713486 -0.22878911
0.28524151 -0.21393117 -0.2173782
0.28709096 -0.25120464 -0.20581919
0.28896451 -0.28896451 -0.19410954
0.29086268 -0.32722041 -0.18224591
0.29278597 -0.36598247 -0.17022532
0.29473487 -0.40526038 -0.15804495
0.29670987 -0.44506472 -0.14570116
0.29871237 -0.48540765 -0.13318521
0.30074126 -0.52629721 -0.12050495
0.30279782 -0.56774604 -0.10765122
0.30488276 -0.60976553 -0.094620436
0.30699658 -0.65236771 -0.081409067
0.30913994 -0.69556487 -0.068013102
0.31131342 -0.73936939 -0.054428846
0.31351772 -0.78379428 -0.040652066
0.3157534 -0.82885271 -0.02667883
0.31802124 -0.87455833 -0.012505054
0.32032186 -0.92092532 0.0018738508
0.32265601 -0.96796799 0.016462296
0.50091326 0.83485544 0.78271383
0.28033143 0.4360711 -0.4427408
0.28191799 0.40721479 -0.43392679
0.28352258 0.37803009 -0.42501235
0.28514549 0.34851113 -0.41599599
0.28678715 0.31865242 -0.40687582
0.2884478 0.28844777 -0.39764994
0.29012781 0.25789142 -0.3883166
0.29182747 0.2269769 -0.378874
0.29354718 0.19569808 -0.36932006
0.29528728 0.16404846 -0.35965276
0.29704815 0.1320214 -0.34987032
0.29883012 0.099610031 -0.33997038
0.30063361 0.066807479 -0.32995099
0.302459 0.033606574 -0.31980994
0.30430669 -2.9802322e-08 -0.30954492
0.30617711 -0.034019679 -0.29915383
0.30807063 -0.068460241 -0.28863418
0.30998775 -0.10332927 -0.27798355
0.3119297 -0.13863546 -0.26719487
0.31389531 -0.17438635 -0.25627491
0.31588581 -0.2105906 -0.24521631
0.31790176 -0.24725682 -0.23401685
0.31994358 -0.2843942 -0.22267334
0.32201183 -0.32201183 -0.21118328
0.32410693 -0.36011887 -0.19954365
0.32622951 -0.39872503 -0.18775156
0.32838005 -0.43784001 -0.17580402
0.33055916 -0.47747433 -0.16369782
0.3327674 -0.51763821 -0.15143003
0.33500531 -0.55834216 -0.13899712
0.33727354 -0.59959745 -0.12639587
0.33957267 -0.64141512 -0.11362287
0.34190339 -0.68380678 -0.10067442
0.34426633 -0.72678435 -0.087547123
0.3466621 -0.77036023 -0.074237019
0.3490915 -0.81454682 -0.060740411
0.3515552 -0.85935724 -0.047053307
0.35405388 -0.90480435 -0.033171684
0.35658836 -0.95090228 -0.019091219
0.30722126 0.43010977 -0.46403143
0.30893606 0.4016169 -0.45545745
0.31067011 0.37280416 -0.44678718
0.31242374 0.34366605 -0.43801907
0.31419727 0.3141973 -0.4291513
0.31599107 0.28439194 -0.42018241
0.31780544 0.25424433 -0.41111043
0.31964079 0.22374859 -0.40193376
0.32149747 0.19289844 -0.39265049
0.32337582 0.16168788 -0.38325858
0.32527626 0.13011053 -0.37375644
0.32720003 0.098160014 -0.36413765
0.32914582 0.065829054 -0.35440865
0.33111489 0.033111498 -0.34456325
0.33310765 -2.9802322e-08 -0.33459938
0.33512455 -0.033512533 -0.32451493
0.33716604 -0.067433208 -0.31430748
0.33923253 -0.10176972 -0.30397511
0.34132454 -0.13652977 -0.29351515
0.34344247 -0.17172116 -0.28292537
0.34558687 -0.20735207 -0.27220336
0.34775823 -0.24343073 -0.26134664
0.34995702 -0.27996561 -0.25035262
0.35218379 -0.31696546 -0.23921865
0.35443911 -0.35443908 -0.22794223
0.35672346 -0.39239579 -0.21652035
