# .PCD v0.7 - Point Cloud Data file format
VERSION 0.7
FIELDS x y z
SIZE 4 4 4
TYPE F F F
COUNT 1 1 1
WIDTH 1012
HEIGHT 1
VIEWPOINT 0 0 0 1 0 0 0
POINTS 1012
DATA ascii
-1.0453606 0.73790163 1.0744523
-1.0453606 0.67640972 1.0744524
-1.0453606 0.61491799 1.0744523
-1.0453606 0.55342609 1.0744523
-1.0453606 0.49193448 1.0744525
-1.0453606 0.43044263 1.0744525
-1.0453606 0.36895081 1.0744525
-1.0453606 0.30745912 1.0744524
-1.0453606 0.24596718 1.0744524
-1.0453606 0.18447548 1.0744524
-1.0453606 0.12298357 1.0744525
-1.0453606 0.061491817 1.0744524
-1.0453606 5.9604645e-08 1.0744524
-1.0453606 -0.061491728 1.0744526
-1.0453606 -0.1229836 1.0744524
-1.0453606 -0.1844753 1.0744523
-1.0453606 -0.24596742 1.0744525
-1.0453606 -0.30745912 1.0744524
-1.0453606 -0.36895087 1.0744523
-1.0453606 -0.43044257 1.0744523
-1.0453606 -0.49193448 1.0744523
-1.0453606 -0.55342638 1.0744524
-1.0453606 -0.61491799 1.0744524
-1.0453606 -0.67640966 1.0744524
-1.0453606 -0.73790157 1.0744525
-0.94499952 0.70874965 0.9529857
-0.94499952 0.64968717 0.95298558
-0.94499952 0.59062475 0.9529857
-0.94499952 0.53156221 0.95298564
-0.94499952 0.47249964 0.95298558
-0.94499952 0.41343734 0.95298564
-0.94499952 0.35437477 0.95298558
-0.94499952 0.29531229 0.95298547
-0.94499952 0.23624983 0.95298558
-0.94499952 0.17718744 0.95298576
-0.94499952 0.11812487 0.95298564
-0.94499952 0.059062451 0.95298576
-0.94499952 -0 0.95298564
-0.94499952 -0.059062511 0.95298553
-0.94499952 -0.11812487 0.95298564
-0.94499952 -0.17718747 0.95298558
-0.94499952 -0.23624986 0.95298576
-0.94499952 -0.29531223 0.95298553
-0.94499952 -0.35437483 0.95298541
-0.94499952 -0.41343731 0.95298582
-0.94499952 -0.47249964 0.95298564
-0.94499952 -0.53156209 0.95298576
-0.94499952 -0.59062451 0.95298553
-0.94499952 -0.64968717 0.9529857
-0.94499952 -0.70874965 0.95298576
-0.85226679 0.73863119 0.84075165
-0.85226679 0.68181354 0.84075159
-0.85226679 0.62499571 0.84075165
-0.85226679 0.56817794 0.84075165
-0.85226679 0.51135999 0.84075153
-0.85226679 0.45454225 0.84075153
-0.85226679 0.39772457 0.84075177
-0.85226679 0.34090674 0.84075147
-0.85226679 0.28408894 0.84075159
-0.85226679 0.2272712 0.84075159
-0.85226679 0.1704534 0.84075159
-0.85226679 0.11363566 0.84075165
-0.85226679 0.0568178 0.84075171
-0.85226679 -8.9406967e-08 0.84075153
-0.85226679 -0.056817681 0.84075171
-0.85226679 -0.11363569 0.84075159
-0.85226679 -0.17045334 0.84075153
-0.85226679 -0.22727117 0.84075165
-0.85226679 -0.28408879 0.84075165
-0.85226679 -0.34090671 0.84075165
-0.85226679 -0.39772445 0.84075153
-0.85226679 -0.45454219 0.84075165
-0.85226679 -0.51136017 0.84075165
-0.85226679 -0.56817794 0.84075171
-0.85226679 -0.62499571 0.84075153
-0.85226679 -0.68181324 0.84075159
-0.85226679 -0.73863125 0.84075153
-0.7663247 0.71158725 0.73673618
-0.7663247 0.65684968 0.73673624
-0.7663247 0.60211223 0.73673624
-0.7663247 0.54737484 0.73673618
-0.7663247 0.49263713 0.73673612
-0.7663247 0.43789986 0.73673624
-0.7663247 0.38316247 0.73673618
-0.7663247 0.32842493 0.73673624
-0.7663247 0.27368727 0.73673612
-0.7663247 0.21894987 0.73673606
-0.7663247 0.16421252 0.7367363
-0.7663247 0.10947505 0.7367363
-0.7663247 0.054737389 0.73673618
-0.7663247 -2.9802322e-08 0.73673618
-0.7663247 -0.054737449 0.73673606
-0.7663247 -0.10947505 0.73673618
-0.7663247 -0.16421244 0.736736
-0.7663247 -0.21894997 0.73673618
-0.7663247 -0.27368742 0.73673624
-0.7663247 -0.32842505 0.73673618
-0.7663247 -0.38316238 0.73673618
-0.7663247 -0.4378998 0.73673618
-0.7663247 -0.49263722 0.73673612
-0.7663247 -0.54737461 0.73673612
-0.7663247 -0.60211229 0.73673612
-0.7663247 -0.6568498 0.7367363
-0.7663247 -0.71158725 0.73673618
-0.68645358 0.73925781 0.64006853
-0.68645358 0.6864537 0.64006841
-0.68645358 0.63364959 0.64006859
-0.68645358 0.5808453 0.64006835
-0.68645358 0.52804112 0.64006853
-0.68645358 0.47523698 0.64006841
-0.68645358 0.42243302 0.64006853
-0.68645358 0.36962879 0.64006853
-0.68645358 0.31682467 0.64006841
-0.68645358 0.26402062 0.64006853
-0.68645358 0.21121646 0.64006847
-0.68645358 0.15841249 0.64006853
-0.68645358 0.10560825 0.64006853
-0.68645358 0.052804261 0.64006859
-0.68645358 5.9604645e-08 0.64006841
-0.68645358 -0.052804023 0.64006853
-0.68645358 -0.10560825 0.64006853
-0.68645358 -0.15841246 0.64006853
-0.68645358 -0.21121643 0.64006841
-0.68645358 -0.26402056 0.64006853
-0.68645358 -0.31682473 0.64006841
-0.68645358 -0.36962894 0.64006853
-0.68645358 -0.42243308 0.64006859
-0.68645358 -0.47523707 0.64006853
-0.68645358 -0.5280413 0.64006847
-0.68645358 -0.58084524 0.64006841
-0.68645358 -0.63364941 0.64006853
-0.68645358 -0.68645358 0.64006853
-0.68645358 -0.73925781 0.64006853
-0.61203468 0.71404052 0.55000687
-0.61203468 0.66303748 0.55000681
-0.61203468 0.6120348 0.55000699
-0.61203468 0.56103176 0.55000687
-0.61203468 0.5100289 0.55000693
-0.61203468 0.4590261 0.55000693
-0.61203468 0.40802312 0.55000675
-0.61203468 0.35702023 0.55000687
-0.61203468 0.3060174 0.55000687
-0.61203468 0.25501448 0.55000693
-0.61203468 0.20401156 0.55000681
-0.61203468 0.15300864 0.55000687
-0.61203468 0.10200572 0.55000699
-0.61203468 0.051002935 0.55000687
-0.61203468 2.9802322e-08 0.55000687
-0.61203468 -0.05100286 0.55000687
-0.61203468 -0.10200578 0.55000693
-0.61203468 -0.15300867 0.55000687
-0.61203468 -0.20401156 0.55000699
-0.61203468 -0.25501445 0.55000687
-0.61203468 -0.30601734 0.55000681
-0.61203468 -0.35702026 0.55000687
-0.61203468 -0.40802318 0.55000699
-0.61203468 -0.45902598 0.55000681
-0.61203468 -0.5100289 0.55000693
-0.61203468 -0.56103182 0.55000687
-0.61203468 -0.6120348 0.55000693
-0.61203468 -0.66303754 0.55000687
-0.61203468 -0.71404052 0.55000687
-0.54252332 0.73980433 0.46587706
-0.54252332 0.69048423 0.46587723
-0.54252332 0.64116371 0.46587709
-0.54252332 0.59184361 0.46587721
-0.54252332 0.54252338 0.46587715
-0.54252332 0.49320292 0.46587723
-0.54252332 0.44388288 0.46587732
-0.54252332 0.39456239 0.46587718
-0.54252332 0.3452422 0.46587732
-0.54252332 0.29592174 0.46587715
-0.54252332 0.24660158 0.46587735
-0.54252332 0.19728118 0.46587726
-0.54252332 0.14796105 0.46587723
-0.54252332 0.098640561 0.46587723
-0.54252332 0.049320385 0.46587726
-0.54252332 -0 0.46587718
-0.54252332 -0.049320325 0.46587718
-0.54252332 -0.098640636 0.46587718
-0.54252332 -0.14796095 0.46587718
-0.54252332 -0.19728127 0.46587718
-0.54252332 -0.24660149 0.46587709
-0.54252332 -0.29592189 0.46587718
-0.54252332 -0.34524205 0.46587718
-0.54252332 -0.39456239 0.46587718
-0.54252332 -0.4438827 0.46587735
-0.54252332 -0.49320292 0.46587726
-0.54252332 -0.54252326 0.46587726
-0.54252332 -0.59184349 0.46587721
-0.54252332 -0.64116389 0.46587723
-0.54252332 -0.69048417 0.46587718
-0.54252332 -0.73980451 0.46587729
-0.4774518 0.71617764 0.38712117
-0.4774518 0.66843235 0.38712096
-0.4774518 0.62068719 0.38712096
-0.4774518 0.57294208 0.38712126
-0.4774518 0.52519703 0.38712123
-0.4774518 0.47745186 0.38712126
-0.4774518 0.42970669 0.38712126
-0.4774518 0.38196152 0.38712129
-0.4774518 0.33421621 0.38712114
-0.4774518 0.28647104 0.38712114
-0.4774518 0.23872593 0.38712111
-0.4774518 0.19098067 0.38712123
-0.4774518 0.14323559 0.38712117
-0.4774518 0.095490351 0.38712108
-0.4774518 0.047745183 0.38712114
-0.4774518 1.4901161e-08 0.38712114
-0.4774518 -0.047745153 0.38712117
-0.4774518 -0.095490336 0.3871212
-0.4774518 -0.14323558 0.38712114
-0.4774518 -0.19098075 0.38712117
-0.4774518 -0.23872593 0.3871212
-0.4774518 -0.28647101 0.38712114
-0.4774518 -0.33421636 0.38712114
-0.4774518 -0.38196144 0.38712111
-0.4774518 -0.4297066 0.38712132
-0.4774518 -0.47745177 0.38712114
-0.4774518 -0.52519691 0.38712117
-0.4774518 -0.57294196 0.38712114
-0.4774518 -0.62068713 0.38712099
-0.4774518 -0.66843259 0.38712126
-0.4774518 -0.71617764 0.38712117
-0.41640794 0.74028081 0.31323984
-0.41640794 0.6940133 0.31323993
-0.41640794 0.64774573 0.31323975
-0.41640794 0.60147816 0.31323993
-0.41640794 0.55521071 0.31323996
-0.41640794 0.50894314 0.31323978
-0.41640794 0.46267557 0.31323993
-0.41640794 0.41640809 0.31323996
-0.41640794 0.37014031 0.31323984
-0.41640794 0.32387289 0.31323981
-0.41640794 0.27760535 0.31323996
-0.41640794 0.2313377 0.31323984
-0.41640794 0.18507025 0.3132399
-0.41640794 0.13880262 0.31323978
-0.41640794 0.092535064 0.31323975
-0.41640794 0.046267584 0.31323981
-0.41640794 2.9802322e-08 0.31323978
-0.41640794 -0.046267614 0.31323984
-0.41640794 -0.092535093 0.31323987
-0.41640794 -0.13880265 0.31323987
-0.41640794 -0.18507022 0.31323981
-0.41640794 -0.23133774 0.31323981
-0.41640794 -0.27760532 0.31323978
-0.41640794 -0.32387277 0.31323981
-0.41640794 -0.37014043 0.31323987
-0.41640794 -0.41640788 0.31323975
-0.41640794 -0.46267548 0.3132399
-0.41640794 -0.50894302 0.31323987
-0.41640794 -0.55521065 0.31323993
-0.41640794 -0.60147822 0.31323987
-0.41640794 -0.64774573 0.31323987
-0.41640794 -0.69401312 0.31323969
-0.41640794 -0.74028081 0.31323987
-0.35902911 0.71805835 0.24379435
-0.35902911 0.67317951 0.24379417
-0.35902911 0.62830102 0.24379426
-0.35902911 0.58342224 0.24379404
-0.35902911 0.5385437 0.24379417
-0.35902911 0.49366507 0.24379441
-0.35902911 0.44878632 0.24379411
-0.35902911 0.40390778 0.24379426
-0.35902911 0.35902917 0.24379432
-0.35902911 0.31415039 0.2437942
-0.35902911 0.26927188 0.24379417
-0.35902911 0.22439328 0.24379425
-0.35902911 0.17951459 0.24379422
-0.35902911 0.1346359 0.24379419
-0.35902911 0.089757293 0.24379408
-0.35902911 0.044878602 0.24379423
-0.35902911 -1.4901161e-08 0.24379429
-0.35902911 -0.044878706 0.24379425
-0.35902911 -0.089757308 0.24379414
-0.35902911 -0.13463593 0.2437942
-0.35902911 -0.17951453 0.24379426
-0.35902911 -0.22439322 0.24379423
-0.35902911 -0.26927182 0.24379413
-0.35902911 -0.31415042 0.24379417
-0.35902911 -0.35902911 0.24379417
-0.35902911 -0.40390772 0.2437942
-0.35902911 -0.44878641 0.2437942
-0.35902911 -0.49366504 0.24379423
-0.35902911 -0.5385437 0.24379423
-0.35902911 -0.58342224 0.24379422
-0.35902911 -0.62830102 0.24379426
-0.35902911 -0.67317951 0.24379425
-0.35902911 -0.71805823 0.2437942
-0.30499479 0.74070162 0.17839646
-0.30499479 0.69713098 0.17839646
-0.30499479 0.65356022 0.17839648
-0.30499479 0.60998952 0.17839649
-0.30499479 0.56641889 0.17839648
-0.30499479 0.52284825 0.17839642
-0.30499479 0.47927758 0.17839651
-0.30499479 0.43570679 0.17839643
-0.30499479 0.39213616 0.17839637
-0.30499479 0.34856546 0.1783964
-0.30499479 0.30499473 0.17839658
-0.30499479 0.26142412 0.17839652
-0.30499479 0.21785332 0.17839645
-0.30499479 0.17428276 0.17839648
-0.30499479 0.13071205 0.17839648
-0.30499479 0.087141335 0.17839651
-0.30499479 0.043570705 0.17839643
-0.30499479 -7.4505806e-09 0.17839646
-0.30499479 -0.043570638 0.1783964
-0.30499479 -0.08714135 0.1783964
-0.30499479 -0.13071208 0.17839658
-0.30499479 -0.17428277 0.17839645
-0.30499479 -0.2178535 0.17839646
-0.30499479 -0.26142403 0.17839648
-0.30499479 -0.30499485 0.17839642
-0.30499479 -0.34856549 0.17839652
-0.30499479 -0.3921361 0.17839646
-0.30499479 -0.43570679 0.17839646
-0.30499479 -0.47927755 0.17839649
-0.30499479 -0.52284819 0.17839642
-0.30499479 -0.56641889 0.17839645
-0.30499479 -0.60998958 0.17839645
-0.30499479 -0.65356022 0.17839657
-0.30499479 -0.69713098 0.17839658
-0.30499479 -0.74070162 0.17839643
-0.25402084 0.71972573 0.11670268
-0.25402084 0.67738897 0.11670271
-0.25402084 0.63505214 0.1167028
-0.25402084 0.59271538 0.11670278
-0.25402084 0.55037856 0.11670285
-0.25402084 0.5080418 0.11670281
-0.25402084 0.46570483 0.11670271
-0.25402084 0.42336804 0.11670271
-0.25402084 0.38103133 0.11670266
-0.25402084 0.33869448 0.11670275
-0.25402084 0.29635769 0.11670277
-0.25402084 0.25402093 0.1167028
-0.25402084 0.21168406 0.11670272
-0.25402084 0.16934729 0.11670274
-0.25402084 0.12701042 0.11670267
-0.25402084 0.084673546 0.11670277
-0.25402084 0.042336687 0.1167027
-0.25402084 -9.3132257e-08 0.11670271
-0.25402084 -0.042336874 0.11670274
-0.25402084 -0.084673569 0.11670268
-0.25402084 -0.12701042 0.1167026
-0.25402084 -0.1693473 0.1167027
-0.25402084 -0.21168406 0.11670271
-0.25402084 -0.25402087 0.11670274
-0.25402084 -0.29635763 0.11670275
-0.25402084 -0.33869451 0.11670268
-0.25402084 -0.38103127 0.11670269
-0.25402084 -0.42336813 0.1167028
-0.25402084 -0.46570492 0.11670282
-0.25402084 -0.50804168 0.11670266
-0.25402084 -0.5503785 0.11670268
-0.25402084 -0.59271526 0.11670269
-0.25402084 -0.63505203 0.11670271
-0.25402084 -0.67738891 0.11670265
-0.25402084 -0.71972567 0.11670268
-0.20585446 0.74107611 0.058406919
-0.20585446 0.69990528 0.058407009
-0.20585446 0.65873426 0.058406979
-0.20585446 0.61756337 0.058406979
-0.20585446 0.57639241 0.05840686
-0.20585446 0.53522158 0.058406875
-0.20585446 0.49405062 0.058406919
-0.20585446 0.45287976 0.058407024
-0.20585446 0.41170889 0.058406875
-0.20585446 0.37053809 0.058406964
-0.20585446 0.32936719 0.058406964
-0.20585446 0.28819633 0.058406964
-0.20585446 0.24702534 0.058406867
-0.20585446 0.20585448 0.05840686
-0.20585446 0.16468358 0.058407031
-0.20585446 0.12351269 0.058407024
-0.20585446 0.082341731 0.058406934
-0.20585446 0.041170843 0.058406934
-0.20585446 3.7252903e-08 0.05840702
-0.20585446 -0.041170925 0.058406927
-0.20585446 -0.082341805 0.058406923
-0.20585446 -0.12351269 0.058406923
-0.20585446 -0.16468358 0.058406923
-0.20585446 -0.20585446 0.058406927
-0.20585446 -0.24702534 0.058406919
-0.20585446 -0.28819624 0.058406912
-0.20585446 -0.3293671 0.058406919
-0.20585446 -0.37053809 0.058406994
-0.20585446 -0.41170895 0.058406994
-0.20585446 -0.45287985 0.058406979
-0.20585446 -0.49405074 0.058406979
-0.20585446 -0.53522152 0.058406904
-0.20585446 -0.57639241 0.058406889
-0.20585446 -0.61756337 0.058406979
-0.20585446 -0.65873432 0.058406979
-0.20585446 -0.69990522 0.058406889
-0.20585446 -0.74107611 0.058407038
-0.1602699 0.72121459 0.003235966
-0.1602699 0.68114704 0.0032359362
-0.1602699 0.64107955 0.0032359958
-0.1602699 0.60101211 0.0032360256
-0.1602699 0.56094468 0.0032359958
-0.1602699 0.52087712 0.0032358468
-0.1602699 0.48080963 0.0032358766
-0.1602699 0.44074214 0.0032359362
-0.1602699 0.40067476 0.0032359213
-0.1602699 0.36060721 0.0032360256
-0.1602699 0.32053977 0.0032358766
-0.1602699 0.28047231 0.0032359213
-0.1602699 0.24040484 0.0032359436
-0.1602699 0.20033741 0.0032359734
-0.1602699 0.16026987 0.0032359064
-0.1602699 0.12020242 0.0032359324
-0.1602699 0.080134965 0.0032359585
-0.1602699 0.040067513 0.0032359846
-0.1602699 -1.7578714e-08 0.0032359206
-0.1602699 -0.040067468 0.0032359473
-0.1602699 -0.080134928 0.0032359734
-0.1602699 -0.12020238 0.0032359995
-0.1602699 -0.16026981 0.0032358617
-0.1602699 -0.20033735 0.003235966
-0.1602699 -0.24040481 0.0032359883
-0.1602699 -0.28047228 0.0032360107
-0.1602699 -0.3205398 0.0032359511
-0.1602699 -0.36060727 0.0032359809
-0.1602699 -0.4006747 0.0032359958
-0.1602699 -0.44074222 0.0032359362
-0.1602699 -0.48080975 0.0032358915
-0.1602699 -0.52087718 0.0032359064
-0.1602699 -0.56094468 0.0032359362
-0.1602699 -0.60101211 0.003235966
-0.1602699 -0.64107955 0.003235966
-0.1602699 -0.68114698 0.0032358468
-0.1602699 -0.72121453 0.0032359362
-0.11706497 0.74141145 -0.049055099
-0.11706497 0.70238984 -0.04905495
-0.11706497 0.66336817 -0.049054921
-0.11706497 0.62434638 -0.049055099
-0.11706497 0.58532476 -0.04905498
-0.11706497 0.54630315 -0.049054965
-0.11706497 0.50728142 -0.04905504
-0.11706497 0.46825993 -0.049054936
-0.11706497 0.42923817 -0.049054995
-0.11706497 0.39021653 -0.049054995
-0.11706497 0.35119474 -0.04905501
-0.11706497 0.31217328 -0.04905495
-0.11706497 0.27315152 -0.049055018
-0.11706497 0.23412995 -0.049055047
-0.11706497 0.19510828 -0.049054846
-0.11706497 0.15608662 -0.049054984
-0.11706497 0.11706497 -0.04905495
-0.11706497 0.078043297 -0.049054909
-0.11706497 0.039021727 -0.04905495
-0.11706497 -1.1175871e-08 -0.049055006
-0.11706497 -0.039021585 -0.049055047
-0.11706497 -0.078043342 -0.049054936
-0.11706497 -0.11706491 -0.049054973
-0.11706497 -0.15608665 -0.049055025
-0.11706497 -0.19510823 -0.049054898
-0.11706497 -0.23412998 -0.049054958
-0.11706497 -0.27315155 -0.049054995
-0.11706497 -0.31217322 -0.049054965
-0.11706497 -0.35119486 -0.049054921
-0.11706497 -0.39021662 -0.04905498
-0.11706497 -0.4292382 -0.04905501
-0.11706497 -0.46825987 -0.049054995
-0.11706497 -0.50728148 -0.049054936
-0.11706497 -0.54630315 -0.049055085
-0.11706497 -0.58532476 -0.04905495
-0.11706497 -0.62434649 -0.04905501
-0.11706497 -0.66336817 -0.04905498
-0.11706497 -0.70238972 -0.04905501
-0.11706497 -0.74141139 -0.04905498
-0.076058082 0.7225517 -0.098685682
-0.076058082 0.68452281 -0.098685503
-0.076058082 0.64649367 -0.098685622
-0.076058082 0.60846472 -0.098685607
-0.076058082 0.57043564 -0.098685622
-0.076058082 0.53240663 -0.098685578
-0.076058082 0.49437755 -0.098685592
-0.076058082 0.45634854 -0.098685667
-0.076058082 0.41831943 -0.098685682
-0.076058082 0.38029039 -0.098685578
-0.076058082 0.34226143 -0.098685563
-0.076058082 0.30423236 -0.098685578
-0.076058082 0.26620325 -0.098685578
-0.076058082 0.22817422 -0.098685637
-0.076058082 0.19014519 -0.098685533
-0.076058082 0.15211615 -0.0986856
-0.076058082 0.11408704 -0.098685585
-0.076058082 0.076058 -0.098685652
-0.076058082 0.038029049 -0.098685622
-0.076058082 7.4505806e-09 -0.098685518
-0.076058082 -0.038029023 -0.098685585
-0.076058082 -0.076058142 -0.09868557
-0.076058082 -0.11408717 -0.098685637
-0.076058082 -0.15211621 -0.098685533
-0.076058082 -0.19014524 -0.0986856
-0.076058082 -0.22817419 -0.09868557
-0.076058082 -0.26620331 -0.098685563
-0.076058082 -0.30423236 -0.098685622
-0.076058082 -0.3422614 -0.098685518
-0.076058082 -0.38029042 -0.098685592
-0.076058082 -0.41831952 -0.098685578
-0.076058082 -0.45634857 -0.098685622
-0.076058082 -0.49437755 -0.098685607
-0.076058082 -0.53240663 -0.098685578
-0.076058082 -0.57043558 -0.098685578
-0.076058082 -0.60846472 -0.098685533
-0.076058082 -0.64649373 -0.098685622
-0.076058082 -0.68452275 -0.098685503
-0.076058082 -0.72255182 -0.098685592
-0.037085786 0.74171561 -0.14584851
-0.037085786 0.7046299 -0.14584848
-0.037085786 0.66754413 -0.14584839
-0.037085786 0.63045835 -0.14584847
-0.037085786 0.59337258 -0.14584853
-0.037085786 0.55628675 -0.14584844
-0.037085786 0.51920098 -0.14584851
-0.037085786 0.48211521 -0.14584842
-0.037085786 0.44502941 -0.14584845
-0.037085786 0.4079437 -0.14584842
-0.037085786 0.37085786 -0.14584847
-0.037085786 0.33377203 -0.14584847
-0.037085786 0.29668632 -0.14584845
-0.037085786 0.25960052 -0.14584851
-0.037085786 0.22251475 -0.14584842
-0.037085786 0.18542889 -0.14584842
-0.037085786 0.14834321 -0.14584842
-0.037085786 0.11125737 -0.14584859
-0.037085786 0.074171498 -0.14584842
-0.037085786 0.037085809 -0.14584842
-0.037085786 5.2154064e-08 -0.1458485
-0.037085786 -0.037085727 -0.14584842
-0.037085786 -0.074171588 -0.14584841
-0.037085786 -0.11125734 -0.1458485
-0.037085786 -0.14834319 -0.1458485
-0.037085786 -0.18542889 -0.1458485
-0.037085786 -0.22251473 -0.1458485
-0.037085786 -0.25960052 -0.14584841
-0.037085786 -0.2966862 -0.14584839
-0.037085786 -0.33377197 -0.14584848
-0.037085786 -0.37085789 -0.14584842
-0.037085786 -0.40794367 -0.1458485
-0.037085786 -0.44502938 -0.1458485
-0.037085786 -0.48211521 -0.1458485
-0.037085786 -0.51920092 -0.14584848
-0.037085786 -0.55628675 -0.14584848
-0.037085786 -0.59337258 -0.14584839
-0.037085786 -0.63045824 -0.14584844
-0.037085786 -0.66754413 -0.14584842
-0.037085786 -0.7046299 -0.14584839
-0.037085786 -0.74171567 -0.14584848
0 0.72376168 -0.19073351
0 0.68757355 -0.19073345
0 0.65138543 -0.19073357
0 0.61519742 -0.19073357
0 0.57900941 -0.19073342
0 0.54282123 -0.19073351
0 0.50663322 -0.19073352
0 0.4704451 -0.19073346
0 0.43425697 -0.19073355
0 0.39806885 -0.19073352
0 0.36188084 -0.19073355
0 0.32569277 -0.19073354
0 0.28950474 -0.19073352
0 0.25331655 -0.19073342
0 0.21712849 -0.19073342
0 0.18094034 -0.19073349
0 0.14475238 -0.19073357
0 0.10856432 -0.19073355
0 0.072376154 -0.19073346
0 0.036188096 -0.19073346
0 3.7252903e-08 -0.19073345
0 -0.036188111 -0.19073352
0 -0.072376177 -0.19073352
0 -0.10856424 -0.19073351
0 -0.14475237 -0.19073358
0 -0.18094037 -0.19073349
0 -0.21712843 -0.19073346
0 -0.25331658 -0.19073355
0 -0.28950465 -0.19073355
0 -0.32569277 -0.19073343
0 -0.36188093 -0.19073352
0 -0.39806896 -0.19073351
0 -0.43425688 -0.19073349
0 -0.47044504 -0.19073357
0 -0.50663316 -0.19073349
0 -0.54282123 -0.19073348
0 -0.57900941 -0.19073355
0 -0.61519742 -0.19073349
0 -0.65138549 -0.19073348
0 -0.68757367 -0.19073346
0 -0.72376168 -0.19073355
0.035332818 0.74198914 -0.23349695
0.035332818 0.70665634 -0.23349687
0.035332818 0.67132354 -0.23349687
0.035332818 0.63599068 -0.23349695
0.035332818 0.60065788 -0.23349692
0.035332818 0.56532496 -0.23349696
0.035332818 0.52999216 -0.23349695
0.035332818 0.49465936 -0.23349705
0.035332818 0.45932662 -0.2334969
0.035332818 0.42399383 -0.23349687
0.035332818 0.38866097 -0.23349695
0.035332818 0.35332814 -0.23349687
0.035332818 0.31799534 -0.23349701
0.035332818 0.28266248 -0.23349692
0.035332818 0.24732971 -0.2334969
0.035332818 0.21199691 -0.23349687
0.035332818 0.1766641 -0.23349699
0.035332818 0.1413313 -0.23349698
0.035332818 0.10599844 -0.23349702
0.035332818 0.070665561 -0.23349693
0.035332818 0.035332769 -0.23349692
0.035332818 -7.4505806e-09 -0.23349689
0.035332818 -0.035332792 -0.23349687
0.035332818 -0.070665665 -0.23349693
0.035332818 -0.10599846 -0.2334969
0.035332818 -0.14133123 -0.23349707
0.035332818 -0.17666402 -0.23349687
0.035332818 -0.2119969 -0.23349693
0.035332818 -0.24732967 -0.2334969
0.035332818 -0.28266254 -0.23349699
0.035332818 -0.31799534 -0.23349696
0.035332818 -0.35332811 -0.23349693
0.035332818 -0.388661 -0.23349684
0.035332818 -0.42399377 -0.23349681
0.035332818 -0.45932665 -0.23349687
0.035332818 -0.49465936 -0.23349695
0.035332818 -0.52999222 -0.23349701
0.035332818 -0.56532502 -0.23349698
0.035332818 -0.60065782 -0.23349684
0.035332818 -0.63599074 -0.23349693
0.035332818 -0.67132348 -0.23349689
0.035332818 -0.70665634 -0.23349692
0.035332818 -0.74198914 -0.23349693
0.069034085 0.72485781 -0.2742857
0.069034085 0.69034088 -0.27428567
0.069034085 0.65582383 -0.27428567
0.069034085 0.62130672 -0.27428567
0.069034085 0.58678967 -0.27428567
0.069034085 0.55227262 -0.27428567
0.069034085 0.51775557 -0.27428573
0.069034085 0.48323852 -0.27428573
0.069034085 0.44872153 -0.27428564
0.069034085 0.41420448 -0.27428564
0.069034085 0.37968746 -0.2742857
0.069034085 0.34517038 -0.2742857
0.069034085 0.31065333 -0.2742857
0.069034085 0.27613628 -0.27428573
0.069034085 0.24161929 -0.27428561
0.069034085 0.20710225 -0.27428567
0.069034085 0.17258519 -0.27428567
0.069034085 0.13806817 -0.27428573
0.069034085 0.10355103 -0.27428564
0.069034085 0.069034055 -0.27428573
0.069034085 0.034516983 -0.27428573
0.069034085 -0 -0.27428567
0.069034085 -0.034517065 -0.27428564
0.069034085 -0.069034137 -0.27428567
0.069034085 -0.1035511 -0.27428573
0.069034085 -0.13806817 -0.27428576
0.069034085 -0.17258532 -0.27428567
0.069034085 -0.20710221 -0.27428567
0.069034085 -0.24161927 -0.27428567
0.069034085 -0.27613625 -0.27428576
0.069034085 -0.31065342 -0.2742857
0.069034085 -0.34517047 -0.2742857
0.069034085 -0.37968746 -0.27428579
0.069034085 -0.41420451 -0.27428579
0.069034085 -0.44872159 -0.27428561
0.069034085 -0.48323852 -0.27428567
0.069034085 -0.51775557 -0.27428567
0.069034085 -0.55227256 -0.27428576
0.069034085 -0.58678967 -0.27428561
0.069034085 -0.62130678 -0.27428561
0.069034085 -0.65582371 -0.27428573
0.069034085 -0.69034076 -0.27428573
0.069034085 -0.72485793 -0.27428561
0.10121425 0.74223787 -0.31323355
0.10121425 0.70849973 -0.31323349
0.10121425 0.67476177 -0.31323341
0.10121425 0.64102364 -0.31323346
0.10121425 0.6072855 -0.31323344
0.10121425 0.57354736 -0.31323355
0.10121425 0.53980941 -0.31323346
0.10121425 0.50607127 -0.31323341
0.10121425 0.47233313 -0.31323346
0.10121425 0.43859518 -0.31323338
0.10121425 0.40485707 -0.31323349
0.10121425 0.37111893 -0.31323346
0.10121425 0.3373808 -0.31323352
0.10121425 0.30364278 -0.31323344
0.10121425 0.26990467 -0.31323338
0.10121425 0.23616658 -0.31323349
0.10121425 0.20242846 -0.31323346
0.10121425 0.16869044 -0.31323349
0.10121425 0.13495238 -0.31323346
0.10121425 0.10121427 -0.31323344
0.10121425 0.067476153 -0.31323355
0.10121425 0.033738121 -0.31323341
0.10121425 1.4901161e-08 -0.31323352
0.10121425 -0.033738092 -0.31323349
0.10121425 -0.067476198 -0.31323344
0.10121425 -0.10121424 -0.31323344
0.10121425 -0.13495234 -0.31323341
0.10121425 -0.16869044 -0.31323352
0.10121425 -0.20242848 -0.31323355
0.10121425 -0.23616649 -0.31323344
0.10121425 -0.2699047 -0.31323346
0.10121425 -0.30364281 -0.31323341
0.10121425 -0.33738092 -0.31323352
0.10121425 -0.37111887 -0.31323346
0.10121425 -0.40485704 -0.31323352
0.10121425 -0.43859509 -0.31323355
0.10121425 -0.47233322 -0.31323338
0.10121425 -0.50607133 -0.31323344
0.10121425 -0.53980935 -0.31323344
0.10121425 -0.57354742 -0.31323344
0.10121425 -0.6072855 -0.31323349
0.10121425 -0.64102364 -0.31323346
0.10121425 -0.67476165 -0.31323349
0.10121425 -0.70849979 -0.31323344
0.10121425 -0.74223793 -0.31323341
0.13197404 0.72585732 -0.35046211
0.13197404 0.6928637 -0.3504622
0.13197404 0.65987027 -0.35046211
0.13197404 0.62687671 -0.35046214
0.13197404 0.59388322 -0.35046214
0.13197404 0.56088966 -0.35046214
0.13197404 0.52789617 -0.35046217
0.13197404 0.49490267 -0.3504622
0.13197404 0.46190915 -0.3504622
0.13197404 0.42891568 -0.35046208
0.13197404 0.39592215 -0.35046208
0.13197404 0.36292854 -0.3504622
0.13197404 0.3299351 -0.35046214
0.13197404 0.29694161 -0.35046214
0.13197404 0.26394802 -0.35046214
0.13197404 0.23095453 -0.35046214
0.13197404 0.19796111 -0.35046208
0.13197404 0.1649676 -0.35046208
0.13197404 0.13197398 -0.3504622
0.13197404 0.098980561 -0.35046214
0.13197404 0.06598708 -0.3504622
0.13197404 0.03299354 -0.35046214
0.13197404 -2.9802322e-08 -0.35046214
0.13197404 -0.032993585 -0.35046214
0.13197404 -0.065986976 -0.35046208
0.13197404 -0.098980613 -0.35046217
0.13197404 -0.131974 -0.35046214
0.13197404 -0.16496757 -0.35046211
0.13197404 -0.19796103 -0.35046214
0.13197404 -0.23095457 -0.35046214
0.13197404 -0.26394805 -0.35046217
0.13197404 -0.2969417 -0.35046208
0.13197404 -0.32993516 -0.35046214
0.13197404 -0.36292857 -0.35046211
0.13197404 -0.39592212 -0.35046211
0.13197404 -0.42891562 -0.3504622
0.13197404 -0.46190915 -0.35046214
0.13197404 -0.49490261 -0.3504622
0.13197404 -0.52789617 -0.35046217
0.13197404 -0.5608896 -0.3504622
0.13197404 -0.59388316 -0.35046214
0.13197404 -0.62687671 -0.35046211
0.13197404 -0.65987027 -0.35046208
0.13197404 -0.6928637 -0.35046214
0.13197404 -0.72585732 -0.35046217
0.16807714 0.7395395 -0.31936622
0.16807714 0.70592403 -0.31936616
0.16807714 0.67230868 -0.31936622
0.16807714 0.63869315 -0.31936616
0.16807714 0.60507768 -0.31936628
0.16807714 0.57146221 -0.31936628
0.16807714 0.53784686 -0.31936628
0.16807714 0.50423139 -0.31936628
0.16807714 0.47061604 -0.31936619
0.16807714 0.4370006 -0.31936619
0.16807714 0.40338516 -0.31936619
0.16807714 0.36976975 -0.31936619
0.16807714 0.33615431 -0.31936619
0.16807714 0.3025389 -0.31936619
0.16807714 0.26892349 -0.31936619
0.16807714 0.23530796 -0.31936631
0.16807714 0.20169249 -0.31936625
0.16807714 0.16807711 -0.31936628
0.16807714 0.13446176 -0.31936622
0.16807714 0.10084634 -0.31936622
0.16807714 0.06723088 -0.31936616
0.16807714 0.033615485 -0.31936622
0.16807714 1.4901161e-08 -0.31936619
0.16807714 -0.033615366 -0.31936622
0.16807714 -0.067230843 -0.31936619
0.16807714 -0.10084631 -0.31936616
0.16807714 -0.13446178 -0.31936628
0.16807714 -0.16807714 -0.31936634
0.16807714 -0.20169261 -0.31936631
0.16807714 -0.23530802 -0.31936616
0.16807714 -0.2689234 -0.31936622
0.16807714 -0.30253887 -0.31936619
0.16807714 -0.33615425 -0.31936622
0.16807714 -0.36976969 -0.31936619
0.16807714 -0.4033851 -0.31936622
0.16807714 -0.4370006 -0.31936625
0.16807714 -0.47061598 -0.31936628
0.16807714 -0.50423145 -0.31936625
0.16807714 -0.5378468 -0.31936622
0.16807714 -0.57146233 -0.31936625
0.16807714 -0.6050778 -0.31936622
0.16807714 -0.63869315 -0.31936625
0.16807714 -0.6723085 -0.31936622
0.16807714 -0.70592397 -0.31936619
0.16807714 -0.7395395 -0.31936622
0.21795021 0.72650063 -0.18388596
0.21795021 0.69017565 -0.18388592
0.21795021 0.65385062 -0.18388592
0.21795021 0.61752558 -0.18388584
0.21795021 0.5812006 -0.18388592
0.21795021 0.54487562 -0.18388583
0.21795021 0.50855052 -0.18388587
0.21795021 0.47222549 -0.18388592
0.21795021 0.43590042 -0.18388596
0.21795021 0.39957535 -0.18388596
0.21795021 0.36325043 -0.18388593
0.21795021 0.32692534 -0.18388595
0.21795021 0.29060027 -0.18388598
0.21795021 0.2542752 -0.18388587
0.21795021 0.21795024 -0.18388596
0.21795021 0.18162525 -0.1838859
0.21795021 0.14530018 -0.18388592
0.21795021 0.1089751 -0.18388593
0.21795021 0.072650105 -0.18388587
0.21795021 0.036325045 -0.18388589
0.21795021 -2.9802322e-08 -0.1838859
0.21795021 -0.036325105 -0.18388593
0.21795021 -0.072650179 -0.18388595
0.21795021 -0.10897508 -0.18388596
0.21795021 -0.14530024 -0.18388589
0.21795021 -0.18162514 -0.1838859
0.21795021 -0.21795021 -0.18388593
0.21795021 -0.2542752 -0.18388584
0.21795021 -0.29060027 -0.18388587
0.21795021 -0.32692525 -0.18388596
0.21795021 -0.36325034 -0.18388584
0.21795021 -0.39957532 -0.18388593
0.21795021 -0.43590039 -0.18388593
0.21795021 -0.47222546 -0.18388598
0.21795021 -0.50855052 -0.18388599
0.21795021 -0.5448755 -0.1838859
0.21795021 -0.5812006 -0.18388595
0.21795021 -0.61752558 -0.18388587
0.21795021 -0.65385056 -0.18388596
0.21795021 -0.69017565 -0.18388587
0.21795021 -0.72650069 -0.18388596
0.27656922 0.71117795 -0.024643481
0.27656922 0.67166805 -0.024643511
0.27656922 0.63215816 -0.024643511
0.27656922 0.59264821 -0.02464357
0.27656922 0.55313838 -0.024643481
0.27656922 0.5136286 -0.024643481
0.27656922 0.47411865 -0.024643451
0.27656922 0.43460873 -0.024643496
0.27656922 0.39509881 -0.024643496
0.27656922 0.35558891 -0.024643525
0.27656922 0.31607914 -0.024643511
0.27656922 0.27656919 -0.024643518
0.27656922 0.23705931 -0.024643421
0.27656922 0.19754946 -0.024643496
0.27656922 0.15803953 -0.024643496
0.27656922 0.11852957 -0.024643492
0.27656922 0.07901971 -0.024643401
0.27656922 0.039509948 -0.024643553
0.27656922 2.7939677e-09 -0.024643552
0.27656922 -0.039509863 -0.024643458
0.27656922 -0.079019807 -0.024643457
0.27656922 -0.11852966 -0.024643529
0.27656922 -0.15803953 -0.024643436
0.27656922 -0.19754937 -0.024643518
0.27656922 -0.23705932 -0.024643511
0.27656922 -0.27656919 -0.0246436
0.27656922 -0.31607911 -0.024643585
0.27656922 -0.35558891 -0.024643406
0.27656922 -0.39509887 -0.024643406
0.27656922 -0.4346087 -0.024643481
0.27656922 -0.47411856 -0.024643555
0.27656922 -0.51362848 -0.02464354
0.27656922 -0.55313843 -0.02464354
0.27656922 -0.59264827 -0.02464354
0.27656922 -0.6321581 -0.024643451
0.27656922 -0.67166805 -0.024643451
0.27656922 -0.71117789 -0.024643511
0.34645382 0.73621428 0.16519856
0.34645382 0.69290769 0.16519865
0.34645382 0.64960092 0.16519859
0.34645382 0.6062941 0.16519859
0.34645382 0.56298745 0.16519874
0.34645382 0.51968074 0.1651985
0.34645382 0.47637403 0.16519868
0.34645382 0.4330672 0.16519852
0.34645382 0.38976055 0.16519856
0.34645382 0.34645379 0.16519867
0.34645382 0.30314702 0.16519858
0.34645382 0.25984037 0.16519861
0.34645382 0.21653369 0.16519862
0.34645382 0.17322685 0.16519864
0.34645382 0.12992027 0.16519858
0.34645382 0.086613439 0.16519858
0.34645382 0.043306679 0.16519868
0.34645382 -6.7055225e-08 0.16519861
0.34645382 -0.043306738 0.16519862
0.34645382 -0.086613417 0.16519864
0.34645382 -0.12992024 0.16519865
0.34645382 -0.17322683 0.16519859
0.34645382 -0.21653366 0.16519859
0.34645382 -0.2598404 0.16519852
0.34645382 -0.30314702 0.16519865
0.34645382 -0.34645385 0.16519865
0.34645382 -0.38976049 0.16519868
0.34645382 -0.43306726 0.16519859
0.34645382 -0.476374 0.16519853
0.34645382 -0.5196808 0.16519862
0.34645382 -0.56298733 0.16519856
0.34645382 -0.60629416 0.16519867
0.34645382 -0.64960098 0.16519867
0.34645382 -0.69290757 0.16519852
0.34645382 -0.73621446 0.16519871
0.43119967 0.71866614 0.39541614
0.43119967 0.67075497 0.39541608
0.43119967 0.62284404 0.39541614
0.43119967 0.57493287 0.39541608
0.43119967 0.52702194 0.3954162
0.43119967 0.47911066 0.39541596
0.43119967 0.4311997 0.39541605
0.43119967 0.38328853 0.39541602
0.43119967 0.3353776 0.39541611
0.43119967 0.28746644 0.39541608
0.43119967 0.23955546 0.39541608
0.43119967 0.19164437 0.39541614
0.43119967 0.14373311 0.39541602
0.43119967 0.095822021 0.39541608
0.43119967 0.047911033 0.39541608
0.43119967 -5.9604645e-08 0.39541614
0.43119967 -0.047911063 0.39541614
0.43119967 -0.09582223 0.39541608
0.43119967 -0.14373323 0.39541608
0.43119967 -0.1916444 0.39541605
0.43119967 -0.23955531 0.39541614
0.43119967 -0.28746647 0.39541611
0.43119967 -0.33537748 0.39541611
0.43119967 -0.38328865 0.39541605
0.43119967 -0.43119973 0.39541611
0.43119967 -0.47911075 0.39541611
0.43119967 -0.52702183 0.39541602
0.43119967 -0.57493281 0.39541599
0.43119967 -0.62284404 0.39541602
0.43119967 -0.67075497 0.39541608
0.43119967 -0.71866602 0.39541602
0.53610736 0.75055015 0.68039918
0.53610736 0.69693959 0.6803993
0.53610736 0.64332879 0.6803993
0.53610736 0.58971804 0.68039918
0.53610736 0.5361073 0.68039912
0.53610736 0.48249665 0.68039936
0.53610736 0.42888594 0.6803993
0.53610736 0.37527514 0.68039924
0.53610736 0.32166451 0.68039936
0.53610736 0.26805353 0.68039918
0.53610736 0.214443 0.6803993
0.53610736 0.16083217 0.6803993
0.53610736 0.10722142 0.68039918
0.53610736 0.053610712 0.68039918
0.53610736 2.9802322e-08 0.6803993
0.53610736 -0.053610772 0.68039918
0.53610736 -0.10722151 0.68039924
0.53610736 -0.16083217 0.6803993
0.53610736 -0.21444297 0.68039906
0.53610736 -0.26805365 0.6803993
0.53610736 -0.32166445 0.6803993
0.53610736 -0.37527505 0.68039918
0.53610736 -0.42888597 0.6803993
0.53610736 -0.48249668 0.68039924
0.53610736 -0.53610748 0.68039936
0.53610736 -0.58971804 0.68039918
0.53610736 -0.64332896 0.68039918
0.53610736 -0.69693959 0.68039924
0.66934896 0.73019886 1.0423577
0.66934896 0.6693489 1.0423577
0.66934896 0.60849917 1.0423577
0.66934896 0.54764926 1.0423577
0.66934896 0.48679915 1.0423576
0.66934896 0.42594939 1.0423578
0.66934896 0.36509955 1.0423578
0.66934896 0.3042495 1.0423577
0.66934896 0.24339965 1.0423577
0.66934896 0.18254951 1.0423576
0.66934896 0.12169984 1.0423577
0.66934896 0.060850054 1.0423577
0.66934896 -0 1.0423576
0.66934896 -0.060850054 1.0423577
0.66934896 -0.12169972 1.0423574
0.66934896 -0.18254977 1.0423577
0.66934896 -0.24339968 1.0423577
0.66934896 -0.30424935 1.0423576
0.66934896 -0.36509955 1.0423577
0.66934896 -0.42594939 1.0423577
0.66934896 -0.48679906 1.0423576
0.66934896 -0.54764915 1.0423577
0.66934896 -0.60849905 1.0423577
0.66934896 -0.6693489 1.0423577
0.66934896 -0.73019886 1.0423576
