# .PCD v0.7 - Point Cloud Data file format
VERSION 0.7
FIELDS x y z
SIZE 4 4 4
TYPE F F F
COUNT 1 1 1
WIDTH 1076
HEIGHT 1
VIEWPOINT 0 0 0 1 0 0 0
POINTS 1076
DATA ascii
-1.2664818 0.26385027 0.6383661
-1.2104223 0.20173699 0.52157521
-1.1979216 0.26041776 0.60403991
-1.1455611 0.19922796 0.49021244
-1.0975819 0.14316285 0.38590986
-1.184576 0.32306612 0.69208044
-1.1311272 0.25707436 0.57060611
-1.0822893 0.19677994 0.45961073
-1.037498 0.14147693 0.35781217
-0.99626315 0.090569377 0.26409671
-0.95818406 0.04355377 0.17755327
-1.1157305 0.31878018 0.65636343
-1.0660218 0.2538147 0.53800946
-1.0205575 0.194392 0.42976129
-0.97880894 0.13982986 0.33035985
-0.94034517 0.089556634 0.23877941
-0.90478694 0.043085031 0.154117
-0.87181997 -3.7252903e-08 0.075624049
-0.84117359 -0.040055901 0.002656471
-1.0992709 0.38474479 0.7480396
-1.0486833 0.314605 0.62157053
-1.0025507 0.25063765 0.5062393
-0.96030241 0.19206035 0.40061831
-0.92147416 0.13822109 0.30354777
-0.88566077 0.088566042 0.21401423
-0.85252696 0.042626455 0.13117974
-0.82178563 -1.1734664e-07 0.054326374
-0.7931816 -0.039659142 -0.017183643
-0.76650423 -0.076650426 -0.083877161
-1.0301642 0.37953424 0.71082067
-0.98337376 0.31053913 0.58768791
-0.94064534 0.24753825 0.47524482
-0.90147549 0.18978427 0.37216622
-0.86544055 0.13664855 0.27733752
-0.83217287 0.087597065 0.1897909
-0.8013708 0.042177495 0.10873281
-0.7727651 -3.7252903e-08 0.033454619
-0.74613357 -0.039270192 -0.036628433
-0.72127426 -0.075923666 -0.10204758
-0.69801801 -0.11021334 -0.16324814
-0.6762166 -0.1423614 -0.22062044
-1.0103399 0.44903988 0.80636179
-0.96290839 0.37446433 0.67460781
-0.91972697 0.30657554 0.55465943
-0.88025224 0.24451436 0.44500738
-0.84402972 0.1875622 0.34438929
-0.81066763 0.1351113 0.25171685
-0.7798453 0.086649552 0.16609937
-0.75127846 0.041737609 0.086746946
-0.72473288 1.3969839e-08 0.013009109
-0.69999701 -0.038888671 -0.055701531
-0.67689395 -0.075210452 -0.11987678
-0.65526903 -0.10921153 -0.17994596
-0.63498133 -0.14110702 -0.23630071
-0.61591375 -0.17108715 -0.28926605
-0.94102055 0.44283324 0.76756978
-0.89742196 0.36952662 0.63933861
-0.85768443 0.3027122 0.52246362
-0.82132 0.24156457 0.41550916
-0.78791076 0.18539067 0.31724682
-0.75711602 0.13360865 0.22667411
-0.72863543 0.08572185 0.14290763
-0.70222211 0.041307256 0.065221585
-0.67765474 -3.5157427e-08 -0.0070356079
-0.6547482 -0.038514555 -0.074407674
-0.63334149 -0.074510835 -0.13736863
-0.61328846 -0.10822737 -0.19634801
-0.594468 -0.13987474 -0.25170243
-0.57676673 -0.16963728 -0.30376503
-0.56009054 -0.19767901 -0.35281247
-0.54435027 -0.22414415 -0.39910752
-0.87358761 0.4367938 0.72982347
-0.83364004 0.3647176 0.60498732
-0.7971893 0.29894593 0.49107879
-0.76378971 0.23868431 0.38670516
-0.73307896 0.18326972 0.29073402
-0.70473993 0.13213879 0.20217445
-0.67851269 0.084814079 0.12021435
-0.65416539 0.040885352 0.044129007
-0.63150483 5.5879354e-08 -0.026685089
-0.61036354 -0.038147584 -0.092751667
-0.59059018 -0.07382375 -0.15454343
-0.57205939 -0.10726102 -0.21245205
-0.5546546 -0.13866363 -0.26684216
-0.538279 -0.16821218 -0.31801572
-0.52284133 -0.19606544 -0.36625859
-0.50826442 -0.22236565 -0.41181138
-0.49447954 -0.24723974 -0.45488924
-0.84806114 0.50883675 0.82673275
-0.80796927 0.43091691 0.69309318
-0.77150011 0.36003333 0.57152927
-0.73817807 0.29527128 0.46045595
-0.707618 0.23587273 0.35858881
-0.67948514 0.18119599 0.2648128
-0.65350604 0.13070126 0.17821574
-0.62943822 0.083925135 0.097989604
-0.60708022 0.040472016 0.023462962
-0.58625782 -5.4016709e-08 -0.045945026
-0.56681484 -0.037787609 -0.11075503
-0.54862159 -0.073149517 -0.17139903
-0.53155851 -0.10631173 -0.22827607
-0.51552474 -0.13747326 -0.2817218
-0.50043124 -0.16681042 -0.3320334
-0.48619524 -0.19447811 -0.37948695
-0.47274792 -0.22061568 -0.42431125
-0.46331209 -0.24709976 -0.45576406
-0.46711865 -0.2802712 -0.44307566
-0.78050137 0.50175077 0.78736705
-0.74409634 0.42519781 0.65734911
-0.71093321 0.35546654 0.53890949
-0.68060267 0.29168683 0.43058598
-0.65275174 0.23312557 0.33111846
-0.62709057 0.17916872 0.23947166
-0.60337281 0.12929411 0.15476523
-0.58138186 0.083054557 0.076225936
-0.56093925 0.040067062 0.0032168496
-0.54188383 -2.6077032e-08 -0.06483838
-0.52408201 -0.037434328 -0.12841615
-0.50741124 -0.072487302 -0.18795484
-0.49176964 -0.10537919 -0.24381751
-0.47706231 -0.13630348 -0.29634374
-0.46320912 -0.16543183 -0.34581935
-0.45014009 -0.19291723 -0.39249444
-0.43778828 -0.21889412 -0.43660814
-0.43795455 -0.2502597 -0.43601438
-0.44159806 -0.28388456 -0.42300186
-0.7510407 0.57772356 0.88848031
-0.71480048 0.4948619 0.74909467
-0.68189377 0.41962686 0.62253046
-0.65188622 0.3510156 0.50711685
-0.62440592 0.28818744 0.40142357
-0.59914881 0.23044181 0.30428073
-0.57585758 0.17718697 0.214699
-0.55430752 0.12791713 0.13181426
-0.53431398 0.082202137 0.054915957
-0.51571083 0.039670132 -0.016634377
-0.49836114 6.3329935e-08 -0.083364144
-0.48213935 -0.037087649 -0.14575575
-0.46694162 -0.071837202 -0.20420846
-0.4526715 -0.10446265 -0.25909352
-0.43924773 -0.13515314 -0.31072345
-0.42659938 -0.16407675 -0.35937086
-0.41466016 -0.19138157 -0.4052909
-0.40851757 -0.21997105 -0.42891631
-0.41194105 -0.25350219 -0.41574907
-0.41541186 -0.28759286 -0.40239981
-0.41893846 -0.32226029 -0.388836
-0.68340945 0.56950802 0.84740156
-0.65087646 0.48815739 0.71184754
-0.62130266 0.41420171 0.5886234
-0.59429723 0.34667337 0.47610074
-0.56954163 0.28477088 0.3729524
-0.54676795 0.22782005 0.27806211
-0.52574366 0.17524786 0.19046077
-0.50627804 0.12656957 0.10935417
-0.48820084 0.081366837 0.034032218
-0.4713715 0.039280999 -0.03608989
-0.4556624 -2.2351742e-08 -0.10154431
-0.44096789 -0.036747318 -0.16277149
-0.4271903 -0.071198374 -0.22017807
-0.41424873 -0.10356215 -0.27410129
-0.40206927 -0.13402312 -0.32484913
-0.39058557 -0.1627441 -0.37269786
-0.37974054 -0.18987018 -0.41788539
-0.38200134 -0.22283407 -0.40846542
-0.38524368 -0.2568292 -0.39495581
-0.38853151 -0.2913987 -0.38125637
-0.39187393 -0.32656172 -0.36732969
-0.64969021 0.64969015 0.95299941
-0.61767197 0.5615201 0.80746222
-0.58866394 0.48163414 0.67560732
-0.56225598 0.4089134 0.5555712
-0.53811574 0.34243724 0.44584268
-0.51596487 0.28143543 0.34515724
-0.49556383 0.22525628 0.25242528
-0.4767164 0.17335145 0.16675489
-0.45924848 0.12524958 0.087355375
-0.44301689 0.08054854 0.013575297
-0.42789215 0.038899306 -0.055173464
-0.41376603 1.1175871e-08 -0.1193829
-0.40054402 -0.036413074 -0.17948315
-0.38814083 -0.070571102 -0.23586124
-0.37648475 -0.10267766 -0.2888433
-0.36550739 -0.13291179 -0.33874047
-0.35515204 -0.16143277 -0.38581014
-0.3517842 -0.1918823 -0.40111852
-0.35478488 -0.22577211 -0.38747919
-0.36633709 -0.26642698 -0.33496922
-0.36093017 -0.29530653 -0.35954595
-0.36407715 -0.33097929 -0.34524161
-0.58204061 0.6402446 0.91006535
-0.55375552 0.55375546 0.76863992
-0.52808994 0.47528088 0.64031184
-0.50469804 0.40375838 0.52335256
-0.48329243 0.33830473 0.41632438
-0.46362698 0.27817625 0.31799722
-0.44550091 0.22275034 0.22736679
-0.42873737 0.17149496 0.14354911
-0.41319102 0.12395728 0.065817349
-0.39873141 0.079746284 -0.0064807348
-0.38524961 0.038525041 -0.073889665
-0.37265077 -5.2154064e-08 -0.13688385
-0.3608509 -0.036085039 -0.19588321
-0.3497754 -0.069955051 -0.25126091
-0.33936042 -0.10180809 -0.30333564
-0.3295469 -0.1318188 -0.35240322
-0.32128766 -0.16064382 -0.39369956
-0.32404101 -0.19442466 -0.37993285
-0.32684195 -0.22878928 -0.36592808
-0.35277528 -0.28222018 -0.23626132
-0.33257848 -0.29932064 -0.33724537
-0.335518 -0.33551806 -0.32254767
-0.33850998 -0.37236097 -0.30758783
-0.51633227 0.63107276 0.86837488
-0.49158049 0.54620045 0.73086488
-0.46909317 0.46909323 0.60593551
-0.44857505 0.39873326 0.49194574
-0.42977497 0.33426934 0.38750103
-0.41248891 0.27499253 0.2914671
-0.39653817 0.22029902 0.20285209
-0.38177514 0.16967781 0.12083527
-0.36807308 0.12269104 0.044712797
-0.35531938 0.078959942 -0.026141133
-0.34342098 0.038157895 -0.092243426
-0.33229554 -0 -0.15405127
-0.32186741 -0.03576304 -0.21198535
-0.31207392 -0.069349781 -0.26639384
-0.30285874 -0.10095292 -0.31758898
-0.294173 -0.13074358 -0.36584333
-0.29300803 -0.16278215 -0.37231535
-0.29555196 -0.19703467 -0.35818228
-0.36988673 -0.28768975 0.054788642
-0.33750436 -0.30000377 -0.12511352
-0.31033632 -0.31033632 -0.27604702
-0.30616471 -0.34018302 -0.29922277
-0.30893323 -0.37758508 -0.28384203
-0.47610992 0.71416503 0.97554922
-0.4524779 0.62215716 0.82784915
-0.43107906 0.53884888 0.69410646
-0.41161454 0.46306637 0.57245314
-0.3938303 0.3938303 0.46130165
-0.37752059 0.33033061 0.35936606
-0.36250675 0.27188006 0.26552936
-0.34864262 0.21790165 0.17887856
-0.33579877 0.1678993 0.098604515
-0.32386762 0.12145033 0.024034932
-0.31275716 0.078189313 -0.045405407
-0.30238372 0.037797958 -0.11023937
-0.29267716 5.9604645e-08 -0.17090535
-0.2835736 -0.035446733 -0.22780266
-0.27501929 -0.068754822 -0.28126723
-0.26696593 -0.10011224 -0.33160058
-0.26168188 -0.130841 -0.36462596
-0.26396468 -0.16497789 -0.35035855
-0.26628762 -0.1997157 -0.33583999
-0.35317722 -0.30903006 0.20721978
-0.32017943 -0.32017946 0.00098386407
-0.29282001 -0.3294225 -0.17001277
-0.27598366 -0.34497949 -0.27524009
-0.27851474 -0.38295776 -0.25942057
-0.28109351 -0.42164022 -0.24330336
-0.41049585 0.70370722 0.93197548
-0.39040264 0.61348993 0.78845274
-0.3721863 0.53169465 0.65833592
-0.3555927 0.45719051 0.53981
-0.34041688 0.38904786 0.43141136
-0.32648218 0.32648227 0.33187786
-0.31364453 0.26883808 0.24018028
-0.30177724 0.21555516 0.15541381
-0.29077524 0.16615731 0.076828152
-0.28054991 0.12023555 0.0037902147
-0.27101848 0.077433936 -0.064291418
-0.26211342 0.037444785 -0.12789902
-0.25377494 7.4505806e-09 -0.18745957
-0.24595131 -0.035135962 -0.24334262
-0.23859502 -0.068169974 -0.29588753
-0.231666 -0.099285491 -0.34538066
-0.23207492 -0.13261424 -0.34245965
-0.23412773 -0.16723415 -0.32779676
-0.36202648 -0.31030834 0.5857656
-0.33381155 -0.33381161 0.38423055
-0.30035627 -0.34326431 0.1452643
-0.27300873 -0.35101122 -0.050075263
-0.25022629 -0.3574661 -0.21280709
-0.2472188 -0.38848668 -0.23428899
-0.24954045 -0.42778361 -0.21770599
-0.36530405 0.79149199 1.0440626
-0.34677404 0.69354814 0.88964599
-0.33003458 0.60506338 0.75015062
-0.31483552 0.52472591 0.62349159
-0.30097592 0.45146397 0.50799501
-0.28828403 0.38437864 0.40222925
-0.27662024 0.32272363 0.30503106
-0.26586264 0.26586264 0.21538423
-0.25591129 0.21325946 0.13245647
-0.24667886 0.16445255 0.055519398
-0.23809011 0.11904501 -0.01605361
-0.23007861 0.076692849 -0.082815975
-0.22258873 0.037098121 -0.1452316
-0.21557112 2.9802322e-08 -0.2037117
-0.20898305 -0.034830563 -0.25861233
-0.20278518 -0.06759508 -0.31026134
-0.19987833 -0.099939145 -0.33448499
-0.20165493 -0.13443656 -0.31967995
-0.31182992 -0.25985819 0.59844494
-0.31464556 -0.31464565 0.62190872
-0.31109995 -0.36294997 0.59236175
-0.27745152 -0.3699353 0.31195807
-0.25041872 -0.37562799 0.086684778
-0.22818595 -0.38030994 -0.098588139
-0.21500476 -0.39417532 -0.20843136
-0.21705435 -0.43410867 -0.19135152
-0.21914274 -0.47480923 -0.17394821
-0.29985979 0.77963537 0.99846023
-0.2848672 0.68368143 0.84853429
-0.27130127 0.59686273 0.71287495
-0.25896975 0.51793951 0.5895595
-0.2477095 0.44587705 0.47695735
-0.23738769 0.37982041 0.37373924
-0.22789247 0.3190496 0.27878714
-0.21912841 0.26295412 0.1911464
-0.21101347 0.2110135 0.1099969
-0.2034781 0.16278255 0.034643248
-0.19646235 0.11787739 -0.035514299
-0.18991484 0.075965971 -0.10098939
-0.18378913 0.036757722 -0.16224633
-0.17804626 8.1956387e-08 -0.21967509
-0.1726514 -0.034530312 -0.27362365
-0.1675743 -0.067029767 -0.32439464
-0.16886492 -0.10131896 -0.3114886
-0.1703863 -0.13630907 -0.29627466
-0.26350945 -0.26350942 0.63495654
-0.26592255 -0.31910697 0.65908748
-0.26838019 -0.37573236 0.68366444
-0.25072345 -0.4011575 0.50709677
-0.22442116 -0.40395817 0.2440739
-0.20313568 -0.40627137 0.031219184
-0.18553866 -0.40818506 -0.1447511
-0.18359315 -0.44062358 -0.16420627
-0.18538637 -0.48200458 -0.14627396
-0.24927421 0.87245971 1.11579
-0.23634847 0.76813245 0.95421785
-0.22469608 0.67408824 0.80856329
-0.21413963 0.588884 0.67660761
-0.20452972 0.51132441 0.55648386
-0.19574529 0.44042689 0.44667834
-0.18768507 0.37537014 0.34592569
-0.18026303 0.31546032 0.25315011
-0.17340568 0.26010847 0.16743323
-0.16705146 0.20881432 0.088005647
-0.16114597 0.16114596 0.014186844
-0.15564375 0.11673288 -0.054590903
-0.1505053 0.07525266 -0.11882153
-0.14569488 0.03642378 -0.17895174
-0.14118244 5.2154064e-08 -0.23535722
-0.13694111 -0.034235276 -0.2883738
-0.13575403 -0.06787698 -0.30321234
-0.13698353 -0.10273769 -0.28784353
-0.21186094 -0.21186101 0.6481241
-0.21381085 -0.26726353 0.67249787
-0.21579696 -0.32369545 0.69732428
-0.21782127 -0.38118732 0.72262824
-0.21907265 -0.4381454 0.73827052
-0.19419198 -0.43693191 0.42726195
-0.17441539 -0.43603843 0.18005462
-0.15830156 -0.43532932 -0.021368057
-0.1491119 -0.4473356 -0.13623911
-0.15059118 -0.48942125 -0.1177481
-0.18409097 0.8590911 1.068045
-0.17468318 0.75696051 0.91124868
-0.16619019 0.66476065 0.76969862
-0.15848541 0.58111328 0.64128596
-0.15146279 0.50487596 0.52424222
-0.14503723 0.43511176 0.41714945
-0.13913466 0.37102574 0.31877336
-0.13369375 0.31195205 0.22809143
-0.12866236 0.25732476 0.14423491
-0.12399633 0.20666066 0.066467836
-0.11965653 0.15954202 -0.0058623776
-0.11561022 0.11561012 -0.073300697
-0.11182863 0.074552432 -0.13632721
-0.10828689 0.036095664 -0.19535609
-0.10496233 -2.9802322e-08 -0.25076547
-0.10231699 -0.034105599 -0.29485455
-0.10324826 -0.068832144 -0.27933332
-0.10419578 -0.10419581 -0.26354137
-0.16117159 -0.21489541 0.68605536
-0.16267641 -0.27112728 0.71113563
-0.16420957 -0.32841921 0.73668861
-0.16577193 -0.38680106 0.76272774
-0.1673643 -0.4463048 0.78926736
-0.1586071 -0.47582132 0.64331365
-0.14115374 -0.47051239 0.35242465
-0.12718347 -0.46633932 0.11958674
-0.11572983 -0.46291935 -0.071307167
-0.11470878 -0.49707144 -0.088324666
-0.11587596 -0.5407545 -0.068871662
-0.12764531 0.9573397 1.1909951
-0.12087458 0.84612203 1.0217268
-0.11478648 0.74611223 0.86952436
-0.10928178 0.65569073 0.73190683
-0.10428088 0.57354486 0.60688424
-0.099718444 0.4985922 0.49282324
-0.09553849 0.42992327 0.38832468
-0.091695204 0.36678082 0.2922425
-0.08814887 0.308521 0.20358397
-0.084866621 0.2545999 0.12152802
-0.081820041 0.20455012 0.04536324
-0.078984857 0.15796967 -0.025516428
-0.076339349 0.11450897 -0.09165407
-0.073865309 0.073865317 -0.15350491
-0.071546607 0.0357733 -0.21147272
-0.069369219 -5.9604645e-08 -0.26590708
-0.069175988 -0.03458795 -0.2707381
-0.069814406 -0.069814436 -0.25477749
-0.1079951 -0.16199264 0.69973981
-0.1090086 -0.21801722 0.72507751
-0.11004131 -0.27510324 0.75089514
-0.11109427 -0.33328277 0.77721882
-0.11216707 -0.39258462 0.80403876
-0.11326078 -0.4530431 0.8313818
-0.11437604 -0.51469213 0.85926318
-0.10219438 -0.5109719 0.55472159
-0.091292359 -0.50210798 0.2821711
-0.082501076 -0.49500644 0.062388942
-0.07768587 -0.50495815 -0.057990849
-0.078489743 -0.54942822 -0.03789416
-0.062821165 0.94231755 1.1409206
-0.059538767 0.83354264 0.97680044
-0.056582082 0.73556703 0.8289665
-0.053905398 0.64686471 0.69513202
-0.05147073 0.56617808 0.57339883
-0.049246486 0.49246487 0.4621864
-0.047206517 0.42485875 0.36018807
-0.04532899 0.36263186 0.26631171
-0.043594949 0.30516464 0.17960972
-0.041988689 0.25193217 0.099296793
-0.040496591 0.202483 0.024691798
-0.039107021 0.15642804 -0.044786669
-0.037809532 0.11342862 -0.10966106
-0.036595378 0.073190764 -0.17036878
-0.035456773 0.035456792 -0.227299
-0.034761529 -1.4901161e-08 -0.26206124
-0.035084065 -0.035084054 -0.24593464
-0.054274272 -0.10854852 0.71357596
-0.054786257 -0.16435882 0.73917526
-0.055307992 -0.221232 0.76526189
-0.055839762 -0.27919891 0.79185039
-0.056381855 -0.3382912 0.81895494
-0.056934576 -0.39854199 0.84659111
-0.057498239 -0.45998591 0.87477446
-0.058073178 -0.52265865 0.9035213
-0.055906396 -0.55906397 0.79518199
-0.049440257 -0.54384273 0.47187498
-0.044322595 -0.53187108 0.21599202
-0.040166568 -0.52216536 0.0081907213
-0.039884623 -0.55838466 -0.0059065223
-0.040308136 -0.60462201 0.015269279
0 0.9277637 1.0924084
0 0.82132804 0.93317646
0 0.72531915 0.78955126
0 0.63827598 0.65934563
0 0.55899811 0.54076278
0 0.48648629 0.43229374
0 0.41991186 0.33270663
0 0.35857457 0.24095321
0 0.30188054 0.15615158
0 0.24931973 0.077526733
0 0.2004571 0.0044340044
0 0.15491581 -0.063690551
0 0.11236843 -0.12733136
0 0.07252831 -0.18692756
0 0.035145782 -0.24284774
0 1.0430813e-07 -0.23700149
0 -0.035594344 -0.22041938
0 -0.11014178 0.7534076
0 -0.16679433 0.77976739
0 -0.22454193 0.80663681
0 -0.2834169 0.83403075
0 -0.34345374 0.8619777
0 -0.40468481 0.89046794
0 -0.46714696 0.91953099
0 -0.53087819 0.94918466
0 -0.59591687 0.97944665
0 -0.59321815 0.69630861
0 -0.57467073 0.39432374
0 -0.55995882 0.15355004
0 -0.5676325 0.027121603
0 -0.61474973 0.049028397
0.064349599 1.0295935 1.217342
0.060909901 0.91364855 1.0453572
0.057819538 0.80947363 0.89083934
0.055027626 0.71535921 0.75124353
0.052492913 0.62991494 0.6245079
0.050181627 0.5519979 0.50894368
0.048065115 0.48065105 0.40311787
0.04611991 0.4150793 0.30585778
0.044326026 0.35460815 0.21616353
0.04266661 0.29866636 0.13319287
0.041126829 0.24676093 0.056203507
0.039694309 0.19847155 -0.0154223
0.038358223 0.15343297 -0.082226619
0.037109263 0.11132787 -0.14467454
0.035938967 0.071877874 -0.20318922
0.035443213 0.035443157 -0.22797704
0.035778478 -5.9604645e-08 -0.2112138
0.055358771 -0.055358708 0.76780069
0.055891521 -0.11178294 0.79443824
0.056434624 -0.16930401 0.82159328
0.056988385 -0.22795355 0.84928155
0.05755312 -0.28776556 0.8775183
0.058129162 -0.34877509 0.90632045
0.058716848 -0.4110181 0.93570471
0.059316546 -0.47453237 0.96568954
0.059928611 -0.53935742 0.99629295
0.060553446 -0.60553432 1.0275346
0.059314307 -0.65245748 0.9655779
0.052086569 -0.62503874 0.60419053
0.046434615 -0.60365009 0.32159299
0.041893225 -0.58650517 0.09452334
0.041681513 -0.62522268 0.083937764
0.042144265 -0.6743083 0.1070756
0.12666391 1.0133111 1.1664599
0.11999531 0.89996487 0.99974513
0.11399429 0.79796004 0.84971946
0.10856444 0.70566875 0.71397328
0.10362835 0.62177008 0.59057111
0.0991216 0.54516882 0.47790229
0.094990857 0.47495443 0.37463391
0.091190301 0.41035637 0.27961981
0.087682158 0.35072857 0.1919163
0.084433943 0.29551885 0.11071087
0.081418052 0.24425417 0.035313584
0.078609936 0.19652483 -0.034889385
0.075989068 0.15197815 -0.10041104
0.07353732 0.11030592 -0.16170472
0.071250916 0.071250983 -0.21886483
0.071928598 0.035964213 -0.20192264
0.07261847 -0 -0.18467602
0.11237559 -0.056187749 0.80925226
0.11347341 -0.11347347 0.83669746
0.11459287 -0.17188928 0.86468434
0.11573466 -0.23146933 0.89322865
0.11689942 -0.29224861 0.92234755
0.1180884 -0.35426518 0.95207238
0.11930127 -0.41755432 0.9823941
0.12053932 -0.48215738 1.0133452
0.12180332 -0.5481149 1.0449452
0.12309411 -0.61547059 1.0772153
0.12441256 -0.68426925 1.1101763
0.1141864 -0.68511832 0.85452223
0.10073227 -0.65475982 0.51816893
0.090131193 -0.63091832 0.253142
0.084806949 -0.63605201 0.1200359
0.085766144 -0.68612915 0.144016
0.19786483 1.1212341 1.2976096
0.18703982 0.99754578 1.1171927
0.17733783 0.88668925 0.95549273
0.16859345 0.78676939 0.80975324
0.16067024 0.69623768 0.67769945
0.1534583 0.61383331 0.55750072
0.14686599 0.53850859 0.44762892
0.14081728 0.46939099 0.3468169
0.13524659 0.40573969 0.25397232
0.13009989 0.34693307 0.16819391
0.12533054 0.29243785 0.088704713
0.12089889 0.24179778 0.014843725
0.11676957 0.19461596 -0.053977989
0.11291303 0.15055066 -0.11825393
0.10930307 0.10930304 -0.17841992
0.10845619 0.07230407 -0.19253454
0.1095025 0.036500856 -0.17509601
0.16946246 1.4901161e-07 0.82423669
0.17112687 -0.057042301 0.85197675
0.17282431 -0.11521617 0.8802675
0.17455576 -0.17455575 0.90912485
0.17632224 -0.23509642 0.93856633
0.17812486 -0.29687473 0.96860993
0.17996469 -0.35992953 0.99927378
0.18184295 -0.42430034 1.030578
0.18376082 -0.49002889 1.0625427
0.18571956 -0.55715871 1.0951884
0.18772054 -0.62573504 1.1285377
0.18976603 -0.69580877 1.1626295
0.18949308 -0.7579723 1.1580801
0.1650973 -0.71542144 0.75148368
0.14627337 -0.68260902 0.43775186
0.13132498 -0.65662497 0.18861187
0.13094383 -0.69836706 0.18225957
0.13246743 -0.75064874 0.20765302
0.24556583 0.98226333 1.0694351
0.23301318 0.87379932 0.91252702
0.22168143 0.77588487 0.77088004
0.21140161 0.68705523 0.64238256
0.20203213 0.60609651 0.52526408
0.19345792 0.53200924 0.41808635
0.18558188 0.46395463 0.31963563
0.17832266 0.40122586 0.22889528
0.17160937 0.34321874 0.14497946
0.16538322 0.28942066 0.06715259
0.15959305 0.23938957 -0.00522466
0.15419506 0.19274376 -0.072699606
0.14914982 0.14914981 -0.1357649
0.14536719 0.10902538 -0.18304792
0.14677745 0.073388644 -0.16541956
0.22716054 0.056790233 0.83936912
0.22940372 2.9802322e-08 0.86740887
0.23169164 -0.057923049 0.8960079
0.23402566 -0.11701274 0.92518306
0.23640721 -0.1773054 0.95495218
0.23883881 -0.23883879 0.98534751
0.24131982 -0.30164966 1.01636
0.24385293 -0.36577949 1.0480239
0.24643977 -0.43126974 1.0803592
0.24908207 -0.49816406 1.1133881
0.24915718 -0.56060362 1.1143271
0.24915718 -0.62289286 1.1143271
0.24915718 -0.68518227 1.114327
0.24915841 -0.74747515 1.1143422
0.24260662 -0.78847146 1.032445
0.21246096 -0.74361342 0.65562439
0.18900234 -0.70875877 0.36239156
0.17776051 -0.71104193 0.22186862
0.1798694 -0.76444495 0.24822983
0.30232564 0.96744198 1.0231187
0.28709301 0.86127907 0.87079239
0.27332175 0.76530099 0.73307985
0.26081228 0.67811191 0.60798502
0.24939674 0.59855217 0.49382973
0.2389386 0.52566493 0.38924837
0.22932228 0.45864457 0.2930851
0.2204508 0.39681152 0.20437041
0.21223946 0.33958316 0.1222568
0.20461786 0.28646505 0.046040781
0.19752465 0.23702964 -0.024891138
0.19090734 0.19090733 -0.091064274
0.18471849 0.14777476 -0.15295285
0.18444924 0.11066954 -0.15564537
0.18626425 0.074505664 -0.13749528
0.28831598 0.057663143 0.88302183
0.29120725 2.9802322e-08 0.91193473
0.29415712 -0.058831364 0.94143331
0.29716736 -0.11886692 0.9715358
0.30023983 -0.18014401 1.0022607
0.30337653 -0.2427012 1.0336275
0.30391204 -0.3039121 1.0389829
0.30391204 -0.36469454 1.0389829
0.30391204 -0.42547691 1.0389826
0.30391204 -0.48625934 1.0389826
0.30391204 -0.54704154 1.0389827
0.3039135 -0.60782707 1.0389974
0.3039135 -0.66860962 1.0389973
0.3039135 -0.72939241 1.0389974
0.3039135 -0.7901752 1.0389974
0.29165608 -0.81663698 0.91642308
0.2566357 -0.769907 0.56621933
0.22916883 -0.73334014 0.29155046
0.22904471 -0.77875197 0.29030931
0.35739803 0.95306146 0.97817922
0.33964497 0.84911233 0.83023709
0.32357216 0.75500184 0.69629705
0.30895182 0.66939557 0.5744608
0.29559675 0.59119362 0.46316841
0.28334737 0.51947021 0.36109021
0.27207276 0.45345458 0.26713535
0.26166111 0.39249152 0.18037152
0.2520178 0.33602372 0.10001054
0.2430592 0.28356916 0.025355726
0.23471569 0.23471563 -0.044173717
0.22692597 0.18910488 -0.1090881
0.22252454 0.14834961 -0.14576654
0.22472808 0.11236405 -0.12740378
0.3478716 0.11595717 0.89879262
0.35137942 0.058563113 0.92802405
0.35495868 1.4901161e-07 0.95785129
0.35607859 -0.059346288 0.96718395
0.35607859 -0.1186929 0.96718389
0.35608026 -0.1780403 0.9671979
0.35608026 -0.23738667 0.96719772
0.35608026 -0.29673341 0.96719784
0.35608026 -0.35608029 0.96719778
0.35608026 -0.41542691 0.96719778
0.35608026 -0.47477371 0.9671979
0.35608193 -0.53412282 0.96721172
0.35608193 -0.59346986 0.96721178
0.35608193 -0.65281701 0.96721196
0.35608193 -0.71216393 0.96721184
0.35608193 -0.77151084 0.96721178
0.35608193 -0.83085769 0.96721172
0.3370907 -0.84272665 0.8089515
0.29794946 -0.794532 0.48277447
0.28009477 -0.79360181 0.33398545
0.28358752 -0.85076249 0.36309135
0.41085717 0.93910199 0.93455625
0.39073291 0.83728474 0.7908116
0.37248802 0.7449761 0.66049099
0.35587096 0.66090328 0.54179788
0.34067452 0.58401358 0.43325192
0.32672158 0.51341963 0.33358777
0.31386659 0.44838095 0.24176642
0.30198488 0.38826632 0.15689708
0.29097089 0.33253807 0.078225702
0.28073114 0.2807312 0.0050847083
0.2711876 0.23244643 -0.063083395
0.26227161 0.18733686 -0.1267691
0.2636086 0.15063347 -0.11721929
0.26625633 0.11410987 -0.098306932
0.40583903 0.11595401 0.89871252
0.40583903 0.057976902 0.8987124
0.40583903 -8.9406967e-08 0.89871252
0.4058409 -0.057977349 0.89872575
0.4058409 -0.11595452 0.89872599
0.4058409 -0.17393181 0.89872575
0.4058409 -0.2319091 0.89872587
0.4058409 -0.28988624 0.89872575
0.4058409 -0.34786358 0.89872581
0.40584278 -0.40584296 0.89873922
0.40584278 -0.46382034 0.8987391
0.40584278 -0.52179796 0.89873928
0.40584278 -0.57977539 0.89873922
0.40584278 -0.63775295 0.89873934
0.40584278 -0.69573045 0.89873916
0.40584278 -0.75370812 0.89873922
0.40584463 -0.8116892 0.89875239
0.40584463 -0.86966705 0.89875257
0.37929595 -0.86696213 0.70911896
0.33667022 -0.81762761 0.40464959
0.33736673 -0.86751455 0.4096247
0.46277076 0.92554152 0.89217961
0.44041714 0.8257823 0.75246942
0.42012179 0.7352131 0.62562335
0.40161455 0.65262365 0.50995314
0.3846691 0.57700366 0.40404403
0.36909705 0.50750852 0.30671883
0.35473546 0.4434194 0.21695882
0.34144965 0.38413084 0.13392261
0.32912308 0.32912302 0.056881607
0.31765652 0.27794948 -0.0147845
0.30696109 0.23022079 -0.081630886
0.30291429 0.18932143 -0.10692327
0.3059755 0.15298778 -0.087790936
0.45335481 0.17000806 0.8333298
0.45335481 0.11333871 0.83332992
0.45335683 0.056669593 0.83334255
0.45335683 -0 0.83334249
0.45335683 -0.056669533 0.83334279
0.45335683 -0.11333919 0.83334255
0.45335683 -0.17000887 0.83334261
0.45335683 -0.22667819 0.83334255
0.45335683 -0.28334811 0.83334255
0.45335889 -0.34001932 0.83335531
0.45335889 -0.39668906 0.83335507
0.45335889 -0.4533588 0.83335531
0.45335889 -0.51002872 0.83335525
0.45335889 -0.56669867 0.83335525
0.45335889 -0.62336832 0.83335519
0.45336094 -0.68004137 0.83336794
0.45336094 -0.7367115 0.83336812
0.45336094 -0.79338169 0.83336812
0.45336094 -0.85005176 0.83336794
0.45336094 -0.90672171 0.83336794
0.41860425 -0.88953412 0.61613894
0.39330336 -0.88493252 0.45800829
0.39847493 -0.94637787 0.49033052
0.51320875 0.9123711 0.85102189
0.48875475 0.81459129 0.71516627
0.46652323 0.72570288 0.59165794
0.44622618 0.64454901 0.47889668
0.42762163 0.57016224 0.37553799
0.41050786 0.50173193 0.28046155
0.39470977 0.43856639 0.19269435
0.38008261 0.38008267 0.11143234
0.36650079 0.32577854 0.03597793
0.35385728 0.2752223 -0.034264013
0.3426522 0.22843474 -0.096514344
0.34613636 0.19229794 -0.077158086
0.49877447 0.22167757 0.77083147
0.49877447 0.16625834 0.77083153
0.49877664 0.11083931 0.77084368
0.49877664 0.055419534 0.77084351
0.49877664 2.9802322e-08 0.77084374
0.49877664 -0.055419594 0.7708438
0.49877664 -0.11083934 0.77084363
0.49877664 -0.1662589 0.77084363
0.49877882 -0.22167951 0.77085578
0.49877882 -0.27709934 0.77085572
0.49877882 -0.33251923 0.7708559
0.49877882 -0.3879391 0.77085578
0.49877882 -0.44335896 0.77085572
0.49877882 -0.49877891 0.7708559
0.49878103 -0.55420113 0.77086794
0.49878103 -0.60962123 0.77086794
0.49878103 -0.66504127 0.770868
0.49878103 -0.72046143 0.77086788
0.49878103 -0.77588159 0.77086806
0.49878103 -0.83130181 0.770868
0.49878103 -0.88672185 0.77086806
0.49878326 -0.94214612 0.77088034
0.45533508 -0.91067016 0.52950156
0.45759454 -0.96603286 0.54205418
0.56223142 0.89957023 0.81101918
0.53579742 0.8036961 0.67884922
0.51173955 0.71643543 0.55856013
0.48974738 0.63667148 0.4485991
0.46956757 0.56348103 0.34770012
0.45098495 0.49608335 0.25478691
0.43381858 0.43381861 0.16895534
0.41790977 0.37611878 0.089411125
0.40312651 0.32250124 0.015494764
0.38935339 0.27254736 -0.053370729
0.38674513 0.23204716 -0.066412181
0.39073434 0.19536713 -0.046465985
0.54223603 0.2168943 0.71104228
0.54223603 0.16267085 0.71104246
0.54223603 0.10844707 0.71104228
0.54223603 0.054223567 0.71104217
0.54223603 2.9802322e-08 0.71104252
0.54223603 -0.054223478 0.7110424
0.54223603 -0.10844722 0.71104223
0.5422383 -0.16267145 0.71105397
0.5422383 -0.21689516 0.71105409
0.5422383 -0.27111909 0.71105385
0.5422383 -0.32534295 0.71105397
0.5422383 -0.3795667 0.71105397
0.5422383 -0.43379056 0.71105385
0.54224068 -0.48801664 0.71106577
0.54224068 -0.54224062 0.71106565
0.54224068 -0.59646463 0.71106565
0.54224068 -0.65068883 0.71106553
0.54224068 -0.70491284 0.71106559
0.54224068 -0.75913709 0.71106583
0.542243 -0.81336451 0.71107721
0.542243 -0.86758882 0.71107733
0.542243 -0.92181301 0.71107721
0.542243 -0.97603738 0.71107727
0.51921982 -0.98651749 0.59596121
0.52643549 -1.052871 0.63203979
0.58160079 0.79309201 0.64350218
0.55581558 0.70740163 0.52629668
0.53221762 0.62898451 0.41903332
0.5105418 0.55695468 0.32050705
0.49056253 0.4905625 0.229692
0.47208968 0.42917252 0.14572449
0.45495611 0.37223679 0.067844674
0.43902263 0.31928915 -0.0045803189
0.42780763 0.27224123 -0.055557631
0.43224952 0.23577246 -0.035367146
0.5838567 0.26538932 0.6537565
0.5838567 0.21231155 0.65375662
0.58385915 0.15923427 0.6537677
0.58385915 0.10615629 0.6537677
0.58385915 0.053078204 0.65376782
0.58385915 -5.9604645e-08 0.6537677
0.58385915 -0.053078026 0.6537677
0.58385915 -0.1061562 0.6537677
0.58386165 -0.15923509 0.65377879
0.58386165 -0.21231335 0.65377885
0.58386165 -0.26539177 0.65377891
0.58386165 -0.31847012 0.65377891
0.58386165 -0.37154841 0.65377891
0.58386409 -0.42462838 0.65379
0.58386409 -0.47770712 0.65379006
0.58386409 -0.53078538 0.65378988
0.58386409 -0.58386409 0.65379006
0.58386409 -0.63694263 0.65379006
0.58386409 -0.6900211 0.65379
0.58386654 -0.74310285 0.65380126
0.58386654 -0.79618162 0.6538012
0.58386654 -0.84926045 0.6538012
0.58386654 -0.90233922 0.6538012
0.58386654 -0.95541811 0.6538012
0.58386654 -1.0084966 0.65380108
0.59180254 -1.0760047 0.68987405
0.62621123 0.78276402 0.60907573
0.59879154 0.69859016 0.49482706
0.57367456 0.6214807 0.3901729
0.55057788 0.55057788 0.29393661
0.52926898 0.48516303 0.20514952
0.50954801 0.42462343 0.12297904
0.49124551 0.36843407 0.046718672
0.4742108 0.31614053 -0.024259418
0.47424051 0.2766403 -0.024135537
0.47923732 0.23961861 -0.0033156052
0.6237576 0.25989896 0.5988521
0.6237576 0.20791915 0.59885216
0.6237576 0.15593942 0.59885204
0.62376016 0.10396002 0.59886271
0.62376016 0.051979899 0.59886271
0.62376016 -0 0.59886301
0.62376016 -0.051979989 0.59886295
0.62376016 -0.1039601 0.59886289
0.62376016 -0.15594 0.59886283
0.62376273 -0.20792094 0.59887356
0.62376273 -0.25990117 0.59887362
0.62376273 -0.3118813 0.59887356
0.62376273 -0.3638615 0.59887362
0.62376273 -0.41584182 0.59887362
0.62376273 -0.46782207 0.5988735
0.62376529 -0.51980442 0.59888434
0.62376529 -0.57178479 0.5988844
0.62376529 -0.62376529 0.59888434
0.62376529 -0.67574567 0.5988844
0.62376529 -0.72772616 0.59888434
0.62376785 -0.77970982 0.59889489
0.62388366 -0.83184475 0.59937751
0.63256288 -0.89613062 0.63554072
0.64148688 -0.96223032 0.67272443
0.66967469 0.77270156 0.57553428
0.64071256 0.68999815 0.46414149
0.61415398 0.61415392 0.36199301
0.58970743 0.54434538 0.26796782
0.56713259 0.47988129 0.18114145
0.54622239 0.42017102 0.10071774
0.52680099 0.36470836 0.02602002
0.51670957 0.3179751 -0.012793392
0.52219039 0.2811794 0.0082866102
0.66204095 0.30555734 0.54617345
0.66204095 0.2546311 0.54617351
0.66204095 0.20370495 0.54617357
0.66204095 0.15277854 0.54617345
0.66204095 0.10185249 0.54617351
0.66204363 0.050926417 0.54618371
0.66204363 -5.9604645e-08 0.54618382
0.66204363 -0.050926402 0.54618382
0.66204363 -0.10185288 0.54618376
0.66204363 -0.1527793 0.54618382
0.66204363 -0.20370571 0.54618388
0.66204631 -0.25463313 0.54619408
0.66204631 -0.30555987 0.54619414
0.66204631 -0.35648641 0.54619402
0.66204631 -0.4074131 0.54619402
0.66204631 -0.45833975 0.54619414
0.66204631 -0.50926626 0.54619408
0.66204894 -0.56019539 0.54620457
0.66204894 -0.61112201 0.54620433
0.66267288 -0.66267282 0.54860407
0.67170918 -0.72337908 0.583359
0.68099535 -0.7857638 0.61907506
0.71203494 0.76289451 0.54284406
0.68161494 0.68161488 0.43420121
0.65368766 0.60699582 0.33446121
0.62796104 0.53825223 0.24258012
0.60418069 0.47471339 0.15765047
0.58213574 0.41581124 0.078918308
0.56164283 0.36105597 0.0057293326
0.56564367 0.32322493 0.020018175
0.69880038 0.34940031 0.49557796
0.69880038 0.29948595 0.49557817
0.69880319 0.24957258 0.49558794
0.69880319 0.19965808 0.49558794
0.69880319 0.14974348 0.49558789
0.69880319 0.099829048 0.495588
0.69880319 0.049914539 0.49558786
0.69880593 -1.0430813e-07 0.49559778
0.69880593 -0.049914777 0.49559778
0.69880593 -0.099829465 0.49559778
0.69880593 -0.14974412 0.49559784
0.69880593 -0.19965889 0.49559772
0.69880593 -0.24957357 0.49559778
0.69880873 -0.29948947 0.49560767
0.69880873 -0.34940439 0.49560773
0.69880873 -0.39931935 0.49560764
0.69880873 -0.44923416 0.49560764
0.69997585 -0.49998283 0.49977615
0.70933264 -0.55733269 0.53319311
0.71894884 -0.61624181 0.56753683
0.75333339 0.75333327 0.51097339
0.72153533 0.67343295 0.40497994
0.69231296 0.60000449 0.30757201
0.66536778 0.53229433 0.21775496
0.64043933 0.46965545 0.13466005
0.6173113 0.41154087 0.057566687
0.60960752 0.36576459 0.031887382
0.61621672 0.32864901 0.053917855
0.73413038 0.34259424 0.4469637
0.73413038 0.29365218 0.44696355
0.73413038 0.24471009 0.44696343
0.73413324 0.1957688 0.44697303
0.73413324 0.14682664 0.44697315
0.73413324 0.097884476 0.44697309
0.73413324 0.048942059 0.44697297
0.73413324 5.9604645e-08 0.44697309
0.73413604 -0.048942447 0.44698247
0.73413604 -0.0978847 0.4469825
0.73413604 -0.1468273 0.4469825
0.73413604 -0.19576956 0.44698256
0.73413604 -0.24471207 0.44698247
0.73413604 -0.29365438 0.44698259
0.73587644 -0.34340906 0.4527837
0.74552578 -0.39761379 0.48494825
0.75543761 -0.45326251 0.51798773
0.79360944 0.74400896 0.47989181
0.76050872 0.66544515 0.37645188
0.73005861 0.59317261 0.28129536
0.70195299 0.52646482 0.19346549
0.67593348 0.46470433 0.11215426
0.65408683 0.4088043 0.043883592
0.66122484 0.37193906 0.066189945
0.76811028 0.38405511 0.4002068
0.76811028 0.33604822 0.40020683
0.76811028 0.28804138 0.40020686
0.76811028 0.24003445 0.4002068
0.76811028 0.19202745 0.40020683
0.76811314 0.14402121 0.40021592
0.76811314 0.096014246 0.40021604
0.76811314 0.048006997 0.40021595
0.76811314 5.9604645e-08 0.40021586
0.76811314 -0.048007056 0.40021598
0.76811314 -0.096014142 0.40021592
0.76811612 -0.14402175 0.4002251
0.7704522 -0.1926131 0.40752542
0.78036618 -0.24386445 0.43850666
0.79054171 -0.29645309 0.47030511
0.79856837 0.65764451 0.3485927
0.76695436 0.58649445 0.25561035
0.73774809 0.5207634 0.16970971
0.71068704 0.45985642 0.090118155
0.70677644 0.4157508 0.078616515
0.71461487 0.37832546 0.10167065
0.80081594 0.37685442 0.35520327
0.80081594 0.32974783 0.35520339
0.80081594 0.28264078 0.35520324
0.80081594 0.2355341 0.35520327
0.80081594 0.18842731 0.35520342
0.80081594 0.14132054 0.35520336
0.80081898 0.09421397 0.35521212
0.80081898 0.047107115 0.35521215
0.80081898 -0 0.35521209
0.80377525 -0.047280908 0.3639071
0.81392825 -0.095756292 0.39376897
0.82434416 -0.14547251 0.42440403
0.83574599 0.65002459 0.32137892
0.80302858 0.579965 0.23049702
0.77277619 0.51518404 0.14646274
0.7528742 0.46008989 0.091179624
0.76128 0.4229334 0.11452892
0.83231485 0.41615731 0.31184787
0.83231485 0.36991772 0.31184795
0.83231783 0.32367921 0.31185642
0.83231783 0.27743921 0.31185636
0.83231783 0.23119931 0.31185624
0.83231783 0.18495956 0.31185633
0.83231783 0.13871972 0.3118563
0.83591235 0.092879176 0.32184094
0.84628111 0.047015637 0.35064304
0.85691351 4.4703484e-08 0.38017762
0.8720721 0.64257938 0.29478884
0.83830845 0.57357943 0.20593695
0.80706173 0.50972307 0.12370895
0.80851692 0.46808875 0.1275384
0.86267811 0.45404106 0.27006775
0.86267811 0.40863696 0.27006775
0.86267811 0.36323294 0.27006784
0.86267811 0.31782871 0.27006781
0.86268121 0.27242571 0.27007601
0.86692572 0.22813831 0.28124571
0.87748885 0.18473452 0.30904353
0.88831586 0.14026043 0.33753571
0.90757209 0.63530052 0.26879269
0.87281984 0.56733292 0.18191186
0.85633862 0.51380306 0.14070871
0.86612558 0.47636908 0.16517638
0.89196348 0.44598174 0.22977087
0.89196348 0.40138367 0.22977106
0.89687335 0.35874927 0.24204549
0.90761137 0.31766403 0.26889062
0.91861296 0.27558389 0.2963948
0.94228029 0.62818682 0.24338676
0.90658456 0.5612191 0.15839706
0.91516155 0.52294934 0.1788182
0.9258092 0.48494762 0.20416977
0.9367075 0.44605124 0.23011822
0.94786215 0.40622663 0.25667661
0.97621977 0.62123084 0.21854357
0.96481919 0.57012063 0.19263342
0.97611666 0.53242737 0.21830931
