# .PCD v0.7 - Point Cloud Data file format
VERSION 0.7
FIELDS x y z
SIZE 4 4 4
TYPE F F F
COUNT 1 1 1
WIDTH 1334
HEIGHT 1
VIEWPOINT 0 0 0 1 0 0 0
POINTS 1334
DATA ascii
-0.98109621 -0.3839072 0.13268009
-0.96794891 -0.42084739 0.10409915
-0.95514941 -0.45681047 0.076273888
-0.94268382 -0.49183515 0.049175009
-0.93053955 -0.52595717 0.022774354
-0.91870415 -0.55921125 -0.0029548705
-0.91800582 -0.59869939 -0.0044728518
-1.0938822 0.099443868 0.48595822
-1.0768332 0.048947051 0.44721067
-1.0603077 -4.4703484e-08 0.40965241
-1.0442816 -0.047467351 0.3732295
-1.0287327 -0.093521208 0.33789128
-1.01364 -0.13822356 0.30358985
-0.99898404 -0.18163335 0.27028048
-0.98474562 -0.22380584 0.23792061
-0.97090745 -0.26479298 0.20647019
-0.95745605 -0.30464509 0.17589885
-0.9443692 -0.34340695 0.14615574
-0.93163514 -0.38112342 0.11721489
-0.91923994 -0.41783625 0.089043975
-0.90717036 -0.45358509 0.061612949
-0.89541352 -0.48840737 0.034892857
-0.88395745 -0.52233839 0.0088565946
-0.87279367 -0.55541414 -0.016515702
-0.88542253 -0.60369706 0.012186289
-1.1840454 0.56383109 0.81901807
-1.1631626 0.49849838 0.76929706
-1.1430036 0.43542993 0.72129941
-1.1235315 0.37451056 0.67493725
-1.1047117 0.31563193 0.63012803
-1.086512 0.25869334 0.58679539
-1.0689021 0.20360047 0.5448674
-1.0518541 0.15026473 0.50427687
-1.0353414 0.098604009 0.46496078
-1.0193429 0.048540235 0.42686933
-1.0038277 5.9604645e-08 0.38992813
-0.98877764 -0.04708457 0.35409454
-0.97417217 -0.092778161 0.31931967
-0.95999181 -0.13714164 0.28555715
-0.94621849 -0.18023205 0.25276339
-0.93283474 -0.22210351 0.22089732
-0.91982436 -0.26280698 0.18992031
-0.90717191 -0.30239061 0.1597954
-0.89486277 -0.34090009 0.13048798
-0.88288325 -0.37837848 0.10196505
-0.87122303 -0.41486812 0.074202836
-0.85986406 -0.450405 0.047157645
-0.84879744 -0.48502705 0.020808473
-0.83801204 -0.51876932 -0.0048709214
-0.82749993 -0.5516665 -0.029899865
-0.85229069 -0.60877907 0.029125899
-1.1168745 0.55843723 0.79204828
-1.0973614 0.49381262 0.74326563
-1.0785232 0.43140927 0.69617003
-1.0603163 0.37111077 0.650653
-1.0427139 0.31281421 0.60664707
-1.0256864 0.25642169 0.56407833
-1.0092062 0.20184116 0.52287751
-0.99324703 0.14898711 0.4829801
-0.97778493 0.097778454 0.44432449
-0.96279681 0.048139825 0.40685418
-0.94826114 -2.9802322e-08 0.37051514
-0.93415791 -0.046707883 0.33525705
-0.92047143 -0.092047222 0.30104077
-0.90717685 -0.13607645 0.2678045
-0.89426094 -0.17885219 0.23551467
-0.88170761 -0.22042683 0.20413128
-0.86950183 -0.26085055 0.17361683
-0.85762936 -0.30017024 0.14393574
-0.84607679 -0.33843067 0.11505424
-0.8348313 -0.37567404 0.086940527
-0.82388085 -0.4119404 0.059564292
-0.81321388 -0.44726759 0.032896966
-0.80282217 -0.48169333 0.0069176704
-0.79269022 -0.51524866 -0.018412128
-0.78784639 -0.55149245 -0.03052178
-0.81859636 -0.61394721 0.046353012
-1.0698242 0.61937189 0.81518912
-1.050981 0.55314797 0.76560193
-1.0327901 0.48921645 0.71773118
-1.0152183 0.42746028 0.6714893
-0.99823433 0.36777052 0.62679476
-0.98180932 0.310045 0.58357084
-0.96591985 0.25418937 0.54175687
-0.95053285 0.20011216 0.50126457
-0.93562835 0.14773081 0.46204221
-0.92118412 0.096966818 0.4240309
-0.907179 0.047746241 0.38717547
-0.89359337 -4.4703484e-08 0.35142374
-0.88040864 -0.046337292 0.31672713
-0.86760736 -0.091327079 0.28303948
-0.85517293 -0.13502727 0.25031745
-0.84309298 -0.17749313 0.21852796
-0.83134657 -0.21877544 0.18761642
-0.81992298 -0.25892311 0.15755439
-0.8088091 -0.29798222 0.12830724
-0.79799253 -0.33599681 0.099842608
-0.78746134 -0.37300798 0.072129056
-0.77720463 -0.40905499 0.04513748
-0.76721406 -0.44417664 0.018846542
-0.75747466 -0.47840503 -0.0067834258
-0.74798179 -0.51177704 -0.031764686
-0.75461489 -0.556032 -0.014309049
-0.78432494 -0.61920387 0.063875377
-1.0038393 0.61345738 0.78830457
-0.98632413 0.54795784 0.73965168
-0.96940976 0.48470488 0.69266737
-0.95306587 0.42358467 0.64726728
-0.93726379 0.3644914 0.60337281
-0.92197728 0.30732563 0.56091011
-0.90718138 0.2519947 0.51981044
-0.89285284 0.19841167 0.48000896
-0.87896985 0.1464949 0.44144523
-0.86551535 0.096168339 0.40407145
-0.8524633 0.04735902 0.36781579
-0.83979905 -2.9802322e-08 0.33263749
-0.82750559 -0.045972615 0.29848891
-0.8155669 -0.090618491 0.26532575
-0.80396777 -0.13399458 0.23310596
-0.79269391 -0.17615417 0.20178972
-0.78173184 -0.21714772 0.17133963
-0.77106887 -0.25702289 0.14172025
-0.7606954 -0.29582602 0.11290503
-0.75059485 -0.33359769 0.084848017
-0.74075907 -0.37037969 0.057526365
-0.73117775 -0.40620983 0.030911505
-0.7218433 -0.44112647 0.0049826056
-0.71274203 -0.47516131 -0.020298824
-0.70386958 -0.50835025 -0.04494448
-0.72083181 -0.56064689 0.0021728575
-0.74946165 -0.62455136 0.081700116
-0.95591283 0.67476195 0.81137061
-0.93909842 0.60765195 0.76191658
-0.92286932 0.54286444 0.71418393
-0.90718776 0.48027581 0.66806161
-0.89203024 0.41977894 0.62348068
-0.87737095 0.36127025 0.58036494
-0.86318564 0.30465382 0.53864348
-0.84945172 0.24983872 0.49824965
-0.83614796 0.19674078 0.45912117
-0.82325453 0.14528015 0.42119926
-0.81075275 0.095382705 0.38442901
-0.79862785 0.046978086 0.34876776
-0.78685749 1.4901161e-08 0.3141489
-0.77542895 -0.045613453 0.28053567
-0.7643277 -0.089920849 0.24788488
-0.75353974 -0.13297766 0.21615577
-0.74305218 -0.17483589 0.18530975
-0.73285246 -0.21554488 0.15531068
-0.722929 -0.25515142 0.12612398
-0.71327072 -0.29369971 0.09771724
-0.70386702 -0.33123147 0.070059426
-0.69471037 -0.36778778 0.043127969
-0.68578672 -0.40340397 0.016881928
-0.67709148 -0.43811798 -0.0086921155
-0.66861194 -0.47196132 -0.03363201
-0.66104501 -0.50550497 -0.055887565
-0.71945024 -0.59248841 0.11589245
-0.71399087 -0.62999201 0.099835575
-0.89110279 0.66832709 0.78455842
-0.8755753 0.60195798 0.73603493
-0.86057961 0.53786218 0.6891737
-0.84608901 0.47592497 0.64389038
-0.83208174 0.4160409 0.60011768
-0.81852734 0.35810566 0.5577603
-0.80540752 0.3020277 0.51676071
-0.7927016 0.2477193 0.47705483
-0.78039032 0.19509758 0.43858212
-0.76845568 0.14408547 0.40128624
-0.75688052 0.09461008 0.36511388
-0.74564892 0.046603039 0.33001506
-0.73474574 7.4505806e-08 0.29594278
-0.72415692 -0.045259811 0.26285249
-0.71387142 -0.089233957 0.2307104
-0.70387155 -0.1319759 0.1994608
-0.694148 -0.17353702 0.16907467
-0.6846894 -0.21396542 0.13951665
-0.67548513 -0.25330696 0.11075332
-0.66652501 -0.29160464 0.082753077
-0.65780169 -0.32890081 0.05549261
-0.64930165 -0.3652322 0.028929859
-0.64102048 -0.40063775 0.0030512512
-0.6329459 -0.4351503 -0.022181764
-0.62507421 -0.46880561 -0.046780959
-0.62721485 -0.50961208 -0.04009144
-0.68763131 -0.60167742 0.14871015
-0.67945689 -0.63699079 0.12316501
-0.82751721 0.66201377 0.75825316
-0.81323159 0.59636986 0.71063429
-0.79943079 0.53295386 0.66463143
-0.78609055 0.47165433 0.62016416
-0.77318829 0.41236717 0.57715654
-0.76070267 0.35499448 0.53553772
-0.74861389 0.29944536 0.49524194
-0.73690623 0.24563555 0.45621651
-0.72555631 0.19348174 0.41838336
-0.71455073 0.14291018 0.38169801
-0.70387405 0.093849838 0.34610909
-0.69351172 0.046234161 0.31156787
-0.68345004 4.4703484e-08 0.27802914
-0.67367613 -0.04491175 0.24544938
-0.66417789 -0.08855705 0.2137886
-0.65494376 -0.13098869 0.18300812
-0.64596504 -0.17225729 0.15307906
-0.637227 -0.21240894 0.12395237
-0.62872225 -0.25148886 0.095603183
-0.62044156 -0.2895394 0.068000726
-0.61237806 -0.32660159 0.041122541
-0.60451961 -0.36271167 0.014927611
-0.59686214 -0.39790815 -0.010597333
-0.58939439 -0.43222255 -0.035489768
-0.58211297 -0.46569034 -0.059761077
-0.59283042 -0.51378638 -0.024036393
-0.65480989 -0.61115581 0.18256177
-0.64690447 -0.64690459 0.15621062
-0.77867228 0.72305286 0.78083473
-0.7651217 0.65581858 0.73243982
-0.75203472 0.59088433 0.68570036
-0.73938787 0.52813435 0.64053327
-0.72715932 0.46745959 0.59685987
-0.71532875 0.40875927 0.55460775
-0.70387691 0.35193852 0.51370835
-0.69278598 0.29690829 0.47409791
-0.68203914 0.24358535 0.43571612
-0.67162061 0.19189158 0.39850742
-0.66151559 0.14175349 0.36241812
-0.6517126 0.093101762 0.3274073
-0.6421935 0.045870982 0.29341048
-0.63294852 -1.4901161e-08 0.26039261
-0.62396592 -0.044568978 0.22831202
-0.61523473 -0.08789067 0.19712919
-0.60674453 -0.13001662 0.16680703
-0.59848547 -0.17099588 0.13731022
-0.59045017 -0.21087502 0.10861285
-0.58262587 -0.24969676 0.080668941
-0.57500809 -0.28750402 0.053462647
-0.56758517 -0.32433432 0.026952147
-0.56035316 -0.36022705 0.0011237115
-0.55330145 -0.39521527 -0.024061158
-0.54642671 -0.42933524 -0.048613861
-0.53971899 -0.46261626 -0.072569743
-0.55788684 -0.51803774 -0.0076847076
-0.62093562 -0.62093568 0.21748942
-0.61332279 -0.65713149 0.19030093
-0.62970245 -0.71965975 0.24879941
-0.71622849 0.71622849 0.75458711
-0.70388013 0.64973557 0.70709378
-0.69195044 0.58549654 0.66121024
-0.68042117 0.52340102 0.61686683
-0.66926712 0.46333873 0.57396644
-0.65847278 0.40521395 0.5324499
-0.64802116 0.3489345 0.49225146
-0.63789618 0.2944136 0.453309
-0.62808269 0.24157014 0.41556469
-0.61856657 0.19032812 0.37896422
-0.60933447 0.14061566 0.34345633
-0.60037392 0.09236525 0.30899277
-0.59167522 0.045513496 0.27553618
-0.58322293 -0 0.24302733
-0.57500869 -0.044231459 0.21143426
-0.56702268 -0.087234356 0.18071873
-0.55925542 -0.12905891 0.15084457
-0.55169809 -0.16975322 0.12177801
-0.54434407 -0.20936306 0.093493342
-0.53718179 -0.24793008 0.065946087
-0.53020722 -0.28549615 0.039120987
-0.52340984 -0.32209834 0.012977034
-0.5167861 -0.35777503 -0.012498826
-0.51032633 -0.39255869 -0.037344083
-0.50402766 -0.42648497 -0.061569706
-0.50308049 -0.46438199 -0.065212741
-0.59344971 -0.59344971 0.28236145
-0.5859617 -0.63103575 0.25356105
-0.57866025 -0.66768491 0.22547868
-0.59023005 -0.72643697 0.26997787
-0.65495521 0.70953476 0.7288422
-0.643767 0.64376718 0.68222505
-0.63295472 0.58020854 0.63717335
-0.62249953 0.51874954 0.59361023
-0.61238414 0.45928809 0.55146277
-0.60259461 0.40172973 0.51067328
-0.59311092 0.34598124 0.47115758
-0.58392102 0.29196042 0.4328666
-0.57501161 0.23958826 0.39574406
-0.56637001 0.18878999 0.35973725
-0.55798423 0.13949606 0.32479656
-0.54984319 0.091640487 0.29087564
-0.54193634 0.045161441 0.25793022
-0.5342536 -6.7055225e-08 0.22591892
-0.52678567 -0.043898784 0.19480254
-0.51952541 -0.086587474 0.16455151
-0.51246083 -0.12811521 0.13511574
-0.50558579 -0.1685286 0.10646982
-0.49889445 -0.20787269 0.078589126
-0.49237791 -0.24618903 0.051436789
-0.48602778 -0.28351623 0.024978086
-0.47984099 -0.31989402 -0.00080043077
-0.47380817 -0.35535616 -0.025936946
-0.46792662 -0.38993889 -0.0504435
-0.46218792 -0.4236722 -0.074354783
-0.46813664 -0.46813661 -0.049568325
-0.55697525 -0.60338986 0.32059249
-0.54983121 -0.64146984 0.29082572
-0.54286814 -0.67858505 0.26181266
-0.55000716 -0.73334277 0.29155871
-0.60523778 0.77030259 0.75094306
-0.59481663 0.70296496 0.70357412
-0.58474821 0.63790721 0.65780884
-0.57501507 0.57501507 0.61356699
-0.56560057 0.51418227 0.57077378
-0.55648941 0.45530945 0.52935946
-0.54766709 0.39830342 0.48925829
-0.53912014 0.3430765 0.45040858
-0.53083593 0.28954688 0.41275275
-0.52280438 0.23763829 0.3762458
-0.5150103 0.18727645 0.34081814
-0.50744528 0.13839415 0.30643171
-0.50009924 0.090927221 0.27304065
-0.49296287 0.044814914 0.24060255
-0.48602727 7.4505806e-09 0.20907724
-0.47928417 -0.043571167 0.17842661
-0.47272721 -0.08595036 0.14862226
-0.46634564 -0.12718524 0.11961512
-0.46013561 -0.16732207 0.091387734
-0.45408732 -0.2064034 0.063895501
-0.44819742 -0.24447128 0.0371233
-0.44245696 -0.28156349 0.011030227
-0.43686303 -0.31771854 -0.014396593
-0.43140745 -0.35296971 -0.039194778
-0.42608777 -0.38735253 -0.063375086
-0.42089638 -0.42089644 -0.086972356
-0.4326272 -0.47195691 -0.033650428
-0.51925808 -0.6136685 0.36012602
-0.5124858 -0.6522547 0.3293432
-0.50588799 -0.68984729 0.29935294
-0.50901216 -0.74038136 0.31355399
-0.5450784 0.7631098 0.7252543
-0.5357815 0.69651592 0.67876971
-0.5267942 0.63215303 0.63383317
-0.51810342 0.56991369 0.5903793
-0.50969476 0.5096947 0.54833603
-0.50155473 0.45139924 0.50763583
-0.49367052 0.39493635 0.46821475
-0.48603037 0.34022129 0.43001422
-0.47862315 0.28717393 0.39297798
-0.47143829 0.23571913 0.35705367
-0.46446592 0.18578622 0.32219175
-0.4576968 0.13730909 0.28834629
-0.45112377 0.090224788 0.25548112
-0.44473529 0.044473492 0.22353864
-0.43852523 -2.2351742e-08 0.19248837
-0.43248621 -0.043248571 0.16229326
-0.42661268 -0.085322589 0.1329256
-0.42089516 -0.12626846 0.10433809
-0.41533023 -0.166132 0.07651338
-0.40990919 -0.20495465 0.049408205
-0.40462917 -0.2427775 0.023008101
-0.39948216 -0.27963743 -0.0027268827
-0.39446568 -0.31557259 -0.027809232
-0.38957241 -0.35061514 -0.052275538
-0.38480029 -0.3848002 -0.076136485
-0.38208789 -0.42029667 -0.089698404
-0.48677567 -0.58413064 0.43374038
-0.4802317 -0.62430114 0.40102077
-0.47386318 -0.66340852 0.36917812
-0.46765959 -0.70148939 0.33816016
-0.46722266 -0.74755633 0.33597583
-0.49453819 0.82423055 0.74729687
-0.48603415 0.75605309 0.70005208
-0.47781765 0.69018102 0.65440482
-0.46987438 0.62649918 0.61027539
-0.46219084 0.56489974 0.5675891
-0.45475638 0.50528473 0.52628648
-0.44755551 0.44755551 0.48628184
-0.44057918 0.39162597 0.44752446
-0.43381697 0.33741334 0.40995663
-0.42725921 0.28483936 0.37352452
-0.42089677 0.23383158 0.33817759
-0.41472101 0.18432045 0.30386785
-0.40872389 0.13624133 0.27055043
-0.40289772 0.089532867 0.23818287
-0.3972367 0.044137485 0.20673282
-0.39173123 -1.4901161e-08 0.17614682
-0.38637626 -0.042930756 0.14639702
-0.38116702 -0.084703736 0.11745675
-0.37609512 -0.12536499 0.089279592
-0.37115762 -0.16495895 0.061849087
-0.36634693 -0.20352608 0.035123028
-0.36166048 -0.24110691 0.0090872124
-0.35709244 -0.27773854 -0.016290858
-0.35263723 -0.31345525 -0.04104194
-0.34829292 -0.34829289 -0.065177113
-0.34405327 -0.38228133 -0.088730633
-0.34662503 -0.42365283 -0.074443117
-0.44593146 -0.59457529 0.47725928
-0.43983087 -0.63531119 0.44336706
-0.43389499 -0.67494786 0.41038987
-0.42811877 -0.7135312 0.37829983
-0.42461848 -0.75487721 0.35885382
-0.43549201 0.81654739 0.7216872
-0.42807195 0.74912584 0.67531186
-0.42090049 0.68396318 0.63049042
-0.4139654 0.6209482 0.58714592
-0.40725511 0.5599758 0.54520661
-0.40075889 0.50094861 0.50460535
-0.39446667 0.44377488 0.46527901
-0.38837048 0.38837054 0.42717782
-0.38245842 0.33465105 0.39022714
-0.37672362 0.28254274 0.35438487
-0.37115827 0.23197396 0.31960151
-0.36575496 0.18287753 0.28583077
-0.36050671 0.13519004 0.25302929
-0.35540694 0.088851735 0.22115573
-0.35045069 0.043806411 0.19017908
-0.34562957 -5.9604645e-08 0.16004699
-0.34094045 -0.042617537 0.13074
-0.33637571 -0.084093928 0.10221063
-0.33193272 -0.1244748 0.07444182
-0.3276045 -0.16380228 0.047390401
-0.32338873 -0.20211798 0.021041915
-0.31927907 -0.23945928 -0.0046434999
-0.31527355 -0.27586433 -0.029678121
-0.31136632 -0.31136632 -0.054098219
-0.30755568 -0.34600013 -0.0779147
-0.30383629 -0.37979531 -0.10116105
-0.31059033 -0.42706165 -0.058948129
-0.40360004 -0.60540009 0.52236265
-0.39797947 -0.64671654 0.48723382
-0.39251328 -0.68689823 0.4530701
-0.3871952 -0.72599113 0.41983223
-0.38202077 -0.7640416 0.38749212
-0.37753642 0.80900651 0.69655079
-0.37116221 0.74232441 0.65102082
-0.36499971 0.67785668 0.60700297
-0.35903847 0.61549443 0.56442261
-0.35326883 0.5551368 0.52321112
-0.3476817 0.49668816 0.48330298
-0.34226853 0.44005966 0.4446376
-0.33702135 0.38516733 0.40715772
-0.3319326 0.33193249 0.37080947
-0.32699525 0.28028175 0.33554274
-0.32220381 0.23014548 0.30131814
-0.31754962 0.18145689 0.26807392
-0.31302798 0.13415483 0.23577642
-0.3086333 0.088180915 0.20438579
-0.30436134 0.043480176 0.17387183
-0.30020499 -2.2351742e-08 0.14418375
-0.29616168 -0.042308841 0.11530274
-0.29222482 -0.083492726 0.08718244
-0.28839222 -0.12359666 0.059806682
-0.28465793 -0.16266172 0.033133134
-0.28101999 -0.20072854 0.0071479008
-0.277473 -0.23783401 -0.018187717
-0.27401528 -0.27401525 -0.04288578
-0.27064183 -0.30930501 -0.066981651
-0.26735127 -0.34373736 -0.090485781
-0.26413897 -0.37734133 -0.11343074
-0.36494684 -0.57348794 0.60662544
-0.35969868 -0.61662614 0.56913853
-0.35459793 -0.65853894 0.53270435
-0.34963977 -0.69927955 0.49728921
-0.34481838 -0.73889661 0.46285072
-0.34012946 -0.77743876 0.42935842
-0.32619068 0.86984181 0.71811795
-0.32064012 0.80160028 0.67186308
-0.31527528 0.73564219 0.62715602
-0.31008828 0.67185789 0.58393109
-0.30506796 0.61013603 0.54209536
-0.30020761 0.55038053 0.50159216
-0.29549968 0.49249941 0.4623597
-0.29093719 0.43640575 0.42433876
-0.28651339 0.38201788 0.38747385
-0.28222212 0.32925916 0.35171333
-0.27805752 0.27805746 0.31700829
-0.27401406 0.22834501 0.28331247
-0.27008742 0.1800583 0.25059077
-0.26627082 0.13313536 0.21878582
-0.2625615 0.087520532 0.18787464
-0.25895321 0.043158848 0.15780565
-0.2554436 2.9802322e-08 0.12855904
-0.252027 -0.042004481 0.10008746
-0.24870147 -0.082900569 0.072374441
-0.24546172 -0.12273083 0.045376446
-0.24230605 -0.16153741 0.019079462
-0.23922977 -0.19935822 -0.0065564066
-0.23623133 -0.23623142 -0.03154327
-0.23330642 -0.27219087 -0.055917509
-0.23045376 -0.30727166 -0.079689734
-0.22766931 -0.34150398 -0.10289346
-0.22817288 -0.38028812 -0.098696992
-0.31880969 -0.5844844 0.65660983
-0.31413838 -0.62827671 0.61768228
-0.30960074 -0.67080164 0.5798685
-0.30519232 -0.71211541 0.54313153
-0.30090767 -0.75226909 0.5074262
-0.29674166 -0.79131103 0.47270939
-0.26931849 0.86181903 0.69304699
-0.26477721 0.79433167 0.64763439
-0.26038656 0.72908247 0.60372806
-0.25613913 0.6659618 0.56125385
-0.25202808 0.60486728 0.52014291
-0.2480469 0.54570317 0.48033109
-0.24419047 0.488381 0.44176701
-0.2404512 0.43281218 0.40437427
-0.23682472 0.37891954 0.36810958
-0.23330602 0.32662839 0.33292258
-0.22989035 0.27586845 0.29876581
-0.22657323 0.22657327 0.26559466
-0.22335128 0.17868097 0.23337519
-0.22021891 0.13213137 0.20205143
-0.21717393 0.086869672 0.17160156
-0.21421129 0.042842306 0.14197513
-0.21132909 2.6077032e-08 0.11315322
-0.20852272 -0.041704476 0.085089587
-0.20579061 -0.08231625 0.0577683
-0.20312849 -0.12187707 0.031147163
-0.20053501 -0.16042803 0.0052123293
-0.19800629 -0.19800624 -0.020074859
-0.19554117 -0.23464948 -0.044726051
-0.19313608 -0.27039063 -0.06877698
-0.19079 -0.305264 -0.092237674
-0.18849969 -0.33929944 -0.11514097
-0.19165462 -0.38330925 -0.083591506
-0.27086863 -0.59591103 0.70854855
-0.26682219 -0.64037329 0.66808432
-0.262896 -0.68352962 0.62882233
-0.25908259 -0.72543126 0.59068829
-0.25537825 -0.76613492 0.55364484
-0.25177833 -0.80569071 0.51764566
-0.25758508 -0.8757894 0.57571316
-0.21348578 0.85394305 0.66843456
-0.20991831 0.7871936 0.62384129
-0.20646812 0.72263843 0.58071381
-0.20312952 0.66017085 0.53898108
-0.19989714 0.59969139 0.49857664
-0.19676603 0.54110664 0.45943803
-0.19373152 0.48432887 0.42150632
-0.19078918 0.42927572 0.38472709
-0.18793556 0.37587118 0.34905675
-0.18516538 0.32403949 0.3144294
-0.18247567 0.27371347 0.28080806
-0.17986299 0.22482869 0.2481496
-0.17732468 0.17732465 0.21642078
-0.17485641 0.1311423 0.18556756
-0.17245652 0.086228244 0.15556878
-0.17012161 0.042530403 0.12638229
-0.16784851 -4.8428774e-08 0.097968683
-0.1656359 -0.041408956 0.070311137
-0.16348036 -0.081740133 0.043366518
-0.16138068 -0.12103558 0.017120846
-0.15933377 -0.15933377 -0.0084655657
-0.15733862 -0.1966733 -0.033404954
-0.15539233 -0.23308849 -0.057733469
-0.15349409 -0.26861465 -0.081461504
-0.1516412 -0.30328238 -0.10462273
-0.14983296 -0.33712417 -0.12722564
-0.15455766 -0.38639414 -0.068167046
-0.22101568 -0.60779315 0.76255822
-0.21764916 -0.65294749 0.72047693
-0.21438368 -0.69674695 0.67965829
-0.2112156 -0.73925453 0.64005733
-0.20813896 -0.78052104 0.60159916
-0.20515065 -0.8206026 0.56424534
-0.20829377 -0.8852486 0.60353434
-0.16138141 0.91449463 0.68955243
-0.15866433 0.84620982 0.64426768
-0.15603657 0.78018284 0.60047185
-0.15349445 0.71630752 0.55810308
-0.15103382 0.65447986 0.51709259
-0.14865084 0.5946033 0.47737622
-0.14634188 0.53658676 0.43889353
-0.14410356 0.48034522 0.40158844
-0.14193268 0.42579806 0.36540696
-0.13982624 0.37286994 0.33029962
-0.1377819 0.32149106 0.29622716
-0.135796 0.27159193 0.26312885
-0.133867 0.22311167 0.23097898
-0.13199158 0.17598873 0.19972196
-0.13016842 0.13016854 0.16933613
-0.12839453 0.085596308 0.13977091
-0.12666874 0.042222954 0.11100794
-0.12498831 -2.2351742e-08 0.083000869
-0.1233523 -0.041117359 0.055733979
-0.12175817 -0.081172183 0.029165128
-0.12020509 -0.12020506 0.003280513
-0.11869077 -0.15825433 -0.021958277
-0.11721449 -0.19535741 -0.046562873
-0.11577412 -0.23154822 -0.070568889
-0.11436908 -0.26686123 -0.093986407
-0.11299739 -0.30132636 -0.11684788
-0.1126674 -0.33800226 -0.12234771
-0.17184478 -0.57281595 0.86394203
-0.16913345 -0.62015611 0.8187533
-0.16650636 -0.66602534 0.77496827
-0.16395892 -0.71048868 0.73251092
-0.16148825 -0.75361186 0.69133329
-0.15909162 -0.79545814 0.65138906
-0.1567644 -0.8360768 0.61260247
-0.15792604 -0.89491427 0.63196284
-0.10660565 0.90614796 0.66500342
-0.10482646 0.83861154 0.62052369
-0.10310569 0.77329272 0.5775044
-0.1014405 0.71008348 0.53587461
-0.099828631 0.6488862 0.49557811
-0.098266803 0.5896008 0.4565323
-0.096753098 0.53214198 0.41868979
-0.095285319 0.47642651 0.38199514
-0.093861401 0.42237639 0.34639755
-0.092479423 0.36991772 0.31184795
-0.091137879 0.31898257 0.27830914
-0.08983437 0.26950312 0.24572149
-0.088567942 0.22141992 0.21406084
-0.087336421 0.1746728 0.18327278
-0.086138971 0.12920848 0.15333658
-0.084973626 0.084973656 0.12420294
-0.08383967 0.041919805 0.095854074
-0.082735315 2.6077032e-08 0.06824512
-0.081659935 -0.040829942 0.04136055
-0.080611892 -0.080611892 0.015159605
-0.079590663 -0.11938607 -0.010371175
-0.078594737 -0.15718944 -0.035269313
-0.077623673 -0.19405915 -0.059545942
-0.076676071 -0.2300282 -0.08323583
-0.075751558 -0.26513052 -0.10634876
-0.074848853 -0.29939535 -0.12891641
-0.075700819 -0.34065366 -0.10761707
-0.1169808 -0.58490396 0.92438203
-0.11509731 -0.63303512 0.8772949
-0.11327299 -0.67963791 0.83168703
-0.11150513 -0.72478324 0.78749031
-0.10979158 -0.76854104 0.74465209
-0.10812992 -0.81097436 0.70311022
-0.10651825 -0.85214603 0.66281855
-0.10644718 -0.90480089 0.6610415
-0.053724319 0.96703774 0.68607831
-0.052820724 0.8979522 0.64089835
-0.051947016 0.83115232 0.59721303
-0.051101744 0.76652616 0.55494952
-0.05028354 0.70396966 0.5140394
-0.049491122 0.64338452 0.4744184
-0.048723295 0.5846796 0.43602711
-0.047978926 0.52776825 0.39880866
-0.047257137 0.47257134 0.36271924
-0.046556573 0.41900927 0.32769096
-0.045876477 0.36701179 0.29368606
-0.045216125 0.31651294 0.26066861
-0.044574358 0.26744613 0.22858003
-0.043950703 0.21975352 0.19739743
-0.04334411 0.1733765 0.16706786
-0.042754181 0.12826258 0.13757138
-0.042180095 0.084360115 0.1088669
-0.041621082 0.041621119 0.08091633
-0.041076828 2.0489097e-08 0.053703543
-0.040546492 -0.040546507 0.027186897
-0.040029805 -0.080059618 0.0013524517
-0.039525993 -0.11857799 -0.023838047
-0.039034829 -0.15613928 -0.048396338
-0.038555603 -0.19277798 -0.07235758
-0.038088117 -0.22852862 -0.095731936
-0.03763172 -0.26342195 -0.11855175
-0.037186239 -0.29748991 -0.14082572
-0.038150955 -0.34335852 -0.092589945
-0.059751604 -0.59751588 0.98744226
-0.058768872 -0.64645773 0.93830597
-0.057817947 -0.69381523 0.89075959
-0.056897305 -0.73966503 0.84472752
-0.056005273 -0.78407383 0.80012596
-0.055140782 -0.82711172 0.75690132
-0.054302804 -0.86884499 0.71500254
-0.053818382 -0.91491252 0.69078147
0 0.95822281 0.6615923
0 0.88990337 0.61722547
0 0.82382441 0.57431346
0 0.75987703 0.53278583
0 0.69795996 0.49257672
0 0.63797808 0.45362425
0 0.57984185 0.41587049
0 0.52346766 0.3792609
0 0.4687781 0.34375274
0 0.41569531 0.30928046
0 0.36415255 0.27581576
0 0.31408122 0.24329887
0 0.26542133 0.21170595
0 0.21811208 0.18098286
0 0.17209968 0.15110907
0 0.12733026 0.12203521
0 0.083755337 0.093743742
0 0.04132656 0.066189937
0 -1.8626451e-09 0.039358482
0 -0.040266894 0.013208627
0 -0.079514638 -0.012273002
0 -0.11778077 -0.037123915
0 -0.15510264 -0.061355058
0 -0.1915136 -0.085001081
0 -0.22704783 -0.10807171
0 -0.26173547 -0.13059855
0 -0.29675531 -0.14541736
0 -0.55916929 1.1063584
0 -0.61068094 1.0532672
0 -0.6604616 1.0019603
0 -0.70859677 0.95234907
0 -0.75516695 0.904351
0 -0.80024737 0.85788858
0 -0.84390438 0.8128767
0 -0.88620746 0.76926053
0 -0.92722279 0.72698808
0.052753512 0.94956326 0.63753784
0.051882006 0.88199413 0.59396267
0.051039036 0.8166247 0.55181426
0.050222825 0.75334233 0.51100338
0.049432307 0.69205225 0.47147757
0.048666287 0.6326617 0.43317649
0.047923647 0.57508385 0.39604476
0.047203332 0.51923651 0.36002883
0.04650452 0.46504512 0.32508814
0.045825932 0.41243333 0.29115891
0.045167025 0.36133617 0.25821349
0.044526637 0.31168646 0.22619425
0.043904308 0.26342592 0.19507785
0.04329899 0.21649499 0.16481179
0.042710282 0.17084113 0.13537621
0.042137221 0.12641168 0.10672336
0.041579474 0.083158858 0.078836046
0.041036166 0.041036099 0.051670671
0.040507004 -5.7742e-08 0.025212463
0.039991185 -0.03999123 -0.0005782377
0.039488468 -0.078976959 -0.025714237
0.038998108 -0.11699428 -0.050232232
0.038519897 -0.15407959 -0.074142858
0.038053155 -0.1902658 -0.097479895
0.037597701 -0.22558625 -0.12025255
0.037152916 -0.26007038 -0.14249209
0.037381798 -0.29905438 -0.1310477
0.063554555 -0.57199097 1.1775901
0.062443919 -0.62443936 1.122058
0.061371431 -0.67508566 1.0684336
0.060335159 -0.72402179 1.01662
0.059333302 -0.77133286 0.96652728
0.058364172 -0.81709838 0.91807085
0.057426192 -0.86139286 0.87117183
0.056517635 -0.90428209 0.82574397
0.055637375 -0.94583523 0.78173095
0.10633267 1.0101603 0.65817887
0.1045625 0.94106257 0.61392486
0.10285031 0.87422758 0.57112002
0.10119329 0.80954617 0.52969456
0.099588819 0.74691606 0.48958266
0.098034427 0.68624097 0.45072317
0.096528187 0.62743306 0.41306689
0.095067173 0.5704031 0.37654158
0.093650073 0.51507533 0.34111395
0.092274264 0.46137133 0.30671886
0.090938613 0.40922385 0.27332771
0.089640766 0.35856295 0.24088134
0.088379748 0.30932906 0.20935604
0.08715342 0.26146024 0.17869788
0.085960954 0.21490233 0.14888602
0.084800385 0.16960075 0.11987188
0.083671018 0.12550645 0.091637753
0.082571067 0.082571119 0.064139031
0.081499927 0.040749945 0.037360407
0.080455959 -7.4505806e-09 0.011261279
0.079438657 -0.039719358 -0.01417132
0.078446507 -0.078446411 -0.03897503
0.077479079 -0.11621866 -0.063160814
0.076534986 -0.15306997 -0.086763039
0.075613849 -0.18903457 -0.10979155
0.074714407 -0.22414315 -0.13227764
0.073836319 -0.25842702 -0.15422973
0.075349383 -0.3013975 -0.11640313
0.13009211 -0.58541429 1.2521653
0.12776631 -0.6388315 1.1940199
0.12552282 -0.69037545 1.1379329
0.12335616 -0.74013698 1.0837663
0.12126304 -0.78820968 1.0314381
0.11923976 -0.83467841 0.98085624
0.11728289 -0.87962151 0.93193442
0.11538868 -0.92310947 0.88457936
0.11355469 -0.96521491 0.83872956
0.15806006 1.001047 0.63419658
0.15545212 0.93271267 0.59073085
0.15292884 0.86659676 0.54867637
0.15048617 0.80259287 0.50796497
0.1481203 0.74060136 0.46853396
0.14582767 0.68052918 0.43032351
0.14360547 0.62229025 0.39328688
0.14144947 0.56579787 0.35735333
0.13935775 0.51097834 0.32249141
0.13732649 0.45775485 0.2886371
0.13535409 0.40606225 0.25576383
0.13343707 0.3558321 0.2238133
0.13157405 0.30700606 0.19276306
0.12976189 0.25952369 0.16256043
0.1279994 0.2133323 0.1331856
0.12628374 0.16837832 0.10459107
0.12461385 0.12461381 0.076759808
0.12298716 0.08199136 0.049648322
0.12140278 0.040467583 0.023241948
0.11985833 9.7905286e-08 -0.002498968
0.11835305 -0.039450988 -0.027587079
0.11688474 -0.077923059 -0.052058775
0.11545277 -0.11545268 -0.075924866
0.11405512 -0.15207347 -0.099219017
0.11269124 -0.1878188 -0.12195036
0.11135927 -0.22271842 -0.1441499
0.11005873 -0.25680366 -0.16582546
0.11391835 -0.30378222 -0.10149859
0.1998288 -0.59948635 1.3303423
0.19617192 -0.65390646 1.2693943
0.19264647 -0.70637047 1.2106369
0.18924552 -0.75698191 1.1539543
0.18596254 -0.80583775 1.0992382
0.18279155 -0.85302722 1.046388
0.17972688 -0.89863431 0.99531013
0.17676327 -0.94273734 0.94591665
0.173895 -0.98540515 0.89811254
0.2088616 0.99209261 0.6106323
0.20544662 0.92450982 0.567945
0.20214069 0.8590979 0.52662081
0.19893947 0.79575801 0.48660582
0.19583808 0.7343927 0.44783804
0.19283189 0.6749115 0.41026077
0.1899173 0.61723119 0.37382865
0.18708882 0.56126648 0.33847257
0.18434404 0.50694609 0.3041628
0.18167862 0.45419645 0.270845
0.17908855 0.40294915 0.23846903
0.17657191 0.35314375 0.20701112
0.17412442 0.30471769 0.17641747
0.17174444 0.25761664 0.14666773
0.16942805 0.21178505 0.117713
0.16717389 0.16717392 0.089535914
0.16497838 0.12373376 0.062092062
0.16284031 0.081420243 0.035366189
0.16075645 0.04018908 0.0093179215
0.15872574 6.519258e-09 -0.016066011
0.1567452 -0.039186336 -0.040822659
0.15481396 -0.077407002 -0.064963199
0.15292928 -0.11469691 -0.08852189
0.15109037 -0.15109034 -0.1115082
0.1492947 -0.18661845 -0.13395384
0.14754167 -0.22131249 -0.15586677
0.1476986 -0.25847256 -0.15390532
0.26458409 -0.52916825 1.3071637
0.26458409 -0.5953142 1.3071636
0.26458272 -0.66145682 1.3071463
0.26295421 -0.72312403 1.2867899
0.25820392 -0.77461159 1.2274113
0.25362223 -0.82427222 1.17014
0.24920027 -0.87220097 1.1148658
0.24492991 -0.91848713 1.0614861
0.24080341 -0.96321362 1.0099049
0.23681366 -1.0064579 0.96003288
0.24111669 -1.085025 1.0138208
0.26309907 1.0523963 0.63085294
0.2587634 0.98330098 0.5874964
0.25456837 0.91644621 0.54554605
0.25050718 0.85172427 0.50493395
0.24657448 0.7890383 0.46560708
0.2427624 0.72828722 0.42748642
0.23906733 0.66938841 0.39053556
0.23548217 0.61225379 0.35468405
0.23200381 0.55680919 0.31990045
0.22862588 0.50297695 0.28612107
0.22534572 0.45069131 0.25331926
0.22215755 0.3998836 0.22143763
0.21905909 0.35049465 0.19045326
0.21604514 0.30246314 0.16031367
0.21311373 0.25573641 0.13099955
0.21026009 0.21026009 0.10246318
0.20748255 0.16598605 0.074687704
0.20477678 0.12286611 0.047629949
0.2021413 0.080856502 0.021275274
0.19957218 0.039914493 -0.0044159796
0.19706815 9.3132257e-10 -0.029456314
0.19462559 -0.038925122 -0.053881921
0.19224341 -0.07689736 -0.077703521
0.18991828 -0.113951 -0.10095499
0.18764926 -0.15011935 -0.12364506
0.1854333 -0.1854333 -0.1458047
0.18326958 -0.2199235 -0.16744193
0.18605141 -0.26047197 -0.13962355
0.31467679 -0.50348294 1.14663
0.31467521 -0.56641555 1.1466144
0.31467521 -0.62935036 1.1466144
0.31467366 -0.69228208 1.1465987
0.31467208 -0.75521278 1.146583
0.31467208 -0.81814754 1.1465831
0.3146705 -0.88107741 1.1465673
0.31307894 -0.93923694 1.130652
0.30768719 -0.98459893 1.0767343
0.30247805 -1.0284251 1.0246425
0.30521625 -1.0987786 1.052025
0.31289959 1.0429987 0.60735893
0.30778861 0.97466391 0.56476718
0.30284187 0.90852559 0.52354449
0.29805163 0.84447968 0.48362601
0.29341173 0.7824313 0.44496012
0.28891298 0.72228253 0.40747046
0.28455114 0.66395259 0.37112173
0.28031802 0.60735571 0.3358458
0.27621001 0.5524199 0.30161226
0.27221972 0.49906942 0.26835972
0.26834396 0.44724002 0.2360622
0.26457614 0.39686424 0.20466344
0.26091355 0.34788468 0.17414188
0.25735009 0.30024171 0.14444658
0.25388354 0.25388348 0.11555847
0.25050828 0.20875688 0.087431416
0.24722241 0.16481495 0.060049076
0.24402086 0.12201035 0.033369359
0.24090192 0.080300644 0.0073781535
0.23786092 0.039643578 -0.017963326
0.2348965 -4.8428774e-08 -0.042666927
0.23200434 -0.038667347 -0.066768169
0.22918324 -0.07639432 -0.090277404
0.22642991 -0.11321489 -0.11322172
0.22374129 -0.14916089 -0.13562688
0.22111642 -0.18426371 -0.15750076
0.2185518 -0.2185519 -0.17887269
0.22500624 -0.26250723 -0.12508571
0.36013165 -0.48017544 1.0009595
0.36012995 -0.54019499 1.0009452
0.36012825 -0.60021389 1.000931
0.36012825 -0.66023511 1.0009308
0.3601265 -0.72025305 1.0009165
0.3601248 -0.78027034 1.0009023
0.3601248 -0.84029114 1.0009022
0.3601231 -0.9003076 1.0008879
0.3601231 -0.96032822 1.000888
0.3601214 -1.020344 1.0008737
0.37095991 -1.1128796 1.0911947
0.36181861 1.0337673 0.58428085
0.35595998 0.96617723 0.5424338
0.35028809 0.90074068 0.50191993
0.34479412 0.83735704 0.46267739
0.3394711 0.77593398 0.42465597
0.33430871 0.71637571 0.38778162
0.32930219 0.65860426 0.35202074
0.32444221 0.60253549 0.31730652
0.31972474 0.54809952 0.28361034
0.31514138 0.49522221 0.25087222
0.31068867 0.44384092 0.2190671
0.30636004 0.39389145 0.1881482
0.3021493 0.34531352 0.15807164
0.2980538 0.2980538 0.12881795
0.29406682 0.25205731 0.10033945
0.29018608 0.20727575 0.072619759
0.28640547 0.16366029 0.045615606
0.28272301 0.12116705 0.019312456
0.27913317 0.079752378 -0.0063293278
0.27563423 0.039376255 -0.031321838
0.27222109 1.2479722e-07 -0.055701546
0.26889223 -0.038413189 -0.079479054
0.265643 -0.075898066 -0.10268781
0.26247215 -0.11248802 -0.12533672
0.25937533 -0.14821455 -0.14745669
0.2563515 -0.18310821 -0.16905554
0.25535053 -0.2188718 -0.17620534
0.40156433 -0.40156448 0.86817896
0.40156251 -0.45892864 0.86816597
0.40156251 -0.51629472 0.86816597
0.40156069 -0.57365805 0.86815286
0.40155888 -0.63102102 0.86813974
0.40155888 -0.68838662 0.86813974
0.40155703 -0.74574888 0.86812669
0.40155703 -0.80311382 0.86812663
0.40155888 -0.86048317 0.86813968
0.40155888 -0.91784871 0.86813968
0.41369706 -1.0046928 0.95484132
0.4166753 1.0937726 0.60408282
0.40987763 1.0246941 0.56159741
0.40329975 0.95783693 0.52048576
0.39692816 0.89308828 0.48066321
0.39075625 0.83035696 0.44208869
0.38477185 0.76954359 0.40468627
0.37896943 0.71056783 0.36842117
0.37333801 0.65334159 0.33322495
0.36787286 0.59779334 0.29906768
0.36256412 0.54384613 0.26588792
0.35740766 0.49143541 0.2336601
0.35239458 0.44049326 0.2023285
0.34752139 0.39096165 0.1718711
0.34278002 0.34277999 0.14223738
0.33816734 0.29589647 0.11340839
0.3336761 0.25025705 0.085338049
0.32930368 0.20581487 0.058010235
0.32504329 0.16252159 0.031382948
0.32089278 0.12033477 0.005442068
0.31684592 0.079211451 -0.01985075
0.31290084 0.039112523 -0.044507582
0.30905181 3.3527613e-08 -0.068563849
0.30529729 -0.038162127 -0.092029646
0.30163199 -0.075408049 -0.11493792
0.29805452 -0.11177041 -0.13729699
0.29456005 -0.14727996 -0.15913735
0.29114741 -0.18196721 -0.18046632
0.29405662 -0.22054243 -0.16228376
0.43948603 -0.38455024 0.74664998
0.43948412 -0.43948424 0.74663818
0.43948221 -0.49441749 0.74662608
0.43948221 -0.54935271 0.74662596
0.43948412 -0.6042906 0.74663806
0.43948412 -0.65922618 0.74663794
0.43948603 -0.71416479 0.74664998
0.43948603 -0.76910055 0.74664992
0.43948796 -0.82403982 0.7466619
0.45282337 -0.90564674 0.83000833
0.46461609 1.0841042 0.58106261
0.45710218 1.0157826 0.5393188
0.44982922 0.9496395 0.49891359
0.44278237 0.88556457 0.45976424
0.43595454 0.8234697 0.42183197
0.42933249 0.76325786 0.38504279
0.42291018 0.70485038 0.34936345
0.41667569 0.64816219 0.31472701
0.41062376 0.59312332 0.28110546
0.40474367 0.53965831 0.24843831
0.39903107 0.48770466 0.21670143
0.3934761 0.43719572 0.18584046
0.38807496 0.38807496 0.15583424
0.38281885 0.34028339 0.12663352
0.37770444 0.29377007 0.098220252
0.37272364 0.24848244 0.070549242
0.36787373 0.20437428 0.043605246
0.36314723 0.16139884 0.017346889
0.35854179 0.11951391 -0.0082388334
0.35405058 0.078677908 -0.033190068
0.34967157 0.038852353 -0.057517841
0.34539855 -8.5681677e-08 -0.081257015
0.34122968 -0.037914276 -0.10441735
0.33716026 -0.074924514 -0.12702529
0.33318576 -0.11106195 -0.14910577
0.32930484 -0.1463577 -0.17066643
0.32551238 -0.18084019 -0.19173564
0.33336693 -0.22224471 -0.1480992
0.47432491 -0.36891919 0.63500065
0.47432691 -0.42162383 0.63501167
0.47432888 -0.47432899 0.63502288
0.47432888 -0.52703214 0.63502282
0.4743309 -0.57973778 0.63503379
0.4743309 -0.63244116 0.63503385
0.47433284 -0.68514746 0.63504475
0.47433487 -0.73785418 0.63505584
0.48877791 -0.81462985 0.71529502
0.5201928 1.1444241 0.60082603
0.51171666 1.074605 0.55844557
0.50351447 1.0070289 0.51743454
0.49556905 0.94158113 0.47770736
0.48787236 0.87817031 0.43922412
0.48040929 0.81669587 0.40190867
0.47317287 0.75707668 0.36572668
0.46614951 0.69922423 0.3306098
0.45933327 0.64306664 0.29652864
0.45271185 0.5885253 0.26342154
0.44628021 0.53553629 0.23126346
0.44002724 0.48402992 0.19999833
0.43394855 0.43394846 0.1696049
0.42803404 0.3852306 0.14003262
0.42228004 0.33782405 0.11126257
0.4166773 0.29167414 0.083248794
0.41122264 0.24673361 0.055975489
0.4059076 0.20295379 0.029400356
0.40072951 0.16029179 0.0035098493
0.39568061 0.11870417 -0.02173458
0.3907586 0.078151658 -0.046344846
0.38595632 0.038595665 -0.070356183
0.38127178 1.8626451e-08 -0.093778767
0.37669849 -0.037669808 -0.11664531
0.3722347 -0.074446931 -0.1389641
0.36787441 -0.11036242 -0.16076563
0.36361614 -0.14544648 -0.18205705
0.36043191 -0.18021595 -0.19797818
0.50645041 -0.3038702 0.53211415
0.50645238 -0.35451666 0.53212428
0.50645238 -0.40516192 0.53212422
0.50645441 -0.45580891 0.53213447
0.50645441 -0.50645435 0.53213441
0.50645649 -0.5571022 0.53214461
0.50645852 -0.60775024 0.53215492
0.50645852 -0.65839612 0.53215486
0.52193129 -0.73070383 0.60951871
0.56716013 1.1343201 0.57786286
0.55799907 1.0652709 0.53622162
0.54913145 0.99842077 0.49591416
0.54053909 0.93365848 0.45685816
0.53221357 0.87089485 0.41901478
0.52413857 0.81003231 0.3823103
0.516307 0.750992 0.34671217
0.50870401 0.69368732 0.31215331
0.50132358 0.63804829 0.27860594
0.49415246 0.58399838 0.24600977
0.4871853 0.53147483 0.21434096
0.48041022 0.48041022 0.18354514
0.47382265 0.43074793 0.15360159
0.46741167 0.38242775 0.12446082
0.46117344 0.33539879 0.096105084
0.455098 0.28960782 0.068489552
0.449182 0.24500838 0.041598819
0.44341645 0.2015529 0.015391573
0.43779841 0.15919945 -0.010144979
0.43231958 0.11790539 -0.03504863
0.42697752 0.077632234 -0.059330758
0.42176458 0.038342278 -0.083025917
0.41667867 3.7252903e-09 -0.10614391
0.41171271 -0.037428446 -0.12871645
0.40686491 -0.073975325 -0.15075178
0.40212879 -0.10967143 -0.17227955
0.39750281 -0.14454649 -0.19330682
0.39946258 -0.18157393 -0.18439882
0.53616142 -0.29245174 0.43695986
0.53616351 -0.34119496 0.43696925
0.53616351 -0.38993716 0.43696922
0.5361656 -0.43868095 0.43697861
0.5361656 -0.4874233 0.43697873
0.53616768 -0.53616768 0.4369882
0.53616977 -0.58491242 0.43699753
0.5525986 -0.65307122 0.51167423
0.59397513 0.98995864 0.47475871
0.5847587 0.92586792 0.43635672
0.57582605 0.86373913 0.39913756
0.56716013 0.80347681 0.36302942
0.55875325 0.7450043 0.32800066
0.55058986 0.68823731 0.29398674
0.54266357 0.63310742 0.26096052
0.5349623 0.57954252 0.22887175
0.52747464 0.52747464 0.19767345
0.52019554 0.4768458 0.1673436
0.51311284 0.42759407 0.13783251
0.50622207 0.37966657 0.10912111
0.49951234 0.33300829 0.081163749
0.49297976 0.28757149 0.053944685
0.48661426 0.24330716 0.027421683
0.48041257 0.20017186 0.0015813485
0.47436547 0.15812184 -0.023614891
0.46847019 0.11711758 -0.048178636
0.46271819 0.077119634 -0.072145268
0.45710713 0.038092278 -0.095524579
0.45162916 -1.1175871e-08 -0.11834955
0.44628227 -0.037190195 -0.14062825
0.4410592 -0.073509924 -0.16239101
0.43595824 -0.10898951 -0.18364502
0.43097267 -0.14365754 -0.20441829
0.43909988 -0.18295833 -0.17055482
0.56372052 -0.2818602 0.34869772
0.56372261 -0.32883826 0.3487066
0.56372261 -0.375815 0.34870645
0.5637247 -0.42279354 0.34871528
0.56372684 -0.46977231 0.34872401
0.56372684 -0.5167495 0.34872395
0.58104944 -0.58104956 0.42090154
0.61872774 0.85670006 0.37958434
0.60949314 0.79702955 0.34406668
0.600528 0.73911142 0.30958521
0.59182483 0.6828748 0.2761116
0.5833683 0.62824273 0.24358635
0.57515204 0.57515204 0.21198553
0.56716204 0.52353418 0.18125473
0.55939287 0.47333235 0.15137327
0.55183184 0.42448604 0.1222924
0.5444743 0.37694377 0.093994319
0.53730863 0.33065149 0.066433921
0.53033084 0.28556281 0.039596237
0.52353024 0.2416293 0.013440251
0.51690352 0.19880909 -0.012047328
0.51044089 0.15705867 -0.036903616
0.5041393 0.11633985 -0.061140209
0.49799001 0.076613747 -0.084791578
0.49199033 0.037845314 -0.10786717
0.48613212 4.4703484e-08 -0.1303989
0.48041314 -0.036954846 -0.15239489
0.47482574 -0.073050082 -0.17388467
0.46936825 -0.1083158 -0.1948753
0.46403342 -0.14277942 -0.2153938
0.47934631 -0.1843639 -0.1564981
0.58935314 -0.2720091 0.26660517
0.58935529 -0.31734514 0.26661339
0.58935529 -0.3626802 0.26661348
0.58935738 -0.40801665 0.26662159
0.58935952 -0.45335338 0.26662976
0.6075201 -0.51405549 0.33647808
0.65114981 0.79068184 0.32539713
0.64164704 0.73331082 0.29145879
0.63241994 0.67759275 0.25850487
0.62345219 0.62345219 0.22647731
0.61473745 0.5708276 0.19535317
0.60626084 0.51965213 0.16507959
0.59801686 0.46987039 0.13563691
0.58999211 0.42142296 0.10697691
0.58218175 0.37425971 0.079082832
0.5745737 0.32832778 0.051911056
0.56716365 0.28358191 0.025446936
0.55994236 0.23997527 -0.00034350157
0.55290097 0.1974646 -0.02549167
0.54603606 0.15601031 -0.050008938
0.53933793 0.11557244 -0.073930874
0.53280365 0.076114915 -0.097267322
0.52642435 0.037601773 -0.12005068
0.52019751 -1.4901161e-08 -0.14228946
0.5141148 -0.036722455 -0.16401365
0.50817406 -0.072596312 -0.18523027
0.50236768 -0.10765013 -0.20596744
0.50236195 -0.14353198 -0.20598792
0.61325461 -0.2190195 0.19005729
0.61325461 -0.2628234 0.19005728
0.61325675 -0.30662829 0.19006491
0.6132589 -0.35043353 0.19007252
0.6132589 -0.39423779 0.19007248
0.63220465 -0.45157477 0.25773606
0.67239183 0.67239177 0.24116836
0.6629318 0.61873639 0.209635
0.653732 0.56656766 0.17896906
0.6447863 0.51582909 0.14914985
0.63607991 0.46645856 0.1201286
0.62760764 0.41840503 0.091887772
0.6193561 0.37161362 0.064382493
0.61132061 0.32603768 0.037597597
0.60348904 0.28162819 0.011492357
0.5958575 0.23834297 -0.013946049
0.58841473 0.19613814 -0.038755238
0.58115739 0.1549753 -0.062946431
0.5740751 0.11481507 -0.086553872
0.56716514 0.07562203 -0.10958744
0.56041783 0.037361205 -0.13207836
0.5538308 -0 -0.15403521
0.54739523 -0.036492981 -0.17548709
0.54110903 -0.072147936 -0.19644086
0.53496408 -0.10699289 -0.21692415
0.54230118 -0.14461365 -0.19246714
0.63559443 -0.21186487 0.11851051
0.63559663 -0.25423861 0.1185177
0.63559663 -0.29661173 0.11851775
0.63559878 -0.33898604 0.1185248
0.65527976 -0.39316782 0.18412808
0.69214892 0.56237096 0.16282766
0.68274665 0.51206017 0.13344562
0.67359424 0.46309608 0.1048442
0.66468602 0.41542876 0.077006251
0.65600836 0.36900467 0.049888343
0.64755636 0.32377815 0.02347596
0.63931733 0.27970135 -0.0022709072
0.63128734 0.23673272 -0.027364813
0.62345463 0.19482954 -0.051841952
0.61581582 0.15395391 -0.075713366
0.60836005 0.1140675 -0.099012598
0.60108447 0.075135462 -0.12174878
0.59397906 0.037123654 -0.1439531
0.58704144 -4.4703484e-08 -0.16563323
0.5802623 -0.036266319 -0.18681797
0.57363957 -0.071705014 -0.207514
0.56716478 -0.10634337 -0.22774777
0.58284521 -0.14571133 -0.17874646
0.65652096 -0.20516282 0.051490285
0.65652311 -0.24619608 0.051496863
0.65652311 -0.28722879 0.051496975
0.67690003 -0.33844998 0.11517495
0.71057153 0.45978159 0.089778543
0.70124072 0.4124946 0.062334985
0.69214958 0.3664321 0.035596415
0.68329334 0.32154971 0.0095485747
0.67465872 0.27780062 -0.015847504
0.66624165 0.23514418 -0.040603317
0.65803212 0.1935389 -0.064749241
0.65002036 0.15294601 -0.088313065
0.64220333 0.11333003 -0.11130433
0.63457018 0.074655294 -0.13375489
0.62711817 0.036889203 -0.15567242
0.6198374 -2.2351742e-08 -0.17708646
0.6127255 -0.036042638 -0.19800395
0.60577321 -0.071267419 -0.21845189
0.60284489 -0.10638437 -0.22706465
0.67616409 -0.15909737 -0.01141987
0.67616409 -0.19887179 -0.011419818
0.67616618 -0.23864692 -0.011413477
0.69719487 -0.2870802 0.050435416
0.73728257 0.40960136 0.047869593
0.72779274 0.3638964 0.021508709
0.71854174 0.31935191 -0.0041884184
0.70952523 0.27592653 -0.029234312
0.70073003 0.23357664 -0.053665474
0.69215232 0.1922645 -0.077492476
0.68378001 0.15195113 -0.10074893
0.67560983 0.11260165 -0.12344392
0.66763061 0.074181207 -0.14560834
0.65983957 0.036657766 -0.16725013
0.65222645 2.9802322e-08 -0.18839768
0.64478874 -0.035821579 -0.20905778
0.63751704 -0.070835285 -0.22925705
0.64305788 -0.10717634 -0.21386595
0.69463837 -0.15436411 -0.070586681
0.69463837 -0.19295514 -0.070586614
0.71628654 -0.23876211 -0.010452829
0.75331157 0.31718379 -0.017738804
0.74392211 0.27407652 -0.04244794
0.7347616 0.23202991 -0.066554606
0.72582614 0.19100681 -0.090069056
0.71710324 0.1509691 -0.11302392
0.70858961 0.11188263 -0.13542832
0.70027369 0.073713019 -0.15731224
0.69215268 0.036429107 -0.17868316
0.68421596 -5.9604645e-08 -0.19956928
0.67646116 -0.035603255 -0.21997696
0.6688782 -0.070408188 -0.2399319
0.68387401 -0.1079801 -0.20046926
0.71204519 -0.14990424 -0.12633458
0.73427492 -0.19323017 -0.067835316
0.7683478 0.23050442 -0.079268232
0.75906229 0.18976556 -0.10248207
0.75000072 0.15000015 -0.12513593
0.74115086 0.1111726 -0.14726068
0.73250949 0.073250949 -0.168864
0.72406524 0.03620322 -0.1899747
0.71581548 -2.9802322e-08 -0.21059898
0.70774961 -0.035387419 -0.23076364
0.70099634 -0.070099629 -0.2476469
0.72847235 -0.10927093 -0.17895696
0.751257 -0.15025142 -0.12199518
0.78247637 0.14904314 -0.13709873
0.77330142 0.11047164 -0.1589437
0.76434147 0.072794385 -0.18027706
0.75558454 0.035980254 -0.20112687
0.74702805 2.9802322e-08 -0.22149941
0.73866123 -0.03517431 -0.24142046
0.74145699 -0.070614964 -0.23476392
0.76731092 -0.1096159 -0.17320697
0.80505157 0.10977978 -0.1704751
0.79577911 0.072343558 -0.19154879
0.7867201 0.035760053 -0.21213752
0.77786279 8.9406967e-08 -0.23226777
0.76920485 -0.034963824 -0.25194493
0.78251475 -0.071137719 -0.22169517
0.81747448 0.035542354 -0.22301918
0.8083263 -2.2351742e-08 -0.24290656
0.79938287 -0.034755811 -0.26234889
