# .PCD v0.7 - Point Cloud Data file format
VERSION 0.7
FIELDS x y z
SIZE 4 4 4
TYPE F F F
COUNT 1 1 1
WIDTH 1337
HEIGHT 1
VIEWPOINT 0 0 0 1 0 0 0
POINTS 1337
DATA ascii
-1.1875539 0.49481407 0.4739328
-1.1653044 0.43698913 0.42757988
-1.1582081 0.55392563 0.51770604
-1.1361364 0.4939723 0.469724
-1.1148859 0.43625969 0.42352733
-1.0944159 0.38066646 0.37902728
-1.0746839 0.32707775 0.33613166
-1.0556508 0.2753872 0.29475531
-1.0372802 0.22549559 0.25481924
-1.1059334 0.55296671 0.51334733
-1.0848894 0.49313155 0.46552002
-1.0646315 0.43553102 0.41947916
-1.0451161 0.38004223 0.37512612
-1.0263033 0.32655111 0.33236986
-1.0081595 0.2749525 0.29113382
-0.99064255 0.22514597 0.2513226
-0.97372383 0.17704071 0.21287109
-0.95737344 0.13055091 0.17571102
-0.94156301 0.085596621 0.1397782
-0.92626631 0.042103022 0.10501292
-0.91145867 1.0058284e-07 0.071359247
-1.0538394 0.55201113 0.5090037
-1.0338207 0.49229556 0.46134025
-1.0145483 0.43480641 0.41545361
-0.99598151 0.37942141 0.37124655
-0.97808194 0.32602736 0.32862875
-0.9608143 0.2745184 0.28751543
-0.94414586 0.22479671 0.24782877
-0.92804599 0.17677064 0.2094955
-0.912489 0.13035555 0.17245522
-0.89744204 0.085470743 0.13662903
-0.88288325 0.04204201 0.10196522
-0.86878926 2.6077032e-08 0.068408072
-0.85513812 -0.040720951 0.035905503
-0.84190941 -0.080181807 0.0044086426
-0.8290838 -0.11844049 -0.026128694
-0.816643 -0.155551 -0.055749536
-1.0019211 0.55105662 0.50466514
-0.98292094 0.4914605 0.45716467
-0.96462804 0.43408254 0.41143218
-0.94700348 0.37880141 0.36737105
-0.93001491 0.32550517 0.32489946
-0.91362178 0.27408653 0.28391671
-0.89779657 0.2244492 0.24435376
-0.88251024 0.17650206 0.20613788
-0.86773574 0.13016036 0.16920163
-0.85344779 0.085344799 0.13348179
-0.8396228 0.041981138 0.098919131
-0.82623851 7.4505806e-09 0.065458432
-0.8132742 -0.040663667 0.033047806
-0.800713 -0.080071345 0.0016448796
-0.78853148 -0.11827965 -0.028808869
-0.7767151 -0.15534304 -0.058349919
-0.76524758 -0.19131187 -0.087018728
-0.75411379 -0.22623411 -0.11485325
-0.74329931 -0.26015472 -0.14188948
-0.73279059 -0.29311621 -0.16816132
-0.96888244 0.61192572 0.5495528
-0.95018589 0.5501076 0.50035137
-0.93219727 0.49063009 0.45301288
-0.91487712 0.4333629 0.40743354
-0.89818877 0.37818471 0.36351693
-0.88209844 0.3249836 0.32117379
-0.86657435 0.27365503 0.280321
-0.8515873 0.22410199 0.24088147
-0.8371098 0.17623362 0.20278279
-0.82311916 0.12996617 0.16596527
-0.80958575 0.085219502 0.13035099
-0.79649013 0.041920535 0.095889039
-0.78381145 -3.5390258e-08 0.06252408
-0.77153015 -0.040606871 0.0302047
-0.7596277 -0.079960831 -0.0011173524
-0.74808693 -0.11811896 -0.031487964
-0.73689163 -0.15513505 -0.06094937
-0.72602856 -0.19106022 -0.089536197
-0.71547908 -0.22594073 -0.11729807
-0.70523179 -0.25982228 -0.14426474
-0.69527382 -0.29274684 -0.17046973
-0.68559319 -0.32475463 -0.1959452
-0.6761784 -0.35588336 -0.22072089
-0.66701871 -0.38616878 -0.24482536
-0.65810382 -0.41564456 -0.26828545
-0.64942592 -0.44434407 -0.29112217
-0.91627586 0.61085057 0.54507303
-0.89862496 0.54915977 0.49604267
-0.88164121 0.48980072 0.44886574
-0.86528754 0.43264383 0.40343881
-0.8495295 0.3775686 0.35966635
-0.83433819 0.32446489 0.31746858
-0.81967777 0.27322587 0.27674478
-0.80552357 0.22375654 0.23742783
-0.79184997 0.17596667 0.19944547
-0.77863276 0.12977217 0.16273111
-0.76584965 0.0850944 0.12722225
-0.75347936 0.041859977 0.092860468
-0.7415024 6.7055225e-08 0.059591174
-0.72990263 -0.040550064 0.027369455
-0.71865785 -0.079850905 -0.0038658604
-0.70775431 -0.11795902 -0.034153499
-0.69717669 -0.15492812 -0.063535802
-0.68691057 -0.19080845 -0.092052802
-0.67694241 -0.22564751 -0.11974216
-0.66725945 -0.25948972 -0.14663932
-0.65784955 -0.29237756 -0.17277786
-0.64870322 -0.32435158 -0.19818428
-0.63980591 -0.3554478 -0.22289889
-0.63114947 -0.38570246 -0.2469449
-0.622724 -0.4151493 -0.27034867
-0.61452061 -0.44382042 -0.29313606
-0.60653055 -0.47174591 -0.31533074
-0.59874552 -0.49895459 -0.33695567
-0.5936594 -0.52769721 -0.35108382
-0.86385739 0.60978156 0.54061913
-0.84724474 0.54821718 0.49175867
-0.83125907 0.48897597 0.44474182
-0.8158654 0.43192875 0.39946645
-0.80103153 0.37695599 0.35583735
-0.78672749 0.32394654 0.31376642
-0.77292526 0.27279717 0.27317184
-0.75959897 0.22341149 0.23397683
-0.74672711 0.17570047 0.19611835
-0.7342816 0.12957919 0.15951404
-0.72224414 0.084969945 0.12410995
-0.71059507 0.041799691 0.089847729
-0.69931579 -1.3038516e-08 0.056673385
-0.68838894 -0.040493533 0.02453571
-0.67779839 -0.079740986 -0.0066130981
-0.66752869 -0.11779916 -0.036818031
-0.65756756 -0.15472184 -0.06611535
-0.64789742 -0.19055803 -0.094557092
-0.6385076 -0.22535557 -0.12217424
-0.62938601 -0.25915891 -0.14900245
-0.62052137 -0.29200998 -0.17507482
-0.61190301 -0.32394868 -0.200423
-0.60352075 -0.35501221 -0.22507671
-0.59536505 -0.3852362 -0.24906403
-0.58742845 -0.41465542 -0.27240711
-0.57969904 -0.44329923 -0.29514056
-0.57217044 -0.47119924 -0.31728351
-0.56483483 -0.49838376 -0.33885866
-0.57015294 -0.53661442 -0.32321733
-0.82782197 0.67260545 0.58680612
-0.81161869 0.60871398 0.5361706
-0.79603744 0.54727572 0.48747939
-0.78104323 0.48815206 0.44062245
-0.76660347 0.4312143 0.39549792
-0.75269067 0.37634549 0.35202071
-0.73927122 0.32343116 0.31008479
-0.72632182 0.2723707 0.26961806
-0.71381831 0.22306819 0.23054446
-0.701738 0.17543453 0.19279355
-0.69005978 0.12938613 0.15629907
-0.67876393 0.084845513 0.12099951
-0.66783184 0.041739441 0.086836845
-0.6572485 -2.7939677e-08 0.053763889
-0.64699334 -0.040437043 0.021716328
-0.63705319 -0.079631656 -0.0093465969
-0.62741393 -0.11764011 -0.039469272
-0.61806196 -0.15451548 -0.068694055
-0.60898471 -0.19030778 -0.097060457
-0.60017025 -0.22506386 -0.12460567
-0.59160727 -0.25882816 -0.15136491
-0.58328694 -0.29164344 -0.17736609
-0.57519579 -0.32354763 -0.20265105
-0.56732595 -0.35457867 -0.22724414
-0.5596686 -0.38477212 -0.25117344
-0.55221516 -0.41416144 -0.27446526
-0.54495764 -0.44277811 -0.29714501
-0.53788847 -0.4706524 -0.31923622
-0.53100038 -0.49781281 -0.34076172
-0.54583836 -0.5458383 -0.29439288
-0.77470279 0.67140919 0.58220506
-0.75956565 0.60765249 0.5317477
-0.74500871 0.54633981 0.48322463
-0.73099917 0.48733291 0.43652642
-0.71750689 0.43050414 0.39155188
-0.7045036 0.37573525 0.34820759
-0.6919632 0.32291609 0.30640626
-0.67986149 0.27194458 0.26606712
-0.66817814 0.22272614 0.22712268
-0.65688729 0.17516991 0.1894865
-0.64597166 0.12919436 0.15310109
-0.63541287 0.084721759 0.11790518
-0.62519377 0.041679498 0.083841287
-0.61529803 1.3038516e-08 0.050855916
-0.6057108 -0.040380657 0.018898297
-0.59641773 -0.079522356 -0.012078665
-0.58740735 -0.1174815 -0.042113349
-0.57866335 -0.15431023 -0.071259983
-0.57017583 -0.19005865 -0.099551648
-0.56193376 -0.22477344 -0.12702528
-0.55392653 -0.258499 -0.15371609
-0.54614431 -0.29127699 -0.1796567
-0.53857774 -0.32314667 -0.20487869
-0.53121793 -0.35414523 -0.2294113
-0.52405661 -0.38430816 -0.2532824
-0.51708573 -0.41366851 -0.27651858
-0.51029932 -0.4422594 -0.29913998
-0.50368732 -0.47010818 -0.32117993
-0.50537187 -0.50537181 -0.31556493
-0.52067471 -0.55538636 -0.26455534
-0.72176933 0.67021441 0.57760996
-0.70769101 0.6065923 0.52733028
-0.69415146 0.54540461 0.47897452
-0.68112028 0.48651439 0.4324345
-0.66857183 0.42979616 0.38761875
-0.65647489 0.37512845 0.34441549
-0.64480799 0.32240397 0.30274796
-0.63354856 0.27152085 0.26253569
-0.62267554 0.22238414 0.22370352
-0.6121695 0.17490563 0.18618184
-0.60201204 0.12900262 0.14990515
-0.59218615 0.084597945 0.11481278
-0.58267784 0.041619919 0.080854543
-0.57346809 -2.6077032e-08 0.047962811
-0.56454504 -0.040324651 0.016094601
-0.55589539 -0.079413623 -0.014797166
-0.54750675 -0.11732288 -0.044756334
-0.53936762 -0.15410502 -0.073824905
-0.53146684 -0.18980961 -0.10204184
-0.52379423 -0.22448333 -0.12944415
-0.51633996 -0.25816995 -0.15606649
-0.50909638 -0.29091221 -0.18193644
-0.50205177 -0.32274753 -0.20709564
-0.4951995 -0.35371393 -0.23156817
-0.48853171 -0.38384631 -0.25538164
-0.48204112 -0.41317809 -0.27856222
-0.47572073 -0.44174063 -0.30113506
-0.46956393 -0.46956399 -0.32312363
-0.47983611 -0.51411015 -0.28643727
-0.49461368 -0.56527275 -0.23366036
-0.68258131 0.73508751 0.62517488
-0.66902661 0.66902661 0.57304156
-0.65599978 0.60553825 0.52293837
-0.64347053 0.54447508 0.47474888
-0.63141096 0.48570079 0.4283658
-0.61979502 0.42908892 0.3836894
-0.60859883 0.37452239 0.3406271
-0.59779996 0.32189226 0.29909283
-0.58737969 0.2710982 0.25901499
-0.5773145 0.22204411 0.22030269
-0.56758839 0.1746425 0.1828946
-0.55818462 0.12881182 0.14672616
-0.54908735 0.084475055 0.1117366
-0.54028183 0.041560233 0.077869311
-0.53175431 -8.5681677e-08 0.04507114
-0.5234918 -0.040268648 0.013292175
-0.51548213 -0.079304993 -0.017514322
-0.5077154 -0.11716506 -0.047386196
-0.50017774 -0.15390077 -0.076377213
-0.49286062 -0.18956177 -0.10452011
-0.48575449 -0.22419435 -0.13185118
-0.47885036 -0.25784254 -0.15840562
-0.47213972 -0.29054749 -0.18421577
-0.46561462 -0.32234856 -0.20931226
-0.45926738 -0.35328269 -0.23372477
-0.45309085 -0.38338459 -0.25748062
-0.44707829 -0.41268766 -0.28060588
-0.4412244 -0.4412244 -0.30312085
-0.43998733 -0.47383249 -0.30787867
-0.4607501 -0.53163481 -0.2280219
-0.46760929 -0.57551908 -0.20164035
-0.62893522 0.73375773 0.62042582
-0.61646801 0.6678403 0.56847882
-0.60448539 0.60448539 0.51855147
-0.59295976 0.54354644 0.47052783
-0.58186764 0.4848896 0.42431071
-0.5711807 0.42838562 0.37978214
-0.56087929 0.37391946 0.33685938
-0.5509429 0.32138324 0.29545766
-0.54135239 0.27067629 0.2554974
-0.53209007 0.22170414 0.21690428
-0.52313942 0.1743798 0.17960966
-0.51448482 0.12862121 0.14354923
-0.50611204 0.084351942 0.10866235
-0.49800894 0.041500673 0.074899562
-0.49015969 3.1664968e-08 0.042194277
-0.48255402 -0.040212773 0.010504022
-0.47518075 -0.079196766 -0.020217903
-0.46802944 -0.1170074 -0.050014965
-0.46109018 -0.15369666 -0.078928612
-0.45435369 -0.18931393 -0.1069973
-0.44781122 -0.22390556 -0.13425773
-0.44145575 -0.25751579 -0.16073878
-0.4352769 -0.29018456 -0.18648396
-0.42926863 -0.32195148 -0.21151844
-0.42342401 -0.35285333 -0.23587111
-0.41773635 -0.38292497 -0.25956964
-0.4121995 -0.41219947 -0.28263986
-0.40680748 -0.44070807 -0.30510658
-0.41319731 -0.48206353 -0.27848223
-0.43671358 -0.54589188 -0.18049783
-0.43960661 -0.58614206 -0.16844355
-0.57548529 0.73243594 0.61570448
-0.5640977 0.6666609 0.56394255
-0.55315208 0.6034385 0.51418966
-0.5426231 0.54262304 0.46633086
-0.53248745 0.48407948 0.42025977
-0.52272356 0.42768276 0.37587833
-0.51331127 0.37331724 0.3330954
-0.50423372 0.32087606 0.29183391
-0.49546999 0.2702564 0.25199851
-0.48700559 0.22136621 0.21352415
-0.47882563 0.17411834 0.17634222
-0.47091582 0.12843166 0.14038886
-0.46326315 0.084229693 0.10560388
-0.45585522 0.041441411 0.071931429
-0.44868046 3.7252903e-08 0.039318927
-0.44172806 -0.040157072 0.007717126
-0.43498918 -0.079088919 -0.022914071
-0.42845154 -0.11685036 -0.052630771
-0.42210746 -0.15349366 -0.081467405
-0.41594854 -0.18906759 -0.10946248
-0.40996677 -0.22361825 -0.13665247
-0.40415457 -0.25718927 -0.16307147
-0.39850488 -0.28982162 -0.18875185
-0.393011 -0.32155442 -0.21372414
-0.38766649 -0.35242414 -0.23801731
-0.38246542 -0.38246542 -0.26165837
-0.37740207 -0.41171134 -0.28467378
-0.37400344 -0.44200405 -0.30012211
-0.38545686 -0.49058151 -0.24806114
-0.41135108 -0.56093323 -0.13036002
-0.41055074 -0.59716463 -0.13399798
-0.53296506 0.79944766 0.66468781
-0.52222538 0.73111558 0.61098939
-0.51191002 0.665483 0.55941224
-0.50199419 0.60239297 0.50983322
-0.49245715 0.54170287 0.46214816
-0.48327392 0.48327386 0.41623172
-0.47442687 0.42698413 0.37199658
-0.46589792 0.37271827 0.3293519
-0.45767018 0.32036909 0.28821334
-0.44972807 0.26983681 0.24850258
-0.44205686 0.22102843 0.21014653
-0.43464297 0.17385714 0.17307709
-0.42747366 0.12824214 0.13723052
-0.42053843 0.084107623 0.10255438
-0.41382328 0.041382387 0.068978541
-0.40731919 -2.4214387e-08 0.036458276
-0.40101641 -0.040101647 0.0049443226
-0.39490572 -0.078981146 -0.025609231
-0.38897845 -0.1166935 -0.055245481
-0.38322648 -0.15329063 -0.084005266
-0.37764212 -0.18882103 -0.11192691
-0.37221822 -0.22333089 -0.13904659
-0.36694896 -0.25686425 -0.16539276
-0.36182579 -0.2894606 -0.19100881
-0.35684368 -0.32115933 -0.21591932
-0.35199693 -0.3519969 -0.24015316
-0.34728006 -0.38200799 -0.2637375
-0.34268793 -0.41122547 -0.28669819
-0.34593597 -0.44971675 -0.27045795
-0.39351359 -0.55091906 -0.032569796
-0.38455135 -0.57682705 -0.077381015
-0.38038224 -0.60861152 -0.098226517
-0.39341533 -0.66880596 -0.033061177
-0.47878987 0.79798305 0.65980589
-0.46915916 0.72980309 0.6063019
-0.45990825 0.66431195 0.55490816
-0.45101511 0.60135359 0.50550181
-0.44245934 0.5407837 0.45796993
-0.43422219 0.48246914 0.41220787
-0.4262861 0.42628613 0.36811846
-0.41863492 0.37211996 0.32561198
-0.411255 0.31986511 0.28461245
-0.40412936 0.26941958 0.24502538
-0.39724645 0.22069244 0.20678706
-0.39059404 0.17359729 0.16982922
-0.38416076 0.12805358 0.13408881
-0.37793601 0.083985768 0.099506594
-0.37190974 0.041323312 0.066027418
-0.36607262 5.9604645e-08 0.033599079
-0.36041707 -0.040046368 0.0021792017
-0.35493246 -0.078873873 -0.028290736
-0.3496123 -0.11653741 -0.057847239
-0.34444928 -0.15308852 -0.0865307
-0.3394365 -0.18857586 -0.11437926
-0.33456755 -0.22304507 -0.14142901
-0.32983631 -0.2565394 -0.16771373
-0.32523701 -0.28909954 -0.19326532
-0.32076421 -0.32076424 -0.21811418
-0.31641278 -0.35156974 -0.24228893
-0.31217781 -0.38155073 -0.26581645
-0.30805475 -0.41073975 -0.28872252
-0.31687245 -0.45770466 -0.23973526
-0.36473888 -0.56737149 0.026189446
-0.35618863 -0.59364772 -0.021312177
-0.34903029 -0.6204983 -0.061080575
-0.36123434 -0.6823315 0.0067195892
-0.42481095 0.79652053 0.65493071
-0.41628134 0.72849238 0.60162067
-0.40808755 0.66314226 0.55040944
-0.40021008 0.60031509 0.50117522
-0.39263248 0.53986955 0.45381534
-0.38533506 0.48166883 0.40820643
-0.37830395 0.42559198 0.36426193
-0.37152481 0.37152475 0.32189235
-0.36498436 0.31936133 0.2810145
-0.3586702 0.26900262 0.24155109
-0.3525708 0.2203567 0.20342989
-0.3466754 0.17333764 0.1665834
-0.34097505 0.1278656 0.13095637
-0.33545801 0.08386451 0.096474826
-0.33011666 0.041264571 0.063091278
-0.32494274 -8.0093741e-08 0.030754395
-0.3199285 -0.039991096 -0.00058465078
-0.31506667 -0.078766689 -0.030971061
-0.31035039 -0.11638148 -0.060447909
-0.3057732 -0.15288664 -0.0890553
-0.30132908 -0.18833067 -0.11683102
-0.2970123 -0.22275928 -0.14381093
-0.29281741 -0.2562153 -0.17002876
-0.28873941 -0.28873938 -0.19551632
-0.28477424 -0.32037103 -0.22029877
-0.28091571 -0.35114461 -0.24441461
-0.27716035 -0.3810955 -0.2678856
-0.27804545 -0.41706818 -0.26235366
-0.34266934 -0.55683768 0.14154549
-0.3341915 -0.58483517 0.088559225
-0.32612202 -0.61147881 0.03812483
-0.31843406 -0.636868 -0.0099250078
-0.32772481 -0.69641531 0.048142403
-0.37103111 0.79506665 0.65008438
-0.36359465 0.7271893 0.59696698
-0.35645044 0.66197944 0.545937
-0.3495816 0.5992828 0.49687353
-0.34297243 0.5389567 0.44966537
-0.33660856 0.48086929 0.40420899
-0.33047655 0.42489851 0.36040914
-0.32456517 0.37093168 0.31818476
-0.31886035 0.31886044 0.27743617
-0.31335264 0.26858795 0.23809548
-0.30803198 0.22002286 0.20009062
-0.30288896 0.17307939 0.1633549
-0.29791486 0.12767783 0.1278258
-0.29310155 0.083743289 0.093444742
-0.28844124 0.041205876 0.060156833
-0.28392774 4.0046871e-08 0.027917679
-0.27955243 -0.039936088 -0.00333458
-0.27530995 -0.078660049 -0.033638161
-0.27119428 -0.11622608 -0.063035853
-0.26719984 -0.1526856 -0.091567352
-0.2633214 -0.18808678 -0.11927062
-0.25955391 -0.22247469 -0.14618127
-0.25589272 -0.25589272 -0.17233264
-0.25233337 -0.28838104 -0.1977565
-0.24887168 -0.31997785 -0.22248286
-0.24550368 -0.35071957 -0.24653989
-0.24222565 -0.3806403 -0.26995453
-0.2476317 -0.42451152 -0.23133972
-0.30960703 -0.57498455 0.21134117
-0.30170396 -0.60340786 0.15489051
-0.29419333 -0.63041425 0.10124305
-0.28704849 -0.65611082 0.050208479
-0.29280385 -0.71109509 0.091318399
-0.32406166 0.86416441 0.70037615
-0.31744587 0.79361469 0.64524448
-0.31109482 0.72588784 0.59231901
-0.30499288 0.66081792 0.54146963
-0.29912692 0.59825379 0.49258664
-0.2934812 0.53804892 0.44553906
-0.28804463 0.48007429 0.4002341
-0.28280583 0.42420867 0.35657752
-0.27775419 0.37033886 0.31448036
-0.27287984 0.31835985 0.27386099
-0.26817364 0.26817372 0.23464243
-0.26362699 0.2196891 0.19675379
-0.25923285 0.1728218 0.16013594
-0.25498194 0.12749097 0.1247116
-0.25086817 0.083622709 0.090430178
-0.24688502 0.0411475 0.057237543
-0.24302641 -2.9802322e-08 0.025082387
-0.23928656 -0.039881092 -0.0060832389
-0.23566003 -0.078553408 -0.036304161
-0.23214182 -0.11607093 -0.065622628
-0.22872709 -0.15248479 -0.094078586
-0.22541137 -0.18784286 -0.12170963
-0.22219041 -0.22219047 -0.14855096
-0.2190602 -0.25557032 -0.17463598
-0.21601698 -0.28802264 -0.1999962
-0.21305773 -0.3195866 -0.22465658
-0.21017788 -0.35029647 -0.24865517
-0.20951577 -0.38411224 -0.25417304
-0.28195274 -0.56390554 0.34946847
-0.27431819 -0.59435618 0.28584743
-0.26708528 -0.62319899 0.22557303
-0.26022485 -0.65056217 0.16840287
-0.2537072 -0.67655253 0.1140891
-0.25637808 -0.72640461 0.13634634
-0.26955003 0.86256003 0.69536269
-0.26405713 0.79217136 0.64043361
-0.25878361 0.72459412 0.58769846
-0.25371662 0.6596632 0.53702837
-0.24884424 0.59722614 0.48830456
-0.24415547 0.53714204 0.44141701
-0.2396401 0.47928017 0.39626321
-0.23528962 0.42352134 0.35275847
-0.23109342 0.36974943 0.31079653
-0.22704427 0.31786203 0.27030498
-0.22313458 0.26776144 0.23120804
-0.21935725 0.21935722 0.19343486
-0.21570569 0.17256457 0.1569192
-0.21217372 0.12730421 0.12159936
-0.20875554 0.083502233 0.087417565
-0.20544574 0.041089103 0.054319687
-0.20223927 -8.6612999e-08 0.022254955
-0.19913197 -0.039826356 -0.0088179726
-0.1961181 -0.078447334 -0.038956758
-0.19319411 -0.11591645 -0.068196692
-0.19035602 -0.15228479 -0.096577629
-0.18760011 -0.18760008 -0.12413663
-0.18492286 -0.22190736 -0.15090916
-0.18232095 -0.25524938 -0.17692824
-0.17979124 -0.28766596 -0.20222533
-0.17733076 -0.31919533 -0.2268301
-0.17493673 -0.34987345 -0.25077036
-0.17772739 -0.39100027 -0.2228639
-0.24338783 -0.58413064 0.43374038
-0.23656777 -0.61507618 0.36554012
-0.23011869 -0.64433229 0.30104917
-0.22401269 -0.67203808 0.2399891
-0.21822159 -0.69830912 0.18207814
-0.21834937 -0.74238783 0.18335599
-0.21523954 0.8609581 0.69035649
-0.21086134 0.79073006 0.635629
-0.20665771 0.72330201 0.58308375
-0.20261922 0.65851247 0.53260279
-0.19873478 0.59620416 0.48404694
-0.19499646 0.53624016 0.43731794
-0.19139619 0.47849041 0.39231467
-0.18792646 0.42283463 0.34894305
-0.18458028 0.36916056 0.30711567
-0.18135117 0.31736451 0.26675189
-0.17823312 0.2673496 0.22777638
-0.17522109 0.21902633 0.19012579
-0.17230856 0.17230861 0.15371928
-0.16949129 0.12711854 0.11850334
-0.16676466 0.083382316 0.084420383
-0.16412435 0.04103113 0.05141674
-0.16156636 6.9849193e-08 0.019441824
-0.15908688 -0.03977162 -0.011551607
-0.15668236 -0.078341253 -0.041608259
-0.15434943 -0.11576213 -0.070769839
-0.15208496 -0.15208495 -0.099075742
-0.14988598 -0.1873575 -0.12656298
-0.14774968 -0.22162455 -0.15326677
-0.14567341 -0.25492838 -0.17922008
-0.1436547 -0.28730938 -0.20445403
-0.14169116 -0.31880516 -0.22899815
-0.14033782 -0.35084453 -0.24591503
-0.20817935 -0.57249302 0.60210407
-0.20195444 -0.60586321 0.52429265
-0.19609022 -0.63729328 0.45098996
-0.19055696 -0.66694921 0.38182405
-0.18532807 -0.6949802 0.31646305
-0.18037783 -0.72151124 0.25458527
-0.17860758 -0.75908232 0.2324571
-0.16454117 0.93239993 0.74221504
-0.16113107 0.85936558 0.68537992
-0.15785944 0.7892971 0.63085294
-0.15471801 0.72201735 0.57849598
-0.1516992 0.65736318 0.52818227
-0.14879592 0.59518373 0.47979417
-0.14600168 0.53533953 0.43322355
-0.14331101 0.47770333 0.38837895
-0.14071716 0.42215151 0.34514841
-0.13821557 0.36857486 0.30345511
-0.13580136 0.31686991 0.26321828
-0.13347004 0.26694009 0.22436288
-0.13121741 0.21869564 0.18681921
-0.12903957 0.17205274 0.15052167
-0.12693283 0.12693281 0.11540927
-0.12489377 0.083262518 0.081424981
-0.12291919 0.040973049 0.048515301
-0.12100606 -5.1222742e-08 0.016630191
-0.1191516 -0.039717261 -0.014277832
-0.1173531 -0.078235358 -0.044252675
-0.11560845 -0.11560851 -0.073330112
-0.11391457 -0.15188611 -0.10156152
-0.11226961 -0.18711597 -0.12897757
-0.11067148 -0.221343 -0.15561306
-0.10911821 -0.25460914 -0.18150097
-0.10760794 -0.28695443 -0.20667204
-0.1061389 -0.31841663 -0.23115605
-0.10714988 -0.35716629 -0.21430632
-0.16236064 -0.59532237 0.70587301
-0.1573182 -0.62927276 0.62183231
-0.15257892 -0.66117543 0.54284424
-0.14811739 -0.69121444 0.46848553
-0.14390884 -0.71954435 0.39834303
-0.13993336 -0.74631113 0.33208475
-0.13703731 -0.77654481 0.28381747
-0.10948685 0.93063819 0.73703349
-0.10722194 0.85777545 0.6804105
-0.10504883 0.78786623 0.62608308
-0.10296249 0.72073746 0.57392448
-0.10095699 0.65622056 0.52378714
-0.099028133 0.59416884 0.47556561
-0.097171597 0.5344438 0.42915237
-0.095383391 0.47691706 0.38444725
-0.093659818 0.42146912 0.34135756
-0.091997415 0.36798966 0.29979765
-0.090393007 0.31637549 0.25968742
-0.088843599 0.26653081 0.22095221
-0.08734671 0.21836683 0.18353008
-0.085899137 0.17179829 0.14734061
-0.084498763 0.12674819 0.11233123
-0.083143309 0.083143361 0.078445084
-0.081830665 0.040915389 0.045628779
-0.080558814 5.3551048e-08 0.013832694
-0.079325907 -0.039662905 -0.016990196
-0.078130156 -0.078130186 -0.046883874
-0.076969922 -0.11545486 -0.07588961
-0.075843647 -0.15168729 -0.10404661
-0.07474985 -0.18687467 -0.13139132
-0.073687159 -0.2210615 -0.15795872
-0.072654262 -0.25428984 -0.18378128
-0.071649916 -0.28659961 -0.20888978
-0.070672959 -0.31802833 -0.23331369
-0.072742112 -0.36371052 -0.18158488
-0.11273596 -0.62004793 0.81826156
-0.109094 -0.65456396 0.72721225
-0.10567954 -0.68691707 0.64185077
-0.10247274 -0.71730912 0.56168067
-0.099454433 -0.74590838 0.4862231
-0.096609212 -0.77287376 0.41509262
-0.093921907 -0.79833627 0.34790993
-0.097482771 -0.87734485 0.43693155
-0.054640416 0.92888695 0.73188305
-0.053512175 0.85619485 0.67547095
-0.052429583 0.78644383 0.62134147
-0.051389929 0.71945906 0.56935871
-0.050390702 0.65507913 0.51939726
-0.049429592 0.59315526 0.471342
-0.048504647 0.53355116 0.42509452
-0.047613502 0.4761351 0.38053733
-0.046754509 0.42079052 0.33758771
-0.04592596 0.36740762 0.29616037
-0.045126267 0.31588396 0.25617576
-0.044353951 0.26612371 0.21755962
-0.043607619 0.21803808 0.18024324
-0.042885993 0.17154399 0.14416195
-0.042187858 0.12656358 0.10925525
-0.041512094 0.083024241 0.075466894
-0.040857632 0.040857691 0.04274385
-0.040223487 -3.0267984e-08 0.011036618
-0.039608728 -0.039608717 -0.019701473
-0.039012477 -0.078024924 -0.049513884
-0.038434025 -0.11530206 -0.078436419
-0.037872363 -0.15148947 -0.10651954
-0.037326884 -0.18663439 -0.13379349
-0.03679689 -0.22078133 -0.16029312
-0.036281742 -0.25397229 -0.18605064
-0.035780814 -0.28624648 -0.21109693
-0.035889331 -0.32300407 -0.20567106
-0.060932871 -0.60932875 1.0465058
-0.058810558 -0.64691627 0.94039023
-0.056830853 -0.6819703 0.84140503
-0.054980334 -0.71474427 0.74887872
-0.053246524 -0.74545133 0.66218841
-0.051618509 -0.77427763 0.58078784
-0.050087295 -0.80139679 0.50422704
-0.048644122 -0.82695019 0.4320685
-0.049968541 -0.89943361 0.49828926
0 1.0027788 0.78535867
0 0.92713851 0.72674036
0 0.85461628 0.67053819
0 0.78502637 0.61661696
0 0.71818787 0.56481946
0 0.65394437 0.51503277
0 0.59214717 0.46714225
0 0.53265935 0.42104098
0 0.47535378 0.37663126
0 0.42011255 0.33382112
0 0.36682612 0.29252604
0 0.31539264 0.25266674
0 0.26571685 0.21416983
0 0.21771047 0.17696646
0 0.17129055 0.14099248
0 0.12637992 0.10619513
0 0.082905687 0.072503947
0 0.040800191 0.039873563
0 2.2817403e-08 0.0082547516
0 -0.039554782 -0.02239899
0 -0.077920198 -0.052131005
0 -0.11514932 -0.08098238
0 -0.15129171 -0.1089916
0 -0.18639432 -0.136195
0 -0.22050129 -0.16262676
0 -0.25365451 -0.18831956
0 -0.28589347 -0.21330369
0 -0.32895714 -0.17259766
0 -0.63797116 1.189719
0 -0.67621523 1.0735676
0 -0.711775 0.96559179
0 -0.74492139 0.86494446
0 -0.77589184 0.77090442
0 -0.80489379 0.68284148
0 -0.83210564 0.60019261
0 -0.85769469 0.5224939
0 -0.92266351 0.56281644
0.055603251 1.0008585 0.78002501
0.054435328 0.9254005 0.72162837
0.05331545 0.85304731 0.66563487
0.052240722 0.78361082 0.61189842
0.051208474 0.71691865 0.56028575
0.05021622 0.65281093 0.51067328
0.049261693 0.59114045 0.46294695
0.048342962 0.53177249 0.41701025
0.047457695 0.47457689 0.37274688
0.046604261 0.41943827 0.3300752
0.045780987 0.36624783 0.28891146
0.044986289 0.31490406 0.24917679
0.044218712 0.26531231 0.21079788
0.043476894 0.21738453 0.17370678
0.042759549 0.17103823 0.13783967
0.04206549 0.12619646 0.10313689
0.041393608 0.082787186 0.069542706
0.040742848 0.040742911 0.03700481
0.040112235 -1.094304e-08 0.0054740617
0.039500847 -0.039500918 -0.025095496
0.038907811 -0.077815704 -0.05474712
0.038332321 -0.114997 -0.08352153
0.037773609 -0.15109442 -0.11145728
0.037231058 -0.18615529 -0.13858475
0.036703765 -0.22022259 -0.16494936
0.036191203 -0.25333852 -0.19057763
0.036063816 -0.28851056 -0.19694674
0.066854827 -0.60169339 1.3426033
0.066854827 -0.66854829 1.3426036
0.064390697 -0.70829755 1.2193971
0.062025346 -0.74430418 1.1011298
0.059827618 -0.77775913 0.99124342
0.057780307 -0.8089242 0.88887751
0.055868477 -0.83802724 0.79328603
0.054078881 -0.86526203 0.70380622
0.052400589 -0.89080995 0.61989164
0.052617393 -0.9471131 0.63073206
0.11099349 0.9989413 0.77469945
0.10866647 0.92366493 0.71652424
0.10643504 0.85148025 0.66073811
0.10429382 0.78220361 0.60720789
0.10223665 0.71565652 0.55577868
0.10025907 0.65168375 0.50633883
0.09835653 0.59013921 0.45877558
0.096524864 0.53088677 0.41298392
0.094760165 0.47380069 0.36886626
0.093058832 0.41876471 0.32633311
0.091417521 0.36567 0.28530014
0.089833088 0.31441587 0.24568962
0.088302657 0.26490799 0.20742872
0.086823493 0.21705869 0.17044958
0.085393064 0.1707861 0.13468888
0.08400929 0.12601402 0.10009444
0.08266937 0.082669422 0.06659656
0.081371531 0.040685747 0.034150608
0.080113806 -6.344635e-08 0.0027074018
0.078894369 -0.039447129 -0.027778406
0.077711508 -0.077711515 -0.057350077
0.076563582 -0.11484533 -0.086048298
0.075449072 -0.15089813 -0.11391078
0.074366555 -0.18591639 -0.14097393
0.073314652 -0.219944 -0.16727138
0.072292097 -0.25302234 -0.19283524
0.073464237 -0.29385698 -0.16353193
0.13019426 -0.5858742 1.2547188
0.13019426 -0.65097129 1.2547185
0.13019426 -0.71606827 1.2547185
0.12999147 -0.77994883 1.2496492
0.12517314 -0.81362534 1.1291904
0.1206992 -0.84489441 1.0173426
0.11653406 -0.8740055 0.91321385
0.11264629 -0.90117025 0.81601954
0.10901002 -0.92658514 0.7251128
0.10809885 -0.97288972 0.70233345
0.16980191 1.075412 0.82989395
0.16617265 0.99703586 0.76940662
0.1626953 0.92194003 0.71145064
0.15936051 0.84992254 0.65587068
0.15615967 0.78079832 0.60252327
0.15308487 0.71439612 0.55127704
0.15012884 0.65055823 0.50200957
0.14728479 0.58913916 0.45460892
0.14454706 0.53000593 0.40897983
0.14190871 0.47302902 0.36500734
0.13936494 0.41809475 0.32261121
0.13691077 0.36509535 0.28170842
0.13454154 0.31393018 0.2422211
0.1322529 0.2645058 0.20407723
0.13004084 0.21673468 0.16720951
0.12790154 0.17053537 0.13155469
0.1258315 0.12583154 0.097053938
0.1238274 0.082551613 0.063652188
0.12188613 0.040628724 0.031297851
0.1200048 -4.6937203e-08 -5.7900979e-05
0.11818065 -0.039393499 -0.030460224
0.11641113 -0.07760746 -0.059952281
0.11469382 -0.11469374 -0.088574059
0.11302644 -0.15070185 -0.11636378
0.11140718 -0.18567868 -0.14335151
0.10983333 -0.21966675 -0.16958216
0.10872003 -0.25367999 -0.18813726
0.19028847 -0.50743598 1.1713364
0.19028942 -0.57086813 1.1713527
0.19028942 -0.63429809 1.1713527
0.19028942 -0.6977278 1.1713524
0.19028942 -0.76115781 1.1713526
0.19028942 -0.82458758 1.1713527
0.18947408 -0.88421237 1.1577636
0.18264143 -0.91320705 1.0438859
0.17628525 -0.94018799 0.93794978
0.17035659 -0.96535408 0.83913869
0.16668548 -1.0001128 0.77795362
0.22596109 1.0733151 0.82437593
0.22114074 0.99513334 0.76412165
0.21652177 0.92021751 0.70638442
0.2120927 0.84837079 0.65102094
0.20784032 0.77940124 0.5978663
0.20375511 0.71314293 0.54680133
0.19982742 0.6494391 0.49770501
0.19604827 0.58814478 0.45046562
0.19240941 0.52912593 0.40498003
0.18890318 0.47225791 0.36115196
0.18552245 0.41742548 0.31889284
0.18226059 0.36452132 0.27811977
0.17911147 0.31344503 0.23875554
0.1760693 0.26410395 0.20072846
0.17312874 0.21641089 0.16397162
0.17028481 0.17028484 0.12842236
0.16753279 0.12564951 0.09402217
0.16486831 0.082434118 0.060716197
0.16228779 0.040572003 0.028459484
0.15978628 4.0978193e-08 -0.0028092524
0.15736073 -0.039340179 -0.033128716
0.15500771 -0.077503853 -0.0625415
0.15272403 -0.11454297 -0.091087461
0.15050666 -0.15050665 -0.11880469
0.14835276 -0.18544087 -0.14572842
0.14625962 -0.21938945 -0.17189251
0.14765966 -0.25840443 -0.15439205
0.24738184 -0.49476361 1.0921354
0.24738184 -0.55660921 1.0921354
0.24738184 -0.61845458 1.0921353
0.24738184 -0.6803 1.0921352
0.24738184 -0.74214566 1.0921354
0.24738184 -0.80399108 1.0921353
0.24738184 -0.86583638 1.0921352
0.24738184 -0.92768198 1.0921353
0.24568433 -0.98273706 1.0709159
0.23706087 -1.0075088 0.96312332
0.22902228 -1.0306 0.86264074
0.28190297 1.0712314 0.81889212
0.27590066 0.99324238 0.75886893
0.27014863 0.91850543 0.70134866
0.26463157 0.84682107 0.64617795
0.25933528 0.77800596 0.59321529
0.25424689 0.71189129 0.54233116
0.2493543 0.64832115 0.49340543
0.24464646 0.58715141 0.44632688
0.24011311 0.52824891 0.40099347
0.23574471 0.47148949 0.3573094
0.23153326 0.41675979 0.31519467
0.22746882 0.36395007 0.27455044
0.22354461 0.31296235 0.23530838
0.21975352 0.26370427 0.19739734
0.21608885 0.21608886 0.16075078
0.21254441 0.17003557 0.12530644
0.20911439 0.12546861 0.091005951
0.20579329 0.082317293 0.057795227
0.20257604 0.04051524 0.025622722
0.19945782 1.2014061e-07 -0.0055593364
0.19643417 -0.039286871 -0.035795934
0.19350082 -0.077400334 -0.065129548
0.19065377 -0.11439228 -0.093599848
0.18788929 -0.15031141 -0.12124465
0.18520384 -0.18520389 -0.14809923
0.18259409 -0.21911284 -0.17419691
0.18806595 -0.26329228 -0.11947844
0.30169165 -0.48270676 1.0167789
0.30169165 -0.54304492 1.0167789
0.30169165 -0.60338318 1.0167789
0.30169165 -0.66372162 1.0167789
0.30169165 -0.72406006 1.0167789
0.30169165 -0.78439832 1.0167789
0.30169165 -0.84473675 1.0167789
0.30169311 -0.90507925 1.0167934
0.30169311 -0.96541792 1.0167934
0.30169311 -1.0257567 1.0167935
0.29888698 -1.0759932 0.98873192
0.3102046 -1.1787775 1.1019082
0.33762655 1.0691507 0.81341666
0.3304514 0.99135423 0.75362408
0.32357633 0.9167996 0.69633168
0.31698012 0.84528047 0.64136338
0.31064752 0.77661878 0.58859158
0.30456296 0.71064687 0.53788686
0.29871216 0.64720976 0.48913044
0.29308194 0.58616388 0.44221178
0.28766003 0.52737665 0.39702913
0.28243506 0.47072521 0.35348785
0.27739653 0.41609466 0.31150007
0.27253464 0.36337948 0.27098417
0.26784021 0.31248033 0.23186409
0.26330477 0.26330471 0.19406877
0.2589204 0.215767 0.15753216
0.25467962 0.16978638 0.12219249
0.25057554 0.12528774 0.087991767
0.24660163 0.082200527 0.054875776
0.24275255 0.040458862 0.02280027
0.23902105 -5.3085387e-08 -0.0082956618
0.23540252 -0.03923377 -0.038449902
0.23189193 -0.077297322 -0.067704871
0.2284845 -0.11424223 -0.096100196
0.22517577 -0.15011714 -0.12367295
0.2219615 -0.18496788 -0.15045869
0.22259724 -0.22259718 -0.14516065
0.35341749 -0.41232049 0.94500792
0.35341749 -0.47122332 0.94500804
0.35341749 -0.53012615 0.94500804
0.35341913 -0.58903188 0.94502151
0.35341913 -0.64793521 0.94502175
0.35341913 -0.70683819 0.94502157
0.35341913 -0.76574153 0.94502181
0.35341913 -0.82464468 0.94502181
0.35341913 -0.8835479 0.94502169
0.35341913 -0.942451 0.94502169
0.35341913 -1.0013541 0.94502163
0.36392218 -1.0917666 1.032547
0.40184417 1.1481261 0.87017769
0.39313582 1.0670829 0.80797511
0.38479686 0.98947763 0.74841118
0.37680429 0.91509628 0.69132167
0.36913705 0.84374177 0.63655525
0.36177558 0.77523339 0.58397347
0.354702 0.70940381 0.53344768
0.34789968 0.64609939 0.48486015
0.34135342 0.58517718 0.43810087
0.33504891 0.52650535 0.39306876
0.32897308 0.46996155 0.34967011
0.32311487 0.41543359 0.30782568
0.31746051 0.36281201 0.26743728
0.31200063 0.31200072 0.2284382
0.30672538 0.26290745 0.19075778
0.30162558 0.21544687 0.15433046
0.29669255 0.16953865 0.11909477
0.29191831 0.12510785 0.084992953
0.28729525 0.082084358 0.051971249
0.28281638 0.040402293 0.019979244
0.27847499 1.1175871e-08 -0.011030618
0.2742649 -0.039180752 -0.04110286
0.27018017 -0.077194385 -0.070279352
0.26621535 -0.11409225 -0.098599546
0.26236519 -0.149923 -0.12610048
0.25862485 -0.18473196 -0.1528174
0.26463816 -0.22683266 -0.10986523
0.40274125 -0.40274128 0.87658548
0.40274125 -0.46027577 0.8765856
0.40274125 -0.51781017 0.87658548
0.40274125 -0.57534468 0.87658566
0.40274125 -0.63287914 0.87658548
0.40274125 -0.69041348 0.87658548
0.40274125 -0.74794805 0.8765856
0.4027431 -0.80548614 0.8765986
0.4027431 -0.86302084 0.8765986
0.4027431 -0.92055571 0.87659872
0.41529009 -1.0085615 0.96622002
0.45834234 1.1458557 0.86450177
0.44842878 1.0650184 0.80254209
0.43893501 0.98760366 0.74320614
0.42983487 0.9133991 0.6863302
0.42110443 0.84220892 0.63176507
0.41272324 0.77385604 0.5793826
0.40466756 0.70816833 0.5290345
0.39692032 0.64499551 0.48061433
0.38946414 0.58419621 0.43401319
0.38228294 0.52563906 0.38913059
0.37536174 0.46920222 0.34587324
0.36868671 0.41477257 0.30415431
0.36224496 0.36224502 0.26389325
0.35602444 0.31152141 0.225015
0.35001394 0.26251048 0.18744919
0.34420303 0.21512683 0.15113106
0.33858186 0.16929092 0.11599892
0.33314139 0.12492808 0.081995919
0.32787296 0.081968218 0.04906841
0.32276964 0.04034628 0.01717254
0.31782174 2.7939677e-09 -0.013751971
0.31302324 -0.039127946 -0.043742564
0.30836749 -0.077091873 -0.072841018
0.30384818 -0.11394308 -0.10108669
0.29945943 -0.14972971 -0.12851627
0.2982873 -0.1864296 -0.1358421
0.44982326 -0.33736745 0.81125766
0.44982326 -0.39359534 0.8112576
0.44982326 -0.44982338 0.81125766
0.44982326 -0.50605112 0.81125766
0.44982326 -0.56227899 0.81125754
0.44982529 -0.61850977 0.81127018
0.44982529 -0.67473769 0.81127
0.44982529 -0.73096597 0.81127012
0.44982529 -0.78719413 0.81127012
0.44982725 -0.84342611 0.81128275
0.46445918 -0.9289183 0.90273201
0.50351048 1.0629666 0.79714251
0.49287063 0.98574126 0.7380324
0.4826712 0.91171223 0.68136871
0.47288531 0.84068489 0.62700278
0.46348834 0.77248049 0.57479739
0.45445755 0.70693409 0.52462655
0.44577199 0.64389277 0.47637314
0.43741217 0.58321625 0.42992988
0.42936015 0.52477348 0.38519639
0.42159921 0.46844351 0.34207991
0.41411385 0.41411376 0.30049458
0.40688965 0.3616797 0.26036042
0.39991459 0.31104469 0.22160992
0.39317331 0.2621156 0.18415833
0.38665548 0.21480858 0.14794838
0.38035026 0.16904454 0.11291921
0.37424737 0.12474903 0.079014324
0.36833724 0.081852689 0.046180323
0.36261088 0.040290087 0.014367091
0.35705984 -1.3969839e-08 -0.016472057
0.35167617 -0.039075132 -0.046381168
0.34645244 -0.076989435 -0.075401835
0.34138167 -0.1137938 -0.10357298
0.33645716 -0.14953658 -0.13093129
0.34199721 -0.18999854 -0.10015334
0.49481434 -0.32987621 0.74883091
0.49481651 -0.38485736 0.7488429
0.49481651 -0.43983692 0.74884284
0.49481651 -0.49481642 0.74884284
0.49481651 -0.54979622 0.74884295
0.49481869 -0.60477835 0.74885488
0.49481869 -0.65975821 0.74885488
0.49481869 -0.71473807 0.74885482
0.49481869 -0.76971793 0.74885488
0.51156765 -0.85261267 0.84190464
0.55837786 1.060918 0.79175144
0.54660088 0.98388147 0.73286641
0.53531039 0.91002756 0.67641407
0.52447689 0.83916301 0.6222468
0.5140754 0.7711131 0.57023907
0.5040763 0.70570695 0.52024388
0.49445882 0.64279658 0.47215652
0.48520142 0.58224177 0.42586958
0.47628438 0.52391267 0.38128397
0.46768907 0.46768898 0.33830759
0.45939854 0.41345862 0.296855
0.45139685 0.36111742 0.25684649
0.44366908 0.31056833 0.21820784
0.43620148 0.2617209 0.18086967
0.42898107 0.21449053 0.14476773
0.42199585 0.16879828 0.10984148
0.41523442 0.12457035 0.076034456
0.40868628 0.08173722 0.043293767
0.40234146 0.040234163 0.01156944
0.39619061 6.519258e-09 -0.019184617
0.39022622 -0.039022617 -0.049006607
0.38443756 -0.076887503 -0.077949941
0.37881812 -0.1136455 -0.10604709
0.37474281 -0.14989708 -0.12642373
0.53785312 -0.26892656 0.68912792
0.53785312 -0.32271171 0.68912768
0.53785312 -0.37649709 0.68912768
0.53785539 -0.43028432 0.68913919
0.53785539 -0.48406994 0.68913925
0.53785539 -0.53785545 0.68913925
0.53785539 -0.59164089 0.68913919
0.53785771 -0.64542931 0.68915069
0.53785771 -0.69921505 0.68915069
0.55674243 -0.77943933 0.78357434
0.60013127 0.98203307 0.72773182
0.58775795 0.90835321 0.6714893
0.57588452 0.83765024 0.61751926
0.56448126 0.76974726 0.5656864
0.55352092 0.70448112 0.51586634
0.54297805 0.64170134 0.46794409
0.53282928 0.58126831 0.42181349
0.52305293 0.52305305 0.37737557
0.5136289 0.46693531 0.33453888
0.50453836 0.41280401 0.29321843
0.49576411 0.36055577 0.25333548
0.48729149 0.31009462 0.21482359
0.47910193 0.26132837 0.17759851
0.47118312 0.21417412 0.14160377
0.46352184 0.16855347 0.10677965
0.45610568 0.12439251 0.073069938
0.44892311 0.08162237 0.040421788
0.44196323 0.040178459 0.0087860879
0.43521589 4.5634806e-08 -0.021883653
0.42867145 -0.038970161 -0.051631209
0.42232093 -0.076785728 -0.080497123
0.41615582 -0.11349701 -0.10852043
0.42015654 -0.15278418 -0.090335265
0.5790621 -0.26321018 0.63196284
0.5790621 -0.31585217 0.63196278
0.5790621 -0.36849409 0.63196272
0.57906455 -0.42113769 0.63197368
0.57906455 -0.47377998 0.63197374
0.57906455 -0.52642226 0.63197386
0.57906455 -0.57906455 0.63197386
0.57906699 -0.6317094 0.63198483
0.6001001 -0.70920932 0.72759002
0.64001018 0.90668094 0.6665712
0.62710446 0.83613914 0.6127975
0.61470902 0.76838624 0.56114972
0.60279638 0.70326257 0.51151407
0.59133446 0.6406123 0.46375588
0.58030033 0.58030033 0.41778031
0.56967038 0.52219796 0.37348878
0.55942285 0.46618557 0.3307907
0.54953754 0.4121531 0.28960198
0.53999549 0.35999697 0.24984333
0.53077912 0.30962113 0.21144199
0.52187216 0.26093608 0.17432947
0.51325911 0.21385798 0.13844194
0.50492579 0.16830859 0.10371976
0.49685875 0.12421462 0.07010702
0.48904544 0.081507556 0.037551507
0.48147401 0.040122833 0.0060039256
0.47413349 -7.9162419e-08 -0.024581604
0.46701488 -0.038917936 -0.054242387
0.46010542 -0.076684184 -0.083031811
0.45339748 -0.11334924 -0.11098164
0.46731791 -0.15577263 -0.052979752
0.61855567 -0.25773156 0.57717758
0.61855567 -0.30927786 0.57717752
0.61855567 -0.36082423 0.57717764
0.61855567 -0.41237035 0.57717752
0.61855823 -0.46391863 0.57718813
0.61855823 -0.51546532 0.57718819
0.61855823 -0.56701177 0.57718825
0.64174825 -0.64174825 0.6738134
0.67814279 0.83463734 0.60810357
0.66476208 0.7670331 0.55663931
0.65189916 0.70204526 0.50716668
0.63952458 0.63952458 0.45957223
0.6276111 0.57933331 0.41375113
0.61613333 0.52134365 0.36960599
0.60506785 0.46543688 0.32704636
0.59439278 0.41150272 0.28598836
0.58408791 0.35943866 0.24635398
0.57413626 0.30915022 0.20807853
0.56451601 0.26054594 0.17107785
0.55521297 0.21354342 0.13529652
0.54621148 0.16806509 0.10067569
0.53749728 0.12403789 0.067159325
0.52905673 0.081393287 0.034695718
0.52087712 0.040067513 0.0032359846
0.51294667 -1.8626451e-08 -0.027266014
0.50525403 -0.038865678 -0.056852799
0.49778876 -0.076582812 -0.085565574
0.49912325 -0.11518227 -0.080432795
0.65643609 -0.20198041 0.52461636
0.65643871 -0.25247633 0.52462649
0.65643871 -0.30297178 0.52462661
0.65643871 -0.35346705 0.52462655
0.65643871 -0.40396231 0.52462649
0.65644133 -0.45445925 0.52463651
0.65644133 -0.50495493 0.52463651
0.681786 -0.57689577 0.62211591
0.71463627 0.76568168 0.55213463
0.70083225 0.70083231 0.50283444
0.68755406 0.63844317 0.45541245
0.67476708 0.57837188 0.40974471
0.66244704 0.52049404 0.36574432
0.65056878 0.46469197 0.32332209
0.63910902 0.4108558 0.28239441
0.62804598 0.3588835 0.24288371
0.61735946 0.30867979 0.20471743
0.60703051 0.26015604 0.16782834
0.59704149 0.21322921 0.13215335
0.58737594 0.16782171 0.097633407
0.57801831 0.12386103 0.06421347
0.56895417 0.081279241 0.031841464
0.56016994 0.040012106 0.0004692208
0.55165279 -5.6810677e-08 -0.02994908
0.54339081 -0.038813684 -0.059456222
0.53537261 -0.076481752 -0.08809261
0.54809016 -0.1174479 -0.042672951
0.69280499 -0.19794428 0.47416583
0.69280773 -0.24743132 0.47417551
0.69280773 -0.29691756 0.47417557
0.69280773 -0.34640378 0.47417545
0.69280773 -0.39589012 0.47417557
0.69281042 -0.44537815 0.47418535
0.74959946 0.69962621 0.49852717
0.73541838 0.63736266 0.45125687
0.72176397 0.57741117 0.40574211
0.70860732 0.51964527 0.36188671
0.69592178 0.46394786 0.31960151
0.68368238 0.41020942 0.2788035
0.67186612 0.35832861 0.23941597
0.66045135 0.30821061 0.20136659
0.64941794 0.25976712 0.16458872
0.63874924 0.2129164 0.12902658
0.62842339 0.16757953 0.094606921
0.61842608 0.12368518 0.061282489
0.60874182 0.081165642 0.029001789
0.59935617 0.039957028 -0.002283657
0.59025562 2.6077032e-08 -0.032618869
0.58142728 -0.038761877 -0.062046722
0.57890785 -0.077187695 -0.07044477
0.72774893 -0.14554977 0.42569202
0.72774893 -0.19406646 0.42569205
0.72775173 -0.24258384 0.42570147
0.72775173 -0.29110071 0.42570147
0.72775173 -0.33961743 0.42570138
0.72775173 -0.38813421 0.42570132
0.78312409 0.6362884 0.4471252
0.76860797 0.57645595 0.40176219
0.75462019 0.51880133 0.35805041
0.74113244 0.46320784 0.31590134
0.72811836 0.40956658 0.2752322
0.71555346 0.35777676 0.23596692
0.70341486 0.30774397 0.19803372
0.69168121 0.2593804 0.16136606
0.6803326 0.21260388 0.12590161
0.66935039 0.16733757 0.091582149
0.6587171 0.12350939 0.058353193
0.64841634 0.081052035 0.026163375
0.6384328 0.03990202 -0.0050351769
0.62875205 3.3527613e-08 -0.035287648
0.61936045 -0.038710058 -0.06463629
0.629722 -0.07871531 -0.032256406
0.76135004 -0.14275308 0.37908113
0.76135004 -0.19033749 0.37908116
0.76135004 -0.23792195 0.3790811
0.7613529 -0.28550729 0.3790901
0.7613529 -0.33309188 0.3790901
0.81529415 0.5755018 0.39778641
0.8004809 0.5179581 0.35421762
0.78619629 0.46246836 0.31220415
0.77241254 0.40892428 0.27166373
0.75910378 0.3572253 0.23252048
0.74624586 0.30727777 0.19470316
0.73381633 0.25899392 0.15814555
0.72179651 0.21229312 0.12279308
0.71016169 0.1670969 0.088573128
0.69889605 0.1233346 0.055438776
0.68798226 0.080939062 0.023339374
0.67740405 0.039847266 -0.007772903
0.66714621 -1.6763806e-08 -0.037942991
0.65952498 -0.038795516 -0.060358338
0.79368418 -0.093374655 0.33422756
0.79368418 -0.14006194 0.33422756
0.79368418 -0.18674913 0.3342275
0.79368418 -0.23343652 0.33422756
0.79379588 -0.28016323 0.33455616
0.84619588 0.51711959 0.35040623
0.83111948 0.46173295 0.30852738
0.81657088 0.40828538 0.26811469
0.8025229 0.35667682 0.22909245
0.78895009 0.30681387 0.19139028
0.77582878 0.25860953 0.15494217
0.76313674 0.21198246 0.11968651
0.7508533 0.16685626 0.085565768
0.73895901 0.12315986 0.05252621
0.72743565 0.080826133 0.020516902
0.71626616 0.03979259 -0.010509437
0.70543462 -6.3329935e-08 -0.040597238
0.71222734 -0.03956816 -0.021728365
0.82481879 -0.091646463 0.29102552
0.82482183 -0.1374703 0.29103389
0.82482183 -0.18329379 0.29103395
0.82626683 -0.22951856 0.29504788
0.87589681 0.46099842 0.30485398
0.86058843 0.40764719 0.26456863
0.84580594 0.35612875 0.22566733
0.83152264 0.30635053 0.18807977
0.81771386 0.25822547 0.15174085
0.8043561 0.21167266 0.11658897
0.79142785 0.16661635 0.082567111
0.77891105 0.12298597 0.049628336
0.76678163 0.080713853 0.017708678
0.75502414 0.039738171 -0.013232177
0.74362177 -6.7055225e-08 -0.043238297
0.76704198 -0.040370718 0.018393755
0.85482496 -0.089981653 0.24940163
0.85482806 -0.13497293 0.24940962
0.85765707 -0.18055934 0.25685447
0.90447176 0.40701225 0.2610417
0.88895923 0.35558364 0.22226033
0.87396985 0.30588937 0.18478689
0.85947758 0.2578432 0.14855625
0.84545809 0.21136454 0.11350759
0.83188862 0.16637766 0.079583906
0.81874788 0.12281214 0.046731986
0.80601585 0.080601484 0.014901798
0.79367369 0.039683737 -0.015953649
0.7956202 -4.5169145e-08 -0.011087252
0.88376027 -0.044188052 0.20926306
0.88376027 -0.088376023 0.209263
0.88801968 -0.13320293 0.21991147
0.93197739 0.35503894 0.2188561
0.91628635 0.30542877 0.18149653
0.90111488 0.25746149 0.14537385
0.88643759 0.21105653 0.11042801
0.87223089 0.16613927 0.07660234
0.85847503 0.12263932 0.043850496
0.84514368 0.080489911 0.012109175
0.83222008 0.039629567 -0.018661495
0.85243618 1.1175871e-08 0.029472204
0.91168118 -0.043413356 0.17053181
0.91740113 -0.087371528 0.18415079
0.9748674 0.35449725 0.21547006
0.95847881 0.30497056 0.17822331
0.9426322 0.25708154 0.14220817
0.92730099 0.21075031 0.10736454
0.91246051 0.16590196 0.073636226
0.89808762 0.12246649 0.040970456
0.88416046 0.080378242 0.0093178973
0.8799178 0.039996333 -0.00032441877
0.93864006 5.2154064e-08 0.13313514
0.94585437 -0.042993352 0.14953122
1.0005414 0.30451268 0.17495248
0.98402387 0.25670183 0.13904452
0.96804273 0.21044405 0.10430282
0.95257235 0.16566476 0.070671737
0.93758869 0.12229407 0.038098548
0.92306906 0.080266856 0.0065342486
0.93877292 0.04081621 0.040672969
0.97341961 1.8626451e-08 0.11599189
1.0252969 0.25632417 0.13589734
1.0086695 0.21013948 0.10125713
0.99257284 0.16542873 0.067722455
0.97698194 0.12212278 0.035241265
0.96512645 0.080427185 0.010542504
1.0001379 0.041672498 0.083482988
1.0491755 0.20983508 0.0982133
1.0324563 0.16519301 0.064774811
1.0162616 0.12195136 0.032385495
1.0260679 0.082085423 0.051998034
1.0722296 0.16495845 0.061842378
1.0554346 0.12178092 0.029544163
