# .PCD v0.7 - Point Cloud Data file format
VERSION 0.7
FIELDS x y z
SIZE 4 4 4
TYPE F F F
COUNT 1 1 1
WIDTH 1246
HEIGHT 1
VIEWPOINT 0 0 0 1 0 0 0
POINTS 1246
DATA ascii
-0.9666416 -0.63041842 0.10125721
-0.89908361 -0.44954175 0.04323405
-0.90667492 -0.49454993 0.060486987
-0.91439551 -0.54032457 0.07803376
-0.92225176 -0.58688742 0.095889047
-0.93024111 -0.63425523 0.11404647
-0.84201658 -0.3207683 0.0046636015
-0.84899074 -0.3638531 0.02126874
-0.85608137 -0.40765783 0.038151354
-0.86329424 -0.45220172 0.055324882
-0.87062687 -0.49750119 0.072783485
-0.87808806 -0.54357821 0.090548187
-0.88567525 -0.59045017 0.10861279
-0.89339769 -0.63814121 0.12699974
-0.90125293 -0.68666893 0.14570263
-0.78076911 -0.15615375 -0.04821492
-0.78706408 -0.196766 -0.032477729
-0.79346126 -0.23803838 -0.016484447
-0.79996592 -0.27998808 -0.00022289157
-0.80657548 -0.32263017 0.016301006
-0.81329525 -0.36598289 0.033100322
-0.82013053 -0.41006526 0.050188497
-0.82707894 -0.45489341 0.067559585
-0.83414888 -0.50048935 0.085234463
-0.84133792 -0.54686958 0.10320708
-0.84865201 -0.59405637 0.12149218
-0.85609722 -0.64207292 0.14010535
-0.86367422 -0.69093937 0.15904775
-0.7226674 1.8626451e-08 -0.09838149
-0.72834516 -0.038334001 -0.083440006
-0.73411059 -0.077274807 -0.068267815
-0.73997033 -0.11683746 -0.052847374
-0.74592203 -0.15703622 -0.037184965
-0.75197023 -0.1978869 -0.021268643
-0.75811976 -0.23940626 -0.0050857067
-0.76436824 -0.2816093 0.011357591
-0.7707206 -0.32451397 0.028074205
-0.77718186 -0.36813879 0.045077756
-0.78374988 -0.41249996 0.062361926
-0.79043251 -0.45761883 0.079947755
-0.79722732 -0.50351208 0.097828954
-0.80414003 -0.55020112 0.11602029
-0.81117642 -0.59770894 0.13453712
-0.81833702 -0.64605558 0.15338071
-0.82562232 -0.69526088 0.1725525
-0.66747934 0.14832874 -0.14602849
-0.67259109 0.11209843 -0.13182913
-0.67777973 0.075308844 -0.11741627
-0.68304908 0.037947096 -0.10277914
-0.68840307 -3.7252903e-08 -0.087906942
-0.69383955 -0.038546652 -0.072805643
-0.69936472 -0.077707194 -0.057458028
-0.70497638 -0.11749604 -0.041869983
-0.71067888 -0.15792874 -0.02602981
-0.71647662 -0.19902125 -0.0099249855
-0.72236741 -0.24078912 0.0064383671
-0.72835588 -0.28324944 0.023073092
-0.73444682 -0.32642084 0.039992452
-0.7406382 -0.37031901 0.057190448
-0.74693722 -0.41496503 0.074687794
-0.75334173 -0.46037555 0.092478231
-0.75985712 -0.50657141 0.11057642
-0.76648879 -0.55357516 0.12899776
-0.77323449 -0.60140461 0.147736
-0.78010279 -0.65008557 0.16681436
-0.78709418 -0.6996392 0.18623497
-0.61498904 0.28940663 -0.19134638
-0.61958104 0.25512162 -0.17784049
-0.62424403 0.22032148 -0.16412592
-0.62897581 0.18499292 -0.1502088
-0.63378179 0.14912504 -0.13607369
-0.63865983 0.11270465 -0.12172637
-0.64361358 0.075719163 -0.10715662
-0.64864677 0.03815566 -0.092353135
-0.65375727 8.5681677e-08 -0.077322342
-0.6589489 -0.038761694 -0.062052708
-0.6642257 -0.078144215 -0.046532616
-0.66958565 -0.11816209 -0.030768055
-0.675035 -0.15883178 -0.014740869
-0.6805715 -0.20016807 0.0015432835
-0.68619961 -0.24218804 0.018096425
-0.6919238 -0.28490978 0.034932323
-0.69774204 -0.32834914 0.052044764
-0.70366126 -0.37252644 0.069454312
-0.70967942 -0.41745847 0.087154835
-0.71580142 -0.46316555 0.10516071
-0.72203243 -0.5096699 0.12348713
-0.72837037 -0.55698901 0.14212812
-0.73482305 -0.60514832 0.16110657
-0.74139112 -0.65416867 0.18042441
-0.74807501 -0.70407069 0.20008306
-0.56500351 0.42375255 -0.23450187
-0.56912088 0.39127058 -0.22163497
-0.57330036 0.3583127 -0.20857409
-0.57754004 0.32486621 -0.19532514
-0.5818429 0.29092145 -0.18187881
-0.58621204 0.25646782 -0.1682252
-0.59064555 0.22149217 -0.15437041
-0.59514838 0.1859839 -0.14029901
-0.59971863 0.14992963 -0.12601693
-0.60435963 0.11331748 -0.11151376
-0.60907489 0.076134391 -0.09677887
-0.6138624 0.038366415 -0.081817843
-0.61872572 -1.0430813e-07 -0.066619851
-0.62366867 -0.038979217 -0.051173091
-0.62868929 -0.078586183 -0.035483748
-0.63379341 -0.11883623 -0.019533344
-0.63897902 -0.15974478 -0.0033282489
-0.64425021 -0.20132814 0.013144195
-0.64961118 -0.24360421 0.029897213
-0.65505999 -0.28658867 0.046924829
-0.66060317 -0.33030158 0.064247206
-0.66623873 -0.37475923 0.081858307
-0.67197126 -0.41998202 0.099772543
-0.67780566 -0.46599138 0.11800492
-0.68373984 -0.51280493 0.13654928
-0.68978125 -0.56044722 0.15542868
-0.69592798 -0.60893703 0.17463717
-0.70218766 -0.65830088 0.19419868
-0.708561 -0.70856112 0.21411537
-0.51734751 0.55183727 -0.27564597
-0.52102917 0.52102911 -0.26337385
-0.52476358 0.48977932 -0.25092584
-0.52855343 0.45807964 -0.23829305
-0.53239679 0.42591745 -0.22548163
-0.5362981 0.39328527 -0.21247748
-0.54025543 0.36017027 -0.19928639
-0.54427159 0.32656291 -0.18589911
-0.5483495 0.29245305 -0.17230608
-0.55248731 0.2578274 -0.15851316
-0.55668813 0.22267529 -0.1445107
-0.56095493 0.18698496 -0.13028787
-0.56528598 0.15074292 -0.11585119
-0.56968617 0.11393714 -0.10118394
-0.5741536 0.076553784 -0.086292453
-0.57869166 0.038579442 -0.071165495
-0.58330387 7.6368451e-08 -0.055791564
-0.58798832 -0.039199162 -0.040176753
-0.59274864 -0.079033196 -0.024308974
-0.59758854 -0.11951771 -0.0081759393
-0.60250622 -0.16066825 0.0082162172
-0.60750747 -0.20250246 0.024886988
-0.61259043 -0.24503613 0.041830324
-0.61776119 -0.28828847 0.059066243
-0.62301791 -0.33227614 0.076588653
-0.62836492 -0.37701893 0.094411969
-0.63380659 -0.42253768 0.11255085
-0.63934118 -0.4688502 0.13099959
-0.64497328 -0.51597869 0.14977323
-0.65070772 -0.56394672 0.16888796
-0.65654504 -0.61277527 0.1883458
-0.6624881 -0.66248798 0.20815589
-0.66853732 -0.71310651 0.22831994
-0.47514299 0.64483684 -0.30319852
-0.47846985 0.61517549 -0.29131681
-0.48184496 0.58509749 -0.27926278
-0.48526675 0.55459058 -0.26704228
-0.4887374 0.52364725 -0.25464696
-0.49225947 0.4922595 -0.24206825
-0.49583125 0.46041474 -0.2293117
-0.4994553 0.42810455 -0.21636882
-0.50313407 0.3953197 -0.20323023
-0.50686604 0.3620472 -0.18990183
-0.51065528 0.32827836 -0.17636894
-0.51450008 0.29400006 -0.1626375
-0.51840317 0.25920162 -0.14869787
-0.52236748 0.22387186 -0.13453944
-0.52639139 0.18799692 -0.12016852
-0.53047937 0.15156548 -0.10556871
-0.53462964 0.11456356 -0.090746082
-0.53884542 0.076977894 -0.075689815
-0.54312986 0.038794935 -0.060388207
-0.5474813 -7.6368451e-08 -0.044847425
-0.55190474 -0.039421827 -0.029049441
-0.55639851 -0.079485513 -0.013000201
-0.56096601 -0.12020699 0.0033124089
-0.56561095 -0.16160309 0.019901499
-0.57033169 -0.2036899 0.03676109
-0.57513177 -0.2464851 0.053904407
-0.58001536 -0.29000774 0.071345679
-0.58498061 -0.33427462 0.089078613
-0.59003353 -0.37930733 0.10712485
-0.59517252 -0.42512321 0.12547854
-0.60040182 -0.47174433 0.14415465
-0.60572594 -0.51919365 0.16316921
-0.61114532 -0.56749213 0.18252406
-0.61666036 -0.61666024 0.20222069
-0.62227809 -0.66672653 0.22228384
-0.62799907 -0.71771324 0.242716
-0.44337004 0.64800239 -0.29486835
-0.44648981 0.61821663 -0.28286922
-0.44965503 0.58801043 -0.27069533
-0.4528642 0.55737132 -0.2583524
-0.45612076 0.52629322 -0.24582706
-0.45942321 0.49476343 -0.23312536
-0.46277383 0.46277386 -0.22023833
-0.46617502 0.43031543 -0.20715687
-0.4696252 0.39737523 -0.19388688
-0.4731282 0.36394477 -0.18041372
-0.47668251 0.33001089 -0.16674346
-0.48029062 0.29556346 -0.15286608
-0.48395514 0.26059118 -0.13877173
-0.48767462 0.22508061 -0.12446611
-0.49145314 0.18902038 -0.10993329
-0.49528921 0.1523966 -0.09517917
-0.49918559 0.11519662 -0.080193058
-0.5031454 0.077407077 -0.064963229
-0.50716686 0.039012864 -0.04949588
-0.51125479 -8.5681677e-08 -0.033773191
-0.5154075 -0.039646719 -0.017801175
-0.51962823 -0.0799428 -0.0015676282
-0.5239203 -0.12090461 0.01494053
-0.52828223 -0.16254839 0.031717028
-0.53271741 -0.20489129 0.048775233
-0.53722936 -0.24795201 0.066129066
-0.54181665 -0.29174742 0.083772458
-0.54648477 -0.33629835 0.10172671
-0.55123216 -0.38162228 0.11998596
-0.55606282 -0.42774063 0.13856538
-0.56098074 -0.47467604 0.15748051
-0.56598449 -0.52244723 0.17672572
-0.57108033 -0.57108033 0.19632505
-0.57626873 -0.62059712 0.21628049
-0.58155227 -0.67102194 0.23660184
-0.58693153 -0.72237718 0.25729111
-0.41128364 0.6511991 -0.28645593
-0.41419315 0.62128973 -0.27433291
-0.41714296 0.59095258 -0.26204205
-0.42013624 0.56018168 -0.24957
-0.42317164 0.52896452 -0.23692265
-0.42625117 0.49729306 -0.2240911
-0.42937711 0.46515852 -0.21106642
-0.43254799 0.43254796 -0.19785449
-0.43576729 0.3994534 -0.18444063
-0.43903363 0.36586133 -0.17083099
-0.44234926 0.33176199 -0.15701574
-0.44571668 0.29714441 -0.14298481
-0.44913444 0.26199505 -0.12874413
-0.45260638 0.22630319 -0.11427782
-0.45613104 0.19005463 -0.099591762
-0.45971102 0.15323697 -0.084675118
-0.46334907 0.11583726 -0.069516659
-0.4670437 0.077840604 -0.054122306
-0.47079772 0.039233226 -0.038480476
-0.47461408 2.4214387e-08 -0.022578932
-0.47849134 -0.039874263 -0.0064238682
-0.48243394 -0.080405667 0.010003738
-0.48644054 -0.12161013 0.026697811
-0.49051419 -0.16350468 0.043671466
-0.49465835 -0.20610768 0.060938641
-0.49887139 -0.24943569 0.078493223
-0.50315857 -0.29350913 0.096356191
-0.50751829 -0.33834559 0.11452185
-0.51195425 -0.38396579 0.13300508
-0.51647025 -0.43039185 0.15182164
-0.52106482 -0.4776428 0.17096558
-0.52574366 -0.5257436 0.19046088
-0.53050727 -0.57471621 0.21030939
-0.53535616 -0.62458223 0.2305129
-0.54029644 -0.67537057 0.25109738
-0.54532874 -0.72710496 0.27206528
-0.38157275 0.62439179 -0.2657162
-0.38430497 0.59392577 -0.253297
-0.38707551 0.56301892 -0.24070355
-0.38988632 0.53166312 -0.22792727
-0.39273933 0.49985009 -0.21495897
-0.39563328 0.46756658 -0.20180464
-0.39857134 0.43480504 -0.18844983
-0.40155223 0.40155214 -0.17490046
-0.40457803 0.36779821 -0.16114673
-0.40765095 0.33353257 -0.1471789
-0.4107697 0.29874158 -0.13300273
-0.41393656 0.2634142 -0.11860797
-0.41715387 0.22753854 -0.10398388
-0.42042032 0.19110017 -0.089136407
-0.42373958 0.15408719 -0.074048698
-0.4271104 0.11648467 -0.058726918
-0.43053526 0.078279167 -0.043159295
-0.43401685 0.039456096 -0.027333878
-0.43755385 9.3132257e-09 -0.011256713
-0.44115034 -0.04010452 0.0050911792
-0.44480503 -0.080873653 0.021703288
-0.44852078 -0.12232388 0.038593184
-0.45230064 -0.16447288 0.055774111
-0.4561432 -0.20733777 0.073240489
-0.46005163 -0.25093728 0.091006167
-0.46402916 -0.2952913 0.10908572
-0.46807453 -0.34041789 0.12747368
-0.47219262 -0.38633943 0.14619234
-0.4763822 -0.43307471 0.16523574
-0.48064843 -0.48064837 0.18462777
-0.48499009 -0.52907997 0.20436265
-0.48941264 -0.57839668 0.22446501
-0.49391654 -0.62862104 0.24493745
-0.49850413 -0.67977828 0.26579013
-0.50317776 -0.73189497 0.28703389
-0.50793797 -0.78499508 0.30867118
-0.34862593 0.62752664 -0.25700808
-0.35113388 0.59692758 -0.24446835
-0.35367817 0.56588507 -0.23174681
-0.35626063 0.53439093 -0.21883459
-0.35888004 0.50243211 -0.2057375
-0.3615393 0.47000107 -0.19244128
-0.36423719 0.43708462 -0.17895171
-0.36697569 0.40367326 -0.16525929
-0.36975673 0.3697567 -0.15135407
-0.37257916 0.33532131 -0.13724196
-0.37544501 0.30035597 -0.12291271
-0.3783564 0.26484945 -0.10835568
-0.38131216 0.22878727 -0.093576945
-0.38431564 0.1921578 -0.078559563
-0.38736561 0.15494627 -0.063309647
-0.3904644 0.11713921 -0.0478158
-0.39361438 0.078722835 -0.032065913
-0.39681435 0.039681453 -0.016066147
-0.40006804 -2.4214387e-08 0.00020234371
-0.40337425 -0.040337458 0.016733404
-0.40673554 -0.081347093 0.033539951
-0.41015467 -0.12304642 0.050635658
-0.4136304 -0.16545215 0.068014309
-0.41716555 -0.20858273 0.085690096
-0.42076305 -0.2524578 0.10367763
-0.42442173 -0.29709524 0.12197088
-0.42814603 -0.34251687 0.14059246
-0.4319348 -0.38874123 0.15953621
-0.43579122 -0.43579131 0.17881826
-0.43971863 -0.4836905 0.19845542
-0.44371751 -0.53246105 0.21844985
-0.44778976 -0.58212662 0.23881112
-0.45193586 -0.63271022 0.25954166
-0.45616108 -0.68424159 0.28066772
-0.46046606 -0.7367456 0.30219263
-0.46485311 -0.7902503 0.32412782
-0.3153457 0.63069141 -0.24821708
-0.31762579 0.59995979 -0.23555
-0.31993997 0.56878209 -0.22269341
-0.3222872 0.53714538 -0.20965317
-0.32466915 0.50504088 -0.19642033
-0.32708746 0.47245967 -0.18298505
-0.32954115 0.43938819 -0.16935349
-0.33203292 0.40581802 -0.15551038
-0.33456162 0.3717351 -0.14146197
-0.33712918 0.33712912 -0.12719792
-0.33973747 0.30198884 -0.11270748
-0.34238535 0.26629978 -0.097996883
-0.34507486 0.23004988 -0.083055235
-0.34780803 0.19322672 -0.067870885
-0.35058376 0.15581505 -0.052450195
-0.35340524 0.1178018 -0.036775265
-0.35627139 0.079171434 -0.020852236
-0.35918555 0.039909482 -0.0046624783
-0.36214662 -7.1246177e-08 0.011787845
-0.36515692 -0.040572979 0.028511688
-0.36821887 -0.081826381 0.045522578
-0.37133139 -0.12377715 0.062814452
-0.37449697 -0.16644314 0.080401137
-0.37771824 -0.20984349 0.098297104
-0.38099417 -0.25399613 0.11649655
-0.38432869 -0.29892236 0.13502166
-0.38772076 -0.34464061 0.1538666
-0.39117327 -0.39117327 0.17304704
-0.39468917 -0.43854356 0.1925799
-0.39826885 -0.48677313 0.21246698
-0.40191266 -0.53588349 0.23271023
-0.40562516 -0.58590305 0.25333545
-0.40940693 -0.63685524 0.27434516
-0.41325986 -0.68876648 0.2957505
-0.41718602 -0.74166399 0.31756237
-0.42118588 -0.79557335 0.33978403
-0.28377634 0.60302472 -0.22653563
-0.28585374 0.57170749 -0.21355188
-0.28796175 0.53992832 -0.20037678
-0.29010195 0.50767839 -0.18700066
-0.29227334 0.47494414 -0.17342941
-0.2944783 0.44171748 -0.15964824
-0.29671597 0.40798444 -0.14566296
-0.2989879 0.3737348 -0.13146347
-0.30129576 0.33895773 -0.11703926
-0.30363864 0.3036387 -0.10239628
-0.30601916 0.26776671 -0.087518096
-0.30843633 0.23132721 -0.072410643
-0.31089202 0.19430748 -0.057062685
-0.31338808 0.15669408 -0.041462105
-0.31592357 0.11847132 -0.02561539
-0.31850144 0.079625383 -0.0095036924
-0.32112071 0.040140118 0.0068664756
-0.32378337 7.7299774e-08 0.023508426
-0.32649162 -0.040811412 0.040435132
-0.32924452 -0.082311161 0.057640627
-0.33204424 -0.12451656 0.075138666
-0.33489308 -0.16744646 0.092943929
-0.33779007 -0.21111885 0.11105035
-0.3407388 -0.25555414 0.12947984
-0.34373829 -0.30077097 0.14822656
-0.34679106 -0.34679103 0.16730639
-0.34989974 -0.39363718 0.18673573
-0.35306343 -0.4413293 0.20650867
-0.35628611 -0.48989338 0.22665042
-0.35956818 -0.53935218 0.2471634
-0.36291125 -0.58973086 0.26805758
-0.36631575 -0.64105248 0.28933567
-0.36978608 -0.69334882 0.31102526
-0.37332278 -0.74664545 0.33312964
-0.37692782 -0.80097145 0.35566118
-0.24957858 0.60611928 -0.21743371
-0.25141507 0.57466292 -0.20431592
-0.25327951 0.54274166 -0.19099851
-0.25517106 0.51034212 -0.17748727
-0.25709185 0.47745627 -0.16376746
-0.25904098 0.44407028 -0.14984484
-0.26101995 0.41017413 -0.13570975
-0.26303011 0.37575728 -0.12135114
-0.26507071 0.34080517 -0.10677542
-0.26714402 0.30530748 -0.091966197
-0.2692492 0.2692492 -0.076929145
-0.27138785 0.23261818 -0.061653309
-0.27356154 0.19540104 -0.046126671
-0.2757695 0.15758255 -0.03035558
-0.27801338 0.1191486 -0.014327902
-0.28029498 0.080084383 0.0019693077
-0.28261343 0.040373299 0.018529586
-0.28497148 -1.3038516e-07 0.035372756
-0.28736824 -0.041052632 0.052492768
-0.28980571 -0.08280158 0.069903046
-0.29228583 -0.12526529 0.087618127
-0.29480776 -0.16846167 0.10563206
-0.29737464 -0.21241042 0.12396672
-0.29998553 -0.25713044 0.14261621
-0.3026427 -0.30264267 0.16159591
-0.30534843 -0.34896964 0.18092245
-0.30810189 -0.39613098 0.2005901
-0.31090659 -0.44415218 0.22062349
-0.31376275 -0.49305582 0.24102494
-0.31667194 -0.54286611 0.26180467
-0.31963438 -0.59360665 0.28296497
-0.32265398 -0.64530778 0.30453348
-0.32573116 -0.69799536 0.32651341
-0.32886761 -0.7516973 0.34891665
-0.33206379 -0.80644059 0.3717466
-0.21502799 0.6092459 -0.20823783
-0.21661909 0.5776509 -0.19497865
-0.21823327 0.54558313 -0.18152714
-0.21987233 0.51303542 -0.16786824
-0.22153555 0.47999367 -0.15400808
-0.22322413 0.44644827 -0.1399366
-0.22493932 0.41238877 -0.1256434
-0.22668038 0.37780061 -0.11113449
-0.22844861 0.34267282 -0.096399285
-0.23024535 0.30699375 -0.081426486
-0.23206985 0.2707482 -0.066222332
-0.23392424 0.23392425 -0.050769173
-0.23580776 0.1965065 -0.035073213
-0.23772185 0.15848123 -0.019122452
-0.23966803 0.11983402 -0.0029041581
-0.24164557 0.08054854 0.013575297
-0.24365678 0.040609483 0.030335587
-0.24570097 -2.2351742e-08 0.047370479
-0.24777977 -0.041296698 0.064693622
-0.24989486 -0.083298258 0.082319342
-0.25204551 -0.12602285 0.10024157
-0.25423437 -0.16948947 0.11848207
-0.2564607 -0.21371733 0.13703485
-0.25872639 -0.25872645 0.15591536
-0.26103333 -0.30453897 0.17514014
-0.26338089 -0.35117456 0.19470307
-0.26577201 -0.39865795 0.21462891
-0.26820597 -0.44700998 0.23491201
-0.27068588 -0.49625748 0.25557792
-0.27321208 -0.54642415 0.27662987
-0.27578592 -0.59753621 0.29807824
-0.27840868 -0.64962018 0.31993461
-0.28108075 -0.70270193 0.34220189
-0.2838057 -0.75681514 0.36490956
-0.28658399 -0.811988 0.38806209
-0.18145886 0.58066833 -0.18554907
-0.1828187 0.54845601 -0.1719508
-0.18419851 0.51575589 -0.15815254
-0.18559933 0.48255825 -0.14414446
-0.18702216 0.44885322 -0.12991606
-0.18846641 0.41462615 -0.11547354
-0.18993315 0.37986627 -0.10080624
-0.19142348 0.34456223 -0.085902877
-0.19293679 0.30869886 -0.070769824
-0.19447482 0.27226478 -0.055389464
-0.19603695 0.23524439 -0.039768219
-0.19762439 0.19762442 -0.023893848
-0.19923837 0.15939072 -0.0077539682
-0.20087829 0.120527 0.0086453184
-0.20254543 0.081018195 0.025316676
-0.20424116 0.040848192 0.042273715
-0.20596482 -6.8917871e-08 0.059510365
-0.20771851 -0.041543663 0.077047333
-0.20950162 -0.083800562 0.094878569
-0.21131633 -0.12678978 0.11302566
-0.21316202 -0.17052953 0.13148247
-0.21504025 -0.21504027 0.15026468
-0.21695261 -0.26034307 0.16938837
-0.21889852 -0.30645794 0.18884757
-0.22087967 -0.35340744 0.20865896
-0.2228978 -0.40121603 0.22884019
-0.22495313 -0.44990629 0.24939354
-0.22704673 -0.49950281 0.27032959
-0.22917967 -0.55003119 0.29165882
-0.2313522 -0.60151571 0.31338421
-0.23356718 -0.65398818 0.33553416
-0.235825 -0.70747507 0.35811222
-0.23812687 -0.76200598 0.38113096
-0.24047323 -0.81760901 0.40459448
-0.14592938 0.58371753 -0.17602047
-0.14702873 0.55135769 -0.16227853
-0.14814436 0.51850516 -0.14833336
-0.14927748 0.48515174 -0.13416931
-0.15042759 0.45128286 -0.11979258
-0.15159559 0.41688791 -0.10519262
-0.15278235 0.38195592 -0.090358391
-0.15398733 0.34647152 -0.07529597
-0.15521197 0.31042391 -0.059988044
-0.15645576 0.27379763 -0.04444088
-0.15771963 0.23657939 -0.028642327
-0.1590046 0.19875571 -0.012580365
-0.16031016 0.16031015 0.0037391558
-0.16163734 0.12122793 0.02032901
-0.1629872 0.081493631 0.037202336
-0.16435927 0.041089859 0.054353043
-0.16575517 3.3527613e-08 0.071802057
-0.16717444 -0.041793711 0.089542896
-0.16861822 -0.084309094 0.10759006
-0.17008774 -0.12756585 0.12595902
-0.17158251 -0.17158253 0.14464359
-0.17310438 -0.21638049 0.16366702
-0.17465287 -0.26197928 0.18302324
-0.17622933 -0.30840123 0.20272885
-0.17783512 -0.35567027 0.22280133
-0.17947046 -0.40380847 0.24324301
-0.18113549 -0.45283863 0.26405594
-0.18283238 -0.50278902 0.28526706
-0.18456136 -0.55368406 0.30687913
-0.18632334 -0.60555083 0.32890406
-0.18811931 -0.65841764 0.3513537
-0.18994951 -0.71231049 0.37423104
-0.1918164 -0.76726562 0.39756724
-0.19372036 -0.82331145 0.42136672
-0.16679578 0.88957745 0.77979189
-0.11085807 0.55429029 -0.15250327
-0.11170407 0.52128565 -0.13840331
-0.11256275 0.48777187 -0.12409197
-0.11343472 0.45373887 -0.10955898
-0.11432067 0.41917586 -0.09479323
-0.1152202 0.38406736 -0.079801008
-0.11613437 0.34840313 -0.064564869
-0.11706279 0.31216747 -0.04909122
-0.11800618 0.27534777 -0.033368044
-0.11896526 0.23793057 -0.017383322
-0.11993969 0.19989941 -0.0011428222
-0.12093022 0.16124028 0.015365854
-0.12193763 0.12193758 0.032156017
-0.12296157 0.081974342 0.04922168
-0.12400325 0.041334368 0.066583112
-0.12506232 1.1175871e-08 0.084234297
-0.12613964 -0.042046607 0.10218955
-0.1272361 -0.084824182 0.12046405
-0.12835136 -0.12835136 0.13905171
-0.1294868 -0.17264906 0.15797555
-0.13064206 -0.21773674 0.17722978
-0.13181809 -0.26363617 0.19683045
-0.13301598 -0.31037059 0.2167951
-0.13423583 -0.35796216 0.23712602
-0.13547777 -0.40643322 0.25782502
-0.1367434 -0.45581126 0.27891904
-0.1380329 -0.50612056 0.30041072
-0.13934696 -0.55738801 0.32231167
-0.14068575 -0.60963821 0.34462482
-0.14205107 -0.66290492 0.36737996
-0.14344312 -0.71721566 0.39058101
-0.14486274 -0.77260125 0.41424128
-0.14631017 -0.82909095 0.4383651
-0.074300781 0.55725592 -0.14261802
-0.074870639 0.52409446 -0.12837176
-0.075449295 0.49042046 -0.11390518
-0.076037206 0.45622319 -0.099207625
-0.076634109 0.4214876 -0.084284961
-0.077240698 0.38620353 -0.069120139
-0.077856727 0.35035527 -0.053719565
-0.078482658 0.31393063 -0.038071319
-0.079118989 0.27691638 -0.022163168
-0.079765461 0.23929632 -0.0060011819
-0.080422595 0.20105642 0.010426961
-0.081090897 0.16218182 0.027134627
-0.081770137 0.1226552 0.044115797
-0.082461126 0.082461059 0.061390299
-0.083163612 0.041581716 0.078952603
-0.083878174 -0 0.096816741
-0.084605403 -0.042302746 0.11499739
-0.085345067 -0.08534506 0.13348898
-0.086098075 -0.1291472 0.15231417
-0.086864181 -0.17372839 0.17146692
-0.087644055 -0.21911015 0.19096352
-0.088438354 -0.26531503 0.2108213
-0.089246884 -0.31236407 0.23103428
-0.090070643 -0.3602826 0.25162822
-0.090909757 -0.40909389 0.2726061
-0.091764644 -0.45882317 0.29397839
-0.092635423 -0.50949484 0.31574792
-0.093523242 -0.56113946 0.33794329
-0.094428241 -0.6137836 0.36056823
-0.095350921 -0.66745657 0.38363534
-0.096291445 -0.72218573 0.40714842
-0.09725108 -0.7780087 0.43113938
-0.098230042 -0.83495533 0.45561323
-0.037350114 0.56025171 -0.13263194
-0.037638124 0.52693373 -0.11823145
-0.037930723 0.49309945 -0.10360147
-0.038227797 0.45873356 -0.088748053
-0.038529553 0.42382514 -0.073660031
-0.038836233 0.38836232 -0.058326066
-0.039147712 0.35232943 -0.042751998
-0.039464355 0.31571496 -0.026919976
-0.039786033 0.27850226 -0.010836005
-0.040112998 0.2406781 0.0055122972
-0.040445514 0.20222765 0.022138014
-0.040783457 0.1631338 0.039035179
-0.041127231 0.1233817 0.056223642
-0.041476708 0.082953356 0.073697701
-0.041832179 0.041832291 0.091471091
-0.042193934 -1.4901161e-08 0.10955884
-0.042561859 -0.042561818 0.12795514
-0.042936251 -0.085872471 0.14667495
-0.043317445 -0.12995228 0.16573453
-0.043705314 -0.17482132 0.18512791
-0.044100344 -0.22050178 0.20487943
-0.044502426 -0.26701456 0.22498348
-0.044912063 -0.31438437 0.24546555
-0.045329314 -0.36263457 0.26632804
-0.045754224 -0.41178802 0.28757358
-0.046187345 -0.46187344 0.30922964
-0.046628747 -0.51291615 0.33129966
-0.047078665 -0.56494397 0.35379559
-0.04753717 -0.61798304 0.37672073
-0.048004881 -0.67206824 0.40010616
-0.048481882 -0.72722822 0.42395639
-0.04896846 -0.78349531 0.44828525
-0.049464706 -0.84090018 0.47309768
0 0.9885534 1.29504
0 0.52980554 -0.10797508
0 0.49580634 -0.093190253
0 0.46127155 -0.078172699
0 0.42618996 -0.062910676
0 0.39054543 -0.047410488
0 0.35432705 -0.031653985
0 0.31751847 -0.015647426
0 0.28010631 0.00062158704
0 0.24207652 0.017166033
0 0.20341173 0.033979841
0 0.16409767 0.051082913
0 0.12411641 0.068469107
0 0.083451591 0.086152859
0 0.042085804 0.10414827
0 -1.4901161e-08 0.12244987
0 -0.04282419 0.14107254
0 -0.086406752 0.16003233
0 -0.13076772 0.17932335
0 -0.17592867 0.19896951
0 -0.22191036 0.21896552
0 -0.26873595 0.23932832
0 -0.31642994 0.26007649
0 -0.36501604 0.28121278
0 -0.41451934 0.30274794
0 -0.46496624 0.32469368
0 -0.51638204 0.34705296
0 -0.56879836 0.36985531
0 -0.62224323 0.39310518
0 -0.6767469 0.41681573
0 -0.73233867 0.4409911
0 -0.7890569 0.46566498
0 -0.84693331 0.49084252
0 -0.90600395 0.51653957
0.03805051 0.53270715 -0.097612053
0.038349468 0.49854308 -0.082664326
0.038653281 0.46383935 -0.067473754
0.03896182 0.42858005 -0.052046761
0.039275326 0.39275324 -0.036371499
0.039594043 0.35634646 -0.020435601
0.039917849 0.31934282 -0.0042452961
0.040247124 0.28172994 0.01221846
0.040581744 0.2434904 0.028949387
0.040922109 0.20461059 0.045967631
0.041268095 0.16507238 0.063266933
0.041619979 0.12485991 0.08086127
0.041978061 0.083956167 0.098765358
0.042342216 0.042342223 0.11697298
0.042712741 8.1956387e-08 0.13549921
0.043089956 -0.043089952 0.15435995
0.043473743 -0.086947471 0.17354941
0.043864578 -0.13159367 0.19309124
0.044262353 -0.17704944 0.21298
0.044667408 -0.22333699 0.23323265
0.045080103 -0.27048066 0.25386754
0.045500498 -0.31850347 0.27488714
0.045928806 -0.36743039 0.29630253
0.046365086 -0.41728571 0.31811652
0.046809904 -0.46809903 0.34035748
0.047263343 -0.51989681 0.36302936
0.047725651 -0.57270783 0.38614491
0.048196908 -0.62655973 0.40970778
0.048677754 -0.68148863 0.43375
0.049168289 -0.73752445 0.45827675
0.049668815 -0.79470098 0.48330304
0.050179631 -0.85305375 0.5088439
0.050700862 -0.91261572 0.53490543
0.076520115 0.53564072 -0.087134928
0.077124894 0.50131184 -0.072015345
0.07773906 0.46643436 -0.056661144
0.078363344 0.43099844 -0.041054085
0.078997478 0.39498746 -0.025200695
0.079641968 0.35838887 -0.0090885907
0.080297306 0.32118928 0.0072950423
0.080963261 0.28337139 0.023943841
0.081640355 0.24492104 0.040871322
0.082329147 0.20582289 0.058090873
0.083029374 0.16605873 0.075596772
0.083741903 0.12561285 0.093409985
0.084466487 0.084466428 0.1115244
0.085203707 0.042601865 0.12995489
0.085954212 -7.4505806e-09 0.14871752
0.086717755 -0.043358862 0.16780609
0.087495275 -0.087495372 0.1872443
0.088286571 -0.1324299 0.20702657
0.089092307 -0.17818463 0.22716996
0.089913204 -0.2247829 0.24769244
0.090749376 -0.27224812 0.26859659
0.091600902 -0.3206031 0.28988487
0.09246891 -0.36987555 0.31158483
0.09335351 -0.42009082 0.33370009
0.094255216 -0.47127607 0.35624263
0.095174149 -0.52345777 0.37921587
0.096111536 -0.57666922 0.40265056
0.097067572 -0.63093907 0.42655152
0.098042823 -0.6862998 0.45093268
0.099037476 -0.74278098 0.47579914
0.10005292 -0.80042332 0.50118518
0.1010894 -0.85925996 0.52709723
0.10214757 -0.91932815 0.55355167
0.18823643 0.87843668 1.1371362
0.11633305 0.50410986 -0.061253667
0.11726502 0.46906006 -0.045720756
0.11821169 0.43344289 -0.02994296
0.11917375 0.39724585 -0.013908401
0.12015199 0.36045599 0.0023954958
0.12114604 0.32305616 0.018963084
0.12215667 0.28503221 0.035806835
0.12318471 0.24636948 0.052940719
0.12422979 0.20704964 0.070358619
0.12529317 0.16705753 0.088081673
0.12637448 0.12637448 0.10610361
0.12747462 0.084983125 0.12443929
0.12859453 0.042864885 0.1431044
0.12973385 -7.4505806e-09 0.16209286
0.13089398 -0.043631367 0.18142837
0.13207458 -0.088049829 0.20110512
0.13327667 -0.13327664 0.22114007
0.13450134 -0.17933506 0.24155118
0.13574822 -0.22624704 0.2623325
0.13701893 -0.27403778 0.28351122
0.13831367 -0.32273191 0.30509007
0.13963309 -0.37235495 0.32708058
0.14097743 -0.42293227 0.34948587
0.14234842 -0.47449476 0.37233594
0.14374635 -0.52707005 0.39563474
0.145172 -0.58068788 0.41939554
0.14662564 -0.63537765 0.44362292
0.14810929 -0.69117659 0.46835023
0.14962325 -0.74811637 0.49358302
0.15116847 -0.80623198 0.51933694
0.15274596 -0.86556041 0.54562831
0.15435609 -0.92613649 0.57246375
0.15598135 0.50693935 -0.050371036
0.15723802 0.47171408 -0.034662455
0.15851462 0.43591517 -0.01870501
0.15981261 0.39953148 -0.0024799556
0.16113155 0.36254591 0.014006495
0.16247243 0.32494485 0.030767366
0.16383632 0.2867136 0.047816299
0.16522278 0.24783412 0.065147117
0.16663346 0.20829184 0.08278057
0.16806787 0.16806784 0.10071063
0.16952719 0.12714541 0.11895219
0.17101265 0.08550635 0.13752048
0.17252381 0.04313096 0.15640983
0.17406189 -0 0.17563587
0.17562826 -0.043907136 0.19521549
0.17722245 -0.088611215 0.21514279
0.17884648 -0.13413483 0.23544323
0.1804999 -0.18049985 0.25611103
0.18218485 -0.22773099 0.2771728
0.18390153 -0.27585232 0.29863155
0.18565021 -0.32488784 0.32048982
0.18743315 -0.37486631 0.34277663
0.18925068 -0.42581397 0.36549565
0.1911038 -0.47775945 0.38865963
0.19299282 -0.53073019 0.41227239
0.1949203 -0.58476096 0.43636614
0.1968867 -0.63988179 0.46094611
0.19889316 -0.6961261 0.48602688
0.20094015 -0.75352538 0.51161391
0.20303053 -0.81212199 0.53774369
0.20516483 -0.87195057 0.56442285
0.20734452 -0.93305033 0.59166861
0.20245367 0.52637959 0.024399042
0.19766593 0.4743982 -0.023478478
0.19928059 0.43841729 -0.0073318779
0.20092121 0.40184236 0.0090743899
0.20258906 0.36466041 0.025752947
0.2042855 0.32685682 0.042717397
0.20600992 0.28841394 0.059961528
0.2077637 0.24931642 0.07749936
0.20954829 0.20954828 0.095345318
0.21136311 0.16909049 0.11349347
0.21321036 0.12792625 0.13196571
0.21508943 0.086035758 0.15075646
0.21700191 0.043400437 0.16988142
0.21894948 -2.9802322e-08 0.18935718
0.22093156 -0.044186249 0.2091779
0.22295064 -0.089180283 0.2293686
0.22500615 -0.13500369 0.24992362
0.22710074 -0.18168053 0.27086958
0.22923385 -0.22923395 0.29220077
0.23140827 -0.27768993 0.31394497
0.23362434 -0.32707408 0.33610564
0.23588327 -0.37741315 0.35869473
0.23818539 -0.42873365 0.3817161
0.24053381 -0.48106763 0.4052003
0.242929 -0.5344438 0.42915222
0.24537238 -0.58889377 0.45358607
0.24786539 -0.64444995 0.47851616
0.25040862 -0.70114422 0.50394845
0.25300556 -0.75901675 0.52991807
0.25565699 -0.8181023 0.55643189
0.2583645 -0.87843925 0.5835073
0.26112893 -0.94006407 0.61115146
0.23855729 0.47711459 -0.012160182
0.24051648 0.44094688 0.0041663051
0.24250811 0.40418017 0.020763248
0.24453378 0.36680067 0.037643805
0.24659279 0.32879031 0.05480206
0.24868675 0.29013458 0.0722517
0.25081739 0.25081742 0.090007231
0.25298402 0.21082002 0.10806265
0.25518927 0.17012623 0.12643981
0.25743246 0.12871616 0.14513281
0.25971541 0.086571783 0.16415742
0.26204014 0.043673441 0.18353009
0.26440594 2.9802322e-08 0.20324498
0.26681575 -0.044469304 0.22332682
0.26926896 -0.089756221 0.24377021
0.27176768 -0.13588384 0.26459309
0.27431422 -0.1828762 0.28581411
0.27690896 -0.23075746 0.30743682
0.2795532 -0.27955323 0.32947245
0.28224742 -0.32928869 0.35192412
0.28499514 -0.37999362 0.37482169
0.28779688 -0.43169537 0.39816961
0.29065427 -0.4844237 0.42198104
0.29356778 -0.53820759 0.44626048
0.29654148 -0.5930829 0.47104141
0.29957607 -0.64908141 0.49632934
0.3026734 -0.70623779 0.52214032
0.3058354 -0.76458836 0.54849058
0.30906296 -0.82416791 0.57538688
0.31236061 -0.88502163 0.60286742
0.31572944 -0.9471882 0.63094062
0.27991876 0.47986078 -0.00071786344
0.28223097 0.44350588 0.015797868
0.28458261 0.40654659 0.032595262
0.28697285 0.368965 0.049668282
0.28940356 0.33074695 0.067030489
0.29187676 0.29187673 0.084696352
0.29439163 0.25233561 0.10265962
0.2969512 0.21210805 0.12094229
0.29955468 0.17117414 0.13953841
0.30220419 0.12951607 0.15846351
0.30490205 0.0871149 0.17773394
0.30764741 0.043949589 0.19734374
0.31044379 6.7055225e-08 0.21731779
0.31329033 -0.044755749 0.23765028
0.31618956 -0.090339862 0.25835925
0.3191441 -0.13677597 0.27946311
0.32215443 -0.18408823 0.30096519
0.32522082 -0.23230059 0.32286823
0.32834741 -0.28144062 0.34520087
0.33153468 -0.33153465 0.36796716
0.33478445 -0.3826108 0.39117977
0.33809724 -0.4346965 0.41484261
0.3414776 -0.4878251 0.43898791
0.34492621 -0.542027 0.46362108
0.34844524 -0.59733468 0.48875675
0.35203677 -0.65378273 0.5144105
0.35570168 -0.71140325 0.54058832
0.35944512 -0.77023965 0.56732762
0.36326826 -0.83032745 0.59463561
0.36717358 -0.89170718 0.62253064
0.37116221 -0.95441723 0.651021
0.46484035 0.6972605 0.90511453
0.32443354 0.44609606 0.027571738
0.32715166 0.4089396 0.04456009
0.32991573 0.37115514 0.061835647
0.332728 0.33272809 0.079412356
0.3355875 0.29363903 0.097284243
0.33849776 0.25387335 0.1154732
0.34145772 0.21341115 0.13397315
0.34446993 0.17223503 0.1527995
0.34753698 0.13032632 0.17196842
0.35065791 0.08766447 0.19147414
0.35383663 0.044229627 0.21134105
0.35707223 2.9802322e-08 0.2315637
0.36036757 -0.045045897 0.2521596
0.3637256 -0.090931408 0.27314717
0.36714545 -0.13767961 0.29452142
0.37063161 -0.18531571 0.31630984
0.37418458 -0.23386531 0.33851597
0.37780637 -0.28335476 0.36115205
0.38149747 -0.33381027 0.38422155
0.38526291 -0.38526303 0.40775549
0.38910341 -0.43774143 0.43175858
0.39302126 -0.4912765 0.45624501
0.39701721 -0.54589862 0.48121995
0.40109688 -0.60164547 0.50671792
0.40526128 -0.65854967 0.53274518
0.40951303 -0.71664774 0.55931866
0.41385496 -0.77597785 0.58645558
0.41828817 -0.83657622 0.6141634
0.4228192 -0.89849067 0.6424821
0.42744943 -0.96176124 0.67142135
0.3671307 0.44871536 0.039477333
0.37022477 0.41136092 0.056666717
0.3733727 0.37337267 0.074154958
0.37657332 0.33473194 0.09193638
0.3798306 0.29542395 0.11003225
0.3831434 0.25542897 0.12843668
0.38651451 0.21473026 0.1471651
0.38994682 0.17330964 0.16623344
0.39343923 0.13114631 0.18563573
0.39699477 0.088221066 0.2053889
0.40061659 0.044513002 0.22551014
0.40430367 4.4703484e-08 0.24599379
0.4080607 -0.045340091 0.26686621
0.41188675 -0.091530271 0.28812188
0.41578671 -0.13859549 0.30978835
0.41976124 -0.18656051 0.33186913
0.4238109 -0.23545051 0.35436726
0.42794108 -0.285294 0.37731266
0.43215254 -0.33611864 0.40070981
0.43644774 -0.38795361 0.42457196
0.44082916 -0.44082913 0.44891313
0.44529772 -0.49477527 0.47373849
0.44985956 -0.54982829 0.49908194
0.45451584 -0.60602111 0.52495021
0.45926952 -0.66338921 0.55135953
0.46412176 -0.72196722 0.57831663
0.46907961 -0.78179944 0.60586017
0.47414452 -0.84292346 0.63399827
0.47931993 -0.90538234 0.66275096
0.48460755 -0.9692151 0.69212657
0.41033226 0.45136547 0.051523566
0.4138124 0.4138124 0.068924159
0.41735068 0.37561566 0.086615622
0.42095 0.33675998 0.1046122
0.42461336 0.29722935 0.12292903
0.42833957 0.25700375 0.14156017
0.43213326 0.2160666 0.16052863
0.43599322 0.17439725 0.17982842
0.43992278 0.13197674 0.19947624
0.44392538 0.088785045 0.21948922
0.44799989 0.044799998 0.2398617
0.45215151 -0 0.26061982
0.45637915 -0.045637965 0.28175801
0.46068826 -0.09213762 0.30330369
0.46507782 -0.13952333 0.32525128
0.46955356 -0.18782145 0.34763011
0.47411633 -0.23705816 0.37044376
0.47876859 -0.28726113 0.39370519
0.48351121 -0.33845788 0.41741836
0.48835066 -0.39068043 0.44161543
0.49328792 -0.44395903 0.46630186
0.49832606 -0.49832612 0.49149263
0.50346816 -0.55381507 0.51720327
0.50871545 -0.61045861 0.54343963
0.5140754 -0.66829795 0.57023895
0.51954943 -0.72736907 0.59760916
0.5251413 -0.78771192 0.62556869
0.53085262 -0.84936422 0.65412539
0.53669184 -0.91237611 0.68332148
0.54266095 -0.97678965 0.71316701
0.54876435 -1.0426524 0.74368399
0.45792112 0.41629201 0.081321865
0.46186021 0.37788558 0.099226862
0.46586922 0.33881402 0.11744969
0.46994686 0.29905713 0.13598424
0.47409812 0.25859898 0.15485367
0.4783217 0.21741888 0.1740519
0.48262122 0.17549857 0.19359514
0.4870005 0.13281828 0.21350081
0.49145818 0.089356087 0.23376305
0.49599999 0.045090929 0.25440779
0.50062478 5.9604645e-08 0.27542934
0.50533658 -0.045939595 0.29684669
0.51013982 -0.092752665 0.31867951
0.51503521 -0.14046422 0.34093139
0.52002549 -0.18910018 0.36361447
0.52511144 -0.23868698 0.3867324
0.53029984 -0.28925449 0.41031608
0.53559178 -0.34083125 0.43437052
0.54099047 -0.39344761 0.4589099
0.54649913 -0.4471356 0.48394907
0.55211884 -0.5019263 0.50949335
0.55785763 -0.55785751 0.53557861
0.56371689 -0.61496401 0.56221205
0.56970066 -0.67328256 0.58941072
0.57581031 -0.73284954 0.61718214
0.58205497 -0.79371142 0.64556676
0.58843654 -0.85590762 0.67457372
0.59495956 -0.91948283 0.70422387
0.60162622 -0.98447919 0.73452693
0.60844672 -1.0509534 0.76552904
0.50256163 0.41880125 0.09386906
0.50691265 0.38018456 0.11199844
0.51133806 0.34089205 0.13043745
0.51584309 0.30090845 0.14920853
0.52042645 0.26021326 0.16830578
0.52509201 0.21878836 0.18774563
0.52984381 0.17661451 0.20754465
0.53468049 0.13367012 0.22769755
0.53960818 0.089934669 0.24822974
0.54462564 0.045385458 0.2691358
0.54973727 1.4901161e-08 0.29043418
0.55494779 -0.046245724 0.31214476
0.56025803 -0.093376324 0.33427089
0.56566876 -0.14141726 0.35681549
0.5711872 -0.19039582 0.37980896
0.57681435 -0.24033931 0.40325546
0.58255351 -0.29127669 0.42716849
0.58840567 -0.34323663 0.4515526
0.59437895 -0.39625263 0.47644138
0.60047483 -0.45035616 0.50184071
0.60669696 -0.50558078 0.52776629
0.61304939 -0.56196189 0.55423486
0.61953378 -0.61953372 0.58125299
0.62615937 -0.67833936 0.60885972
0.63292813 -0.73841625 0.63706321
0.63984495 -0.79980618 0.66588289
0.64691454 -0.86255276 0.69533968
0.65413934 -0.92669743 0.72544295
0.66153014 -0.99229521 0.75623792
0.66908997 -1.0593925 0.78773695
0.54774541 0.42134267 0.10657543
0.55251485 0.38251019 0.12491934
0.55737001 0.34299695 0.14359285
0.56230921 0.30278194 0.16259006
0.5673368 0.26184773 0.18192708
0.57245713 0.22017579 0.20162039
0.57766867 0.17774417 0.22166482
0.58297801 0.13453335 0.24208555
0.58838379 0.090520658 0.26287693
0.59389079 0.045683809 0.28405747
0.59950393 -2.9802322e-08 0.30564666
0.60522205 -0.046555609 0.3276394
0.61105251 -0.094008088 0.35006437
0.61699647 -0.14238381 0.3729257
0.62305719 -0.19170992 0.39623591
0.62923813 -0.24201456 0.42000893
0.63554043 -0.29332638 0.44424871
0.6419729 -0.34567764 0.46898854
0.6485368 -0.39909956 0.49423447
0.6552363 -0.45362511 0.52000201
0.66207308 -0.509287 0.54629701
0.66905665 -0.56612492 0.57315701
0.67618918 -0.62417465 0.60058987
0.68347543 -0.68347532 0.62861377
0.69091743 -0.74406505 0.65723711
0.69852638 -0.80599201 0.68650222
0.70630473 -0.86929798 0.71641868
0.71425825 -0.93402988 0.74700928
0.72238976 -1.0002319 0.77828419
0.59868038 0.384866 0.13800657
0.60397184 0.34512672 0.15690443
0.60935754 0.30467877 0.17613932
0.61484241 0.26350388 0.19572806
0.62042469 0.22158024 0.2156647
0.62610924 0.1788884 0.23596685
0.63190126 0.13540737 0.25665253
0.63779908 0.091114156 0.27771604
0.64381039 0.045986518 0.2991851
0.64993376 1.1920929e-07 0.3210541
0.65617704 -0.04686977 0.34335172
0.66254151 -0.094648838 0.36608195
0.6690281 -0.14336313 0.38924831
0.67564559 -0.19304161 0.41288224
0.68239522 -0.24371246 0.43698809
0.68928111 -0.29540622 0.46158051
0.69630736 -0.34815374 0.48667443
0.70347559 -0.40198609 0.5122751
0.71079576 -0.45694005 0.53841853
0.71826988 -0.51304984 0.56511182
0.72590286 -0.57035214 0.59237224
0.7336967 -0.62888294 0.62020773
0.74166292 -0.68868703 0.64865845
0.74980402 -0.74980396 0.6777336
0.75812578 -0.8122775 0.70745426
0.76663435 -0.87615335 0.73784202
0.6454159 0.38724947 0.1512485
0.65115601 0.34728318 0.17038235
0.65700138 0.30660072 0.18986697
0.6629504 0.2651802 0.20969696
0.66900814 0.22300275 0.22988924
0.67517996 0.18004806 0.25046214
0.68146425 0.1362929 0.27140984
0.68786919 0.091715924 0.29275963
0.69439316 0.046292916 0.31450605
0.7010445 -0 0.33667746
0.70782202 -0.047188118 0.35926887
0.71473449 -0.095297933 0.38231045
0.72178328 -0.14435661 0.40580654
0.72897249 -0.19439265 0.42977053
0.73630637 -0.24543539 0.45421678
0.74378639 -0.29751453 0.4791503
0.75142294 -0.35066396 0.50460541
0.75921792 -0.40491617 0.53058869
0.76717633 -0.46030581 0.55711657
0.77530015 -0.51686692 0.58419621
0.78360111 -0.57464081 0.61186594
0.79208177 -0.63366532 0.64013481
0.80074799 -0.69398147 0.66902232
0.8096025 -0.75562918 0.69853735
0.83131337 0.46761367 0.59771639
0.69893593 0.34946796 0.18403724
0.70524764 0.30854583 0.20376126
0.71167439 0.26687783 0.22384477
0.7182219 0.22444437 0.24430564
0.72488838 0.18122213 0.26513851
0.73168242 0.13719049 0.28636998
0.73860234 0.092325322 0.30799466
0.7456544 0.046603382 0.33003226
0.75284529 -2.9802322e-08 0.35250366
0.76017612 -0.047511041 0.37541261
0.76765114 -0.09595634 0.39877212
0.77527165 -0.14536342 0.42258632
0.78304803 -0.19576205 0.44688743
0.79098207 -0.24718197 0.47168115
0.79907846 -0.29965436 0.49698246
0.80734229 -0.35321227 0.522807
0.81577557 -0.40788776 0.54916084
0.82439023 -0.46371946 0.57608163
0.83318883 -0.52074295 0.6035772
0.84217721 -0.57899678 0.63166595
0.85136163 -0.63852125 0.66036731
0.74731833 0.35167918 0.19785731
0.75411004 0.31051588 0.21783283
0.76102901 0.26859847 0.23818289
0.76807338 0.22590394 0.25890163
0.77525216 0.18241225 0.2800158
0.78256363 0.13809943 0.30151993
0.79001427 0.092942782 0.32343346
0.79761106 0.046918288 0.34577712
0.80535543 5.9604645e-08 0.36855465
0.81325161 -0.047838375 0.39177883
0.82130104 -0.0966236 0.4154537
0.82951468 -0.14638492 0.43961132
0.8378942 -0.19715159 0.46425706
0.84644473 -0.2489544 0.48940572
0.85516822 -0.30182403 0.51506287
0.86407685 -0.35579634 0.54126465
0.873173 -0.41090488 0.56801814
0.88246274 -0.46718603 0.59534091
0.89194852 -0.52467543 0.62324029
0.79631686 0.35391861 0.21185344
0.80360317 0.31251237 0.23209342
0.81102121 0.27034041 0.25269899
0.81857747 0.22738267 0.27368858
0.82627887 0.18361749 0.29508144
0.83412349 0.13902064 0.31687203
0.8421216 0.093569063 0.33908901
0.85027146 0.047237247 0.36172742
0.85858381 4.4703484e-08 0.38481718
0.86706024 -0.048169985 0.40836287
0.87570578 -0.097300693 0.4323782
0.88452536 -0.14742085 0.45687723
0.89352101 -0.19856016 0.48186499
0.90270501 -0.25075144 0.50737619
0.91207981 -0.3040266 0.53341734
0.92165136 -0.35842007 0.56000495
0.93142211 -0.41396528 0.58714592
0.8537339 0.3145335 0.24653016
0.86166608 0.27210516 0.26740465
0.86975026 0.2288817 0.2886788
0.87798434 0.18483883 0.31034744
0.88637912 0.13995457 0.33243889
0.89493263 0.09420342 0.35494807
0.90365618 0.047560781 0.37790489
0.91255152 2.9802322e-08 0.40131366
0.92162371 -0.048506573 0.42518789
0.93087453 -0.097986758 0.44953212
0.94031662 -0.14847107 0.47437954
0.94995219 -0.19998994 0.49973634
0.95978731 -0.25257558 0.52561826
0.96982414 -0.30626032 0.55203116
0.90451717 0.31658098 0.26115531
0.91297978 0.27389401 0.28231186
0.92159885 0.23039964 0.30385941
0.93038565 0.18607718 0.32582644
0.93933809 0.14090081 0.34820759
0.94846815 0.09484677 0.37103254
0.95777369 0.047888756 0.39429647
0.96726733 -7.4505806e-08 0.41803065
0.97695118 -0.048847556 0.44224009
0.98683071 -0.098682985 0.46693921
0.99691224 -0.1495368 0.49214303
1.0071979 -0.20143959 0.5178569
0.95596945 0.3186565 0.27598014
0.9649691 0.27570549 0.29740781
0.97414339 0.23193881 0.31925127
0.98349017 0.1873315 0.3415055
0.99302173 0.14186014 0.36419973
1.0027361 0.095498696 0.38732913
1.0126462 0.048221365 0.41092479
1.0227543 -4.4703484e-08 0.43499142
1.0330662 -0.04919368 0.45954347
1.0435839 -0.099388927 0.48458561
1.0543222 -0.15061741 0.51015317
1.0176545 0.2775422 0.31271347
1.027391 0.23349792 0.33484164
1.0373155 0.18860291 0.35739759
1.0474377 0.14283231 0.38040233
1.0577593 0.096159875 0.40386054
1.0682863 0.048558459 0.42778569
1.0790209 2.9802322e-08 0.45218235
1.0899776 -0.049544439 0.47708398
1.0710425 0.27940235 0.32821569
1.0813591 0.23507804 0.35064295
1.0918806 0.18989232 0.37351573
1.1026086 0.14381853 0.39683762
1.1135454 0.09683001 0.42061326
1.1247057 0.048900247 0.44487464
1.1554091 0.28885233 0.4069646
1.136067 0.23668058 0.36666852
1.1471925 0.19119865 0.38984644
1.1585424 0.14481783 0.41349229
1.1915214 0.23830426 0.38290504
