# .PCD v0.7 - Point Cloud Data file format
VERSION 0.7
FIELDS x y z
SIZE 4 4 4
TYPE F F F
COUNT 1 1 1
WIDTH 1334
HEIGHT 1
VIEWPOINT 0 0 0 1 0 0 0
POINTS 1334
DATA ascii
-0.91365391 0.5958612 -0.013933539
-0.92016816 0.56010228 0.00022771955
-0.93204153 0.52680612 0.026039556
-0.94422537 0.49263933 0.052526146
-0.95673192 0.45756739 0.079714328
-0.96957433 0.42155403 0.10763247
-0.98276603 0.38456059 0.13631012
-0.8811903 0.60081142 0.0025672913
-0.87417233 0.5562914 -0.013382494
-0.88537449 0.52317584 0.012077093
-0.89686745 0.48920044 0.038197458
-0.90866274 0.45433134 0.065004885
-0.92077249 0.41853303 0.092526957
-0.93320924 0.38176736 0.12079234
-0.94598663 0.34399503 0.14983186
-0.95911872 0.30517417 0.17967755
-0.97262061 0.2652601 0.21036363
-0.98650455 0.2242056 0.241918
-1.0007942 0.18196255 0.27439442
-1.0155038 0.1384778 0.30782557
-1.0306524 0.093695708 0.34225422
-1.0462598 0.047557265 0.37772545
-1.0623471 -5.9604645e-08 0.41428745
-1.0789369 -0.049042523 0.4519915
-0.84818262 0.60584474 0.019344836
-0.82879817 0.55253208 -0.026808709
-0.83934617 0.51959527 -0.001694411
-0.8501662 0.48580927 0.024067417
-0.86126876 0.4511407 0.050502136
-0.87266511 0.41555476 0.077636421
-0.88436717 0.37901461 0.10549834
-0.89638728 0.34148088 0.13411771
-0.90873867 0.30291286 0.16352572
-0.92143518 0.26326716 0.19375557
-0.93449152 0.22249793 0.22484213
-0.94791979 0.18055622 0.25681418
-0.96174306 0.13739187 0.2897267
-0.97597551 0.092950076 0.32361344
-0.99063551 0.047173098 0.35851818
-1.0057427 2.9802322e-08 0.39448756
-1.0213176 -0.048634127 0.43157089
-1.0373827 -0.098798409 0.46982092
-1.0539612 -0.15056586 0.50929344
-1.0710781 -0.20401484 0.55004823
-1.0887601 -0.25922871 0.59214842
-1.107036 -0.31629598 0.63566208
-1.1259357 -0.37531191 0.68066156
-1.145487 -0.43637592 0.72721219
-1.1657345 -0.49960041 0.77542055
-1.1867106 -0.56510013 0.82536376
-0.81461734 0.61096299 0.036405623
-0.78416491 0.54891545 -0.039725482
-0.79394364 0.51606333 -0.015278608
-0.8041079 0.48246467 0.010131925
-0.81453574 0.44799459 0.036201552
-0.82523757 0.41261882 0.062956333
-0.83622444 0.37630111 0.090423346
-0.84750772 0.33900312 0.11863162
-0.85909969 0.30068487 0.14761142
-0.87101316 0.26130396 0.17739521
-0.88326174 0.22081541 0.20801644
-0.89585966 0.17917195 0.23951153
-0.9088189 0.13632281 0.27190945
-0.922162 0.092216223 0.30526716
-0.9359026 0.046795085 0.33961883
-0.95005894 7.4505806e-08 0.37500978
-0.96465021 -0.048232481 0.4114877
-0.97969657 -0.097969651 0.44910359
-0.99521971 -0.14928293 0.48791155
-1.0112427 -0.20224854 0.52796912
-1.0277901 -0.25694752 0.56933761
-1.0448881 -0.31346649 0.61208266
-1.0625646 -0.37189767 0.65627378
-1.0808494 -0.43233973 0.70198572
-1.0997697 -0.49489638 0.74928671
-1.1193693 -0.55968463 0.7982856
-0.78048003 0.6161685 0.053757191
-0.75106221 0.55341423 -0.023658276
-0.74915415 0.51257914 -0.028679356
-0.75867939 0.47916597 -0.0036128163
-0.76845002 0.44489211 0.022099093
-0.77847552 0.40972394 0.048482105
-0.78876615 0.37362599 0.075562567
-0.79933244 0.33656096 0.1033686
-0.81018561 0.29848942 0.13192959
-0.82133764 0.25936979 0.16127713
-0.83280092 0.21915808 0.19144365
-0.84458876 0.17780818 0.2224642
-0.85671502 0.13527077 0.2543754
-0.86919463 0.091494173 0.28721648
-0.8820399 0.046423092 0.32101983
-0.89527392 5.9604645e-08 0.35584611
-0.90891105 -0.047837391 0.39173344
-0.92297006 -0.097154766 0.42873091
-0.93747091 -0.14802173 0.46689087
-0.95243466 -0.2005125 0.50626916
-0.96788377 -0.2547062 0.54692471
-0.98384243 -0.31068701 0.58892125
-1.0003361 -0.36854494 0.63232571
-1.0173923 -0.42837554 0.67721015
-1.0350401 -0.49028224 0.72365206
-1.0533065 -0.55437177 0.77172124
-1.0722338 -0.62076688 0.8215301
-0.74575853 0.6214655 0.071413815
-0.71741009 0.55798566 -0.0073317885
-0.70496541 0.50914168 -0.041900396
-0.71386796 0.47591197 -0.01717113
-0.7229982 0.44183233 0.0081906915
-0.73236501 0.40686953 0.034209669
-0.74197775 0.37098885 0.060911655
-0.75184619 0.33415383 0.088323846
-0.76198065 0.29632586 0.11647518
-0.77239203 0.25746399 0.14539577
-0.7830919 0.21752557 0.1751177
-0.79409242 0.17646493 0.20567441
-0.80540633 0.13423446 0.23710209
-0.8170473 0.090782985 0.26943827
-0.82902676 0.04605712 0.30271435
-0.84136575 1.4901161e-08 0.33698934
-0.8540777 -0.04744871 0.37230021
-0.86717957 -0.096353292 0.40869436
-0.88068968 -0.14678156 0.4462226
-0.89462745 -0.19880611 0.48493853
-0.90901345 -0.25250375 0.52489966
-0.92386967 -0.30795655 0.56616712
-0.93921965 -0.36525205 0.6088056
-0.9550882 -0.42448351 0.6528849
-0.97150218 -0.48575109 0.69847947
-0.98848593 -0.54915905 0.74565667
-1.0060786 -0.61482579 0.79452491
-0.71207112 0.62829804 0.094189167
-0.68320185 0.56263685 0.0092794001
-0.66136748 0.50575161 -0.0549393
-0.66966105 0.47270191 -0.030546442
-0.67816734 0.43881422 -0.0055278689
-0.68689263 0.40405446 0.020134687
-0.69584525 0.36838862 0.046465978
-0.70503443 0.33178079 0.073492929
-0.71446949 0.29419333 0.10124324
-0.72416055 0.25558603 0.12974608
-0.7341181 0.21591707 0.15903307
-0.74435329 0.17514193 0.18913655
-0.75487787 0.13321379 0.22009128
-0.76570445 0.090082809 0.25193411
-0.77684605 0.045696847 0.2847034
-0.78831375 5.9604645e-08 0.31843215
-0.8001281 -0.047066331 0.35318008
-0.81230199 -0.095564902 0.38898569
-0.82485199 -0.14556202 0.42589754
-0.83779585 -0.19712842 0.46396786
-0.85115254 -0.25033897 0.50325209
-0.86494195 -0.30527359 0.54380918
-0.87918556 -0.36201757 0.58570206
-0.89390606 -0.42066184 0.6289978
-0.90912795 -0.48130304 0.67376804
-0.92487317 -0.54404312 0.72007751
-0.94117761 -0.6089974 0.76803184
-0.68047035 0.63794088 0.12633201
-0.68866694 0.60258365 0.1519466
-0.62430006 0.50724387 -0.049199879
-0.62604839 0.46953633 -0.043736428
-0.63394487 0.43583709 -0.01906006
-0.64204508 0.40127808 0.0062530786
-0.65035498 0.36582464 0.032221615
-0.6588828 0.32944137 0.058871031
-0.66763729 0.29209143 0.086228736
-0.67662746 0.25373524 0.11432318
-0.68586314 0.21433225 0.14318463
-0.6953544 0.17383868 0.17284475
-0.70511204 0.13220859 0.20333746
-0.71514738 0.089393407 0.23469792
-0.72547257 0.045342013 0.26696411
-0.73610026 -0 0.30017555
-0.74704117 -0.046690091 0.33436584
-0.75831509 -0.094789326 0.36959684
-0.76993448 -0.14436279 0.40590757
-0.78191549 -0.1954788 0.44334823
-0.79427528 -0.24821103 0.48197258
-0.80703211 -0.30263701 0.52183759
-0.82020539 -0.35883969 0.56300402
-0.83381581 -0.41690782 0.6055367
-0.84788561 -0.47693571 0.6495049
-0.86243474 -0.53902173 0.69497073
-0.87749177 -0.60327566 0.74202424
-0.89308798 -0.66981602 0.79076219
-0.66490906 0.70923638 0.21622595
-0.64788443 0.64788437 0.159477
-0.65581167 0.61209083 0.18590105
-0.59005296 0.51137918 -0.033294424
-0.58301425 0.46641135 -0.056757048
-0.59032017 0.43290144 -0.032403871
-0.59781152 0.39854097 -0.0074326694
-0.60549355 0.36329615 0.018173978
-0.61337751 0.32713464 0.044453979
-0.6214695 0.29001915 0.071427405
-0.62977791 0.25191113 0.099122062
-0.63831145 0.21277057 0.12756705
-0.64707941 0.17255446 0.15679361
-0.65609163 0.13121831 0.18683432
-0.66535836 0.088714473 0.21772367
-0.6748907 0.044992678 0.24949796
-0.68470013 2.9802322e-08 0.28219607
-0.69479889 -0.046319902 0.3158586
-0.70519739 -0.094026282 0.35052031
-0.71591461 -0.1431829 0.38624424
-0.72696257 -0.19385661 0.42307082
-0.73835683 -0.24611896 0.4610517
-0.75011402 -0.30004561 0.50024229
-0.76225168 -0.35571739 0.54070121
-0.77478856 -0.41322052 0.58249086
-0.78774476 -0.47264689 0.62567818
-0.80113828 -0.53409219 0.67032307
-0.81499505 -0.59766304 0.71651244
-0.82934332 -0.66347468 0.7643398
-0.62634039 0.71581769 0.23679242
-0.61426443 0.65814042 0.19366388
-0.621903 0.621903 0.22094443
-0.55524462 0.51558429 -0.017121181
-0.54054904 0.4633278 -0.069605246
-0.54727751 0.43000382 -0.045575172
-0.55417562 0.39583966 -0.02093932
-0.56124794 0.36080229 0.0043192506
-0.56850505 0.32485998 0.030237421
-0.57595223 0.28797615 0.056834437
-0.58359712 0.25011307 0.08413779
-0.59144771 0.2112312 0.11217551
-0.5995124 0.17128934 0.14097793
-0.60780007 0.13024285 0.17057662
-0.61632001 0.088045709 0.20100519
-0.62508225 0.044648692 0.23229897
-0.63409728 4.4703484e-08 0.2644954
-0.64337611 -0.045955449 0.29763395
-0.65292811 -0.093275502 0.33174831
-0.66277045 -0.14202225 0.36689973
-0.67291415 -0.19226122 0.40312701
-0.68337315 -0.24406178 0.44048065
-0.69416237 -0.29749817 0.4790138
-0.70529783 -0.35264885 0.51878303
-0.71679622 -0.40959787 0.5598489
-0.7286759 -0.46843463 0.60227627
-0.74095279 -0.52925205 0.64612228
-0.75365049 -0.59215403 0.69147116
-0.76679426 -0.65725231 0.73841327
-0.78040123 -0.72465837 0.78700948
-0.58704925 0.7225222 0.25774407
-0.57956505 0.66872889 0.22895852
-0.58688945 0.63203478 0.25712949
-0.59439921 0.59439921 0.28601319
-0.50077242 0.46225148 -0.07408987
-0.50480723 0.42714453 -0.058571398
-0.51112717 0.39317471 -0.034263968
-0.51760739 0.3583436 -0.009340167
-0.52425224 0.32261676 0.016217157
-0.53107172 0.28596178 0.042445853
-0.53807092 0.24834053 0.069365963
-0.54525715 0.20971435 0.097005129
-0.55263782 0.17004241 0.1253925
-0.56022114 0.12928176 0.15455893
-0.56801546 0.087386981 0.18453702
-0.57602966 0.044309914 0.21536092
-0.58427328 3.7252903e-08 0.24706715
-0.59275627 -0.045596696 0.27969396
-0.60148925 -0.092536785 0.31328228
-0.61048102 -0.14088032 0.3478663
-0.61974818 -0.19069175 0.38350901
-0.62930095 -0.24203885 0.42025048
-0.63915282 -0.29499364 0.45814246
-0.64931816 -0.34963289 0.49723968
-0.65981197 -0.40603811 0.5376007
-0.6706506 -0.46429661 0.57928759
-0.68184841 -0.52449876 0.62235606
-0.69342649 -0.58674544 0.6668871
-0.70540762 -0.65114546 0.71296841
-0.71780688 -0.71780676 0.76065785
-0.54701716 0.72935611 0.27910024
-0.5437308 0.67966348 0.26540726
-0.55071622 0.64250207 0.29451293
-0.5578813 0.60437137 0.3243677
-0.46597165 0.46597156 -0.05858928
-0.46289808 0.42432323 -0.071395695
-0.46865454 0.39054543 -0.047410488
-0.474556 0.35591695 -0.022821009
-0.48060796 0.3204053 0.0023955554
-0.48681474 0.28397524 0.028257176
-0.49318558 0.24659275 0.054802008
-0.49972528 0.20821893 0.082051016
-0.50644082 0.16881365 0.11003228
-0.51333922 0.12833491 0.13877581
-0.52042824 0.086738057 0.16831326
-0.52771574 0.04397627 0.19867793
-0.53521025 2.9802322e-08 0.22990513
-0.54292071 -0.045243435 0.26203209
-0.55085665 -0.091809422 0.29509813
-0.55902582 -0.13975644 0.32913658
-0.56744319 -0.18914765 0.36420873
-0.57611781 -0.24004909 0.40035313
-0.58506179 -0.29253092 0.43761972
-0.59428793 -0.34666795 0.47606179
-0.60380965 -0.40253979 0.51573575
-0.61364144 -0.46023116 0.55670166
-0.62379616 -0.51983011 0.59901297
-0.63429266 -0.58143491 0.64274824
-0.64515114 -0.64515114 0.68799198
-0.656385 -0.71108383 0.73479998
-0.50621861 0.73631793 0.30085593
-0.50670522 0.69096172 0.30306783
-0.51332265 0.65331984 0.33314708
-0.52011716 0.61468399 0.36403126
-0.4306075 0.46975362 -0.042831048
-0.42153886 0.42153886 -0.084051907
-0.42674622 0.38795108 -0.060382262
-0.43208379 0.35352302 -0.036120489
-0.43755659 0.31822294 -0.011244103
-0.4431698 0.28201705 0.014270574
-0.44892746 0.2448695 0.040441707
-0.45483819 0.20674463 0.06730859
-0.46090665 0.16760239 0.094892353
-0.46713918 0.12740159 0.12322225
-0.47354266 0.086098656 0.1523288
-0.48012409 0.04364758 0.18224446
-0.48689103 -3.7252903e-08 0.21300328
-0.49385145 -0.044895634 0.2446416
-0.50101376 -0.091093332 0.27719748
-0.50838685 -0.13865104 0.31071174
-0.51597834 -0.18762845 0.34521836
-0.52380192 -0.23809181 0.38078025
-0.53186643 -0.29010898 0.41743702
-0.54018313 -0.34375292 0.45524013
-0.54876405 -0.39910114 0.49424434
-0.55761975 -0.45623431 0.5344975
-0.56676829 -0.51524383 0.57608175
-0.57621962 -0.5762195 0.6190424
-0.5859915 -0.63926345 0.66346002
-0.59610307 -0.70448548 0.70942187
-0.60656714 -0.77199447 0.75698572
-0.46463716 0.74341953 0.323048
-0.46842614 0.70263928 0.341993
-0.47465017 0.66451037 0.37311339
-0.48104188 0.62535465 0.40507191
-0.48760623 0.58512741 0.43789321
-0.38071895 0.41879082 -0.096543133
-0.385391 0.385391 -0.073182881
-0.3901791 0.35116124 -0.049242243
-0.39508769 0.31607023 -0.024699286
-0.40012136 0.28008497 0.00046914816
-0.40528369 0.24317023 0.026280701
-0.41058224 0.20529112 0.052773498
-0.41602123 0.16640851 0.079968393
-0.42160621 0.12648182 0.10789333
-0.42734319 0.08546865 0.13657825
-0.43323848 0.043323778 0.16605462
-0.43929869 2.2351742e-08 0.19635576
-0.44553083 -0.044553079 0.22751641
-0.45194235 -0.090388507 0.25957406
-0.4585411 -0.13756227 0.29256779
-0.4653354 -0.18613413 0.32653919
-0.4723323 -0.23616607 0.36152366
-0.47954464 -0.28772682 0.39758554
-0.48698068 -0.34088647 0.43476564
-0.49465096 -0.39572069 0.47311699
-0.50256467 -0.45230824 0.51268589
-0.5107379 -0.5107379 0.55355161
-0.51917917 -0.5710972 0.59575802
-0.52790415 -0.63348502 0.63938284
-0.53692967 -0.69800848 0.68451047
-0.54626679 -0.76477355 0.73119628
-0.42318788 0.75233412 0.35090613
-0.42883256 0.71472102 0.38226551
-0.43462983 0.67609096 0.41447261
-0.4405843 0.63639963 0.44755298
-0.44670597 0.59560782 0.48156199
-0.3450413 0.42171705 -0.083241746
-0.34457797 0.38286439 -0.085815728
-0.34883061 0.34883055 -0.062189788
-0.35318956 0.31394625 -0.037973493
-0.3576588 0.27817905 -0.013144344
-0.36224261 0.24149507 0.012321189
-0.36694425 0.20385784 0.03844139
-0.37177077 0.16523141 0.065255433
-0.37672591 0.12557527 0.092784122
-0.38181499 0.084847741 0.12105647
-0.38704339 0.043004885 0.15010332
-0.39241698 -2.9802322e-08 0.17995664
-0.39794189 -0.044215836 0.21065053
-0.40362459 -0.089694306 0.24222118
-0.40947196 -0.13649061 0.27470642
-0.41549122 -0.18466282 0.30814686
-0.42169011 -0.23427223 0.34258509
-0.42807674 -0.28538442 0.37806645
-0.43465814 -0.3380675 0.41462973
-0.44144681 -0.3923972 0.45234448
-0.44844913 -0.44844899 0.49124631
-0.455679 -0.50631011 0.53141224
-0.46314389 -0.5660646 0.57288384
-0.47085744 -0.62780988 0.6157369
-0.4788343 -0.69164956 0.66005301
-0.487084 -0.75768644 0.70588475
-0.38266018 0.76532036 0.39148837
-0.38785353 0.72722542 0.4239471
-0.39318988 0.68808228 0.4572989
-0.39867347 0.64784431 0.49157131
-0.4043138 0.60647076 0.52682358
-0.30916083 0.42509615 -0.067882761
-0.30429661 0.38037074 -0.098283798
-0.30802736 0.3465308 -0.074966714
-0.31185076 0.31185073 -0.051070556
-0.31577024 0.27629894 -0.026573867
-0.31978947 0.23984206 -0.0014535263
-0.32391131 0.20244458 0.024308026
-0.3281419 0.16407093 0.050749026
-0.33248442 0.12468164 0.077889875
-0.33694342 0.084235854 0.10575884
-0.34152365 0.042690549 0.13438521
-0.34623015 7.4505806e-09 0.16380072
-0.35106817 -0.043883577 0.19403823
-0.35604331 -0.089010887 0.22513282
-0.36116147 -0.13543558 0.25712138
-0.36642891 -0.18321446 0.29004285
-0.37185231 -0.23240767 0.32393917
-0.37743863 -0.28307894 0.35885367
-0.38319394 -0.33529466 0.39482427
-0.38912895 -0.38912889 0.4319182
-0.39524916 -0.44465527 0.47016954
-0.40156496 -0.50195628 0.50964332
-0.40808755 -0.56112039 0.55040944
-0.4148238 -0.62223572 0.59251112
-0.42178795 -0.68540537 0.63603705
-0.4289881 -0.75072914 0.6810379
-0.43643832 -0.81832182 0.72760189
-0.34070873 0.77876282 0.43349618
-0.34541512 0.74017525 0.46711302
-0.35025194 0.70050383 0.50166184
-0.35522756 0.65970844 0.53720224
-0.36034662 0.61773717 0.57376683
-0.27270746 0.42854032 -0.052227393
-0.26453659 0.3779093 -0.11059075
-0.26775864 0.34426099 -0.087576158
-0.27106011 0.30978301 -0.063993998
-0.27444404 0.27444401 -0.0398231
-0.27791354 0.23821162 -0.015040979
-0.28147188 0.20105134 0.010375619
-0.28512162 0.16292667 0.036445141
-0.28886813 0.12380073 0.063206181
-0.29271448 0.083632722 0.090679921
-0.29666463 0.042380624 0.11889522
-0.30072281 1.1175871e-07 0.14788245
-0.30489358 -0.043556213 0.1776737
-0.30918169 -0.088337615 0.20830294
-0.31359211 -0.13439666 0.239806
-0.3181302 -0.18178868 0.27222091
-0.32280156 -0.23057263 0.30558774
-0.32761213 -0.28081051 0.33994901
-0.33256826 -0.33256823 0.37534994
-0.33767536 -0.38591468 0.41182923
-0.34294176 -0.44092521 0.44944635
-0.34837505 -0.49767864 0.48825544
-0.35398468 -0.55626148 0.52832413
-0.35977644 -0.61675972 0.56969398
-0.36576089 -0.67927015 0.61244005
-0.37194937 -0.74389875 0.65664339
-0.37834918 -0.81074852 0.7023567
-0.30398384 0.86128742 0.53306073
-0.29725724 0.7926861 0.47700614
-0.30143666 0.75359166 0.51183432
-0.30573648 0.71338522 0.54766637
-0.31016076 0.67201507 0.5845353
-0.31471369 0.62942731 0.62247616
-0.31940356 0.58557314 0.66155851
-0.22714408 0.37857354 -0.10727029
-0.22801395 0.34202093 -0.1000215
-0.23080687 0.30774248 -0.076747231
-0.23366907 0.27261397 -0.052895546
-0.23660314 0.23660308 -0.028445013
-0.23961183 0.19967654 -0.0033724457
-0.24269801 0.16179863 0.022345796
-0.24586394 0.12293195 0.048728511
-0.24911439 0.083038211 0.075815558
-0.25245196 0.042075314 0.10362845
-0.25588012 -6.7055225e-08 0.13219669
-0.25940269 -0.043233752 0.16155148
-0.26302361 -0.087674581 0.19172564
-0.26674706 -0.13337354 0.22275423
-0.2705774 -0.1803849 0.25467399
-0.27451938 -0.22876616 0.28752381
-0.27857789 -0.27857792 0.32134479
-0.28275719 -0.32988337 0.35617211
-0.28706485 -0.38275313 0.39206937
-0.29150468 -0.43725693 0.42906791
-0.29608402 -0.49347341 0.46722898
-0.30081072 -0.55148613 0.50661814
-0.30568951 -0.61137909 0.54727495
-0.31072921 -0.67324668 0.58927232
-0.31593916 -0.73719138 0.6326887
-0.32132545 -0.80331361 0.6775744
-0.32689857 -0.87172943 0.72401714
-0.25601113 0.87043792 0.55997378
-0.25222376 0.80711621 0.52210021
-0.25583547 0.76750642 0.55821723
-0.25955322 0.72674912 0.59539437
-0.26337948 0.68478662 0.63365704
-0.26732138 0.64157146 0.67307609
-0.27138305 0.59704262 0.71369278
-0.19078365 0.3815673 -0.09230122
-0.18878318 0.33980975 -0.11230601
-0.19108042 0.30572861 -0.08933343
-0.19343428 0.27080792 -0.0657949
-0.19584686 0.2350162 -0.041669182
-0.19832037 0.19832033 -0.01693403
-0.20085716 0.16068575 0.0084339455
-0.20345969 0.1220758 0.034459271
-0.20613055 0.082452171 0.06116778
-0.20887178 0.04177437 0.088580064
-0.21168759 7.4505806e-08 0.1167383
-0.21458037 -0.042915989 0.14566615
-0.21755332 -0.087021276 0.17539543
-0.2206098 -0.13236584 0.20596014
-0.22375338 -0.17900273 0.23739603
-0.22698784 -0.22698788 0.26974064
-0.23031719 -0.27638066 0.30303416
-0.23374479 -0.32724273 0.33731014
-0.23727685 -0.37964296 0.37263083
-0.24091637 -0.43364942 0.40902585
-0.24466927 -0.48933846 0.44655487
-0.24854194 -0.54679215 0.48528147
-0.25253814 -0.60609156 0.5252437
-0.25666496 -0.66732895 0.56651199
-0.26092997 -0.73060381 0.60916191
-0.265338 -0.79601413 0.65324241
-0.26989755 -0.8636722 0.69883788
-0.20700733 0.87978119 0.5874539
-0.20551948 0.82207793 0.56885576
-0.20851862 0.78194481 0.60634512
-0.21160661 0.74062306 0.64494479
-0.2147865 0.69805616 0.68469352
-0.21806437 0.65419298 0.7256667
-0.22144382 0.60897052 0.76791012
-0.15384683 0.38461709 -0.07705237
-0.15005641 0.33762687 -0.1244326
-0.15187053 0.30374116 -0.10175601
-0.15372908 0.26902589 -0.078524455
-0.15563366 0.23345047 -0.054717168
-0.15758602 0.19698256 -0.030312538
-0.15958799 0.15958788 -0.0052878931
-0.16164149 0.12123112 0.020380884
-0.16374852 0.081874162 0.046718709
-0.16591065 0.041477725 0.073745415
-0.16813122 -2.2351742e-08 0.10150246
-0.17041202 -0.042603016 0.1300125
-0.17275557 -0.086377755 0.15930682
-0.17516446 -0.13137332 0.18941799
-0.1776415 -0.17764142 0.22038093
-0.18018958 -0.22523692 0.2522319
-0.18281183 -0.27421772 0.28501016
-0.18551084 -0.32464391 0.31874773
-0.18829145 -0.37658289 0.35350537
-0.19115597 -0.43010092 0.38931191
-0.19410898 -0.48527247 0.4262245
-0.19715543 -0.54217732 0.46430519
-0.20029823 -0.60089469 0.50359023
-0.20354287 -0.66151422 0.54414797
-0.20689519 -0.72413319 0.58605224
-0.21035893 -0.78884596 0.62934887
-0.21394061 -0.85576242 0.67411983
-0.1569414 0.88933468 0.61555248
-0.15705158 0.83760846 0.61738873
-0.15938738 0.79693693 0.65631855
-0.16179301 0.75503403 0.69641227
-0.16427308 0.71184999 0.73774701
-0.16683038 0.66732144 0.78036845
-0.16946778 0.62138188 0.8243252
-0.17218992 0.57396632 0.86969429
-0.1121657 0.33649713 -0.13070947
-0.11316717 0.30177912 -0.11401805
-0.11454302 0.26726699 -0.091087408
-0.11595272 0.23190543 -0.067592315
-0.11739756 0.19566256 -0.043511741
-0.11887886 0.15850519 -0.018823504
-0.12039802 0.12039807 0.006495893
-0.1219565 0.081304327 0.032470718
-0.12355587 0.04118529 0.059126772
-0.12519732 -1.0058284e-07 0.08648435
-0.1268834 -0.042294499 0.11458579
-0.12861553 -0.085743666 0.14345434
-0.13039559 -0.13039561 0.17312214
-0.13222562 -0.17630087 0.20362243
-0.13410774 -0.22351281 0.23499128
-0.13604422 -0.27208835 0.26726589
-0.13803694 -0.32208613 0.30047792
-0.1400889 -0.37357038 0.33467731
-0.14220333 -0.42660996 0.36991778
-0.14438201 -0.48127338 0.40622917
-0.14662905 -0.5376398 0.44367984
-0.14894657 -0.59578633 0.48230496
-0.15133852 -0.65580004 0.5221706
-0.15380915 -0.71777606 0.56334817
-0.15636116 -0.78180563 0.60588145
-0.15899928 -0.847996 0.64985025
-0.16172864 -0.9164623 0.69533968
-0.10577621 0.89909786 0.6442678
-0.10671713 0.853737 0.66779041
-0.10833487 0.8125115 0.70823395
-0.11000289 0.77002025 0.74993455
-0.11172308 0.72620004 0.79293936
-0.11349741 0.6809845 0.83729768
-0.11532902 0.63430947 0.88308769
-0.11722071 0.58610362 0.93037999
-0.075361103 0.33912486 -0.11611027
-0.074960597 0.29984236 -0.12612285
-0.075866014 0.26553118 -0.10348731
-0.076793581 0.23038071 -0.080298282
-0.077744097 0.19436035 -0.056535177
-0.078718446 0.15743688 -0.032176599
-0.079717532 0.11957633 -0.0071995221
-0.0807423 0.080742225 0.018419653
-0.081793748 0.040896948 0.044706129
-0.082872957 2.9802322e-08 0.071686178
-0.083980739 -0.041990392 0.099380799
-0.08511883 -0.085118823 0.12783295
-0.086288184 -0.12943226 0.15706681
-0.087490112 -0.17498018 0.18711516
-0.088726006 -0.22181508 0.21801244
-0.089997321 -0.26999205 0.24979514
-0.091305256 -0.31956837 0.28249362
-0.092651777 -0.37060708 0.31615651
-0.094038948 -0.42317519 0.35083589
-0.095467933 -0.47733966 0.38656056
-0.096941017 -0.53317547 0.42338759
-0.098460652 -0.59076405 0.46137863
-0.1000283 -0.65018398 0.50056976
-0.10164667 -0.71152657 0.54102886
-0.10331869 -0.77489024 0.58282959
-0.10504621 -0.84036952 0.62601733
-0.10683292 -0.90807974 0.67068523
-0.053589996 0.91102999 0.67936206
-0.054406185 0.87049907 0.72017169
-0.055247381 0.82871073 0.76223129
-0.056115244 0.78561342 0.80562437
-0.057010554 0.74113727 0.8503899
-0.057934895 0.69521874 0.89660704
-0.058889706 0.64778674 0.94434732
-0.059876505 0.59876513 0.99368787
-0.037977818 0.34180042 -0.10124689
-0.037241291 0.29793036 -0.13807318
-0.037688211 0.26381755 -0.11572717
-0.038145989 0.22887598 -0.092838205
-0.038615022 0.19307515 -0.069386542
-0.039095737 0.15638287 -0.045350887
-0.039588571 0.11876568 -0.020709276
-0.040093988 0.080187961 0.0045616142
-0.040612474 0.040612519 0.030486008
-0.04114455 1.4901161e-08 0.05708966
-0.041690752 -0.041690782 0.084399797
-0.042251505 -0.08450301 0.11243758
-0.042827696 -0.12848312 0.14124717
-0.043419823 -0.17367925 0.17085344
-0.04402855 -0.22014278 0.2012897
-0.044654585 -0.26792753 0.23259161
-0.04529852 -0.31708965 0.26478836
-0.045961302 -0.36769032 0.29792732
-0.046643935 -0.41979551 0.33205897
-0.047346972 -0.47346973 0.36721095
-0.04807153 -0.52878684 0.40343878
-0.048818797 -0.58582544 0.44080207
-0.049589466 -0.64466292 0.4793354
-0.05038486 -0.70538801 0.51910514
-0.051206391 -0.76809591 0.56018192
-0.052054942 -0.83287907 0.6026094
-0.052932091 -0.89984536 0.64646667
0 0.92899579 0.73220295
0 0.88792837 0.77463847
0 0.8455689 0.8184253
0 0.80185115 0.86361641
0 0.75670522 0.91026694
0 0.71006417 0.95846254
0 0.66185212 1.008281
0 0.61198884 1.059806
0 0.34452561 -0.086106353
0 0.29604253 -0.14987206
0 0.26212591 -0.12780999
0 0.22739062 -0.10521552
0 0.19180682 -0.08206889
0 0.15534301 -0.058350015
0 0.11796597 -0.034037009
0 0.079641253 -0.0091073811
0 0.040331971 0.016462347
0 -5.5879354e-09 0.042697519
0 -0.041395307 0.069624215
0 -0.083896041 0.097263336
0 -0.12754771 0.12565777
0 -0.17239758 0.15483159
0 -0.21849544 0.18481722
0 -0.26589453 0.21564911
0 -0.31464902 0.24735573
0 -0.36481923 0.27998269
0 -0.41646916 0.3135795
0 -0.46966204 0.34817258
0 -0.52446973 0.38381565
0 -0.58096898 0.42056677
0 -0.6392352 0.45845899
0 -0.69935441 0.49755642
0 -0.76141953 0.53792775
0 -0.82552075 0.57961494
0 -0.89176273 0.62269431
0 -0.9602589 0.66724831
0.055745903 0.94768023 0.78715742
0.056629628 0.90607405 0.83134353
0.057541821 0.86312723 0.87695312
0.058483612 0.81877065 0.924043
0.059456743 0.77293754 0.97269928
0.060462806 0.72555369 1.0230026
0.061503507 0.67653865 1.0750377
0.06258066 0.62580651 1.128895
0.063696206 0.57326579 1.1846728
0.037216108 0.29772884 -0.13933238
0.037207976 0.26045591 -0.13973892
0.037654091 0.22592461 -0.11743301
0.038111039 0.19055521 -0.094585851
0.038579207 0.15431686 -0.071177237
0.039059024 0.11717705 -0.047186539
0.039550927 0.079101719 -0.022591423
0.040055376 0.040055424 0.0026310999
0.040572859 -1.2200326e-07 0.028505264
0.041103888 -0.041103914 0.05505668
0.041649003 -0.083298087 0.08231242
0.042208631 -0.12662598 0.11029381
0.042783644 -0.17113458 0.13904454
0.043374542 -0.21687271 0.16858943
0.043981992 -0.26389194 0.19896193
0.04460654 -0.31224573 0.23018916
0.045249082 -0.36199254 0.26231632
0.045910571 -0.41319507 0.29539078
0.046591517 -0.46591514 0.32943806
0.047292963 -0.52022266 0.36451045
0.048016034 -0.57619244 0.40066409
0.048761375 -0.63389784 0.43793103
0.049530219 -0.69342309 0.47637314
0.050323896 -0.75485843 0.51605725
0.051143222 -0.81829143 0.55702317
0.05198966 -0.88382429 0.59934533
0.052864816 -0.95156658 0.643103
0.11378074 0.96713638 0.84438097
0.1156221 0.92497671 0.89041477
0.1175235 0.88142616 0.93794966
0.11948847 0.83641928 0.98707402
0.12152028 0.78988183 1.0378692
0.12362237 0.74173433 1.0904217
0.12579846 0.69189155 1.144824
0.12805255 0.64026284 1.2011762
0.1303889 0.58675003 1.2595845
0.075011685 0.30004662 -0.12484568
0.073944837 0.25880688 -0.15151682
0.074825741 0.22447716 -0.12949412
0.075727887 0.18931966 -0.10694048
0.076652057 0.15330403 -0.083836287
0.077599056 0.11639851 -0.060161263
0.078569748 0.07856977 -0.035893857
0.079565041 0.039782505 -0.011011817
0.08058586 5.1688403e-08 0.014508785
0.081633225 -0.040816613 0.040692795
0.082708165 -0.082708202 0.06756638
0.083811522 -0.12571733 0.09515024
0.084944993 -0.16988999 0.12348703
0.086109549 -0.21527392 0.15260082
0.087306172 -0.26191854 0.18251644
0.088536836 -0.30987889 0.21328308
0.089802369 -0.35920951 0.2449214
0.091104932 -0.40997216 0.27748561
0.092445508 -0.46222746 0.31099984
0.093826115 -0.51604366 0.34551513
0.095248953 -0.57149369 0.38108599
0.096715227 -0.62864894 0.417743
0.098227359 -0.68759149 0.45554614
0.099787526 -0.74840641 0.4945505
0.10139846 -0.81118774 0.53482383
0.10306184 -0.87602562 0.57640827
0.1047807 -0.94302636 0.61937988
0.10655832 -1.0123041 0.66382039
0.17734449 1.0640668 0.95560372
0.17424844 0.98740786 0.90400296
0.17712846 0.94468504 0.95200342
0.18010443 0.90052223 1.0016028
0.18318211 0.85484987 1.0528975
0.1863668 0.80758947 1.1059756
0.18966417 0.75865686 1.1609321
0.19308034 0.70796114 1.217868
0.19662081 0.65540278 1.2768757
0.20029458 0.60088384 1.3381054
0.11340376 0.30241007 -0.11007497
0.1102198 0.25717962 -0.16314112
0.11152416 0.22304833 -0.14140172
0.11286011 0.18810016 -0.11913592
0.11422845 0.15230455 -0.096330211
0.11563037 0.11563036 -0.072964832
0.11706714 0.07804478 -0.049018711
0.11854006 0.039513398 -0.024470028
0.12005052 -3.981404e-08 0.00070414925
0.12159996 -0.04053326 0.026528347
0.12318993 -0.082126573 0.053027738
0.12482202 -0.12482194 0.080229253
0.12649751 -0.16866337 0.10815431
0.12821904 -0.21369837 0.13684641
0.12998763 -0.25997525 0.16632271
0.13180615 -0.30754763 0.19663134
0.13367578 -0.35646877 0.2277921
0.13559924 -0.40679777 0.25984961
0.13757935 -0.4585979 0.29285142
0.13961764 -0.51193124 0.3268227
0.14171723 -0.5668689 0.36181587
0.14388147 -0.6234864 0.39788657
0.14611226 -0.68185711 0.43506667
0.14841333 -0.74206662 0.47341794
0.15078865 -0.80420607 0.51300645
0.15324062 -0.86836362 0.55387253
0.15577362 -0.93464178 0.59608948
0.15839247 -1.0031523 0.63973671
0.23939687 1.0772859 0.99232298
0.23730528 1.0085474 0.96617818
0.24131173 0.96524715 1.0162592
0.24545583 0.92045933 1.06806
0.24974473 0.87410653 1.1216713
0.25418618 0.82610506 1.1771894
0.25878847 0.7763654 1.2347181
0.2635605 0.72479123 1.294368
0.26458409 0.66146028 1.3071637
0.26458549 0.59531736 1.307181
0.2645869 0.52917373 1.3071983
0.1470519 0.25734085 -0.16198896
0.14775833 0.22163755 -0.15315849
0.149517 0.18689623 -0.13117522
0.15131803 0.1513181 -0.10866233
0.15316299 0.11487223 -0.085600398
0.15505347 0.077526726 -0.061969273
0.15699123 0.039247878 -0.037747435
0.15897802 5.5879354e-08 -0.012912495
0.16101575 -0.040253963 0.012559013
0.1631064 -0.081553124 0.038692027
0.16525203 -0.12393899 0.06551265
0.16745488 -0.16745482 0.093048282
0.16971669 -0.21214584 0.12132081
0.17204042 -0.25806063 0.15036751
0.17442927 -0.30525118 0.18022831
0.17688479 -0.35376957 0.21092209
0.17941043 -0.40367341 0.24249259
0.18200988 -0.45502472 0.27498573
0.1846851 -0.50788403 0.30842596
0.18744013 -0.56232035 0.34286383
0.1902793 -0.61840773 0.37835371
0.1932051 -0.67621785 0.41492593
0.19622226 -0.73583335 0.45264047
0.19933593 -0.79734385 0.49156159
0.20254922 -0.86083412 0.53172755
0.20586778 -0.92640495 0.57320964
0.20929779 -0.99416447 0.61608452
0.30301183 1.0908425 1.0299805
0.30311969 1.0306067 1.0310591
0.30835119 0.98672378 1.0833741
0.31376645 0.94129944 1.1375269
0.31467208 0.88108176 1.146583
0.31467366 0.81815135 1.1465986
0.31467521 0.75522047 1.1466143
0.31467679 0.69228888 1.1466302
0.31467992 0.62935978 1.1466616
0.3146815 0.56642669 1.1466771
0.31468308 0.50349301 1.1466931
0.18522725 0.25931814 -0.14786519
0.18353754 0.22024493 -0.16476227
0.18570763 0.18570764 -0.14306149
0.18793021 0.15034412 -0.12083566
0.19020662 0.11412405 -0.098071508
0.19253887 0.077015549 -0.074749097
0.19492902 0.038985871 -0.050847597
0.19737926 -3.5390258e-08 -0.026345234
0.19989187 -0.039978363 -0.001218982
0.20246929 -0.080987744 0.024555361
0.20511405 -0.12306838 0.051002726
0.20782882 -0.16626294 0.078150317
0.21061569 -0.21061565 0.10601914
0.21347833 -0.25617397 0.13464557
0.21642061 -0.30298886 0.16406824
0.21944433 -0.35111091 0.19430569
0.22255377 -0.4005968 0.2254
0.22575341 -0.45150679 0.25739622
0.22904555 -0.50390023 0.29031762
0.23243512 -0.55784434 0.32421345
0.23592742 -0.61341119 0.35913628
0.23952533 -0.67067081 0.39511552
0.24323468 -0.72970402 0.43220922
0.2470617 -0.79059756 0.47047943
0.25101009 -0.85343438 0.50996327
0.25508672 -0.91831219 0.55072957
0.25929901 -0.9853363 0.59285247
0.26365167 -1.0546067 0.636379
0.3682465 1.1047393 1.068583
0.3601231 1.0203487 1.0008881
0.3601248 0.96033275 1.0009022
0.36012825 0.90032065 1.000931
0.36012995 0.8403033 1.0009452
0.36013165 0.78028536 1.0009595
0.36013338 0.7202667 1.0009737
0.36013681 0.66025078 1.0010023
0.36013854 0.60023069 1.0010165
0.36014023 0.54021031 1.0010308
0.36014196 0.48018909 1.0010451
0.22400177 0.2613354 -0.13345629
0.21886936 0.21886931 -0.17622645
0.22144084 0.1845341 -0.15479748
0.22407413 0.1493827 -0.13285337
0.2267708 0.11338545 -0.11038116
0.22953317 0.07651104 -0.087361343
0.23236366 0.038727298 -0.0637739
0.23526485 -6.7055225e-08 -0.039597429
0.23823938 -0.039706588 -0.014809619
0.24129009 -0.080430001 0.010613125
0.24441996 -0.12220998 0.036695268
0.2476321 -0.165088 0.063462995
0.25092894 -0.20910743 0.090936705
0.25431475 -0.25431481 0.11915185
0.25779405 -0.30075979 0.14814608
0.26136899 -0.34849203 0.17793715
0.26504445 -0.39756668 0.20856613
0.26882479 -0.44804129 0.24006873
0.27271548 -0.49997845 0.27249128
0.27671945 -0.5534389 0.30585766
0.28084376 -0.60849476 0.34022707
0.28509182 -0.6652143 0.37562752
0.28947037 -0.72367591 0.41211548
0.29398668 -0.7839644 0.44975108
0.2986449 -0.84616071 0.48857003
0.30345318 -0.91035938 0.52863872
0.30842006 -0.97666341 0.57002944
0.31355092 -1.0451697 0.61278665
0.41080549 0.99767041 0.93418729
0.40156069 0.917853 0.86815292
0.40156433 0.86049491 0.8681789
0.40156618 0.80313236 0.86819208
0.401568 0.74576908 0.86820489
0.40156981 0.68840539 0.86821806
0.40157348 0.63104397 0.86824411
0.4015753 0.57367921 0.86825734
0.40157714 0.51631349 0.8682704
0.40157896 0.45894742 0.86828339
0.40158263 0.4015826 0.86830956
0.25424519 0.21792445 -0.18410052
0.25672597 0.1833757 -0.16638055
0.25975871 0.14843351 -0.14471821
0.26286477 0.11265633 -0.12253238
0.26604596 0.07601314 -0.099809542
0.26930508 0.038472153 -0.076529972
0.27264509 -1.4901161e-08 -0.052672885
0.27606896 -0.039438359 -0.028216599
0.27957991 -0.079879954 -0.0031384081
0.28318134 -0.12136338 0.022585988
0.28687578 -0.16392903 0.048975069
0.2906689 -0.20762065 0.07606864
0.29456267 -0.25248227 0.10388122
0.29856318 -0.29856315 0.13245642
0.30267283 -0.34591186 0.16181093
0.30689719 -0.39458215 0.19198486
0.31124112 -0.44463021 0.22301304
0.31571093 -0.49611706 0.2549403
0.32030982 -0.54910249 0.28778946
0.32504469 -0.6036545 0.32161009
0.32992285 -0.65984571 0.3564541
0.33494842 -0.71774668 0.39235091
0.34012946 -0.77743876 0.42935842
0.34547466 -0.83900976 0.46753818
0.3509891 -0.90254319 0.50692725
0.35668394 -0.96814209 0.5476045
0.3625651 -1.0359002 0.58961278
0.44979516 0.89959043 0.81108207
0.43948987 0.82404339 0.74667394
0.43949181 0.76911062 0.74668586
0.43949372 0.71417719 0.74669784
0.43949753 0.65924633 0.7467218
0.43949944 0.6043117 0.74673384
0.43950137 0.54937667 0.74674582
0.43950328 0.49444112 0.74675781
0.4395071 0.43950698 0.74678171
0.43950903 0.3845703 0.74679363
0.29277065 0.21957795 -0.17032103
0.2915701 0.18223129 -0.17782459
0.29499358 0.14749682 -0.15642789
0.2984975 0.11193655 -0.13452843
0.30208656 0.075521626 -0.11209668
0.30576301 0.038220353 -0.089119032
0.30952999 -4.0978193e-08 -0.065575071
0.31339103 -0.039173901 -0.041443821
0.31734955 -0.079337433 -0.016703021
0.32140937 -0.12052862 0.0086708255
0.32557335 -0.16278657 0.034695711
0.32984772 -0.20615484 0.061410598
0.33423471 -0.2506761 0.088829353
0.33873999 -0.29639751 0.11698719
0.34336954 -0.34336951 0.14592192
0.34812617 -0.391642 0.17565086
0.35301647 -0.44127059 0.20621505
0.35804734 -0.49231514 0.2376582
0.36322242 -0.5448336 0.27000245
0.36854926 -0.59889263 0.3032952
0.37403607 -0.65456325 0.33758771
0.37968728 -0.71191359 0.37290776
0.38551188 -0.77102357 0.40931141
0.39151946 -0.8319788 0.44685894
0.39771572 -0.89486027 0.48558533
0.40411124 -0.95976412 0.52555752
0.41071746 -1.0267936 0.56684643
0.41754156 -1.0960466 0.60949707
0.48564503 0.80940843 0.69789034
0.47433487 0.73785424 0.6350559
0.47433883 0.68515617 0.63507795
0.4743408 0.63245434 0.6350888
0.47434276 0.57975233 0.63510007
0.47434476 0.52704972 0.63511091
0.47434875 0.47434878 0.63513297
0.47435069 0.42164513 0.63514411
0.47435272 0.36894092 0.63515502
0.33189687 0.2212646 -0.15626609
0.325982 0.18110111 -0.18912657
0.3297855 0.14657126 -0.16799618
0.33367881 0.11122629 -0.14636672
0.33766511 0.075036772 -0.12422046
0.34174681 0.03797188 -0.10154439
0.34592944 2.2351742e-08 -0.07830745
0.35021573 -0.038912952 -0.054494824
0.35460955 -0.078802034 -0.030084662
0.35911503 -0.11970507 -0.005054228
0.36373535 -0.16166013 0.02061405
0.36847723 -0.20470965 0.046958029
0.3733432 -0.24889541 0.073991127
0.37833941 -0.29426393 0.1017478
0.38347241 -0.34086436 0.13026461
0.38874531 -0.38874534 0.15955849
0.39416525 -0.43796143 0.18966916
0.39973983 -0.48857087 0.22063905
0.4054729 -0.54063052 0.25248951
0.41137284 -0.59420532 0.285267
0.41744855 -0.64936447 0.31902105
0.42370483 -0.70617473 0.35377803
0.43015149 -0.76471376 0.38959271
0.43679902 -0.82506472 0.42652345
0.44365349 -0.88730681 0.4646039
0.45072654 -0.95153379 0.50389856
0.45803061 -1.0178459 0.54447699
0.46557343 -1.086338 0.58638138
0.51871973 0.72620761 0.5934608
0.50646055 0.65839863 0.53216499
0.50646257 0.60775512 0.5321753
0.5064646 0.55711114 0.53218532
0.50646669 0.50646651 0.53219551
0.50647068 0.45582363 0.53221601
0.50647277 0.4051781 0.53222609
0.50647479 0.35453242 0.53223634
0.37162992 0.22297791 -0.1419881
0.35996965 0.17998487 -0.20028941
0.36414355 0.14565739 -0.1794201
0.36841533 0.11052463 -0.15806112
0.37278855 0.074557737 -0.13619496
0.37726569 0.037726548 -0.11380918
0.38185287 3.7252903e-09 -0.090873495
0.38655296 -0.038655177 -0.067373045
0.39137018 -0.078274019 -0.043286901
0.39630899 -0.1188928 -0.01859289
0.40137273 -0.16054904 0.0067259148
0.40656888 -0.20328444 0.032706767
0.41190001 -0.24713999 0.059362367
0.41737279 -0.29216093 0.086726233
0.42299438 -0.33839557 0.11483419
0.42876801 -0.38589126 0.14370228
0.43470144 -0.43470144 0.17336935
0.44080293 -0.48488322 0.20387691
0.44707656 -0.53649181 0.23524497
0.45353132 -0.58959067 0.26751891
0.46017689 -0.64424765 0.30074674
0.4670184 -0.70052749 0.33495414
0.47406638 -0.75850606 0.37019396
0.48133218 -0.81826472 0.40652314
0.48882228 -0.87988019 0.44397372
0.49654919 -0.94344342 0.48260814
0.50452626 -1.0090526 0.52249384
0.51276183 -1.0767999 0.56367141
0.54932946 0.64920741 0.49681407
0.53616977 0.58491236 0.43699741
0.53617185 0.53617179 0.43700695
0.53617597 0.48743263 0.43702576
0.53617805 0.43869108 0.4370352
0.53618014 0.3899492 0.43704468
0.53618222 0.34120703 0.43705413
0.53618634 0.2924653 0.43707287
0.39773887 0.18079042 -0.19223373
0.39807579 0.14475489 -0.19070236
0.40271637 0.10983177 -0.1696088
0.40746644 0.074084856 -0.14801764
0.41232985 0.037484504 -0.12591101
0.41730955 3.7252903e-08 -0.10327598
0.42241231 -0.038401168 -0.080081902
0.42764136 -0.07775303 -0.056313347
0.43300149 -0.11809126 -0.031949107
0.43849635 -0.15945318 -0.0069725737
0.44413385 -0.20187896 0.018652499
0.44991675 -0.2454091 0.044938356
0.45585224 -0.29008782 0.071917824
0.4619464 -0.33596104 0.099618554
0.4682073 -0.38307872 0.12807734
0.47463864 -0.43148965 0.15731061
0.48125076 -0.48125088 0.18736576
0.48804805 -0.53241599 0.21826248
0.49504003 -0.58504736 0.25004429
0.50223708 -0.63921088 0.28275821
0.50964469 -0.69497007 0.31642914
0.51727402 -0.75239873 0.35110804
0.52513725 -0.81157589 0.38684994
0.53324121 -0.87257659 0.42368603
0.54159915 -0.93548948 0.46167666
0.55022556 -1.00041 0.50088722
0.55912882 -1.0674278 0.54135692
0.56832504 -1.1366502 0.58315796
0.57773983 0.57774001 0.40711161
0.56372893 0.51675153 0.34873274
0.56373101 0.46977577 0.34874147
0.56373316 0.42279986 0.34875041
0.56373519 0.37582344 0.34875911
0.56373942 0.328848 0.34877661
0.56374156 0.28187075 0.34878522
0.43718827 0.18216172 -0.17851998
0.43159008 0.14386338 -0.20184562
0.43659005 0.1091475 -0.1810126
0.44170716 0.073617905 -0.15969129
0.44694567 0.037245546 -0.13786404
0.45230994 -4.0978193e-08 -0.11551291
0.45780313 -0.038150262 -0.092624649
0.46343285 -0.077238813 -0.069167525
0.46920273 -0.11730069 -0.045126427
0.47511655 -0.15837216 -0.020485364
0.48118141 -0.20049225 0.0047849193
0.4874047 -0.24370229 0.0307151
0.4937894 -0.28804377 0.057318091
0.50034362 -0.33356243 0.084627382
0.50707591 -0.38030693 0.11267837
0.51399004 -0.42832509 0.14148727
0.52109534 -0.47767076 0.17109267
0.52840167 -0.52840167 0.2015359
0.53591388 -0.58057344 0.23283704
0.54364282 -0.63424987 0.26504079
0.55159998 -0.68949997 0.29819563
0.55979145 -0.74638838 0.33232653
0.568232 -0.80499518 0.36749545
0.57692879 -0.86539316 0.4037323
0.58589596 -0.92766851 0.44109514
0.5951485 -0.99191433 0.47964787
0.60417753 0.51122707 0.32362199
0.58935952 0.45335349 0.26662967
0.58936167 0.40801963 0.26663786
0.58936381 0.36268544 0.26664606
0.58936805 0.31735194 0.2666623
0.58937013 0.27201706 0.26667044
0.47724208 0.18355471 -0.16459113
0.46469411 0.14298272 -0.2128526
0.47004423 0.10847178 -0.19227529
0.47551897 0.073156811 -0.17121851
0.48112276 0.037009452 -0.14966555
0.48686019 -1.4901161e-08 -0.12759861
0.4927361 -0.03790272 -0.10499886
0.49875402 -0.076731361 -0.081852905
0.50492239 -0.11652057 -0.058128636
0.51124358 -0.15730575 -0.033816159
0.51772511 -0.19912505 -0.0088872537
0.52437478 -0.24201909 0.016688213
0.5311957 -0.28602847 0.042922631
0.53819644 -0.3311978 0.069848657
0.54538596 -0.37757489 0.097500771
0.55276835 -0.42520633 0.12589443
0.56035334 -0.47414511 0.15506738
0.5681513 -0.52444744 0.18505968
0.5761674 -0.57616735 0.21589071
0.58441293 -0.62936771 0.24760413
0.59289998 -0.68411529 0.28024662
0.60163498 -0.74047369 0.31384295
0.61063123 -0.79851782 0.34844398
0.61990291 -0.85832709 0.38410431
0.62884289 0.44917342 0.2457296
0.6132589 0.39423794 0.19007257
0.61326313 0.35043603 0.19008771
0.61326528 0.30663258 0.19009535
0.61326736 0.26282886 0.19010305
0.61326951 0.21902482 0.19011055
0.50022274 0.14292078 -0.21362783
0.50308675 0.10780436 -0.20339933
0.50890988 0.072701402 -0.18260235
0.51486939 0.036776371 -0.16131851
0.52097011 -7.4505806e-09 -0.13953015
0.52721721 -0.037658311 -0.11721922
0.53361422 -0.076230533 -0.0943726
0.54017013 -0.11575075 -0.070958838
0.54688734 -0.15625347 -0.046968635
0.55377382 -0.19777632 -0.022374243
0.56083769 -0.24035901 0.0028538555
0.56808221 -0.28404117 0.028727382
0.5755164 -0.32886648 0.055278003
0.58314961 -0.37488201 0.082539558
0.59098613 -0.42213297 0.11052704
0.5990361 -0.47067118 0.13927686
0.60731047 -0.5205518 0.16882834
0.61581451 -0.57182783 0.1991998
0.62456012 -0.62456012 0.23043399
0.63355994 -0.67881423 0.26257628
0.64282054 -0.73465204 0.29565004
0.65190601 0.39114362 0.1728822
0.63559878 0.33898604 0.1185248
0.63560086 0.29661375 0.11853184
0.63560301 0.25424123 0.11853894
0.63560516 0.21186841 0.11854611
0.53996682 0.1439912 -0.20024821
0.53572512 0.10714492 -0.21438733
0.5418877 0.072251588 -0.19384553
0.54819363 0.03654623 -0.17282555
0.55464816 2.2351742e-08 -0.15131056
0.56125635 -0.037417058 -0.12928317
0.56802231 -0.075736314 -0.10673008
0.57495511 -0.11499096 -0.083620735
0.58205742 -0.15521526 -0.059946172
0.58933741 -0.19644585 -0.035679676
0.59680367 -0.23872143 -0.01079198
0.6044597 -0.28208113 0.014727727
0.61231458 -0.32656783 0.040910944
0.62037843 -0.37222707 0.067790315
0.62865537 -0.41910359 0.095380053
0.63715613 -0.46724778 0.1237161
0.6458922 -0.51671374 0.15283628
0.6548689 -0.56755304 0.18275845
0.66409856 -0.61982536 0.21352427
0.67359453 -0.67359459 0.24517748
0.67352223 0.33676106 0.10461929
0.65652311 0.28722882 0.051496953
0.65652525 0.24619699 0.051503554
0.65652949 0.20516542 0.051516861
0.58031577 0.14507899 -0.18665104
0.56796676 0.10649372 -0.22524166
0.57445997 0.071807414 -0.20495027
0.58110344 0.036319003 -0.18418959
0.58790231 -2.9802322e-08 -0.16294289
0.59486222 -0.037178837 -0.14119337
0.60198706 -0.075248353 -0.11892819
0.60928464 -0.11424096 -0.096123181
0.61676323 -0.15419075 -0.07275255
0.62442577 -0.19513306 -0.048807226
0.63228106 -0.23710535 -0.024259448
0.6403386 -0.28014815 0.00092023611
0.64860201 -0.32430094 0.026743382
0.65708363 -0.3696095 0.05324854
0.66578776 -0.41611731 0.080449149
0.67472571 -0.46387386 0.10837996
0.68390918 -0.51293182 0.13707824
0.69334364 -0.56334168 0.16656108
0.69381946 0.28569037 0.040507719
0.67616618 0.23864695 -0.011413611
0.67616838 0.19887301 -0.011407353
0.62128073 0.14618367 -0.17284153
0.60030949 0.10593697 -0.23452157
0.60663426 0.071368784 -0.21591936
0.61360645 0.036094517 -0.19541289
0.62074071 2.2351742e-08 -0.17442983
0.62804288 -0.036943689 -0.15295276
0.635517 -0.074766725 -0.13097015
0.64317113 -0.11350077 -0.10845798
0.65101391 -0.15317979 -0.085391045
0.65904826 -0.19383767 -0.061760575
0.66728336 -0.23551178 -0.037539676
0.67572904 -0.27824128 -0.01269944
0.684389 -0.32206544 0.012771189
0.6932739 -0.36702737 0.038903266
0.70239478 -0.41317344 0.065729395
0.71175653 -0.46054846 0.093263835
0.71291673 0.23763888 -0.019813329
0.69463837 0.19295517 -0.070586711
0.69464052 0.15436465 -0.070580795
0.64032245 0.1067204 -0.22146416
0.63841772 0.070935324 -0.22675531
0.64571011 0.035872735 -0.20649855
0.65317106 -5.9604645e-08 -0.1857737
0.66080642 -0.03671148 -0.16456443
0.66862041 -0.074291222 -0.14285898
0.67662138 -0.11277017 -0.12063383
0.68481821 -0.15218173 -0.097864747
0.69321406 -0.19255948 -0.0745432
0.70181829 -0.23393945 -0.050642528
0.71064103 -0.27636045 -0.026134893
0.71968615 -0.3198604 -0.0010096729
0.72896439 -0.36448216 0.024763376
0.73848748 -0.41027078 0.051216364
0.73091966 0.19234724 -0.076664992
0.71204305 0.14990373 -0.1263402
0.68094331 0.10751737 -0.20818177
0.66981745 0.070507087 -0.23746035
0.67742181 0.03565383 -0.21744876
0.68520075 -4.4703484e-08 -0.19697767
0.69316053 -0.03648217 -0.17603111
0.70130533 -0.073821619 -0.15459754
0.70964378 -0.11204909 -0.1326541
0.71818507 -0.1511969 -0.11017698
0.72693229 -0.19129786 -0.087158173
0.73589516 -0.23238796 -0.063571543
0.74508417 -0.2745046 -0.039389983
0.75450313 -0.31768548 -0.014603183
0.74791551 0.14958303 -0.13034894
0.72217327 0.10832602 -0.19470461
0.70084035 0.070084088 -0.24803671
0.70874864 0.035437398 -0.22826618
0.71683747 -7.4505806e-09 -0.20804422
0.72511297 -0.036255665 -0.18735525
0.7335797 -0.073357999 -0.16618846
0.74224645 -0.11133697 -0.14452161
0.75112271 -0.15022458 -0.12233088
0.76021153 -0.19005291 -0.099608868
0.76952296 -0.2308569 -0.076330207
0.76399064 0.10914158 -0.18111235
0.73833978 0.070318103 -0.24218594
0.73969758 0.035223618 -0.23895299
0.74808812 -3.7252903e-08 -0.2189756
0.75666898 -0.036031798 -0.19854486
0.76545119 -0.072900102 -0.17763494
0.77443743 -0.11063386 -0.15623918
0.78363711 -0.14926422 -0.13433513
0.80642128 0.10996647 -0.167362
0.77920723 0.070836991 -0.22921231
0.77027547 0.035012558 -0.24951163
0.77895987 5.9604645e-08 -0.22977439
0.78784001 -0.035810962 -0.20959218
0.79692733 -0.072447941 -0.18893933
0.80622435 -0.10993972 -0.16780967
0.82062662 0.071358867 -0.21616682
0.80048889 0.034803823 -0.25994456
0.80945951 -1.1920929e-07 -0.24044317
0.81863117 -0.035592698 -0.22050488
0.83409727 0.03475403 -0.26243514
