# .PCD v0.7 - Point Cloud Data file format
VERSION 0.7
FIELDS x y z
SIZE 4 4 4
TYPE F F F
COUNT 1 1 1
WIDTH 1336
HEIGHT 1
VIEWPOINT 0 0 0 1 0 0 0
POINTS 1336
DATA ascii
-1.1680405 -0.43801504 0.43327996
-1.1903955 -0.49599805 0.47985289
-1.039542 -0.22598746 0.25973609
-1.0579934 -0.27599838 0.2998482
-1.0771118 -0.32781669 0.34140989
-1.0969298 -0.38154072 0.38449228
-1.1174949 -0.43728063 0.42919922
-1.1388459 -0.49515051 0.4756144
-0.91328406 -1.1175871e-08 0.075507835
-0.92815155 -0.042188745 0.1092976
-0.94351113 -0.085773721 0.14420564
-0.9593842 -0.13082515 0.18028104
-0.97580403 -0.17741887 0.21759871
-0.99279571 -0.22563536 0.25621608
-1.0103896 -0.27556077 0.29620227
-1.0286183 -0.32728758 0.33763102
-1.0475168 -0.38091522 0.38058221
-1.0671227 -0.43655008 0.42514119
-1.0874766 -0.49430743 0.47139993
-1.108622 -0.55431098 0.5194577
-0.818178 0.1558435 -0.052094966
-0.83066326 0.11866621 -0.022367992
-0.84353822 0.080336951 0.0082866475
-0.85681862 0.040800892 0.039906494
-0.87052381 -7.0780516e-08 0.072538063
-0.88467461 -0.042127442 0.10623033
-0.89929301 -0.085646987 0.14103611
-0.91440272 -0.13062894 0.17701158
-0.9300288 -0.17714836 0.21421646
-0.94619823 -0.22528526 0.25271508
-0.96293986 -0.27512571 0.29257604
-0.98028457 -0.32676157 0.33387306
-0.99826175 -0.38029018 0.37667614
-1.0169146 -0.43582061 0.42108756
-1.0362778 -0.4934656 0.46719033
-1.0563927 -0.55334854 0.51508296
-0.73408604 0.29363444 -0.16492265
-0.74463218 0.26062128 -0.13855729
-0.75548577 0.22664577 -0.11142331
-0.76666039 0.19166508 -0.083486617
-0.77817065 0.15563408 -0.054711048
-0.79003179 0.11850484 -0.025058288
-0.80226004 0.080225974 0.0055124089
-0.81487274 0.040743638 0.037044339
-0.82788849 2.6077032e-08 0.069583438
-0.84132671 -0.042066392 0.10317902
-0.8552084 -0.085520729 0.13788319
-0.86955279 -0.13043298 0.17374435
-0.88438976 -0.17687801 0.21083671
-0.89974189 -0.22493537 0.24921697
-0.91563636 -0.27469081 0.2889531
-0.9321025 -0.32623586 0.33011854
-0.94917178 -0.37966865 0.37279156
-0.96687782 -0.4350951 0.41705674
-0.98525691 -0.49262848 0.46300474
-1.0043484 -0.55239183 0.51073343
-0.65049505 0.44507551 -0.28830874
-0.65920353 0.41633913 -0.26539147
-0.6681484 0.38682282 -0.2418523
-0.67733943 0.35649437 -0.21766561
-0.68678677 0.32532004 -0.1928042
-0.69650137 0.29326373 -0.16723943
-0.70649475 0.26028755 -0.14094093
-0.71677905 0.22635125 -0.11387686
-0.72736722 0.19141239 -0.086013414
-0.73827296 0.15542582 -0.057314273
-0.74950826 0.1183434 -0.027747575
-0.76109326 0.080115162 0.0027392842
-0.77304202 0.040686458 0.034183368
-0.78537196 -3.7252903e-09 0.06663049
-0.79810154 -0.042005379 0.10012949
-0.81125063 -0.085394859 0.13473235
-0.82484025 -0.13023795 0.17049447
-0.83889282 -0.17660907 0.20747505
-0.85343266 -0.22458754 0.24573763
-0.86848527 -0.27425855 0.28534988
-0.8840785 -0.3257131 0.32638466
-0.90023851 -0.37904775 0.36891082
-0.91700375 -0.43437019 0.41302991
-0.93440527 -0.49179232 0.45882368
-0.95248008 -0.55143571 0.50638866
-0.97126788 -0.61343229 0.55583036
-0.59209442 0.52630615 -0.35543093
-0.59970635 0.49975529 -0.33428681
-0.60751647 0.47251281 -0.31259197
-0.6155327 0.44455135 -0.29032463
-0.62376338 0.41584229 -0.26746166
-0.63221717 0.38635489 -0.24397911
-0.64090317 0.35605729 -0.21985117
-0.64983118 0.32491556 -0.19505109
-0.65900958 0.29289314 -0.16955569
-0.66845286 0.25995389 -0.1433242
-0.6781708 0.22605687 -0.11632989
-0.68817544 0.1911599 -0.088539258
-0.69847971 0.15521772 -0.059916392
-0.70909715 0.11818291 -0.030423354
-0.72004247 0.080004677 -1.9785017e-05
-0.73133093 0.040629476 0.031337041
-0.74297893 3.3527613e-08 0.063692771
-0.7550016 -0.041944519 0.097088903
-0.76742226 -0.085269168 0.13159063
-0.78025842 -0.13004309 0.16724679
-0.7935313 -0.17634024 0.20411584
-0.80726355 -0.22423984 0.24226107
-0.8214795 -0.27382654 0.2817497
-0.83620507 -0.32519075 0.32265413
-0.85146821 -0.3784304 0.36505169
-0.8672989 -0.43364942 0.40902585
-0.8837294 -0.49096069 0.45466617
-0.90079445 -0.55048549 0.50206918
-0.9185316 -0.61235452 0.55133897
-0.56807727 0.53466094 -0.32932222
-0.56574017 0.49918249 -0.33619592
-0.57309943 0.47196424 -0.31455109
-0.5806511 0.4440273 -0.29234031
-0.58840609 0.4153454 -0.26953167
-0.59637094 0.38588709 -0.24610552
-0.60455447 0.35562024 -0.22203639
-0.61296564 0.32451123 -0.1972976
-0.62161422 0.29252431 -0.17186072
-0.63051033 0.25962198 -0.14569572
-0.63966471 0.22576407 -0.1187709
-0.64908892 0.1909086 -0.091052771
-0.65879285 0.15501013 -0.062511541
-0.6687935 0.11802243 -0.033098042
-0.67910248 0.079894513 -0.0027775653
-0.68973416 0.040572636 0.028492156
-0.70070404 3.5390258e-08 0.060756646
-0.71202856 -0.04188405 0.094063915
-0.72372514 -0.085144103 0.1284655
-0.73581231 -0.12984924 0.16401619
-0.74831021 -0.17607291 0.20077458
-0.76123995 -0.22389409 0.23880321
-0.77462435 -0.27339685 0.27816907
-0.78848487 -0.32467026 0.3189356
-0.80285358 -0.37781346 0.36119625
-0.81775564 -0.43292949 0.40502593
-0.83322138 -0.49013028 0.4505133
-0.84928334 -0.54953617 0.49775448
-0.86597681 -0.61127776 0.54685301
-0.54381865 0.54381865 -0.30070436
-0.53185046 0.49860984 -0.33810496
-0.53876084 0.47141567 -0.31651023
-0.54585314 0.44350561 -0.29434675
-0.55313468 0.41485098 -0.27159196
-0.5606131 0.38542148 -0.24822186
-0.56829643 0.35518521 -0.22421128
-0.57619178 0.32410786 -0.19953854
-0.58431125 0.29215556 -0.17416519
-0.59266281 0.25928995 -0.14806665
-0.60125649 0.22547127 -0.12121113
-0.61010319 0.19065714 -0.09356536
-0.61921406 0.15480345 -0.065093949
-0.62860107 0.11786272 -0.035759225
-0.63827717 0.079784602 -0.005521547
-0.64825583 0.040515997 0.02566174
-0.65855139 -5.7742e-08 0.05783556
-0.66917711 -0.041823544 0.09104079
-0.68015361 -0.085019268 0.12534232
-0.69149619 -0.12965555 0.16078794
-0.70322347 -0.17580582 0.19743578
-0.71535546 -0.22354853 0.23534805
-0.72791338 -0.27296758 0.27459157
-0.74092001 -0.3241525 0.31523734
-0.75440001 -0.37719998 0.35736224
-0.76837951 -0.4322134 0.40104824
-0.78288692 -0.48930448 0.44638392
-0.79795271 -0.54859257 0.49346447
-0.81360978 -0.61020738 0.54239273
-0.82989347 -0.67428833 0.5932793
-0.51871312 0.553294 -0.2710939
-0.50351697 0.50351691 -0.32174784
-0.50450194 0.47086841 -0.31846464
-0.5111354 0.44298401 -0.29635292
-0.51794571 0.41435653 -0.27365214
-0.52493989 0.38495588 -0.25033808
-0.53212559 0.35475037 -0.22638579
-0.53951067 0.32370642 -0.20176867
-0.5471037 0.29178861 -0.17645863
-0.55491346 0.25895959 -0.150426
-0.56294948 0.22517981 -0.12363945
-0.57122165 0.19040716 -0.096065678
-0.57973874 0.15459689 -0.067675322
-0.58851546 0.11770311 -0.038419388
-0.59756207 0.079674929 -0.0082641654
-0.60689116 0.040459432 0.022832684
-0.61651611 -1.4901161e-08 0.054916091
-0.62645125 -0.04176344 0.088033281
-0.63671196 -0.08489494 0.12223532
-0.64731431 -0.12946293 0.1575765
-0.65827572 -0.17554021 0.1941146
-0.66961473 -0.22320496 0.23191141
-0.68135136 -0.27254048 0.27103329
-0.6935041 -0.32363522 0.31154254
-0.70610088 -0.37658712 0.35353184
-0.71916372 -0.43149817 0.39707461
-0.732719 -0.48847935 0.44225898
-0.74679512 -0.5476498 0.48917943
-0.76142269 -0.60913807 0.53793794
-0.77663469 -0.67308331 0.58864456
-0.49271864 0.56310701 -0.24042843
-0.47804466 0.5121907 -0.29283538
-0.47032374 0.47032371 -0.32041007
-0.47650057 0.44246483 -0.29834998
-0.48284185 0.4138644 -0.27570263
-0.48935416 0.38449246 -0.25244436
-0.49604455 0.35431749 -0.22855008
-0.50291896 0.32330504 -0.20399855
-0.50998807 0.29142177 -0.17875168
-0.51725882 0.25862929 -0.1527849
-0.5247398 0.22488838 -0.12606716
-0.53244036 0.19015728 -0.098565124
-0.54037023 0.15439148 -0.070243858
-0.54853994 0.11754431 -0.041066386
-0.55696052 0.079565838 -0.010992955
-0.56564367 0.040403157 0.020018019
-0.57460177 3.7252903e-08 0.052011415
-0.58384627 -0.041703276 0.085027464
-0.59339505 -0.084770687 0.11913043
-0.60326141 -0.12927033 0.15436745
-0.61346143 -0.17527479 0.19079596
-0.62401229 -0.22286157 0.22847763
-0.6349324 -0.27211395 0.26747799
-0.64624155 -0.32312071 0.30786788
-0.65796089 -0.37597767 0.34972253
-0.67011309 -0.43078688 0.3931233
-0.68272263 -0.48765904 0.43815756
-0.69581586 -0.54671234 0.48491883
-0.7094211 -0.60807526 0.53350914
-0.72356898 -0.67188555 0.58403713
-0.46578404 0.57327265 -0.20866072
-0.45168063 0.52116996 -0.26290458
-0.4383651 0.47208548 -0.31411815
-0.44194564 0.44194558 -0.30034685
-0.44782004 0.41337237 -0.27775288
-0.45385274 0.3840293 -0.25455025
-0.46005017 0.35388476 -0.23071399
-0.46641922 0.32290563 -0.20621766
-0.47296709 0.29105663 -0.18103361
-0.4797014 0.25830078 -0.15513241
-0.48663029 0.22459862 -0.12848292
-0.4937622 0.18990852 -0.10105233
-0.50110477 0.15418617 -0.072811536
-0.50867069 0.11738549 -0.043712128
-0.51646841 0.079456598 -0.013720661
-0.52450901 0.040346861 0.017204786
-0.53280395 5.7742e-08 0.049108341
-0.5413655 -0.041643508 0.082037255
-0.5502066 -0.084647201 0.11604162
-0.55934131 -0.12907878 0.15117504
-0.56878448 -0.17501058 0.18749489
-0.57855195 -0.22251998 0.22506207
-0.58866072 -0.27168959 0.26394209
-0.59912688 -0.32260683 0.30419651
-0.60997421 -0.3753688 0.3459169
-0.62122154 -0.43007657 0.38917592
-0.63289142 -0.48683956 0.4340601
-0.64500821 -0.54577631 0.48066321
-0.65759802 -0.60701352 0.52908534
-0.67068899 -0.67068887 0.57943535
-0.43786037 0.58381379 -0.17571951
-0.43789333 0.54736668 -0.17558214
-0.41164747 0.48025534 -0.28493989
-0.40747279 0.44142887 -0.30233437
-0.41288257 0.41288257 -0.27979371
-0.41843793 0.38356805 -0.25664639
-0.4241448 0.35345402 -0.2328677
-0.43000829 0.32250625 -0.20843649
-0.43603742 0.29069155 -0.1833151
-0.44223803 0.25797221 -0.15747929
-0.44861752 0.2243088 -0.130898
-0.45518374 0.18965988 -0.10353868
-0.46194509 0.15398172 -0.075366564
-0.46891028 0.11722757 -0.046344776
-0.47608876 0.079348102 -0.016434537
-0.48349047 0.04029087 0.014405776
-0.49112591 -3.7252903e-09 0.046220139
-0.49900472 -0.041583776 0.079048648
-0.50714219 -0.084523678 0.11295468
-0.51554942 -0.1288874 0.147985
-0.52424014 -0.17474671 0.18419616
-0.53322887 -0.22217864 0.22164911
-0.54253119 -0.27126554 0.26040894
-0.5521639 -0.32209557 0.3005451
-0.56214482 -0.37476316 0.3421323
-0.57249314 -0.42936981 0.38525054
-0.58322972 -0.48602483 0.42998612
-0.59437668 -0.54484534 0.47643161
-0.60595798 -0.60595804 0.52468717
-0.61799961 -0.66949952 0.57486057
-0.63052952 -0.7356177 0.62706846
-0.42256936 0.65306181 -0.079367757
-0.40888938 0.59474814 -0.14154969
-0.41249305 0.56249046 -0.12516937
-0.3839888 0.48871306 -0.25473404
-0.37307945 0.44091207 -0.304322
-0.37802675 0.41239282 -0.2818343
-0.38310701 0.38310698 -0.25874227
-0.38832566 0.35302329 -0.23502107
-0.39368844 0.32210875 -0.21064469
-0.39920145 0.29032832 -0.18558562
-0.40487105 0.25764516 -0.15981488
-0.41070399 0.22402041 -0.13330141
-0.41670746 0.18941243 -0.10601285
-0.42288777 0.15377735 -0.077920571
-0.42925549 0.11706966 -0.048976503
-0.4358179 0.079239689 -0.019147221
-0.44258407 0.040234871 0.011608033
-0.44956365 -9.3132257e-09 0.043333463
-0.4567669 -0.041524246 0.076075494
-0.46420476 -0.08440084 0.10988392
-0.47188881 -0.12869681 0.14481153
-0.47983158 -0.17448422 0.18091498
-0.48804632 -0.22183923 0.21825452
-0.49654719 -0.27084398 0.25689498
-0.50534761 -0.32158482 0.29689687
-0.51446754 -0.37415823 0.33835113
-0.52392268 -0.42866406 0.38132903
-0.53373182 -0.48521081 0.42591622
-0.54391539 -0.54391545 0.47220492
-0.55449498 -0.60490358 0.52029425
-0.56549442 -0.6683116 0.57029134
-0.57693905 -0.73428607 0.62231249
-0.39173633 0.66595161 -0.041456133
-0.3788113 0.60609812 -0.10608119
-0.38564923 0.57847387 -0.071891591
-0.39466333 0.55252862 -0.026821077
-0.34463334 0.44802329 -0.27697104
-0.34325445 0.41190532 -0.28386548
-0.34786189 0.38264805 -0.26082835
-0.35259467 0.35259473 -0.23716433
-0.35745704 0.32171136 -0.21285264
-0.36245638 0.28996509 -0.1878558
-0.36759758 0.2573182 -0.16214988
-0.37288672 0.22373204 -0.13570422
-0.37833029 0.18916513 -0.10848634
-0.38393512 0.153574 -0.080462068
-0.38970855 0.11691256 -0.051594891
-0.39565825 0.079131626 -0.02184636
-0.40179244 0.040179346 0.0088245254
-0.40811852 -2.6077032e-08 0.040454984
-0.41464832 -0.041464843 0.073104016
-0.42139053 -0.084278047 0.10681493
-0.42835557 -0.12850665 0.14164016
-0.43555474 -0.17422189 0.17763601
-0.44300005 -0.22150013 0.21486251
-0.45070431 -0.27042246 0.25338387
-0.45868129 -0.32107684 0.29326862
-0.46694571 -0.37355649 0.33459088
-0.47551343 -0.42796198 0.37742928
-0.48440138 -0.48440135 0.42186919
-0.493628 -0.5429908 0.46800214
-0.50321287 -0.60385543 0.5159266
-0.51317734 -0.66713047 0.56574893
-0.52354443 -0.73296219 0.61758441
-0.35966277 0.67936301 -0.0020111799
-0.34903029 0.6204983 -0.061080545
-0.35723525 0.59539211 -0.015497386
-0.36583647 0.56907892 0.032287091
-0.31565815 0.45595071 -0.2464813
-0.30856341 0.4114179 -0.28589639
-0.31270024 0.38218912 -0.26291424
-0.31694949 0.35216612 -0.23930724
-0.32131577 0.32131577 -0.21505004
-0.32580408 0.28960356 -0.19011502
-0.33041954 0.25699291 -0.16447356
-0.33516768 0.22344509 -0.13809517
-0.34005421 0.18891893 -0.11094758
-0.34508434 0.15337084 -0.083002627
-0.35026655 0.11675549 -0.054212525
-0.35560679 0.079023749 -0.024544381
-0.36111242 0.040123641 0.0060422737
-0.36679119 -2.2351742e-08 0.037591122
-0.37265143 -0.041405722 0.070147902
-0.37870193 -0.084156007 0.10376185
-0.38495216 -0.12831737 0.13848546
-0.3914122 -0.17396083 0.17437451
-0.39809135 -0.22116177 0.21148077
-0.40500382 -0.27000254 0.24988355
-0.41216061 -0.32056946 0.28964359
-0.41957489 -0.37295556 0.33083391
-0.42726082 -0.42726079 0.37353337
-0.43523359 -0.4835929 0.41782659
-0.44350952 -0.54206717 0.46380407
-0.4521063 -0.60280848 0.51156414
-0.46104297 -0.66595089 0.56121212
-0.47034001 -0.73164022 0.61286259
-0.48001981 -0.80003303 0.66663897
-0.32626978 0.69332331 0.039048463
-0.31937516 0.63875026 -0.0040431023
-0.32710922 0.61332977 0.044294804
-0.33522823 0.5866493 0.095038638
-0.34375939 0.55860901 0.14835857
-0.27699283 0.4154892 -0.26893255
-0.27762282 0.38173136 -0.26499504
-0.28139082 0.35173851 -0.24144506
-0.2852625 0.32092026 -0.21724702
-0.28924224 0.28924218 -0.1923739
-0.29333457 0.25666776 -0.16679676
-0.29754433 0.22315827 -0.14048561
-0.30187672 0.18867296 -0.11340821
-0.30633712 0.15316854 -0.085530698
-0.31093132 0.11659928 -0.056816913
-0.31566542 0.078916386 -0.027228843
-0.32054588 0.040068336 0.0032741632
-0.32557863 -2.6077032e-08 0.034728535
-0.33077297 -0.041346721 0.067193307
-0.33613575 -0.084033929 0.10071065
-0.34167528 -0.12812814 0.13533285
-0.34740046 -0.17370029 0.17111516
-0.35332081 -0.22082548 0.20811705
-0.35944641 -0.2695848 0.24640217
-0.36578813 -0.3200646 0.28603819
-0.37235767 -0.37235764 0.32709786
-0.37916753 -0.42656344 0.36965927
-0.38623109 -0.4827888 0.41380653
-0.39356279 -0.54114896 0.45962995
-0.40117827 -0.60176736 0.50722659
-0.4090943 -0.66477817 0.55670154
-0.41732898 -0.73032576 0.60816848
-0.42590201 -0.79856628 0.66174984
-0.29147655 0.70787156 0.081837565
-0.28792256 0.65810859 0.056451857
-0.29511154 0.63238168 0.10780156
-0.3026697 0.60533953 0.16178878
-0.31062415 0.57687342 0.2186061
-0.24667825 0.42287698 -0.23815024
-0.24263002 0.38127574 -0.26706615
-0.24591911 0.35131299 -0.24357271
-0.24929859 0.32052672 -0.21943361
-0.25277221 0.28888249 -0.19462179
-0.25634405 0.25634405 -0.16910878
-0.26001826 0.22287288 -0.14286438
-0.26379853 0.18842752 -0.11586237
-0.2676912 0.15296634 -0.088057749
-0.27170041 0.11644302 -0.059420452
-0.27583158 0.078809023 -0.029912205
-0.2800903 0.040012851 0.00050731003
-0.2844826 5.7742e-08 0.031880829
-0.28901485 -0.041287821 0.064253911
-0.29369381 -0.083912522 0.097675264
-0.29852682 -0.12794006 0.13219666
-0.30352151 -0.17344086 0.16787317
-0.30868512 -0.2204894 0.20475602
-0.31402859 -0.2691673 0.24292348
-0.31956029 -0.31956032 0.28243583
-0.32529038 -0.3717604 0.32336506
-0.33122972 -0.42586681 0.36578873
-0.33738998 -0.48198569 0.40979061
-0.34378371 -0.54023165 0.45546025
-0.35042447 -0.60072756 0.50289404
-0.35732684 -0.66360694 0.55219656
-0.36450654 -0.72901309 0.60348034
-0.37198073 -0.79710162 0.65686744
-0.25519103 0.72304118 0.12645411
-0.25450391 0.67867708 0.12072822
-0.2610631 0.65265775 0.17538792
-0.26796833 0.62525952 0.23293176
-0.27524984 0.59637475 0.29361111
-0.28293702 0.5658741 0.35767105
-0.20871887 0.38265121 -0.26081392
-0.21053252 0.35088754 -0.24570011
-0.21342215 0.32013321 -0.22161987
-0.2163922 0.28852296 -0.19686933
-0.21944609 0.2560204 -0.17142019
-0.22258742 0.22258736 -0.14524254
-0.22581998 0.18818331 -0.11830453
-0.22914781 0.15276526 -0.090572543
-0.23257521 0.11628759 -0.062010996
-0.23610668 0.078702107 -0.032582097
-0.23974705 0.039957866 -0.0022456441
-0.24350064 -3.5390258e-08 0.029034378
-0.24737448 -0.041229121 0.061316114
-0.25137353 -0.083791241 0.094641745
-0.25550401 -0.12775195 0.12906249
-0.25977254 -0.17318165 0.16463324
-0.26418605 -0.22015508 0.20141287
-0.26875216 -0.26875222 0.23946372
-0.2734789 -0.31905869 0.27885294
-0.27837485 -0.37116644 0.31965256
-0.28344929 -0.42517397 0.36193976
-0.2887122 -0.48118702 0.40579727
-0.29417425 -0.53931934 0.451314
-0.29984689 -0.59969372 0.49858645
-0.30574265 -0.66244245 0.54771781
-0.31187493 -0.72770828 0.59882003
-0.31825823 -0.79564542 0.6520139
-0.32490826 -0.86642206 0.70743108
-0.2173155 0.73887265 0.17301717
-0.21892895 0.70057273 0.18915176
-0.22475815 0.67427444 0.2474438
-0.23090543 0.64653534 0.30891669
-0.23739931 0.61723816 0.37385535
-0.24426809 0.58624333 0.44254309
-0.17703931 0.38948649 -0.22974457
-0.17523201 0.35046402 -0.24781749
-0.17763419 0.31974155 -0.22379577
-0.18010315 0.28816509 -0.19910619
-0.18264171 0.25569829 -0.17372069
-0.18525286 0.22230344 -0.14760919
-0.18793918 0.18793914 -0.12074609
-0.19070512 0.15256412 -0.093086503
-0.19355372 0.11613216 -0.064600617
-0.19648869 0.078595534 -0.035250865
-0.19951403 0.039902776 -0.0049972553
-0.20263402 -1.6763806e-08 0.026202474
-0.20585312 -0.041170605 0.058393426
-0.20917615 -0.083670437 0.09162391
-0.21260825 -0.12756497 0.12594472
-0.21615483 -0.17292397 0.16141057
-0.21982098 -0.21982098 0.19807197
-0.22361442 -0.26833728 0.23600645
-0.2275411 -0.3185575 0.27527323
-0.23160814 -0.37057295 0.31594366
-0.23582323 -0.42448181 0.35809454
-0.24019457 -0.48038903 0.40180796
-0.24473102 -0.53840834 0.44717273
-0.24944216 -0.59866118 0.49428388
-0.2543382 -0.66127944 0.54324448
-0.25943032 -0.72640479 0.59416544
-0.26473048 -0.7941913 0.64716709
-0.27025175 -0.86480558 0.70237976
-0.17774233 0.75540489 0.22164133
-0.18098202 0.72392821 0.26213774
-0.18596594 0.69737226 0.32443631
-0.19123137 0.66930979 0.39025444
-0.19680445 0.63961452 0.45991784
-0.2027113 0.60813397 0.53375351
-0.14420493 0.39656359 -0.19757599
-0.14001624 0.35004053 -0.24993478
-0.14193331 0.31934991 -0.2259714
-0.14390361 0.2878072 -0.20134257
-0.14592938 0.25537643 -0.17602056
-0.148013 0.22201957 -0.14997524
-0.15015697 0.18769617 -0.12317548
-0.15236397 0.152364 -0.095587961
-0.15463683 0.11597764 -0.067177318
-0.15697852 0.078489244 -0.037906341
-0.15939221 0.039848037 -0.0077351481
-0.16188078 -1.9557774e-08 0.023372002
-0.16444881 -0.041112214 0.055472426
-0.16709964 -0.083549768 0.088607758
-0.16983733 -0.12737803 0.12282889
-0.17266622 -0.17266619 0.15818998
-0.17559095 -0.21948864 0.19474895
-0.17861645 -0.26792464 0.23256789
-0.18174805 -0.31805912 0.27171293
-0.18499143 -0.36998287 0.31225514
-0.18835266 -0.42379352 0.35427055
-0.19183829 -0.47959563 0.39784101
-0.19545539 -0.53750235 0.4430545
-0.19921148 -0.59763432 0.49000573
-0.20311478 -0.66012293 0.5387969
-0.20717409 -0.72510934 0.5895384
-0.21139896 -0.79274613 0.64234936
-0.21579973 -0.86319894 0.69735897
-0.14198332 0.8518998 0.36625075
-0.13663024 0.77423811 0.277033
-0.14041825 0.74889743 0.34016645
-0.14442171 0.7221086 0.40689087
-0.14866076 0.69375026 0.47754174
-0.15315558 0.66367424 0.55245519
-0.15793131 0.63172531 0.63205081
-0.16301379 0.59771723 0.71675855
-0.10673306 0.35577694 -0.22125334
-0.10632008 0.31896022 -0.22813654
-0.10779416 0.28745103 -0.20356831
-0.1093097 0.2550559 -0.17830935
-0.11086847 0.22173688 -0.15232988
-0.11247201 0.18745336 -0.12560435
-0.11412294 0.15216383 -0.098088741
-0.11582307 0.11582307 -0.069753177
-0.11757462 0.078382969 -0.040560719
-0.11937996 0.039793361 -0.010471684
-0.12124161 -5.2154064e-08 0.020555727
-0.12316224 -0.04105407 0.052566279
-0.12514471 -0.083429821 0.085607193
-0.12719202 -0.12719196 0.11972924
-0.12930743 -0.17241 0.15498638
-0.13149397 -0.21915664 0.19142844
-0.13375619 -0.26751232 0.22913194
-0.1360976 -0.31756106 0.26815549
-0.13852245 -0.36939311 0.3085697
-0.14103527 -0.42310578 0.3504501
-0.14364095 -0.47880307 0.39387798
-0.14634471 -0.53659725 0.43894088
-0.14915222 -0.59660888 0.48573259
-0.15206955 -0.65896803 0.53435475
-0.15510328 -0.72381532 0.58491707
-0.15826052 -0.79130262 0.63753778
-0.16154897 -0.86159456 0.69234514
-0.1649777 -0.93487358 0.7494905
-0.096967861 0.87271082 0.42405891
-0.094249576 0.80112135 0.3561016
-0.096955933 0.7756474 0.42376047
-0.09982191 0.74866438 0.49541003
-0.10286291 0.72004044 0.57143492
-0.10609455 0.68961477 0.65222627
-0.10953633 0.65721816 0.73827058
-0.11320839 0.62264615 0.83007205
-0.072455645 0.36227822 -0.18874663
-0.07079345 0.31857049 -0.23030156
-0.07177376 0.28709507 -0.20579374
-0.0727816 0.25473559 -0.18059766
-0.073818147 0.22145447 -0.15468399
-0.074884661 0.1872116 -0.12802139
-0.075982422 0.15196486 -0.10057718
-0.077112861 0.11566932 -0.072316214
-0.078277431 0.078277402 -0.043201856
-0.079477482 0.039738722 -0.013200694
-0.08071515 -2.9802322e-08 0.017740982
-0.081991971 -0.040995948 0.049661566
-0.083309844 -0.083309829 0.082608484
-0.084670775 -0.12700611 0.11663149
-0.0860769 -0.17215388 0.15178485
-0.087530524 -0.21882626 0.18812539
-0.089034088 -0.26710227 0.22571449
-0.090590209 -0.31706583 0.26461744
-0.092201695 -0.36880675 0.30490458
-0.093871541 -0.42242193 0.3466509
-0.095602997 -0.47801498 0.38993719
-0.097399518 -0.53569728 0.43485036
-0.09926486 -0.59558916 0.48148382
-0.10120304 -0.65781963 0.52993834
-0.10321841 -0.72252876 0.58032268
-0.10531569 -0.78986758 0.63275456
-0.10749997 -0.85999972 0.68736142
-0.10977677 -0.93310255 0.74428147
-0.049698193 0.89456749 0.48477194
-0.048819933 0.82993871 0.44085872
-0.050273713 0.8043794 0.51354778
-0.051816519 0.77724779 0.59068829
-0.053457245 0.74840146 0.6727246
-0.055205032 0.71766543 0.76011389
-0.057070967 0.68485153 0.85341048
-0.05906773 0.64974511 0.95324868
-0.061208978 0.61208975 1.0603112
-0.035749149 0.32174233 -0.21268034
-0.035842586 0.28674066 -0.20800841
-0.036345255 0.25441682 -0.18287504
-0.036862224 0.22117326 -0.15702651
-0.037394002 0.18697006 -0.13043766
-0.03794146 0.15176582 -0.10306478
-0.038505185 0.11551551 -0.074878417
-0.039085913 0.078171834 -0.045841895
-0.039684433 0.039684441 -0.015916156
-0.040301565 -3.7718564e-08 0.014940431
-0.040938191 -0.040938169 0.046771791
-0.041595258 -0.083190635 0.0796251
-0.042273756 -0.12682131 0.11355008
-0.042974614 -0.17189847 0.14859293
-0.04369925 -0.21849626 0.18482485
-0.044448745 -0.2666924 0.22229955
-0.045224402 -0.31657079 0.26108226
-0.046027604 -0.3682209 0.30124253
-0.046859857 -0.42173874 0.34285513
-0.047722757 -0.47722757 0.38600037
-0.048618037 -0.53479838 0.43076417
-0.049547549 -0.59457064 0.47723982
-0.050513297 -0.65667278 0.52552706
-0.051517438 -0.72124416 0.57573426
-0.052562315 -0.78843468 0.62797797
-0.05365045 -0.85840708 0.68238461
-0.054784827 -0.93134224 0.73910373
0 0.91753578 0.54857302
0 0.86091018 0.53195125
0 0.83532196 0.61024308
0 0.80810404 0.69354218
0 0.77908826 0.78232062
0 0.74809486 0.87715036
0 0.71491432 0.97867203
0 0.67930675 1.0876199
0 0.64099884 1.204856
0 0.32765159 -0.17985129
0 0.28638631 -0.21022283
0 0.25409803 -0.1851519
0 0.22089227 -0.1593686
0 0.18672958 -0.13284226
0 0.15156768 -0.10554023
0 0.11536271 -0.077427953
0 0.078066833 -0.048468877
0 0.039630227 -0.018630259
0 1.010485e-07 0.012141328
0 -0.040880419 0.043883618
0 -0.083071329 0.076643497
0 -0.12663646 0.11047053
0 -0.17164445 0.14541765
0 -0.21816793 0.1815417
0 -0.26628491 0.21890287
0 -0.31607848 0.25756612
0 -0.36763814 0.29760045
0 -0.42105922 0.3390803
0 -0.47644448 0.38208514
0 -0.53390443 0.4267011
0 -0.59355783 0.47301984
0 -0.65553254 0.52114123
0 -0.71996695 0.57117248
0 -0.78701007 0.6232295
0 -0.85682416 0.67743784
0 -0.92958421 0.73393363
0.052317061 0.94170696 0.61571515
0.052604657 0.89427924 0.63009512
0.054296255 0.86874008 0.71467501
0.05610051 0.84150755 0.80488747
0.058028523 0.81239933 0.90128845
0.060093779 0.78121907 1.0045512
0.062311463 0.74773777 1.1154357
0.064699106 0.71169019 1.2348175
0.066854827 0.66854823 1.3426034
0.066854827 0.60169339 1.3426033
0.03592217 0.28737724 -0.20402928
0.03625429 0.25377998 -0.18742315
0.03676866 0.22061194 -0.16170479
0.03729783 0.18648922 -0.13524617
0.037842456 0.15136983 -0.10801497
0.038403224 0.11520959 -0.079976574
0.03898086 0.077961743 -0.051094681
0.039576139 0.039576113 -0.021330746
0.040189881 5.2619725e-08 0.0093562435
0.040822957 -0.040822983 0.041010045
0.041476298 -0.082952544 0.073677152
0.042150889 -0.12645259 0.1074068
0.042847645 -0.17139058 0.14224453
0.043567974 -0.21783988 0.17826097
0.044312935 -0.2658776 0.21550888
0.045083813 -0.31558669 0.25405294
0.04588199 -0.36705592 0.2939617
0.046708934 -0.42038044 0.33530894
0.047566239 -0.47566235 0.3781741
0.0484556 -0.53301156 0.42264217
0.04937885 -0.59254616 0.46880478
0.05033797 -0.65439349 0.51676065
0.051335085 -0.71869123 0.56661642
0.0523725 -0.78558737 0.61848718
0.053452712 -0.85524327 0.67249781
0.054578654 -0.92783713 0.72879505
0.055752806 -1.0035506 0.78750277
0.10746559 0.96719038 0.6865021
0.10945166 0.9303391 0.73615378
0.11311795 0.90494365 0.82781112
0.11703891 0.87779194 0.92583513
0.12124088 0.84868598 1.030884
0.12575579 0.81741261 1.1437571
0.13019426 0.7811656 1.2547188
0.13019493 0.71607208 1.2547354
0.13019426 0.65097129 1.2547185
0.13019493 0.58587706 1.2547355
0.073170356 0.2926814 -0.17087884
0.072418176 0.2534636 -0.18968336
0.073444322 0.22033289 -0.16402967
0.074499972 0.18624988 -0.13763836
0.075586408 0.15117283 -0.1104774
0.076705009 0.11505757 -0.082512602
0.077857211 0.077857137 -0.053707518
0.079044305 0.039522089 -0.024030214
0.080268413 -1.6298145e-08 0.006572593
0.081531033 -0.04076549 0.038137998
0.082834005 -0.08283405 0.070712484
0.084179312 -0.12626889 0.10434508
0.085569032 -0.17113812 0.13908805
0.087005407 -0.21751362 0.17499751
0.088490829 -0.26547247 0.21213298
0.090027854 -0.31509751 0.25055856
0.091619216 -0.36647695 0.29034263
0.093267851 -0.41970524 0.3315585
0.094976902 -0.47488445 0.3742848
0.096749753 -0.53212363 0.41860613
0.098590054 -0.59154022 0.46461368
0.10050172 -0.65326107 0.51240522
0.10248899 -0.71742296 0.562087
0.10455643 -0.78417313 0.61377299
0.106709 -0.85367191 0.66758728
0.10895206 -0.92609262 0.72366399
0.11129145 -1.001623 0.7821486
0.16568112 0.99408692 0.76121455
0.17107578 0.96942925 0.851125
0.17705546 0.94429588 0.95078671
0.18346834 0.91734171 1.0576679
0.19028942 0.88801724 1.1713525
0.19028942 0.82458758 1.1713527
0.19028942 0.76115787 1.1713526
0.19028942 0.6977278 1.1713526
0.19028942 0.63429803 1.1713526
0.19028942 0.57086825 1.1713526
0.11181375 0.29816997 -0.13657534
0.10849167 0.2531473 -0.19194318
0.11002703 0.22005405 -0.16635394
0.11160647 0.18601072 -0.14002994
0.1132319 0.15097588 -0.11293924
0.1149054 0.11490541 -0.085047714
0.1166291 0.077752717 -0.056319416
0.1184053 0.039468497 -0.02671604
0.12023645 -1.4319085e-08 0.0038028941
0.1221251 -0.040708497 0.035280704
0.12407406 -0.082716018 0.067763165
0.12608621 -0.12608628 0.10129926
0.12816428 -0.17088571 0.13593352
0.13031244 -0.21718743 0.17173633
0.13253385 -0.26506764 0.20875968
0.13483229 -0.31460866 0.24706712
0.13721186 -0.36589828 0.28672677
0.13967694 -0.41903079 0.32781136
0.14223222 -0.47410733 0.37039915
0.14488272 -0.53123671 0.41457424
0.1476339 -0.59053552 0.46042708
0.15049157 -0.65213001 0.50805479
0.15346204 -0.71615613 0.55756295
0.15655215 -0.78276086 0.60906488
0.15976927 -0.85210288 0.66268343
0.16312207 -0.92435843 0.71856368
0.1666179 -0.99970734 0.77682722
0.23907556 1.1356089 0.98830676
0.22999716 1.0349872 0.87482679
0.23810555 1.0119487 0.97618181
0.24680655 0.98722613 1.0849441
0.24738184 0.9276818 1.0921352
0.24738184 0.86583644 1.0921354
0.24738307 0.80399483 1.0921503
0.24738307 0.74214911 1.0921506
0.24738307 0.68030334 1.0921504
0.24738307 0.61845762 1.0921504
0.24738307 0.55661178 1.0921504
0.24738307 0.49476609 1.0921506
0.14706604 0.25736558 -0.16181208
0.14651765 0.2197765 -0.16866702
0.14861822 0.18577276 -0.14240994
0.1507799 0.15077989 -0.115389
0.15300539 0.11475409 -0.087570347
0.15529756 0.077648856 -0.058918253
0.15765896 0.039414741 -0.029400781
0.1600938 -3.3294782e-08 0.0010346305
0.162605 -0.040651262 0.032424785
0.16519625 -0.08259809 0.06481535
0.16787143 -0.12590355 0.098255217
0.17063467 -0.1706347 0.13279562
0.17349041 -0.21686302 0.16849242
0.17644335 -0.26466501 0.20540424
0.17949857 -0.31412247 0.24359451
0.18266146 -0.36532292 0.28313047
0.18593781 -0.41836005 0.32408488
0.18933384 -0.47333455 0.36653519
0.19285624 -0.5303545 0.41056508
0.19651216 -0.58953643 0.45626417
0.2003094 -0.65100557 0.50372958
0.20425625 -0.71489674 0.55306524
0.20836177 -0.78135669 0.60438436
0.21263573 -0.85054296 0.6578089
0.21708868 -0.92262691 0.71347082
0.22173214 -0.99779469 0.77151406
0.22657858 -1.0762483 0.83209443
0.30812049 1.1708579 1.0810673
0.30021551 1.0807757 1.0020174
0.30169311 1.0257566 1.0167935
0.30169311 0.96541798 1.0167935
0.30169311 0.90507931 1.0167933
0.30169311 0.84474063 1.0167934
0.30169311 0.78440213 1.0167934
0.30169311 0.7240634 1.0167933
0.30169311 0.6637249 1.0167935
0.30169311 0.60338616 1.0167934
0.30169311 0.54304755 1.0167934
0.30169311 0.48270908 1.0167934
0.18730012 0.26222017 -0.12713668
0.18291579 0.21949899 -0.17097969
0.18553485 0.18553491 -0.14478925
0.18822996 0.15058401 -0.11783791
0.19100456 0.11460272 -0.09009213
0.19386216 0.077544913 -0.06151608
0.19680658 0.039361343 -0.032071974
0.1998418 1.915032e-08 -0.0017196818
0.20297211 -0.040594511 0.029583443
0.20620205 -0.082480863 0.061882794
0.20953646 -0.12572187 0.095226899
0.21297975 -0.17038383 0.12965974
0.21653885 -0.21653886 0.16525061
0.22021891 -0.26426271 0.20205139
0.22402623 -0.31363678 0.24012455
0.2279675 -0.364748 0.27953735
0.23204994 -0.41768992 0.32036173
0.23628128 -0.47256267 0.36267501
0.24066976 -0.52947354 0.40655988
0.24522439 -0.58853847 0.45210591
0.24995469 -0.64988232 0.49940917
0.25487107 -0.71363908 0.54857326
0.25998476 -0.77995431 0.59971005
0.26530784 -0.84898508 0.65294081
0.27085462 -0.92090577 0.70840865
0.27663711 -0.99589348 0.76623321
0.28267184 -1.0741528 0.82658046
0.36152804 1.0845841 1.0125959
0.35341913 1.0013542 0.94502169
0.35341913 0.942451 0.94502181
0.35342079 0.88355184 0.94503546
0.35341913 0.82464451 0.94502163
0.35342079 0.76574492 0.94503528
0.35342079 0.70684159 0.94503552
0.35342079 0.64793807 0.94503546
0.35342079 0.58903474 0.94503564
0.35342079 0.53013134 0.94503558
0.35342079 0.47122788 0.94503558
0.35342079 0.41232437 0.94503558
0.22169793 0.22169794 -0.15265495
0.22235768 0.18529798 -0.14715707
0.22558352 0.15038897 -0.1202751
0.22890434 0.11445212 -0.092601523
0.23232368 0.077441238 -0.064107046
0.23584747 0.039307866 -0.034742154
0.23947978 7.4971467e-08 -0.0044728946
0.24322572 -0.040537693 0.026743468
0.24709076 -0.082363583 0.058951754
0.25108057 -0.12554033 0.092200272
0.25520134 -0.17013425 0.12654024
0.25945964 -0.21621637 0.1620262
0.26386249 -0.26386243 0.19871637
0.2684173 -0.31315356 0.23667325
0.27313218 -0.36417615 0.2759636
0.27801558 -0.4170233 0.316659
0.28307685 -0.47179481 0.35883608
0.28832579 -0.5285973 0.40257725
0.29377308 -0.58754623 0.44797119
0.29943016 -0.64876533 0.49511364
0.30530936 -0.71238846 0.54410702
0.31142408 -0.77856022 0.59506303
0.31778875 -0.84743661 0.64810187
0.32441896 -0.91918701 0.70335358
0.33133179 -0.99399519 0.76096034
0.33854559 -1.0720611 0.82107538
0.41261354 1.0020615 0.94710171
0.4027431 0.92055553 0.8765986
0.4027431 0.86302096 0.8765986
0.4027431 0.80548626 0.87659872
0.4027431 0.74795145 0.87659872
0.4027431 0.69041663 0.8765986
0.4027431 0.63288206 0.87659866
0.4027431 0.57534719 0.8765986
0.4027431 0.51781261 0.87659866
0.4027431 0.46027792 0.87659878
0.4027431 0.40274316 0.8765986
0.26355502 0.22590424 -0.11760186
0.25908586 0.18506144 -0.14952429
0.26283967 0.15019403 -0.12271143
0.26670387 0.11430163 -0.095110051
0.27068338 0.077338122 -0.066685118
0.27478343 0.039254755 -0.037398953
0.27900958 -5.5879354e-08 -0.0072120912
0.28336778 -0.040481079 0.023917843
0.2878643 -0.082246996 0.056035802
0.29250485 -0.12535921 0.089182653
0.29729846 -0.16988482 0.12342259
0.30225182 -0.21589413 0.1588037
0.30737299 -0.26346251 0.1953837
0.31267077 -0.31267074 0.23322466
0.31815431 -0.36360487 0.27239305
0.32383364 -0.41635752 0.31295964
0.32971942 -0.47102767 0.35500079
0.33582312 -0.527722 0.3985987
0.34215701 -0.58655494 0.44384092
0.34873447 -0.64764988 0.49082285
0.35556975 -0.71113944 0.53964621
0.36267838 -0.77716804 0.59042209
0.37007701 -0.84589022 0.64326936
0.37778538 -0.91747886 0.69832933
0.38582003 -0.99210882 0.75571966
0.39420387 -1.0699819 0.81560415
0.40296018 -1.1513147 0.87814915
0.46152726 0.92305452 0.88440764
0.44982725 0.84342617 0.81128275
0.44982725 0.78719765 0.81128258
0.44982725 0.73096925 0.81128263
0.44982725 0.67474085 0.81128269
0.44982725 0.61851245 0.81128269
0.44982725 0.56228399 0.81128263
0.44982725 0.50605577 0.81128281
0.44982725 0.44982737 0.81128287
0.44982725 0.39359885 0.81128269
0.44982725 0.33737046 0.81128275
0.29707617 0.18567266 -0.14341171
0.30000031 0.15000015 -0.12513593
0.30440408 0.11415151 -0.097612135
0.30894008 0.077235021 -0.069262259
0.31361327 0.039201651 -0.040054657
0.31843001 -1.4901161e-08 -0.0099501759
0.32339704 -0.040424582 0.02109373
0.32852146 -0.082130343 0.053121366
0.3338109 -0.12517913 0.086180419
0.33927345 -0.16963667 0.12032132
0.34491777 -0.21557356 0.15559822
0.35075304 -0.26306477 0.1920688
0.35678917 -0.31219056 0.22979471
0.36303669 -0.36303663 0.26884159
0.36950693 -0.41569534 0.30928043
0.37621194 -0.47026485 0.35118684
0.38316479 -0.52685148 0.39464223
0.39037949 -0.5855692 0.4397341
0.39787108 -0.6465404 0.48655644
0.40565586 -0.70989764 0.53521132
0.41375136 -0.77578378 0.58580828
0.42217651 -0.84435308 0.63846546
0.43095192 -0.9157728 0.69331181
0.44009995 -0.99022478 0.75048679
0.44964471 -1.0679063 0.81014186
0.45961267 -1.1490318 0.87244159
0.5084011 0.84733528 0.82431269
0.49481869 0.76971793 0.74885488
0.49481869 0.71473795 0.74885476
0.49481869 0.65975833 0.74885494
0.49481869 0.60477835 0.74885476
0.49481869 0.54979843 0.74885488
0.49481869 0.49481869 0.74885482
0.49482083 0.43984067 0.7488668
0.49482083 0.38486081 0.74886692
0.49482083 0.32988048 0.7488668
0.3405903 0.18921691 -0.1079694
0.33706406 0.14980623 -0.12755959
0.34200647 0.11400207 -0.10010175
0.347096 0.077132426 -0.071826607
0.3523393 0.03914877 -0.042697325
0.35774341 9.6857548e-08 -0.012674309
0.36331588 -0.040368378 0.018283879
0.36906472 -0.082014367 0.050221846
0.37499717 -0.12499899 0.083179891
0.38112473 -0.16938874 0.11722199
0.38745591 -0.21525326 0.15239501
0.39400092 -0.26266733 0.18875624
0.4007709 -0.31171066 0.22636732
0.40777755 -0.36246893 0.26529318
0.41503361 -0.41503367 0.30560461
0.42255256 -0.46950275 0.34737638
0.43034896 -0.52598214 0.39068979
0.43843848 -0.58458459 0.43563145
0.44683793 -0.64543259 0.48229522
0.45556551 -0.70865738 0.53078169
0.46464083 -0.77440137 0.58120018
0.47408503 -0.8428179 0.63366812
0.48392326 -0.9140771 0.68832451
0.49417624 -0.98835242 0.74528563
0.5048731 -1.0658431 0.80471289
0.55336893 0.77471644 0.76670688
0.53785771 0.69921494 0.68915081
0.53785771 0.64542913 0.68915069
0.53785771 0.59164345 0.68915075
0.53785771 0.53785771 0.68915081
0.53785771 0.48407185 0.68915069
0.53785771 0.4302862 0.68915069
0.53785771 0.37650046 0.68915075
0.53785771 0.32271475 0.68915081
0.38576728 0.19288364 -0.071301371
0.37403321 0.14961329 -0.12997152
0.37950942 0.11385284 -0.10259058
0.38514951 0.077029936 -0.074390091
0.3909598 0.039095975 -0.045338802
0.39694807 4.4703484e-08 -0.015397356
0.40312263 -0.040312357 0.015475454
0.40949231 -0.081898428 0.047323927
0.41606656 -0.12481992 0.080194913
0.42285529 -0.16914208 0.11413871
0.42986923 -0.21493469 0.14920858
0.43711981 -0.26227182 0.18546137
0.44461918 -0.31123343 0.22295821
0.45238036 -0.36190429 0.26176405
0.4604173 -0.41437548 0.30194882
0.46874496 -0.46874499 0.3435871
0.47737944 -0.5251174 0.38675955
0.48633796 -0.58360565 0.43155217
0.49563918 -0.64433092 0.47805813
0.50530308 -0.7074244 0.52637786
0.5153513 -0.773027 0.57661897
0.52580738 -0.84129173 0.62889892
0.53669643 -0.91238397 0.68334448
0.54804605 -0.98648298 0.74009252
0.59653664 0.70499778 0.71139216
0.57906455 0.63170677 0.63197386
0.57906455 0.57906461 0.63197386
0.57906455 0.52642226 0.63197368
0.57906455 0.47378004 0.63197368
0.57906699 0.42113957 0.63198477
0.57906699 0.36849719 0.63198489
0.57906699 0.31585467 0.63198489
0.57906699 0.2632122 0.63198477
0.41841289 0.15215012 -0.098260991
0.41691551 0.11370423 -0.10506737
0.4231033 0.076927856 -0.076940872
0.42947757 0.039043464 -0.047966994
0.43604681 -1.8626451e-09 -0.01810671
0.44282019 -0.040256374 0.012681223
0.44980726 -0.081783146 0.044440754
0.45701689 -0.1246409 0.077211708
0.46446294 -0.16889559 0.11105744
0.4721556 -0.2146161 0.14602417
0.48010746 -0.26187679 0.18216884
0.48833168 -0.31075659 0.21955177
0.49684259 -0.36134011 0.25823784
0.50565541 -0.41371813 0.29829606
0.51478654 -0.46798784 0.33980134
0.52425355 -0.52425349 0.38283288
0.53407526 -0.58262753 0.42747703
0.54427201 -0.64323056 0.47382584
0.55486566 -0.70619261 0.52197886
0.56587988 -0.77165449 0.57204372
0.57734025 -0.83976775 0.62413639
0.58927697 -0.91070074 0.67839396
0.63801479 0.63801473 0.65825725
0.61855823 0.56701159 0.57718813
0.61855823 0.51546508 0.57718801
0.61855823 0.46391866 0.57718819
0.61855823 0.41237211 0.57718813
0.61855823 0.36082557 0.57718813
0.61855823 0.30927905 0.57718807
0.61855823 0.25773263 0.57718819
0.46534795 0.15511602 -0.061188068
0.45422268 0.11355564 -0.10754322
0.46095529 0.07682588 -0.079490803
0.46789044 0.038990889 -0.050594337
0.47503749 3.3527613e-08 -0.020814873
0.48240626 -0.040200483 0.0098883389
0.49000722 -0.081667893 0.041559011
0.49785155 -0.12446284 0.074243814
0.50595117 -0.16865033 0.10799205
0.51431859 -0.21429941 0.14285654
0.52296752 -0.26148373 0.17889373
0.53191227 -0.31028217 0.21616347
0.54116839 -0.3607789 0.25473058
0.55075228 -0.41306418 0.29466349
0.56068176 -0.46723488 0.33603638
0.5709759 -0.52339453 0.37892842
0.58165503 -0.58165514 0.4234249
0.59274131 -0.64213616 0.46961752
0.60425836 -0.70496804 0.51760536
0.61623186 -0.7702899 0.56749499
0.62868947 -0.83825254 0.61940157
0.64166117 -0.90901995 0.67345035
0.67789865 0.57360649 0.60716462
0.65644133 0.50495476 0.52463651
0.65644133 0.45445925 0.52463651
0.65644133 0.40396395 0.52463663
0.65644133 0.35346836 0.52463669
0.65644133 0.30297294 0.52463663
0.65644133 0.2524775 0.52463657
0.65644133 0.20198201 0.52463663
0.49703667 0.11470072 -0.088458121
0.49870855 0.076724418 -0.082028106
0.50620162 0.038938608 -0.053208396
0.51392335 8.7544322e-08 -0.023509514
0.52188426 -0.040144872 0.0071095508
0.53009576 -0.081553124 0.038692027
0.53856796 -0.12428498 0.071277514
0.54731727 -0.16840531 0.10492861
0.55635548 -0.2139829 0.13969092
0.56569719 -0.26109099 0.17562079
0.57535809 -0.30980828 0.21277785
0.58535457 -0.36021823 0.25122601
0.59570462 -0.41241091 0.29103392
0.60642725 -0.46648246 0.33227485
0.61754304 -0.52253634 0.3750276
0.6290738 -0.58068365 0.41937709
0.64104348 -0.64104354 0.46541414
0.65347749 -0.70374483 0.51323694
0.66640329 -0.76892698 0.56295192
0.67985088 -0.83673966 0.61467332
0.71627539 0.51162517 0.5579887
0.69280773 0.4453764 0.47417548
0.69280773 0.39589018 0.47417569
0.69280773 0.34640387 0.4741756
0.69280773 0.29691756 0.47417557
0.69280773 0.24743119 0.47417551
0.69280773 0.19794488 0.47417548
0.54576749 0.11695016 -0.050968103
0.5363605 0.076622896 -0.084564559
0.5444085 0.038886338 -0.055821519
0.55270177 5.4016709e-08 -0.026202977
0.56125158 -0.04008944 0.0043320153
0.57006997 -0.081438482 0.035826556
0.57916999 -0.12410791 0.06832654
0.58856523 -0.16816145 0.10188094
0.5982703 -0.21366793 0.13654208
0.60830086 -0.26070035 0.17236538
0.61867344 -0.30933672 0.20941031
0.62940592 -0.3596606 0.24774055
0.64051735 -0.41176111 0.28742409
0.65202808 -0.46573427 0.32853398
0.66396016 -0.52168298 0.37114844
0.67633706 -0.57971758 0.4153519
0.68918419 -0.63995665 0.46123445
0.70252883 -0.70252895 0.50889397
0.71640044 -0.76757181 0.55843532
0.75323433 0.4519406 0.51064336
0.72775173 0.38813424 0.42570141
0.72775173 0.33961746 0.4257015
0.72775173 0.29110062 0.42570132
0.72775173 0.24258378 0.42570132
0.72775173 0.19406709 0.4257015
0.72775173 0.14555033 0.42570144
0.5764752 0.07686346 -0.078553639
0.58251476 0.038834311 -0.058421779
0.59137642 3.8184226e-08 -0.028882913
0.60050994 -0.040034071 0.0015622526
0.60993207 -0.08132425 0.032969166
0.61965448 -0.12393096 0.065377243
0.6296919 -0.16791791 0.098835297
0.64005983 -0.21335328 0.13339509
0.6507749 -0.26030996 0.16911197
0.66185486 -0.30886552 0.20604512
0.67331862 -0.35910323 0.24425772
0.68518656 -0.41111195 0.28381735
0.69748032 -0.46498683 0.32479662
0.71022326 -0.52083051 0.36727324
0.72344059 -0.57875234 0.41133073
0.73715913 -0.63887119 0.45705929
0.75140798 -0.70131415 0.50455558
0.78884697 0.39442348 0.46500885
0.76135004 0.33309066 0.3790811
0.76135004 0.28550619 0.37908104
0.76135004 0.23792177 0.37908107
0.76135004 0.19033746 0.37908104
0.7613529 0.14275357 0.37909007
0.62703931 0.078379929 -0.040639967
0.62051731 0.038782284 -0.061020941
0.62994432 1.0523945e-07 -0.031561665
0.63966215 -0.039978888 -0.0011934955
0.64968443 -0.081210494 0.030126197
0.66002584 -0.12375478 0.062442936
0.67070174 -0.16767544 0.095805377
0.68172872 -0.21304017 0.13026455
0.69312435 -0.25992164 0.16587591
0.70490742 -0.30839702 0.20269799
0.71709806 -0.35854894 0.24079375
0.72971779 -0.41046619 0.28023034
0.74278963 -0.46424344 0.32107973
0.7563383 -0.51998246 0.36341929
0.77039039 -0.57779276 0.40733233
0.78497463 -0.63779199 0.45290792
0.82319129 0.33896115 0.42101309
0.79368418 0.28012377 0.33422753
0.79368418 0.2334365 0.33422753
0.79368418 0.18674928 0.33422762
0.79368418 0.14006189 0.3342275
0.6796065 0.0799537 -0.0012949184
0.65842032 0.03873058 -0.06360732
0.66840965 3.5390258e-08 -0.034227066
0.6787045 -0.039923869 -0.0039481539
0.6893236 -0.081096932 0.027284648
0.70028037 -0.12357882 0.059510387
0.71159106 -0.16743316 0.092777044
0.7232731 -0.21272749 0.1271361
0.73534513 -0.25953367 0.16264203
0.74782693 -0.30792871 0.19935337
0.76073986 -0.3579953 0.23733254
0.77410656 -0.40982109 0.27664629
0.78795135 -0.46350083 0.31736618
0.80230039 -0.51913553 0.35956931
0.81718171 -0.5768342 0.40333787
0.85633129 0.28544369 0.3785601
0.82482183 0.22911718 0.29103386
0.82482183 0.1832937 0.29103389
0.82482183 0.13747032 0.29103386
0.82482183 0.091646917 0.29103383
0.70917696 0.039398745 -0.030201621
0.70676863 -2.0489097e-08 -0.036891542
0.71764165 -0.039868951 -0.0066888742
0.72885436 -0.080983847 0.024457688
0.74042296 -0.12340388 0.056592897
0.75236487 -0.16719225 0.08976467
0.76469821 -0.21241625 0.12402402
0.77744263 -0.25914752 0.15942532
0.79061908 -0.30746296 0.19602638
0.80424988 -0.35744444 0.23388976
0.81835896 -0.40917951 0.27308151
0.83297187 -0.46276221 0.31367311
0.84811616 -0.51829314 0.35574037
0.85482496 0.17996313 0.24940163
0.85482496 0.13497244 0.24940155
0.85482496 0.089981578 0.24940163
0.76368809 0.040194005 0.0095677935
0.74502617 1.1175871e-07 -0.039542478
0.75646961 -0.039814204 -0.0094283409
0.76827252 -0.08087077 0.021631995
0.78044957 -0.12322886 0.053676762
0.79301882 -0.16695125 0.08675383
0.80599952 -0.21210515 0.12091379
0.81941235 -0.25876179 0.15621053
0.83327907 -0.30699754 0.1927021
0.84762323 -0.35689402 0.23044977
0.86246991 -0.40853843 0.26951995
0.87784594 -0.46202409 0.30998313
0.88376027 0.13256413 0.20926301
0.88376027 0.08837606 0.20926304
0.88376027 0.044188067 0.20926316
0.79219449 -5.5879354e-09 -0.019651603
0.79519355 -0.039759725 -0.012153881
0.80758333 -0.080758333 0.018820707
0.82036543 -0.1230548 0.05077577
0.83355856 -0.16671167 0.083758689
0.84718299 -0.21179566 0.11781974
0.86126018 -0.25837806 0.15301275
0.87581319 -0.30653462 0.18939522
0.8908664 -0.35634655 0.22702824
0.9064461 -0.40790075 0.26597762
0.91303366 0.086955592 0.17375186
0.91167808 0.043413188 0.1705243
0.84868854 2.7939677e-09 0.020549225
0.83380896 -0.039705154 -0.0148784
0.84678233 -0.080646001 0.016010765
0.86016583 -0.12288076 0.047876216
0.87397921 -0.16647223 0.080765225
0.88824344 -0.21148658 0.11472762
0.90298104 -0.25799447 0.14981717
0.91821599 -0.30607197 0.18609074
0.93397379 -0.3557995 0.22360939
0.94141918 0.042791832 0.13945131
0.93863684 8.1956387e-08 0.13312787
0.87609756 -0.039822593 -0.009006856
0.88587523 -0.080534115 0.013215072
0.89985687 -0.12270772 0.044991549
0.91428691 -0.16623409 0.077787049
0.9291873 -0.21117893 0.1116517
0.94458151 -0.25761315 0.14663832
0.96049428 -0.30561185 0.18280393
0.96892935 6.3329935e-08 0.10623029
0.93462306 -0.040635739 0.031651534
0.92485684 -0.080422252 0.010420647
0.9394331 -0.1225348 0.042108219
0.95447636 -0.1659959 0.074810743
0.97000909 -0.21087143 0.10857763
0.98605567 -0.25723195 0.14346173
0.99559498 -0.041483164 0.074018545
0.96373343 -0.080311082 0.0076403692
0.97890115 -0.1223627 0.03923979
0.99455398 -0.16575892 0.071849644
1.0107155 -0.21056576 0.10551948
1.0274109 -0.25685275 0.14030159
1.021507 -0.081720598 0.042876206
1.0182551 -0.12219071 0.036372714
1.0345141 -0.16552222 0.068890207
1.0513004 -0.21026006 0.10246319
1.0575022 -0.12201945 0.033520281
1.0743636 -0.16528666 0.065946072
