# .PCD v0.7 - Point Cloud Data file format
VERSION 0.7
FIELDS x y z
SIZE 4 4 4
TYPE F F F
COUNT 1 1 1
WIDTH 1076
HEIGHT 1
VIEWPOINT 0 0 0 1 0 0 0
POINTS 1076
DATA ascii
-1.2171586 -0.20285974 0.53560925
-1.2738639 -0.26538837 0.65374547
-1.0587819 -0.092067935 0.30156201
-1.1033642 -0.1439171 0.39848
-1.1518613 -0.20032372 0.50390863
-1.2048179 -0.26191682 0.61903143
-0.9627856 -0.043763004 0.18801156
-1.0012423 -0.091022082 0.27541289
-1.0428989 -0.14221349 0.37008715
-1.0881723 -0.19784944 0.4729811
-1.1375548 -0.25853509 0.58521402
-1.191617 -0.32498652 0.7080828
-0.84488738 0.040232681 0.011498924
-0.87581283 -7.4505806e-09 0.08513099
-0.90908825 -0.0432899 0.16435811
-0.94499213 -0.089999214 0.24984331
-0.98384845 -0.14054981 0.34235865
-1.0260413 -0.19543649 0.44281769
-1.0720108 -0.25524074 0.5522691
-1.1222831 -0.32065231 0.67196506
-0.76974154 0.076974079 -0.075783834
-0.79665124 0.039832547 -0.0085096648
-0.82551056 -4.0978193e-08 0.063638672
-0.85653943 -0.042826928 0.14121079
-0.88999504 -0.088999517 0.22485
-0.92616707 -0.13892508 0.3152799
-0.96540385 -0.19308072 0.41337192
-1.0081123 -0.25202802 0.52014297
-1.05477 -0.31643093 0.63678706
-1.1059366 -0.38707778 0.76470375
-0.67886794 0.14291956 -0.21364313
-0.70084548 0.11065982 -0.15580735
-0.72429371 0.076241449 -0.094101705
-0.74936515 0.039440244 -0.028124142
-0.77623713 2.4214387e-08 0.042591531
-0.80510527 -0.042374015 0.1185604
-0.83620358 -0.088021412 0.20039791
-0.86980081 -0.13733684 0.28881174
-0.9062143 -0.19078192 0.38463667
-0.94580597 -0.24889627 0.48882544
-0.98901528 -0.31232047 0.60253412
-1.0363393 -0.38180918 0.72707063
-0.61823523 0.17173201 -0.28281763
-0.63745075 0.14165565 -0.22944114
-0.65789914 0.10964987 -0.17264004
-0.67970496 0.075522751 -0.11206837
-0.70300359 0.039055742 -0.047349837
-0.72795618 3.259629e-08 0.021962941
-0.75474536 -0.04193031 0.09637709
-0.78358424 -0.087064832 0.17648509
-0.81471157 -0.13578525 0.26295006
-0.84841436 -0.18853654 0.35656863
-0.8850258 -0.24584055 0.45826706
-0.92493945 -0.30831304 0.56913859
-0.96860689 -0.37668046 0.69043672
-0.54626977 0.22493461 -0.39346194
-0.56212288 0.19839634 -0.34683508
-0.5789237 0.17027169 -0.29742104
-0.59676135 0.14041446 -0.24495736
-0.61573136 0.10865853 -0.18916304
-0.63594711 0.0748173 -0.1297051
-0.65753525 0.038678505 -0.066210367
-0.68064284 -1.4028046e-08 0.0017528993
-0.70543134 -0.041496027 0.074660391
-0.73209369 -0.086128689 0.15307908
-0.76085061 -0.13426767 0.23765823
-0.79195911 -0.1863434 0.32915378
-0.82572305 -0.24285978 0.42845941
-0.86249065 -0.30440849 0.5365994
-0.90267378 -0.37168929 0.65478534
-0.94677579 -0.44554153 0.7844969
-0.49616218 0.24808109 -0.44963086
-0.51004374 0.22314405 -0.40625119
-0.52472568 0.1967722 -0.36036989
-0.54027653 0.16883639 -0.31177357
-0.55677724 0.13919434 -0.26020885
-0.57431763 0.10768457 -0.2053951
-0.59300089 0.074125096 -0.14701004
-0.6129387 0.038308665 -0.084704295
-0.63426387 -9.1269612e-08 -0.018063018
-0.65712643 -0.041070297 0.053382326
-0.6816988 -0.085212298 0.13017096
-0.70818269 -0.13278423 0.21293324
-0.73680496 -0.18420112 0.30237776
-0.76783824 -0.23994946 0.39935678
-0.80160064 -0.30060026 0.50486428
-0.8384617 -0.36682704 0.6200552
-0.87886482 -0.43943253 0.74631482
-0.46664014 0.27998406 -0.44467065
-0.46283907 0.24684751 -0.45734081
-0.47439101 0.2213825 -0.41883439
-0.48793453 0.19517379 -0.37368926
-0.50227416 0.16742477 -0.32589057
-0.51748353 0.1379956 -0.27519283
-0.53364122 0.10672829 -0.22133368
-0.55084044 0.073445342 -0.16400294
-0.56918526 0.037945636 -0.10285345
-0.58879411 -2.6077032e-08 -0.037490629
-0.60980421 -0.040653527 0.032542776
-0.63236701 -0.084315628 0.10775221
-0.65666366 -0.13133267 0.18874118
-0.68290198 -0.1821072 0.27620211
-0.71132702 -0.23710893 0.37095222
-0.7422182 -0.29688737 0.47392297
-0.77591115 -0.3620919 0.58623266
-0.81279451 -0.43349028 0.70917714
-0.8533594 -0.51201564 0.84439367
-0.44113985 0.28358996 -0.42463824
-0.43750277 0.25000155 -0.43762785
-0.43929574 0.2196479 -0.43122429
-0.45173743 0.19360173 -0.38678974
-0.46490318 0.16603687 -0.33976918
-0.47885942 0.13681689 -0.28992552
-0.49367952 0.10578848 -0.23699659
-0.5094462 0.072778083 -0.18068701
-0.52625477 0.037589651 -0.12065632
-0.54420871 6.519258e-08 -0.056535192
-0.56343091 -0.040245146 0.012115584
-0.58406079 -0.083437286 0.085793599
-0.60626084 -0.12991309 0.16507958
-0.63021302 -0.18006089 0.25062287
-0.65613556 -0.23433398 0.34320363
-0.68428218 -0.29326373 0.4437272
-0.71495187 -0.35747591 0.55326182
-0.74848396 -0.42770517 0.67301923
-0.78531623 -0.5048461 0.80456299
-0.4184933 0.32191789 -0.39054811
-0.41497418 0.28728977 -0.40408319
-0.4115096 0.25323671 -0.41740844
-0.40809426 0.21974307 -0.43054438
-0.4161177 0.19205436 -0.39968494
-0.42814562 0.1646713 -0.35342377
-0.44088957 0.13565835 -0.3044087
-0.45441666 0.10486545 -0.25238127
-0.46879879 0.072122812 -0.19706541
-0.48412102 0.037240129 -0.13813365
-0.50047874 8.9406967e-08 -0.075219601
-0.51798213 -0.039844677 -0.0078988783
-0.5367524 -0.082577318 0.064294539
-0.55693418 -0.12852322 0.14191693
-0.57869291 -0.17805944 0.22560444
-0.60222101 -0.23162344 0.31609699
-0.62774575 -0.28972879 0.41426903
-0.65552735 -0.3529762 0.52112114
-0.68586743 -0.42207229 0.63781387
-0.71915227 -0.49787462 0.76583242
-0.75583249 -0.58140963 0.90691042
-0.39145297 0.32621086 -0.36908355
-0.3881177 0.29108822 -0.38298059
-0.38483587 0.25655723 -0.3966549
-0.38159943 0.22259966 -0.41014016
-0.3810629 0.1905314 -0.41237575
-0.39198869 0.16332865 -0.36685145
-0.40355846 0.13451952 -0.31864408
-0.41583195 0.10395792 -0.26750457
-0.42887545 0.071479261 -0.21315666
-0.442765 0.036897171 -0.15528363
-0.45758292 1.8626451e-08 -0.093542278
-0.47342697 -0.039452326 -0.027525308
-0.49040762 -0.081734538 0.043227386
-0.50865167 -0.12716293 0.11924444
-0.52830756 -0.17610244 0.20114364
-0.54954147 -0.22897568 0.28961855
-0.57255387 -0.28627691 0.38550341
-0.59757775 -0.34858707 0.48976964
-0.62488127 -0.41658747 0.60353428
-0.65479362 -0.49109524 0.72816885
-0.68771362 -0.57309461 0.86533546
-0.36687613 0.3668761 -0.33251902
-0.36368078 0.33061892 -0.34704328
-0.36054063 0.29498777 -0.36131671
-0.36993256 0.26904187 -0.31862617
-0.35440755 0.22553211 -0.38919428
-0.35141325 0.19167997 -0.4028047
-0.35641575 0.16200717 -0.3800661
-0.36684796 0.13339925 -0.33264697
-0.37791032 0.10306644 -0.28236368
-0.38965943 0.070847191 -0.22895834
-0.40216261 0.036560208 -0.17212576
-0.41549477 1.1175871e-07 -0.11152516
-0.42974117 -0.039067294 -0.046768799
-0.44500065 -0.080909215 0.022592543
-0.46138218 -0.12583156 0.09705396
-0.47901586 -0.1741876 0.17720713
-0.49805102 -0.22638676 0.26373062
-0.51866162 -0.28290641 0.35741511
-0.54105383 -0.34430698 0.45919782
-0.56545752 -0.41124186 0.57012379
-0.59216154 -0.4844957 0.69150567
-0.62151277 -0.56501162 0.82492042
-0.33813307 0.37194636 -0.30947238
-0.33514771 0.33514774 -0.32439905
-0.33221462 0.29899317 -0.33906445
-0.35644504 0.28515601 -0.21791264
-0.32648885 0.22854218 -0.36769348
-0.32369393 0.19421634 -0.38166806
-0.32141465 0.16070731 -0.39306444
-0.33074471 0.13229783 -0.34641427
-0.34063262 0.10218981 -0.29697472
-0.35112995 0.070226021 -0.24448791
-0.36229488 0.036229387 -0.18866335
-0.37419426 -1.4901161e-08 -0.12916648
-0.38690063 -0.03869006 -0.065634459
-0.4005003 -0.080100015 0.0023636557
-0.41509086 -0.1245272 0.075316474
-0.43078613 -0.17231442 0.15379295
-0.44771343 -0.22385669 0.23842941
-0.46602538 -0.27961519 0.32998931
-0.48589924 -0.34012938 0.42935821
-0.50754154 -0.40603322 0.53757006
-0.53119272 -0.47807351 0.65582609
-0.55715591 -0.55715597 0.78564185
-0.58578753 -0.64436638 0.92879999
-0.30858442 0.37715867 -0.28577989
-0.3058221 0.33980238 -0.30112588
-0.31349018 0.31349021 -0.25852564
-0.34123889 0.30332342 -0.10436604
-0.37437585 0.29118127 0.079728074
-0.29523194 0.19682132 -0.35996023
-0.29269272 0.16260707 -0.37406701
-0.29523194 0.13121411 -0.3599602
-0.30398372 0.10132793 -0.31133926
-0.31327111 0.069615804 -0.25974274
-0.32314295 0.035904817 -0.20489913
-0.33365721 -1.2665987e-07 -0.14648664
-0.34487867 -0.038319856 -0.084145144
-0.3568812 -0.079306975 -0.017464433
-0.3697505 -0.12325018 0.054031625
-0.38358137 -0.17048062 0.13086981
-0.39848715 -0.22138183 0.21367972
-0.41459823 -0.27639884 0.30318573
-0.43206859 -0.33605337 0.40024331
-0.45107251 -0.4009532 0.50582057
-0.47181717 -0.47181708 0.62106884
-0.49456191 -0.54951328 0.74742854
-0.51961058 -0.63507968 0.88658798
-0.28076863 0.42115295 -0.24533376
-0.2781958 0.38251916 -0.26141384
-0.27567047 0.34458804 -0.27719721
-0.29598168 0.33297935 -0.15025237
-0.32396337 0.32396331 0.024633273
-0.35778686 0.31306353 0.23603036
-0.26599538 0.19949657 -0.33766654
-0.26367748 0.16479838 -0.35215336
-0.26139897 0.13069943 -0.3663941
-0.26794857 0.1004808 -0.325459
-0.27606374 0.06901598 -0.27473933
-0.28468579 0.035585664 -0.22085148
-0.29386464 -1.4901161e-08 -0.16348374
-0.30365416 -0.03795673 -0.10229923
-0.31411844 -0.078529581 -0.036897518
-0.32532963 -0.12199859 0.033172574
-0.33737075 -0.16868541 0.10842932
-0.35033867 -0.21896161 0.18947893
-0.36434206 -0.27325651 0.27699995
-0.37951148 -0.33207259 0.37180907
-0.39599898 -0.39599895 0.47485581
-0.4139773 -0.46572447 0.58722031
-0.43366382 -0.54207981 0.71026105
-0.45531619 -0.62605977 0.84558839
-0.47924203 -0.71886301 0.99512494
-0.24924788 0.42728207 -0.21979585
-0.24693164 0.38803542 -0.23634031
-0.25286424 0.36123466 -0.19396457
-0.27615193 0.35505253 -0.02762413
-0.30416512 0.3476173 0.17247014
-0.33853188 0.33853179 0.41794705
-0.3616243 0.3099637 0.58289307
-0.23386891 0.16704917 -0.32964551
-0.23182061 0.13246892 -0.34427619
-0.23251042 0.099647269 -0.33934912
-0.23949212 0.068426199 -0.28947979
-0.24690676 0.035272419 -0.23651794
-0.25479445 5.2154064e-08 -0.18017724
-0.26320279 -0.037600458 -0.12011804
-0.27218494 -0.077767171 -0.055959474
-0.28180274 -0.12077267 0.01273907
-0.29212418 -0.16692811 0.086463511
-0.30323046 -0.21659324 0.16579399
-0.31521457 -0.27018389 0.25139505
-0.32818496 -0.32818493 0.34404039
-0.34226987 -0.39116558 0.44464707
-0.35761073 -0.4597851 0.55422443
-0.37438968 -0.53484243 0.67407435
-0.39282072 -0.61728966 0.80572444
-0.41316038 -0.7082749 0.95100784
-0.21887949 0.47423887 -0.17614198
-0.21679609 0.43359214 -0.19350369
-0.21475074 0.39370966 -0.21054816
-0.2307463 0.38457716 -0.07725203
-0.25350648 0.38025969 0.11241637
-0.28125012 0.37500024 0.34361324
-0.315889 0.36853719 0.63227063
-0.31429115 0.31429115 0.61895531
-0.3114818 0.25956821 0.59554422
-0.20143093 0.13428724 -0.32154667
-0.19965824 0.099829167 -0.33631897
-0.20354062 0.067846768 -0.3039659
-0.20978664 0.034964427 -0.25191575
-0.21642813 -5.9604645e-08 -0.19657002
-0.22350454 -0.037250739 -0.13759989
-0.23105866 -0.077019505 -0.074649103
-0.23914123 -0.11957066 -0.0072940439
-0.24780983 -0.16520654 0.064944044
-0.25713044 -0.21427539 0.14261615
-0.26718059 -0.26718068 0.22636722
-0.27804729 -0.32438853 0.31692308
-0.28983542 -0.38644725 0.41515744
-0.30266368 -0.45399553 0.52205974
-0.31667748 -0.52779567 0.63884115
-0.33205196 -0.60876197 0.76696199
-0.34899551 -0.69799101 0.90815794
-0.36776116 -0.79681587 1.0645385
-0.18516031 0.48141682 -0.14853461
-0.18337144 0.44009146 -0.16642337
-0.18756995 0.41265392 -0.12443812
-0.20557308 0.4111461 0.055593118
-0.22739987 0.40931973 0.27386093
-0.25445426 0.4071269 0.54440492
-0.26807082 0.37529913 0.68057036
-0.26561874 0.31874236 0.65604973
-0.26321116 0.26321131 0.63197386
-0.17019486 0.13615587 -0.29818904
-0.16867688 0.10120607 -0.31336901
-0.16819243 0.067276984 -0.31821328
-0.17330955 0.034661889 -0.26704228
-0.17874727 -2.9802322e-08 -0.21266502
-0.18453728 -0.036907446 -0.15476494
-0.19071494 -0.076285981 -0.092988327
-0.19732054 -0.1183923 -0.026932329
-0.20440081 -0.16352059 0.043870352
-0.21200737 -0.2120073 0.11993614
-0.22020198 -0.26424226 0.20188215
-0.22905554 -0.32067776 0.29041752
-0.23865174 -0.38184285 0.38637969
-0.24908422 -0.44835165 0.4907046
-0.26046729 -0.52093458 0.6045351
-0.27294058 -0.60046917 0.72926784
-0.28666854 -0.68800455 0.86654782
-0.30185065 -0.78481156 1.0183686
-0.15190944 0.53168303 -0.10126974
-0.15040472 0.48881531 -0.12007871
-0.14892864 0.44678584 -0.13852978
-0.16015126 0.44041592 0.0017530322
-0.17666349 0.44165868 0.20815581
-0.19698903 0.44322535 0.46222499
-0.21962336 0.43924665 0.74515408
-0.21756557 0.38073963 0.71943176
-0.21554691 0.3233203 0.69419861
-0.21356536 0.26695675 0.66942942
-0.21161993 0.21162 0.64511132
-0.13682848 0.10262131 -0.28978157
-0.13560213 0.067801014 -0.30511108
-0.13745789 0.03436441 -0.281914
-0.1417326 -5.9604645e-08 -0.22848035
-0.14628169 -0.036570415 -0.17161661
-0.15113294 -0.0755665 -0.11097596
-0.15631652 -0.11723739 -0.046181336
-0.16186829 -0.1618683 0.023216024
-0.16782896 -0.20978627 0.097724192
-0.174246 -0.26136893 0.17793719
-0.18117259 -0.31705204 0.26451972
-0.18867269 -0.37734532 0.35827094
-0.19681983 -0.44284463 0.46011004
-0.20569895 -0.51424718 0.57109892
-0.21541703 -0.5923968 0.6925751
-0.22609892 -0.6782968 0.82609868
-0.23789543 -0.77316016 0.97355533
-0.25099066 -0.87846714 1.1372454
-0.11572842 0.54006588 -0.07133086
-0.11456419 0.49644476 -0.090734616
-0.11704756 0.46819031 -0.049344897
-0.12877673 0.47218126 0.14614122
-0.14311896 0.47706321 0.3851783
-0.16109742 0.48329231 0.68481922
-0.16716377 0.44576997 0.78592503
-0.16557519 0.38634211 0.75944889
-0.16401653 0.32803312 0.73347121
-0.16248694 0.2708115 0.70797783
-0.16098562 0.21464752 0.68295586
-0.10407647 0.10407647 -0.26552996
-0.10313082 0.068753935 -0.28129065
-0.10221631 0.034072146 -0.29653263
-0.10536747 -0 -0.24401328
-0.10871878 -0.036239557 -0.18815812
-0.11229029 -0.074860141 -0.12863298
-0.11610441 -0.11610444 -0.065064207
-0.12018714 -0.16024955 0.002981253
-0.12456705 -0.20761174 0.075979702
-0.12927827 -0.25855654 0.15450004
-0.13435985 -0.31350634 0.23919308
-0.13985778 -0.37295407 0.33082524
-0.1458243 -0.43747297 0.43026718
-0.15231951 -0.50773168 0.53852075
-0.15942031 -0.5845412 0.65686738
-0.16721553 -0.66886222 0.78678775
-0.17581226 -0.76185304 0.93006647
-0.18534084 -0.86492401 1.0888762
-0.079206251 0.59404683 -0.019981563
-0.078388445 0.54871911 -0.040426612
-0.077586636 0.50431317 -0.060471818
-0.083506361 0.50103819 0.087521225
-0.092524908 0.50888693 0.31298503
-0.1037448 0.51872402 0.59348208
-0.11423557 0.51406002 0.85575134
-0.11312303 0.45249221 0.82793796
-0.11203195 0.39211172 0.80066109
-0.11096124 0.33288363 0.77389318
-0.10991127 0.27477819 0.74764419
-0.108881 0.2177619 0.72188699
-0.10786985 0.16180485 0.69660866
-0.069733866 0.06973391 -0.25679106
-0.069096915 0.034548469 -0.27271494
-0.069634266 4.4703484e-08 -0.25928107
-0.071829192 -0.035914645 -0.20440796
-0.074167207 -0.074167177 -0.14595754
-0.076662309 -0.11499346 -0.083579838
-0.079331145 -0.15866235 -0.016859107
-0.082192495 -0.20548125 0.0546747
-0.085268274 -0.25580484 0.13156901
-0.088582881 -0.31004006 0.21443442
-0.092165612 -0.36866251 0.30400261
-0.096050367 -0.43222672 0.40112147
-0.10027542 -0.50137711 0.50674778
-0.10488884 -0.57688862 0.62208337
-0.10994723 -0.65968341 0.74854302
-0.11551824 -0.75086838 0.88781834
-0.12168396 -0.85178763 1.0419611
-0.040254705 0.60382056 0.012597591
-0.039832309 0.55765241 -0.0085222125
-0.040642992 0.52835882 0.032011822
-0.044903584 0.53884304 0.24504144
-0.05016565 0.55182207 0.50814468
-0.056835722 0.56835729 0.8416484
-0.058000751 0.52200675 0.8998999
-0.057427239 0.45941788 0.87122422
-0.056864958 0.39805472 0.8431102
-0.056313578 0.33788151 0.81554133
-0.055772796 0.278864 0.78850198
-0.055242296 0.22096905 0.76197696
-0.054721791 0.16416538 0.7359519
-0.054211006 0.10842204 0.71041268
-0.035043381 0.035043381 -0.24796861
-0.034721687 1.0430813e-07 -0.26405326
-0.035595473 -0.035595454 -0.22036409
-0.036743358 -0.073486656 -0.16296971
-0.037967749 -0.11390316 -0.10175028
-0.039276551 -0.15710621 -0.036310244
-0.040678933 -0.20339468 0.033809096
-0.042185035 -0.25311017 0.10911406
-0.043806948 -0.30664855 0.19020948
-0.045558561 -0.36446854 0.27779025
-0.047456264 -0.42710641 0.37267545
-0.049518153 -0.4951815 0.47576991
-0.051766928 -0.56943613 0.58820873
-0.054229666 -0.650756 0.71134573
-0.056938436 -0.74019951 0.846784
-0.059931748 -0.83904445 0.99644971
-0.063257568 -0.94886363 1.1627407
0 0.61392128 0.046266764
0 0.56687576 0.024418592
0 0.56708729 0.18096776
0 0.58281845 0.42827222
0 0.60272473 0.73952049
0 0.5951544 0.97563356
0 0.53020543 0.9454484
0 0.46656132 0.91586971
0 0.4041824 0.88687903
0 0.34302989 0.85844588
0 0.28307176 0.83058041
0 0.22427136 0.80325288
0 0.16659513 0.77644777
0 0.11001158 0.75015068
0 0.035552762 -0.22250292
0 3.7252903e-08 -0.23905632
0 -0.03528183 -0.23604399
0 -0.072818831 -0.17966719
0 -0.11283378 -0.11957379
0 -0.15558085 -0.05537755
0 -0.20134944 0.013356559
0 -0.25047177 0.087127082
0 -0.30333152 0.16651653
0 -0.36037007 0.2521756
0 -0.42210436 0.34488666
0 -0.48913532 0.44553894
0 -0.56217158 0.55518776
0 -0.64206409 0.67513013
0 -0.72982645 0.80688691
0 -0.82668084 0.95229399
0 -0.93411779 1.1135882
0.04208586 0.67337382 0.10415539
0.041624244 0.62436366 0.081074446
0.042411752 0.59376454 0.12044984
0.047072511 0.61194265 0.35348791
0.052892327 0.63470793 0.64447856
0.060361162 0.66397274 1.0179205
0.060474709 0.60474694 1.0235975
0.05985149 0.53866345 0.99243677
0.059240982 0.47392783 0.96191132
0.058642808 0.41049972 0.93200266
0.058056593 0.3483395 0.90269196
0.057481982 0.28740996 0.87396127
0.056918632 0.22767457 0.84579396
0.05636622 0.16909876 0.81817329
0.055824425 0.11164883 0.79108346
0.055292949 0.055292964 0.76450956
0.035736274 -2.2351742e-08 -0.21332395
0.035401694 -0.035401724 -0.23005286
0.03608137 -0.07216271 -0.19606912
0.03726133 -0.11178391 -0.13707121
0.038521074 -0.15408434 -0.074083969
0.039869104 -0.19934547 -0.0066825002
0.04131477 -0.24788867 0.065600649
0.042869218 -0.30008447 0.14332312
0.044545207 -0.35636157 0.22712272
0.046357751 -0.41721985 0.31774983
0.048323683 -0.48323682 0.41604644
0.05046273 -0.55509001 0.52299893
0.052800141 -0.63360173 0.63986939
0.055364605 -0.71974009 0.76809269
0.058190893 -0.81467247 0.9094069
0.061321262 -0.91981888 1.0659251
0.064807564 -1.0369213 1.2402407
0.085645206 0.68516159 0.14099243
0.08468841 0.63516301 0.11707252
0.091332383 0.63932669 0.28317198
0.1022379 0.66454631 0.55580968
0.11612496 0.69674981 0.90298623
0.12424637 0.68335497 1.1060214
0.12293143 0.6146571 1.0731479
0.12164403 0.54739809 1.0409627
0.12038331 0.48153323 1.0094448
0.11914846 0.41701961 0.97857356
0.11793867 0.353816 0.94832915
0.11675321 0.29188302 0.91869271
0.11559135 0.23118261 0.88964593
0.11445186 0.17167786 0.86115897
0.11333513 0.11333525 0.83324063
0.11223999 0.056119919 0.80586189
0.072531536 -5.2154064e-08 -0.18684924
0.07184311 -0.035921507 -0.2040599
0.071518384 -0.071518354 -0.21217814
0.073835887 -0.11075382 -0.15424062
0.076308377 -0.15261678 -0.092428304
0.078952193 -0.19738045 -0.026332751
0.081785791 -0.24535739 0.044507042
0.084830634 -0.29690719 0.12062823
0.088110663 -0.35244262 0.20262864
0.091654524 -0.4124454 0.29122555
0.095495418 -0.47747713 0.38724774
0.099670336 -0.5481869 0.49162078
0.10422698 -0.62536192 0.60553688
0.10922021 -0.70993143 0.73036766
0.11471596 -0.80301178 0.86776137
0.12079407 -0.90595549 1.0197139
0.1275523 -1.0204183 1.1886697
0.1322751 0.7495591 0.20444763
0.13075545 0.69736242 0.17911977
0.13302439 0.66512191 0.21693541
0.14838481 0.69246233 0.47294229
0.16779734 0.72712177 0.79648465
0.19159119 0.76636481 1.193049
0.18950732 0.69486016 1.1583176
0.18746829 0.62489438 1.1243337
0.18547267 0.55641794 1.0910735
0.1835191 0.48938432 1.058514
0.18160625 0.42374796 1.026633
0.17973284 0.35946572 0.99540973
0.17789772 0.29649606 0.9648242
0.17609969 0.23479944 0.93485689
0.17433763 0.17433757 0.90548939
0.17261049 0.11507362 0.87670362
0.17091724 0.056972355 0.84848261
0.16925688 -5.9604645e-08 0.8208102
0.10937073 -0.03645692 -0.17729218
0.10832661 -0.072217718 -0.19469422
0.10974216 -0.10974219 -0.17110169
0.11338234 -0.15117642 -0.11043207
0.11727266 -0.19545442 -0.045593359
0.12143905 -0.24287811 0.023846425
0.12591237 -0.29379541 0.098401919
0.13072787 -0.34860763 0.17866008
0.13592635 -0.40777907 0.26530135
0.14155592 -0.47185296 0.35912749
0.14766848 -0.54145116 0.46100372
0.15433279 -0.61733109 0.57207519
0.16162701 -0.70038378 0.69364583
0.16964495 -0.7916764 0.82727814
0.17849992 -0.89249963 0.97486097
0.18833019 -1.0044278 1.1386989
0.17960346 0.76331466 0.24490544
0.17750074 0.71000302 0.21862158
0.19164504 0.71866876 0.3954252
0.21581359 0.75534749 0.69753212
0.24698673 0.8027069 1.0871964
0.24915841 0.74747515 1.1143425
0.24915718 0.68518221 1.114327
0.24915718 0.62289292 1.114327
0.24915718 0.56060368 1.114327
0.248749 0.49749807 1.1092248
0.2461137 0.43069887 1.0762837
0.24353369 0.36530048 1.0440332
0.24100718 0.30125901 1.0124519
0.23853256 0.23853242 0.9815191
0.23610824 0.17708117 0.95121509
0.23373163 0.11686572 0.92150742
0.23140343 0.057850868 0.89240503
0.22912118 2.9802322e-08 0.86387694
0.22688349 -0.056720823 0.83590591
0.14659989 -0.073299855 -0.16763914
0.14519259 -0.10889442 -0.18523042
0.14976352 -0.14976346 -0.12809369
0.154852 -0.19356501 -0.064487644
0.16029844 -0.24044764 0.0035927296
0.16614194 -0.29074848 0.076636642
0.17242821 -0.34485644 0.15521482
0.17920823 -0.40321848 0.23996535
0.1865433 -0.46635818 0.33165339
0.19450216 -0.53488094 0.43113947
0.20316881 -0.60950649 0.53947234
0.2126438 -0.69109213 0.65790957
0.22304578 -0.78066009 0.7879343
0.23451777 -0.87944156 0.9313342
0.24723384 -0.98893535 1.0902852
0.23149073 0.83336651 0.31476951
0.22869973 0.77757913 0.28685957
0.23227662 0.74328506 0.32262838
0.26054698 0.78164095 0.60533196
0.29671818 0.83081096 0.96704417
0.3039135 0.79017514 1.0389973
0.3039135 0.72939247 1.0389975
0.3039135 0.66860968 1.0389973
0.3039135 0.60782695 1.0389973
0.3039135 0.5470444 1.0389974
0.30391204 0.48625934 1.0389829
0.30391204 0.42547697 1.0389829
0.30391204 0.36469451 1.0389826
0.30391204 0.30391204 1.0389827
0.30298123 0.24238494 1.0296745
0.29985267 0.17991161 0.99838912
0.29678807 0.11871526 0.96774292
0.29378545 0.058757067 0.9377169
0.29084301 5.9604645e-08 0.90829223
0.28795889 -0.057591558 0.87945139
0.18603548 -0.074414283 -0.13978282
0.1842249 -0.11053497 -0.15788862
0.1854704 -0.14837629 -0.14543372
0.19171177 -0.19171169 -0.083020106
0.19838844 -0.23806611 -0.016253464
0.20554626 -0.28776482 0.055324808
0.21323994 -0.34118378 0.13226159
0.22153196 -0.39875749 0.2151818
0.23049495 -0.46098986 0.30481175
0.24021198 -0.52846634 0.40198198
0.25078133 -0.60187519 0.50767565
0.26232362 -0.68204135 0.62309831
0.27497962 -0.769943 0.74965858
0.28891876 -0.86675626 0.88904989
0.30434653 -0.97390878 1.0433275
0.28314683 0.84944034 0.35941896
0.27966487 0.79238385 0.33040291
0.30233213 0.80621886 0.51929653
0.34272224 0.85680562 0.85588074
0.35608363 0.83086181 0.96722573
0.35608363 0.77151453 0.96722579
0.35608193 0.71216398 0.96721184
0.35608193 0.65281683 0.96721172
0.35608193 0.59346986 0.96721172
0.35608193 0.53412282 0.96721178
0.35608193 0.47477585 0.96721184
0.35608193 0.41542897 0.96721178
0.35608193 0.35608196 0.96721184
0.35608026 0.2967335 0.96719778
0.35608026 0.23738685 0.96719778
0.35608026 0.17804003 0.96719772
0.35608026 0.11869335 0.96719778
0.35608026 0.059346616 0.9671979
0.35450938 1.4901161e-07 0.95410717
0.35093752 -0.058489472 0.92434132
0.34743845 -0.11581278 0.89518297
0.22445057 -0.11222535 -0.12971625
0.2222518 -0.14816785 -0.14803942
0.22787309 -0.18989424 -0.10119541
0.23573056 -0.23573065 -0.03571634
0.24414928 -0.28484079 0.034439482
0.25319242 -0.33758983 0.10979905
0.26293033 -0.39439541 0.19094837
0.27344725 -0.45574546 0.27858925
0.28483948 -0.52220571 0.37352467
0.29721752 -0.59443492 0.47667491
0.31072026 -0.67322731 0.58919775
0.32550827 -0.75951934 0.71243119
0.3417742 -0.85443544 0.84798068
0.35974959 -0.95933229 0.99777555
0.34116068 0.92600745 0.4367241
0.3368322 0.86613989 0.40580654
0.3414644 0.8292706 0.43889362
0.38540372 0.88092285 0.75274605
0.40584463 0.86966711 0.89875263
0.40584463 0.8116892 0.89875251
0.40584463 0.7537114 0.89875239
0.40584463 0.69573355 0.89875221
0.40584463 0.63775599 0.89875257
0.40584463 0.57977808 0.89875251
0.40584278 0.52179778 0.8987391
0.40584278 0.46382022 0.89873904
0.40584278 0.40584281 0.89873916
0.40584278 0.34786528 0.89873916
0.40584278 0.28988773 0.89873916
0.40584278 0.23191002 0.8987391
0.4058409 0.17393187 0.89872587
0.4058409 0.11595449 0.89872563
0.4058409 0.05797717 0.89872569
0.4058409 2.9802322e-08 0.89872563
0.4058409 -0.057977349 0.89872575
0.4058409 -0.11595452 0.89872599
0.26592246 -0.11396676 -0.10069168
0.26328129 -0.15044643 -0.11955696
0.26335439 -0.18811032 -0.11903493
0.27234712 -0.23344043 -0.054801196
0.28197661 -0.28197658 0.013980806
0.29231101 -0.33406967 0.087798059
0.30343175 -0.39012644 0.16723186
0.3154321 -0.45061731 0.25294867
0.32842076 -0.51608986 0.34572482
0.34251836 -0.5871743 0.44642192
0.35788053 -0.66463524 0.55615187
0.37468544 -0.74937099 0.67618686
0.39314634 -0.8424564 0.8080501
0.4135206 -0.94519007 0.95358092
0.39782086 0.94482458 0.48624259
0.39266765 0.88350224 0.45403519
0.42511007 0.90335882 0.65680009
0.45336297 0.90672582 0.83338064
0.45336297 0.85005563 0.83338088
0.45336297 0.79338515 0.83338076
0.45336094 0.73671156 0.83336812
0.45336094 0.68004143 0.833368
0.45336094 0.62337118 0.83336794
0.45336094 0.56670111 0.83336806
0.45336094 0.5100311 0.83336812
0.45336094 0.45336086 0.83336806
0.45335889 0.39668918 0.83335543
0.45335889 0.34001911 0.83335525
0.45335889 0.28334916 0.83335519
0.45335889 0.22667941 0.83335537
0.45335889 0.17000958 0.83335531
0.45335889 0.11333972 0.83335519
0.45335889 0.056669831 0.83335519
0.45335683 -0 0.83334249
0.45335683 -0.056669533 0.83334279
0.45335683 -0.11333919 0.83334255
0.45335683 -0.17000887 0.83334261
0.30558971 -0.15279484 -0.090202168
0.30253616 -0.1890851 -0.10928662
0.30825999 -0.23119502 -0.073512815
0.31904972 -0.27916846 -0.0060769618
0.3306222 -0.33062217 0.066251025
0.34306693 -0.38595033 0.14403054
0.35648391 -0.44560492 0.22788665
0.37099302 -0.51011539 0.31856871
0.3867259 -0.58008897 0.41689917
0.40385222 -0.65625989 0.52393878
0.42256579 -0.73948997 0.64089835
0.44309786 -0.83080858 0.76922393
0.46572715 -0.93145418 0.91065681
0.45682785 0.9644143 0.53779483
0.46215883 0.92431772 0.56741136
0.49878326 0.94214606 0.7708801
0.49878326 0.88672572 0.77088022
0.49878326 0.83130538 0.77088022
0.49878326 0.77588487 0.77088004
0.49878326 0.72046459 0.77088004
0.49878326 0.66504425 0.7708801
0.49878103 0.60962141 0.77086812
0.49878103 0.55420107 0.77086782
0.49878103 0.49878097 0.77086794
0.49878103 0.44336092 0.77086806
0.49878103 0.38794094 0.77086812
0.49878103 0.33252057 0.77086782
0.49878103 0.2771005 0.77086794
0.49877882 0.22167951 0.77085596
0.49877882 0.1662595 0.77085572
0.49877882 0.11083975 0.7708559
0.49877882 0.055419803 0.7708559
0.49877882 -2.9802322e-08 0.77085578
0.49877882 -0.055419952 0.77085578
0.49877882 -0.11083972 0.7708559
0.49877664 -0.1662589 0.77084363
0.34923771 -0.15521674 -0.059928361
0.34569749 -0.19205409 -0.079596147
0.34348753 -0.22899166 -0.091873713
0.35539287 -0.2764166 -0.02573283
0.36815193 -0.32724619 0.045150816
0.38186124 -0.38186127 0.12131353
0.39663106 -0.44070122 0.20336822
0.4125894 -0.50427592 0.29202566
0.42988086 -0.57317448 0.3880893
0.4486815 -0.64809555 0.49253735
0.46920183 -0.72986954 0.60653919
0.49168912 -0.81948179 0.73146844
0.51644039 -0.91811633 0.86897552
0.52552235 1.0510446 0.62747383
0.51833355 0.98483378 0.59153003
0.54224539 0.97604162 0.71108896
0.54224539 0.92181718 0.71108907
0.54224539 0.86759257 0.71108902
0.542243 0.81336439 0.71107721
0.542243 0.75914001 0.71107721
0.542243 0.70491594 0.71107739
0.542243 0.65069163 0.71107733
0.542243 0.59646738 0.71107733
0.542243 0.54224306 0.71107727
0.542243 0.48801872 0.71107727
0.54224068 0.43379259 0.71106565
0.54224068 0.37956858 0.71106571
0.54224068 0.32534426 0.71106571
0.54224068 0.27112031 0.71106565
0.54224068 0.21689628 0.71106571
0.54224068 0.16267237 0.71106571
0.54224068 0.10844809 0.71106565
0.5422383 0.054223806 0.71105397
0.5422383 -2.9802322e-08 0.71105385
0.5422383 -0.054223835 0.71105409
0.5422383 -0.10844767 0.71105397
0.5422383 -0.16267145 0.71105397
0.5422383 -0.21689516 0.71105409
0.39023104 -0.19511551 -0.048982501
0.38625082 -0.23175052 -0.068883456
0.3910253 -0.2737177 -0.045011155
0.40492168 -0.32393733 0.024470642
0.41984212 -0.37785786 0.099073008
0.43590578 -0.43590584 0.17939118
0.45324588 -0.49857044 0.26609176
0.47201744 -0.56642091 0.35994929
0.49240711 -0.64012927 0.46189797
0.51463795 -0.72049296 0.57305187
0.53897101 -0.80845648 0.69471711
0.590756 1.0741018 0.68511683
0.58386904 1.0085012 0.65381247
0.58386904 0.95542204 0.65381253
0.58386904 0.90234303 0.65381241
0.58386904 0.84926403 0.65381241
0.58386904 0.7961849 0.65381241
0.58386904 0.74310595 0.65381235
0.58386654 0.69002426 0.65380138
0.58386654 0.63694537 0.6538012
0.58386654 0.58386654 0.65380102
0.58386654 0.53078777 0.65380108
0.58386654 0.477709 0.65380108
0.58386654 0.42463025 0.6538012
0.58386409 0.37154987 0.65379006
0.58386409 0.31847143 0.65379012
0.58386409 0.26539278 0.65379006
0.58386409 0.21231434 0.65379012
0.58386409 0.15923561 0.65378988
0.58386165 0.10615659 0.65377879
0.58386165 0.053078324 0.65377867
0.58386165 5.9604645e-08 0.65377897
0.58386165 -0.053078353 0.65377885
0.58386165 -0.10615671 0.65377885
0.58386165 -0.15923509 0.65377879
0.58385915 -0.21231245 0.6537677
0.58385915 -0.26539046 0.6537677
0.4316909 -0.2354677 -0.037906297
0.42725912 -0.27189216 -0.058050655
0.44095668 -0.3206957 0.0042109191
0.45703647 -0.37393889 0.077300698
0.47433329 -0.43121207 0.15592285
0.49299091 -0.49299082 0.24073005
0.51317447 -0.55982655 0.33247337
0.53507292 -0.63235891 0.43201214
0.55892372 -0.71135747 0.54042459
0.58499992 -0.79772717 0.65895271
0.6403597 0.96053946 0.66802776
0.63146675 0.89457798 0.63097382
0.62377042 0.83169401 0.59890592
0.62376785 0.77970982 0.59889519
0.62376785 0.72772908 0.59889501
0.62376785 0.67574841 0.59889489
0.62376785 0.62376791 0.59889513
0.62376785 0.57178718 0.59889501
0.62376785 0.51980662 0.59889501
0.62376529 0.46782389 0.59888434
0.62376529 0.41584343 0.59888428
0.62376529 0.3638632 0.59888434
0.62376529 0.31188262 0.5988844
0.62376529 0.25990218 0.59888434
0.62376529 0.20792176 0.59888422
0.62376273 0.15594073 0.59887362
0.62376273 0.10396047 0.59887367
0.62376273 0.051980197 0.59887344
0.62376273 -5.9604645e-08 0.59887373
0.62376273 -0.051980168 0.59887367
0.62376016 -0.1039601 0.59886289
0.62376016 -0.15594 0.59886283
0.62376016 -0.20792007 0.59886289
0.62376016 -0.25990003 0.59886289
0.47860792 -0.23930395 -0.0059380904
0.47362122 -0.27627903 -0.026716083
0.47627622 -0.31751746 -0.015653685
0.49346557 -0.37009913 0.055968657
0.51194388 -0.42661989 0.13296178
0.53185803 -0.48753649 0.21593753
0.55338222 -0.55338216 0.30562136
0.57671314 -0.62477261 0.40283376
0.60209805 -0.70244777 0.50860411
0.62982053 -0.78727567 0.62411445
0.67981982 0.7844075 0.61455393
0.67056549 0.72214741 0.57896024
0.66205162 0.66205162 0.54621476
0.66205162 0.61112458 0.5462147
0.66205162 0.56019759 0.54621476
0.66204894 0.50926846 0.54620439
0.66204894 0.45834163 0.54620433
0.66204894 0.40741482 0.54620427
0.66204894 0.35648781 0.54620439
0.66204894 0.30556116 0.54620451
0.66204631 0.25463322 0.54619408
0.66204631 0.20370638 0.54619402
0.66204631 0.15278006 0.5461942
0.66204631 0.1018534 0.54619414
0.66204631 0.050926656 0.54619414
0.66204631 -0 0.54619414
0.66204363 -0.050926402 0.54618382
0.66204363 -0.10185288 0.54618376
0.66204363 -0.1527793 0.54618382
0.66204363 -0.20370571 0.54618388
0.66204363 -0.25463212 0.54618376
0.66204363 -0.3055585 0.54618371
0.52149892 -0.28080699 0.0056272596
0.51603091 -0.31755739 -0.015403628
0.52915585 -0.36633855 0.035076976
0.54876 -0.4221231 0.11047755
0.56987262 -0.48219988 0.19167997
0.59267473 -0.54708439 0.2793805
0.61736846 -0.61736834 0.37435618
0.64420682 -0.69376111 0.47758061
0.67348462 -0.77709764 0.59018767
0.71773225 0.61519915 0.56319171
0.70815122 0.55640447 0.52897376
0.6988253 0.49916092 0.49566704
0.69881147 0.44923595 0.49561751
0.69881147 0.39932075 0.49561751
0.69881147 0.34940559 0.49561748
0.69880873 0.29948944 0.49560761
0.69880873 0.24957457 0.49560761
0.69880873 0.19965966 0.49560767
0.69880873 0.14974473 0.49560758
0.69880873 0.099829793 0.49560767
0.69880873 0.049914867 0.49560758
0.69880593 -1.0430813e-07 0.49559778
0.69880593 -0.049914777 0.49559778
0.69880593 -0.099829465 0.49559778
0.69880593 -0.14974412 0.49559784
0.69880593 -0.19965889 0.49559772
0.69880319 -0.24957259 0.49558794
0.69880319 -0.29948711 0.49558794
0.5709703 -0.28548509 0.03904184
0.56489027 -0.3227945 0.017327502
0.56412625 -0.36265266 0.014598936
0.58480805 -0.41772008 0.088462383
0.60706604 -0.47698045 0.16795518
0.63108307 -0.54092836 0.25373039
0.65706903 -0.61013538 0.34653729
0.68528414 -0.6852842 0.44730574
0.71603125 -0.76717615 0.55711651
0.75418389 0.45251036 0.51380867
0.7443077 0.3969641 0.48088786
0.73468959 0.34285504 0.44882742
0.73413891 0.2936554 0.44699195
0.73413891 0.24471305 0.44699207
0.73413891 0.19577047 0.44699207
0.73413891 0.14682773 0.44699189
0.73413604 0.097884789 0.44698256
0.73413604 0.048942387 0.44698244
0.73413604 -4.4703484e-08 0.44698262
0.73413604 -0.048942447 0.44698247
0.73413604 -0.0978847 0.4469825
0.73413324 -0.14682661 0.44697294
0.73413324 -0.19576886 0.44697315
0.73413324 -0.2447111 0.44697297
0.73413324 -0.29365337 0.44697303
0.73413324 -0.34259543 0.44697306
0.61538225 -0.3282038 0.051136211
0.60878891 -0.3652733 0.029158503
0.62011385 -0.41340917 0.066908523
0.64346063 -0.47187114 0.14473119
0.6686343 -0.5349074 0.22864318
0.69585258 -0.60307223 0.31937087
0.72537255 -0.67701441 0.41777095
0.75750518 -0.75750518 0.52487946
0.78925759 0.29597166 0.46629229
0.7791149 0.24347356 0.43459642
0.76923251 0.1923081 0.40371382
0.76811612 0.1440216 0.40022501
0.76811612 0.096014589 0.40022519
0.76811612 0.04800716 0.4002251
0.76811612 -2.9802322e-08 0.4002251
0.76811612 -0.04800722 0.4002251
0.76811314 -0.096014142 0.40021592
0.76811314 -0.14402126 0.40021598
0.76811314 -0.19202834 0.40021592
0.76811314 -0.24003538 0.40021595
0.76811314 -0.2880424 0.40021595
0.76811314 -0.33604947 0.40021586
0.76811028 -0.38405517 0.40020686
0.66032624 -0.37143344 0.063381866
0.65469635 -0.40918523 0.045788348
0.67908621 -0.4668718 0.12200658
0.70536119 -0.52902085 0.20411587
0.73374587 -0.59616846 0.29281813
0.76450211 -0.66893935 0.38893142
0.82302999 0.14524063 0.42053866
0.81264704 0.095605582 0.39000064
0.80252278 0.047207102 0.36022332
0.80081898 -0 0.35521209
0.80081898 -0.047107026 0.35521212
0.80081898 -0.094214052 0.35521215
0.80081898 -0.141321 0.35521209
0.80081898 -0.18842794 0.35521221
0.80081898 -0.23553498 0.35521221
0.80081594 -0.28264084 0.35520336
0.80081594 -0.32974771 0.35520324
0.80081594 -0.37685454 0.35520327
0.71362704 -0.37780258 0.098765358
0.70580786 -0.41518116 0.075767785
0.71396232 -0.46197563 0.099751517
0.74128592 -0.52326065 0.18011506
0.77078408 -0.58942324 0.26687449
0.80270916 -0.66105455 0.3607716
0.85557228 -5.9604645e-08 0.37645197
0.84497291 -0.046942934 0.34700927
0.83463293 -0.092737034 0.31828701
0.83232093 -0.13872007 0.31186476
0.83231783 -0.18495953 0.31185624
0.83231783 -0.23119935 0.31185624
0.83231783 -0.2774393 0.31185627
0.83231783 -0.32367921 0.31185636
0.83231783 -0.36991906 0.31185633
0.83231783 -0.41615894 0.31185639
0.76021868 -0.42234379 0.11158088
0.75183374 -0.45945388 0.08828932
0.77643949 -0.51762635 0.15663849
0.8069908 -0.58282661 0.24150313
0.84002918 -0.65335602 0.33327663
0.88695037 -0.14004472 0.33394223
0.87615639 -0.18445396 0.30553707
0.86562198 -0.22779518 0.27781498
0.86268121 -0.27242559 0.27007592
0.86268121 -0.31782997 0.27007598
0.86268121 -0.36323419 0.27007595
0.86267811 -0.40863699 0.27006775
0.81653994 -0.42975789 0.14865151
0.80738282 -0.46743214 0.1245539
0.81084132 -0.51211029 0.13365525
0.84239298 -0.57637411 0.21668597
0.87648672 -0.64583236 0.30640635
0.91722572 -0.27516764 0.29292652
0.90625709 -0.31718993 0.26550499
0.89554775 -0.35821903 0.23873162
0.89196348 -0.40138355 0.22977105
0.89196348 -0.44598171 0.22977096
0.86488926 -0.47568911 0.16208555
0.85513002 -0.51307797 0.13768739
0.87702292 -0.57006484 0.19241971
0.91211748 -0.63848221 0.28015602
0.9464553 -0.40562373 0.25332746
0.93533033 -0.44539538 0.22683939
0.92446393 -0.48424301 0.20096673
0.91384703 -0.52219826 0.17568853
0.91089988 -0.56389046 0.16867158
0.94694304 -0.6312952 0.25448841
0.97468919 -0.53164864 0.21506499
0.96342796 -0.56929827 0.1894713
0.98099667 -0.62427056 0.2294002
