# .PCD v0.7 - Point Cloud Data file format
VERSION 0.7
FIELDS x y z
SIZE 4 4 4
TYPE F F F
COUNT 1 1 1
WIDTH 947
HEIGHT 1
VIEWPOINT 0 0 0 1 0 0 0
POINTS 947
DATA ascii
-0.73905599 -0.62819755 -0.15249784
-0.75514084 -0.55641961 -0.012925059
-0.69555247 -0.54912037 -0.1697363
-0.70355958 -0.59247118 -0.14866525
-0.71175313 -0.6368317 -0.12710324
-0.73022687 -0.48681796 0.02827023
-0.65285331 -0.47150528 -0.18665622
-0.66029859 -0.5135656 -0.16597505
-0.66791558 -0.55659634 -0.14481662
-0.67570835 -0.60062969 -0.12316994
-0.68368727 -0.64570463 -0.10100648
-0.70425802 -0.4142693 0.07120946
-0.61093807 -0.39531291 -0.20326093
-0.61783904 -0.43612158 -0.18296404
-0.62489945 -0.47786427 -0.16219811
-0.63212126 -0.52057046 -0.14095747
-0.63951391 -0.56427693 -0.11921456
-0.64707953 -0.60901594 -0.09696278
-0.65482825 -0.65482819 -0.074172437
-0.67716372 -0.3385818 0.11599896
-0.56978184 -0.32050225 -0.21956944
-0.57615882 -0.36009932 -0.19964129
-0.58268183 -0.4005937 -0.17925693
-0.58935255 -0.44201443 -0.15841092
-0.59617954 -0.4843958 -0.13707671
-0.60316473 -0.52776903 -0.11524807
-0.61031735 -0.57217264 -0.092896014
-0.61764169 -0.61764169 -0.070007533
-0.62514395 -0.66421551 -0.04656294
-0.64887404 -0.2595495 0.16277567
-0.52936596 -0.24703741 -0.23558465
-0.53523827 -0.28546035 -0.21601029
-0.54124069 -0.32474443 -0.19600201
-0.54738092 -0.36492065 -0.17553467
-0.55366045 -0.40601766 -0.15460278
-0.56008738 -0.44806987 -0.13317974
-0.56666362 -0.49110836 -0.11125909
-0.57339776 -0.53517121 -0.0888118
-0.58029217 -0.58029211 -0.06583038
-0.58735621 -0.6265133 -0.042283684
-0.5945943 -0.67387354 -0.018156677
-0.61930537 -0.17694439 0.21166708
-0.4896706 -0.17488232 -0.25131416
-0.49505359 -0.2121658 -0.23208924
-0.50055486 -0.25027743 -0.21244185
-0.50618112 -0.28924638 -0.1923479
-0.51193392 -0.32910031 -0.17180228
-0.51782048 -0.36987185 -0.1507789
-0.52384239 -0.41159046 -0.12927197
-0.53000766 -0.45429239 -0.10725324
-0.53631812 -0.49800974 -0.084715948
-0.54278231 -0.54278231 -0.061629355
-0.54940426 -0.58864737 -0.037979752
-0.55618799 -0.63564348 -0.013751984
-0.56314319 -0.68381667 0.011088014
-0.58836901 -0.090518244 0.26282004
-0.45067671 -0.10400233 -0.26676583
-0.45558679 -0.1401805 -0.24788088
-0.46060371 -0.17715523 -0.22858496
-0.46573371 -0.214954 -0.20885417
-0.47097793 -0.25360349 -0.18868415
-0.47634298 -0.29313415 -0.16804947
-0.48183024 -0.33357477 -0.14694458
-0.48744684 -0.37495911 -0.12534222
-0.4931944 -0.41731834 -0.10323611
-0.49908072 -0.46068984 -0.080596536
-0.50510764 -0.50510758 -0.057416022
-0.51128352 -0.55061293 -0.033662677
-0.51761222 -0.59724486 -0.0093213618
-0.52409965 -0.64504576 0.015630215
-0.53075176 -0.69405985 0.041215181
-0.55596584 -1.4901161e-08 0.31638646
-0.41236582 -0.034363866 -0.28194678
-0.41681874 -0.069469824 -0.26339304
-0.4213677 -0.10534187 -0.24443904
-0.42601824 -0.14200605 -0.22506168
-0.43077135 -0.17948799 -0.20525712
-0.435633 -0.2178165 -0.1850003
-0.44060433 -0.25701916 -0.16428638
-0.44569176 -0.29712775 -0.14308882
-0.45089665 -0.33817258 -0.12140153
-0.45622599 -0.38018835 -0.099196106
-0.46168277 -0.42320922 -0.076459438
-0.46727026 -0.46727014 -0.05317837
-0.47299612 -0.51241243 -0.029320613
-0.47886252 -0.55867285 -0.0048772097
-0.48487782 -0.60609728 0.020186454
-0.49104616 -0.65472817 0.045887947
-0.49737349 -0.70461249 0.072251767
-0.52199334 0.09490779 0.37255928
-0.3747212 0.034065619 -0.29685956
-0.37873107 -5.9604645e-08 -0.27863279
-0.38282877 -0.034802653 -0.26000702
-0.38701499 -0.070366435 -0.2409786
-0.39129493 -0.10671669 -0.22152445
-0.39566943 -0.14387976 -0.20164026
-0.40014398 -0.18188366 -0.18130141
-0.40471974 -0.22075626 -0.16050258
-0.40940258 -0.26052895 -0.13921699
-0.41419381 -0.3012318 -0.11743867
-0.41909972 -0.3428998 -0.095138907
-0.42412201 -0.38556552 -0.072310328
-0.42926744 -0.4292675 -0.048922017
-0.43453792 -0.47404134 -0.024965554
-0.43994078 -0.51993001 -0.00040698051
-0.44547969 -0.56697422 0.024770021
-0.45115983 -0.61521792 0.050588816
-0.45698676 -0.6647079 0.077074796
-0.46296456 -0.7154907 0.10424674
-0.48633236 0.19453299 0.43152398
-0.33772349 0.10131709 -0.31152028
-0.34130603 0.068261221 -0.29360747
-0.34496632 0.034496613 -0.27530608
-0.34870502 -0 -0.25661272
-0.35252661 -0.035252608 -0.23750466
-0.3564319 -0.071286418 -0.21797812
-0.36042574 -0.10812771 -0.19800913
-0.36450902 -0.14580363 -0.17759269
-0.36868694 -0.18434349 -0.15670308
-0.37296066 -0.22377633 -0.1353344
-0.37733576 -0.26413497 -0.11345898
-0.38181353 -0.3054508 -0.091070071
-0.38640004 -0.34776005 -0.068137497
-0.39109692 -0.39109689 -0.044653162
-0.39591059 -0.43550158 -0.020584896
-0.40084296 -0.48101157 0.0040769726
-0.40590107 -0.5276714 0.0293677
-0.4110885 -0.57552385 0.055304736
-0.41641021 -0.62461531 0.081913382
-0.42187154 -0.67499447 0.10921994
-0.42747802 -0.72671258 0.1372523
-0.44885731 0.29923826 0.49351394
-0.3013573 0.16742077 -0.32593054
-0.30452648 0.13534512 -0.30832392
-0.30776387 0.10258795 -0.29033849
-0.31107083 0.069126792 -0.2719664
-0.31444877 0.03493882 -0.25320017
-0.31790176 -1.4901161e-08 -0.23401679
-0.3214305 -0.035714462 -0.21441263
-0.32503942 -0.072230861 -0.19436309
-0.32872936 -0.10957651 -0.17386352
-0.33250499 -0.14777996 -0.15288785
-0.33636737 -0.18687078 -0.13143025
-0.34032154 -0.22688109 -0.10946257
-0.34436873 -0.26784229 -0.086977996
-0.34851444 -0.30979055 -0.063946396
-0.35276005 -0.35276011 -0.040359542
-0.35711154 -0.3967905 -0.016184688
-0.36157054 -0.44191957 0.0085876286
-0.36614352 -0.48819143 0.033992976
-0.37083364 -0.53564847 0.060049087
-0.37564421 -0.58433539 0.086774558
-0.38058251 -0.63430423 0.11420979
-0.38565239 -0.68560421 0.14237565
-0.39085919 -0.73828954 0.17130229
-0.4094598 0.40945974 0.55898601
-0.26676041 0.2334154 -0.33288518
-0.26837653 0.2012824 -0.32278442
-0.27120426 0.16950266 -0.30511111
-0.27409294 0.13704644 -0.28705692
-0.27704304 0.1038911 -0.26861852
-0.28005815 0.070014589 -0.24977419
-0.28313878 0.035392411 -0.23052014
-0.2862888 -5.9604645e-08 -0.21083277
-0.28950882 -0.036188588 -0.19070761
-0.29280299 -0.073200837 -0.17011908
-0.29617208 -0.11106465 -0.1490622
-0.29962051 -0.14981027 -0.12750962
-0.30314928 -0.18946826 -0.1054548
-0.30676308 -0.23007223 -0.082868449
-0.31046316 -0.2716552 -0.059743166
-0.31425452 -0.31425455 -0.036046982
-0.31813863 -0.35790586 -0.011771277
-0.32212099 -0.40265125 0.013118565
-0.32620326 -0.44852942 0.038632676
-0.33039141 -0.49558711 0.064808637
-0.33468851 -0.54386884 0.091665536
-0.33909887 -0.59342307 0.1192302
-0.34362701 -0.64430058 0.14753102
-0.34827769 -0.69655544 0.17659791
-0.35305601 -0.75024402 0.20646229
-0.36793926 0.52562749 0.62799984
-0.23746148 0.30530757 -0.30398422
-0.23283872 0.26610136 -0.33700401
-0.23527098 0.23527098 -0.31963071
-0.23775522 0.20379019 -0.30188593
-0.24029186 0.17163703 -0.28376731
-0.24288386 0.13879073 -0.26525307
-0.24553169 0.10522784 -0.24633974
-0.24823861 0.070925288 -0.22700471
-0.25100517 0.035857782 -0.20724362
-0.25383481 -3.7252903e-08 -0.18703189
-0.25672823 -0.036675442 -0.16636464
-0.25968915 -0.074196905 -0.14521536
-0.26271835 -0.11259352 -0.12357798
-0.26581988 -0.15189713 -0.10142431
-0.26899469 -0.19213903 -0.07874696
-0.27224711 -0.2333547 -0.05551552
-0.27557826 -0.27557826 -0.031721599
-0.2789928 -0.31884894 -0.0073318928
-0.28249216 -0.36320412 0.017663404
-0.28608134 -0.40868753 0.04330042
-0.2897619 -0.45534021 0.069590285
-0.29353943 -0.50321054 0.096572414
-0.29741672 -0.55234528 0.12426735
-0.30139783 -0.60279566 0.15270387
-0.30548695 -0.65461498 0.18191192
-0.30968857 -0.70785952 0.21192339
-0.31400734 -0.7625891 0.24277188
-0.32411584 0.64823157 0.70082754
-0.20712835 0.37973526 -0.27406824
-0.19789839 0.32983065 -0.35098448
-0.19994809 0.29992217 -0.33390355
-0.20204124 0.26938841 -0.31646058
-0.20417814 0.2382078 -0.29865319
-0.20636128 0.20636134 -0.28046036
-0.20859103 0.17382586 -0.26187909
-0.21087009 0.14058006 -0.24288696
-0.2131989 0.10659949 -0.22348021
-0.21558033 0.071860157 -0.20363495
-0.21801494 0.036335789 -0.1833466
-0.2205058 -4.4703484e-08 -0.16258925
-0.22305359 -0.037175596 -0.14135787
-0.22566161 -0.07522051 -0.11962421
-0.22833064 -0.11416532 -0.097382233
-0.23106429 -0.1540429 -0.074601993
-0.23386346 -0.19488624 -0.051275507
-0.23673201 -0.23673204 -0.027370937
-0.23967183 -0.27961716 -0.0028725564
-0.24268478 -0.3235797 0.022235513
-0.24577524 -0.36866289 0.047989473
-0.24894464 -0.41490763 0.074400842
-0.25219765 -0.46236235 0.1015095
-0.25553685 -0.51107371 0.12933585
-0.25896561 -0.5610922 0.15790905
-0.26248765 -0.61247122 0.18725951
-0.26610684 -0.66526711 0.21741931
-0.26982623 -0.71953642 0.2484142
-0.27365208 -0.77534747 0.28029639
-0.27779564 0.77782768 0.7778188
-0.17570646 0.45683673 -0.24307323
-0.16354057 0.39249736 -0.36473197
-0.16522059 0.36348528 -0.34793183
-0.16693504 0.33387005 -0.3307873
-0.16868591 0.30363464 -0.31327856
-0.17047343 0.27275744 -0.29540351
-0.1722997 0.2412196 -0.27714062
-0.17416506 0.20899808 -0.25848719
-0.17607173 0.17607173 -0.23942055
-0.1780201 0.14241606 -0.21993668
-0.1800126 0.10800751 -0.2000117
-0.18204968 0.072819889 -0.17964092
-0.18413393 0.036826879 -0.15879849
-0.1862659 -2.9802322e-08 -0.13747872
-0.18844838 -0.037689649 -0.11565389
-0.19068204 -0.07627283 -0.093317248
-0.19296989 -0.11578186 -0.070438869
-0.19531268 -0.1562501 -0.047010899
-0.19771367 -0.1977137 -0.023000933
-0.20017381 -0.24020855 0.0016003177
-0.20269659 -0.2837753 0.026828222
-0.20528309 -0.328453 0.052693352
-0.20793717 -0.37428689 0.07923387
-0.21066004 -0.42132014 0.10646272
-0.21345592 -0.469603 0.1344213
-0.21632698 -0.51918477 0.16313209
-0.21927635 -0.57011849 0.19262579
-0.22230725 -0.62246025 0.22293481
-0.2254231 -0.67626941 0.25409323
-0.22862755 -0.73160815 0.28613776
-0.2319244 -0.78854293 0.31910628
-0.22875623 0.915025 0.85931522
-0.14313546 0.53675807 -0.21094446
-0.12975085 0.45412797 -0.37825221
-0.13107263 0.42598599 -0.36173004
-0.13242126 0.3972638 -0.34487206
-0.13379829 0.36794528 -0.32765919
-0.1352039 0.33800977 -0.31008905
-0.13663973 0.30743939 -0.2921412
-0.13810599 0.27621195 -0.27381286
-0.13960445 0.24430782 -0.25508201
-0.14113539 0.21170308 -0.23594519
-0.1427007 0.17837587 -0.21637899
-0.1443007 0.14430064 -0.19637899
-0.1459374 0.10945307 -0.17592013
-0.14761123 0.073805571 -0.15499732
-0.14932434 0.037331134 -0.13358346
-0.15107723 -3.7252903e-08 -0.1116724
-0.15287223 -0.038218074 -0.089234829
-0.15470992 -0.077354923 -0.066263787
-0.1565928 -0.11744455 -0.042727642
-0.15852161 -0.15852159 -0.018617868
-0.16049899 -0.20062381 0.0060997754
-0.16252585 -0.24378881 0.031435281
-0.16460507 -0.28805888 0.057425588
-0.16673762 -0.33347523 0.084082641
-0.16892673 -0.38008502 0.11144648
-0.17117409 -0.42793518 0.13953844
-0.17348205 -0.47707561 0.16838795
-0.17585248 -0.52755749 0.1980183
-0.17828923 -0.57944006 0.22847761
-0.18079443 -0.63278055 0.25979286
-0.18337107 -0.6876415 0.29200068
-0.18602219 -0.74408889 0.32513982
-0.1887511 -0.80219209 0.3592512
-0.10935713 0.61969036 -0.1775189
-0.096515223 0.51474786 -0.39155066
-0.097490281 0.48745149 -0.37529963
-0.098484993 0.45959657 -0.35872123
-0.099500462 0.43116859 -0.3417967
-0.10053683 0.40214735 -0.3245239
-0.10159529 0.37251601 -0.30688289
-0.10267599 0.3422533 -0.28887126
-0.10378022 0.31134063 -0.27046749
-0.10490816 0.27975509 -0.25166842
-0.10606119 0.2474761 -0.23245133
-0.10723985 0.21447967 -0.21280697
-0.10844468 0.18074116 -0.1927264
-0.10967721 0.14623618 -0.17218415
-0.11093777 0.11093774 -0.15117502
-0.11222795 0.074818641 -0.12967178
-0.11354817 0.037849341 -0.10766815
-0.11490016 4.4703484e-08 -0.085134961
-0.11628438 -0.038761407 -0.062064607
-0.11770274 -0.078468539 -0.038425494
-0.11915573 -0.11915578 -0.014209002
-0.12064543 -0.16086051 0.010619476
-0.12217247 -0.20362067 0.036069982
-0.12373905 -0.24747813 0.062179767
-0.12534592 -0.29247373 0.088960953
-0.1269955 -0.33865464 0.11645383
-0.12868863 -0.38606584 0.14467275
-0.13042797 -0.43475986 0.17366189
-0.13221498 -0.4847883 0.20344532
-0.13405164 -0.53620654 0.23405614
-0.13594003 -0.58907336 0.26552939
-0.1378824 -0.64345109 0.29790223
-0.13988107 -0.69940531 0.33121353
-0.14193854 -0.75700557 0.36550456
-0.1440569 -0.81632233 0.40081054
-0.074294001 0.70579296 -0.14278772
-0.063820198 0.57438177 -0.40463281
-0.064459652 0.54790711 -0.38864639
-0.06511189 0.52089506 -0.37234056
-0.06577763 0.49333221 -0.35569707
-0.066457123 0.46519977 -0.3387098
-0.067150623 0.43647903 -0.32137221
-0.067858927 0.40715364 -0.30366454
-0.068582155 0.37720183 -0.28558391
-0.069321148 0.34660572 -0.26710895
-0.070076048 0.31534225 -0.24823652
-0.070847772 0.28339106 -0.22894342
-0.071636483 0.25072774 -0.20922576
-0.07244315 0.2173295 -0.18905902
-0.073267981 0.18316993 -0.16843818
-0.074112035 0.14822401 -0.14733692
-0.074975535 0.11246333 -0.1257493
-0.075859621 0.075859591 -0.10364716
-0.076764576 0.038382284 -0.08102335
-0.077691622 7.0780516e-08 -0.057847224
-0.078641087 -0.039320622 -0.034110598
-0.079614289 -0.079614341 -0.0097803585
-0.080611639 -0.12091738 0.015153091
-0.081634544 -0.16326909 0.040725894
-0.082683474 -0.20670865 0.066949204
-0.083759993 -0.25127995 0.093862109
-0.084864624 -0.29702622 0.12147786
-0.085999072 -0.34399635 0.14983924
-0.08716397 -0.3922379 0.1789615
-0.088361159 -0.44180581 0.20889124
-0.089591697 -0.49275437 0.23965466
-0.090856992 -0.54514194 0.27128702
-0.092158541 -0.59903055 0.3038258
-0.093497917 -0.65448534 0.33731014
-0.094876796 -0.71157604 0.37178227
-0.096296966 -0.77037567 0.40728641
-0.097760282 -0.83096236 0.44386947
-0.031652756 0.63305509 -0.4174999
-0.031967241 0.60737753 -0.40177566
-0.032288123 0.58118618 -0.3857317
-0.032615427 0.55446225 -0.36936641
-0.032949518 0.52719235 -0.35266173
-0.033290438 0.4993566 -0.33561572
-0.033638578 0.47094008 -0.31820875
-0.033993986 0.44192183 -0.30043843
-0.034357075 0.41228488 -0.28228405
-0.034727909 0.38200694 -0.26374236
-0.035106935 0.35106927 -0.24479114
-0.03549422 0.31944799 -0.22542672
-0.035890251 0.28712201 -0.20562509
-0.036295116 0.25406581 -0.18538186
-0.036709327 0.22025599 -0.16467135
-0.03713299 0.18566486 -0.14348827
-0.037566662 0.15026665 -0.12180482
-0.038010459 0.11403136 -0.099614516
-0.038464993 0.076929964 -0.076888062
-0.038930405 0.038930431 -0.053617321
-0.039407346 -1.6763806e-08 -0.029770568
-0.039895985 -0.039895959 -0.0053384285
-0.040397029 -0.080794096 0.019713752
-0.040910684 -0.12273213 0.045396473
-0.041437704 -0.16575089 0.071747452
-0.041978344 -0.20989168 0.098779395
-0.042533416 -0.25520039 0.12653309
-0.043103222 -0.30172247 0.15502322
-0.043688647 -0.34950921 0.1842947
-0.044290196 -0.39861181 0.21437213
-0.044908546 -0.44908544 0.24528944
-0.045544401 -0.50098848 0.27708235
-0.046198525 -0.55438232 0.30978847
-0.046871535 -0.60933 0.34343904
-0.047564622 -0.66590476 0.37809333
-0.048278514 -0.72417766 0.41378796
-0.049014162 -0.7842266 0.45057058
-0.049772579 -0.84613395 0.48849124
0 0.61458433 -0.38281041
0 0.58815223 -0.36638144
0 0.56117618 -0.34961963
0 0.53364217 -0.33250585
0 0.50553 -0.31503788
0 0.47682378 -0.29719561
0 0.44750202 -0.27897608
0 0.4175472 -0.26035768
0 0.38693613 -0.24133714
0 0.35564929 -0.22189093
0 0.32366207 -0.20201507
0 0.2909525 -0.18168457
0 0.25749409 -0.16089453
0 0.22326234 -0.13961811
0 0.18822882 -0.11784924
0 0.15236628 -0.095559224
0 0.11564379 -0.072740883
0 0.078030996 -0.049362972
0 0.039494548 -0.025411217
0 1.4406396e-08 -0.00087023666
0 -0.040488657 0.024295012
0 -0.082009256 0.0500951
0 -0.12460239 0.076568201
0 -0.16830912 0.10372676
0 -0.213175 0.1316123
0 -0.25924528 0.16023959
0 -0.30657074 0.18965389
0 -0.35520169 0.21987231
0 -0.40519479 0.25094467
0 -0.45660731 0.28289881
0 -0.50950044 0.31577337
0 -0.56393915 0.34960866
0 -0.61999202 0.3844471
0 -0.67773199 0.42033416
0 -0.73723662 0.45731798
0 -0.79858798 0.49544951
0 -0.86187321 0.53478312
0.033071518 0.59528732 -0.34656173
0.033415072 0.56805611 -0.32938421
0.033765744 0.54025191 -0.31185055
0.03412395 0.5118593 -0.29394022
0.034489743 0.48285642 -0.27565068
0.034863554 0.45322621 -0.25695983
0.035245467 0.42294556 -0.23786446
0.035635933 0.39199525 -0.21834099
0.03603505 0.36035052 -0.19838524
0.036443312 0.32798979 -0.17797217
0.03686082 0.29488662 -0.15709659
0.037288122 0.26101685 -0.13573165
0.037725326 0.22635195 -0.11387132
0.038173024 0.19086513 -0.09148635
0.038631357 0.1545254 -0.068569675
0.039100952 0.11730295 -0.045090079
0.039581981 0.079163954 -0.021038821
0.040075116 0.040075123 0.0036181621
0.040580567 -1.3969839e-08 0.02889061
0.041099064 -0.041099075 0.054815389
0.041630842 -0.083261646 0.081404299
0.042176705 -0.12653016 0.10869756
0.042736929 -0.1709477 0.13670875
0.043312386 -0.21656202 0.16548145
0.043903392 -0.26342037 0.19503182
0.044510912 -0.31157643 0.22540791
0.045135483 -0.36108387 0.25663626
0.045777828 -0.41200042 0.28875351
0.046438549 -0.46438551 0.32178974
0.047118798 -0.51830679 0.35580206
0.047819272 -0.57383132 0.39082584
0.04854089 -0.63103157 0.4269067
0.049284618 -0.6899845 0.46409315
0.050051492 -0.75077236 0.50243688
0.050842606 -0.81348169 0.5419926
0.051659133 -0.8782053 0.58281893
0.066955298 0.60259765 -0.32625535
0.067659467 0.57510549 -0.30865103
0.068378426 0.54702741 -0.29067707
0.069113016 0.51834762 -0.27231234
0.069863364 0.4890435 -0.2535536
0.070630379 0.45909742 -0.23437813
0.071414232 0.42848536 -0.2147819
0.072215877 0.39718729 -0.19474077
0.073035516 0.36517757 -0.17424986
0.07387419 0.33243382 -0.15328306
0.074732125 0.29892844 -0.13183461
0.075610451 0.26463655 -0.10987652
0.076509431 0.22952822 -0.087401986
0.077430286 0.19357574 -0.064380631
0.078373335 0.15674666 -0.040804457
0.079339884 0.11900981 -0.016640589
0.08033032 0.080330357 0.0081202462
0.081346057 0.040673062 0.033513647
0.082387544 7.8231096e-08 0.059550859
0.083456315 -0.041728176 0.086270131
0.084552899 -0.084552936 0.11368483
0.085678972 -0.12851851 0.14183681
0.086835153 -0.17367031 0.17074117
0.088023275 -0.2200582 0.2004441
0.08924403 -0.26773202 0.23096307
0.090499461 -0.31674808 0.26234886
0.091790706 -0.36716288 0.29463011
0.093119338 -0.41903704 0.32784569
0.094486997 -0.47243488 0.36203715
0.095895432 -0.52742499 0.397248
0.097346485 -0.58407891 0.43352446
0.098842129 -0.64247394 0.4709155
0.10038444 -0.70269114 0.5094735
0.10197566 -0.76481736 0.5492537
0.10361771 -0.82894146 0.59030479
0.10531393 -0.89516842 0.63271064
0.10276446 0.5823319 -0.28739676
0.10387031 0.55397499 -0.26896584
0.10500052 0.5250026 -0.25012913
0.10615529 0.49539128 -0.23088288
0.10733604 0.46512288 -0.21120353
0.10854306 0.43417221 -0.1910868
0.10977784 0.40251878 -0.17050701
0.11104105 0.37013677 -0.14945364
0.11233333 0.33699998 -0.12791565
0.11365637 0.30308369 -0.10586486
0.11501061 0.26835811 -0.083294176
0.11639787 0.23279573 -0.060173273
0.11781863 0.19636433 -0.036493853
0.11927488 0.15903322 -0.012222849
0.12076721 0.1207672 0.012649059
0.12229774 0.081531793 0.038157877
0.12386715 0.041288998 0.064314842
0.12547779 3.3527613e-08 0.091158763
0.12713043 -0.042376898 0.11870287
0.12882763 -0.08588507 0.14698954
0.13057031 -0.13057031 0.17603408
0.13236125 -0.17648162 0.205883
0.13420151 -0.22366923 0.23655416
0.13609417 -0.2721884 0.2680985
0.13804097 -0.32209557 0.3005451
0.14004375 -0.37344998 0.33392492
0.14210606 -0.42631817 0.3682965
0.14423001 -0.48076662 0.40369546
0.14641839 -0.5368675 0.44016877
0.14867422 -0.59469682 0.4777658
0.15100063 -0.65433609 0.51653963
0.15340102 -0.71587139 0.55654591
0.15587896 -0.77939475 0.59784496
0.15843827 -0.84500408 0.64049995
0.16108301 -0.91280365 0.68457919
0.14027573 0.56110287 -0.24669121
0.14182152 0.53183067 -0.22736882
0.14340214 0.50190747 -0.20761085
0.14501801 0.47130853 -0.18741265
0.14667112 0.44001335 -0.16674878
0.14836192 0.40799516 -0.14561385
0.1500926 0.37523142 -0.12398029
0.15186366 0.34169328 -0.10184169
0.15367751 0.30735508 -0.079168655
0.15553473 0.2721858 -0.055953637
0.15743788 0.23615682 -0.032164209
0.15938766 0.19923453 -0.007791847
0.16138689 0.16138688 0.017198347
0.16343635 0.12257726 0.042816706
0.1655391 0.082769588 0.069100969
0.16769607 0.041924007 0.096063331
0.16991059 -2.2351742e-08 0.12374475
0.1721838 -0.043045923 0.15215971
0.17451926 -0.087259576 0.18135282
0.17691831 -0.13268879 0.21134111
0.17938489 -0.17938495 0.2421733
0.18192054 -0.22740069 0.27386916
0.1845296 -0.27679437 0.30648237
0.18721458 -0.32762548 0.34004465
0.18997885 -0.37995771 0.374598
0.19282597 -0.43385836 0.41018698
0.19575973 -0.48939928 0.44685888
0.19878416 -0.54665637 0.48466408
0.20190267 -0.60570818 0.5236457
0.20512143 -0.66664463 0.56388026
0.20844448 -0.72955549 0.60541821
0.21187697 -0.79453868 0.64832437
0.2154244 -0.86169755 0.69266737
0.21909265 -0.93114394 0.73852044
0.22288798 -1.002996 0.7859621
0.1796129 0.53883874 -0.2040087
0.18164141 0.50859588 -0.18372361
0.18371573 0.47766089 -0.16298039
0.18583852 0.4460125 -0.14175245
0.18801038 0.41362292 -0.12003382
0.19023418 0.38046831 -0.097795814
0.19251063 0.3465192 -0.07503134
0.19484283 0.31174859 -0.051709369
0.19723161 0.27612424 -0.027821593
0.19968031 0.23961645 -0.0033345222
0.20218995 0.20218986 0.02176173
0.20476413 0.16381125 0.047503527
0.20740402 0.12444235 0.073902346
0.21011357 0.08404541 0.10099798
0.21289413 0.042578802 0.12880352
0.21574999 2.2351742e-08 0.15736242
0.21868278 -0.043736443 0.18669015
0.22169718 -0.088678874 0.21683407
0.22479585 -0.13487747 0.24782062
0.22798152 -0.18238518 0.27967754
0.23125964 -0.2312597 0.31245872
0.23463255 -0.28155899 0.34618771
0.23810618 -0.33334872 0.38092402
0.24168423 -0.38669479 0.41670448
0.24537143 -0.44166857 0.45357656
0.24917288 -0.4983457 0.49159107
0.25309399 -0.55680686 0.53080213
0.25714049 -0.61713719 0.57126707
0.26131845 -0.67942798 0.61304665
0.26563442 -0.74377644 0.65620667
0.27009538 -0.81028599 0.70081604
0.2747075 -0.87906414 0.74693745
0.27948114 -0.9502359 0.79467368
0.28442362 -1.0239248 0.84409833
0.21841356 0.5460338 -0.18002488
0.22091359 0.51546508 -0.15919113
0.22347087 0.48418683 -0.13788059
0.2260887 0.45217746 -0.11606519
0.22876792 0.41940784 -0.093738392
0.2315121 0.38585353 -0.070870191
0.23432219 0.35148323 -0.047452778
0.23720208 0.31626943 -0.023453638
0.24015287 0.28017837 0.0011363029
0.2431788 0.24317881 0.026352338
0.24628197 0.20523502 0.052211948
0.2494645 0.16630964 0.078733176
0.25273123 0.1263656 0.10595573
0.25608376 0.085361302 0.13389361
0.25952736 0.04325458 0.16259013
0.26306388 -7.4505806e-09 0.1920612
0.26669905 -0.044449866 0.22235447
0.27043515 -0.090145096 0.25348866
0.2742784 -0.13713917 0.28551567
0.27823147 -0.18548766 0.31845766
0.28230116 -0.23525104 0.35237199
0.28649169 -0.28649157 0.3872931
0.2908085 -0.33927661 0.4232665
0.29525626 -0.393675 0.46033102
0.29984334 -0.44976494 0.49855676
0.3045752 -0.50762528 0.53798902
0.30945885 -0.56734133 0.57868588
0.31450161 -0.62900335 0.62070918
0.31971148 -0.69270802 0.66412443
0.32509682 -0.75855917 0.70900238
0.33066675 -0.82666677 0.75541842
0.33643082 -0.89714891 0.80345249
0.34239945 -0.9701317 0.8531909
0.34858364 -1.0457509 0.90472591
0.26126111 0.52252215 -0.13398705
0.26432812 0.49089509 -0.11207971
0.26746717 0.45851514 -0.089657828
0.27068254 0.42535824 -0.066691071
0.27397528 0.39139336 -0.043171391
0.27735001 0.35659295 -0.019066364
0.28080797 0.32092339 0.0056336224
0.28435421 0.28435421 0.030963749
0.28799021 0.2468487 0.056935348
0.29172137 0.20837238 0.083586335
0.29554951 0.16888547 0.11093013
0.29948041 0.12834881 0.13900818
0.3035163 0.086718947 0.16783583
0.3076635 0.043951854 0.19745877
0.31192452 1.4901161e-08 0.22789437
0.31630632 -0.045186609 0.25919318
0.32081184 -0.091660477 0.29137552
0.32544878 -0.13947806 0.32449645
0.33022049 -0.1886974 0.35857999
0.33513546 -0.23938251 0.39368704
0.34019896 -0.29159909 0.42985487
0.3454178 -0.34541783 0.46713242
0.35079929 -0.40091348 0.50557154
0.35635108 -0.45816565 0.54522723
0.36208144 -0.51725924 0.58615834
0.36799914 -0.57828432 0.62842739
0.37411341 -0.64133739 0.67210126
0.38043272 -0.70651793 0.7172389
0.38697085 -0.7739417 0.76393986
0.39373764 -0.84372348 0.81227398
0.4007453 -0.91598928 0.86232871
0.40800691 -0.99087381 0.91419733
0.41553658 -1.0685226 0.96798044
0.30633247 0.49779031 -0.08555977
0.31002209 0.46503311 -0.062499717
0.31380263 0.43147868 -0.038871288
0.31767553 0.39709437 -0.014665708
0.32164624 0.36185199 0.010151312
0.32571641 0.32571644 0.03558971
0.32989198 0.28865546 0.06168709
0.3341749 0.25063115 0.088455379
0.33857164 0.21160722 0.11593501
0.34308445 0.17154223 0.14414001
0.34772035 0.13039507 0.17311454
0.35248208 0.088120475 0.20287524
0.35737726 0.044672079 0.23347005
0.36240903 -2.9802322e-08 0.26491868
0.36758584 -0.045948297 0.29727381
0.37291133 -0.093227744 0.33055806
0.37839481 -0.14189798 0.36482987
0.38404194 -0.19202104 0.40012461
0.38985872 -0.24366167 0.43647927
0.39585593 -0.29689193 0.47396183
0.40204054 -0.35178545 0.51261562
0.40842146 -0.40842161 0.55249649
0.41500822 -0.46688429 0.59366363
0.4218109 -0.52726364 0.6361804
0.42884031 -0.58965534 0.68011409
0.43610799 -0.65416205 0.72553712
0.44362622 -0.72089261 0.77252614
0.45140827 -0.78996438 0.82116377
0.45946819 -0.86150277 0.87153828
0.46782112 -0.93564212 0.92374432
0.47648117 -1.0125225 0.97786951
0.48547024 -1.092308 1.0340512
0.35380542 0.47174054 -0.034552082
0.35818172 0.43777764 -0.010239154
0.36266884 0.40296543 0.014689133
0.36726862 0.36726865 0.040243492
0.37198779 0.33065581 0.066461027
0.37682858 0.29308897 0.093354203
0.38179827 0.25453216 0.12096374
0.38689947 0.21494415 0.14930387
0.39214024 0.17428449 0.17841908
0.39752349 0.13250786 0.20832609
0.40305805 0.089568429 0.23907375
0.40874743 0.045416437 0.27068138
0.41460124 -0 0.30320257
0.4206236 -0.046735898 0.33666003
0.42682511 -0.094850093 0.37111291
0.43321055 -0.14440355 0.40658751
0.43979165 -0.19546296 0.44314927
0.44657582 -0.24809754 0.48083895
0.45357254 -0.30238166 0.51970965
0.46079201 -0.35839379 0.55981767
0.468245 -0.4162178 0.60122329
0.47594106 -0.47594085 0.64397907
0.48389637 -0.53766263 0.68817544
0.49212217 -0.60148281 0.73387438
0.50063246 -0.66751003 0.7811538
0.50944227 -0.735861 0.83009726
0.51856774 -0.80666101 0.88079423
0.5280261 -0.88004339 0.93334037
0.53783584 -0.95615268 0.9878391
0.54801697 -1.0351431 1.0444009
0.39886895 0.47864276 -0.0057928264
0.4038758 0.4442634 0.019241244
0.40901124 0.40901124 0.044918492
0.41427761 0.37284988 0.071250319
0.41968277 0.33574617 0.098276079
0.4252294 0.29766053 0.12600923
0.43092608 0.25855565 0.15449253
0.43677592 0.21838798 0.18374202
0.44278836 0.17711535 0.21380413
0.44896704 0.13469017 0.24469759
0.45532224 0.091064513 0.27647346
0.46185827 0.046185851 0.3091535
0.46858639 -8.9406967e-08 0.34279412
0.47551164 -0.047551125 0.37742037
0.48264647 -0.09652932 0.4130947
0.48999682 -0.14699908 0.44984639
0.49757648 -0.19903058 0.4877446
0.50539428 -0.25269711 0.52683377
0.51346171 -0.30807704 0.56717074
0.5217908 -0.36525363 0.60881639
0.53039461 -0.42431581 0.6518355
0.53928691 -0.48535818 0.69629693
0.54848248 -0.54848242 0.74227476
0.55799711 -0.61379689 0.78984779
0.56784767 -0.68141699 0.8391003
0.57805216 -0.7514677 0.89012307
0.58862746 -0.82407844 0.9429996
0.59959978 -0.89939976 0.99786115
0.61098891 -0.97758216 1.0548068
0.45094413 0.45094419 0.049608275
0.45676538 0.41524121 0.07606861
0.46273738 0.3786034 0.10321413
0.46886924 0.34099576 0.1310861
0.47516409 0.30237716 0.15969902
0.48163199 0.26270828 0.18909849
0.48827666 0.22194396 0.21930158
0.49510899 0.1800397 0.25035772
0.50213343 0.13694549 0.28228691
0.50936192 0.092611231 0.3151437
0.5168016 0.04698199 0.3489604
0.52445984 1.0430813e-07 0.38377056
0.53235048 -0.048395529 0.4196372
0.54048008 -0.098269135 0.45658988
0.54886401 -0.14969009 0.49469858
0.5575121 -0.20273171 0.5340082
0.56643713 -0.25747147 0.5745765
0.57565016 -0.31399098 0.61645383
0.58517033 -0.37238109 0.65972733
0.5950107 -0.43273497 0.70445615
0.60518759 -0.49515346 0.75071502
0.61571872 -0.55974424 0.79858369
0.62662286 -0.62662292 0.84814805
0.63792014 -0.69591296 0.89949954
0.64963233 -0.76774728 0.9527365
0.66178262 -0.84226871 1.007965
0.50599682 0.421664 0.10818253
0.51271796 0.38453838 0.13618711
0.51961821 0.34641218 0.16493823
0.5267086 0.30724669 0.19448137
0.53399324 0.26699665 0.22483429
0.54148424 0.22561839 0.25604638
0.54918629 0.18306217 0.28813854
0.55711269 0.13927814 0.32116535
0.56526917 0.094211489 0.35515052
0.57367021 0.047805861 0.39015478
0.58232248 5.9604645e-08 0.42620578
0.59124202 -0.049270123 0.46337056
0.60043663 -0.10007283 0.5016818
0.60992432 -0.15248108 0.54121339
0.61971658 -0.20657215 0.58201456
0.62982839 -0.26242852 0.6241473
0.64027566 -0.32013789 0.66767752
0.65107542 -0.37979397 0.71267635
0.66224569 -0.44149715 0.75921929
0.67380601 -0.50535452 0.80738729
0.68577701 -0.57148075 0.85726649
0.69818109 -0.63999939 0.90895033
0.71103889 -0.71103889 0.96252418
0.72438252 -0.78474772 1.0181229
0.56428856 0.3906613 0.17020291
0.57200545 0.35200334 0.19988331
0.57993835 0.31227446 0.2303945
0.58809239 0.2714273 0.26175594
0.59648103 0.22941573 0.29402021
0.60511023 0.18618782 0.32720959
0.61399519 0.14169116 0.36138219
0.62314248 0.095868066 0.39656416
0.6325689 0.048659161 0.43281955
0.64228237 -0 0.47017914
0.65230143 -0.050176963 0.50871396
0.66263807 -0.10194434 0.54847014
0.67330748 -0.15537864 0.58950633
0.68432325 -0.21056104 0.63187498
0.69570845 -0.26758021 0.67566407
0.70747894 -0.32652876 0.72093511
0.7196545 -0.38750631 0.76776433
0.73225653 -0.4506194 0.81623352
0.74530774 -0.51598221 0.8664304
0.75883257 -0.58371735 0.91844934
0.77285749 -0.65395612 0.97239089
0.61752802 0.39698231 0.20531932
0.62611151 0.35777795 0.23597468
0.63493931 0.31746954 0.26750252
0.64401722 0.27600726 0.2999236
0.6533609 0.23334311 0.33329394
0.66297722 0.18942204 0.36763781
0.67288339 0.14418928 0.40301713
0.68308741 0.09758389 0.4394601
0.6936084 0.04954344 0.47703522
0.70445585 8.9406967e-08 0.51577586
0.71565074 -0.051117778 0.555758
0.7272073 -0.10388675 0.59703112
0.73914319 -0.15838774 0.63965923
0.75147736 -0.21470785 0.68371016
0.76423025 -0.27293926 0.72925591
0.77742344 -0.33318138 0.77637428
0.79108012 -0.39554 0.82514822
0.80522156 -0.46012658 0.87565345
0.8198815 -0.52706671 0.92801058
0.83508521 -0.59648931 0.9823094
0.68202484 0.36374658 0.27327845
0.69180119 0.32284057 0.30586618
0.70186442 0.28074574 0.33941022
0.7122221 0.23740733 0.37393597
0.72289282 0.19277133 0.40950492
0.73388529 0.14677696 0.44614658
0.74522018 0.099362656 0.48392946
0.75690764 0.050460622 0.52288783
0.76897067 8.9406967e-08 0.56309801
0.78142124 -0.052094847 0.60459971
0.79428494 -0.10590476 0.6474787
0.80757922 -0.16151574 0.69179308
0.82132614 -0.21902016 0.73761618
0.83554918 -0.27851641 0.78502613
0.85027349 -0.34010935 0.83410716
0.86552608 -0.40391219 0.88494921
0.88133585 -0.47004572 0.93764842
0.75062013 0.32839623 0.34555009
0.76172966 0.28564864 0.3802675
0.77317005 0.24161574 0.41601861
0.78496236 0.1962406 0.45286959
0.79711688 0.14945939 0.49085224
0.80965686 0.10120712 0.53004003
0.82259434 0.051412195 0.5704698
0.83595556 8.9406967e-08 0.61222339
0.84975797 -0.053109854 0.65535581
0.86402375 -0.10800302 0.69993633
0.87877673 -0.16477063 0.74603939
0.89403832 -0.22350955 0.79373181
0.90984344 -0.28432602 0.84312296
0.9262175 -0.3473314 0.89429182
0.82372302 0.29072571 0.42257699
0.836321 0.24597663 0.45962983
0.84930688 0.19983692 0.49782372
0.86270601 0.15224211 0.53723276
0.876531 0.10312131 0.57789457
0.89081007 0.052400649 0.6198917
0.90555817 -8.9406967e-08 0.66326857
0.92080683 -0.054165155 0.70811772
0.9365778 -0.11018559 0.75450277
0.95289838 -0.16815847 0.80250478
0.96979797 -0.22818774 0.85220897
0.98730779 -0.29038453 0.90370846
0.88795996 0.29598659 0.46641761
0.90178996 0.25049725 0.50483441
0.91605383 0.20356767 0.54445642
0.93078011 0.15513006 0.58536255
0.94598353 0.10510936 0.62759435
0.96169603 0.053427428 0.67124003
0.97793931 -2.9802322e-08 0.71636027
0.99473625 -0.055263102 0.76301861
1.012125 -0.1124582 0.81132042
1.0301322 -0.17168859 0.86134076
0.96971035 0.25518692 0.55173153
0.9853403 0.20744014 0.5928632
1.0014867 0.15812939 0.63535345
1.0181667 0.1071755 0.67924821
1.0354161 0.054495573 0.72464138
1.0532601 -8.9406967e-08 0.77159929
1.07173 -0.056406945 0.82020408
1.0908591 -0.11482742 0.87054408
1.057314 0.2114629 0.64314747
1.0749813 0.16124718 0.6873157
1.0932491 0.10932493 0.73298502
1.1121435 0.05560708 0.78022122
1.1317077 -1.1920929e-07 0.82913142
1.1514324 0.16449031 0.74136806
1.1713997 0.11156183 0.7889092
1.1920718 0.056765348 0.83812845
1.2310219 0.16786656 0.79763937
