# .PCD v0.7 - Point Cloud Data file format
VERSION 0.7
FIELDS x y z
SIZE 4 4 4
TYPE F F F
COUNT 1 1 1
WIDTH 1248
HEIGHT 1
VIEWPOINT 0 0 0 1 0 0 0
POINTS 1248
DATA ascii
-0.9656015 0.62974006 0.098996013
-0.93734848 0.68170786 0.13019964
-0.92923403 0.63356864 0.11175787
-0.92126197 0.5862577 0.093639463
-0.91342545 0.53975141 0.075829342
-0.90571827 0.49402812 0.058312789
-0.90026271 0.6859144 0.14334488
-0.89242464 0.63744628 0.12468296
-0.88472193 0.58981466 0.10634303
-0.87714809 0.54299641 0.088309973
-0.86970568 0.49697465 0.070590109
-0.86238569 0.45172584 0.053161532
-0.85519063 0.4072336 0.036030546
-0.84811193 0.36347657 0.019176528
-0.84115219 0.32043892 0.0026055425
-0.86271942 0.69017541 0.15666065
-0.85516191 0.64137137 0.13776711
-0.8477329 0.593413 0.11919455
-0.84043461 0.54628253 0.10094893
-0.83325821 0.49995488 0.083007738
-0.82620597 0.45441329 0.065377235
-0.81926948 0.40963474 0.048036024
-0.81245112 0.36560297 0.030990019
-0.80574268 0.32229698 0.014219001
-0.79914671 0.27970135 -0.0022709072
-0.79265535 0.23779655 -0.018499404
-0.78627104 0.19656786 -0.034460142
-0.77998632 0.15599722 -0.05017193
-0.82470667 0.69448984 0.17014313
-0.81743467 0.64534318 0.15100619
-0.81029254 0.59705758 0.132211
-0.80327141 0.54960674 0.11373453
-0.79637361 0.50297284 0.095582381
-0.7895906 0.45713142 0.077732384
-0.78292477 0.41206565 0.060190603
-0.77636802 0.36775333 0.042935893
-0.76992261 0.32417789 0.025974452
-0.76358092 0.28131923 0.0092857331
-0.75734526 0.23916167 -0.0071238354
-0.75120831 0.19768637 -0.023273878
-0.74517226 0.1568784 -0.039158158
-0.73923242 0.11672103 -0.054789133
-0.73338437 0.077198394 -0.070178807
-0.72763032 0.038296442 -0.085321188
-0.72196358 5.5879354e-08 -0.10023345
-0.78621304 0.698856 0.18378735
-0.77923989 0.6493665 0.16441748
-0.77238679 0.6007452 0.14538106
-0.76565576 0.55297351 0.12668377
-0.75903845 0.50602567 0.1083025
-0.75253707 0.45988381 0.090242982
-0.74614364 0.41452426 0.07248348
-0.73986036 0.36993021 0.055030003
-0.73367965 0.32607979 0.037861198
-0.72760367 0.28295699 0.020983636
-0.72162515 0.2405417 0.0043766722
-0.7157464 0.19881839 -0.01195316
-0.70996267 0.15776955 -0.028019149
-0.70426947 0.11737821 -0.043833695
-0.69866896 0.077629954 -0.059390515
-0.69315475 0.038508549 -0.074707866
-0.687729 -1.4901161e-08 -0.089779362
-0.68238544 -0.037910309 -0.10462262
-0.67712629 -0.075236253 -0.11923133
-0.67194563 -0.1119909 -0.13362224
-0.66684556 -0.14818789 -0.14778893
-0.74723494 0.70327985 0.19761196
-0.74056339 0.65343821 0.17798977
-0.73401242 0.60448092 0.15872242
-0.72757387 0.55638003 0.13978541
-0.72124976 0.50911748 0.12118499
-0.71503222 0.46266785 0.10289808
-0.70892334 0.4170137 0.084930927
-0.70291561 0.37213182 0.067261189
-0.69701111 0.32800528 0.049894959
-0.69120502 0.28461379 0.032818273
-0.68549263 0.24193856 0.016017117
-0.67987609 0.19996363 -0.00050215423
-0.67434871 0.15867023 -0.016759247
-0.66891253 0.11804347 -0.032747917
-0.66356128 0.078066051 -0.048486937
-0.65829694 0.03872332 -0.063970111
-0.65311348 -4.8428774e-08 -0.079215556
-0.64801306 -0.03811837 -0.094217069
-0.6429897 -0.075645775 -0.10899156
-0.63804555 -0.1125963 -0.1235334
-0.6331749 -0.14898227 -0.13785854
-0.62838 -0.18481758 -0.15196133
-0.62365526 -0.22011369 -0.16585748
-0.61900288 -0.25488353 -0.17954108
-0.61441761 -0.28913772 -0.19302705
-0.70775771 0.70775765 0.21160504
-0.70140117 0.65756357 0.1917409
-0.69515544 0.60826093 0.17222302
-0.6890223 0.55983067 0.15305707
-0.68299413 0.5122456 0.13421896
-0.67707282 0.46548757 0.11571479
-0.671251 0.41953185 0.097521648
-0.66553068 0.37436104 0.079645678
-0.65990704 0.32995346 0.0620718
-0.65437549 0.28628933 0.044785716
-0.648938 0.24335179 0.027793646
-0.64358807 0.20112129 0.011075124
-0.63832772 0.15958205 -0.0053636283
-0.63315064 0.11871569 -0.021542035
-0.62805879 0.078507416 -0.037454076
-0.62304628 0.038940415 -0.053118162
-0.61811501 4.4703484e-08 -0.068528429
-0.61325932 -0.038328715 -0.083702303
-0.60848123 -0.076060086 -0.09863399
-0.60377514 -0.11320785 -0.11334038
-0.59914309 -0.1497858 -0.12781556
-0.59457982 -0.18580626 -0.14207584
-0.59008729 -0.22128272 -0.15611508
-0.58566213 -0.2562272 -0.16994368
-0.58130115 -0.29065046 -0.18357177
-0.57700622 -0.32456598 -0.19699317
-0.57277274 -0.35798299 -0.21022278
-0.5686025 -0.39091426 -0.22325473
-0.56449103 -0.42336828 -0.23610322
-0.66777688 0.71229529 0.2257852
-0.66173905 0.66173911 0.20565911
-0.65581167 0.61209083 0.18590105
-0.64998728 0.56332231 0.16648655
-0.64426768 0.51541412 0.14742133
-0.63864785 0.4683418 0.12868845
-0.6331231 0.42208207 0.1102725
-0.62769514 0.37661713 0.092179403
-0.62235749 0.33192396 0.074387133
-0.61711186 0.28798556 0.056901745
-0.61195189 0.24478072 0.039701946
-0.60687941 0.20229313 0.022793822
-0.60188848 0.16050357 0.0061572865
-0.59698087 0.11939624 -0.01020148
-0.59215075 0.07895343 -0.026301783
-0.58740002 0.039159976 -0.042137809
-0.58272308 -4.2840838e-08 -0.057727464
-0.57812178 -0.0385415 -0.073064998
-0.57359087 -0.076478727 -0.088168122
-0.56913215 -0.11382639 -0.10303047
-0.56474054 -0.15059742 -0.11766939
-0.56041783 -0.18680599 -0.13207833
-0.55616075 -0.22246429 -0.14626849
-0.55196631 -0.25758433 -0.16025014
-0.54783624 -0.29217923 -0.17401698
-0.5437659 -0.32625952 -0.18758482
-0.53975719 -0.35983801 -0.20094717
-0.53580558 -0.39292413 -0.21411902
-0.53191298 -0.42553037 -0.22709452
-0.52807498 -0.45766497 -0.23988779
-0.52429348 -0.4893406 -0.25249276
-0.52056432 -0.52056426 -0.26492339
-0.51688921 -0.55134845 -0.2771737
-0.62727791 0.71688908 0.24014056
-0.62157214 0.66597033 0.21976303
-0.61596715 0.61596709 0.19974495
-0.61046445 0.56685984 0.18009244
-0.60505915 0.51862216 0.16078787
-0.59974676 0.47122955 0.14181486
-0.59452879 0.42466336 0.12317933
-0.58939886 0.37889928 0.10485831
-0.58435869 0.33391923 0.086857453
-0.57940203 0.28970104 0.069155261
-0.57453066 0.2462274 0.051757425
-0.56973869 0.2034781 0.03464324
-0.56502771 0.16143647 0.017818585
-0.56039232 0.12008405 0.0012633502
-0.55583405 0.079404905 -0.015015963
-0.55134767 0.039382044 -0.031038856
-0.54693484 -5.2154064e-08 -0.046799034
-0.54259038 -0.038756408 -0.062315013
-0.53831601 -0.076902293 -0.077580392
-0.53410852 -0.11445185 -0.092607386
-0.52996469 -0.15141848 -0.10740677
-0.52588618 -0.18781647 -0.12197283
-0.52186847 -0.22365789 -0.13632177
-0.51791316 -0.25895664 -0.15044776
-0.51401591 -0.29372334 -0.16436663
-0.51017833 -0.32797173 -0.17807218
-0.50639617 -0.36171159 -0.19157997
-0.50267106 -0.39495587 -0.20488383
-0.498999 -0.42771345 -0.21799827
-0.49538162 -0.45999724 -0.23091772
-0.49181488 -0.49181494 -0.24365598
-0.4883005 -0.52317911 -0.25620729
-0.48483467 -0.5540967 -0.26858532
-0.481419 -0.58458018 -0.28078413
-0.47804981 -0.61463553 -0.29281688
-0.47472876 -0.64427471 -0.30467787
-0.58625525 0.72154486 0.2546902
-0.5808863 0.6702534 0.23404032
-0.57561678 0.61989492 0.21377297
-0.57044208 0.57044202 0.19387017
-0.56535757 0.52186847 0.17431436
-0.56036484 0.47415492 0.15511167
-0.55545765 0.42727512 0.13623786
-0.55063748 0.38121054 0.11769883
-0.5458985 0.33593747 0.099471696
-0.54124212 0.29143792 0.081562601
-0.53666276 0.24769053 0.063949689
-0.53216189 0.20467763 0.046638943
-0.52773428 0.16237976 0.029609635
-0.52338141 0.12078042 0.012867678
-0.5190981 0.079861313 -0.0036065504
-0.51488596 0.039606601 -0.019807275
-0.51073998 -1.3038516e-08 -0.03575303
-0.50666183 -0.038974058 -0.051438279
-0.50264829 -0.077330463 -0.066875018
-0.49869639 -0.11508375 -0.082074814
-0.49480754 -0.15224856 -0.097031794
-0.4909775 -0.18883751 -0.11176279
-0.48720762 -0.22486505 -0.12626211
-0.48349386 -0.26034278 -0.1405459
-0.47983769 -0.29528469 -0.15460834
-0.47623494 -0.32970107 -0.16846481
-0.47268736 -0.36360556 -0.18210956
-0.46919081 -0.39700767 -0.19555764
-0.46574697 -0.42992026 -0.20880318
-0.46235201 -0.46235198 -0.22186072
-0.45900747 -0.49431574 -0.23472442
-0.4557097 -0.52581888 -0.24740815
-0.45246023 -0.5568741 -0.25990611
-0.44925675 -0.58748955 -0.27222711
-0.44609717 -0.61767292 -0.28437954
-0.44298163 -0.64743471 -0.29636219
-0.54980928 0.77889639 0.29073405
-0.5446943 0.72625905 0.26942182
-0.53967559 0.67459458 0.24851061
-0.53474665 0.62387121 0.22797334
-0.52990878 0.57406789 0.20781553
-0.52515763 0.52515757 0.18801905
-0.52048916 0.47711501 0.16856694
-0.51590466 0.42992061 0.14946528
-0.51139855 0.38354895 0.13068965
-0.50697219 0.33798149 0.11224633
-0.5026201 0.29319507 0.094112575
-0.49834374 0.24917188 0.076294407
-0.49413791 0.20589077 0.058770105
-0.49000403 0.16333467 0.041545898
-0.48593724 0.12148431 0.024600774
-0.48193893 0.080323175 0.0079411231
-0.47800583 0.039833829 -0.008446686
-0.47413495 -3.259629e-08 -0.024575345
-0.47032771 -0.03919398 -0.040438812
-0.46657971 -0.07776323 -0.056055456
-0.46289238 -0.11572318 -0.071419388
-0.45926151 -0.15308715 -0.08654809
-0.45568851 -0.18987021 -0.10143564
-0.4521693 -0.22608465 -0.11609899
-0.44870538 -0.26174474 -0.13053194
-0.44529283 -0.29686183 -0.14475106
-0.44193304 -0.33144981 -0.15874997
-0.43862233 -0.36551863 -0.17254469
-0.4353621 -0.39908195 -0.1861289
-0.43214875 -0.43214875 -0.19951788
-0.42898372 -0.46473241 -0.21270557
-0.4258635 -0.49684078 -0.22570643
-0.42278951 -0.52848685 -0.23851475
-0.41975957 -0.55967945 -0.2511394
-0.41677165 -0.59042639 -0.26358926
-0.41382593 -0.62073892 -0.27586296
-0.41092268 -0.65062749 -0.28795993
-0.50733757 0.78406715 0.30594209
-0.50258851 0.73103786 0.28435567
-0.49792764 0.67899215 0.26316941
-0.49335057 0.62790078 0.24236487
-0.48885861 0.57774198 0.2219469
-0.48444605 0.52848649 0.20188981
-0.4801141 0.4801141 0.18219905
-0.47585729 0.43259746 0.1628499
-0.47167692 0.38591748 0.14384823
-0.46756774 0.34004927 0.1251702
-0.46353114 0.29497436 0.10682198
-0.45956209 0.25067025 0.088780798
-0.45566195 0.20711905 0.071052916
-0.45182595 0.1643004 0.053616595
-0.44805545 0.12219694 0.036478125
-0.44434738 0.080790356 0.019623071
-0.44069877 0.040063545 0.0030385032
-0.43711099 -1.2107193e-08 -0.01326969
-0.43357977 -0.039416388 -0.029320695
-0.43010649 -0.078201175 -0.045108303
-0.42668709 -0.11636925 -0.06065087
-0.42332295 -0.15393564 -0.075942636
-0.42001015 -0.19091383 -0.091000654
-0.41675004 -0.22731826 -0.10581924
-0.41353896 -0.26316109 -0.12041526
-0.41037816 -0.29845676 -0.13478242
-0.40726411 -0.33321607 -0.14893708
-0.40419817 -0.36745292 -0.16287321
-0.40117687 -0.40117684 -0.17660649
-0.39820158 -0.43440169 -0.19013071
-0.39527005 -0.46713734 -0.20345569
-0.39238027 -0.49939317 -0.21659108
-0.38953355 -0.53118205 -0.22953063
-0.38672674 -0.56251162 -0.24228889
-0.3839601 -0.59339285 -0.25486457
-0.38123381 -0.62383711 -0.2672568
-0.46429995 0.78930998 0.32136202
-0.45992497 0.7358799 0.29948711
-0.45563006 0.68344504 0.27801251
-0.45141622 0.63198262 0.25694335
-0.44727805 0.58146155 0.23625262
-0.44321659 0.53185993 0.21594529
-0.43922672 0.48314938 0.19599584
-0.43530953 0.43530953 0.1764099
-0.43146011 0.3883141 0.15716287
-0.42767963 0.34214377 0.13826042
-0.4239634 0.29677445 0.11967938
-0.42031261 0.25218755 0.10142526
-0.41672277 0.20836139 0.083476163
-0.4131951 0.16527803 0.065837763
-0.40972531 0.12291758 0.048488677
-0.40631461 0.081262924 0.031435154
-0.40296024 0.040295996 0.014663354
-0.39965951 1.3504177e-08 -0.0018401258
-0.39641368 -0.039641336 -0.018069388
-0.3932189 -0.078643747 -0.034043171
-0.39007646 -0.11702296 -0.049755447
-0.38698262 -0.15479301 -0.065224662
-0.38393864 -0.19196931 -0.080444597
-0.38094103 -0.22856462 -0.095432587
-0.37799102 -0.26459372 -0.11018263
-0.37508518 -0.30006817 -0.12471171
-0.37222484 -0.33500224 -0.1390136
-0.36940664 -0.36940664 -0.15310432
-0.36663193 -0.4032951 -0.16697814
-0.36389858 -0.43667823 -0.18064491
-0.36120459 -0.46956593 -0.19411471
-0.35855129 -0.50197184 -0.20738134
-0.35593563 -0.53390342 -0.22045948
-0.35335788 -0.56537259 -0.2333483
-0.35081816 -0.59639084 -0.24604689
-0.34831372 -0.62696481 -0.25856897
-0.42068288 0.79462326 0.33698937
-0.41669098 0.74078381 0.31481206
-0.41277558 0.68795943 0.29306015
-0.40893164 0.63611591 0.27170476
-0.40516007 0.58523118 0.25075155
-0.40145603 0.53527468 0.23017356
-0.39782047 0.48622507 0.209976
-0.39424878 0.4380542 0.19013342
-0.39074206 0.39074212 0.1706515
-0.38729581 0.34426296 0.15150569
-0.38391113 0.29859746 0.13270187
-0.38058382 0.25372264 0.11421676
-0.37731493 0.20961933 0.096056312
-0.37410051 0.16626686 0.078198388
-0.37094155 0.12364715 0.060648814
-0.36783552 0.081741229 0.04339312
-0.36477995 0.040531091 0.02641755
-0.36177585 -2.5611371e-08 0.0097280499
-0.35881966 -0.039868832 -0.0066951197
-0.35591254 -0.079091743 -0.022845816
-0.35305104 -0.1176836 -0.038743049
-0.35023627 -0.15566051 -0.054380652
-0.34746495 -0.19303606 -0.069776773
-0.34473819 -0.22982553 -0.084925368
-0.34205288 -0.2660411 -0.099843912
-0.3394101 -0.30169782 -0.11452604
-0.33680683 -0.33680686 -0.12898873
-0.33424419 -0.37138239 -0.14322561
-0.33172023 -0.4054358 -0.15724756
-0.32923314 -0.4389776 -0.17106465
-0.32678404 -0.4720214 -0.18467078
-0.32437018 -0.50457579 -0.19808128
-0.32199168 -0.5366528 -0.21129504
-0.31964874 -0.56826448 -0.22431132
-0.31733876 -0.59941757 -0.23714463
-0.31535712 -0.6307143 -0.24815364
-0.37647322 0.80000556 0.35281983
-0.37287822 0.74575639 0.33035114
-0.3693499 0.69253117 0.30829918
-0.36588901 0.64030588 0.28666866
-0.3624911 0.58904809 0.26543176
-0.35915703 0.53873545 0.24459359
-0.35588241 0.48933834 0.22412744
-0.35266826 0.44083524 0.20403871
-0.3495104 0.39319909 0.18430218
-0.34640977 0.34640974 0.16492334
-0.34336251 0.30044222 0.14587802
-0.34036955 0.25527716 0.12717205
-0.33742833 0.21089271 0.1087894
-0.33453637 0.16726825 0.090714581
-0.33169466 0.12438549 0.072953954
-0.32889977 0.082224995 0.055485882
-0.32615262 0.040769164 0.038316071
-0.32344994 4.4703484e-08 0.021424452
-0.3207927 -0.040099103 0.0048167985
-0.31817779 -0.079544418 -0.011526503
-0.31560612 -0.11835231 -0.027599473
-0.31307477 -0.1565374 -0.04342052
-0.3105846 -0.19411531 -0.058984034
-0.3081328 -0.23109964 -0.074307732
-0.30572033 -0.26750532 -0.089385636
-0.30334446 -0.30334449 -0.10423487
-0.30100611 -0.33863193 -0.11884957
-0.29870266 -0.37337831 -0.13324618
-0.29643506 -0.40759826 -0.14741857
-0.29420078 -0.44130123 -0.16138285
-0.29200074 -0.47450119 -0.175133
-0.28983256 -0.50720704 -0.18868418
-0.28769717 -0.53943217 -0.20203038
-0.28559217 -0.5711844 -0.21518652
-0.28351781 -0.60247529 -0.22815159
-0.33166182 0.80546451 0.36887535
-0.32847211 0.75079334 0.3460916
-0.32534435 0.69716632 0.32375053
-0.32227445 0.64454883 0.30182263
-0.3192631 0.59291708 0.2803129
-0.31630632 0.54223955 0.25919318
-0.31340495 0.49249348 0.23846921
-0.31055525 0.44365028 0.21811385
-0.30775797 0.39568871 0.19813335
-0.30500954 0.34858239 0.17850195
-0.30231082 0.30231094 0.15922537
-0.29965946 0.25685096 0.14028707
-0.29705319 0.21218085 0.12167083
-0.29449287 0.16828161 0.10338264
-0.29197532 0.12513229 0.085400119
-0.2895014 0.082714655 0.067729272
-0.2870681 0.041009799 0.050348584
-0.28467631 2.7939677e-08 0.033264369
-0.28232309 -0.040331729 0.016455919
-0.28000942 -0.080002666 -7.0590526e-05
-0.27773243 -0.11902824 -0.016334724
-0.27549306 -0.15742463 -0.03233023
-0.27328864 -0.1952062 -0.048075914
-0.2711201 -0.23238866 -0.063565589
-0.26898485 -0.26898491 -0.078817278
-0.26688379 -0.30501002 -0.093824901
-0.2648153 -0.34047681 -0.10859988
-0.26277784 -0.37539685 -0.12315322
-0.26077148 -0.40978381 -0.13748431
-0.2587963 -0.44365078 -0.15159266
-0.25685006 -0.47700733 -0.16549434
-0.25493291 -0.50986564 -0.17918849
-0.25304484 -0.54223895 -0.19267449
-0.25118384 -0.57413447 -0.20596734
-0.24935071 -0.60556608 -0.21906118
-0.2862336 0.81099522 0.38514215
-0.28346312 0.75590169 0.36205488
-0.28074473 0.70186162 0.33940163
-0.278079 0.64885104 0.31718719
-0.27546242 0.59683526 0.29538247
-0.2728956 0.54579115 0.27399233
-0.27037522 0.4956879 0.25298896
-0.2679019 0.44650313 0.23237807
-0.26547343 0.39821011 0.2121408
-0.26308769 0.35078359 0.19225946
-0.26074532 0.30420297 0.17273988
-0.25844342 0.25844342 0.15355732
-0.25618267 0.21348554 0.13471794
-0.25396028 0.16930687 0.11619788
-0.25177696 0.12588848 0.098003507
-0.24963005 0.083210066 0.080112547
-0.24752022 0.04125344 0.062530756
-0.24544498 2.7939677e-08 0.045237154
-0.24340503 -0.040567577 0.028237475
-0.24139795 -0.080465995 0.011511732
-0.23942442 -0.11971232 -0.004934147
-0.23748219 -0.1583215 -0.021119528
-0.23557194 -0.19630991 -0.037038162
-0.23369145 -0.23369142 -0.052709088
-0.23184146 -0.27048171 -0.068125591
-0.23002052 -0.30669409 -0.083300069
-0.22822727 -0.34234092 -0.098243758
-0.22646178 -0.37743631 -0.11295612
-0.22472407 -0.41199407 -0.12743723
-0.22301213 -0.44602442 -0.14170319
-0.22132613 -0.47953987 -0.15575348
-0.21966602 -0.51255399 -0.16958749
-0.21803002 -0.54507506 -0.18322079
-0.21641822 -0.57711524 -0.19665265
-0.27290544 -0.77323198 0.27407426
-0.24017808 0.81660551 0.4016431
-0.23783658 0.76107705 0.37822789
-0.23554116 0.70662338 0.35527375
-0.23328874 0.65320861 0.3327499
-0.23107986 0.60080755 0.31066072
-0.22891158 0.54938787 0.2889781
-0.22678442 0.49892575 0.26770651
-0.22469646 0.44939283 0.2468268
-0.22264577 0.40076247 0.22632009
-0.22063297 0.35301268 0.20619181
-0.21865547 0.30611765 0.18641697
-0.21671386 0.26005664 0.16700074
-0.21480568 0.21480568 0.14791909
-0.21293153 0.17034528 0.12917763
-0.2110891 0.12665351 0.11075325
-0.20927897 0.083711565 0.092651963
-0.20749894 0.041499801 0.074851647
-0.20574962 -0 0.057358436
-0.20402887 -0.040805787 0.040150963
-0.20233732 -0.080934837 0.023235478
-0.20067295 -0.12040384 0.0065917298
-0.19903637 -0.15922904 -0.0097741187
-0.19742626 -0.19742623 -0.025875233
-0.19584137 -0.23500976 -0.0417239
-0.19428235 -0.27199531 -0.057314195
-0.19274735 -0.30839577 -0.072664142
-0.19123642 -0.34422559 -0.087773502
-0.18974957 -0.37949905 -0.1026421
-0.1882851 -0.41422719 -0.11728686
-0.18684304 -0.44842327 -0.13170721
-0.18542348 -0.48210105 -0.14590307
-0.18402477 -0.51526934 -0.15989
-0.182647 -0.54794097 -0.17366777
-0.18129024 -0.58012879 -0.18723528
-0.19348019 0.82229072 0.4183647
-0.19158167 0.76632667 0.39463317
-0.18971932 0.71144742 0.37135381
-0.18789354 0.65762746 0.34853148
-0.18610255 0.60483319 0.32614422
-0.18434471 0.55303419 0.30417109
-0.18262044 0.50220609 0.28261763
-0.18092746 0.45231849 0.26145548
-0.17926624 0.40334913 0.24069023
-0.17763461 0.35526922 0.22029489
-0.17603302 0.30805781 0.20027503
-0.17445946 0.26168913 0.1806055
-0.17291437 0.21614301 0.16129182
-0.17139582 0.17139578 0.14231007
-0.16990429 0.12742825 0.12366593
-0.16843794 0.084218949 0.1053365
-0.16699722 0.041749358 0.087327719
-0.16558041 -1.0803342e-07 0.069617406
-0.16418797 -0.041046992 0.052211892
-0.16281822 -0.081409171 0.035090074
-0.16147166 -0.12110376 0.018258058
-0.16014719 -0.16014716 0.0017021149
-0.15884376 -0.19855471 -0.014590636
-0.15756139 -0.23634197 -0.030620314
-0.15630004 -0.27352506 -0.046387188
-0.15505825 -0.31011644 -0.061909661
-0.15383603 -0.34613103 -0.077187404
-0.15263338 -0.38158339 -0.092220291
-0.15144895 -0.41648453 -0.10702579
-0.15028276 -0.45084828 -0.12160316
-0.14913483 -0.48468813 -0.13595237
-0.14800386 -0.5180136 -0.15008932
-0.14689036 -0.55083889 -0.16400817
-0.14579305 -0.58317226 -0.17772451
-0.14612807 0.8280592 0.4353303
-0.14468369 0.77164638 0.41125706
-0.14326811 0.71634036 0.38766378
-0.14187995 0.66210645 0.36452824
-0.14051792 0.60891092 0.34182751
-0.1391823 0.55672908 0.31956708
-0.13787133 0.50552815 0.29771781
-0.13658533 0.45528451 0.27628446
-0.1353226 0.40596768 0.25523895
-0.13408348 0.35755593 0.23458704
-0.13286638 0.31002152 0.21430203
-0.13167165 0.26334339 0.19438969
-0.13049775 0.21749626 0.17482479
-0.12934504 0.17246 0.15561299
-0.12821209 0.12821209 0.13673039
-0.12709923 0.084732838 0.11818279
-0.12600511 0.042001765 0.099947594
-0.12493008 2.6077032e-08 0.082030311
-0.12387325 -0.041291155 0.064416289
-0.12283372 -0.081889138 0.047091082
-0.12181191 -0.12181196 0.030060779
-0.12080657 -0.16107544 0.013305053
-0.11981768 -0.19969603 -0.0031763986
-0.11884522 -0.23769039 -0.01938387
-0.11788807 -0.27507213 -0.035336606
-0.1169462 -0.31185645 -0.051034391
-0.11601961 -0.34805888 -0.066477418
-0.11510725 -0.38369077 -0.081683531
-0.11420912 -0.4187668 -0.096652284
-0.11332525 -0.45330101 -0.1113836
-0.11245461 -0.48730332 -0.12589431
-0.11159757 -0.52078855 -0.14017819
-0.11075318 -0.55376589 -0.15425147
-0.16623914 -0.88660884 0.77051473
-0.098106548 0.83390558 0.45252591
-0.097130418 0.77704334 0.42812255
-0.096173145 0.72129864 0.40419081
-0.095234916 0.66664433 0.38073522
-0.094314814 0.61304623 0.3577328
-0.093411982 0.56047201 0.33516198
-0.092526607 0.50889641 0.31302756
-0.091657527 0.45828772 0.29130048
-0.090804949 0.40862235 0.26998603
-0.089967765 0.35987109 0.24905634
-0.089146189 0.31201157 0.22851701
-0.088339172 0.26501748 0.20834158
-0.087546945 0.21886744 0.18853582
-0.086768501 0.17353699 0.16907465
-0.086004071 0.12900615 0.14996396
-0.085252702 0.085252717 0.13117981
-0.084514633 0.042257316 0.11272787
-0.083789229 -4.8428774e-08 0.094592966
-0.083075896 -0.041537952 0.076759785
-0.082374886 -0.08237493 0.059234411
-0.081685342 -0.12252803 0.041995794
-0.081007242 -0.16201453 0.025043271
-0.080340564 -0.20085144 0.0083762556
-0.079684518 -0.23905349 -0.0080248415
-0.079039097 -0.27663681 -0.024160281
-0.078404292 -0.31361705 -0.040030375
-0.077779368 -0.35000718 -0.055653572
-0.077164322 -0.38582158 -0.071029738
-0.076559156 -0.42107546 -0.086158678
-0.075963192 -0.45577917 -0.10105799
-0.075376421 -0.48994672 -0.11572716
-0.074798875 -0.523592 -0.13016583
-0.074229896 -0.55672419 -0.14439033
-0.049907394 0.89833313 0.49523202
-0.049402274 0.8398385 0.46997571
-0.048907079 0.78251332 0.44521624
-0.048421904 0.72632873 0.42095742
-0.047946252 0.67124748 0.39717495
-0.047479685 0.6172359 0.37384659
-0.047022283 0.5642674 0.35097641
-0.046573434 0.51230782 0.32853407
-0.046133243 0.46133256 0.30652463
-0.045701135 0.41131023 0.2849189
-0.045277201 0.36221761 0.26372248
-0.044860907 0.3140263 0.24290748
-0.044452351 0.26671404 0.22247992
-0.044051018 0.22025509 0.20241322
-0.043657016 0.17462797 0.18271315
-0.043269854 0.12980948 0.16335486
-0.042889643 0.085779175 0.14434433
-0.042516053 0.042516038 0.12566492
-0.042148776 -2.2351742e-08 0.10730118
-0.04178793 -0.041787915 0.089258738
-0.041433074 -0.08286608 0.071515873
-0.041084189 -0.12325256 0.054071933
-0.040741269 -0.16296507 0.036925696
-0.040403895 -0.2020195 0.020056963
-0.040072061 -0.24043243 0.0034652874
-0.039745759 -0.27822042 -0.012849867
-0.039424606 -0.31539685 -0.028907597
-0.0391086 -0.35197729 -0.044707939
-0.038797736 -0.38797736 -0.060250938
-0.038491659 -0.42340827 -0.075554743
-0.038190376 -0.45828456 -0.090618819
-0.037893888 -0.49262053 -0.10544325
-0.037601855 -0.52642584 -0.12004517
-0.037314285 -0.5597142 -0.1344234
0 0.90483648 0.51329708
0 0.84585667 0.48767591
0 0.78806394 0.46256191
0 0.73142898 0.43795925
0 0.67591202 0.4138341
0 0.62148553 0.39019108
0 0.56811255 0.36699763
0 0.51576722 0.34425861
0 0.46441615 0.32194367
0 0.41403526 0.30005819
0 0.36459377 0.27857292
0 0.31606838 0.25749338
0 0.26843166 0.2367923
0 0.22166125 0.21647538
0 0.17573236 0.19651644
0 0.13062358 0.17692131
0 0.086312056 0.15766518
0 0.042777836 0.13875407
0 -7.4505806e-09 0.12016448
0 -0.042040821 0.1019021
0 -0.083363265 0.083944723
0 -0.12398621 0.06629844
0 -0.16392632 0.048941717
0 -0.20320123 0.031874187
0 -0.24182791 0.015095189
0 -0.27982107 -0.0014154464
0 -0.31719679 -0.017657742
0 -0.35397106 -0.03363201
0 -0.39015609 -0.049357086
0 -0.42576706 -0.064832389
0 -0.46081898 -0.080058411
0 -0.49532217 -0.095052525
0 -0.52929056 -0.10981418
0 -0.9885534 1.2950401
0.050635271 0.91143477 0.53162575
0.050115183 0.85195804 0.50562119
0.049605861 0.79369366 0.4801552
0.049106602 0.73659897 0.45519215
0.048617478 0.68064457 0.43073592
0.048137818 0.62579155 0.40675306
0.047667708 0.57201242 0.38324749
0.047206517 0.51927167 0.36018804
0.046754334 0.46754345 0.3375791
0.046310566 0.41679513 0.31539059
0.045875307 0.36700246 0.29362765
0.04544799 0.31813598 0.27226189
0.045028724 0.2701723 0.25129852
0.044616964 0.22308479 0.23071042
0.044212818 0.1768513 0.21050319
0.043815933 0.13144779 0.19065884
0.043425955 0.086851977 0.17116006
0.043042865 0.043042831 0.15200531
0.04266661 -5.9604645e-08 0.13319287
0.042296741 -0.042296778 0.11469939
0.041933227 -0.083866425 0.096523583
0.041576046 -0.12472811 0.078664474
0.041224763 -0.16489908 0.061100401
0.040879495 -0.2043975 0.043837138
0.040539838 -0.24323899 0.026854277
0.04020578 -0.28144053 0.010151207
0.039877303 -0.31901848 -0.0062725693
0.03955403 -0.35598624 -0.022436216
0.039235953 -0.39235952 -0.038340047
0.038923074 -0.42815375 -0.053984091
0.038615022 -0.46338031 -0.069386452
0.038311813 -0.49805361 -0.084547088
0.038013443 -0.53218818 -0.099465638
0.10201404 0.91812634 0.55021328
0.10095902 0.85815156 0.52383769
0.09992519 0.79940152 0.49799222
0.098912723 0.74184549 0.47268021
0.097920179 0.68544132 0.4478668
0.096947722 0.63016021 0.42355543
0.095994033 0.57596433 0.39971319
0.095059283 0.52282596 0.37634435
0.094142213 0.47071102 0.35341758
0.093243003 0.4195936 0.33093756
0.092360474 0.36944202 0.30887434
0.091494836 0.32023203 0.28723311
0.090644941 0.27193478 0.26598567
0.089811005 0.22452748 0.24513738
0.088992275 0.17798457 0.22466937
0.088188037 0.13228205 0.20456311
0.087398201 0.087398209 0.18481719
0.086622685 0.043311413 0.16542935
0.085860513 -3.7252903e-08 0.14637515
0.08511164 -0.042555902 0.12765324
0.084376 -0.084376022 0.10926231
0.08365269 -0.12547903 0.091179535
0.082941674 -0.16588327 0.073404223
0.082242914 -0.20560728 0.055935189
0.081555568 -0.24466665 0.038751423
0.080879875 -0.28307956 0.02185902
0.080215022 -0.32086015 0.0052378476
0.079561017 -0.35802466 -0.011112198
0.078917839 -0.39458919 -0.027191728
0.078284733 -0.43056598 -0.043019459
0.077661701 -0.46597019 -0.05859524
0.077048741 -0.50081682 -0.073919177
0.12752841 -0.89269882 1.1880727
0.15415344 0.92492068 0.56908631
0.1525469 0.86443239 0.54231048
0.15097411 0.80519527 0.51609737
0.14943282 0.74716413 0.49040934
0.14792328 0.69030851 0.46525007
0.14644334 0.63458765 0.44058448
0.14499329 0.57997304 0.41641703
0.14357112 0.52642739 0.39271438
0.14217713 0.47392362 0.36948103
0.14080942 0.42242813 0.3466858
0.13946827 0.37191549 0.32433355
0.13815245 0.3223556 0.30240285
0.13686071 0.27372137 0.28087398
0.1355934 0.22598904 0.25975224
0.13434887 0.17913179 0.23901007
0.13312697 0.13312697 0.21864507
0.13192756 0.087951675 0.19865496
0.13074912 0.04358311 0.17901428
0.12959154 7.4505806e-09 0.15972134
0.12845472 -0.042818282 0.14077428
0.12733723 -0.084891506 0.12214971
0.12623903 -0.126239 0.10384615
0.12516002 -0.16688004 0.085862637
0.12409889 -0.20683146 0.068177298
0.12305561 -0.24611124 0.050789155
0.12203012 -0.28473687 0.033697516
0.12102118 -0.32272312 0.016881913
0.12002917 -0.36008745 0.00034844875
0.11905292 -0.39684314 -0.015922323
0.11809242 -0.43300551 -0.03193064
0.11714766 -0.46859056 -0.047676623
0.11621754 -0.5036093 -0.063178629
0.20706943 0.93181235 0.58822989
0.20489633 0.87080944 0.56106651
0.20276757 0.8110702 0.53445685
0.20068337 0.75256276 0.50840455
0.19864081 0.69524282 0.48287249
0.19664016 0.63908064 0.4578644
0.19467868 0.58403605 0.43334585
0.19275668 0.53008074 0.40932056
0.19087152 0.47717881 0.38575622
0.1890236 0.42530313 0.36265728
0.18721111 0.37442225 0.34000123
0.18543237 0.32450673 0.31776693
0.18368711 0.27553064 0.29595113
0.18197505 0.22746882 0.27455047
0.18029398 0.18029404 0.253537
0.17864367 0.13398282 0.2329081
0.17702392 0.088512003 0.21266128
0.17543267 0.043858141 0.19277078
0.17387038 -3.7252903e-08 0.17324206
0.17233507 -0.043083746 0.15405071
0.17082664 -0.085413232 0.13519536
0.16934496 -0.12700877 0.11667424
0.16788819 -0.16788818 0.098464824
0.16645628 -0.20807041 0.080565989
0.16504915 -0.24757373 0.062976457
0.16366504 -0.28641382 0.045675285
0.16230397 -0.32460788 0.028661892
0.16096587 -0.3621732 0.011935622
0.15964915 -0.39912283 -0.0045234412
0.15835378 -0.43547297 -0.020715401
0.15707977 -0.47123921 -0.036640733
0.1558256 -0.50643313 -0.052317634
0.26078096 0.93881148 0.60767186
0.25802279 0.87727761 0.58009022
0.25532341 0.81703478 0.55309629
0.2526789 0.75803661 0.5266512
0.25008959 0.70025098 0.50075829
0.24755187 0.64363474 0.47538084
0.24506605 0.58815849 0.45052278
0.24262968 0.5337854 0.4261592
0.24024035 0.48048085 0.40226591
0.23789853 0.42821735 0.37884754
0.23560105 0.37696159 0.35587254
0.23334749 0.32668653 0.33333722
0.2311375 0.27736503 0.31123737
0.22896814 0.2289682 0.28954366
0.22683913 0.1814713 0.26825359
0.22475013 0.13485 0.24736369
0.22269849 0.089079469 0.22684723
0.22068474 0.044136994 0.20670962
0.21870632 2.2351742e-08 0.18692549
0.21676305 -0.043352619 0.1674929
0.21485475 -0.085941896 0.14840981
0.21297903 -0.12778738 0.12965263
0.21113579 -0.16890866 0.11122003
0.20932487 -0.20932484 0.093110815
0.20754404 -0.24905285 0.075302817
0.20579329 -0.28811061 0.057795189
0.20407248 -0.32651594 0.040587157
0.20237957 -0.3642832 0.023657858
0.2007145 -0.40142894 0.0070072711
0.19907723 -0.43796986 -0.0093653202
0.19746585 -0.47391799 -0.025479168
0.30401614 -0.79044211 1.0400238
0.31530419 0.9459126 0.62739712
0.31194571 0.88384616 0.59940964
0.30865672 0.82308447 0.57200158
0.30543762 0.76359397 0.54517579
0.30228376 0.70532882 0.51889384
0.29919559 0.64825714 0.4931587
0.29616982 0.59233958 0.4679442
0.29320353 0.53753984 0.44322515
0.29029718 0.48382875 0.41900551
0.2874468 0.43117028 0.3952522
0.28465182 0.37953582 0.37196091
0.28191173 0.32889709 0.34912691
0.27922291 0.27922294 0.32671979
0.27658483 0.23048732 0.30473584
0.27399713 0.18266484 0.28317186
0.27145648 0.13572818 0.26199952
0.26896247 0.089654177 0.24121618
0.26651481 0.044419177 0.22081912
0.26411039 -0 0.20078218
0.26174897 -0.043624789 0.18110371
0.25943029 -0.086476721 0.16178134
0.25715145 -0.12857574 0.1427909
0.25491232 -0.16994148 0.12413136
0.25271264 -0.21059385 0.10580099
0.25054979 -0.25054982 0.087777145
0.24842449 -0.28982848 0.070066199
0.24633411 -0.32844543 0.052646488
0.24427861 -0.36641788 0.035517499
0.24225794 -0.40376329 0.018678427
0.24026965 -0.44049436 0.00210917
0.2383137 -0.47662735 -0.014190122
0.37066007 0.95312589 0.64743435
0.36668065 0.89051008 0.61900961
0.36278722 0.82922792 0.59119976
0.35897419 0.76923043 0.56396359
0.35524186 0.71048379 0.53730428
0.3515864 0.65294611 0.51119363
0.34800401 0.59657818 0.48560506
0.34449521 0.54134953 0.46054226
0.34105515 0.4872216 0.4359706
0.33768311 0.43416399 0.41188464
0.33437839 0.38214669 0.38827938
0.33113649 0.33113644 0.36512277
0.3279568 0.28110588 0.34241083
0.32483882 0.23202772 0.32013971
0.32177842 0.18387333 0.29827935
0.31877509 0.13661793 0.27682722
0.31582847 0.090236679 0.25577995
0.3129347 0.044704959 0.23511016
0.31009349 4.4703484e-08 0.21481578
0.3073045 -0.043900639 0.19489436
0.30456412 -0.087018378 0.17532033
0.30187225 -0.12937377 0.15609244
0.29922852 -0.17098773 0.13720872
0.2966297 -0.21187837 0.11864576
0.29407659 -0.25206572 0.10040964
0.29156616 -0.2915661 0.082477666
0.28909817 -0.33039784 0.064849347
0.28667256 -0.36857894 0.047523439
0.28428641 -0.4061234 0.030479357
0.28193963 -0.443048 0.013716847
0.27963218 -0.47936949 -0.0027649403
0.42686489 0.960446 0.667768
0.42224902 0.8972792 0.63891864
0.41773012 0.83546031 0.61067569
0.41330865 0.77495378 0.58304143
0.40897813 0.71571183 0.55597568
0.40473905 0.65770096 0.52948129
0.40058532 0.60087788 0.50352061
0.39651757 0.54521161 0.47809714
0.39253005 0.49066254 0.45317534
0.38862348 0.43720138 0.42875901
0.38479242 0.38479233 0.40481472
0.3810361 0.3334066 0.38133812
0.37735388 0.28301543 0.3583239
0.37374073 0.23358785 0.33574182
0.37019613 0.18509811 0.31358805
0.36671945 0.13751985 0.291859
0.36330619 0.090826645 0.27052587
0.35995588 0.044994451 0.24958633
0.356668 1.1920929e-07 0.22903736
0.35343844 -0.044179723 0.20885263
0.35026684 -0.087566681 0.18903007
0.34715286 -0.13018239 0.16956764
0.34409258 -0.1720463 0.15044093
0.34108576 -0.21317859 0.1316483
0.3381322 -0.25359914 0.11318861
0.33522823 -0.29332471 0.095038712
0.33237374 -0.33237374 0.077197962
0.32956848 -0.37076455 0.059665322
0.32680914 -0.40851143 0.042419314
0.32409665 -0.44563287 0.025466397
0.46484035 -0.69726056 0.90511429
0.4893325 1.0330352 0.7183758
0.48394182 0.96788341 0.68842775
0.47866663 0.90414798 0.65912116
0.47350717 0.84179044 0.63045746
0.4684577 0.78076303 0.60240519
0.46351296 0.7210201 0.57493424
0.45867151 0.66252542 0.54803705
0.45393193 0.60524273 0.52170646
0.44928756 0.54912931 0.49590424
0.44473726 0.49415243 0.47062474
0.4402799 0.44027996 0.44586173
0.43590933 0.38747498 0.42158076
0.43162632 0.33570945 0.39778629
0.42742506 0.28495008 0.37444583
0.4233048 0.23516922 0.35155544
0.41926473 0.18633986 0.32911062
0.41529953 0.13843323 0.30708194
0.41140866 0.091424115 0.28546593
0.40759146 0.04528787 0.2642594
0.40384302 1.4901161e-08 0.24343464
0.40016294 -0.044462569 0.22298956
0.39655066 -0.088122383 0.20292142
0.39300165 -0.13100055 0.18320477
0.38951561 -0.17311801 0.16383785
0.38609216 -0.21449563 0.14481872
0.38272712 -0.25515142 0.12612398
0.37942019 -0.29510462 0.10775227
0.3761712 -0.33437437 0.089702219
0.37297612 -0.37297601 0.071951881
0.36983609 -0.41092902 0.05450727
0.36674732 -0.44824672 0.037347212
0.5479936 1.041188 0.73983032
0.54190725 0.97543299 0.70939851
0.53595692 0.91112661 0.67964679
0.53013581 0.84821737 0.65054148
0.52443761 0.78665638 0.6220504
0.51886064 0.72640491 0.59416562
0.51340312 0.66742402 0.56687772
0.50805718 0.60966873 0.54014814
0.50282133 0.55310339 0.51396906
0.49769434 0.49769434 0.48833412
0.49266893 0.44340199 0.46320686
0.48774397 0.39019516 0.43858209
0.48291835 0.33804277 0.41445383
0.47818547 0.28691119 0.39078954
0.47354624 0.23677313 0.3675935
0.46899441 0.18759772 0.3448343
0.46452928 0.13935885 0.32250851
0.46015 0.092029989 0.30061227
0.45585093 0.045585133 0.27911684
0.4516314 -2.9802322e-08 0.25801924
0.44749087 -0.044749089 0.23731658
0.44342402 -0.088684797 0.21698231
0.43943042 -0.13182914 0.1970143
0.43550962 -0.17420381 0.17741022
0.43165669 -0.21582836 0.15814564
0.42787129 -0.25672275 0.13921887
0.42415318 -0.29690719 0.12062823
0.42049775 -0.33639824 0.10235091
0.41690475 -0.37521413 0.084385991
0.41337398 -0.41337407 0.066732258
0.4099012 -0.45089132 0.049368262
0.60758799 1.0494701 0.76162577
0.60078675 0.98310542 0.73071074
0.5941385 0.91821414 0.70049185
0.58763337 0.85473949 0.67092311
0.58126915 0.79263967 0.6419946
0.57504362 0.73187375 0.61369705
0.56894779 0.67239296 0.58598864
0.56297976 0.61415982 0.55886149
0.55713797 0.55713791 0.53230739
0.55141389 0.50128531 0.50628901
0.54580629 0.44656864 0.48079976
0.54031366 0.39295542 0.45583349
0.53492844 0.34040904 0.43135521
0.5296495 0.28889972 0.40735987
0.52447569 0.23839809 0.38384283
0.51940006 0.18887281 0.36077172
0.51442361 0.14029732 0.33815145
0.50953978 0.092643566 0.31595218
0.50474781 0.045886181 0.29417044
0.50004697 -1.4901161e-08 0.2728028
0.49543104 -0.045039169 0.2518214
0.49089959 -0.089254446 0.23122388
0.48645189 -0.13266872 0.21100746
0.48208255 -0.17530271 0.19114645
0.47779089 -0.21717764 0.17163892
0.47357661 -0.25831455 0.15248325
0.46943444 -0.29873094 0.13365516
0.4653641 -0.33844662 0.11515365
0.46136528 -0.37748063 0.096977174
0.45743307 -0.41584831 0.0791035
0.66813517 1.0578806 0.78375876
0.66059971 0.99089956 0.752361
0.65322953 0.92540842 0.72165203
0.64602202 0.86136264 0.69162071
0.63897449 0.79871804 0.66225588
0.63207638 0.73742235 0.63351393
0.62532568 0.67743605 0.60538584
0.61872017 0.61872017 0.57786298
0.61225027 0.56122947 0.55090505
0.60591429 0.50492847 0.52450514
0.59971046 0.44978282 0.49865589
0.59363008 0.39575347 0.47332087
0.5876717 0.34280846 0.44849443
0.58183408 0.29091707 0.42417091
0.57610905 0.24004541 0.40031639
0.57049555 0.19016516 0.37692717
0.56499255 0.14124805 0.3539978
0.5595926 0.093265489 0.33149812
0.55429691 0.046191484 0.30943283
0.54909855 4.4703484e-08 0.28777289
0.54399681 -0.045333117 0.26651552
0.53899086 -0.089831807 0.24565762
0.53407437 -0.13351855 0.22517213
0.52924675 -0.17641564 0.20505692
0.5245074 -0.21854472 0.18530974
0.51985043 -0.25992519 0.16590574
0.51527542 -0.30057731 0.14684317
0.510782 -0.34052131 0.12812045
0.50636446 -0.37977329 0.10971434
0.50202274 -0.41835243 0.091623858
0.72136551 0.99881393 0.77434522
0.71325386 0.93271661 0.7431463
0.7053256 0.86809301 0.71265304
0.69756871 0.80488694 0.68281883
0.68998057 0.74305606 0.65363371
0.68255854 0.68255848 0.62508738
0.67529178 0.62334621 0.59713817
0.66817802 0.56538141 0.56977779
0.66121531 0.50862724 0.54299808
0.65439361 0.45304161 0.51676065
0.64771122 0.39859143 0.49105912
0.64116639 0.3452433 0.46588677
0.63475007 0.29296145 0.44120866
0.62846088 0.24171573 0.41701955
0.62229753 0.19147617 0.3933143
0.61625153 0.14221185 0.37006041
0.61032188 0.093895681 0.34725404
0.60450751 0.046500534 0.324891
0.5988006 1.4901161e-08 0.30294162
0.59320265 -0.045630999 0.28141096
0.58770633 -0.090416335 0.26027119
0.58231086 -0.13437945 0.23951939
0.57701558 -0.17754331 0.21915303
0.57181382 -0.2199284 0.1991462
0.56670493 -0.26155612 0.17949671
0.56168848 -0.30244762 0.16020267
0.55675817 -0.34262046 0.14123987
0.55191368 -0.38209406 0.12260707
0.70334834 -0.5410372 0.70504826
0.76555991 0.87492549 0.73400474
0.75707507 0.81115186 0.70370179
0.7487762 0.74877614 0.67406303
0.74066037 0.68775606 0.645078
0.73271567 0.62804192 0.61670375
0.72493953 0.56959534 0.58893186
0.71732956 0.51237822 0.56175357
0.70987493 0.45634806 0.53512973
0.7025764 0.40147224 0.50906372
0.69542366 0.34771186 0.48351836
0.68841517 0.29503509 0.45848787
0.68154907 0.2434105 0.43396622
0.67481607 0.19280463 0.40991974
0.6682148 0.14318889 0.38634369
0.66174382 0.094534889 0.3632333
0.65539461 0.04681395 0.34055746
0.64916611 -2.9802322e-08 0.3183127
0.64305717 -0.045932621 0.29649508
0.63705987 -0.091008522 0.27507603
0.63117564 -0.13525188 0.25406092
0.62539691 -0.17868477 0.23342258
0.61972302 -0.2213297 0.21315877
0.61415327 -0.2632086 0.19326687
0.60868067 -0.30434024 0.17372186
0.60330474 -0.34474561 0.15452212
0.59802496 -0.38444453 0.13566573
0.80848759 0.75458848 0.69482094
0.79965395 0.69303346 0.66537541
0.79101127 0.63280898 0.6365664
0.78255665 0.57387495 0.60838437
0.77427763 0.51618505 0.58078772
0.76617515 0.45970508 0.55377924
0.75823736 0.4043932 0.52732021
0.75046241 0.35021591 0.50140369
0.74284822 0.29713929 0.4760229
0.73538405 0.24512798 0.45114249
0.72806847 0.19415154 0.42675722
0.7208997 0.14418003 0.40286133
0.71386808 0.095182374 0.37942258
0.7069723 0.047131479 0.3564364
0.70021099 4.4703484e-08 0.33389905
0.69357532 -0.046238378 0.31177992
0.68706423 -0.091608509 0.29007626
0.68067664 -0.13613534 0.26878443
0.67440438 -0.17984112 0.24787688
0.66824901 -0.22274961 0.22735886
0.66220266 -0.26488107 0.20720436
0.65626472 -0.30625692 0.1874114
0.65043455 -0.34689838 0.16797762
0.64470494 -0.38682291 0.14887869
0.8502022 0.63765162 0.65674424
0.84104258 0.57821685 0.62812036
0.83207834 0.52004892 0.60010707
0.82330644 0.46310991 0.5726949
0.81471425 0.40735716 0.54584438
0.80629957 0.35275602 0.51954854
0.79806012 0.29927251 0.49380019
0.78998423 0.24687019 0.46856311
0.78207016 0.19551755 0.44383144
0.77431607 0.14518431 0.41960004
0.76671129 0.09583886 0.39583504
0.75925732 0.047453508 0.37254134
0.75194407 -7.4505806e-08 0.34968758
0.74477035 -0.046548083 0.32726967
0.73773497 -0.092216924 0.30528402
0.73082852 -0.13703036 0.28370148
0.72405028 -0.18101266 0.26251942
0.71739912 -0.22418712 0.24173458
0.71086657 -0.26657492 0.22132023
0.70445186 -0.30819762 0.20127435
0.69815439 -0.34907711 0.1815946
0.89075446 0.52397329 0.61972851
0.88129032 0.46656543 0.59189242
0.87202507 0.41036478 0.56464195
0.86295617 0.35533485 0.53796852
0.85407054 0.30143657 0.51183432
0.84536594 0.24863705 0.4862327
0.83684033 0.19690356 0.46115744
0.82848179 0.14620265 0.43657351
0.8202917 0.096504912 0.41248488
0.8122589 0.047779933 0.38885885
0.80438179 -4.4703484e-08 0.36569104
0.79665905 -0.046862289 0.34297699
0.7890802 -0.092832915 0.32068649
0.78164428 -0.13793728 0.29881603
0.77434993 -0.18219997 0.27736211
0.76718777 -0.22564352 0.25629693
0.76015687 -0.26829055 0.23561773
0.75325632 -0.31016433 0.21532194
0.74647731 -0.35128352 0.19538373
0.93019235 0.41341889 0.5837298
0.92044348 0.35795036 0.5566498
0.91089684 0.3036322 0.53013116
0.90154988 0.25043058 0.50416738
0.89238918 0.19830865 0.47872111
0.88341278 0.14723547 0.45378673
0.87461859 0.097179949 0.42935839
0.86599439 0.048110649 0.40540233
0.8575387 5.9604645e-08 0.38191411
0.84924966 -0.047180429 0.35888907
0.84111619 -0.093457401 0.33629608
0.83314013 -0.1388568 0.31414044
0.82531089 -0.18340236 0.29239258
0.81762749 -0.22711883 0.27104962
0.81008869 -0.2700296 0.25010857
0.80268478 -0.31215516 0.22954212
0.79541498 -0.35351768 0.20934834
0.97878331 0.36060444 0.57560796
0.96856111 0.30586147 0.54870737
0.95854628 0.25224915 0.52235258
0.94873643 0.19973412 0.49653721
0.93912911 0.14828368 0.47125465
0.92971075 0.09786436 0.44646949
0.92047942 0.048446283 0.42217648
0.9114331 -4.4703484e-08 0.39837033
0.90255946 -0.047503173 0.37501866
0.89386022 -0.094090596 0.35212606
0.88532388 -0.13978802 0.32966185
0.87694895 -0.18462083 0.3076227
0.86873424 -0.22861424 0.28600496
0.86066884 -0.27179012 0.26478034
0.85275179 -0.31417167 0.24394603
1.0163766 0.25409418 0.54080361
1.0059036 0.20118079 0.51462132
0.99564034 0.14934604 0.48896304
0.98558444 0.098558456 0.46382332
0.9757334 0.048786774 0.43919575
0.96607357 -7.4505806e-08 0.41504633
0.95660323 -0.047830105 0.39137036
0.94732022 -0.094732106 0.36816299
0.93821228 -0.14073181 0.34539294
0.92927772 -0.18585557 0.32305661
0.92051512 -0.23012877 0.30114999
0.91191292 -0.27357388 0.27964452
0.90347326 -0.3162156 0.25854537
1.0529673 0.15042387 0.50692713
1.0422604 0.099262774 0.48143488
1.0317652 0.049131781 0.45644629
1.0214792 -5.9604645e-08 0.43195564
1.0114002 -0.048161983 0.40795794
1.0015143 -0.095382363 0.38442007
0.9918198 -0.14168856 0.3613379
0.98231471 -0.18710756 0.33870697
0.97298664 -0.2316635 0.31649712
0.96383411 -0.27538106 0.29470527
1.0234187 -0.34113953 0.43657345
1.0885953 0.04948163 0.4739424
1.0776703 -5.9604645e-08 0.44911307
1.0669585 -0.048498139 0.42476791
1.0564575 -0.096041575 0.40090197
1.0461651 -0.14265877 0.37751013
1.0360674 -0.18837583 0.35456073
1.0261627 -0.23321879 0.33205035
1.0164495 -0.27721348 0.30997455
1.1232978 -0.048839018 0.44181421
1.1121696 -0.096710503 0.41762245
1.1012557 -0.1436421 0.39389616
1.0905536 -0.18966147 0.37063104
1.0800617 -0.23479611 0.34782264
1.0697658 -0.27906936 0.32544023
1.1571107 -0.14463888 0.41050982
1.1457931 -0.19096559 0.38693127
1.1346904 -0.23639393 0.36380064
1.1900676 -0.23801355 0.37999773
