# .PCD v0.7 - Point Cloud Data file format
VERSION 0.7
FIELDS x y z
SIZE 4 4 4
TYPE F F F
COUNT 1 1 1
WIDTH 1009
HEIGHT 1
VIEWPOINT 0 0 0 1 0 0 0
POINTS 1009
DATA ascii
-0.56064349 0.24917492 -0.44279459
-0.53653371 0.25248644 -0.42209733
-0.53653371 0.22092563 -0.42209744
-0.53653371 0.18936478 -0.42209744
-0.51177573 0.2878738 -0.40083855
-0.51177573 0.25588793 -0.40083852
-0.51177573 0.2239019 -0.40083855
-0.51177573 0.19191587 -0.40083855
-0.51177573 0.15992998 -0.40083855
-0.51177573 0.12794395 -0.40083858
-0.83921391 0.5594759 0.79724187
-0.48634037 0.29180425 -0.37900326
-0.48634037 0.25938156 -0.37900329
-0.48634037 0.22695878 -0.37900323
-0.48634037 0.19453607 -0.37900326
-0.48634037 0.16211338 -0.37900329
-0.48634037 0.12969077 -0.37900323
-0.48634037 0.097268075 -0.37900329
-0.48634037 0.064845428 -0.37900317
-0.79932648 0.57094747 0.85459977
-0.46020198 0.29584414 -0.35655919
-0.46020198 0.26297262 -0.35655916
-0.46020198 0.23010102 -0.35655919
-0.46020079 0.19722891 -0.35656351
-0.46020079 0.16435739 -0.35656345
-0.46020079 0.13148597 -0.35656348
-0.46020079 0.098614499 -0.35656345
-0.46020079 0.065743044 -0.35656345
-0.46020079 0.032871455 -0.35656351
-0.46020079 2.9802322e-08 -0.35656351
-0.43332857 0.33332965 -0.33348939
-0.43332857 0.29999667 -0.33348939
-0.43332857 0.26666373 -0.33348936
-0.43332857 0.23333076 -0.33348936
-0.43332857 0.19999778 -0.33348933
-0.43332857 0.16666481 -0.3334893
-0.43332857 0.13333187 -0.3334893
-0.43332857 0.099998876 -0.33348942
-0.43332857 0.066665947 -0.3334893
-0.43332857 0.033332974 -0.33348942
-0.43332857 5.9604645e-08 -0.33348948
-0.43332857 -0.033332959 -0.33348924
-0.43332857 -0.066665933 -0.33348936
-0.7603541 0.69699121 1.168004
-0.40569001 0.33807501 -0.3097626
-0.40569001 0.30426747 -0.30976266
-0.40569001 0.27045998 -0.30976272
-0.40569001 0.23665251 -0.30976266
-0.40569001 0.20284499 -0.30976257
-0.40569001 0.16903746 -0.3097626
-0.40569001 0.13523012 -0.30976266
-0.40569001 0.10142254 -0.30976266
-0.40569001 0.06761504 -0.30976272
-0.40569001 0.033807456 -0.30976272
-0.40569001 4.4703484e-08 -0.30976272
-0.40569001 -0.033807486 -0.3097626
-0.40569001 -0.067614973 -0.30976272
-0.40569001 -0.10142247 -0.3097626
-0.40569001 -0.13522997 -0.30976269
-0.40569001 -0.16903757 -0.30976266
-0.37725416 0.37725413 -0.28534597
-0.37725416 0.34295833 -0.28534606
-0.37725416 0.30866247 -0.28534606
-0.37725416 0.27436677 -0.28534591
-0.37725416 0.24007089 -0.28534594
-0.37725416 0.20577496 -0.28534594
-0.37725416 0.17147911 -0.28534597
-0.37725416 0.13718331 -0.28534591
-0.37725416 0.10288744 -0.28534594
-0.37725416 0.068591572 -0.28534597
-0.37725416 0.034295782 -0.28534591
-0.37725416 -8.9406967e-08 -0.28534594
-0.37725416 -0.03429579 -0.28534597
-0.37725317 -0.068591401 -0.28535062
-0.37725317 -0.10288727 -0.28535065
-0.37725317 -0.13718297 -0.28535068
-0.37725317 -0.17147866 -0.28535068
-0.37725317 -0.20577446 -0.28535062
-0.37725317 -0.24007016 -0.28535062
-0.34798387 0.38278225 -0.26021844
-0.34798387 0.3479839 -0.26021838
-0.34798387 0.31318548 -0.26021841
-0.34798387 0.27838704 -0.26021844
-0.34798387 0.24358867 -0.2602185
-0.34798387 0.20879036 -0.26021844
-0.34798387 0.17399196 -0.26021835
-0.34798387 0.13919353 -0.26021838
-0.34798387 0.10439517 -0.26021844
-0.34798387 0.069596641 -0.26021838
-0.34798387 0.034798369 -0.26021838
-0.34798387 1.4901161e-08 -0.26021832
-0.34798387 -0.034798324 -0.26021844
-0.34798387 -0.069596767 -0.26021844
-0.34798387 -0.1043952 -0.26021844
-0.34798387 -0.13919356 -0.26021838
-0.34798387 -0.17399192 -0.26021829
-0.34798387 -0.20879026 -0.26021841
-0.34798387 -0.2435887 -0.26021844
-0.34798387 -0.27838704 -0.26021853
-0.34798387 -0.31318551 -0.26021838
-0.55568743 0.74091667 1.0870148
-0.31784385 0.38847581 -0.23433855
-0.31784299 0.3531588 -0.2343435
-0.31784299 0.31784296 -0.23434345
-0.31784299 0.28252709 -0.23434354
-0.31784299 0.2472112 -0.23434347
-0.31784299 0.21189523 -0.23434347
-0.31784299 0.17657945 -0.23434345
-0.31784299 0.14126347 -0.23434347
-0.31784299 0.10594768 -0.23434345
-0.31784299 0.070631713 -0.23434347
-0.31784299 0.035315916 -0.23434347
-0.31784299 4.4703484e-08 -0.23434354
-0.31784299 -0.035315841 -0.23434347
-0.31784299 -0.07063181 -0.23434347
-0.31784299 -0.10594761 -0.23434347
-0.31784299 -0.14126348 -0.23434338
-0.31784299 -0.17657946 -0.23434339
-0.31784299 -0.21189526 -0.23434338
-0.31784299 -0.24721122 -0.23434338
-0.31784299 -0.28252694 -0.23434347
-0.31784299 -0.3178429 -0.23434348
-0.31784299 -0.35315877 -0.23434338
-0.31784299 -0.38847464 -0.23434347
-0.28679287 0.4301894 -0.20768216
-0.28679287 0.39434022 -0.20768219
-0.28679287 0.35849109 -0.20768222
-0.28679287 0.32264203 -0.20768219
-0.28679287 0.28679287 -0.20768221
-0.28679287 0.25094384 -0.20768216
-0.28679287 0.21509475 -0.20768225
-0.28679287 0.17924561 -0.20768213
-0.28679287 0.14339648 -0.20768219
-0.28679287 0.10754736 -0.20768222
-0.28679287 0.071698211 -0.2076821
-0.28679287 0.035849102 -0.20768233
-0.28679287 -3.7252903e-08 -0.20768222
-0.28679287 -0.035849161 -0.20768225
-0.28679287 -0.071698219 -0.20768222
-0.28679287 -0.10754734 -0.20768227
-0.28679287 -0.14339647 -0.20768231
-0.28679287 -0.17924552 -0.20768228
-0.28679207 -0.21509409 -0.20768736
-0.28679207 -0.25094315 -0.20768732
-0.28679207 -0.28679204 -0.20768726
-0.28679207 -0.32264107 -0.20768738
-0.28679207 -0.35849005 -0.20768726
-0.28679207 -0.39433908 -0.20768738
-0.28679207 -0.43018812 -0.20768735
-0.28679207 -0.46603709 -0.20768721
-0.4238171 0.78708881 1.0271273
-0.25479004 0.43678293 -0.18020886
-0.25479004 0.40038437 -0.1802088
-0.25479004 0.36398584 -0.18020874
-0.25479004 0.32758728 -0.18020877
-0.25479004 0.29118866 -0.1802088
-0.25479004 0.25479004 -0.18020882
-0.25479004 0.21839148 -0.18020873
-0.25479004 0.18199286 -0.18020874
-0.25479004 0.14559427 -0.18020877
-0.25479004 0.10919565 -0.1802088
-0.25479004 0.07279706 -0.18020883
-0.25479004 0.036398597 -0.18020867
-0.25479004 -7.4505806e-09 -0.18020868
-0.25479004 -0.036398612 -0.18020871
-0.25479004 -0.072797209 -0.18020874
-0.25479004 -0.10919581 -0.18020877
-0.25479004 -0.14559434 -0.18020871
-0.25479004 -0.18199295 -0.18020874
-0.25479004 -0.21839155 -0.18020876
-0.25479004 -0.25479016 -0.18020879
-0.25479004 -0.29118869 -0.18020871
-0.25479004 -0.32758722 -0.18020865
-0.25479004 -0.36398584 -0.18020868
-0.25479004 -0.40038443 -0.18020871
-0.25479004 -0.43678302 -0.18020871
-0.25479004 -0.47318166 -0.18020874
-0.25479004 -0.50958008 -0.18020877
-0.25479004 -0.54597867 -0.1802088
-0.22179158 0.48054841 -0.15187462
-0.22179158 0.44358319 -0.15187463
-0.22179158 0.40661794 -0.15187462
-0.22179158 0.36965257 -0.15187466
-0.22179158 0.33268732 -0.15187468
-0.22179158 0.29572207 -0.15187468
-0.22179158 0.25875682 -0.15187466
-0.22179092 0.22179089 -0.15188004
-0.22179092 0.18482573 -0.15188012
-0.22179092 0.14786059 -0.15188003
-0.22179092 0.1108955 -0.15188001
-0.22179092 0.073930353 -0.15188009
-0.22179092 0.036965277 -0.15188007
-0.22179092 -5.9604645e-08 -0.15188
-0.22179092 -0.036965206 -0.15188006
-0.22179092 -0.073930278 -0.15188004
-0.22179092 -0.11089553 -0.15188006
-0.22179092 -0.14786059 -0.15188003
-0.22179092 -0.18482575 -0.1518801
-0.22179092 -0.22179082 -0.1518801
-0.22179092 -0.25875607 -0.15188009
-0.22179092 -0.29572123 -0.15188
-0.22179092 -0.33268631 -0.15188
-0.22179092 -0.36965162 -0.15188007
-0.22179092 -0.40661669 -0.15188004
-0.22179092 -0.44358182 -0.15188015
-0.22179092 -0.48054692 -0.15188012
-0.22179092 -0.51751208 -0.15188001
-0.22179092 -0.55447733 -0.15188003
-0.22179092 -0.59144241 -0.15188001
-0.22179092 -0.62840772 -0.15188006
-0.22179092 -0.66537273 -0.15188003
-0.18774879 0.48814684 -0.12264988
-0.18774879 0.45059705 -0.12264992
-0.18774879 0.41304728 -0.12264991
-0.18774879 0.37549758 -0.12264993
-0.18774879 0.33794785 -0.12264977
-0.18774879 0.30039805 -0.12264988
-0.18774879 0.26284826 -0.1226498
-0.18774879 0.22529864 -0.1226499
-0.18774879 0.18774885 -0.12264985
-0.18774879 0.15019895 -0.12264986
-0.18774879 0.11264925 -0.12264989
-0.18774879 0.075099453 -0.12264982
-0.18774879 0.037549742 -0.12264983
-0.18774879 -4.4703484e-08 -0.12264994
-0.18774879 -0.037549678 -0.12264986
-0.18774879 -0.075099476 -0.1226498
-0.18774879 -0.11264919 -0.12264982
-0.18774879 -0.15019907 -0.12264984
-0.18774879 -0.18774879 -0.12264985
-0.18774879 -0.22529849 -0.12264988
-0.18774879 -0.26284829 -0.12264981
-0.18774879 -0.30039808 -0.12264991
-0.18774879 -0.33794788 -0.12264984
-0.18774822 -0.37549651 -0.12265553
-0.18774822 -0.41304612 -0.12265547
-0.18774822 -0.45059586 -0.12265545
-0.18774822 -0.48814538 -0.12265547
-0.18774822 -0.52569509 -0.1226555
-0.18774822 -0.5632447 -0.12265541
-0.18774822 -0.60079426 -0.12265542
-0.18774822 -0.63834387 -0.12265548
-0.18774822 -0.67589355 -0.12265548
-0.18774822 -0.71344328 -0.12265548
-0.18774822 -0.75099289 -0.12265542
-0.23625983 0.82690924 0.9531101
-0.15261213 0.49598944 -0.092486054
-0.15261213 0.45783645 -0.092486039
-0.15261213 0.41968334 -0.092485979
-0.15261213 0.38153034 -0.092486128
-0.15261213 0.3433772 -0.092486031
-0.15261213 0.30522421 -0.092486054
-0.15261213 0.26707119 -0.092486039
-0.15261213 0.22891816 -0.092486024
-0.15261213 0.19076514 -0.092486002
-0.15261213 0.15261211 -0.092485987
-0.15261213 0.11445916 -0.092486054
-0.15261213 0.076306142 -0.092486031
-0.15261213 0.038153104 -0.092486016
-0.15261213 -8.9406967e-08 -0.092486009
-0.15261213 -0.038153119 -0.092485994
-0.15261213 -0.07630606 -0.092486054
-0.15261213 -0.11445909 -0.092486039
-0.15261213 -0.15261212 -0.092486024
-0.15261213 -0.19076514 -0.092486009
-0.15261213 -0.22891818 -0.092485979
-0.15261213 -0.26707131 -0.092486054
-0.15261213 -0.30522424 -0.092486121
-0.15261213 -0.34337723 -0.092486113
-0.15261213 -0.38153037 -0.092486009
-0.15261213 -0.4196834 -0.092486009
-0.15261213 -0.45783645 -0.092485964
-0.15261213 -0.49598938 -0.092486024
-0.15261213 -0.53414249 -0.092486098
-0.15261213 -0.57229549 -0.092486084
-0.15261213 -0.61044854 -0.092486084
-0.15261213 -0.64860153 -0.092486054
-0.15261213 -0.68675458 -0.092486054
-0.15261213 -0.72490764 -0.092486024
-0.15261213 -0.76306069 -0.092485994
-0.15261213 -0.80121374 -0.092486054
-0.15261167 -0.83936429 -0.092491746
-0.1163284 0.54286581 -0.061331213
-0.1163284 0.50408965 -0.061331213
-0.1163284 0.46531361 -0.061331183
-0.1163284 0.42653739 -0.061331168
-0.1163284 0.38776124 -0.061331168
-0.1163284 0.3489852 -0.061331153
-0.1163284 0.31020901 -0.061331287
-0.1163284 0.27143288 -0.061331175
-0.1163284 0.23265675 -0.061331227
-0.1163284 0.19388072 -0.061331194
-0.1163284 0.1551045 -0.061331172
-0.1163284 0.11632839 -0.061331227
-0.11632804 0.077552028 -0.061337214
-0.11632804 0.038775988 -0.06133718
-0.11632804 3.3527613e-08 -0.061337221
-0.11632804 -0.038775932 -0.061337095
-0.11632804 -0.07755205 -0.061337147
-0.11632804 -0.116328 -0.061337192
-0.11632804 -0.15510404 -0.061337158
-0.11632804 -0.19388008 -0.061337121
-0.11632804 -0.23265603 -0.061337173
-0.11632804 -0.27143216 -0.061337218
-0.11632804 -0.31020814 -0.061337084
-0.11632804 -0.34898406 -0.061337143
-0.11632804 -0.3877601 -0.061337098
-0.11632804 -0.42653608 -0.061337143
-0.11632804 -0.465312 -0.061337188
-0.11632804 -0.50408816 -0.061337233
-0.11632804 -0.5428642 -0.061337203
-0.11632804 -0.58164012 -0.061337233
-0.11632804 -0.6204161 -0.061337143
-0.11632804 -0.65919214 -0.061337084
-0.11632804 -0.69796818 -0.061337233
-0.11632804 -0.73674423 -0.061337173
-0.11632804 -0.77552027 -0.061337143
-0.11632804 -0.81429613 -0.061337143
-0.11632804 -0.85307229 -0.061337173
-0.11632804 -0.89184821 -0.061337203
-0.11632804 -0.93062425 -0.061337173
-0.078839593 0.55187714 -0.029148012
-0.078839593 0.51245737 -0.029148027
-0.078839593 0.47303751 -0.029147997
-0.078839593 0.43361771 -0.029147997
-0.078839593 0.39419797 -0.029148027
-0.078839593 0.35477811 -0.029147997
-0.078839593 0.31535837 -0.029148027
-0.078839593 0.27593851 -0.029147975
-0.078839593 0.23651876 -0.029148012
-0.078839593 0.19709891 -0.029147968
-0.078839593 0.15767916 -0.029148001
-0.078839593 0.1182593 -0.029147957
-0.078839593 0.078839645 -0.02914807
-0.078839593 0.039419793 -0.029148025
-0.078839593 3.9115548e-08 -0.029148059
-0.078839593 -0.039419807 -0.029148016
-0.078839593 -0.078839563 -0.029148052
-0.078839593 -0.11825933 -0.029147912
-0.078839593 -0.15767917 -0.029148035
-0.078839593 -0.19709902 -0.02914799
-0.078839593 -0.23651877 -0.029148027
-0.078839593 -0.27593851 -0.029148065
-0.078839593 -0.31535837 -0.029148012
-0.078839593 -0.35477814 -0.029148057
-0.078839593 -0.39419797 -0.029148012
-0.078839593 -0.43361771 -0.029148042
-0.078839593 -0.47303757 -0.029147997
-0.078839593 -0.51245731 -0.029148042
-0.078839347 -0.55187547 -0.029154181
-0.078839347 -0.59129494 -0.029154122
-0.078839347 -0.63071471 -0.029154181
-0.078839347 -0.67013431 -0.029154211
-0.078839347 -0.70955396 -0.029154122
-0.078839347 -0.74897373 -0.029154152
-0.078839347 -0.78839338 -0.029154181
-0.078839347 -0.82781303 -0.029154122
-0.078839347 -0.86723268 -0.029154241
-0.078839347 -0.90665233 -0.029154181
-0.078839347 -0.94607216 -0.029154092
-0.078839347 -0.98549169 -0.029154211
-0.078839347 -1.0249114 -0.029154241
-0.040085312 0.60127974 0.0041280389
-0.040085312 0.56119442 0.0041280389
-0.040085312 0.5211091 0.0041280389
-0.040085312 0.48102373 0.0041280985
-0.040085312 0.44093847 0.0041280687
-0.040085189 0.40085185 0.0041216612
-0.040085189 0.36076671 0.0041216463
-0.040085189 0.32068145 0.0041216314
-0.040085189 0.28059626 0.0041217059
-0.040085189 0.24051106 0.0041216016
-0.040085189 0.20042592 0.0041216016
-0.040085189 0.16034082 0.0041215941
-0.040085189 0.12025551 0.0041217431
-0.040085189 0.080170408 0.0041217394
-0.040085189 0.040085211 0.0041216407
-0.040085189 5.8207661e-09 0.0041217124
-0.040085189 -0.040085185 0.0041216146
-0.040085189 -0.080170393 0.0041216873
-0.040085189 -0.12025551 0.0041216798
-0.040085189 -0.16034079 0.0041216612
-0.040085189 -0.20042589 0.0041216537
-0.040085189 -0.24051109 0.0041215569
-0.040085189 -0.28059632 0.0041216314
-0.040085189 -0.32068157 0.0041216016
-0.040085189 -0.36076671 0.0041216016
-0.040085189 -0.40085191 0.0041216761
-0.040085189 -0.44093704 0.0041216612
-0.040085189 -0.48102212 0.0041216612
-0.040085189 -0.52110744 0.0041216314
-0.040085189 -0.56119263 0.0041217208
-0.040085189 -0.60127771 0.0041217208
-0.040085189 -0.64136291 0.0041216016
-0.040085189 -0.6814481 0.0041216612
-0.040085189 -0.72153342 0.0041216612
-0.040085189 -0.76161844 0.0041215718
-0.040085189 -0.80170381 0.0041216314
-0.040085189 -0.84178901 0.0041217208
-0.040085189 -0.88187414 0.004121691
-0.040085189 -0.9219594 0.0041217506
-0.040085189 -0.9620446 0.004121691
-0.040085189 -1.0021297 0.0041216612
-0.040085189 -1.0422149 0.0041216016
0 0.6116035 0.038540363
0 0.57082987 0.038540363
0 0.53005636 0.038540408
0 0.48928273 0.038540378
0 0.44850916 0.038540348
0 0.40773571 0.038540363
0 0.36696208 0.038540378
0 0.3261885 0.038540319
0 0.2854149 0.038540311
0 0.24464133 0.038540415
0 0.20386779 0.038540334
0 0.16309424 0.038540438
0 0.12232071 0.038540363
0 0.081547156 0.038540289
0 0.040773608 0.038540386
0 -2.2351742e-08 0.038540393
0 -0.040773563 0.038540319
0 -0.081546888 0.038533755
0 -0.12232035 0.038533777
0 -0.16309372 0.038533717
0 -0.20386711 0.038533822
0 -0.24464047 0.03853377
0 -0.28541395 0.038533792
0 -0.32618749 0.038533702
0 -0.36696094 0.038533732
0 -0.40773422 0.038533762
0 -0.4485077 0.038533777
0 -0.48928118 0.038533807
0 -0.53005463 0.038533822
0 -0.57082796 0.038533777
0 -0.61160147 0.038533777
0 -0.65237474 0.038533807
0 -0.69314837 0.038533807
0 -0.73392177 0.038533777
0 -0.77469522 0.038533777
0 -0.81546855 0.038533628
0 -0.85624194 0.038533717
0 -0.89701545 0.038533777
0 -0.93778896 0.038533866
0 -0.97856224 0.038533658
0 -1.0193357 0.038533717
0.05660953 0.90575242 0.83033878
0.041485853 0.62228775 0.074154973
0.041485853 0.58080196 0.074154973
0.041485853 0.53931606 0.074154988
0.041485853 0.49783021 0.074154988
0.041485853 0.45634449 0.074155048
0.041485853 0.41485852 0.074154988
0.041485853 0.37337267 0.074154958
0.041485853 0.33188689 0.074154928
0.041485853 0.29040089 0.074155048
0.041485853 0.24891508 0.07415501
0.041485853 0.20742927 0.074154995
0.041485853 0.16594337 0.074155033
0.041485853 0.12445757 0.074154995
0.041485853 0.082971752 0.074154966
0.041485853 0.041485928 0.0741551
0.041485853 2.6077032e-08 0.074155144
0.041485853 -0.041485861 0.074155018
0.041485853 -0.08297167 0.074154988
0.041485853 -0.12445757 0.074155033
0.041485853 -0.16594338 0.074155003
0.041485853 -0.20742919 0.074154973
0.041485853 -0.2489152 0.074155092
0.041485853 -0.29040098 0.074155062
0.041485853 -0.3318868 0.074155018
0.041485853 -0.3733727 0.074155062
0.041485853 -0.41485852 0.074155033
0.041485853 -0.45634431 0.074155003
0.041485853 -0.4978303 0.074154958
0.041485853 -0.53931618 0.074155003
0.041485853 -0.58080196 0.074154958
0.041485853 -0.62228781 0.074155092
0.041485853 -0.66377366 0.074155092
0.041485853 -0.70525944 0.074155033
0.041485719 -0.7467429 0.074148238
0.041485853 -0.78823113 0.074155033
0.041485853 -0.82971716 0.074155182
0.041485853 -0.87120295 0.074155122
0.041485853 -0.91268885 0.074155062
0.041485853 -0.95417464 0.074155033
0.041485853 -0.99566042 0.074154973
0.084447242 0.67557788 0.11104316
0.084447242 0.63335419 0.11104321
0.084447242 0.59113061 0.11104318
0.084447242 0.54890698 0.11104316
0.084447242 0.50668341 0.11104329
0.084447242 0.46445984 0.11104323
0.084447242 0.42223617 0.11104329
0.084447242 0.38001257 0.11104326
0.084447242 0.33778897 0.11104326
0.084447242 0.29556537 0.11104325
0.084446952 0.25334084 0.11103614
0.084446952 0.21111742 0.11103615
0.084446952 0.16889389 0.11103623
0.084446952 0.12667045 0.11103622
0.084446952 0.084446937 0.11103612
0.084446952 0.042223506 0.11103613
0.084446952 -2.2351742e-08 0.1110362
0.084446952 -0.042223372 0.11103612
0.084446952 -0.084446892 0.1110362
0.084446952 -0.12667051 0.11103618
0.084446952 -0.16889384 0.11103609
0.084446952 -0.21111745 0.11103609
0.084446952 -0.25334081 0.11103617
0.084446952 -0.29556432 0.11103624
0.084446952 -0.33778784 0.11103616
0.084446952 -0.38001129 0.11103615
0.084446952 -0.42223489 0.11103614
0.084446952 -0.46445814 0.11103614
0.084446952 -0.50668168 0.11103621
0.084446952 -0.54890525 0.11103621
0.084446952 -0.59112859 0.11103614
0.084446952 -0.63335222 0.11103612
0.084446952 -0.67557567 0.11103612
0.084446952 -0.71779901 0.11103618
0.084446952 -0.76002264 0.11103618
0.084446952 -0.80224615 0.11103627
0.084446952 -0.84446955 0.11103609
0.084446952 -0.88669312 0.11103615
0.084446952 -0.92891639 0.11103612
0.084446952 -0.97113997 0.11103624
0.12896386 0.68780732 0.14926004
0.12896386 0.64481926 0.1492599
0.12896386 0.60183132 0.14925969
0.12896386 0.55884337 0.1492599
0.12896386 0.51585555 0.1492599
0.12896386 0.47286749 0.1492599
0.12896386 0.42987949 0.14925972
0.12896386 0.38689154 0.14925981
0.12896386 0.3439036 0.14925988
0.12896386 0.30091566 0.14925995
0.12896386 0.25792772 0.14925987
0.12896386 0.2149398 0.14925994
0.12896386 0.17195186 0.14925984
0.12896386 0.12896384 0.14925984
0.12896386 0.085975915 0.14925975
0.12896386 0.042987969 0.14925982
0.12896386 2.9802322e-08 0.1492599
0.12896386 -0.042987991 0.14925988
0.12896386 -0.085975841 0.14925988
0.12896386 -0.12896386 0.14925987
0.12896386 -0.17195179 0.14925978
0.12896386 -0.21493974 0.14925985
0.12896386 -0.25792766 0.14925976
0.12896386 -0.30091569 0.14925992
0.12896386 -0.34390363 0.14925982
0.12896386 -0.38689154 0.14925991
0.12896343 -0.42987806 0.14925256
0.12896343 -0.47286579 0.14925247
0.12896343 -0.51585376 0.14925256
0.12896343 -0.55884147 0.14925259
0.12896343 -0.60182935 0.1492525
0.12896343 -0.64481705 0.14925249
0.12896343 -0.68780488 0.1492525
0.12896343 -0.73079276 0.14925265
0.12896386 -0.77378315 0.1492599
0.12896386 -0.81677115 0.1492599
0.12896386 -0.85975909 0.1492599
0.12896386 -0.90274698 0.14925981
0.12896386 -0.94573498 0.14925995
0.22125235 0.94032264 0.76551688
0.17512187 0.70048755 0.18888572
0.17512187 0.65670705 0.1888857
0.17512187 0.61292648 0.1888857
0.17512187 0.56914604 0.18888564
0.17512187 0.52536553 0.1888856
0.17512187 0.4815852 0.18888573
0.17512187 0.43780467 0.18888567
0.17512187 0.39402419 0.18888563
0.17512187 0.35024369 0.18888557
0.17512187 0.30646327 0.18888561
0.17512187 0.26268277 0.18888557
0.17512187 0.21890229 0.18888551
0.17512187 0.17512187 0.18888557
0.17512187 0.13134146 0.1888856
0.17512187 0.087560952 0.18888555
0.17512187 0.043780543 0.1888856
0.17512187 4.4703484e-08 0.18888554
0.17512187 -0.043780454 0.18888551
0.17512187 -0.087560952 0.18888563
0.17512187 -0.13134146 0.18888557
0.17512187 -0.17512187 0.18888561
0.17512187 -0.21890227 0.18888566
0.17512187 -0.2626828 0.1888856
0.17512187 -0.30646318 0.18888564
0.17512187 -0.35024369 0.1888856
0.17512187 -0.39402416 0.18888554
0.17512187 -0.43780461 0.18888557
0.17512187 -0.48158509 0.18888555
0.17512187 -0.52536559 0.1888855
0.17512187 -0.56914604 0.18888552
0.17512187 -0.61292648 0.18888564
0.17512187 -0.65670693 0.18888552
0.17512187 -0.70048743 0.18888566
0.17512187 -0.74426794 0.1888856
0.17512187 -0.78804839 0.18888554
0.17512187 -0.83182883 0.1888856
0.17512187 -0.87560928 0.18888557
0.17512187 -0.91938972 0.18888557
0.22301455 0.75824952 0.23000777
0.22301455 0.71364653 0.23000765
0.22301455 0.66904354 0.23000772
0.22301455 0.62444055 0.23000757
0.22301455 0.5798378 0.23000784
0.22301455 0.53523487 0.23000765
0.22301455 0.49063194 0.23000774
0.22301455 0.44602907 0.23000765
0.22301455 0.40142626 0.2300078
0.22301455 0.35682333 0.23000774
0.22301455 0.31222036 0.23000769
0.22301455 0.26761737 0.23000769
0.22301455 0.22301456 0.23000769
0.22301455 0.17841159 0.23000768
0.22301455 0.13380878 0.23000768
0.22301374 0.089205518 0.22999987
0.22301374 0.044602811 0.2299998
0.22301374 -1.4901161e-08 0.2299998
0.22301374 -0.044602729 0.22999972
0.22301374 -0.089205474 0.22999981
0.22301374 -0.1338082 0.22999974
0.22301374 -0.17841101 0.22999974
0.22301374 -0.22301373 0.22999981
0.22301374 -0.26761648 0.22999975
0.22301374 -0.31221929 0.22999974
0.22301374 -0.35682201 0.22999984
0.22301374 -0.40142474 0.22999978
0.22301374 -0.44602755 0.22999975
0.22301374 -0.49063018 0.22999978
0.22301374 -0.53523302 0.22999977
0.22301374 -0.57983571 0.22999987
0.22301374 -0.62443852 0.22999987
0.22301374 -0.66904128 0.2299998
0.22301374 -0.71364403 0.22999987
0.22301374 -0.75824666 0.22999971
0.22301455 -0.80285221 0.23000762
0.22301455 -0.84745514 0.23000774
0.22301455 -0.89205813 0.23000774
0.2727401 0.77276361 0.27269626
0.2727401 0.72730678 0.27269626
0.2727401 0.68185008 0.27269614
0.2727401 0.63639343 0.27269629
0.2727401 0.59093672 0.2726962
0.2727401 0.54548013 0.27269629
0.2727401 0.50002342 0.2726962
0.2727401 0.45456684 0.27269632
0.2727401 0.40911001 0.27269614
0.2727401 0.36365336 0.27269614
0.2727401 0.31819662 0.27269623
0.2727401 0.27273998 0.27269626
0.2727401 0.22728333 0.27269626
0.2727401 0.18182668 0.27269626
0.2727401 0.13637003 0.27269629
0.2727401 0.09091346 0.2726962
0.2727401 0.045456812 0.27269623
0.2727401 -2.9802322e-08 0.27269623
0.2727401 -0.045456678 0.27269623
0.2727401 -0.090913326 0.27269626
0.2727401 -0.13637005 0.27269617
0.2727401 -0.18182671 0.27269617
0.2727401 -0.22728336 0.27269617
0.2727401 -0.27274004 0.27269617
0.2727401 -0.31819674 0.27269629
0.2727401 -0.36365342 0.27269629
0.2727401 -0.40911007 0.27269629
0.2727401 -0.45456678 0.2726962
0.2727401 -0.50002348 0.2726962
0.2727401 -0.54548013 0.27269623
0.2727401 -0.59093666 0.27269617
0.2727401 -0.63639355 0.27269626
0.2727401 -0.68185008 0.27269608
0.2727401 -0.7273069 0.27269626
0.2727401 -0.77276343 0.27269602
0.2727401 -0.81822014 0.27269629
0.32440761 0.83419096 0.31705946
0.32440761 0.78784716 0.31705958
0.32440761 0.741503 0.31705931
0.32440761 0.69515908 0.31705952
0.32440761 0.64881521 0.3170594
0.32440761 0.60247141 0.31705952
0.32440761 0.55612719 0.31705931
0.32440761 0.50978339 0.31705943
0.32440642 0.46343762 0.31705084
0.32440642 0.4170939 0.31705084
0.32440642 0.37075028 0.31705096
0.32440642 0.3244065 0.31705093
0.32440642 0.27806258 0.3170509
0.32440642 0.23171881 0.31705084
0.32440642 0.18537509 0.3170509
0.32440642 0.13903138 0.3170509
0.32440642 0.09268751 0.31705093
0.32440642 0.046343789 0.31705093
0.32440642 -0 0.31705087
0.32440642 -0.046343714 0.3170509
0.32440642 -0.092687599 0.3170509
0.32440642 -0.13903129 0.31705093
0.32440642 -0.18537509 0.31705087
0.32440642 -0.23171882 0.31705087
0.32440642 -0.2780627 0.3170509
0.32440642 -0.32440639 0.31705093
0.32440642 -0.37075019 0.31705084
0.32440642 -0.41709399 0.31705096
0.32440642 -0.4634378 0.3170509
0.32440642 -0.5097816 0.31705099
0.32440642 -0.55612528 0.31705084
0.32440642 -0.60246909 0.31705096
0.32440642 -0.64881271 0.31705076
0.32440642 -0.69515657 0.31705093
0.32440642 -0.74150038 0.31705087
0.32440642 -0.78784406 0.31705087
0.37813085 0.85079443 0.36318007
0.37813085 0.80352807 0.3631801
0.37813085 0.75626183 0.3631801
0.37813085 0.70899522 0.36317998
0.37813085 0.66172886 0.36317998
0.37813085 0.61446261 0.36317998
0.37813085 0.56719625 0.36318001
0.37813085 0.51992989 0.36318007
0.37813085 0.47266352 0.3631801
0.37813085 0.42539716 0.36318016
0.37813085 0.37813091 0.3631801
0.37813085 0.33086455 0.36318013
0.37813085 0.28359821 0.36318001
0.37813085 0.23633176 0.36318013
0.37813085 0.18906534 0.36318007
0.37813085 0.14179906 0.36318004
0.37813085 0.094532713 0.3631801
0.37813085 0.047266364 0.3631801
0.37813085 1.0430813e-07 0.36318007
0.37813085 -0.047266424 0.3631801
0.37813085 -0.094532698 0.36318004
0.37813085 -0.14179912 0.36318001
0.37813085 -0.18906546 0.36318004
0.37813085 -0.23633176 0.36318001
0.37813085 -0.2835981 0.36318004
0.37813085 -0.33086443 0.36318007
0.37813085 -0.37813088 0.36318004
0.37813085 -0.42539725 0.36318007
0.37813085 -0.47266358 0.36317995
0.37813085 -0.51992983 0.3631801
0.37813085 -0.56719619 0.3631801
0.37813085 -0.61446261 0.36318007
0.37813085 -0.66172886 0.36317995
0.37813085 -0.70899522 0.36317992
0.37813085 -0.75626177 0.3631801
0.43403611 0.86807215 0.41117382
0.43403611 0.81984591 0.41117388
0.43403611 0.7716198 0.41117388
0.43403611 0.72339344 0.4111737
0.43403611 0.67516714 0.41117385
0.43403611 0.62694108 0.41117403
0.43403611 0.57871491 0.41117403
0.43403611 0.53048861 0.41117388
0.43403611 0.48226231 0.411174
0.43403611 0.43403611 0.411174
0.43403611 0.38580978 0.41117385
0.43403611 0.3375836 0.41117385
0.43403611 0.28935742 0.41117388
0.43403611 0.24113107 0.41117391
0.43403611 0.19290489 0.41117391
0.43403611 0.14467862 0.41117385
0.43403611 0.096452445 0.41117385
0.43403611 0.048226178 0.41117397
0.43403611 -1.0430813e-07 0.41117388
0.43403611 -0.048226282 0.41117391
0.43403611 -0.09645246 0.41117394
0.43403611 -0.14467867 0.41117394
0.43403611 -0.19290501 0.41117397
0.43403611 -0.24113119 0.411174
0.43403611 -0.28935736 0.41117382
0.43403611 -0.33758354 0.41117385
0.43403611 -0.38580981 0.41117394
0.43403611 -0.43403608 0.41117388
0.43403611 -0.48226225 0.41117391
0.43403611 -0.53048855 0.41117382
0.43403611 -0.57871485 0.41117394
0.43403611 -0.62694108 0.41117388
0.43403611 -0.6751672 0.41117397
0.43403611 -0.72339362 0.41117406
0.49226099 0.93529588 0.4611671
0.49226099 0.88606972 0.4611671
0.49226099 0.83684361 0.4611671
0.49226099 0.78761744 0.46116704
0.49226099 0.73839158 0.46116716
0.49226099 0.68916535 0.46116716
0.49226099 0.63993925 0.46116719
0.49226099 0.59071314 0.4611671
0.49226099 0.5414871 0.46116701
0.49226099 0.49226105 0.46116719
0.49226099 0.44303492 0.46116722
0.49226099 0.39380866 0.46116695
0.49226099 0.34458268 0.46116713
0.49226099 0.2953566 0.46116704
0.49226099 0.24613062 0.46116725
0.49226099 0.19690436 0.46116716
0.49226099 0.14767821 0.46116698
0.49226099 0.098452285 0.4611671
0.49226099 0.049226135 0.4611671
0.49226099 -2.9802322e-08 0.4611671
0.49226099 -0.049226031 0.4611671
0.49226099 -0.098452106 0.46116704
0.49226099 -0.14767827 0.46116722
0.49226099 -0.19690442 0.46116704
0.49226099 -0.24613041 0.46116704
0.49226099 -0.29535657 0.46116707
0.49226099 -0.34458265 0.46116716
0.49226099 -0.39380872 0.46116707
0.49226099 -0.44303492 0.46116707
0.49226099 -0.49226093 0.46116701
0.49226099 -0.54148692 0.46116701
0.49226099 -0.59071308 0.46116722
0.49226099 -0.63993919 0.46116713
0.49226099 -0.68916523 0.46116701
0.55294907 0.95509374 0.5132671
0.55294907 0.90482569 0.5132671
0.55294907 0.85455775 0.51326722
0.55294907 0.8042897 0.51326716
0.55294907 0.75402135 0.51326698
0.55294907 0.70375335 0.51326716
0.55294907 0.65348524 0.51326722
0.55294907 0.60321718 0.51326716
0.55294907 0.55294907 0.51326704
0.55294907 0.50268096 0.5132671
0.55294907 0.4524129 0.51326704
0.55294907 0.40214467 0.51326716
0.55294907 0.35187677 0.51326728
0.55294907 0.30160853 0.51326704
0.55294907 0.25134039 0.51326704
0.55294907 0.2010725 0.51326716
0.55294907 0.15080434 0.51326716
0.55294907 0.10053611 0.51326716
0.55294907 0.050268069 0.51326704
0.55294907 -0 0.51326716
0.55294907 -0.050268069 0.51326716
0.55294907 -0.10053623 0.51326716
0.55294907 -0.15080427 0.51326704
0.55294907 -0.20107235 0.51326716
0.55294907 -0.25134057 0.5132671
0.55294907 -0.30160856 0.51326716
0.55294907 -0.35187671 0.51326716
0.55294907 -0.40214467 0.51326704
0.55294907 -0.45241281 0.51326704
0.55294907 -0.50268108 0.51326716
0.55294907 -0.55294907 0.51326722
0.55294907 -0.60321712 0.5132671
0.55294907 -0.65348518 0.51326704
0.61626452 1.0271075 0.56763101
0.61626452 0.97575206 0.56763107
0.61626196 0.92439288 0.56762046
0.61626196 0.87303787 0.56762052
0.61626452 0.82168579 0.56763089
0.61626452 0.77033043 0.56763089
0.61626452 0.71897519 0.56763083
0.61626452 0.66761976 0.56763089
0.61626452 0.6162644 0.56763089
0.61626452 0.56490904 0.56763089
0.61626452 0.51355368 0.56763095
0.61626452 0.46219835 0.56763095
0.61626452 0.4108429 0.56763095
0.61626452 0.35948756 0.56763095
0.61626452 0.30813226 0.56763089
0.61626452 0.25677681 0.56763101
0.61626452 0.20542148 0.56763101
0.61626452 0.15406613 0.56763101
0.61626452 0.10271063 0.56763083
0.61626452 0.051355332 0.56763089
0.61626452 -8.9406967e-08 0.56763101
0.61626452 -0.051355451 0.56763101
0.61626452 -0.10271074 0.56763089
0.61626452 -0.15406616 0.56763101
0.61626452 -0.20542152 0.56763101
0.61626452 -0.25677675 0.56763089
0.61626452 -0.30813223 0.56763101
0.61626452 -0.35948756 0.56763101
0.61626452 -0.41084304 0.56763107
0.61626452 -0.46219844 0.56763101
0.61626452 -0.5135538 0.56763101
0.61626452 -0.56490898 0.56763089
0.61626452 -0.61626452 0.56763101
0.68237662 1.0498102 0.62438768
0.68237662 0.99731946 0.62438756
0.68237662 0.94482917 0.6243878
0.68237662 0.89233863 0.62438762
0.68237662 0.83984816 0.62438768
0.68237662 0.78735769 0.62438786
0.68237662 0.7348671 0.62438768
0.68237662 0.68237668 0.62438768
0.68237662 0.62988603 0.62438756
0.68237662 0.57739556 0.62438768
0.68237662 0.52490509 0.62438774
0.68237662 0.47241443 0.62438768
0.68237662 0.41992414 0.62438756
0.68237662 0.36743346 0.62438756
0.68237662 0.31494299 0.62438762
0.68237662 0.26245251 0.62438768
0.68237662 0.2099621 0.62438774
0.68237662 0.15747163 0.6243878
0.68237662 0.10498106 0.62438762
0.68237662 0.052490562 0.62438774
0.68237662 -0 0.62438774
0.68237662 -0.052490473 0.62438762
0.68237662 -0.10498098 0.62438774
0.68237662 -0.15747163 0.62438762
0.68237662 -0.20996203 0.62438768
0.68237662 -0.2624526 0.62438762
0.68237662 -0.31494313 0.62438768
0.68237662 -0.36743364 0.62438774
0.68237662 -0.41992396 0.62438768
0.68237662 -0.47241449 0.62438768
0.68237662 -0.52490509 0.62438768
0.68237662 -0.57739562 0.62438774
0.75148058 0.91251218 0.68372142
0.75148058 0.85883492 0.68372142
0.75148058 0.80515784 0.6837216
0.75148058 0.7514807 0.68372154
0.75148058 0.6978032 0.68372136
0.75148058 0.64412618 0.6837216
0.75148058 0.59044898 0.68372148
0.75148058 0.53677183 0.68372172
0.75148058 0.48309472 0.6837216
0.75148058 0.4294174 0.68372142
0.75148058 0.37574029 0.68372154
0.75148058 0.32206312 0.68372154
0.75148058 0.26838586 0.68372154
0.75148058 0.21470869 0.68372142
0.75148058 0.16103142 0.68372142
0.75148058 0.10735443 0.6837216
0.75148058 0.053677171 0.6837216
0.75148058 -0 0.68372154
0.75148058 -0.05367735 0.68372142
0.75148058 -0.10735443 0.68372148
0.75148058 -0.1610316 0.68372154
0.75148058 -0.2147087 0.6837216
0.75148058 -0.26838586 0.68372154
0.75148058 -0.32206309 0.68372136
0.75148058 -0.37574035 0.68372154
0.75148058 -0.42941743 0.68372154
0.75148058 -0.4830946 0.68372154
0.75148058 -0.53677177 0.68372142
0.82377779 0.71394068 0.74578816
0.82377779 0.65902239 0.74578834
0.82377779 0.60410368 0.74578816
0.82377779 0.54918528 0.74578846
0.82377779 0.49426669 0.74578822
0.82377779 0.43934801 0.74578804
0.82377779 0.38442969 0.74578828
0.82377779 0.32951102 0.74578804
0.82377779 0.27459264 0.74578834
0.82377779 0.21967395 0.74578816
0.82377779 0.16475564 0.74578834
0.82377779 0.10983694 0.74578822
0.82377779 0.054918557 0.7457881
0.82377779 2.9802322e-08 0.74578822
0.82377779 -0.054918528 0.74578822
0.82377779 -0.109837 0.74578822
0.82377779 -0.16475552 0.74578828
0.82377779 -0.21967408 0.74578816
0.82377779 -0.27459264 0.7457884
0.82377779 -0.32951099 0.7457881
0.82377779 -0.3844296 0.74578822
0.82377779 -0.4393481 0.74578822
0.82377779 -0.49426654 0.74578828
0.89950204 0.56218898 0.81080627
0.89950204 0.50596994 0.81080616
0.89950204 0.44975108 0.8108061
0.89950204 0.39353216 0.81080616
0.89950204 0.33731315 0.81080598
0.89950204 0.28109422 0.81080604
0.89950204 0.22487542 0.81080604
0.89950204 0.16865659 0.81080604
0.89950204 0.11243767 0.8108061
0.89950204 0.056218833 0.8108061
0.89950204 -0 0.8108061
0.89950204 -0.056218833 0.81080604
0.89950204 -0.11243767 0.81080604
0.89950204 -0.16865668 0.81080621
0.89950204 -0.22487551 0.81080604
0.89950204 -0.28109443 0.8108061
0.89950204 -0.33731315 0.81080598
0.89950204 -0.39353228 0.81080621
0.89950204 -0.44975099 0.8108061
0.97889477 0.34549224 0.87896448
0.97889477 0.28791025 0.87896442
0.97889477 0.23032823 0.87896454
0.97889477 0.17274612 0.87896454
0.97889477 0.11516398 0.87896442
0.97889477 0.057581991 0.87896448
0.97889477 -1.1920929e-07 0.87896454
0.97889477 -0.057582021 0.87896448
0.97889477 -0.11516404 0.87896454
0.97889477 -0.17274609 0.87896466
0.97889477 -0.23032802 0.87896454
0.97889477 -0.28791016 0.87896454
0.97889477 -0.34549215 0.87896442
1.0622383 0.11802647 0.95052433
1.0622383 0.059013307 0.95052445
1.0622383 -2.9802322e-08 0.95052409
1.0622383 -0.059013158 0.95052421
1.0622383 -0.11802647 0.95052421
1.0622383 -0.17703968 0.95052433
1.0622383 -0.23605305 0.95052403
1.0622383 -0.29506627 0.95052427
1.1498249 -0.12103423 1.0257173
1.1498249 -0.18155125 1.0257173
1.1498249 -0.24206847 1.0257174
