# .PCD v0.7 - Point Cloud Data file format
VERSION 0.7
FIELDS x y z
SIZE 4 4 4
TYPE F F F
COUNT 1 1 1
WIDTH 1149
HEIGHT 1
VIEWPOINT 0 0 0 1 0 0 0
POINTS 1149
DATA ascii
-1.2453158 -0.21657661 0.70707035
-1.2633737 -0.27464643 0.7463268
-1.1493436 -0.15672871 0.6120069
-1.1654409 -0.21189824 0.64859152
-1.1819754 -0.2686308 0.68616992
-1.1989081 -0.32697481 0.72465312
-1.0459265 -0.049806014 0.49016327
-1.0598787 -0.10094082 0.52338284
-1.0742124 -0.15345897 0.55751103
-1.1382549 -0.21681044 0.70999295
-1.13552 -0.27036199 0.70348132
-1.1195391 -0.31986833 0.66543174
-0.96384978 -0 0.40948659
-0.97628897 -0.048814327 0.44058466
-0.98903406 -0.098903432 0.4724474
-1.0614907 -0.15922365 0.65358889
-1.1139719 -0.22279447 0.78479218
-1.0884901 -0.27212244 0.72108793
-1.0641437 -0.31924304 0.6602214
-1.0580597 -0.37032089 0.64501148
-0.88692737 0.046680406 0.33388174
-0.89800686 -2.9802322e-08 0.36303833
-0.92086881 -0.048466772 0.42320117
-0.98785651 -0.10398486 0.5994848
-1.0653548 -0.16821396 0.80342746
-1.0653738 -0.22428933 0.80347735
-1.0408393 -0.27390516 0.73891312
-1.0174096 -0.32128716 0.67725587
-0.99501139 -0.36658299 0.61831307
-0.9975149 -0.42000622 0.62490141
-0.80505192 0.13417542 0.23611763
-0.81468236 0.090520248 0.26286879
-0.82453698 0.045807585 0.2902427
-0.8561309 -4.4703484e-08 0.3780036
-0.91716868 -0.050953701 0.54755306
-0.98757362 -0.10973039 0.74312258
-1.0408138 -0.1734691 0.89101171
-1.0161145 -0.22580326 0.82240224
-0.99256009 -0.27571121 0.75697374
-0.97007722 -0.32335898 0.69452125
-0.94858241 -0.36889306 0.63481343
-0.92802334 -0.41245481 0.57770479
-0.93787998 -0.46894002 0.6050843
-0.73813444 0.17367879 0.17084594
-0.74670625 0.13177159 0.1960571
-0.75545549 0.088877112 0.22179025
-0.79376358 0.046692014 0.33446106
-0.84924632 5.9604645e-08 0.49764559
-0.91306436 -0.053709537 0.68534577
-0.98725319 -0.11614755 0.90354806
-0.98983473 -0.17467666 0.91114092
-0.96618551 -0.2273379 0.8415845
-0.94364411 -0.27754232 0.77528614
-0.92212653 -0.32545632 0.71199918
-0.90156841 -0.37123403 0.6515342
-0.88190699 -0.41501507 0.59370631
-0.867351 -0.4591859 0.5508948
-0.87914222 -0.51714242 0.58557469
-0.67501253 0.21094146 0.10927638
-0.68261725 0.17065428 0.13304122
-0.69038343 0.12944688 0.15731053
-0.73364174 0.091705248 0.29249269
-0.78393394 0.048995882 0.44965574
-0.84162885 1.4901161e-07 0.62995249
-0.90849477 -0.056780845 0.83890867
-0.96184903 -0.12023118 1.0056407
-0.93814087 -0.17590129 0.93155253
-0.91557753 -0.22889429 0.8610419
-0.89406997 -0.27939695 0.79383111
-0.87354976 -0.3275812 0.72970545
-0.85395038 -0.37360328 0.66845727
-0.83521116 -0.41760555 0.60989702
-0.8172766 -0.45971805 0.55385184
-0.81034338 -0.5064646 0.53218532
-0.60877126 0.28409332 0.029099688
-0.61537415 0.24614958 0.051109582
-0.62210351 0.20736785 0.073540553
-0.63558596 0.16948952 0.11848201
-0.67564088 0.13512817 0.25199845
-0.72108394 0.096144602 0.40347552
-0.77308393 0.051538944 0.57680863
-0.8331629 -8.9406967e-08 0.77707195
-0.90336663 -0.060224414 1.0110843
-0.90826243 -0.12110165 1.0274037
-0.88572115 -0.17714408 0.9522661
-0.86426771 -0.23047131 0.88075471
-0.84382892 -0.2812762 0.81262529
-0.82433456 -0.32973379 0.74764413
-0.80572402 -0.37600455 0.68560886
-0.78793192 -0.42023033 0.62630194
-0.77090549 -0.46254343 0.56954724
-0.75460237 -0.50306827 0.51520342
-0.75416583 -0.55305493 0.51374841
-0.5530985 0.31605631 -0.02478601
-0.5589295 0.27946472 -0.0039608628
-0.56487578 0.24208963 0.017275952
-0.58351797 0.20839924 0.083855234
-0.6196534 0.17704384 0.21290994
-0.6605621 0.14154911 0.35901278
-0.70725137 0.1010358 0.52575994
-0.76104265 0.054360151 0.71787167
-0.82368994 -1.7881393e-07 0.94161195
-0.87636423 -0.062597513 1.1297344
-0.85389829 -0.12198544 1.049499
-0.83255154 -0.17840403 0.97326052
-0.81224602 -0.23207018 0.90074098
-0.79290742 -0.28318122 0.83167428
-0.7744717 -0.33191657 0.76583254
-0.75687045 -0.37843531 0.7029711
-0.74005151 -0.42288655 0.64290333
-0.7239638 -0.46540529 0.58544749
-0.70856071 -0.5061149 0.53043628
-0.69379938 -0.54512811 0.47771707
-0.69880038 -0.59897172 0.49557799
-0.50030452 0.34636468 -0.075889632
-0.50543487 0.31103685 -0.056157425
-0.51066995 0.27497607 -0.036022522
-0.53312469 0.24605751 0.050341927
-0.5655781 0.21753004 0.17516267
-0.60223651 0.18530351 0.3161566
-0.64397639 0.14860998 0.47669449
-0.69193292 0.10645118 0.66114265
-0.74761015 0.057508469 0.87528598
-0.81302774 -0 1.126892
-0.81990796 -0.06306982 1.1533544
-0.79873097 -0.12288186 1.0719042
-0.7786203 -0.1796816 0.99455571
-0.75949752 -0.23369148 0.92100644
-0.7412948 -0.28511342 0.85099614
-0.72394103 -0.33412671 0.78425086
-0.70738119 -0.38089761 0.72055924
-0.691562 -0.42557651 0.65971595
-0.67643481 -0.468301 0.60153484
-0.66195536 -0.50919646 0.54584432
-0.64808273 -0.54837763 0.49248803
-0.63594258 -0.58702391 0.44579521
-0.64422709 -0.64422703 0.47765854
-0.44575348 0.40860742 -0.14283155
-0.45017058 0.3751421 -0.12442693
-0.4546665 0.34099984 -0.105694
-0.4592545 0.30616969 -0.086577155
-0.48432812 0.28252465 0.017896071
-0.51331484 0.25665748 0.1386742
-0.54599214 0.22749668 0.27482966
-0.58311278 0.1943709 0.42949888
-0.6256516 0.15641288 0.60674399
-0.67488241 0.11248046 0.81187224
-0.73252255 0.061043501 1.0520396
-0.76573616 -1.7881393e-07 1.1904297
-0.76258928 -0.063549161 1.1773174
-0.74274689 -0.12379104 1.0946413
-0.72391099 -0.1809777 1.0161579
-0.70601004 -0.23533663 0.94157088
-0.68896991 -0.28707075 0.8705703
-0.67273295 -0.33636662 0.80291617
-0.65724367 -0.38339221 0.73837757
-0.64245439 -0.42830291 0.67675525
-0.6283133 -0.47123486 0.61783445
-0.61477894 -0.51231575 0.56144106
-0.60181773 -0.55166626 0.50743604
-0.58939171 -0.58939165 0.45566121
-0.5828948 -0.63146937 0.42859051
-0.39865386 0.4348951 -0.18807471
-0.40250123 0.40250129 -0.17058668
-0.40642118 0.36947381 -0.1527686
-0.41403297 0.33875427 -0.11816972
-0.43705034 0.31785485 -0.013545364
-0.46277601 0.29449397 0.10338967
-0.49171966 0.26821062 0.23495163
-0.52452731 0.23842147 0.38407722
-0.56202352 0.20437211 0.55451429
-0.60529327 0.16508013 0.75119543
-0.65578151 0.11923298 0.98068702
-0.68280977 0.062073648 1.103543
-0.6901865 -5.9604645e-08 1.1370736
-0.69772083 -0.063429117 1.1713209
-0.6859315 -0.12471482 1.1177326
-0.66840982 -0.18229362 1.0380889
-0.65176111 -0.23700425 0.96241283
-0.6359216 -0.28905517 0.89041489
-0.6208365 -0.33863798 0.82184607
-0.60644776 -0.38592136 0.75644302
-0.59271091 -0.43106252 0.69400287
-0.57958257 -0.47420394 0.63432872
-0.56702328 -0.51547569 0.57724077
-0.55499667 -0.55499673 0.52257466
-0.54346973 -0.59287608 0.47017929
-0.53240979 -0.6292116 0.41990659
-0.53058803 -0.6752938 0.41162604
-0.35379136 0.45992881 -0.23118082
-0.35712177 0.42854607 -0.21452898
-0.36051542 0.39656693 -0.19756061
-0.37092006 0.37092009 -0.14553733
-0.39122316 0.35210076 -0.044021949
-0.41387764 0.3311021 0.069250315
-0.43931857 0.30752295 0.19645517
-0.46809036 0.28085417 0.34031397
-0.50089484 0.25044754 0.50433666
-0.5386439 0.21545766 0.6930818
-0.58254641 0.17476392 0.91259432
-0.60428309 0.12085673 1.0212778
-0.61063367 0.061063379 1.0530304
-0.61712211 1.1920929e-07 1.0854728
-0.62374687 -0.062374771 1.1185966
-0.62825865 -0.12565172 1.1411555
-0.61209279 -0.18362778 1.0603261
-0.59673798 -0.23869511 0.98355234
-0.58213741 -0.29106879 0.91054928
-0.5682317 -0.3409391 0.84102064
-0.55497473 -0.38848227 0.77473617
-0.54232234 -0.43385786 0.71147406
-0.53023398 -0.47721046 0.65103209
-0.51867276 -0.5186727 0.59322596
-0.50760496 -0.55836529 0.5378868
-0.49699956 -0.59639943 0.48486006
-0.4868283 -0.63287663 0.43400371
-0.477065 -0.66789091 0.38518739
-0.47900698 -0.71851045 0.3948971
-0.30820206 0.51367003 -0.28790405
-0.31101197 0.48379639 -0.27229339
-0.313871 0.45336911 -0.25641006
-0.31678307 0.42237747 -0.24023181
-0.32904214 0.40216261 -0.17212579
-0.34678081 0.38531196 -0.073577598
-0.36654228 0.36654222 0.036208183
-0.38869071 0.34550276 0.15925503
-0.41368791 0.32175729 0.29812855
-0.44212136 0.29474765 0.45609197
-0.47475177 0.26375091 0.63737208
-0.51258254 0.22781441 0.84754288
-0.52980924 0.17660308 0.9432472
-0.53523439 0.1189411 0.97338688
-0.54076922 0.060085505 1.0041358
-0.54642236 5.9604645e-08 1.0355421
-0.55219495 -0.061354995 1.0676119
-0.55808806 -0.12401968 1.1003516
-0.55494529 -0.18498161 1.0828913
-0.54092658 -0.24041176 1.0050098
-0.52759624 -0.29310897 0.93095261
-0.51490712 -0.34327129 0.86045742
-0.50281405 -0.39107746 0.79327357
-0.49127808 -0.43669158 0.72918504
-0.4802576 -0.48025757 0.66796005
-0.46972063 -0.52191192 0.60942137
-0.45963615 -0.56177753 0.5533964
-0.44997379 -0.59996504 0.49971658
-0.44071099 -0.63658231 0.44825661
-0.43182185 -0.67172277 0.39887255
-0.42328423 -0.70547384 0.3514415
-0.42813653 -0.76113147 0.37839857
-0.2677913 0.5355826 -0.32644206
-0.2701759 0.50657982 -0.31153828
-0.27260262 0.4770546 -0.29637137
-0.27507406 0.44699532 -0.28092489
-0.28834802 0.43252197 -0.19796273
-0.30366242 0.41753581 -0.10224763
-0.32069373 0.40086716 0.0041981786
-0.33974904 0.38221776 0.12329391
-0.36121193 0.3612119 0.25743663
-0.38556939 0.33737335 0.40967086
-0.41344932 0.31008703 0.58392066
-0.44567546 0.27854717 0.78533381
-0.4590874 0.22954366 0.86915851
-0.46366674 0.17387509 0.89777941
-0.46834052 0.11708522 0.92699063
-0.47310945 0.059138715 0.95679641
-0.4779743 2.9802322e-08 0.98720169
-0.48294252 -0.060367733 1.0182528
-0.48801273 -0.12200314 1.0499417
-0.49319294 -0.1849474 1.0823183
-0.48430428 -0.24215215 1.0267639
-0.47228506 -0.29517815 0.95164382
-0.46084797 -0.34563589 0.88016206
-0.44995373 -0.39370966 0.81207323
-0.43956077 -0.43956089 0.74711716
-0.42963707 -0.48334175 0.68509388
-0.42015156 -0.52518952 0.62580949
-0.41107583 -0.56522924 0.56908631
-0.40238389 -0.60357594 0.51476181
-0.39405197 -0.64033437 0.46268687
-0.38605806 -0.67560166 0.41272518
-0.3783806 -0.7094636 0.36474109
-0.37332278 -0.74664545 0.33312964
-0.37796214 -0.80316955 0.36212569
-0.2291584 0.5565275 -0.36329198
-0.23115367 0.52835125 -0.34904003
-0.23318337 0.49967867 -0.33454221
-0.2370028 0.47400558 -0.30726045
-0.24878816 0.46203509 -0.22307947
-0.26180694 0.44881189 -0.13008824
-0.27626345 0.43412822 -0.026827306
-0.29241079 0.41772962 0.088510841
-0.31056178 0.39929369 0.21816087
-0.33111537 0.37841752 0.36497176
-0.35458225 0.35458234 0.53259254
-0.38162914 0.32711065 0.72578478
-0.39183667 0.27988338 0.79869556
-0.39565006 0.22608569 0.82593405
-0.39953658 0.17123005 0.85369492
-0.40350202 0.11528623 0.88201964
-0.407547 0.058220893 0.91091233
-0.411672 2.9802322e-08 0.9403764
-0.41588327 -0.059411883 0.9704572
-0.42017961 -0.12005115 1.0011454
-0.4245677 -0.18195763 1.0324889
-0.42685619 -0.24391782 1.0488348
-0.41618738 -0.29727659 0.97262931
-0.40604076 -0.3480348 0.90015328
-0.39637533 -0.3963753 0.83111477
-0.38715935 -0.44246769 0.76528609
-0.37836218 -0.48646551 0.70244932
-0.36995596 -0.52850854 0.64240474
-0.36191508 -0.56872356 0.58497
-0.35421634 -0.60722792 0.52997881
-0.34683833 -0.64412826 0.47727877
-0.33976135 -0.67952275 0.42672917
-0.33296743 -0.71350169 0.37820113
-0.32643989 -0.74614847 0.33157587
-0.32446608 -0.78798902 0.31747702
-0.1905809 0.60350621 -0.4119634
-0.19219004 0.57657003 -0.39855412
-0.19382755 0.54917806 -0.38490808
-0.19549371 0.52131659 -0.37102333
-0.19718827 0.49297065 -0.35690212
-0.19891246 0.46412906 -0.34253386
-0.20066707 0.43477863 -0.32791218
-0.23318844 0.4663769 -0.056900799
-0.2465976 0.45209563 0.054842249
-0.26164302 0.43607166 0.18022074
-0.27864361 0.41796541 0.32189247
-0.29800817 0.39734411 0.4832637
-0.32026392 0.37364122 0.66872841
-0.32781124 0.32781115 0.73162252
-0.33092287 0.275769 0.75755292
-0.33409566 0.22273037 0.78399247
-0.33732983 0.16866484 0.81094408
-0.3406257 0.11354184 0.83840966
-0.34398818 0.057331383 0.8664304
-0.34741613 2.9802322e-08 0.89499658
-0.35091469 -0.058485717 0.92415136
-0.35448444 -0.11816126 0.95389938
-0.35812587 -0.17906296 0.9842447
-0.36184466 -0.24122977 1.015234
-0.3592881 -0.2994068 0.99392968
-0.3504658 -0.35046569 0.92041069
-0.34206644 -0.3990775 0.85041571
-0.33406022 -0.44541368 0.78369731
-0.32642162 -0.48963243 0.72004235
-0.31912321 -0.53187191 0.65922225
-0.31214398 -0.57226402 0.60106224
-0.30546352 -0.61092693 0.54539174
-0.29906186 -0.64796734 0.4920443
-0.29292414 -0.68348956 0.44089657
-0.28703326 -0.71758318 0.39180616
-0.28137463 -0.75033242 0.34465107
-0.27593485 -0.78181547 0.29931939
-0.27625945 -0.82877839 0.30202442
-0.1598423 0.60740072 -0.40171471
-0.1598423 0.57543224 -0.40171477
-0.1598423 0.54346383 -0.40171483
-0.16077375 0.51447594 -0.39240029
-0.16214891 0.48644671 -0.3786487
-0.16354822 0.45793501 -0.36465561
-0.16497144 0.42892572 -0.35042322
-0.16641967 0.39940718 -0.33594099
-0.16789399 0.36936674 -0.32119787
-0.16939421 0.33878836 -0.30619562
-0.17092195 0.30765954 -0.29091823
-0.26141384 0.41826203 0.61400068
-0.26678151 0.37349418 0.66767758
-0.26925519 0.32310611 0.69241405
-0.27177516 0.27177522 0.71761388
-0.27434152 0.21947321 0.74327779
-0.27695808 0.16617489 0.76944304
-0.27962378 0.11184952 0.79609984
-0.28234252 0.056468517 0.82328737
-0.28511336 -2.9802322e-08 0.85099608
-0.28794047 -0.057588071 0.87926698
-0.2908242 -0.11632979 0.90810442
-0.29376492 -0.17625895 0.93751144
-0.29676709 -0.23741376 0.96753311
-0.29982984 -0.29982993 0.99816078
-0.29410908 -0.35293099 0.94095302
-0.28701195 -0.40181679 0.86998183
-0.28025055 -0.44840097 0.80236781
-0.27379918 -0.49283841 0.737854
-0.26763815 -0.53527635 0.67624366
-0.26174828 -0.57584625 0.61734515
-0.25611207 -0.61466902 0.56098312
-0.2507135 -0.65185499 0.50699699
-0.2455378 -0.68750572 0.45524007
-0.24057145 -0.72171438 0.40557683
-0.23580205 -0.75456661 0.35788277
-0.23121722 -0.78613859 0.31203449
-0.2268081 -0.81650931 0.26794341
-0.22869143 -0.86902732 0.28677651
-0.13115685 0.62299496 -0.36067715
-0.13115719 0.59020728 -0.36067289
-0.13115719 0.55741811 -0.36067286
-0.13115719 0.5246287 -0.36067286
-0.13115719 0.49183944 -0.36067286
-0.13115719 0.45905012 -0.36067289
-0.13115719 0.42626089 -0.36067283
-0.13135198 0.39405596 -0.35823795
-0.13249956 0.36437374 -0.3438932
-0.13366774 0.33416927 -0.32929119
-0.13485631 0.30342668 -0.31443378
-0.13606623 0.27213243 -0.29930997
-0.13729842 0.24027224 -0.28390759
-0.13855274 0.20782913 -0.26822829
-0.13983098 0.17478876 -0.25225037
-0.21630995 0.21631001 0.7037366
-0.21834299 0.16375718 0.72914964
-0.22041364 0.11020687 0.75503284
-0.22252493 0.055631369 0.78142399
-0.22467707 -0 0.80832565
-0.22687021 -0.056717575 0.83573961
-0.22910763 -0.11455384 0.86370766
-0.23138857 -0.17354143 0.89221942
-0.23371644 -0.23371643 0.92131793
-0.23609166 -0.29511437 0.9510079
-0.236955 -0.35543263 0.96179998
-0.23119755 -0.40459558 0.88983154
-0.22571322 -0.45142633 0.8212775
-0.22048306 -0.49608701 0.75590062
-0.2154907 -0.53872681 0.69349611
-0.21071856 -0.57947594 0.63384414
-0.20615233 -0.61845702 0.57676655
-0.20178065 -0.65578717 0.5221203
-0.1975905 -0.69156665 0.46974337
-0.19357084 -0.7258907 0.41949785
-0.18971147 -0.75884587 0.37125564
-0.18600298 -0.7905125 0.32489944
-0.1824367 -0.82096511 0.28032112
-0.17960282 -0.85311329 0.24489737
-0.18174937 -0.90874672 0.27172917
-0.10095966 0.63941115 -0.31747672
-0.10095966 0.60575795 -0.31747672
-0.10095993 0.5721063 -0.31747219
-0.10095993 0.53845298 -0.31747213
-0.10095993 0.50479966 -0.31747222
-0.10095993 0.47114635 -0.31747225
-0.10095993 0.43749306 -0.31747219
-0.10095993 0.40383971 -0.31747222
-0.10095993 0.37018648 -0.31747219
-0.10095993 0.33653316 -0.31747222
-0.10095993 0.30287978 -0.31747225
-0.10095993 0.26922652 -0.31747219
-0.10155135 0.23695315 -0.30761513
-0.10246646 0.20493288 -0.29236341
-0.10339792 0.17232981 -0.27683914
-0.10434647 0.13912863 -0.2610299
-0.10531288 0.10531285 -0.24492316
-0.10629705 0.0708647 -0.22852015
-0.10730071 0.035766937 -0.21179251
-0.10832413 1.4901161e-08 -0.19473565
-0.1676188 -0.055872917 0.79350901
-0.16924703 -0.11283118 0.82064611
-0.17090718 -0.17090705 0.84831548
-0.17259946 -0.23013261 0.87651986
-0.17432638 -0.29054415 0.90530193
-0.17608738 -0.35217485 0.93465197
-0.17460492 -0.40741152 0.90994453
-0.17043492 -0.45449311 0.84044433
-0.16646017 -0.49938044 0.77419847
-0.1626659 -0.5422197 0.71096069
-0.15904075 -0.58314937 0.65054142
-0.15557365 -0.62229455 0.59275645
-0.15225449 -0.65976954 0.5374372
-0.149074 -0.69567865 0.484429
-0.14602311 -0.73011541 0.43358061
-0.14309512 -0.76317394 0.38478106
-0.14028226 -0.79493272 0.3378998
-0.13757785 -0.82546711 0.29282641
-0.13497573 -0.8548463 0.24945787
-0.13383193 -0.89221275 0.23039445
-0.069127984 0.65671587 -0.27193803
-0.069127984 0.62215191 -0.27193803
-0.069128178 0.58758956 -0.27193329
-0.069128178 0.55302542 -0.27193329
-0.069128364 0.51846272 -0.27192858
-0.069128364 0.48389855 -0.27192855
-0.069128364 0.44933438 -0.27192852
-0.069128364 0.41477022 -0.27192852
-0.069128364 0.38020599 -0.27192861
-0.069128364 0.34564176 -0.27192855
-0.069128364 0.31107762 -0.27192855
-0.069128364 0.27651346 -0.27192855
-0.069128364 0.24194928 -0.27192852
-0.069128364 0.20738508 -0.27192861
-0.069128364 0.17282093 -0.27192864
-0.069128364 0.1382567 -0.27192855
-0.069217019 0.10382558 -0.26971215
-0.069854654 0.069854632 -0.25377142
-0.070504338 0.035252146 -0.23752922
-0.071166024 -7.4505806e-08 -0.22098714
-0.071840242 -0.035920113 -0.20413165
-0.072527573 -0.072527528 -0.18694836
-0.073228814 -0.10984324 -0.16941735
-0.073943973 -0.14788787 -0.15153846
-0.11444511 -0.28611282 0.86099005
-0.1155834 -0.34675017 0.88944721
-0.11674511 -0.40860784 0.91848975
-0.11440044 -0.45760193 0.85987329
-0.11171467 -0.502716 0.7927289
-0.10915164 -0.54575801 0.72865313
-0.10670357 -0.58686972 0.6674518
-0.10436291 -0.62617749 0.6089353
-0.10212275 -0.66379786 0.55293077
-0.099976718 -0.69983703 0.49928033
-0.097919039 -0.73439276 0.44783816
-0.095944338 -0.76755476 0.39847082
-0.094047718 -0.79940552 0.35105526
-0.092224292 -0.83001852 0.30546957
-0.090470552 -0.85947025 0.26162609
-0.088782258 -0.88782281 0.21941897
-0.088648617 -0.93081057 0.21607777
-0.035525337 0.7105068 -0.22387083
-0.035525437 0.67498332 -0.22386579
-0.035525437 0.63945794 -0.22386584
-0.035525538 0.60393411 -0.22386082
-0.035525538 0.56840861 -0.2238608
-0.035525639 0.53288454 -0.22385582
-0.035525639 0.49735898 -0.22385575
-0.035525639 0.4618333 -0.22385588
-0.035525639 0.42630762 -0.22385587
-0.035525639 0.39078197 -0.22385585
-0.035525639 0.35525632 -0.22385587
-0.035525639 0.31973079 -0.22385579
-0.035525639 0.28420514 -0.22385576
-0.035525735 0.2486802 -0.22385088
-0.035525639 0.21315381 -0.2238559
-0.035525639 0.1776281 -0.22385584
-0.035525639 0.1421026 -0.22385581
-0.035525735 0.10657717 -0.22385079
-0.035525639 0.071051277 -0.22385576
-0.035525639 0.035525613 -0.22385591
-0.035525639 2.9802322e-08 -0.22385582
-0.035525735 -0.035525754 -0.22385082
-0.035734955 -0.07146997 -0.21338974
-0.036075071 -0.10822523 -0.19638419
-0.036421616 -0.14568642 -0.17905703
-0.036774881 -0.18387441 -0.16139358
-0.037135288 -0.2228117 -0.14337333
-0.037503049 -0.26252139 -0.12498516
-0.037878282 -0.30302629 -0.10622355
-0.056232926 -0.50609636 0.8115086
-0.054934315 -0.54934299 0.7465781
-0.053694565 -0.59064025 0.68459058
-0.052509319 -0.63011169 0.62532789
-0.05137505 -0.66787583 0.56861502
-0.050288957 -0.7040453 0.51431018
-0.049247835 -0.73871744 0.46225399
-0.048248943 -0.77198297 0.41230935
-0.047289766 -0.80392611 0.36435062
-0.046367984 -0.83462381 0.31826162
-0.045481451 -0.86414742 0.27393481
-0.044628181 -0.8925637 0.23127136
-0.043806184 -0.9199298 0.19017136
-0.044041783 -0.96891916 0.20195141
0 0.7308358 -0.17304805
0 0.69429606 -0.17304276
0 0.65775418 -0.1730428
0 0.62121403 -0.17303753
0 0.58467209 -0.17303744
0 0.54813164 -0.17303222
0 0.51158953 -0.17303218
0 0.47504744 -0.17303218
0 0.43850654 -0.1730269
0 0.40196434 -0.17302695
0 0.36542219 -0.17302683
0 0.32887995 -0.17302683
0 0.29233775 -0.17302692
0 0.25579545 -0.17302687
0 0.21925335 -0.17302682
0 0.18271112 -0.17302686
0 0.14616884 -0.17302698
0 0.10962655 -0.17302692
0 0.073084511 -0.17302695
0 0.036542214 -0.17302692
0 7.4505806e-09 -0.17302695
0 -0.036542289 -0.1730269
0 -0.073084421 -0.17302686
0 -0.10962663 -0.17302687
0 -0.14616892 -0.17302684
0 -0.18271098 -0.17302686
0 -0.219485 -0.1710965
0 -0.25856125 -0.1532722
0 -0.29840556 -0.13510263
0 -0.33904186 -0.11657196
0 -0.38049704 -0.097652212
0 -0.42279482 -0.078342661
0 -0.46596164 -0.058631107
0 -0.51002288 -0.038511053
0 -0.70830756 0.52953202
0 -0.74309629 0.47685009
0 -0.77646279 0.42630857
0 -0.80849791 0.37779722
0 -0.83927703 0.33118755
0 -0.86887276 0.28636983
0 -0.89735228 0.24324298
0 -0.92477721 0.20171273
0 -0.95181918 0.16308764
0 -1.0065417 0.18799636
0.037618127 0.75236261 -0.11923128
0.037618242 0.71474648 -0.11922577
0.037618242 0.67712831 -0.11922577
0.037618242 0.6395101 -0.1192257
0.037618354 0.60189354 -0.11922021
0.037618354 0.56427532 -0.11922011
0.037618466 0.52665848 -0.1192145
0.037618466 0.48903999 -0.11921452
0.037618577 0.45142293 -0.11920889
0.037618577 0.41380432 -0.11920893
0.037618577 0.37618577 -0.11920894
0.037618577 0.33856726 -0.11920892
0.037618577 0.30094856 -0.11920893
0.037618689 0.26333082 -0.11920331
0.037618689 0.22571206 -0.11920325
0.037618689 0.18809354 -0.11920327
0.037618689 0.15047479 -0.11920337
0.037618689 0.11285609 -0.11920323
0.037618689 0.075237416 -0.11920325
0.037618689 0.037618566 -0.11920328
0.037618689 5.5879354e-08 -0.1192033
0.037618689 -0.0376187 -0.11920341
0.037618689 -0.075237393 -0.11920326
0.037618689 -0.11285608 -0.11920328
0.037618689 -0.15047476 -0.1192033
0.037618689 -0.18809342 -0.11920333
0.037618689 -0.22571203 -0.11920326
0.037618689 -0.26333088 -0.1192033
0.037618689 -0.30094948 -0.11920322
0.037618689 -0.33856815 -0.11920325
0.037618689 -0.37618691 -0.11920336
0.037841775 -0.41625953 -0.10804892
0.038223274 -0.45867926 -0.088974103
0.038612541 -0.50196302 -0.069510728
0.039010301 -0.54614425 -0.0496227
0.039416466 -0.5912469 -0.029314488
0.03983105 -0.63729668 -0.0085851848
0.040254578 -0.68432778 0.012591302
0.046888098 -0.8439858 0.3442674
0.045981757 -0.87365353 0.29895023
0.045109633 -0.90219265 0.25534394
0.044270128 -0.9296726 0.21336856
0.0434613 -0.95614851 0.17292723
0.042995285 -0.9888916 0.14962649
0.043487094 -1.0436903 0.17421705
0.077519588 0.7751959 -0.062148064
0.077519588 0.73643613 -0.062148035
0.077519827 0.69767845 -0.062142104
0.077519827 0.65891844 -0.062142223
0.077520065 0.62016058 -0.062136114
0.077520065 0.58140045 -0.062136114
0.077520303 0.54264206 -0.062130228
0.077520303 0.50388193 -0.062130213
0.077520534 0.46512321 -0.062124327
0.077520534 0.42636287 -0.062124327
0.077520773 0.38760388 -0.062118202
0.077520773 0.34884354 -0.062118337
0.077520773 0.31008303 -0.062118329
0.077520773 0.27132264 -0.062118247
0.077520773 0.23256232 -0.06211824
0.077520773 0.19380191 -0.062118322
0.077520773 0.15504161 -0.062118303
0.077520773 0.11628111 -0.062118314
0.077520773 0.077520803 -0.062118296
0.077520773 0.03876048 -0.062118288
0.077520773 -9.3132257e-09 -0.062118292
0.077520773 -0.038760498 -0.062118292
0.077520773 -0.077520818 -0.062118288
0.077520773 -0.11628114 -0.06211827
0.077520773 -0.15504153 -0.062118359
0.077520773 -0.19380203 -0.062118359
0.077520773 -0.23256226 -0.062118255
0.077520773 -0.27132267 -0.062118344
0.077520773 -0.31008315 -0.062118337
0.077520773 -0.34884357 -0.062118262
0.077520773 -0.38760388 -0.062118247
0.077520773 -0.42636424 -0.062118322
0.077520773 -0.46512467 -0.062118232
0.077520773 -0.50388509 -0.062118322
0.077520773 -0.54264539 -0.062118322
0.077583052 -0.58187282 -0.060561299
0.078385279 -0.62708223 -0.040505826
0.079204015 -0.67323405 -0.020037442
0.080041297 -0.72037172 0.00089487433
0.080896482 -0.76851666 0.022274464
0.081769876 -0.81769872 0.044109017
0.082662597 -0.86795723 0.066427171
0.087376989 -0.96114695 0.1842871
0.085800894 -0.98671025 0.14488459
0.085458502 -1.0255021 0.13632476
0.11991878 0.79945844 -0.001491636
0.11991878 0.75948548 -0.0014916062
0.11991915 0.71951485 -0.0014852285
0.11991915 0.67954195 -0.0014851689
0.11991953 0.63957095 -0.001478821
0.11991953 0.59959769 -0.001478821
0.11991991 0.55962634 -0.0014724433
0.11991991 0.51965302 -0.0014725327
0.11992028 0.47968119 -0.0014662147
0.11992028 0.43970767 -0.00146617
0.11992068 0.39973554 -0.0014598817
0.11992068 0.35976207 -0.0014598668
0.11992068 0.31978852 -0.0014599413
0.11992106 0.2798157 -0.0014535338
0.11992106 0.23984206 -0.0014535263
0.11992106 0.19986835 -0.0014534444
0.11992106 0.1598947 -0.0014534444
0.11992106 0.11992101 -0.00145353
0.11992106 0.079947375 -0.0014535263
0.11992106 0.039973654 -0.0014534425
0.11992106 3.5041012e-08 -0.0014536055
0.11992106 -0.039973684 -0.0014535245
0.11992106 -0.079947315 -0.0014535189
0.11992106 -0.11992103 -0.0014536045
0.11992106 -0.15989466 -0.0014536008
0.11992106 -0.19986838 -0.0014535189
0.11992106 -0.23984209 -0.0014536008
0.11992106 -0.27981573 -0.0014535934
0.11992106 -0.31978944 -0.0014535189
0.11992106 -0.35976315 -0.0014535934
0.11992106 -0.3997367 -0.0014535189
0.11992106 -0.4397105 -0.0014535189
0.11992106 -0.47968423 -0.0014536083
0.11992106 -0.51965773 -0.0014535189
0.11992106 -0.55963159 -0.0014535189
0.11992106 -0.59960526 -0.0014536083
0.11992106 -0.63957882 -0.0014534891
0.11992106 -0.67955261 -0.0014535189
0.11992106 -0.71952635 -0.0014536083
0.11992106 -0.75949997 -0.0014534295
0.12063736 -0.80424905 0.010484844
0.12193094 -0.85351646 0.032044679
0.12325418 -0.90386391 0.054098666
0.12460646 -0.95531625 0.076636612
0.12598832 -1.0079066 0.099667668
0.12739946 -1.0616622 0.12318659
0.16505779 0.82528889 0.063084573
0.16505779 0.78402448 0.063084513
0.16505833 0.74276239 0.063091248
0.16505833 0.70149779 0.063091278
0.16505887 0.66023546 0.063098103
0.16505887 0.61897063 0.063098043
0.16505942 0.57770789 0.063104868
0.16505942 0.53644305 0.063104868
0.16505942 0.49517822 0.063104838
0.16505994 0.45391482 0.063111603
0.16505994 0.41264981 0.063111603
0.16506049 0.37138605 0.063118368
0.16506049 0.33012098 0.063118368
0.16506103 0.28885689 0.063125096
0.16506103 0.24759153 0.063125066
0.16506103 0.20632631 0.063125215
0.16506103 0.165061 0.063125111
0.16506103 0.1237958 0.063125096
0.16506103 0.082530499 0.063125156
0.16506103 0.04126529 0.063125141
0.16506103 -8.7544322e-08 0.063125111
0.16506103 -0.041265219 0.063125186
0.16506103 -0.082530513 0.063125074
0.16506103 -0.12379581 0.063125134
0.16506103 -0.16506101 0.063125119
0.16506103 -0.20632632 0.063125186
0.16506103 -0.24759158 0.063125066
0.16506103 -0.28885674 0.063125141
0.16506103 -0.33012211 0.063125119
0.16506103 -0.3713873 0.063125089
0.16506103 -0.41265252 0.063125074
0.16506103 -0.45391783 0.063125134
0.16506103 -0.49518311 0.063125044
0.16506103 -0.53644836 0.063125193
0.16506103 -0.57771361 0.063125074
0.16506103 -0.61897886 0.063125074
0.16506103 -0.66024411 0.063125134
0.16506103 -0.70150936 0.063125104
0.16506103 -0.74277472 0.063125074
0.16506103 -0.78403986 0.063125163
0.16506103 -0.82530516 0.063125044
0.16506103 -0.86657035 0.063125074
0.16506103 -0.9078356 0.063125104
0.16506103 -0.94910073 0.063125014
0.16514701 -0.99088192 0.064199746
0.16696626 -1.0435389 0.086940408
0.16882774 -1.0973802 0.11020893
0.21321107 0.85284424 0.13197294
0.21321107 0.810202 0.13197291
0.21321179 0.76756251 0.13198033
0.21321179 0.72492003 0.13198021
0.21321179 0.68227768 0.13198003
0.2132125 0.63963747 0.13198736
0.2132125 0.596995 0.13198732
0.21321324 0.55435443 0.13199469
0.21321324 0.51171172 0.13199461
0.21321395 0.46907073 0.13200188
0.21321395 0.4264279 0.13200192
0.21321468 0.3837865 0.13200912
0.21321468 0.34114349 0.13200915
0.21321541 0.29850155 0.13201627
0.21321541 0.25585848 0.13201621
0.21321613 0.21321613 0.13202339
0.21321613 0.17057286 0.1320235
0.21321613 0.12792961 0.13202344
0.21321613 0.085286438 0.13202345
0.21321613 0.042643189 0.13202339
0.21321613 8.9406967e-08 0.13202351
0.21321613 -0.042643253 0.13202351
0.21321613 -0.085286424 0.13202354
0.21321613 -0.12792967 0.13202347
0.21321613 -0.17057285 0.1320235
0.21321613 -0.2132161 0.13202344
0.21321613 -0.25585935 0.13202354
0.21321613 -0.29850253 0.13202339
0.21321613 -0.34114578 0.13202348
0.21321613 -0.38378903 0.13202342
0.21321613 -0.42643228 0.13202353
0.21321613 -0.46907538 0.13202348
0.21321613 -0.51171863 0.13202341
0.21321613 -0.55436188 0.13202353
0.21321613 -0.59700513 0.13202345
0.21321613 -0.63964832 0.13202348
0.21321613 -0.68229157 0.13202342
0.21321613 -0.7249347 0.13202342
0.21321613 -0.76757807 0.13202345
0.21321613 -0.81022125 0.13202348
0.21321613 -0.85286462 0.13202345
0.21321613 -0.89550757 0.13202351
0.21321613 -0.93815076 0.13202336
0.21321613 -0.98079431 0.1320236
0.21321613 -1.0234374 0.13202348
0.21321613 -1.0660807 0.13202357
0.21321613 -1.1087238 0.13202345
0.26469097 0.88230336 0.20562062
0.26469097 0.83818805 0.20562035
0.26469189 0.79407573 0.20562819
0.26469189 0.7499603 0.2056281
0.26469189 0.70584506 0.2056281
0.26469284 0.66173208 0.20563591
0.26469284 0.61761653 0.20563588
0.26469377 0.57350302 0.20564353
0.26469377 0.52938741 0.20564358
0.26469469 0.48527375 0.20565136
0.26469469 0.4411577 0.2056513
0.26469561 0.39704347 0.20565894
0.26469561 0.35292739 0.20565905
0.26469654 0.30881274 0.20566675
0.26469654 0.26469642 0.20566675
0.26469654 0.22058044 0.20566677
0.26469746 0.17646493 0.20567441
0.26469746 0.13234872 0.2056745
0.26469746 0.088232487 0.20567457
0.26469746 0.044116274 0.20567448
0.26469746 -2.9802322e-08 0.20567447
0.26469746 -0.044116169 0.20567447
0.26469746 -0.088232562 0.20567454
0.26469746 -0.13234878 0.20567445
0.26469746 -0.176465 0.20567453
0.26469746 -0.22058113 0.20567453
0.26469746 -0.26469749 0.20567442
0.26469746 -0.30881372 0.2056745
0.26469746 -0.35292986 0.2056745
0.26469746 -0.39704618 0.2056745
0.26469746 -0.44116247 0.20567447
0.26469746 -0.4852787 0.20567456
0.26469746 -0.52939492 0.20567445
0.26469746 -0.57351124 0.20567444
0.26469746 -0.61762738 0.20567447
0.26469746 -0.66174364 0.2056746
0.26469746 -0.70586008 0.2056745
0.26469746 -0.74997616 0.20567453
0.26469746 -0.79409236 0.2056745
0.26469746 -0.83820856 0.20567444
0.26469746 -0.88232493 0.20567453
0.26469746 -0.92644107 0.2056745
0.26469746 -0.97055721 0.20567441
0.26469746 -1.0146737 0.20567447
0.26469746 -1.0587897 0.20567447
0.3198534 0.91386688 0.28452954
0.31985459 0.8681767 0.28453785
0.31985459 0.8224833 0.28453791
0.31985572 0.77679253 0.28454614
0.31985572 0.73109877 0.2845462
0.31985691 0.68540764 0.28455436
0.31985691 0.63971364 0.2845543
0.31985804 0.5940221 0.28456256
0.31985804 0.54832816 0.28456277
0.31985924 0.50263596 0.28457093
0.31985924 0.45694172 0.28457081
0.31986037 0.41124904 0.28457919
0.31986037 0.36555469 0.28457931
0.31986156 0.31986138 0.28458747
0.31986156 0.27416697 0.28458747
0.31986156 0.22847247 0.28458756
0.31986269 0.18277872 0.28459582
0.31986269 0.13708404 0.28459588
0.31986386 0.091389693 0.28460416
0.31986386 0.045694783 0.28460413
0.31986386 -5.9604645e-08 0.28460419
0.31986386 -0.045694806 0.28460413
0.31986386 -0.091389559 0.28460413
0.31986386 -0.13708447 0.28460407
0.31986386 -0.1827794 0.28460404
0.31986386 -0.22847423 0.28460407
0.31986386 -0.27416909 0.28460413
0.31986386 -0.3198638 0.2846041
0.31986386 -0.36555865 0.28460398
0.31986386 -0.41125348 0.28460404
0.31986386 -0.45694834 0.2846041
0.31986386 -0.50264317 0.28460413
0.31986386 -0.54833794 0.2846041
0.31986386 -0.59403282 0.28460407
0.31986386 -0.63972759 0.28460407
0.31986386 -0.68542254 0.28460407
0.31986386 -0.73111737 0.28460407
0.31986386 -0.7768122 0.28460395
0.31986386 -0.82250708 0.28460407
0.31986386 -0.86820185 0.28460401
0.31986386 -0.91389674 0.28460419
0.31986386 -0.95959151 0.28460416
0.31986386 -1.0052865 0.28460419
0.31986386 -1.0509813 0.28460419
0.37911049 0.94777632 0.36930293
0.37911192 0.90039086 0.36931184
0.37911192 0.85300183 0.36931169
0.37911335 0.8056159 0.36932075
0.37911335 0.75822663 0.36932069
0.37911478 0.71084017 0.36932957
0.37911478 0.66345072 0.36932945
0.37911621 0.61606389 0.36933857
0.37911621 0.56867433 0.36933851
0.37911764 0.52128679 0.36934739
0.37911764 0.47389713 0.36934736
0.37911764 0.42650735 0.36934748
0.37911904 0.37911898 0.3693561
0.37911904 0.33172917 0.36935627
0.37912047 0.28434035 0.36936527
0.37912047 0.23695025 0.36936516
0.37912187 0.18956095 0.36937398
0.37912187 0.14217077 0.3693741
0.3791233 0.094780862 0.36938298
0.3791233 0.047390431 0.36938304
0.3791233 -0 0.36938304
0.3791233 -0.047390342 0.36938301
0.3791233 -0.094780773 0.36938304
0.3791233 -0.14217126 0.36938298
0.3791233 -0.18956171 0.36938301
0.3791233 -0.23695207 0.36938298
0.3791233 -0.2843425 0.36938298
0.3791233 -0.33173284 0.36938313
0.3791233 -0.37912336 0.36938304
0.3791233 -0.4265137 0.36938301
0.3791233 -0.47390422 0.3693831
0.3791233 -0.52129453 0.36938304
0.3791233 -0.568685 0.36938292
0.3791233 -0.61607546 0.36938304
0.3791233 -0.66346574 0.36938292
0.3791233 -0.71085608 0.36938304
0.3791233 -0.75824654 0.36938307
0.3791233 -0.80563706 0.36938304
0.37912473 -0.8530305 0.36939192
0.37912473 -0.90042126 0.36939195
0.37912473 -0.94781184 0.36939189
0.37912473 -0.9952023 0.36939183
0.44293451 0.98429894 0.46060953
0.44293624 0.93508768 0.46061933
0.44293624 0.88587248 0.4606193
0.442938 0.83666056 0.46062875
0.442938 0.78744525 0.46062881
0.44293973 0.73823273 0.46063846
0.44293973 0.6890173 0.4606384
0.44293973 0.63980174 0.46063834
0.44294143 0.59058869 0.46064818
0.44294143 0.54137278 0.46064809
0.44294316 0.49215895 0.4606576
0.44294316 0.44294313 0.46065754
0.44294491 0.39372891 0.46066737
0.44294491 0.34451273 0.46066725
0.44294664 0.29529786 0.46067706
0.44294664 0.24608158 0.46067703
0.44294837 0.19686589 0.46068645
0.44294837 0.14764951 0.46068648
0.44295007 0.09843339 0.4606961
0.44295007 0.049216703 0.4606961
0.44295183 5.9604645e-08 0.4607057
0.44295183 -0.049216807 0.4607057
0.44295183 -0.098433673 0.46070573
0.44295183 -0.14765063 0.46070564
0.44295183 -0.1968675 0.46070582
0.44295183 -0.24608436 0.46070582
0.44295183 -0.2953012 0.46070567
0.44295183 -0.3445181 0.4607057
0.44295183 -0.39373487 0.46070579
0.44295183 -0.44295189 0.46070579
0.44295183 -0.49216869 0.46070573
0.44295183 -0.54138553 0.46070573
0.44295183 -0.5906024 0.46070573
0.44295183 -0.63981932 0.46070573
0.44295183 -0.68903613 0.46070576
0.44295183 -0.73825306 0.4607057
0.44295183 -0.78746986 0.46070582
0.44295183 -0.83668673 0.46070576
0.44295183 -0.88590372 0.4607057
0.44295183 -0.93512058 0.46070576
0.51187462 1.0237491 0.55923533
0.5118767 0.97256571 0.55924582
0.5118767 0.92137814 0.55924594
0.5118767 0.8701905 0.55924606
0.51187885 0.81900609 0.55925632
0.51187885 0.76781815 0.55925643
0.51188087 0.71663326 0.55926675
0.51188087 0.66544509 0.55926675
0.51188296 0.61425942 0.55927712
0.51188296 0.56307113 0.55927688
0.51188505 0.51188499 0.55928743
0.51188505 0.46069646 0.55928737
0.51188713 0.40950966 0.55929786
0.51188713 0.35832089 0.55929768
0.51188916 0.30713356 0.55930829
0.51188916 0.25594464 0.55930829
0.51189125 0.20475647 0.55931866
0.51189125 0.15356745 0.55931872
0.51189339 0.10237868 0.55932897
0.51189339 0.051189393 0.55932909
0.51189339 -2.9802322e-08 0.55932891
0.51189548 -0.051189572 0.5593394
0.51189548 -0.10237899 0.55933952
0.51189548 -0.15356861 0.5593394
0.51189548 -0.20475818 0.5593394
0.51189548 -0.25594771 0.55933946
0.51189548 -0.30713725 0.55933946
0.51189548 -0.35832676 0.55933952
0.51189548 -0.40951639 0.55933946
0.51189548 -0.46070591 0.55933934
0.5118975 -0.5118975 0.55934989
0.5118975 -0.56308728 0.55934983
0.5118975 -0.61427701 0.55934983
0.5118975 -0.66546679 0.55934978
0.5118975 -0.71665651 0.55934983
0.5118975 -0.76784623 0.55934978
0.5118975 -0.81903613 0.55934995
0.5118975 -0.87022561 0.55934983
0.5118975 -0.92141557 0.55934989
0.58657169 1.1198187 0.66609734
0.58657169 1.0664939 0.66609716
0.5865742 1.0131736 0.66610849
0.5865742 0.9598487 0.66610861
0.5865742 0.9065237 0.66610855
0.58657664 0.85320246 0.66611981
0.58657664 0.79987729 0.66611987
0.58657914 0.74655521 0.66613096
0.58657914 0.69322991 0.66613108
0.58658165 0.63990718 0.66614234
0.58658165 0.58658159 0.66614246
0.58658409 0.5332582 0.66615361
0.58658409 0.47993246 0.66615355
0.58658659 0.42660844 0.66616499
0.58658659 0.37328234 0.66616488
0.5865891 0.31995767 0.6661762
0.5865891 0.26663151 0.66617626
0.5865891 0.2133051 0.6661762
0.58659154 0.15997939 0.66618747
0.58659154 0.10665292 0.66618741
0.58659405 0.053326696 0.66619879
0.58659405 8.9406967e-08 0.66619885
0.58659655 -0.053326875 0.66621017
0.58659655 -0.10665393 0.66621
0.58659899 -0.15998161 0.66622138
0.58659899 -0.21330868 0.66622126
0.58659899 -0.26663595 0.66622138
0.58659899 -0.31996304 0.66622126
0.58659899 -0.3732903 0.66622144
0.58659899 -0.42661735 0.66622126
0.58659899 -0.47994459 0.66622132
0.58659899 -0.53327185 0.66622132
0.58659899 -0.58659905 0.66622138
0.58659899 -0.63992608 0.66622126
0.58659899 -0.69325328 0.66622132
0.58659899 -0.74658054 0.66622132
0.58659899 -0.7999078 0.66622132
0.58659899 -0.85323495 0.66622138
0.66778415 0.89037871 0.78229582
0.66778415 0.83473015 0.782296
0.66778702 0.77908486 0.7823084
0.66778702 0.72343594 0.78230822
0.66779 0.66779 0.78232056
0.66779 0.61214072 0.78232044
0.66779298 0.5564943 0.7823329
0.66779298 0.50084478 0.7823329
0.6677959 0.44519722 0.78234512
0.6677959 0.38954759 0.78234518
0.66779882 0.3338995 0.78235751
0.66779882 0.2782495 0.78235734
0.66779882 0.2225996 0.78235734
0.6678018 0.16695037 0.78236973
0.6678018 0.11130038 0.78236979
0.66780472 0.055650502 0.78238213
0.66780472 5.9604645e-08 0.78238195
0.6678077 -0.055650592 0.78239429
0.6678077 -0.11130127 0.78239441
0.66781068 -0.16695267 0.78240669
0.66781068 -0.2226035 0.78240657
0.66781068 -0.27825433 0.78240645
0.66781354 -0.33390659 0.78241879
0.66781354 -0.38955808 0.78241891
0.66781354 -0.44520921 0.78241897
0.66781354 -0.50086015 0.78241891
0.66781354 -0.55651134 0.78241891
0.66781354 -0.61216229 0.78241879
0.66781354 -0.66781354 0.78241885
0.66781354 -0.72346473 0.78241891
0.66781354 -0.77911568 0.78241873
0.75640124 0.46547765 0.90909791
0.75640482 0.40729481 0.90911126
0.75640482 0.34910983 0.90911126
0.75640827 0.29092625 0.90912491
0.75640827 0.23274103 0.90912491
0.75641173 0.17455661 0.90913832
0.75641173 0.11637104 0.90913832
0.75641525 0.058185756 0.90915155
0.75641525 2.9802322e-08 0.90915167
0.7564187 -0.058186024 0.90916491
0.7564187 -0.11637217 0.90916502
0.7564187 -0.17455819 0.90916508
0.75642228 -0.23274541 0.90917838
0.75642228 -0.29093149 0.9091785
0.75642574 -0.34911951 0.90919203
0.75642574 -0.40730616 0.90919185
0.75642574 -0.46549284 0.90919197
0.75642574 -0.52367926 0.90919203
0.75642574 -0.58186579 0.90919185
0.75642574 -0.64005256 0.90919197
0.75642574 -0.69823903 0.90919197
0.75642574 -0.7564255 0.90919197
0.85348529 -5.9604645e-08 1.0480239
0.85348934 -0.060963422 1.0480387
0.85348934 -0.12192702 1.0480386
0.85348934 -0.18289053 1.0480387
0.85349351 -0.24385509 1.0480533
0.85349351 -0.30481905 1.0480535
0.85349762 -0.36578476 1.0480682
0.85349762 -0.42674878 1.048068
0.8535018 -0.48771536 1.0480828
0.8535018 -0.54867983 1.0480828
0.8535018 -0.60964411 1.0480827
0.8535018 -0.67060858 1.0480828
0.96030635 -0.51216358 1.2008834
0.96030635 -0.5761838 1.2008836
