# .PCD v0.7 - Point Cloud Data file format
VERSION 0.7
FIELDS x y z
SIZE 4 4 4
TYPE F F F
COUNT 1 1 1
WIDTH 934
HEIGHT 1
VIEWPOINT 0 0 0 1 0 0 0
POINTS 934
DATA ascii
-1.1780732 -0.48193908 0.67730129
-1.1411505 -0.51870489 0.59338611
-1.1103446 -0.5551722 0.52337271
-1.1510117 -0.38367063 0.74036646
-1.1141148 -0.42442459 0.65251637
-1.0795097 -0.46264699 0.57012355
-1.0469856 -0.49856457 0.49268523
-1.0488528 -0.54939914 0.49713081
-1.1226448 -0.28066123 0.80647421
-1.0858175 -0.32574522 0.71440595
-1.0513296 -0.36796537 0.62818623
-1.018961 -0.4075844 0.54726475
-0.9885298 -0.44483846 0.47118682
-0.95986354 -0.47993174 0.39952132
-0.98863065 -0.54374683 0.47143874
-1.0375632 -0.62253791 0.59377038
-1.0928755 -0.1725592 0.8758502
-1.0561682 -0.22235113 0.77925241
-1.0218424 -0.26890594 0.68892109
-0.9896816 -0.31253091 0.60428751
-0.95948339 -0.35349396 0.52481866
-0.93107361 -0.39203086 0.4500559
-0.90429431 -0.42834997 0.37958413
-0.88824672 -0.46749824 0.33735344
-0.92963493 -0.53820974 0.44627005
-0.97580773 -0.61629963 0.56777751
-1.061592 -0.058977365 0.94872928
-1.0250632 -0.11389595 0.84726
-0.99096447 -0.1651608 0.75254154
-0.95906138 -0.21312483 0.66392171
-0.92914844 -0.25809678 0.58083004
-0.90104491 -0.30034828 0.50276488
-0.87458825 -0.34011763 0.42927408
-0.84964406 -0.37761962 0.35998464
-0.82608026 -0.41304025 0.29452974
-0.83338499 -0.4629916 0.31482062
-0.93911076 -0.57390088 0.60850298
-0.92952532 -0.61968362 0.58187699
-1.0286869 0.060510904 1.0254121
-0.99240226 1.4901161e-07 0.91869265
-0.95859015 -0.056387663 0.81924522
-0.92700613 -0.10905957 0.72635102
-0.89743698 -0.1583712 0.63938296
-0.8696959 -0.20463431 0.55779135
-0.84361511 -0.24812213 0.4810831
-0.81905615 -0.28907862 0.40885091
-0.79588366 -0.32771674 0.34069654
-0.77398908 -0.36423025 0.27630076
-0.75326425 -0.39878684 0.21534538
-0.77957094 -0.45857114 0.29271796
-0.8918854 -0.5771023 0.62305474
-0.8827318 -0.62310481 0.59613234
-0.89736181 -0.6862179 0.63916171
-0.99402487 0.1863797 1.10619
-0.95806062 0.1197575 0.99380147
-0.92460787 0.057788044 0.88926184
-0.89341241 -5.9604645e-08 0.79177612
-0.86424965 -0.054015666 0.70064241
-0.83693397 -0.10461667 0.61528099
-0.81129217 -0.15211727 0.53515023
-0.78717482 -0.19679359 0.45978346
-0.76444703 -0.23888972 0.38875926
-0.74299759 -0.27862412 0.32172978
-0.72271901 -0.31618947 0.25835922
-0.70351547 -0.35175771 0.19834799
-0.69664443 -0.39186254 0.17687613
-0.72679043 -0.45424402 0.27108234
-0.84413034 -0.58033955 0.63776952
-0.8354187 -0.62656403 0.61054575
-0.83537722 -0.6787439 0.61041605
-0.99587011 0.39834803 1.3194292
-0.95746106 0.31915373 1.1913993
-0.92190474 0.24584121 1.072878
-0.8888905 0.17777807 0.9628306
-0.85816294 0.11442173 0.86040545
-0.82948887 0.055299371 0.76482522
-0.80266899 -2.9802322e-08 0.67542553
-0.77752912 -0.051835269 0.59162593
-0.7539162 -0.10052213 0.51291633
-0.73169243 -0.14633837 0.43883699
-0.71074402 -0.18953171 0.36900884
-0.69095916 -0.23031966 0.3030594
-0.67224836 -0.26889923 0.2406902
-0.65452421 -0.3054446 0.18160962
-0.63770854 -0.3401112 0.12555742
-0.6472367 -0.38834199 0.15731794
-0.80427402 -0.53618264 0.68077546
-0.79583651 -0.58361357 0.65265054
-0.78757739 -0.63006198 0.62512016
-0.77948797 -0.67555618 0.5981555
-0.9567768 0.54672968 1.4169225
-0.91883475 0.45941737 1.281415
-0.88378274 0.37876409 1.1562293
-0.85131091 0.30403963 1.0402585
-0.82114071 0.23461163 0.93250757
-0.79303569 0.16993615 0.83213258
-0.76679093 0.10954157 0.73840141
-0.74222767 0.053016365 0.6506753
-0.71918917 8.9406967e-08 0.56839508
-0.69753516 -0.049823985 0.49105921
-0.67714953 -0.096735612 0.41825342
-0.65792161 -0.14098316 0.34958228
-0.63975322 -0.1827867 0.28469521
-0.62256348 -0.22234406 0.22330336
-0.60627127 -0.25983059 0.16511685
-0.59081197 -0.29540604 0.10990508
-0.5761196 -0.32921124 0.057432279
-0.59871292 -0.38488689 0.13812259
-0.7549597 -0.53925693 0.69614697
-0.74699777 -0.58692694 0.66771144
-0.73919892 -0.63359904 0.63985825
-0.73156422 -0.67930973 0.61259168
-0.87796164 0.60781968 1.3766381
-0.84353948 0.51910114 1.2442446
-0.81171459 0.4370769 1.1218414
-0.78220379 0.36101702 1.0083383
-0.75476354 0.29029375 0.90279895
-0.72918326 0.2243641 0.80441332
-0.70528007 0.16275692 0.7124778
-0.68289137 0.10506025 0.62636775
-0.66188312 0.050914049 0.54556662
-0.64212888 -2.9802322e-08 0.46958861
-0.62351954 -0.047963083 0.39801437
-0.60595626 -0.093224064 0.33046323
-0.58935738 -0.13600549 0.26662162
-0.57364172 -0.17650518 0.20617649
-0.55874425 -0.21490161 0.14887868
-0.54459918 -0.25135344 0.094474562
-0.53115439 -0.28600621 0.042763762
-0.52965873 -0.32594377 0.037011236
-0.55105418 -0.38149902 0.11930145
-0.70507669 -0.54236668 0.71169573
-0.6975984 -0.59027553 0.68293297
-0.69027418 -0.6371761 0.65476286
-0.68310499 -0.68310499 0.62718898
-0.69069612 -0.74382657 0.65638578
-0.76993465 0.57745111 1.2079234
-0.74119985 0.49413323 1.0881948
-0.71453267 0.41681069 0.97708178
-0.68971461 0.34485739 0.87367302
-0.6665656 0.27773559 0.77721882
-0.64492005 0.21497336 0.68702912
-0.62463611 0.156159 0.60251254
-0.60558915 0.10093156 0.52315038
-0.58766943 0.048972473 0.44848502
-0.5707776 -2.9802322e-08 0.3781023
-0.55483174 -0.046235979 0.31166118
-0.5397507 -0.089958444 0.24882361
-0.52546966 -0.13136739 0.18931919
-0.51192307 -0.17064098 0.1328752
-0.49905905 -0.20794129 0.079275131
-0.48682415 -0.24341202 0.028296232
-0.47517627 -0.27718616 -0.020236582
-0.48480472 -0.32320321 0.019882083
-0.6617502 -0.49631262 0.75715476
-0.65461498 -0.54551256 0.7274248
-0.64763206 -0.59366268 0.69832915
-0.6407938 -0.6407938 0.6698364
-0.63410115 -0.68694305 0.64195049
-0.63058472 -0.73568213 0.62729847
-0.69795626 0.63450575 1.1723906
-0.67218554 0.54996991 1.055251
-0.64825016 0.4714545 0.94645387
-0.62596077 0.39833874 0.84513867
-0.60515326 0.33008352 0.75055891
-0.58568454 0.26622027 0.66206485
-0.56742942 0.20633797 0.57908696
-0.55027795 0.15007575 0.50112557
-0.53413081 0.097114608 0.42772961
-0.51890624 0.047173366 0.35852709
-0.50452369 1.1920929e-07 0.2931518
-0.49091867 -0.044628955 0.23131076
-0.47802648 -0.086913876 0.17270988
-0.46579564 -0.12703514 0.11711519
-0.45417508 -0.16515464 0.064294517
-0.44311881 -0.20141768 0.014038779
-0.43258941 -0.23595786 -0.033822365
-0.42450255 -0.27013794 -0.070580833
-0.44070578 -0.32051331 0.0030702949
-0.61018205 -0.49923989 0.77341717
-0.60356456 -0.54869509 0.74333739
-0.59708899 -0.59708905 0.71390319
-0.59074849 -0.64445287 0.68508238
-0.58454359 -0.69082427 0.65687859
-0.57846773 -0.73623157 0.62926096
-0.62755787 0.69031352 1.1376516
-0.60463101 0.60463095 1.0230172
-0.58332026 0.52498823 0.91646355
-0.56346059 0.4507685 0.81716526
-0.5449087 0.38143617 0.72440571
-0.52753735 0.31652236 0.63754869
-0.51124132 0.25562078 0.55606902
-0.49592197 0.19836879 0.47947222
-0.48149398 0.14444828 0.40733242
-0.4678801 0.093576051 0.3392626
-0.45501646 0.045501702 0.2749446
-0.44284129 -3.7252903e-08 0.21406859
-0.43129918 -0.043129917 0.15635815
-0.42034486 -0.084069021 0.10158657
-0.40993187 -0.12297952 0.049521603
-0.40002358 -0.16000944 -1.9855797e-05
-0.39058176 -0.19529089 -0.047228813
-0.38157657 -0.22894591 -0.092255011
-0.38283536 -0.26798469 -0.085960947
-0.39733604 -0.31786883 -0.013457462
-0.55800205 -0.50220174 0.78987241
-0.55191493 -0.55191481 0.75943673
-0.54595912 -0.60055518 0.72965801
-0.54013056 -0.64815676 0.70051521
-0.53442281 -0.69474965 0.67197645
-0.52883673 -0.74037135 0.64404577
-0.55868453 0.7449128 1.1036652
-0.53848696 0.65815079 0.99145639
-0.51969635 0.57744026 0.88706398
-0.50217515 0.50217515 0.78972411
-0.48579687 0.43181938 0.69873369
-0.4704532 0.36590812 0.61349118
-0.45604908 0.30403268 0.53346813
-0.4425008 0.24583377 0.45820004
-0.42973265 0.19099225 0.38726586
-0.41768223 0.13922745 0.32031903
-0.40628916 0.090286456 0.25702429
-0.39549977 0.043944508 0.19708329
-0.38526994 1.1175871e-07 0.14025071
-0.37555465 -0.041728355 0.086277045
-0.36631855 -0.081404112 0.034965102
-0.35752463 -0.11917482 -0.013889648
-0.34914416 -0.15517518 -0.060447898
-0.34114653 -0.1895258 -0.10487914
-0.33350807 -0.22233871 -0.14731508
-0.34183022 -0.26586786 -0.10108088
-0.5108695 -0.45410609 0.83802605
-0.50519919 -0.50519919 0.80652428
-0.49965551 -0.55517268 0.77572626
-0.49423221 -0.60406148 0.74559671
-0.4889254 -0.65190041 0.71611428
-0.48372921 -0.69871992 0.6872468
-0.4786444 -0.74455786 0.65899771
-0.48131728 -0.80219567 0.6738475
-0.47370741 0.7105611 0.96053374
-0.45734435 0.62884861 0.85826445
-0.442074 0.55259246 0.76282483
-0.42779043 0.4812642 0.67355251
-0.41440096 0.41440088 0.58986825
-0.40182424 0.35159627 0.51126373
-0.38998687 0.29249018 0.43728039
-0.37882844 0.23676777 0.36754018
-0.36829078 0.18414536 0.3016797
-0.3583222 0.13437076 0.23937614
-0.34888029 0.087220013 0.18036397
-0.33992201 0.042490162 0.1243749
-0.33141339 -4.4703484e-08 0.071195945
-0.32331923 -0.0404149 0.020607512
-0.31561205 -0.078902915 -0.02756235
-0.30826283 -0.11559847 -0.07349512
-0.30124894 -0.15062448 -0.11733177
-0.29454628 -0.18409145 -0.15922341
-0.29101971 -0.2182647 -0.18126464
-0.30147144 -0.26378754 -0.11594132
-0.45686355 -0.45686349 0.85525948
-0.45176423 -0.50823486 0.82338881
-0.4467755 -0.55846936 0.79220909
-0.44189766 -0.60760927 0.7617228
-0.43712521 -0.65568793 0.73189497
-0.43245289 -0.70273602 0.70269293
-0.42788121 -0.74879217 0.67411977
-0.42340517 -0.79388463 0.64614445
-0.41025531 0.76190269 0.93025732
-0.39622399 0.67924112 0.83003378
-0.38312075 0.60204685 0.73643905
-0.37085482 0.52979255 0.64882535
-0.35935146 0.46202341 0.56665826
-0.34854022 0.3983317 0.48943511
-0.33836049 0.33836058 0.41672304
-0.32875854 0.28179303 0.34813768
-0.31968537 0.22834665 0.28332916
-0.3111006 0.17777176 0.22200958
-0.30296385 0.1298417 0.1638898
-0.29524288 0.084355101 0.10873992
-0.28790468 0.041129205 0.056324374
-0.28092337 -4.1909516e-09 0.0064576436
-0.2742717 -0.039181717 -0.041054159
-0.26792857 -0.076550938 -0.086362213
-0.26187223 -0.11223096 -0.12962183
-0.25608286 -0.14633301 -0.17097431
-0.25054467 -0.17896046 -0.21053292
-0.25272879 -0.2166246 -0.19493218
-0.26173937 -0.26173937 -0.13057077
-0.40219775 -0.45965454 0.87270343
-0.39768147 -0.5113048 0.84044427
-0.39326376 -0.56180537 0.80888891
-0.38894477 -0.61119878 0.77803922
-0.38471967 -0.65951943 0.74785978
-0.3805837 -0.70679826 0.71831733
-0.37653735 -0.75307471 0.68941462
-0.37257612 -0.79837739 0.66112024
-0.34808782 0.8122049 0.900594
-0.33629766 0.72864479 0.80234265
-0.32528144 0.65056294 0.71054095
-0.31496406 0.57743412 0.62456262
-0.30528101 0.50880182 0.54387087
-0.29617563 0.44426331 0.46799237
-0.28759766 0.38346362 0.39650944
-0.27950156 0.32608518 0.32904193
-0.27184975 0.27184969 0.26527703
-0.26460484 0.22050402 0.20490262
-0.25773695 0.17182457 0.14767016
-0.2512157 0.12560785 0.093326442
-0.24501711 0.081672341 0.041671496
-0.23911706 0.039852876 -0.0074955951
-0.23349373 -2.0489097e-08 -0.054356642
-0.22812952 -0.038021602 -0.099058367
-0.22300556 -0.074335195 -0.14175794
-0.21810737 -0.10905361 -0.18257624
-0.21341912 -0.14227939 -0.22164491
-0.20892876 -0.17410721 -0.2590647
-0.2150127 -0.21501274 -0.20836516
-0.35086912 -0.40934727 0.92377138
-0.34685996 -0.46248001 0.89036196
-0.34294137 -0.51441211 0.85770708
-0.33910882 -0.56518137 0.82576925
-0.33536249 -0.61483133 0.79454988
-0.33169803 -0.66339594 0.76401246
-0.32811135 -0.71090788 0.73412359
-0.32460278 -0.75740659 0.70488566
-0.32116851 -0.80292118 0.67626643
-0.32666981 -0.8711195 0.72211051
-0.28716499 0.86149496 0.87151206
-0.27753383 0.77709472 0.77520055
-0.26852775 0.69817215 0.68513978
-0.26008779 0.62421066 0.60074008
-0.25216222 0.55475676 0.52148438
-0.24470536 0.48941082 0.44691601
-0.23767601 0.42781687 0.37662226
-0.23104005 0.36966407 0.31026256
-0.22476377 0.31466931 0.2475
-0.21882024 0.26258424 0.18806462
-0.21318294 0.21318291 0.13169165
-0.20782813 0.16626246 0.078143448
-0.20273638 0.12164186 0.027225882
-0.19788752 0.079155065 -0.021262446
-0.1932658 0.038653135 -0.06747973
-0.18885447 -4.8428774e-08 -0.11159304
-0.18464056 -0.036928136 -0.15373217
-0.18061008 -0.072244063 -0.19403696
-0.17675228 -0.10605139 -0.23261486
-0.17305538 -0.13844432 -0.26958394
-0.17202032 -0.17202035 -0.2799345
-0.17785379 -0.21342456 -0.22159979
-0.2942203 -0.41190839 0.94206518
-0.29083765 -0.46534023 0.90823859
-0.28753185 -0.51755744 0.87518108
-0.28429914 -0.56859827 0.84285355
-0.28113952 -0.61850703 0.8112576
-0.27804941 -0.66731864 0.78035629
-0.27502644 -0.7150687 0.75012678
-0.27206734 -0.76178843 0.72053564
-0.2691724 -0.80751717 0.69158608
-0.26917124 -0.86134809 0.69157463
-0.21989734 0.824615 0.74857897
-0.21282783 0.74489748 0.66021019
-0.20619789 0.67014313 0.57733572
-0.19996931 0.59990782 0.49947858
-0.194106 0.5337916 0.42618728
-0.18857671 0.47144178 0.35707122
-0.18335305 0.41254431 0.29177547
-0.17841163 0.35682333 0.23000774
-0.17372897 0.30402565 0.17147437
-0.16928639 0.25392962 0.11594205
-0.16506535 0.20633161 0.063179195
-0.16104919 0.16104919 0.012977049
-0.1572243 0.11791825 -0.034834094
-0.15357639 0.076788172 -0.080432869
-0.15009439 0.037523586 -0.12395788
-0.14676635 2.9802322e-08 -0.16555852
-0.14358309 -0.035895802 -0.20534909
-0.14053461 -0.070267335 -0.24345514
-0.13761325 -0.10320988 -0.2799722
-0.13481088 -0.13481088 -0.3150019
-0.13663898 -0.17079867 -0.29215053
-0.1412394 -0.21185908 -0.23464525
-0.23685816 -0.41450176 0.96058941
-0.23411804 -0.46823594 0.92633796
-0.23144062 -0.5207414 0.89286995
-0.22882268 -0.57205683 0.86014593
-0.22626433 -0.62222683 0.82816643
-0.22376257 -0.67128754 0.79689425
-0.2213155 -0.71927536 0.76630604
-0.21892044 -0.76622146 0.73636782
-0.21657759 -0.81216592 0.70708215
-0.21428436 -0.8571375 0.67841667
-0.16335537 0.87122858 0.72245157
-0.15815197 0.79075968 0.63572812
-0.15326981 0.71525908 0.55435908
-0.14868006 0.64428025 0.47786328
-0.1443572 0.57742864 0.40581557
-0.14027809 0.51435292 0.3378306
-0.13642368 0.45474553 0.27359009
-0.1327754 0.39832616 0.21278554
-0.12931673 0.34484458 0.15514113
-0.12603411 0.29407957 0.10043056
-0.12291359 0.24582708 0.048422121
-0.11994425 0.19990715 -0.0010666922
-0.11711464 0.15615295 -0.048227023
-0.11441581 0.11441579 -0.09320768
-0.11183821 0.074558832 -0.13616741
-0.10937452 0.036458112 -0.17722896
-0.10701674 -9.6857548e-08 -0.21652532
-0.10475875 -0.03491959 -0.25415844
-0.10259408 -0.068396017 -0.29023638
-0.10051679 -0.1005168 -0.32485795
-0.09857101 -0.13142794 -0.35728762
-0.10175743 -0.16959569 -0.30418053
-0.18090068 -0.36180145 1.0148735
-0.17877001 -0.41713008 0.97936213
-0.1766881 -0.47116813 0.94466388
-0.17465493 -0.52396476 0.91077793
-0.17266804 -0.57555997 0.87766272
-0.17072506 -0.625992 0.84528005
-0.16882609 -0.67530429 0.8136301
-0.16696888 -0.72353178 0.78267688
-0.16515137 -0.77070636 0.7523852
-0.16337372 -0.81686866 0.72275758
-0.16163392 -0.86204755 0.69376099
-0.10787863 0.91696811 0.69682771
-0.10447365 0.83578914 0.61170352
-0.10127705 0.75957781 0.53178853
-0.098270252 0.68789178 0.45661864
-0.095436841 0.62033933 0.38578334
-0.092761904 0.55657142 0.31890994
-0.090233155 0.49628222 0.25569093
-0.0878383 0.43919149 0.1958198
-0.085567579 0.38505417 0.13905169
-0.083411023 0.33364415 0.085137874
-0.081360757 0.28476262 0.033881441
-0.079408623 0.23822585 -0.014922105
-0.077548206 0.19387051 -0.061432611
-0.07577274 0.15154546 -0.10581926
-0.074076965 0.11111549 -0.14821357
-0.072455436 0.072455406 -0.18875185
-0.070903175 0.035451546 -0.22755837
-0.069416218 -1.4901161e-08 -0.26473221
-0.067990169 -0.033995062 -0.30038351
-0.066621706 -0.066621706 -0.33459502
-0.065307073 -0.097960636 -0.36746082
-0.065267675 -0.13053545 -0.36844593
-0.067363821 -0.1684095 -0.31604221
-0.12137865 -0.36413595 1.0343288
-0.11993993 -0.41978985 0.9983604
-0.11853434 -0.47413746 0.96322072
-0.11716186 -0.52722842 0.92890882
-0.1158208 -0.57910407 0.89538252
-0.11450958 -0.62980276 0.86260176
-0.11322822 -0.67936933 0.83056772
-0.11197522 -0.72783887 0.79924273
-0.11074916 -0.77524412 0.76859134
-0.10955014 -0.82162589 0.73861557
-0.10837679 -0.86701429 0.70928204
-0.10962351 -0.93179995 0.74045002
-0.053436391 0.96185505 0.67168188
-0.051764801 0.8800016 0.58810228
-0.050194822 0.8031171 0.50960326
-0.048717268 0.73075914 0.43572575
-0.047324214 0.66253895 0.36607313
-0.046008617 0.59811187 0.30029303
-0.044764027 0.53716838 0.23806374
-0.043585148 0.47943667 0.17911974
-0.042466626 0.42466629 0.12319365
-0.041404217 0.37263787 0.070073053
-0.040393531 0.32314822 0.019538954
-0.039431144 0.27601796 -0.028580733
-0.038513422 0.2310805 -0.074466638
-0.037637565 0.18818776 -0.11825956
-0.036800656 0.14720255 -0.16010503
-0.036000054 0.10800011 -0.20013505
-0.035233639 0.070467286 -0.23845574
-0.03449909 0.034499064 -0.27518332
-0.033794627 -7.4505806e-08 -0.31040627
-0.033118278 -0.033118248 -0.34422395
-0.03246855 -0.064937115 -0.37671041
-0.031843744 -0.095531255 -0.40795058
-0.032414097 -0.12965642 -0.37943277
-0.061829984 -0.30914989 1.0913618
-0.061083492 -0.366501 1.0540366
-0.060354803 -0.42248341 1.0176024
-0.059643019 -0.47714421 0.98201317
-0.0589481 -0.53053308 0.94726712
-0.058269184 -0.58269197 0.91332167
-0.057605471 -0.6336602 0.88013577
-0.056956962 -0.68348366 0.84771049
-0.056322891 -0.73219752 0.81600678
-0.055702787 -0.77983904 0.78500158
-0.055095945 -0.82643926 0.75465953
-0.054502416 -0.87203848 0.72498304
-0.054194458 -0.92130584 0.70958513
0 0.92342585 0.56493425
0 0.8459034 0.48781323
0 0.77290636 0.41519445
0 0.70404959 0.34669444
0 0.63898873 0.28196469
0 0.57742226 0.22071722
0 0.51907241 0.16266428
0 0.46369711 0.10757601
0 0.41107112 0.055217549
0 0.36099747 0.0054038465
0 0.31329364 -0.042052656
0 0.26779443 -0.087320648
0 0.22435199 -0.13053755
0 0.18282875 -0.17185001
0 0.14310132 -0.21137115
0 0.1050547 -0.24922472
0 0.068585247 -0.28550458
0 0.033596516 -0.32031614
0 -4.4703484e-08 -0.35373789
0 -0.032285601 -0.38585976
0 -0.063335598 -0.41674832
0 -0.093715623 -0.43821263
0 -0.12878953 -0.39026853
0 -0.30719072 1.0717692
0 -0.36889657 1.0740025
0 -0.42521229 1.0370929
0 -0.48018926 1.0010453
0 -0.53387898 0.96585703
0 -0.58632433 0.93148434
0 -0.63756508 0.8978858
0 -0.68764788 0.86506188
0 -0.73660886 0.83297318
0 -0.78448504 0.80159497
0 -0.83130908 0.77089238
0 -0.87712163 0.74086726
0 -0.92195189 0.71148568
0.050846301 0.96607971 0.5421772
0.049330726 0.88795304 0.46639845
0.0479027 0.81434584 0.39499724
0.046555199 0.74488318 0.32762209
0.045281436 0.67922151 0.2639339
0.044075359 0.617055 0.20363019
0.042932011 0.55811602 0.14646275
0.041846342 0.50215602 0.092179433
0.040814366 0.44895798 0.040580511
0.039832059 0.39832059 -0.0085347146
0.038895804 0.35006219 -0.055347562
0.038002666 0.30402142 -0.10000437
0.037149519 0.26004669 -0.14266187
0.036333937 0.21800351 -0.18344083
0.035553299 0.17776647 -0.22247285
0.034805596 0.13922241 -0.25985804
0.0340886 0.10226582 -0.29570779
0.033400636 0.066801205 -0.3301059
0.032739893 0.032739893 -0.36314315
0.032104701 2.9802322e-08 -0.39490268
0.031493768 -0.031493858 -0.42544934
0.030905576 -0.06181109 -0.4548589
0.03103702 -0.093111053 -0.44828674
0.031983551 -0.1279341 -0.40096027
0.061017543 -0.30508763 1.0507393
0.061887372 -0.37132418 1.0942308
0.061139494 -0.42797637 1.0568372
0.060409192 -0.48327345 1.0203218
0.05969641 -0.53726757 0.98468292
0.059000254 -0.59000254 0.949875
0.058319878 -0.64151871 0.91585624
0.057655279 -0.69186342 0.88262618
0.057005655 -0.74107331 0.85014486
0.056370504 -0.78918713 0.81838757
0.055749111 -0.8362366 0.78731763
0.055141505 -0.88226408 0.75693744
0.054547001 -0.92729902 0.72721243
0.10079793 1.0079793 0.51981044
0.09781909 0.92928135 0.44533959
0.095011264 0.85510135 0.375144
0.092360139 0.7850613 0.30886596
0.089852631 0.71882099 0.24617797
0.087477967 0.65608478 0.18681148
0.085225314 0.59657729 0.13049515
0.083086036 0.54005921 0.07701312
0.081051528 0.48630908 0.026150286
0.07911402 0.43512714 -0.02228722
0.077267215 0.38633612 -0.068457231
0.075504445 0.33976999 -0.11252658
0.073820531 0.29528216 -0.1546244
0.07220988 0.25273454 -0.19489083
0.070668213 0.2120046 -0.23343268
0.069190986 0.17297742 -0.27036303
0.06777408 0.1355482 -0.30578566
0.066414215 0.099621281 -0.33978236
0.065107688 0.065107599 -0.37244567
0.063851722 0.031925857 -0.40384471
0.062643148 -7.4505806e-08 -0.43405908
0.061479621 -0.030739814 -0.46314722
0.060358386 -0.060358405 -0.4911781
0.061676543 -0.092514798 -0.45822412
0.11753062 -0.23506129 0.93812788
0.12120473 -0.30301183 1.0299807
0.1245946 -0.37378386 1.1147271
0.12307908 -0.43077677 1.0768393
0.12160001 -0.48639998 1.0398625
0.12015548 -0.5406996 1.003749
0.11874542 -0.59372717 0.96849787
0.11736809 -0.6455245 0.93406427
0.11602179 -0.69613093 0.9004072
0.11470655 -0.74559265 0.86752629
0.11342081 -0.79394555 0.83538246
0.11216307 -0.84122288 0.80393887
0.11093341 -0.88746732 0.77319741
0.10973041 -0.9327085 0.74312252
0.11036848 -0.99331623 0.75907427
0.14987889 1.0491523 0.49784365
0.14548706 0.96991372 0.42464662
0.14134529 0.8951869 0.35561725
0.13743232 0.8245939 0.29040101
0.13373064 0.7578069 0.22870618
0.13022313 0.69452333 0.17024776
0.12689447 0.63447249 0.11477032
0.12373216 0.57741684 0.062065125
0.12072325 0.52313411 0.011916459
0.11785757 0.47143024 -0.035844997
0.11512442 0.4221229 -0.081397265
0.11251551 0.37505174 -0.12487923
0.1100219 0.33006564 -0.16643941
0.10763673 0.28703129 -0.2061922
0.10535249 0.24582246 -0.2442629
0.10316347 0.20632693 -0.28074667
0.10106356 0.16843927 -0.31574506
0.099047177 0.13206285 -0.34935153
0.097109921 0.097110003 -0.38163894
0.095246762 0.063497856 -0.41269165
0.093453981 0.03115131 -0.4425714
0.091727212 -1.0430813e-07 -0.47135079
0.090063319 -0.030021176 -0.49908227
0.089316532 -0.05954428 -0.51152885
0.09192615 -0.091926038 -0.46803519
0.17514117 -0.23352146 0.91888189
0.18057841 -0.30096394 1.0095023
0.18636495 -0.37272972 1.1059449
0.18583459 -0.43361399 1.0971054
0.18358682 -0.48956487 1.0596426
0.18139191 -0.5441758 1.0230607
0.17924972 -0.59749907 0.98735738
0.17715751 -0.64957738 0.95248741
0.17511278 -0.70045102 0.91840857
0.17311551 -0.75016719 0.88512081
0.17116329 -0.7987619 0.85258365
0.16925384 -0.84626919 0.82075959
0.16738728 -0.89273202 0.78965014
0.16556142 -0.93818128 0.75921929
0.16377498 -0.98264986 0.72944528
0.19235508 1.0098643 0.40430102
0.18692303 0.93461525 0.33640021
0.18178999 0.8635025 0.27223736
0.17693135 0.79619098 0.21150404
0.17232506 0.73238146 0.15392545
0.16795307 0.67181236 0.099275857
0.16379693 0.61423856 0.047323942
0.15984201 0.55944705 -0.0021125674
0.15607308 0.50723755 -0.049224034
0.15247828 0.45743477 -0.094159409
0.14904489 0.4098734 -0.13707674
0.14576313 0.36440781 -0.17809865
0.14262278 0.32090133 -0.21735288
0.13961451 0.27922899 -0.25495645
0.13673089 0.23927903 -0.29100165
0.13396361 0.20094538 -0.32559258
0.13130648 0.1641331 -0.35880679
0.12875237 0.12875237 -0.39073315
0.12629604 0.094722062 -0.42143717
0.12393139 0.061965659 -0.45099545
0.12165393 0.030413583 -0.47946346
0.11945868 2.9802322e-08 -0.50690418
0.11734097 -0.029335186 -0.5333755
0.11835673 -0.059178442 -0.5206787
0.12179325 -0.091344997 -0.47772217
0.12543562 -0.12543568 -0.4321925
0.2391561 -0.29894516 0.98931324
0.24676546 -0.37014812 1.0844307
0.24942221 -0.43648893 1.1176401
0.24638556 -0.49277106 1.0796819
0.24342078 -0.54769689 1.0426221
0.24052766 -0.60131907 1.006458
0.2377025 -0.65368181 0.97114354
0.23494184 -0.70482552 0.9366352
0.23224564 -0.75479829 0.90293264
0.22961061 -0.80363715 0.86999488
0.22703472 -0.85137999 0.83779609
0.22451496 -0.89805984 0.80629933
0.22205152 -0.94371891 0.77550602
0.21964154 -0.98838693 0.74538141
0.23844226 1.0491459 0.38428482
0.23176403 0.97340894 0.31750271
0.22544971 0.90179873 0.25435928
0.21946956 0.83398438 0.19455793
0.21379919 0.76967704 0.13785422
0.20841375 0.70860672 0.083999842
0.20329362 0.65053964 0.032798678
0.19841842 0.59525526 -0.015953541
0.19377215 0.54256195 -0.0624163
0.18933851 0.49228007 -0.10675278
0.18510266 0.44424635 -0.14911124
0.18105271 0.39831594 -0.18961057
0.1771757 0.35435137 -0.22838077
0.17346172 0.31223103 -0.26552048
0.16989981 0.27183968 -0.30113968
0.16648166 0.23307432 -0.33532107
0.16319792 0.1958375 -0.36815855
0.16004162 0.16004159 -0.39972156
0.15700468 0.12560372 -0.43009079
0.15408127 0.092448741 -0.4593251
0.15126471 0.060505897 -0.48749062
0.14854892 0.029709861 -0.51464856
0.14592926 2.9802322e-08 -0.54084492
0.14340009 -0.028679937 -0.56613678
0.14704278 -0.058817178 -0.52970982
0.15128613 -0.090771601 -0.48727638
0.15578127 -0.12462507 -0.44232491
0.16055173 -0.16055174 -0.39462039
0.16562401 -0.19874886 -0.34389752
0.1710268 -0.23943751 -0.28986979
0.17679444 -0.28287113 -0.23219329
0.30625761 -0.55126369 1.0624381
0.30259421 -0.60518849 1.0258045
0.29901743 -0.65783834 0.99003673
0.29552287 -0.70925474 0.95509088
0.29211035 -0.75948691 0.92096579
0.28877577 -0.80857211 0.88761979
0.28551644 -0.85654944 0.8550266
0.28232861 -0.90345162 0.82314849
0.27921242 -0.9493221 0.79198641
0.27616426 -0.99419135 0.76150495
0.28105804 -1.0680203 0.81044245
0.28376949 1.0877829 0.36460784
0.27588552 1.0115802 0.29890841
0.26842687 0.93949395 0.23675263
0.26136175 0.87120581 0.17787689
0.25465819 0.80641747 0.12201378
0.24829069 0.74487209 0.068951339
0.2422331 0.6863271 0.01847142
0.23646477 0.6305728 -0.029597878
0.23096408 0.57741016 -0.075437054
0.22571415 0.52666634 -0.11918648
0.2206976 0.47817802 -0.16099118
0.21589854 0.43179712 -0.20098308
0.21130437 0.3873913 -0.239268
0.20690109 0.34483504 -0.27596214
0.2026781 0.30401713 -0.31115359
0.19862352 0.26483127 -0.34494168
0.19472851 0.22718321 -0.37740022
0.19098282 0.19098288 -0.4086141
0.18737899 0.15614925 -0.43864608
0.18390864 0.12260579 -0.46756572
0.18056408 0.090282083 -0.49543709
0.1804473 0.060149059 -0.49641022
0.18044861 0.030074865 -0.49639934
0.18044989 -7.4505806e-08 -0.49638864
0.18045118 -0.030075103 -0.49637783
0.18045074 -0.060150281 -0.4963814
0.18045032 -0.090225205 -0.49638504
0.18573725 -0.12382481 -0.45232731
0.19138741 -0.15948942 -0.40524265
0.19739212 -0.19739215 -0.35520336
0.20378636 -0.2377508 -0.30191797
0.21060815 -0.2808108 -0.2450698
0.2179025 -0.32685381 -0.18428361
0.2257209 -0.37620151 -0.11913031
0.23412123 -0.42922223 -0.049127385
0.35687178 -0.71374357 0.9737938
0.35272345 -0.76423413 0.93922424
0.34867203 -0.813568 0.9054625
0.34471264 -0.8617816 0.8724677
0.34084064 -0.90890825 0.84020084
0.33705616 -0.95499241 0.80866349
0.33335477 -1.0000645 0.7778188
0.33337682 -1.0556933 0.7780025
0.32835349 1.1257836 0.34524465
0.31930354 1.04914 0.28060168
0.31073901 0.97660834 0.21942666
0.30262092 0.90786278 0.16144025
0.29491717 0.84262037 0.10641333
0.28759497 0.78061497 0.054112107
0.28062844 0.72161597 0.0043511093
0.27399147 0.66540772 -0.043056071
0.26766032 0.61179495 -0.088278294
0.26161596 0.56060553 -0.13145234
0.2558378 0.5116756 -0.17272481
0.25031009 0.4648616 -0.21220854
0.24501549 0.42002654 -0.25002709
0.2399409 0.37705004 -0.28627405
0.23963523 0.34233603 -0.28845751
0.23963718 0.30810496 -0.28844357
0.23963915 0.27387333 -0.28842959
0.23964107 0.23964103 -0.28841567
0.23964304 0.20540833 -0.28840169
0.23964499 0.17117494 -0.28838781
0.23964696 0.13694115 -0.28837383
0.23964891 0.10270672 -0.28835994
0.23965085 0.068471693 -0.28834587
0.2396528 0.034236148 -0.28833199
0.23965541 -5.9604645e-08 -0.28831342
0.23965605 -0.034236602 -0.28830874
0.23965541 -0.068472959 -0.28831336
0.23965476 -0.10270915 -0.28831813
0.23965412 -0.13694528 -0.28832263
0.23965345 -0.17118105 -0.28832728
0.2396528 -0.20541665 -0.28833193
0.2396528 -0.23965284 -0.28833193
0.24393354 -0.27878127 -0.25775516
0.25231895 -0.32440996 -0.19785962
0.26130134 -0.37328768 -0.13369957
0.27094772 -0.42577493 -0.064796776
0.28133276 -0.48228469 0.0093818903
0.29254654 -0.54330075 0.089480549
0.3046914 -0.60938281 0.17622945
0.31788835 -0.6811893 0.27049327
0.40006381 -0.91443151 0.85746074
0.39559504 -0.96073067 0.82554096
0.39122501 -1.0060072 0.79432678
0.38695049 -1.0502942 0.76379424
0.36203685 1.0861105 0.26259249
0.35239953 1.0131485 0.20235926
0.34326315 0.94397378 0.14525709
0.33458856 0.87829494 0.091040701
0.32634053 0.81585139 0.03949067
0.31849039 0.75641471 -0.0095728934
0.31782073 0.71509659 -0.013758272
0.31782371 0.67537546 -0.013739407
0.31782675 0.6356535 -0.013720572
0.31782973 0.5959307 -0.013701916
0.31783277 0.5562073 -0.013683051
0.31783575 0.51648307 -0.013664275
0.31783876 0.47675812 -0.013645515
0.31784177 0.4370324 -0.013626695
0.31784478 0.39730597 -0.013607889
0.31784779 0.35757869 -0.013589025
0.31785077 0.31785077 -0.013570338
0.31785378 0.27812207 -0.013551623
0.31785679 0.23839258 -0.013532713
0.3178598 0.19866234 -0.013513945
0.31786281 0.15893134 -0.013495132
0.31786582 0.11919966 -0.013476387
0.31786883 0.079467222 -0.013457607
0.31787282 0.039734073 -0.013432543
0.31787583 -5.5879354e-08 -0.013413718
0.31787583 -0.039734494 -0.013413681
0.31787485 -0.079468712 -0.013419967
0.31787384 -0.11920278 -0.013426237
0.31787282 -0.15893632 -0.01343248
0.31787184 -0.19866996 -0.013438806
0.31787184 -0.2384038 -0.013438806
0.31787083 -0.27813691 -0.013445109
0.31786981 -0.31786987 -0.013451368
0.31786883 -0.35760242 -0.013457537
0.31786782 -0.39733478 -0.013463855
0.31786683 -0.43706691 -0.013470069
0.31886509 -0.47829759 -0.007231012
0.33146459 -0.53862995 0.071515873
0.34510076 -0.60392636 0.15674198
0.35990831 -0.67482799 0.24928917
0.37604356 -0.75208712 0.35013455
0.39369345 -0.83659858 0.4604463
0.41308177 -0.9294337 0.58162296
0.44484371 -1.0565038 0.78013533
0.42591155 1.0884405 0.36603749
0.42591795 1.0411327 0.36607301
0.42592275 0.99381983 0.36609992
0.42592755 0.94650555 0.36612627
0.42593235 0.89919043 0.36615291
0.42593715 0.85187435 0.36617979
0.42594194 0.80455703 0.36620647
0.42594674 0.75723851 0.36623293
0.42595154 0.70991927 0.36625969
0.42595634 0.66259873 0.3662864
0.42596114 0.61527705 0.36631301
0.42596593 0.56795454 0.36633977
0.42597073 0.52063084 0.36636633
0.42597553 0.47330612 0.36639309
0.42598033 0.42598042 0.36641979
0.42598513 0.37865347 0.36644629
0.42598993 0.33132547 0.36647308
0.42599475 0.28399646 0.36649963
0.42599952 0.23666644 0.3665264
0.42600435 0.18933526 0.3665531
0.42600912 0.14200312 0.36657965
0.42601553 0.094670087 0.36661518
0.42602035 0.047335595 0.36664191
0.42602512 -1.4901161e-08 0.36666864
0.42602354 -0.047335938 0.36665973
0.42602193 -0.094671458 0.36665082
0.42602035 -0.14200678 0.36664188
0.42601871 -0.18934163 0.36663297
0.42601871 -0.23667714 0.366633
0.42601714 -0.28401136 0.36662406
0.42601553 -0.33134544 0.3666153
0.42601395 -0.37867901 0.36660627
0.42601234 -0.4260124 0.36659738
0.42601073 -0.47334531 0.36658856
0.42600912 -0.52067786 0.36657974
0.42600754 -0.56800997 0.36657071
0.42600754 -0.61534417 0.36657083
0.42600593 -0.66267586 0.36656183
0.42600435 -0.71000719 0.36655301
0.42600274 -0.75733805 0.36654401
0.43842661 -0.82813913 0.43556565
0.45978707 -0.91957402 0.55423468
0.48333961 -1.0203837 0.68508255
0.50943315 -1.1320738 0.83004642
0.58525163 0.64377677 0.92612046
0.5852598 0.58525991 0.92616123
0.5852679 0.52674115 0.92620182
0.58527613 0.46822107 0.92624289
0.58528429 0.40969896 0.92628348
0.5852924 0.35117552 0.92632437
0.58530331 0.29265147 0.92637861
0.58531141 0.23412454 0.9264195
0.58531958 0.17559579 0.92646021
0.58532774 0.11706552 0.92650104
0.58533591 0.058533669 0.92654181
0.58534133 5.9604645e-08 0.92656898
0.58533859 -0.058533907 0.92655528
0.58533591 -0.11706716 0.92654192
0.58533317 -0.1755999 0.9265281
0.58533317 -0.23413324 0.92652833
0.58533043 -0.29266518 0.92651474
0.58532774 -0.35119665 0.9265011
0.585325 -0.40972748 0.92648739
0.58532232 -0.46825781 0.92647386
0.58531958 -0.52678758 0.92646027
0.5853169 -0.58531702 0.92644674
0.5853169 -0.64384866 0.92644674
0.58531415 -0.70237696 0.92643297
0.58531141 -0.76090485 0.92641938
0.58530873 -0.81943226 0.92640603
0.58530599 -0.87795901 0.92639226
0.58530331 -0.93648529 0.92637879
0.58530056 -0.99501091 0.9263652
0.58529788 -1.0535361 0.92635155
