# .PCD v0.7 - Point Cloud Data file format
VERSION 0.7
FIELDS x y z
SIZE 4 4 4
TYPE F F F
COUNT 1 1 1
WIDTH 950
HEIGHT 1
VIEWPOINT 0 0 0 1 0 0 0
POINTS 950
DATA ascii
-1.2014773 -0.51491874 0.86052251
-1.060758 -0.42430323 0.65175736
-1.1122417 -0.50050867 0.7804665
-0.93918437 -0.3460153 0.47139993
-0.98152763 -0.41327477 0.58282954
-1.0711929 -0.50740719 0.81879115
-1.0787404 -0.56775802 0.83865267
-1.069505 -0.29708463 0.97070944
-0.83309424 -0.27769807 0.31401291
-0.86816186 -0.33761847 0.41142297
-1.0297488 -0.45766628 0.86027575
-1.0160234 -0.50801158 0.8221494
-1.0026546 -0.55703044 0.78501397
-0.7692979 -0.18101129 0.26250312
-0.73970681 -0.21756089 0.17547065
-0.76890308 -0.27137759 0.26134202
-0.98706669 -0.40643933 0.9029994
-0.97371626 -0.45821953 0.86373377
-0.96071792 -0.50861543 0.82550311
-0.94806617 -0.55768597 0.78829223
-0.95785731 -0.61979002 0.81708968
-0.63414818 -0.11890283 -0.018424589
-0.65686738 -0.16421679 0.052572936
-0.68127728 -0.21289919 0.12885387
-0.94309461 -0.3536604 0.94703281
-0.93014383 -0.40693793 0.90656167
-0.91754806 -0.45877409 0.8672002
-0.90528488 -0.50922269 0.82887751
-0.89334911 -0.55834317 0.79157829
-0.88172013 -0.60618258 0.75523764
-0.56376874 -0.075169131 -0.12090845
-0.58288836 -0.11657758 -0.057176471
-0.60334843 -0.16089292 0.011023887
-0.89776379 -0.29925466 0.99240816
-0.88525248 -0.354101 0.95070392
-0.87308109 -0.40743789 0.91013259
-0.86124372 -0.4593299 0.87067461
-0.84971935 -0.50983143 0.83225989
-0.83849925 -0.55899948 0.79485965
-0.82757521 -0.60688847 0.75844616
-0.83879685 -0.67103755 0.79585189
-0.85856032 -1.1920929e-07 1.0661489
-0.50031209 -0.035736673 -0.21330878
-0.51641852 -0.073774025 -0.1557858
-0.5335933 -0.11434143 -0.094447665
-0.85101533 -0.24314734 1.0392027
-0.83897263 -0.29963312 0.99619323
-0.82726228 -0.354541 0.95437014
-0.81587797 -0.40793908 0.91371226
-0.80479914 -0.45988518 0.87414491
-0.79402071 -0.51044196 0.83565044
-0.78352374 -0.55965972 0.79816115
-0.77330059 -0.60759324 0.76165015
-0.76334411 -0.65429485 0.72609127
-0.60238487 0.046337292 0.31672716
-0.44280323 2.9802322e-08 -0.29704833
-0.45636851 -0.035105258 -0.24487418
-0.47079119 -0.072429478 -0.18940242
-0.80278552 -0.18525818 1.0874989
-0.79124361 -0.24345958 1.0431069
-0.78003263 -0.3000128 0.99998784
-0.7691313 -0.35498375 0.95805955
-0.75853401 -0.40844128 0.9173007
-0.74822128 -0.46044374 0.87763655
-0.73818862 -0.51105362 0.83904916
-0.72841817 -0.56032169 0.80147064
-0.71890295 -0.60830235 0.7648735
-0.70963317 -0.65504581 0.72922051
-0.72151804 -0.7215181 0.77493161
-0.4470408 0.074506924 -0.13746771
-0.39044237 0.032536864 -0.37329447
-0.4018524 1.4901161e-08 -0.32575268
-0.4139494 -0.034495763 -0.27534857
-0.75299448 -0.12549919 1.1373392
-0.74199992 -0.1855 1.0915284
-0.73131824 -0.24377269 1.0470214
-0.72094315 -0.30039304 1.003792
-0.71085501 -0.35542753 0.96175838
-0.70104861 -0.40894514 0.92089808
-0.69150585 -0.4610039 0.8811366
-0.68222255 -0.51166672 0.8424561
-0.67318213 -0.56098503 0.80478764
-0.66437817 -0.60901332 0.76810461
-0.65580159 -0.65580153 0.73236877
-0.64790398 -0.70189601 0.69946212
-0.34262055 0.093441918 -0.44277161
-0.34256974 0.062285483 -0.44300246
-0.35213897 0.032012597 -0.39950606
-0.36225909 -5.9604645e-08 -0.35350561
-0.69903672 -0.063548863 1.1773018
-0.69116026 -0.12566531 1.1415
-0.68105203 -0.18574142 1.0955534
-0.67123842 -0.24408671 1.0509462
-0.66170049 -0.30077291 1.007592
-0.65243286 -0.35587266 0.9654662
-0.64341825 -0.40944785 0.92449069
-0.63465232 -0.4615652 0.88464516
-0.62611914 -0.51227933 0.84585816
-0.61781514 -0.5616501 0.80811274
-0.60972583 -0.60972589 0.77134335
-0.60184562 -0.65655881 0.73552424
-0.59416652 -0.7021966 0.70061916
-0.63361567 0.31680784 1.1679405
-0.2910457 0.11641827 -0.5449093
-0.29863042 0.089589179 -0.50698555
-0.30662104 0.061324209 -0.46703243
-0.31505105 0.031505153 -0.42488241
-0.60716522 -5.9604645e-08 1.0356883
-0.62481993 -0.06248194 1.1239618
-0.62916195 -0.12583256 1.1456718
-0.61994839 -0.18598446 1.0996039
-0.61100376 -0.24440143 1.054881
-0.6023106 -0.30115521 1.0114152
-0.59386426 -0.35631865 0.96918321
-0.58564872 -0.4099541 0.92810571
-0.57766008 -0.4621281 0.88816255
-0.56988382 -0.51289541 0.84928131
-0.56231672 -0.5623166 0.81144571
-0.55494541 -0.61043996 0.77458948
-0.54776496 -0.657318 0.7386871
-0.54076791 -0.70299822 0.70370185
-0.53602076 -0.75042897 0.67996603
-0.42727694 0.28485125 0.37362278
-0.25659668 0.14255378 -0.57460052
-0.25815836 0.114737 -0.56592464
-0.26478636 0.088262111 -0.52910227
-0.27176434 0.060392082 -0.49033564
-0.52313346 0.058126062 0.90615952
-0.53767776 -0 0.98696077
-0.55305117 -0.061450183 1.0723686
-0.5669958 -0.12599921 1.1498392
-0.55868453 -0.18622825 1.1036655
-0.55061078 -0.24471587 1.0588107
-0.54276955 -0.30153856 1.0152487
-0.535146 -0.35676393 0.97289598
-0.52773619 -0.41046143 0.93172979
-0.52052629 -0.46268982 0.891675
-0.51351315 -0.51351315 0.85271287
-0.50668412 -0.56298244 0.81477416
-0.50003439 -0.61115319 0.77783114
-0.49355909 -0.65807879 0.74185717
-0.48724726 -0.70380169 0.7067914
-0.48109478 -0.74836957 0.672611
-0.30388299 0.26589766 -0.10086913
-0.23343116 0.17507339 -0.54119295
-0.2334317 0.14589484 -0.54118955
-0.2334317 0.11671589 -0.54118955
-0.23343116 0.087536737 -0.54119301
-0.23794639 0.059486672 -0.51297271
-0.24428765 0.030535921 -0.47333986
-0.25097615 5.9604645e-08 -0.43153682
-0.48361659 -0.060452104 1.0224661
-0.49761587 -0.1244041 1.1099614
-0.49725997 -0.18647245 1.1077372
-0.49006453 -0.24503225 1.0627658
-0.48307675 -0.30192298 1.0190918
-0.47628307 -0.35721248 0.97663158
-0.46968013 -0.41097012 0.93536282
-0.46325552 -0.46325552 0.89520943
-0.45700645 -0.5141322 0.85615265
-0.45092171 -0.56365204 0.81812286
-0.44499683 -0.61187065 0.78109258
-0.43922564 -0.65883851 0.74502265
-0.43360412 -0.70460665 0.70988804
-0.42812285 -0.74921483 0.67562985
-0.42574194 -0.79826617 0.6607495
-0.22160156 0.25325891 -0.41726938
-0.2091538 0.20915379 -0.50618201
-0.20915429 0.17927502 -0.5061785
-0.20915429 0.14939599 -0.5061785
-0.20915478 0.11951704 -0.50617498
-0.20915429 0.089637548 -0.50617844
-0.20915429 0.05975841 -0.5061785
-0.21051131 0.030073091 -0.49648553
-0.21618529 2.9802322e-08 -0.45595706
-0.22217362 -0.031739086 -0.41318339
-0.42825693 -0.12235919 1.0588403
-0.43567407 -0.18671748 1.11182
-0.42936161 -0.24534947 1.0667311
-0.42323154 -0.30230829 1.0229446
-0.41727203 -0.35766187 0.98037684
-0.41147998 -0.41147992 0.93900478
-0.40584463 -0.46382245 0.89875239
-0.40036339 -0.51475281 0.85960054
-0.39502645 -0.56432348 0.82147962
-0.3898299 -0.61258972 0.78436142
-0.38476831 -0.65960294 0.74820751
-0.3798365 -0.70541078 0.71298015
-0.3750295 -0.75005889 0.67864436
-0.37034419 -0.79359472 0.6451779
-0.3932232 0.65537214 1.2767223
-0.18368171 0.27552256 -0.46945682
-0.18368214 0.24490947 -0.46945316
-0.18368259 0.21429627 -0.46944946
-0.18368304 0.18368305 -0.46944571
-0.18368348 0.15306963 -0.46944195
-0.18368393 0.12245594 -0.46943825
-0.18368348 0.091841757 -0.46944201
-0.18368348 0.061227873 -0.46944192
-0.18368304 0.030613884 -0.46944568
-0.18368259 5.9604645e-08 -0.46944946
-0.18743566 -0.031239271 -0.43817395
-0.19268909 -0.064229697 -0.39439541
-0.3715468 -0.1857734 1.0960858
-0.36850134 -0.24566755 1.0707066
-0.36323169 -0.30269292 1.0267929
-0.35811234 -0.35811216 0.98413163
-0.35313362 -0.41198915 0.94264233
-0.34829304 -0.46439075 0.90230429
-0.3435818 -0.51537275 0.86304402
-0.33899784 -0.56499648 0.82484454
-0.33453315 -0.61331069 0.78763825
-0.33018449 -0.66036892 0.75139958
-0.32594743 -0.70621949 0.71609098
-0.32181776 -0.75090802 0.68167692
-0.31779143 -0.79447854 0.64812404
-0.31703329 -0.84542209 0.64180642
-0.24335118 0.5353725 0.43337402
-0.1569265 0.31385303 -0.43087274
-0.1569269 0.28246844 -0.43086883
-0.15692727 0.25108364 -0.4308649
-0.15692766 0.21969873 -0.430861
-0.15692806 0.18831363 -0.43085706
-0.15692806 0.15692803 -0.43085718
-0.15692845 0.12554272 -0.43085325
-0.15692845 0.094157055 -0.43085328
-0.15692845 0.062771454 -0.43085319
-0.15692806 0.031385571 -0.43085712
-0.15692766 -0 -0.430861
-0.15692727 -0.031385496 -0.43086493
-0.15801613 -0.063206419 -0.41997635
-0.16249806 -0.097498775 -0.37515727
-0.16724163 -0.13379326 -0.32772142
-0.30308032 -0.30308038 1.0306654
-0.29880333 -0.35856414 0.98789573
-0.294644 -0.41250163 0.94630241
-0.29060024 -0.46496028 0.90586466
-0.28666466 -0.51599634 0.86650854
-0.28283551 -0.56567097 0.82821721
-0.27910608 -0.61403334 0.790923
-0.27547371 -0.66113698 0.75459927
-0.27193466 -0.70703 0.71920896
-0.26848543 -0.75175905 0.68471617
-0.26512256 -0.79536778 0.65108788
-0.26184291 -0.83789718 0.6182912
-0.15498626 0.46495885 -0.062809452
-0.12878723 0.3541649 -0.39029726
-0.12878756 0.32196888 -0.39029312
-0.12878789 0.28977281 -0.39028901
-0.12878823 0.25757641 -0.39028499
-0.12878855 0.22537994 -0.39028084
-0.12878889 0.19318327 -0.39027676
-0.12878922 0.1609865 -0.39027256
-0.12878954 0.12878957 -0.3902685
-0.12878954 0.096592203 -0.3902685
-0.12878922 0.064394593 -0.39027256
-0.12878922 0.032197326 -0.39027262
-0.12878889 -7.4505806e-08 -0.39027673
-0.12878855 -0.032197148 -0.39028075
-0.12878823 -0.064394027 -0.39028496
-0.12878823 -0.09659113 -0.39028484
-0.13157481 -0.13157484 -0.35545242
-0.13546367 -0.16932955 -0.30684197
-0.23934345 -0.35901505 0.99165523
-0.23600876 -0.41301525 0.94997174
-0.23276465 -0.46552935 0.90942043
-0.22960956 -0.51662153 0.86998177
-0.22653887 -0.56634712 0.83159804
-0.22354822 -0.61475754 0.79421508
-0.22063553 -0.66190654 0.75780624
-0.21779774 -0.70784259 0.72233397
-0.21503204 -0.75261217 0.6877628
-0.21233568 -0.79625893 0.6540584
-0.20970613 -0.83882439 0.62118882
-0.20986152 -0.89191139 0.62313116
-0.099154197 0.42966813 -0.3475678
-0.09915445 0.3966178 -0.34756351
-0.099154711 0.36356726 -0.34755918
-0.099154972 0.33051661 -0.34755477
-0.09915524 0.29746571 -0.34755045
-0.099155493 0.26441464 -0.34754616
-0.099155754 0.23136339 -0.34754184
-0.099156015 0.19831195 -0.34753758
-0.099156015 0.16526002 -0.3475374
-0.099156275 0.13220835 -0.3475332
-0.099156529 0.099156484 -0.34752887
-0.099156275 0.066104174 -0.34753323
-0.099156275 0.033052117 -0.34753314
-0.099156015 -2.9802322e-08 -0.34753752
-0.099155754 -0.033051923 -0.34754181
-0.099155493 -0.066103652 -0.34754604
-0.099155493 -0.099155441 -0.34754616
-0.09915524 -0.13220692 -0.34755051
-0.09989243 -0.16648735 -0.33526388
-0.10288218 -0.20576431 -0.28543466
-0.10605405 -0.24745946 -0.23257014
-0.17478816 -0.4661018 0.91299832
-0.17241608 -0.51724827 0.87346339
-0.17010672 -0.56702232 0.83497429
-0.16785842 -0.61548096 0.79750282
-0.16566952 -0.662678 0.76102084
-0.16353625 -0.70865703 0.72546625
-0.16145721 -0.75346714 0.69081604
-0.15943038 -0.79715192 0.65703541
-0.15745382 -0.83975363 0.62409252
-0.15552565 -0.88131207 0.5919565
-0.067905359 0.47533748 -0.30250371
-0.067905359 0.44138482 -0.30250371
-0.067905545 0.40743324 -0.30249915
-0.067905731 0.37348151 -0.30249444
-0.06790591 0.3395296 -0.30248991
-0.067906097 0.30557746 -0.30248529
-0.067906275 0.27162519 -0.30248073
-0.067906462 0.23767258 -0.30247623
-0.06790664 0.20371991 -0.30247164
-0.067906827 0.16976708 -0.30246708
-0.067907013 0.135814 -0.30246246
-0.067907192 0.10186087 -0.30245793
-0.067907013 0.067907043 -0.30246246
-0.067907013 0.033953488 -0.30246246
-0.067906827 2.9802322e-08 -0.30246711
-0.06790664 -0.033953279 -0.30247158
-0.067906462 -0.067906424 -0.30247623
-0.067906462 -0.10185964 -0.3024762
-0.067906275 -0.13581252 -0.30248073
-0.067906097 -0.16976523 -0.30248523
-0.06790591 -0.20371769 -0.30248982
-0.069466345 -0.2431322 -0.26347914
-0.071637899 -0.28655154 -0.20919012
-0.11508364 -0.51787639 0.8769533
-0.11354037 -0.56770188 0.83837134
-0.11203793 -0.61620867 0.80081052
-0.11057474 -0.66344845 0.76423079
-0.10914975 -0.70947337 0.72860593
-0.10776056 -0.75432378 0.69387615
-0.10640628 -0.79804707 0.6600191
-0.10508562 -0.84068501 0.62700284
-0.10379735 -0.88227737 0.59479582
-0.10419424 -0.93774807 0.60471815
-0.04993508 0.79896116 0.49661624
-0.034904402 0.52356601 -0.25491771
-0.034904495 0.48866299 -0.25491285
-0.034904595 0.4537597 -0.25490803
-0.034904692 0.41885626 -0.25490326
-0.034904785 0.38395265 -0.25489837
-0.034904882 0.34904882 -0.25489354
-0.034904979 0.31414482 -0.25488874
-0.034905076 0.27924055 -0.25488392
-0.034905173 0.24433628 -0.25487906
-0.034905173 0.20943098 -0.25487912
-0.03490527 0.1745263 -0.25487423
-0.034905367 0.13962153 -0.2548694
-0.034905463 0.10471632 -0.25486451
-0.034905463 0.069810957 -0.25486454
-0.034905463 0.034905426 -0.25486457
-0.034905367 8.9406967e-08 -0.25486934
-0.03490527 -0.034905329 -0.2548742
-0.034905173 -0.069810428 -0.25487903
-0.034905173 -0.10471544 -0.25487906
-0.034905076 -0.13962018 -0.25488383
-0.034904979 -0.17452484 -0.25488871
-0.034904882 -0.20942926 -0.25489351
-0.034904882 -0.24433412 -0.25489348
-0.035183672 -0.28146935 -0.24095407
-0.036298253 -0.32668424 -0.18522505
-0.037483864 -0.37483853 -0.12594444
-0.056085277 -0.61693805 0.80412608
-0.055351961 -0.66422355 0.76746029
-0.054637574 -0.71028841 0.73174083
-0.053941388 -0.75517935 0.69693166
-0.053262949 -0.79894423 0.66300964
-0.052601147 -0.84161842 0.62991959
-0.051955584 -0.88324499 0.59764147
-0.051325675 -0.92386198 0.56614596
0 0.67216325 -0.023187041
0 0.57457781 -0.20458192
0 0.53866822 -0.20457686
0 0.50275856 -0.20457172
0 0.46684712 -0.20457171
0 0.43093708 -0.20456663
0 0.39502674 -0.20456156
0 0.35911629 -0.20455639
0 0.32320553 -0.20455129
0 0.28729463 -0.20454621
0 0.25138354 -0.20454098
0 0.21547221 -0.20453584
0 0.17956074 -0.20453078
0 0.14364894 -0.20452572
0 0.10773705 -0.20452058
0 0.071824707 -0.20452055
0 0.035912439 -0.2045206
0 -5.2154064e-08 -0.20452565
0 -0.035912104 -0.20453076
0 -0.071823999 -0.20453586
0 -0.1077361 -0.2045359
0 -0.14364773 -0.20454104
0 -0.17955911 -0.20454611
0 -0.2154704 -0.20455125
0 -0.25138217 -0.20455125
0 -0.28729296 -0.20455636
0 -0.32320368 -0.20456153
0 -0.36790562 -0.1606099
0 -0.41811132 -0.099631846
0 -0.66500038 0.77069747
0 -0.71110833 0.73489487
0 -0.75604016 0.70000589
0 -0.79984009 0.66599578
0 -0.84255368 0.63284254
0 -0.88421464 0.60049331
0 -0.92486405 0.56892908
0 -0.9829458 0.58656174
0.036977407 0.66559339 -0.15126732
0.036977515 0.62861776 -0.15126187
0.036977626 0.59164202 -0.15125641
0.036977734 0.55466598 -0.15125105
0.036977842 0.51768982 -0.15124553
0.03697795 0.48071337 -0.15124011
0.036978062 0.44373667 -0.15123478
0.03697817 0.4067598 -0.15122934
0.036978278 0.36978278 -0.15122385
0.036978386 0.33280542 -0.15121844
0.036978494 0.29582796 -0.15121309
0.036978494 0.25884944 -0.15121298
0.036978602 0.22187154 -0.15120757
0.036978714 0.18489356 -0.15120225
0.036978822 0.14791532 -0.15119669
0.03697893 0.11093675 -0.15119132
0.036979038 0.073958084 -0.1511859
0.03697893 0.036978878 -0.15119131
0.03697893 3.7252903e-08 -0.15119138
0.036978822 -0.036978837 -0.15119678
0.036978714 -0.073957458 -0.15120225
0.036978602 -0.11093583 -0.1512076
0.036978602 -0.14791434 -0.15120766
0.036978494 -0.18489245 -0.15121306
0.036978386 -0.22187032 -0.15121838
0.036978386 -0.25884876 -0.15121835
0.036978278 -0.29582626 -0.15122381
0.03697817 -0.33280355 -0.15122917
0.036978062 -0.36978063 -0.15123469
0.037296396 -0.41026038 -0.13531785
0.038551241 -0.46261483 -0.072575733
0.05476388 -0.71193051 0.7380563
0.054064497 -0.75690281 0.70308697
0.053382747 -0.80074108 0.66899967
0.05271798 -0.84348786 0.63576132
0.052069567 -0.88518268 0.60334063
0.051437121 -0.92586815 0.57171822
0.050819647 -0.96557331 0.5408445
0.076218389 0.72407472 -0.094678104
0.07621862 0.68596756 -0.094672173
0.076218851 0.64786017 -0.094666541
0.076219082 0.60975254 -0.094660804
0.076219313 0.57164484 -0.094654992
0.076219313 0.53353512 -0.094655052
0.076219544 0.49542701 -0.094649225
0.076219775 0.4573186 -0.094643474
0.076220006 0.41921005 -0.094637722
0.076220237 0.38110119 -0.094632044
0.07622046 0.34299207 -0.094626166
0.076220691 0.30488282 -0.094620444
0.076220922 0.26677331 -0.094614685
0.076221153 0.22866337 -0.094608873
0.076221384 0.19055346 -0.094603226
0.076221615 0.15244327 -0.094597355
0.076221846 0.11433277 -0.094591677
0.076222077 0.07622207 -0.094585828
0.076221846 0.038110971 -0.094591603
0.076221846 -5.2154064e-08 -0.094591618
0.076221615 -0.038110822 -0.094597362
0.076221384 -0.076221325 -0.094603173
0.076221153 -0.11433176 -0.094608895
0.076221153 -0.15244235 -0.09460897
0.076220922 -0.19055235 -0.094614744
0.076220691 -0.2286621 -0.094620407
0.076220691 -0.26677239 -0.094620459
0.07622046 -0.30488187 -0.094626196
0.076220237 -0.34299105 -0.09463191
0.076220006 -0.3811 -0.094637766
0.076220006 -0.41920993 -0.094637781
0.076219775 -0.4573186 -0.094643459
0.078214042 -0.50839132 -0.044786677
0.080973409 -0.56681395 0.024197489
0.10688593 -0.80164438 0.67201042
0.10555341 -0.84442723 0.63869739
0.10425371 -0.88615662 0.60620493
0.10298562 -0.92687058 0.57450277
0.10174843 -0.96661013 0.54357308
0.1027522 -1.027522 0.56866729
0.11793697 0.78624648 -0.03452152
0.11793733 0.74693656 -0.034515351
0.11793771 0.70762622 -0.034509242
0.11793808 0.66831577 -0.034503073
0.11793844 0.62900507 -0.034496933
0.11793882 0.58969408 -0.034490824
0.11793918 0.55038285 -0.034484655
0.11793955 0.51107132 -0.034478605
0.11793993 0.47175971 -0.034472391
0.11794028 0.43244761 -0.034466326
0.11794065 0.39313549 -0.034460172
0.11794101 0.35382316 -0.034454018
0.11794139 0.31451041 -0.034447953
0.11794139 0.27519655 -0.034447871
0.11794176 0.2358835 -0.034441747
0.11794212 0.19657019 -0.034435548
0.1179425 0.15725666 -0.034429617
0.11794286 0.11794278 -0.034423377
0.11794323 0.078628808 -0.034417227
0.11794323 0.039314449 -0.03441719
0.11794323 7.4505806e-09 -0.034417242
0.11794286 -0.039314322 -0.034423374
0.1179425 -0.078628227 -0.034429561
0.11794212 -0.11794205 -0.034435656
0.11794212 -0.15725607 -0.034435593
0.11794176 -0.19656965 -0.034441754
0.11794139 -0.2358827 -0.034447871
0.11794101 -0.27519569 -0.034454085
0.11794101 -0.31450939 -0.034453988
0.11794065 -0.35382193 -0.034460247
0.11794028 -0.39313424 -0.034466222
0.11794028 -0.43244773 -0.034466311
0.11793993 -0.47175962 -0.034472495
0.11793955 -0.51107144 -0.034478605
0.11903718 -0.55550689 -0.016184717
0.12330442 -0.61652207 0.054936111
0.15850669 -0.84536892 0.64164025
0.15655281 -0.88713253 0.60907561
0.1546465 -0.92787898 0.57730412
0.15278608 -0.96764505 0.54629695
0.15096988 -1.0064659 0.51602697
0.1623756 0.89306575 0.029557228
0.16237612 0.85247469 0.029563785
0.16237664 0.81188321 0.029570311
0.16237716 0.77129149 0.029576838
0.1623777 0.73069966 0.029583424
0.16237821 0.69010741 0.029589891
0.16237873 0.64951485 0.029596448
0.16237873 0.60892034 0.029596508
0.16237926 0.56832743 0.029603094
0.16237979 0.52773428 0.029609546
0.16238031 0.48714092 0.029616177
0.16238083 0.44654727 0.029622599
0.16238135 0.40595344 0.029629156
0.16238187 0.36535919 0.029635623
0.16238239 0.32476479 0.029642224
0.16238292 0.28417018 0.029648826
0.16238345 0.24357517 0.0296553
0.16238396 0.20298007 0.029661864
0.1623845 0.16238448 0.029668383
0.16238502 0.12178878 0.029674988
0.16238554 0.081192769 0.029681398
0.16238554 0.040596381 0.029681353
0.16238554 -1.5832484e-08 0.029681478
0.16238502 -0.040596254 0.029674856
0.1623845 -0.081192248 0.029668331
0.16238396 -0.121788 0.029661912
0.16238396 -0.16238387 0.029661909
0.16238345 -0.20297927 0.029655337
0.16238292 -0.24357441 0.029648721
0.16238239 -0.28416923 0.029642284
0.16238239 -0.32476476 0.029642299
0.16238187 -0.36535925 0.029635727
0.16238135 -0.40595338 0.029629171
0.16238135 -0.44654864 0.029629126
0.16238083 -0.48714244 0.029622599
0.16238031 -0.52773607 0.029616073
0.16237979 -0.56832922 0.029609591
0.16237979 -0.60892415 0.029609591
0.16693862 -0.66775447 0.086594999
0.17323466 -0.73624718 0.16529542
0.20641993 -0.92888975 0.5801115
0.20393398 -0.9686864 0.5490371
0.20150721 -1.0075359 0.51870239
0.2040917 -1.0714812 0.55100834
0.20980994 0.96512568 0.097961634
0.20981064 0.92316669 0.097968549
0.20981064 0.88120472 0.097968847
0.20981134 0.83924544 0.097975731
0.20981205 0.79728574 0.097982615
0.20981273 0.75532585 0.097989649
0.20981343 0.71336567 0.097996622
0.20981413 0.67140532 0.098003745
0.20981483 0.62944448 0.098010629
0.20981553 0.58748353 0.098017678
0.20981623 0.54552221 0.098024577
0.20981693 0.5035606 0.098031491
0.20981763 0.46159869 0.098038524
0.20981833 0.4196367 0.098045543
0.20981902 0.37767416 0.098052487
0.20981972 0.33571154 0.09805952
0.20981972 0.29374754 0.098059438
0.20982042 0.25178441 0.098066427
0.20982112 0.20982105 0.098073483
0.20982182 0.1678575 0.098080546
0.20982251 0.12589355 0.098087475
0.20982321 0.083929248 0.098094381
0.20982391 0.041964777 0.098101445
0.20982321 -1.1175871e-08 0.098094456
0.20982321 -0.041964639 0.098094404
0.20982251 -0.083928928 0.09808746
0.20982182 -0.12589312 0.098080434
0.20982112 -0.1678569 0.098073512
0.20982112 -0.20982119 0.098073483
0.20982042 -0.25178444 0.098066442
0.20981972 -0.29374763 0.09805949
0.20981972 -0.3357116 0.098059498
0.20981902 -0.37767428 0.098052576
0.20981833 -0.4196367 0.098045602
0.20981763 -0.46159878 0.098038614
0.20981763 -0.50356233 0.098038584
0.20981693 -0.545524 0.09803158
0.20981623 -0.58748549 0.098024577
0.20981623 -0.62944865 0.098024547
0.20981553 -0.67140973 0.098017663
0.21193394 -0.72057539 0.11920163
0.22006355 -0.79222876 0.20049784
0.25519207 -0.9697299 0.5517832
0.25215214 -1.0086085 0.52138352
0.24918371 -1.0465716 0.49169946
0.26055217 1.0422086 0.17113021
0.26055306 0.99878675 0.17113775
0.26055396 0.95536447 0.17114514
0.26055485 0.91194177 0.1711525
0.26055574 0.86851919 0.17116016
0.26055664 0.82509601 0.17116761
0.26055753 0.7816726 0.171175
0.26055843 0.73824894 0.1711826
0.26055932 0.69482481 0.17118993
0.26055932 0.65139824 0.17118998
0.26056021 0.60797387 0.17119755
0.26056111 0.56454897 0.17120497
0.260562 0.52112412 0.17121248
0.26056293 0.47769868 0.17121987
0.26056382 0.43427294 0.17122735
0.26056471 0.390847 0.17123491
0.26056561 0.34742084 0.17124245
0.2605665 0.3039943 0.17124987
0.2605674 0.26056746 0.17125735
0.26056832 0.21714032 0.17126481
0.26056921 0.17371282 0.17127225
0.26057011 0.13028507 0.17127974
0.260571 0.086856984 0.17128722
0.2605719 0.043428641 0.17129475
0.260571 -3.7252903e-08 0.17128731
0.260571 -0.043428421 0.17128733
0.26057011 -0.086856753 0.17127974
0.26056921 -0.13028458 0.17127235
0.26056832 -0.17371216 0.17126492
0.26056832 -0.2171402 0.17126478
0.2605674 -0.26056737 0.17125745
0.2605665 -0.30399424 0.1712499
0.2605665 -0.34742206 0.17124987
0.26056561 -0.3908484 0.17124233
0.26056471 -0.43427455 0.17123491
0.26056382 -0.47770035 0.17122735
0.26056382 -0.52112758 0.17122744
0.26056293 -0.56455302 0.17121992
0.260562 -0.60797799 0.1712124
0.260562 -0.65140498 0.17121236
0.26056111 -0.6948297 0.17120512
0.26056021 -0.73825401 0.17119747
0.26055932 -0.78167796 0.17118993
0.26844114 -0.85006356 0.23687175
0.27931982 -0.93106622 0.32752755
0.29933533 -1.0476736 0.49432331
0.30404615 -1.1148359 0.53358024
0.31496251 1.1248661 0.24959451
0.31496361 1.0798752 0.24960241
0.31496474 1.0348841 0.24961039
0.31496474 0.98988926 0.24961048
0.31496587 0.94489753 0.24961844
0.31496698 0.89990562 0.24962643
0.31496814 0.85491341 0.24963456
0.31496924 0.80992079 0.24964246
0.31497037 0.7649281 0.24965072
0.31497148 0.71993482 0.24965861
0.31497261 0.6749413 0.24966662
0.31497374 0.62994736 0.24967471
0.31497487 0.58495325 0.24968265
0.31497601 0.53995889 0.24969077
0.31497711 0.49496418 0.24969892
0.31497824 0.44996881 0.24970677
0.31497934 0.40497333 0.24971479
0.31498051 0.35997769 0.24972281
0.31498051 0.31498048 0.24972285
0.31498161 0.2699843 0.24973097
0.31498274 0.22498763 0.24973892
0.31498384 0.17999086 0.24974692
0.31498498 0.13499358 0.24975491
0.31498611 0.089995958 0.24976301
0.31498724 0.044998169 0.24977112
0.31498724 4.4703484e-08 0.24977118
0.31498724 -0.044998236 0.24977104
0.31498611 -0.089996092 0.24976298
0.31498498 -0.13499363 0.24975497
0.31498384 -0.17999081 0.24974698
0.31498384 -0.22498845 0.24974707
0.31498274 -0.26998529 0.24973893
0.31498161 -0.31498164 0.249731
0.31498051 -0.35997772 0.24972284
0.31498051 -0.40497482 0.24972296
0.31497934 -0.44997048 0.24971491
0.31497824 -0.49496573 0.24970679
0.31497824 -0.53996271 0.24970676
0.31497711 -0.58495748 0.24969877
0.31497601 -0.62995201 0.24969082
0.31497487 -0.67494607 0.2496828
0.31497487 -0.71994263 0.24968286
0.31497374 -0.76493621 0.24967465
0.31497261 -0.80992955 0.24966675
0.31497148 -0.85492265 0.2496587
0.31843913 -0.90982604 0.27442729
0.33157456 -0.99472374 0.36825192
0.34584978 -1.0869566 0.470218
0.37345418 1.1203626 0.33395091
0.37345555 1.0736847 0.33395937
0.37345695 1.0270065 0.33396804
0.37345833 0.98032814 0.33397684
0.3734597 0.9336493 0.33398545
0.3734611 0.88697004 0.33399409
0.37346247 0.84029055 0.33400267
0.37346387 0.79361075 0.33401144
0.37346524 0.74693048 0.33402002
0.37346524 0.70024735 0.33402002
0.37346664 0.6535666 0.33402872
0.37346801 0.60688555 0.33403739
0.37346938 0.56020409 0.33404601
0.37347078 0.51352233 0.33405462
0.37347215 0.46684018 0.33406326
0.37347355 0.42015764 0.33407187
0.37347493 0.37347496 0.3340807
0.37347633 0.32679176 0.33408928
0.3734777 0.28010824 0.33409783
0.3734791 0.23342435 0.33410653
0.37348047 0.18674016 0.33411503
0.37348184 0.14005569 0.33412376
0.37348324 0.093370706 0.33413249
0.37348461 0.046685487 0.33414108
0.37348461 5.9604645e-08 0.33414105
0.37348461 -0.046685457 0.33414108
0.37348324 -0.09337078 0.33413243
0.37348184 -0.14005573 0.33412379
0.37348047 -0.18674019 0.33411524
0.37348047 -0.23342527 0.33411503
0.3734791 -0.28010926 0.3341065
0.3734777 -0.32679293 0.33409789
0.37347633 -0.3734763 0.33408913
0.37347633 -0.4201608 0.33408925
0.37347493 -0.46684372 0.33408061
0.37347355 -0.51352596 0.33407184
0.37347355 -0.56021035 0.33407182
0.37347215 -0.60689217 0.33406317
0.37347078 -0.65357387 0.33405453
0.37346938 -0.70025504 0.33404595
0.37346938 -0.74693882 0.33404595
0.37346801 -0.79361939 0.3340373
0.37346664 -0.84029996 0.33402863
0.37346524 -0.88697982 0.33402002
0.37346524 -0.93366307 0.33401999
0.37346387 -0.98034251 0.33401129
0.38569179 -1.0606525 0.41043594
0.43650821 0.97001827 0.42490783
0.43650988 0.92152071 0.42491713
0.43651158 0.87302315 0.42492655
0.43651325 0.82452488 0.42493582
0.43651491 0.77602655 0.42494524
0.43651661 0.72752756 0.42495453
0.43651828 0.67902839 0.42496389
0.43651995 0.63052881 0.42497313
0.43652165 0.58202893 0.42498258
0.43652332 0.53352845 0.42499191
0.43652499 0.48502788 0.42500129
0.43652669 0.43652678 0.42501056
0.43652838 0.38802516 0.42501992
0.43652838 0.33952203 0.42501989
0.43653005 0.29101989 0.4250291
0.43653175 0.24251762 0.42503852
0.43653342 0.19401488 0.42504793
0.43653509 0.14551163 0.42505711
0.43653679 0.097008213 0.42506647
0.43653846 0.048504353 0.42507589
0.43654013 -0 0.42508513
0.43653846 -0.048504263 0.42507598
0.43653846 -0.097008601 0.42507589
0.43653679 -0.14551227 0.42506653
0.43653509 -0.19401556 0.42505723
0.43653509 -0.2425195 0.42505726
0.43653342 -0.2910223 0.42504781
0.43653175 -0.33952463 0.42503858
0.43653005 -0.38802668 0.42502928
0.43653005 -0.43652999 0.42502925
0.43652838 -0.48503146 0.42501989
0.43652669 -0.53353274 0.42501056
0.43652499 -0.58203334 0.42500111
0.43652499 -0.63053602 0.42500114
0.43652332 -0.67903626 0.42499185
0.43652165 -0.72753596 0.42498255
0.43652165 -0.77603853 0.42498273
0.43651995 -0.82453775 0.42497325
0.43651828 -0.8730365 0.42496383
0.43651661 -0.92153502 0.42495459
0.43651661 -0.97003704 0.42495459
0.43651491 -1.0185349 0.42494524
0.43651325 -1.0670325 0.42493579
0.44177008 -1.1289679 0.45414037
0.50467581 0.8579489 0.5232414
0.50467783 0.80748451 0.52325141
0.50467783 0.75701672 0.52325141
0.50467986 0.70655179 0.52326155
0.50468189 0.65608656 0.52327168
0.50468391 0.60562068 0.52328175
0.50468588 0.55515456 0.52329195
0.50468791 0.50468785 0.52330202
0.50468999 0.45422098 0.52331203
0.50469202 0.40375358 0.5233224
0.50469404 0.35328582 0.52333248
0.50469601 0.30281755 0.52334231
0.50469804 0.25234896 0.5233525
0.50470006 0.20188007 0.52336258
0.50470209 0.15141052 0.52337265
0.50470412 0.10094072 0.52338272
0.50470608 0.050470755 0.52339303
0.50470817 -0 0.52340311
0.50470608 -0.05047065 0.52339292
0.50470608 -0.10094124 0.52339292
0.50470412 -0.15141115 0.52338284
0.50470209 -0.2018809 0.52337277
0.50470209 -0.25235105 0.52337277
0.50470006 -0.30281997 0.52336258
0.50469804 -0.35328859 0.5233525
0.50469601 -0.40375686 0.52334249
0.50469601 -0.45422643 0.52334249
0.50469404 -0.50469404 0.5233323
0.50469202 -0.555161 0.52332217
0.50468999 -0.60562813 0.52331215
0.50468999 -0.65609705 0.52331215
0.50468791 -0.70656306 0.52330202
0.50468588 -0.757029 0.52329201
0.50468588 -0.80749738 0.52329189
0.50468391 -0.85796267 0.52328181
0.50468189 -0.90842742 0.52327168
0.50467986 -0.95889163 0.52326149
0.50467986 -1.0093598 0.52326155
0.50467783 -1.0598235 0.52325153
0.50467581 -1.1102868 0.52324134
0.57860297 0.73640382 0.6298756
0.57860535 0.68380624 0.62988645
0.57860774 0.63120848 0.62989759
0.57861018 0.57861018 0.62990844
0.57861257 0.52601147 0.62991947
0.57861501 0.47341231 0.6299305
0.57861745 0.42081273 0.62994158
0.57861745 0.36821109 0.62994146
0.57861984 0.31561086 0.62995255
0.57862222 0.26301011 0.62996334
0.57862467 0.21040903 0.62997448
0.57862705 0.15780745 0.62998539
0.57862949 0.10520527 0.62999618
0.57863194 0.052602977 0.63000739
0.57863432 -1.1920929e-07 0.63001823
0.57863432 -0.052603096 0.63001823
0.57863432 -0.10520625 0.63001823
0.57863194 -0.15780875 0.63000727
0.57862949 -0.21041077 0.62999642
0.57862705 -0.26301229 0.62998533
0.57862705 -0.31561476 0.62998533
0.57862467 -0.36821568 0.62997431
0.57862222 -0.42081624 0.6299634
0.57861984 -0.47341609 0.62995243
0.57861984 -0.52601808 0.62995243
0.57861745 -0.57861739 0.62994146
0.57861501 -0.63121635 0.62993038
0.57861501 -0.68381774 0.62993044
0.57861257 -0.73641598 0.62991947
0.57861018 -0.78901368 0.62990844
0.57860774 -0.84161133 0.62989753
0.57860774 -0.89421177 0.62989748
0.57860535 -0.94680876 0.62988657
0.57860297 -0.99940491 0.62987548
0.65905386 0.60413277 0.74591988
0.65905666 0.54921395 0.74593186
0.65905952 0.49429476 0.74594378
0.65906245 0.43937492 0.74595565
0.65906531 0.38445467 0.74596763
0.65906817 0.32953408 0.74597973
0.65907109 0.27461284 0.74599165
0.65907395 0.21969137 0.74600363
0.65907675 0.16476926 0.74601561
0.65907967 0.10984668 0.74602759
0.65908253 0.054923534 0.74603951
0.65908539 1.4901161e-07 0.74605167
0.65908539 -0.054923713 0.74605155
0.65908539 -0.10984761 0.74605149
0.65908253 -0.16477063 0.74603939
0.65907967 -0.21969315 0.74602759
0.65907675 -0.27461529 0.74601543
0.65907675 -0.32953829 0.74601561
0.65907395 -0.38445979 0.74600369
0.65907109 -0.43938076 0.74599171
0.65906817 -0.4943012 0.74597985
0.65906817 -0.54922354 0.74597967
0.65906531 -0.6041432 0.74596769
0.65906245 -0.6590625 0.74595571
0.65906245 -0.71398419 0.74595553
0.65905952 -0.76890284 0.74594373
0.65905666 -0.82382083 0.7459318
0.65905386 -0.87873834 0.74591976
0.74693531 0.45965242 0.87269044
0.74693531 0.40219581 0.87269038
0.74693871 0.34474087 0.87270349
0.7469421 0.28728548 0.87271655
0.7469455 0.22982931 0.87272954
0.74694896 0.17237285 0.87274277
0.74695235 0.11491585 0.87275589
0.74695575 0.057458162 0.87276888
0.74695915 -0 0.87278205
0.74696255 -0.057458639 0.87279528
0.74696255 -0.11491737 0.8727951
0.74695915 -0.17237502 0.87278193
0.74695575 -0.22983259 0.87276912
0.74695235 -0.28728944 0.87275589
0.74695235 -0.34474728 0.87275589
0.74694896 -0.40220311 0.87274277
0.7469455 -0.45965892 0.87272978
0.7469421 -0.51711369 0.87271655
0.7469421 -0.57457078 0.87271649
0.74693871 -0.63202506 0.87270343
0.74693531 -0.68947875 0.87269032
0.84332353 0.24094966 1.0117321
0.84332758 0.18071306 1.0117465
0.84333163 0.12047598 1.011761
0.84333563 0.060238123 1.0117753
0.84333968 -0 1.0117896
0.84333968 -0.060238481 1.0117896
0.84333968 -0.12047708 1.0117897
0.84333968 -0.18071586 1.0117896
0.84333563 -0.24095309 1.0117751
0.84333163 -0.30118975 1.0117607
0.84332758 -0.36142597 1.0117463
0.84332758 -0.42166373 1.0117463
0.84332353 -0.48189899 1.011732
0.84331954 -0.54213405 1.0117176
0.94951171 0.063300729 1.1649014
0.94951642 -5.9604645e-08 1.164917
0.94952124 -0.063301325 1.1649327
0.94952124 -0.12660271 1.1649327
0.94952124 -0.18990424 1.164933
0.94951642 -0.25320444 1.1649172
0.94951171 -0.31650388 1.1649011
1.0670789 -0.13338464 1.3344839
