# .PCD v0.7 - Point Cloud Data file format
VERSION 0.7
FIELDS x y z
SIZE 4 4 4
TYPE F F F
COUNT 1 1 1
WIDTH 1153
HEIGHT 1
VIEWPOINT 0 0 0 1 0 0 0
POINTS 1153
DATA ascii
-1.2610981 0.27415183 0.74137998
-1.2430941 0.21619031 0.70224077
-1.1967657 0.32639059 0.71978396
-1.1852951 0.26938522 0.69371474
-1.1634017 0.2115276 0.64395696
-1.1473602 0.15645809 0.60749912
-1.1334387 0.37781274 0.69852573
-1.117582 0.31930923 0.66077185
-1.1387594 0.27113312 0.7111938
-1.1275619 0.21477383 0.68453342
-1.0724018 0.15320027 0.55319995
-1.058116 0.1007729 0.51918572
-1.0442055 0.049724162 0.48606616
-1.0562241 0.36967838 0.64042246
-1.067126 0.3201378 0.66767752
-1.0916109 0.27290261 0.72888947
-1.1172458 0.22344908 0.7929765
-1.0517288 0.15775919 0.62918407
-0.9874261 0.098742574 0.4684276
-0.97471458 0.048735723 0.43664879
-0.96231896 -0 0.40565962
-0.99579334 0.41928154 0.62037134
-0.997756 0.36759436 0.62553602
-1.0202793 0.32219338 0.68480796
-1.043843 0.27469552 0.74681771
-1.0685209 0.22495177 0.81175947
-1.0550096 0.16658062 0.77620339
-0.97895545 0.103048 0.57606083
-0.91312915 0.048059419 0.40283382
-0.89660805 -1.4901161e-08 0.35935712
-0.88555962 -0.046608388 0.33028227
-0.93627739 0.46813869 0.60063279
-0.93054336 0.41357487 0.58470494
-0.95121557 0.36991721 0.64212751
-0.97282702 0.32427576 0.70215964
-0.99544346 0.27651206 0.76498288
-1.0191363 0.22647482 0.83079672
-1.0439847 0.17399743 0.89981985
-0.97818804 0.10868746 0.71705133
-0.90906441 0.050503701 0.5250414
-0.84906846 -8.9406967e-08 0.35838574
-0.82329214 -0.045738496 0.28678489
-0.81346703 -0.090385236 0.25949299
-0.80386233 -0.13397707 0.23281312
-0.87765127 0.51626545 0.58118945
-0.8658998 0.45841756 0.54662627
-0.88431674 0.41614917 0.60079396
-0.90408695 0.37227112 0.65894163
-0.92476141 0.32638639 0.71974885
-0.94639933 0.27835283 0.78338981
-0.96907854 0.22801855 0.85009348
-0.9928714 0.17521262 0.92007214
-0.97732747 0.11497965 0.8743546
-0.90456796 0.053209871 0.66035616
-0.84189129 -5.9604645e-08 0.47601318
-0.78733462 -0.046313807 0.31555218
-0.75434899 -0.088746957 0.2185358
-0.74562258 -0.1315805 0.19287001
-0.73707801 -0.17343011 0.16773888
-0.80899745 0.50562346 0.52797937
-0.81947541 0.46095496 0.56072289
-0.83750755 0.41875377 0.61707336
-0.85635114 0.37465364 0.67595947
-0.87606221 0.32852337 0.7375567
-0.89670205 0.28021926 0.80205607
-0.91833371 0.2295835 0.86965501
-0.94103914 0.17644468 0.94060957
-0.9648959 0.12061188 1.015162
-0.89955819 0.056222558 0.81098175
-0.83395725 2.9802322e-08 0.60597849
-0.77727389 -0.048579574 0.42884326
-0.72780561 -0.090975709 0.27425498
-0.68940157 -0.12926272 0.15424214
-0.68165958 -0.17041491 0.13004853
-0.67407387 -0.21064803 0.10634291
-0.75292236 0.55214298 0.5096032
-0.75660169 0.50440097 0.52186769
-0.77299225 0.46379524 0.57650298
-0.79010874 0.42139125 0.6335578
-0.80800039 0.37706673 0.69319671
-0.82672107 0.33068836 0.75559908
-0.84632987 0.28211004 0.82096183
-0.86689138 0.23117092 0.88950002
-0.88847697 0.17769536 0.96145189
-0.91116488 0.12148857 1.0370784
-0.89395148 0.059596777 0.97970027
-0.82514775 -1.1920929e-07 0.75035465
-0.76617515 -0.05107823 0.55377936
-0.71507239 -0.095342949 0.38343692
-0.67036039 -0.13407212 0.23439673
-0.63091081 -0.16824278 0.10289818
-0.6212551 -0.20708509 0.070712537
-0.61453998 -0.24581608 0.048328899
-0.60795683 -0.28371316 0.02638492
-0.69765645 0.59799135 0.49149269
-0.69561017 0.54655075 0.48418409
-0.71044946 0.50746399 0.53718168
-0.72593272 0.46667096 0.59247899
-0.742109 0.42406225 0.65025145
-0.75902265 0.37951139 0.71065748
-0.77672523 0.33288229 0.77388108
-0.79527336 0.28402618 0.84012431
-0.81472892 0.23277974 0.9096086
-0.83516032 0.17896298 0.98257774
-0.85664284 0.1223776 1.0593009
-0.87925971 0.062804341 1.1400754
-0.81530118 -5.9604645e-08 0.91165233
-0.75387591 -0.053848147 0.69227618
-0.70105779 -0.10015111 0.50363994
-0.65515375 -0.14039014 0.339697
-0.61489385 -0.17568396 0.19591169
-0.57929546 -0.20689125 0.068774782
-0.56412446 -0.24176764 0.014592573
-0.55819571 -0.27909791 -0.0065816939
-0.55237639 -0.31564361 -0.027364746
-0.64318001 0.64318001 0.47363156
-0.63641191 0.58745718 0.44760039
-0.64978427 0.54981738 0.49903235
-0.66373056 0.51056206 0.55267227
-0.67828876 0.46958444 0.60866511
-0.69349986 0.42676917 0.66716939
-0.70940578 0.38198763 0.72834599
-0.72606164 0.33510542 0.79240716
-0.74351847 0.28596863 0.85954869
-0.7618354 0.23441073 0.92999828
-0.78107762 0.18024874 1.004007
-0.80131704 0.12327966 1.081851
-0.82263327 0.06327939 1.1638366
-0.80423176 1.1920929e-07 1.0930612
-0.74016619 -0.056935906 0.84665537
-0.6855517 -0.10546952 0.63659954
-0.63844556 -0.14733355 0.45542186
-0.59739667 -0.18381433 0.29754192
-0.56130558 -0.21588674 0.15872976
-0.52932853 -0.24430543 0.035741068
-0.51000863 -0.27461997 -0.038566023
-0.50478858 -0.31063908 -0.058643177
-0.49966976 -0.34592518 -0.078330949
-0.58948129 0.68772817 0.4560346
-0.5819639 0.63046086 0.42471182
-0.59091628 0.59091628 0.4620133
-0.60340726 0.5531233 0.51405931
-0.61643785 0.51369816 0.56835306
-0.63004357 0.47253254 0.62504375
-0.64426339 0.42950898 0.68429327
-0.65913999 0.38449836 0.74627876
-0.67471981 0.33735991 0.8111949
-0.69105089 0.28793782 0.87924075
-0.70819533 0.23606509 0.9506762
-0.7262122 0.1815531 1.0257463
-0.7451697 0.12419498 1.104736
-0.76514345 0.063762009 1.1879599
-0.76468688 -5.9604645e-08 1.1860576
-0.72478527 -0.060398668 1.0198005
-0.66830939 -0.11138478 0.78448462
-0.61999601 -0.15499902 0.583179
-0.57819927 -0.19273296 0.40902591
-0.541682 -0.22570089 0.25687078
-0.50950342 -0.25475162 0.12279317
-0.48093203 -0.2805436 0.0037456751
-0.45867509 -0.30578339 -0.088991486
-0.45409995 -0.34057498 -0.10805466
-0.44961515 -0.3746793 -0.12674123
-0.4452076 -0.40810686 -0.14510608
-0.52974862 0.67422557 0.40781069
-0.53376883 0.63081771 0.42608422
-0.54488164 0.5944162 0.47659701
-0.55646926 0.55646926 0.52926803
-0.56856042 0.51687318 0.58422786
-0.58118874 0.47551799 0.6416291
-0.59439069 0.43228418 0.70163822
-0.60820645 0.38704029 0.7644369
-0.62267971 0.33964354 0.83022451
-0.63785857 0.28993559 0.89921927
-0.6537959 0.237744 0.97166193
-0.67054689 0.18287656 1.0478028
-0.68818563 0.12512475 1.1279788
-0.69677049 0.063342929 1.167001
-0.68925655 1.7881393e-07 1.1328466
-0.68189961 -0.061990917 1.0994058
-0.64901495 -0.11800265 0.94993019
-0.59952396 -0.16350636 0.72497129
-0.55704618 -0.20256221 0.53189021
-0.52018744 -0.23644888 0.36435065
-0.48790544 -0.26613027 0.21761438
-0.45939609 -0.29234296 0.088026389
-0.4340345 -0.31566152 -0.027253553
-0.41132548 -0.33653909 -0.13047653
-0.4059273 -0.36902481 -0.15501344
-0.40201685 -0.40201688 -0.17278846
-0.3981764 -0.43437418 -0.19024497
-0.47825444 0.71738166 0.39113456
-0.4782635 0.66956884 0.39117968
-0.48807642 0.63449919 0.44024426
-0.49830043 0.59796059 0.49136466
-0.50896198 0.55985832 0.54467225
-0.52008754 0.52008742 0.60030001
-0.53171265 0.47854137 0.65842551
-0.54386932 0.4350954 0.71920902
-0.55659491 0.38961628 0.78283662
-0.56993026 0.34195811 0.84951341
-0.58392024 0.29196015 0.91946346
-0.59861434 0.23944578 0.99293411
-0.61406708 0.18422002 1.0701977
-0.6296649 0.12593308 1.1481866
-0.62291449 0.062291563 1.1144347
-0.61630428 -5.9604645e-08 1.0813837
-0.60983288 -0.060983449 1.0490267
-0.60349888 -0.12069991 1.0173569
-0.57667148 -0.17300147 0.88321972
-0.53361726 -0.21344687 0.66794866
-0.49654528 -0.24827254 0.48258871
-0.46428967 -0.27857381 0.3213107
-0.43596759 -0.30517721 0.17970017
-0.41090354 -0.32872283 0.054379895
-0.38856471 -0.34970826 -0.057314217
-0.36852953 -0.36852962 -0.15749007
-0.36008796 -0.39609674 -0.19969806
-0.3567023 -0.42804271 -0.21662638
-0.35337868 -0.45939231 -0.23324436
-0.42746854 0.75994408 0.37468755
-0.42433253 0.70722085 0.35726511
-0.43291292 0.67342007 0.40493405
-0.4418475 0.63822412 0.45457044
-0.45115861 0.60154492 0.50629908
-0.46087062 0.56328619 0.56025457
-0.47100997 0.52334428 0.61658412
-0.48160547 0.48160556 0.67544836
-0.49268651 0.43794337 0.73700953
-0.50429171 0.3922269 0.80148304
-0.51645684 0.34430462 0.86906719
-0.52922338 0.2940129 0.93999219
-0.54263973 0.24117324 1.0145273
-0.55675119 0.18558359 1.0929246
-0.55734485 0.12385443 1.0962226
-0.55146742 0.06127423 1.0635699
-0.54570991 5.9604645e-08 1.0315841
-0.54007405 -0.060008168 1.0002737
-0.53455079 -0.11878917 0.96958905
-0.52913946 -0.17637989 0.93952596
-0.50752753 -0.22556797 0.81945956
-0.47041222 -0.26134005 0.61326343
-0.43835545 -0.29223698 0.43517032
-0.41038904 -0.31919149 0.27980122
-0.38577703 -0.34291291 0.14306793
-0.36394891 -0.36394888 0.021800593
-0.34445974 -0.38273296 -0.086472511
-0.32695171 -0.39960769 -0.18373927
-0.31641632 -0.42188835 -0.24226923
-0.31351095 -0.45284921 -0.25841022
-0.31065762 -0.48324519 -0.27426201
-0.30785325 -0.5130887 -0.28984195
-0.3773765 0.80192506 0.35846525
-0.37275141 0.74550277 0.32955852
-0.37932444 0.71123314 0.37063992
-0.38703766 0.67731595 0.41884768
-0.39507261 0.64199299 0.46906602
-0.40344822 0.6051724 0.52141386
-0.41218671 0.56675673 0.57602906
-0.42131206 0.52664006 0.63306266
-0.43085065 0.48470691 0.69267881
-0.44083115 0.44083112 0.75505686
-0.45128497 0.39487433 0.82039344
-0.46224669 0.34668514 0.88890409
-0.47375414 0.29609644 0.96082592
-0.4858492 0.24292457 1.0364199
-0.49254003 0.18470252 1.0782374
-0.48737583 0.12184405 1.0459611
-0.48231643 0.060289443 1.0143398
-0.47736102 2.9802322e-08 0.98336864
-0.47250858 -0.059063494 0.95304096
-0.46775168 -0.11693788 0.92331034
-0.46309173 -0.17365935 0.89418536
-0.4585216 -0.22926065 0.86562204
-0.44137534 -0.27585965 0.75845826
-0.40974602 -0.30730948 0.56077492
-0.38234672 -0.33455342 0.38952923
-0.35838208 -0.35838208 0.23975025
-0.33724436 -0.3793999 0.10763943
-0.31846118 -0.39807647 -0.0097552091
-0.30165908 -0.41478109 -0.11476868
-0.28654182 -0.42981279 -0.20925127
-0.27476221 -0.44648856 -0.28287384
-0.27229708 -0.47651982 -0.29828101
-0.26987505 -0.50601578 -0.31341851
-0.26749644 -0.53499293 -0.32828486
-0.32397157 0.78678823 0.31394506
-0.32724148 0.74798054 0.33730158
-0.33380145 0.71528882 0.38415843
-0.34062982 0.68125963 0.43293256
-0.34774199 0.64580661 0.48373359
-0.35515893 0.60884392 0.53671193
-0.36289915 0.57027006 0.59199905
-0.37098429 0.5299775 0.64974993
-0.37943786 0.48784876 0.71013284
-0.3882857 0.44375509 0.77333152
-0.39755601 0.39755601 0.83954817
-0.40728173 0.34909862 0.90901732
-0.41749322 0.29820943 0.98195648
-0.42822993 0.24470282 1.0586475
-0.42401469 0.18172058 1.0285386
-0.41963997 0.11989716 0.99729073
-0.41535267 0.059336215 0.96666694
-0.41115397 -0 0.93667638
-0.40703741 -0.058148086 0.9072724
-0.40300435 -0.11514395 0.87846476
-0.39904863 -0.17102078 0.85020941
-0.39516976 -0.22581115 0.82250333
-0.39136735 -0.27954829 0.79534328
-0.37802497 -0.32402146 0.7000407
-0.35146871 -0.35146865 0.51035321
-0.32839876 -0.37531281 0.34556752
-0.3081708 -0.39621946 0.2010821
-0.29029015 -0.41470021 0.073363319
-0.27437064 -0.43115389 -0.040347397
-0.26010564 -0.44589543 -0.14224021
-0.24725138 -0.45918122 -0.23405644
-0.23560776 -0.47121549 -0.31722513
-0.23292786 -0.49913105 -0.33636731
-0.2309026 -0.52777731 -0.35083351
-0.22891165 -0.55592823 -0.36505452
-0.27584124 0.82752359 0.29853913
-0.27660304 0.78370863 0.30488762
-0.28206947 0.75218523 0.35044134
-0.28775635 0.71939093 0.39783204
-0.29367724 0.68524688 0.44717264
-0.29984689 0.64966822 0.49858648
-0.30628139 0.61256272 0.55220699
-0.31299806 0.57382983 0.60817927
-0.32001591 0.53335983 0.66666138
-0.32735568 0.49103352 0.7278263
-0.33504006 0.44672 0.79186273
-0.34309387 0.40027621 0.85897797
-0.35154441 0.35154438 0.92939913
-0.36042178 0.30035138 1.0033768
-0.36137602 0.24091744 1.0113292
-0.35766855 0.17883417 0.98043323
-0.35403469 0.11801168 0.95015132
-0.35047394 0.058412284 0.92047822
-0.34698567 2.9802322e-08 0.89140958
-0.34356466 -0.057260901 0.86290091
-0.34021193 -0.11340407 0.83496165
-0.3369225 -0.16846108 0.80754983
-0.33369756 -0.22246492 0.78067517
-0.33053231 -0.27544373 0.75429833
-0.32742655 -0.32742649 0.7284168
-0.31730202 -0.37018549 0.64404571
-0.29544199 -0.39392275 0.46187872
-0.27639982 -0.41459972 0.30319402
-0.2596637 -0.43277282 0.16372634
-0.2448386 -0.44887072 0.040184036
-0.23161492 -0.46322984 -0.070013344
-0.20044631 -0.43430036 -0.32975182
-0.19869556 -0.46362305 -0.3443414
-0.19697461 -0.49243647 -0.35868278
-0.1952837 -0.52075654 -0.37277353
-0.19362159 -0.54859442 -0.38662454
-0.19198753 -0.57596248 -0.40024167
-0.19038178 -0.60287559 -0.41362292
-0.22834833 0.8677237 0.28334573
-0.22734982 0.81845939 0.27336043
-0.23178023 0.7880528 0.31766465
-0.23638675 0.7564376 0.36372966
-0.24118006 0.72354019 0.41166303
-0.24617182 0.68928105 0.46158063
-0.25137457 0.65357399 0.51360822
-0.25680199 0.61632484 0.5678823
-0.26246893 0.57743174 0.62455165
-0.26839164 0.53678322 0.68377864
-0.27458781 0.49425796 0.74574029
-0.28107807 0.44972497 0.8106432
-0.28788128 0.40303385 0.87867528
-0.29502198 0.35402641 0.95008206
-0.29944512 0.29944521 0.99431372
-0.2963888 0.23711109 0.96375048
-0.29339561 0.17603746 0.93381846
-0.29046091 0.11618423 0.90447146
-0.28758568 0.057517111 0.87571907
-0.28476551 2.9802322e-08 0.84751737
-0.28200138 -0.05640012 0.81987602
-0.27928913 -0.11171576 0.79275352
-0.27662858 -0.16597715 0.76614815
-0.27401945 -0.21921542 0.74005663
-0.27145788 -0.27145785 0.71444118
-0.26894492 -0.32273391 0.68931144
-0.26647693 -0.37306771 0.66463161
-0.25904638 -0.41447422 0.59032619
-0.17072931 -0.30731276 -0.29284456
-0.16920544 -0.338411 -0.30808324
-0.16770811 -0.36895788 -0.32305664
-0.16623747 -0.39896989 -0.33776307
-0.1647924 -0.42846018 -0.35221374
-0.16337182 -0.45744106 -0.36641958
-0.16197594 -0.4859277 -0.3803784
-0.1606037 -0.51393181 -0.39410076
-0.1598423 -0.54346377 -0.40171486
-0.1598423 -0.5754323 -0.40171477
-0.1598423 -0.60740072 -0.4017148
-0.18147849 0.90739244 0.26834339
-0.17942639 0.85227537 0.24269208
-0.18287483 0.82293677 0.28579772
-0.18645842 0.79244828 0.3305926
-0.19018456 0.76073813 0.37716907
-0.1940634 0.72773767 0.42565459
-0.19810374 0.69336295 0.47615904
-0.20231591 0.65752673 0.52881134
-0.2067111 0.62013328 0.58375096
-0.21130237 0.58108157 0.64114195
-0.2161013 0.54025328 0.70112866
-0.22112328 0.49752748 0.76390356
-0.22638422 0.45276845 0.82966524
-0.23190162 0.40582776 0.89863253
-0.23769465 0.35654184 0.97104537
-0.2357924 0.29474047 0.94726717
-0.23342425 0.23342419 0.91766536
-0.23110215 0.17332664 0.88863939
-0.22882581 0.11441287 0.86018479
-0.22659488 0.056648612 0.8322981
-0.22440602 5.9604645e-08 0.80493754
-0.22226004 -0.055565029 0.77811277
-0.22015375 -0.11007693 0.75178403
-0.21808796 -0.16356602 0.72596145
-0.14097002 -0.14097008 -0.23801225
-0.13966982 -0.17458735 -0.25426498
-0.1383945 -0.2075917 -0.27020627
-0.13714303 -0.24000026 -0.28584975
-0.13591398 -0.27182806 -0.30121297
-0.13470677 -0.30309024 -0.31630319
-0.13352045 -0.33380109 -0.33113214
-0.1323552 -0.36397678 -0.34569779
-0.1312101 -0.3936303 -0.36001137
-0.13115719 -0.42626089 -0.36067277
-0.13115719 -0.45905018 -0.36067286
-0.13115685 -0.49183819 -0.36067715
-0.13115685 -0.52462739 -0.36067712
-0.13115685 -0.55741656 -0.36067712
-0.13115685 -0.59020579 -0.36067718
-0.13115685 -0.62299508 -0.36067706
-0.13522047 0.9465434 0.25353691
-0.13363609 0.89090717 0.22713053
-0.13529548 0.85687137 0.254787
-0.13791005 0.82746035 0.29836327
-0.14062768 0.7968902 0.3436569
-0.14345455 0.765091 0.39077151
-0.14639741 0.731987 0.43981904
-0.14946353 0.69749653 0.49092126
-0.15266085 0.66153026 0.54420966
-0.15599795 0.62399167 0.59982789
-0.15948419 0.58477533 0.6579321
-0.16312982 0.54376608 0.71869278
-0.16694675 0.50084019 0.78230822
-0.17094582 0.45585549 0.84895927
-0.17514117 0.40866277 0.91888183
-0.17586623 0.35173249 0.9309662
-0.17410883 0.29018137 0.901676
-0.17238699 0.22984934 0.87297869
-0.17069808 0.17069814 0.84483033
-0.16904271 0.11269519 0.81724089
-0.16741841 0.05580613 0.79016912
-0.10819518 -3.7252903e-08 -0.19688478
-0.10717418 -0.035724729 -0.21390134
-0.10617287 -0.070781864 -0.23058982
-0.10519098 -0.10519104 -0.24695455
-0.10422709 -0.13896954 -0.2630195
-0.10328042 -0.17213409 -0.27879736
-0.10235106 -0.2047022 -0.29428667
-0.10143828 -0.23668934 -0.30949962
-0.10095993 -0.26922652 -0.31747225
-0.10095993 -0.30287975 -0.31747219
-0.10095993 -0.33653307 -0.31747225
-0.10095993 -0.37018651 -0.31747222
-0.10095993 -0.40383977 -0.31747216
-0.10095993 -0.43749309 -0.31747222
-0.10095966 -0.47114506 -0.31747675
-0.10095966 -0.50479817 -0.31747672
-0.10095966 -0.53845149 -0.31747675
-0.10095966 -0.57210475 -0.31747666
-0.10095966 -0.60575795 -0.31747669
-0.10095966 -0.63941115 -0.31747666
-0.08851973 0.92945725 0.21285573
-0.088989764 0.88989758 0.22460642
-0.090686031 0.86151731 0.26701304
-0.09244822 0.83203405 0.31106785
-0.09428025 0.80138201 0.35686833
-0.096186347 0.76949078 0.40452108
-0.098171122 0.73628354 0.45414042
-0.10023993 0.70167947 0.50586033
-0.10239739 0.66558301 0.55979705
-0.10464976 0.62789863 0.61610627
-0.10700345 0.58851904 0.67494839
-0.10946544 0.54732734 0.73649848
-0.11204341 0.50419533 0.80094743
-0.11474573 0.45898294 0.86850536
-0.11659929 0.40809742 0.91484451
-0.11544047 0.34632146 0.88587397
-0.11430497 0.28576243 0.85748672
-0.073853843 0.14770772 -0.15379167
-0.07314042 0.10971061 -0.17162713
-0.072440855 0.072440811 -0.18911619
-0.071755372 0.03587769 -0.20625357
-0.071082734 7.4505806e-09 -0.22306934
-0.070422396 -0.035211265 -0.23957789
-0.069774404 -0.069774427 -0.25577766
-0.069138229 -0.10370734 -0.27168196
-0.069128364 -0.13825679 -0.27192846
-0.069128364 -0.17282094 -0.27192849
-0.069128178 -0.20738447 -0.27193323
-0.069128178 -0.24194862 -0.27193326
-0.069128178 -0.27651265 -0.27193335
-0.069128178 -0.31107682 -0.27193317
-0.069128178 -0.3456409 -0.27193326
-0.069128178 -0.38020495 -0.2719332
-0.069128178 -0.41476908 -0.27193338
-0.069127984 -0.44933194 -0.27193794
-0.069127984 -0.48389596 -0.27193794
-0.069127984 -0.51845992 -0.27193809
-0.069127984 -0.55302387 -0.27193806
-0.069127984 -0.58758795 -0.271938
-0.069127984 -0.62215191 -0.27193797
-0.069127984 -0.65671587 -0.27193797
-0.043978006 0.96751601 0.1987623
-0.04390737 0.92205477 0.19523075
-0.044733044 0.89466089 0.23651454
-0.045590203 0.86621392 0.27937254
-0.046481021 0.83665836 0.32391334
-0.04740753 0.80592811 0.37023884
-0.048371535 0.7739445 0.41843897
-0.049375564 0.74063325 0.46864027
-0.050422151 0.70591003 0.52096987
-0.05151407 0.66968292 0.5755657
-0.052654549 0.63185465 0.63258976
-0.053846437 0.59231073 0.69218403
-0.055093538 0.55093533 0.75453913
-0.038212843 0.34391558 -0.089495651
-0.037830982 0.30264774 -0.10858855
-0.03745668 0.26219681 -0.12730356
-0.037089825 0.22253902 -0.14564657
-0.036730401 0.18365197 -0.16361748
-0.036377985 0.14551203 -0.18123838
-0.036032166 0.10809648 -0.19852941
-0.035692956 0.071385927 -0.21548983
-0.035525639 0.035525613 -0.22385591
-0.035525639 2.9802322e-08 -0.22385582
-0.035525639 -0.035525642 -0.22385579
-0.035525639 -0.0710513 -0.22385576
-0.035525639 -0.10657688 -0.22385582
-0.035525639 -0.14210263 -0.2238559
-0.035525538 -0.17762767 -0.22386083
-0.035525538 -0.21315317 -0.22386079
-0.035525538 -0.24867874 -0.22386086
-0.035525538 -0.28420424 -0.22386083
-0.035525538 -0.3197298 -0.22386089
-0.035525538 -0.35525548 -0.22386086
-0.035525538 -0.3907809 -0.22386074
-0.035525437 -0.42630535 -0.2238659
-0.035525437 -0.46183068 -0.22386584
-0.035525437 -0.49735606 -0.22386587
-0.035525437 -0.53288162 -0.22386585
-0.035525437 -0.568407 -0.2238659
-0.035525437 -0.6039325 -0.22386588
-0.035525437 -0.63945782 -0.22386582
-0.035525337 -0.67498136 -0.22387086
0 1.0050967 0.18485507
0 0.95337045 0.16661328
0 0.92692125 0.20681772
0 0.89947218 0.2485427
0 0.87096506 0.29187557
0 0.84133756 0.33691138
0 0.81052256 0.38375244
0 0.77844727 0.43250978
0 0.74503505 0.48331267
0 0.71019495 0.53627282
0 0.50936329 -0.04104802
0 0.46536511 -0.061116442
0 0.42226055 -0.080771893
0 0.38001978 -0.10003871
0 0.3386218 -0.11890566
0 0.29803869 -0.13739607
0 0.25824633 -0.15552126
0 0.21925335 -0.17302682
0 0.18271112 -0.17302686
0 0.14616884 -0.17302698
0 0.10962655 -0.17302692
0 0.073084228 -0.17303222
0 0.036542095 -0.17303216
0 -1.1920929e-07 -0.17303219
0 -0.03654208 -0.17303213
0 -0.07308419 -0.17303225
0 -0.10962632 -0.17303218
0 -0.14616853 -0.17303222
0 -0.18271002 -0.17303744
0 -0.21925196 -0.17303754
0 -0.25579399 -0.17303757
0 -0.29233596 -0.1730375
0 -0.3288781 -0.17303744
0 -0.36542013 -0.17303748
0 -0.40196091 -0.17304282
0 -0.43850273 -0.17304273
0 -0.47504461 -0.17304274
0 -0.51158655 -0.17304283
0 -0.54812849 -0.17304276
0 -0.58467036 -0.17304276
0 -0.62121046 -0.17304814
0 -0.65775222 -0.17304808
0 -0.6942941 -0.17304808
0 -0.7308358 -0.17304811
0.043425057 1.0422013 0.17111504
0.0429345 0.9874934 0.14658722
0.043560747 0.95833629 0.17789945
0.044373311 0.9318397 0.21852803
0.045216937 0.90433866 0.26070911
0.046093088 0.8757686 0.3045167
0.047003865 0.84606957 0.35005563
0.040201161 0.6834197 0.0099202991
0.03977875 0.63646007 -0.01120013
0.039365247 0.59047872 -0.031875223
0.038960133 0.54544187 -0.052131057
0.038563509 0.50132555 -0.071962312
0.03817511 0.45810127 -0.091382369
0.037794568 0.41574025 -0.11040939
0.037618689 0.37618688 -0.11920342
0.037618577 0.33856726 -0.11920892
0.037618577 0.30094856 -0.11920893
0.037618577 0.26333004 -0.11920895
0.037618577 0.22571155 -0.11920895
0.037618577 0.18809286 -0.11920898
0.037618577 0.15047434 -0.11920881
0.037618466 0.1128554 -0.11921444
0.037618466 0.075236902 -0.11921462
0.037618466 0.037618466 -0.11921453
0.037618466 -4.4703484e-08 -0.11921454
0.037618466 -0.037618387 -0.11921455
0.037618466 -0.07523682 -0.11921446
0.037618466 -0.1128554 -0.11921456
0.037618354 -0.15047336 -0.11922011
0.037618354 -0.18809177 -0.1192202
0.037618354 -0.22571003 -0.11922009
0.037618354 -0.26332855 -0.11922011
0.037618354 -0.3009468 -0.11922019
0.037618354 -0.33856523 -0.1192201
0.037618242 -0.37618241 -0.11922567
0.037618242 -0.41380066 -0.11922577
0.037618242 -0.45141882 -0.11922574
0.037618242 -0.48903707 -0.1192258
0.037618242 -0.52665532 -0.11922573
0.037618242 -0.5642736 -0.1192258
0.037618242 -0.60189188 -0.1192257
0.037618127 -0.63950819 -0.11923137
0.037618127 -0.67712629 -0.11923131
0.037618127 -0.71474433 -0.11923134
0.037618127 -0.75236261 -0.11923137
0.086307392 1.0788424 0.15754706
0.085338712 1.0240644 0.13332999
0.085994966 0.98894221 0.14973661
0.087577969 0.96335769 0.1893115
0.082549974 0.8667748 0.063611776
0.081659667 0.81659675 0.04135412
0.08078862 0.76749194 0.019577771
0.079935707 0.71942127 -0.0017451644
0.079100862 0.67235744 -0.022616148
0.078284003 0.62627202 -0.043037623
0.077520773 0.58140582 -0.062118351
0.077520773 0.54264545 -0.062118188
0.077520773 0.50388503 -0.062118277
0.077520773 0.46512461 -0.062118292
0.077520773 0.42636418 -0.062118351
0.077520534 0.38760269 -0.062124252
0.077520534 0.34884235 -0.062124237
0.077520534 0.31008214 -0.062124312
0.077520534 0.27132189 -0.062124394
0.077520534 0.23256159 -0.062124208
0.077520534 0.19380143 -0.062124189
0.077520534 0.15504111 -0.06212417
0.077520303 0.11628047 -0.06213019
0.077520303 0.077520318 -0.062130164
0.077520303 0.038760167 -0.062130146
0.077520303 -6.146729e-08 -0.062130213
0.077520303 -0.038760126 -0.062130269
0.077520303 -0.077520274 -0.062130246
0.077520065 -0.11628017 -0.062136121
0.077520065 -0.15504006 -0.062136162
0.077520065 -0.19380012 -0.062136225
0.077520065 -0.23256026 -0.062136196
0.077520065 -0.27132025 -0.062136158
0.077520065 -0.31008023 -0.062136129
0.077519827 -0.34883928 -0.062142104
0.077519827 -0.38759908 -0.062142059
0.077519827 -0.42635897 -0.062142119
0.077519827 -0.46511894 -0.062142059
0.077519827 -0.50387883 -0.062142104
0.077519827 -0.54263872 -0.062142164
0.077519827 -0.58139873 -0.062142134
0.077519588 -0.62015665 -0.062148124
0.077519588 -0.65891635 -0.062148154
0.077519588 -0.6976763 -0.062148005
0.077519588 -0.73643607 -0.062148124
0.077519588 -0.77519584 -0.062148035
0.12722199 1.060183 0.12022853
0.12581392 1.0065112 0.09676072
0.12443586 0.95400822 0.073793352
0.12308726 0.90263993 0.051316679
0.12176757 0.852373 0.02932182
0.12047743 0.80318272 0.0078193843
0.11992106 0.75950009 -0.0014534891
0.11992106 0.71952641 -0.0014534295
0.11992068 0.67955047 -0.0014598072
0.11992068 0.63957703 -0.0014597476
0.11992068 0.59960341 -0.0014598072
0.11992068 0.55962986 -0.0014598668
0.11992068 0.5196563 -0.0014597774
0.11992068 0.47968271 -0.0014598221
0.11992028 0.43970767 -0.00146617
0.11992028 0.39973432 -0.0014662147
0.11992028 0.35976085 -0.0014662147
0.11992028 0.31978747 -0.0014662594
0.11992028 0.27981392 -0.0014661849
0.11992028 0.23984063 -0.0014661402
0.11992028 0.19986716 -0.0014661252
0.11991991 0.15989324 -0.0014724806
0.11991991 0.11991987 -0.0014725477
0.11991991 0.079946578 -0.0014725141
0.11991991 0.039973371 -0.0014725644
0.11991991 -1.3620593e-08 -0.0014724575
0.11991991 -0.039973296 -0.0014725961
0.11991953 -0.079946376 -0.0014788918
0.11991953 -0.11991951 -0.0014788471
0.11991953 -0.15989271 -0.0014788955
0.11991953 -0.19986591 -0.0014789477
0.11991953 -0.23983905 -0.0014789104
0.11991953 -0.27981216 -0.0014788657
0.11991953 -0.31978536 -0.0014789253
0.11991915 -0.35975754 -0.0014852285
0.11991915 -0.39973047 -0.0014853328
0.11991915 -0.43970352 -0.0014852136
0.11991915 -0.47967657 -0.0014852434
0.11991915 -0.51964968 -0.0014851987
0.11991915 -0.5596227 -0.0014852285
0.11991878 -0.59959376 -0.0014915466
0.11991878 -0.63956678 -0.0014915764
0.11991878 -0.67953968 -0.001491636
0.11991878 -0.71951258 -0.0014915764
0.11991878 -0.7594856 -0.0014915168
0.11991878 -0.79945838 -0.0014916658
0.16859286 1.0958536 0.10727286
0.16673651 1.0421033 0.084068835
0.16506103 0.99036622 0.063125193
0.16506103 0.94910079 0.063125044
0.16506103 0.90783554 0.063125044
0.16506103 0.86657047 0.063125223
0.16506103 0.82530522 0.063125283
0.16506103 0.78403986 0.063125074
0.16506049 0.74277216 0.063118368
0.16506049 0.70150697 0.063118309
0.16506049 0.66024184 0.063118249
0.16506049 0.61897695 0.063118458
0.16506049 0.57771176 0.063118398
0.16506049 0.53644657 0.063118398
0.16506049 0.4951815 0.063118383
0.16505994 0.45391482 0.063111603
0.16505994 0.41264981 0.063111603
0.16505994 0.37138486 0.063111678
0.16505994 0.33011988 0.063111603
0.16505994 0.28885484 0.063111596
0.16505994 0.2475898 0.063111588
0.16505942 0.20632432 0.063104868
0.16505942 0.16505936 0.063104965
0.16505942 0.12379459 0.06310489
0.16505942 0.082529724 0.063104734
0.16505942 0.041264754 0.063104816
0.16505942 5.2154064e-08 0.063104838
0.16505887 -0.041264661 0.063098088
0.16505887 -0.082529366 0.063098118
0.16505887 -0.12379407 0.063098133
0.16505887 -0.16505885 0.063098066
0.16505887 -0.20632364 0.063098155
0.16505887 -0.24758828 0.063098103
0.16505887 -0.28885314 0.063098118
0.16505833 -0.33011666 0.063091293
0.16505833 -0.37138122 0.063091323
0.16505833 -0.41264594 0.063091338
0.16505833 -0.45391035 0.063091278
0.16505833 -0.49517506 0.063091308
0.16505833 -0.53643942 0.063091353
0.16505779 -0.57770228 0.063084587
0.16505779 -0.61896664 0.063084632
0.16505779 -0.66023111 0.063084602
0.16505779 -0.70149565 0.063084632
0.16505779 -0.74276 0.063084513
0.16505779 -0.78402448 0.063084692
0.16505779 -0.82528889 0.063084573
0.21321613 1.1087239 0.1320236
0.21321613 1.0660806 0.13202342
0.21321541 1.0234339 0.13201639
0.21321541 0.98079085 0.13201621
0.21321541 0.93814778 0.13201633
0.21321541 0.89550459 0.13201615
0.21321541 0.85286152 0.13201624
0.21321468 0.81021571 0.13200897
0.21321468 0.76757288 0.13200915
0.21321468 0.72492981 0.13200897
0.21321468 0.68228698 0.13200909
0.21321468 0.63964391 0.13200894
0.21321468 0.59700108 0.1320091
0.21321468 0.55435824 0.13200921
0.21321395 0.5117135 0.13200192
0.21321395 0.46907073 0.13200188
0.21321395 0.4264279 0.13200192
0.21321395 0.38378516 0.13200173
0.21321395 0.34114233 0.13200179
0.21321395 0.29849949 0.13200183
0.21321324 0.25585583 0.13199455
0.21321324 0.21321326 0.13199455
0.21321324 0.1705706 0.13199459
0.21321324 0.12792793 0.13199466
0.21321324 0.085285343 0.13199465
0.21321324 0.042642679 0.13199469
0.21321324 2.2351742e-08 0.13199459
0.2132125 -0.042642623 0.13198739
0.2132125 -0.08528503 0.13198739
0.2132125 -0.12792744 0.13198739
0.2132125 -0.17056994 0.13198747
0.2132125 -0.21321252 0.13198744
0.2132125 -0.25585499 0.13198735
0.21321179 -0.29849645 0.13198024
0.21321179 -0.3411389 0.13198023
0.21321179 -0.38378128 0.13198023
0.21321179 -0.42642361 0.13198015
0.21321179 -0.46906585 0.13198014
0.21321179 -0.51170826 0.13198014
0.21321107 -0.55434871 0.13197292
0.21321107 -0.59699094 0.13197294
0.21321107 -0.63963318 0.13197294
0.21321107 -0.68227541 0.13197294
0.21321107 -0.72491765 0.13197297
0.21321107 -0.76755977 0.131973
0.21321107 -0.81020212 0.131973
0.21321036 -0.85284138 0.13196579
0.26469746 1.0587897 0.20567444
0.26469746 1.0146737 0.20567453
0.26469746 0.97055745 0.20567453
0.26469654 0.92643797 0.20566687
0.26469654 0.88232189 0.2056669
0.26469654 0.8382057 0.20566684
0.26469561 0.79408675 0.205659
0.26469561 0.74997085 0.205659
0.26469561 0.70585489 0.20565897
0.26469561 0.66173911 0.20565911
0.26469561 0.61762321 0.20565909
0.26469469 0.5735051 0.20565122
0.26469469 0.52938938 0.20565134
0.26469469 0.48527375 0.20565136
0.26469469 0.4411577 0.2056513
0.26469469 0.39704198 0.20565142
0.26469469 0.35292625 0.20565134
0.26469377 0.30880934 0.20564353
0.26469377 0.2646938 0.20564365
0.26469377 0.2205781 0.20564359
0.26469377 0.17646256 0.20564355
0.26469377 0.13234676 0.20564359
0.26469377 0.088231213 0.20564371
0.26469377 0.044115588 0.20564359
0.26469284 -5.9604645e-08 0.20563594
0.26469284 -0.044115514 0.20563582
0.26469284 -0.0882309 0.20563596
0.26469284 -0.13234645 0.20563591
0.26469284 -0.17646189 0.20563595
0.26469284 -0.22057736 0.20563585
0.26469189 -0.26469192 0.20562819
0.26469189 -0.30880719 0.20562825
0.26469189 -0.35292259 0.20562822
0.26469189 -0.39703786 0.20562828
0.26469189 -0.44115314 0.20562817
0.26469189 -0.48526853 0.20562813
0.26469189 -0.52938384 0.20562822
0.26469097 -0.57349706 0.20562039
0.26469097 -0.61761212 0.20562039
0.26469097 -0.66172743 0.20562044
0.26469097 -0.70584255 0.20562035
0.26469097 -0.74995768 0.20562044
0.26469097 -0.79407287 0.20562044
0.26469004 -0.83818495 0.20561266
0.26469004 -0.88230008 0.20561278
0.31986386 1.0509813 0.2846041
0.31986386 1.0052865 0.28460413
0.31986269 0.95958817 0.28459582
0.31986269 0.91389334 0.28459579
0.31986269 0.86819863 0.28459573
0.31986156 0.82250106 0.28458747
0.31986156 0.77680659 0.28458753
0.31986156 0.73111212 0.28458756
0.31986037 0.68541503 0.28457916
0.31986037 0.63972074 0.28457937
0.31986037 0.59402645 0.28457928
0.31985924 0.54833019 0.28457111
0.31985924 0.50263596 0.28457093
0.31985924 0.45694172 0.28457081
0.31985924 0.41124752 0.2845709
0.31985924 0.36555338 0.28457099
0.31985804 0.31985804 0.28456265
0.31985804 0.27416414 0.28456268
0.31985804 0.22847006 0.28456271
0.31985804 0.18277591 0.28456265
0.31985804 0.13708201 0.28456268
0.31985804 0.091388099 0.28456271
0.31985691 0.045693874 0.28455436
0.31985691 5.9604645e-08 0.2845543
0.31985691 -0.045693927 0.28455442
0.31985691 -0.091387764 0.28455439
0.31985691 -0.1370815 0.28455442
0.31985691 -0.18277532 0.28455439
0.31985572 -0.22846836 0.28454614
0.31985572 -0.27416199 0.28454611
0.31985572 -0.31985575 0.28454614
0.31985572 -0.36554939 0.28454611
0.31985572 -0.41124305 0.28454608
0.31985572 -0.45693669 0.28454602
0.31985572 -0.50263041 0.28454611
0.31985459 -0.54832214 0.28453776
0.31985459 -0.5940156 0.28453791
0.31985459 -0.63970917 0.28453779
0.31985459 -0.68540257 0.28453785
0.31985459 -0.73109615 0.28453773
0.31985459 -0.77678972 0.28453797
0.3198534 -0.82248032 0.28452966
0.3198534 -0.86817348 0.28452954
0.3198534 -0.91386676 0.28452951
0.3791233 0.99519855 0.36938289
0.3791233 0.94780827 0.36938304
0.3791233 0.90041786 0.3693831
0.37912187 0.85302436 0.3693741
0.37912187 0.8056339 0.36937413
0.37912187 0.75824368 0.36937401
0.37912047 0.71085083 0.3693651
0.37912047 0.66346073 0.36936516
0.37912047 0.61607075 0.3693651
0.37912047 0.56868076 0.36936513
0.37911904 0.52128875 0.36935639
0.37911904 0.47389883 0.3693563
0.37911904 0.4265089 0.36935622
0.37911764 0.37911752 0.3693473
0.37911764 0.33172786 0.36934727
0.37911764 0.28433818 0.36934727
0.37911621 0.23694766 0.36933845
0.37911621 0.18955815 0.36933863
0.37911621 0.14216857 0.36933839
0.37911478 0.094778642 0.36932948
0.37911478 0.047389373 0.3693296
0.37911478 -4.4703484e-08 0.36932954
0.37911478 -0.047389373 0.36932957
0.37911478 -0.094778702 0.3693296
0.37911478 -0.14216802 0.36932945
0.37911478 -0.18955737 0.36932963
0.37911335 -0.23694578 0.36932069
0.37911335 -0.28433505 0.36932063
0.37911335 -0.3317242 0.36932069
0.37911335 -0.37911329 0.36932066
0.37911335 -0.4265025 0.3693206
0.37911335 -0.47389159 0.36932057
0.37911192 -0.52127892 0.36931178
0.37911192 -0.56866771 0.36931166
0.37911192 -0.6160568 0.36931163
0.37911192 -0.66344589 0.36931175
0.37911192 -0.7108348 0.36931175
0.37911192 -0.75822389 0.36931187
0.37911049 -0.80560976 0.36930293
0.37911049 -0.85299867 0.36930293
0.37911049 -0.90038735 0.36930281
0.37911049 -0.9477762 0.36930278
0.44295183 0.9351204 0.4607057
0.44295007 0.88590014 0.46069616
0.44295007 0.83668351 0.46069616
0.44295007 0.7874667 0.46069601
0.44295007 0.73825014 0.46069592
0.44294837 0.68903077 0.4606865
0.44294837 0.63981426 0.46068639
0.44294837 0.59059781 0.46068653
0.44294664 0.54137921 0.46067685
0.44294664 0.49216294 0.46067685
0.44294664 0.44294661 0.46067688
0.44294491 0.39372891 0.46066737
0.44294491 0.34451273 0.46066725
0.44294491 0.29529661 0.46066743
0.44294316 0.24607953 0.46065769
0.44294316 0.19686362 0.46065769
0.44294316 0.14764766 0.46065769
0.44294143 0.098431528 0.46064812
0.44294143 0.049215659 0.46064806
0.44294143 -8.9406967e-08 0.46064806
0.44293973 -0.049215481 0.46063846
0.44293973 -0.098430991 0.4606384
0.44293973 -0.14764653 0.46063849
0.442938 -0.19686124 0.46062875
0.442938 -0.24607658 0.46062887
0.442938 -0.29529199 0.46062878
0.442938 -0.34450737 0.4606289
0.442938 -0.39372262 0.46062878
0.442938 -0.44293788 0.46062881
0.44293624 -0.49215135 0.46061927
0.44293624 -0.54136658 0.46061933
0.44293624 -0.59058166 0.46061921
0.44293624 -0.63979697 0.46061927
0.44293624 -0.68901193 0.46061924
0.44293624 -0.73822695 0.46061921
0.44293624 -0.78744227 0.46061915
0.44293451 -0.83665413 0.46060961
0.44293451 -0.88586915 0.46060961
0.44293451 -0.93508387 0.46060956
0.44293451 -0.98429883 0.46060961
0.5118975 0.92141545 0.55934972
0.51189548 0.87022227 0.55933958
0.51189548 0.81903273 0.5593394
0.51189548 0.76784313 0.55933934
0.51189339 0.71665072 0.55932915
0.51189339 0.66546148 0.55932915
0.51189339 0.61427194 0.55932903
0.51189125 0.56308037 0.55931866
0.51189125 0.51189137 0.55931872
0.51189125 0.46070218 0.5593186
0.51188916 0.40951142 0.55930829
0.51188916 0.3583225 0.55930829
0.51188916 0.30713356 0.55930829
0.51188713 0.25594354 0.55929786
0.51188713 0.20475468 0.5592978
0.51188713 0.15356611 0.55929786
0.51188505 0.10237698 0.55928761
0.51188505 0.051188484 0.55928755
0.51188505 -0 0.55928755
0.51188296 -0.05118835 0.55927706
0.51188296 -0.10237651 0.55927706
0.51188296 -0.15356493 0.55927706
0.51188296 -0.20475328 0.55927706
0.51188087 -0.25594044 0.55926669
0.51188087 -0.30712855 0.55926675
0.51187885 -0.35831523 0.55925637
0.51187885 -0.40950301 0.55925626
0.51187885 -0.46069083 0.55925608
0.51187885 -0.51187873 0.55925637
0.5118767 -0.56306434 0.55924577
0.5118767 -0.61425215 0.55924588
0.5118767 -0.66543978 0.55924606
0.5118767 -0.71662742 0.55924594
0.5118767 -0.76781499 0.55924582
0.51187462 -0.81899947 0.55923551
0.51187462 -0.87018698 0.55923551
0.51187462 -0.92137426 0.55923539
0.51187462 -0.97256178 0.55923545
0.51187462 -1.0237492 0.55923545
0.58659899 0.85323477 0.66622132
0.58659899 0.79990762 0.66622126
0.58659655 0.74657738 0.66620994
0.58659655 0.69325042 0.66621006
0.58659655 0.63992357 0.66621
0.58659405 0.58659405 0.66619879
0.58659405 0.5332672 0.66619873
0.58659405 0.47994065 0.66619885
0.58659154 0.42661217 0.66618758
0.58659154 0.37328544 0.66618747
0.58659154 0.31995896 0.66618741
0.5865891 0.26663151 0.66617626
0.5865891 0.2133051 0.6661762
0.5865891 0.15997887 0.6661762
0.58658659 0.10665211 0.66616476
0.58658659 0.05332613 0.66616499
0.58658659 8.9406967e-08 0.66616488
0.58658659 -0.053326011 0.66616499
0.58658409 -0.10665163 0.66615355
0.58658409 -0.15997759 0.66615367
0.58658409 -0.21330328 0.66615355
0.58658165 -0.26662809 0.66614234
0.58658165 -0.31995359 0.6661424
0.58658165 -0.37327909 0.6661424
0.58657914 -0.4266029 0.66613108
0.58657914 -0.47992852 0.6661312
0.58657914 -0.53325373 0.66613102
0.58657664 -0.58657658 0.66611964
0.58657664 -0.63990182 0.66611981
0.58657664 -0.69322693 0.66611975
0.5865742 -0.74654877 0.66610849
0.5865742 -0.79987383 0.66610849
0.5865742 -0.85319883 0.66610861
0.58657169 -0.90651983 0.66609716
0.58657169 -0.95984453 0.66609722
0.58657169 -1.0131694 0.6660974
0.58657169 -1.066494 0.66609722
0.66781354 0.83476692 0.78241891
0.66781068 0.77911234 0.78240657
0.66781068 0.72346163 0.78240663
0.66781068 0.6678105 0.78240657
0.6678077 0.61215699 0.78239423
0.6678077 0.55650628 0.78239429
0.6678077 0.50085574 0.78239429
0.66780472 0.44520327 0.78238207
0.66780472 0.38955265 0.78238201
0.66780472 0.33390242 0.78238207
0.6678018 0.27825072 0.78236979
0.6678018 0.22260064 0.78236961
0.6678018 0.16695037 0.78236973
0.6678018 0.11130038 0.78236979
0.66779882 0.055649906 0.78235739
0.66779882 -0 0.78235745
0.66779882 -0.055650055 0.78235734
0.6677959 -0.11129934 0.78234518
0.6677959 -0.16694891 0.78234518
0.6677959 -0.22259855 0.78234518
0.66779298 -0.27824715 0.78233272
0.66779298 -0.33389652 0.78233302
0.66779298 -0.38954589 0.78233302
0.66779 -0.44519335 0.7823205
0.66779 -0.50084245 0.7823205
0.66779 -0.55649161 0.78232056
0.66778702 -0.61213803 0.78230822
0.66778702 -0.66778702 0.78230828
0.66778702 -0.72343582 0.78230816
0.66778415 -0.77908152 0.782296
0.66778415 -0.83472997 0.78229588
0.66778415 -0.89037883 0.78229606
0.75642574 0.75642562 0.90919191
0.75642574 0.69823909 0.90919203
0.75642228 0.64004946 0.9091785
0.75642228 0.58186328 0.90917873
0.75642228 0.52367705 0.90917861
0.7564187 0.46548855 0.90916526
0.7564187 0.40730238 0.90916508
0.7564187 0.34911633 0.9091652
0.7564187 0.29093018 0.90916502
0.75641525 0.23274323 0.90915167
0.75641525 0.17455733 0.90915161
0.75641525 0.11637157 0.90915167
0.75641173 0.058185458 0.90913826
0.75641173 -8.9406967e-08 0.9091382
0.75641173 -0.058185399 0.90913826
0.75640827 -0.11637053 0.90912485
0.75640827 -0.17455575 0.90912485
0.75640827 -0.232741 0.90912485
0.75640482 -0.29092491 0.90911138
0.75640482 -0.34910986 0.90911126
0.75640482 -0.40729496 0.90911144
0.75640124 -0.46547788 0.90909797
0.85349762 0.67060518 1.048068
0.85349762 0.60964113 1.048068
0.85349762 0.54867709 1.048068
0.85349762 0.48771286 1.048068
0.85349351 0.42674664 1.0480533
0.85349351 0.36578289 1.0480533
0.85349351 0.30481911 1.0480533
0.85348934 0.24385393 1.0480385
0.85348934 0.18289053 1.0480386
0.85348934 0.12192699 1.0480387
0.85348529 0.060963213 1.0480237
0.85348529 -5.9604645e-08 1.0480239
0.96030635 0.64020413 1.2008833
0.96030635 0.57618392 1.2008836
0.96030635 0.51216352 1.2008834
