# .PCD v0.7 - Point Cloud Data file format
VERSION 0.7
FIELDS x y z
SIZE 4 4 4
TYPE F F F
COUNT 1 1 1
WIDTH 935
HEIGHT 1
VIEWPOINT 0 0 0 1 0 0 0
POINTS 935
DATA ascii
-1.110687 0.55534351 0.52415109
-1.1456347 0.52074313 0.60357726
-1.0944874 0.62542123 0.60578448
-1.0426548 0.54615253 0.48237345
-1.0509394 0.50044727 0.50209898
-1.0837091 0.46444684 0.58012205
-1.1185929 0.42613059 0.66317856
-1.155792 0.38526404 0.75174797
-1.0311624 0.6186974 0.57776797
-0.98284429 0.54056436 0.45697296
-0.96335244 0.48167619 0.40824321
-0.99223047 0.44650373 0.48043856
-1.0228934 0.40915731 0.55709589
-1.055512 0.3694292 0.63864231
-1.0902841 0.32708514 0.72557247
-1.1274202 0.28185511 0.81841284
-0.97704607 0.6170817 0.5710361
-0.92424905 0.53509164 0.43209663
-0.88332838 0.46490955 0.32441062
-0.90755373 0.42989385 0.38816175
-0.93452567 0.39348435 0.45914015
-0.96315366 0.35484612 0.53447729
-0.9935869 0.3137643 0.61456484
-1.0260062 0.27000165 0.69987857
-1.0606124 0.2232869 0.79094768
-1.0976396 0.17331156 0.88838756
-0.93071139 0.6204741 0.58517152
-0.9403252 0.57464325 0.61187685
-0.82881778 0.46045431 0.3021338
-0.828951 0.41447544 0.30250394
-0.85268116 0.37896934 0.36842117
-0.87780666 0.34136927 0.43821403
-0.90445775 0.30148602 0.51224512
-0.93277788 0.25910491 0.59091181
-0.96293288 0.21398509 0.67467588
-0.99509847 0.16584969 0.76402456
-1.0294871 0.11438751 0.85954887
-1.0663377 0.059241027 0.96191156
-0.89172578 0.68190795 0.6225853
-0.88386798 0.62390685 0.59947401
-0.89304537 0.5778529 0.62646627
-0.77533919 0.45608175 0.28027159
-0.75579399 0.40012622 0.22278562
-0.77665734 0.36548585 0.28414857
-0.79870534 0.32887861 0.34899551
-0.82204163 0.29013231 0.41763178
-0.84678596 0.24905476 0.49040931
-0.87306273 0.20542648 0.56769371
-0.90102249 0.15900402 0.64992839
-0.93083227 0.10950968 0.7376042
-0.96268642 0.056628555 0.83129263
-0.99679327 -5.9604645e-08 0.93160713
-1.0334057 -0.060788512 1.0392903
-0.83019412 0.67453271 0.59421897
-0.83649999 0.62737489 0.61392462
-0.84523427 0.58109862 0.64121956
-0.72287446 0.45179659 0.25884497
-0.6930505 0.3898409 0.16564518
-0.70585746 0.3529287 0.20566675
-0.72519082 0.31727087 0.26608354
-0.7456103 0.27960396 0.3298946
-0.76721305 0.23975417 0.39740309
-0.79010493 0.19752619 0.46894017
-0.81440496 0.15270086 0.54487759
-0.84025061 0.10503136 0.6256454
-0.86778671 0.05423665 0.71169567
-0.89718878 -1.4901161e-07 0.80357707
-0.92865312 -0.058040857 0.90190309
-0.96240914 -0.12030122 1.0073909
-0.99870676 -0.18725741 1.1208209
-0.78048891 0.67642373 0.60149175
-0.78860241 0.63088197 0.62853706
-0.79688311 0.58438087 0.65613937
-0.80533957 0.53689307 0.68432748
-0.64392972 0.38635781 0.14629468
-0.63976312 0.34120697 0.13240591
-0.65668648 0.30645376 0.18881713
-0.67452949 0.26981187 0.24829409
-0.69336927 0.23112315 0.31109315
-0.71329165 0.19021112 0.37750107
-0.73439562 0.14687915 0.44784766
-0.75678343 0.10090438 0.52247369
-0.78057909 0.05203861 0.60179257
-0.80591977 -0 0.68626153
-0.83296466 -0.055531085 0.77641106
-0.86188376 -0.11491776 0.87280834
-0.89288318 -0.17857671 0.97613966
-0.92619568 -0.24698552 1.0871813
-0.96209508 -0.32069847 1.2068459
-0.73250878 0.68018669 0.61596501
-0.74016637 0.63442826 0.64331371
-0.74798268 0.58770072 0.67122889
-0.75596571 0.53997546 0.69973969
-0.5956769 0.38293523 0.12727977
-0.57791603 0.33023781 0.063848257
-0.59269941 0.2963497 0.11664589
-0.6082589 0.26068234 0.17221549
-0.6246596 0.22309275 0.23078936
-0.64196688 0.18341903 0.29260102
-0.66026056 0.14148432 0.35793567
-0.67962742 0.097089648 0.42710304
-0.70016479 0.050011873 0.50045067
-0.72198492 2.9802322e-08 0.57837981
-0.7452057 -0.053229004 0.66131139
-0.76996982 -0.10999575 0.74975437
-0.79643643 -0.17066506 0.8442781
-0.82479113 -0.23565462 0.94554496
-0.85523522 -0.30544105 1.0542738
-0.88801283 -0.38057682 1.1713365
-0.92340308 -0.4617016 1.2977303
-0.96173656 -0.54956365 1.4346352
-0.68633282 0.73912764 0.63960397
-0.68399185 0.68399191 0.63060015
-0.69118273 0.63801473 0.65825725
-0.69852334 0.59105825 0.6864906
-0.70602167 0.54309344 0.71533
-0.54828429 0.37958148 0.1086482
-0.52710265 0.3243708 0.027180329
-0.5327971 0.2868908 0.049081706
-0.54632801 0.25215143 0.10112408
-0.56056231 0.21560085 0.15587115
-0.57555813 0.17709479 0.21354744
-0.59137839 0.136472 0.27439439
-0.60809511 0.093553074 0.33868963
-0.62578201 0.048137128 0.40671623
-0.64452863 1.4901161e-08 0.47881857
-0.66443312 -0.051110238 0.55537438
-0.68560618 -0.10547796 0.63680917
-0.70817614 -0.16342524 0.72361684
-0.73227948 -0.22531676 0.81632155
-0.75808126 -0.29156962 0.91555941
-0.78576773 -0.36266211 1.0220457
-0.81555718 -0.43914619 1.1366209
-0.84769005 -0.52165532 1.2602087
-0.88245887 -0.61093318 1.3939347
-0.62835771 0.73308408 0.61801928
-0.63492912 0.68783975 0.64540005
-0.64164203 0.64164209 0.67337096
-0.64849573 0.59445429 0.70192784
-0.65550023 0.54625028 0.73111343
-0.66265482 0.49699116 0.7609241
-0.48248473 0.32165658 0.010215282
-0.47660187 0.27801767 -0.014296517
-0.48832059 0.24416029 0.034531608
-0.5006302 0.20859586 0.085821241
-0.51357633 0.17119212 0.13976364
-0.52721173 0.1318029 0.19657768
-0.54158896 0.09026479 0.25648278
-0.55677223 0.046397671 0.31974658
-0.57283145 -1.4901161e-08 0.38666001
-0.58984691 -0.049153879 0.45755768
-0.60790169 -0.10131688 0.53278589
-0.62709665 -0.15677415 0.61276501
-0.64754337 -0.21584782 0.69795954
-0.66936833 -0.27890337 0.78889698
-0.69271898 -0.34635952 0.88619125
-0.71775424 -0.41868997 0.99050492
-0.74466699 -0.49644464 1.1026413
-0.77368051 -0.5802604 1.223531
-0.57921934 0.73718828 0.63267767
-0.58531362 0.69173431 0.66037875
-0.59153491 0.64531076 0.68865734
-0.59788984 0.5978899 0.71754354
-0.60438555 0.54944134 0.74706918
-0.61102116 0.49992639 0.77723104
-0.43861148 0.31899011 -0.0064491481
-0.42377713 0.26967645 -0.073877968
-0.43387693 0.23666021 -0.027969845
-0.4444699 0.20203181 0.020180009
-0.45559457 0.16567075 0.070746556
-0.46728879 0.12744237 0.12390219
-0.47959921 0.087199762 0.17985857
-0.49257573 0.044779584 0.23884299
-0.50627595 2.9802322e-08 0.30111647
-0.52075797 -0.047341675 0.36694416
-0.53609306 -0.097471386 0.43664879
-0.55235863 -0.15064324 0.51058328
-0.56964213 -0.20714258 0.58914465
-0.58804464 -0.26729292 0.67279243
-0.60767323 -0.33145812 0.7620132
-0.62865746 -0.40005463 0.85739601
-0.65114582 -0.47356069 0.95961583
-0.67529941 -0.55251765 1.0694052
-0.70131403 -0.63755828 1.1876533
-0.53735316 0.80602956 0.68662792
-0.52952772 0.74133873 0.64750087
-0.53513086 0.69567013 0.67551655
-0.54085147 0.64902174 0.70411956
-0.54669565 0.60136533 0.73334086
-0.55267 0.55266994 0.76321244
-0.55877393 0.50289655 0.79373193
-0.39546213 0.31636968 -0.022827223
-0.38109884 0.26676908 -0.094643481
-0.38267842 0.22960702 -0.086745709
-0.39173755 0.19586876 -0.041449942
-0.40123472 0.16049391 0.0060358793
-0.41120386 0.12336116 0.055881593
-0.42168099 0.084336244 0.10826715
-0.43270743 0.0432708 0.16339943
-0.44432449 -4.4703484e-08 0.22148463
-0.45658252 -0.045658238 0.28277481
-0.46953607 -0.093907177 0.34754264
-0.48324794 -0.14497435 0.41610205
-0.49778283 -0.19911306 0.48877639
-0.51321912 -0.25660956 0.56595796
-0.52964348 -0.31778616 0.64807969
-0.54715616 -0.38300937 0.73564315
-0.56586403 -0.45269114 0.82918245
-0.58589643 -0.52730685 0.92934465
-0.60740221 -0.60740244 1.0368736
-0.63054383 -0.69359815 1.1525815
-0.4782609 0.79710156 0.65686738
-0.47927338 0.74553639 0.66249216
-0.48437372 0.69965094 0.69082749
-0.4895817 0.65277559 0.71976072
-0.49490288 0.60488117 0.74932253
-0.5003432 0.55593669 0.77954656
-0.50590217 0.50590217 0.81043005
-0.51158613 0.45474306 0.84200722
-0.34028989 0.26466981 -0.10963835
-0.33444422 0.22296284 -0.14211412
-0.34212616 0.19007009 -0.099436961
-0.35016921 0.15563075 -0.054753214
-0.35859957 0.1195332 -0.0079177544
-0.36744711 0.081654958 0.041234922
-0.37674096 0.041860051 0.092867486
-0.38651714 1.4156103e-07 0.14717972
-0.39681423 -0.044090495 0.20438579
-0.40767646 -0.090594739 0.26473135
-0.41914853 -0.13971613 0.32846522
-0.43128493 -0.19168223 0.39588973
-0.44414514 -0.24674731 0.46733525
-0.45779771 -0.3051984 0.54318279
-0.47231421 -0.3673555 0.62383038
-0.48778158 -0.43358356 0.70975983
-0.50429845 -0.50429845 0.80152041
-0.52197075 -0.57996756 0.89969963
-0.54092658 -0.66113245 1.0050098
-0.56131387 -0.74841845 1.1182725
-0.42395887 0.79492283 0.6496051
-0.4284485 0.74978501 0.67766547
-0.43303239 0.70367765 0.70631474
-0.43771541 0.65657312 0.73558366
-0.4425028 0.60844135 0.7655049
-0.44739404 0.55924249 0.79607505
-0.45239466 0.50894403 0.8273288
-0.45751038 0.45751035 0.85930204
-0.30012354 0.26260811 -0.12436555
-0.28976512 0.21732382 -0.18910576
-0.29536778 0.18460485 -0.15408923
-0.30210829 0.15105413 -0.11196097
-0.30916268 0.11593609 -0.067870922
-0.31655443 0.079138517 -0.021672495
-0.32430831 0.040538471 0.02678906
-0.33245152 5.2154064e-08 0.077684358
-0.34101543 -0.042627025 0.13120857
-0.35003096 -0.087507725 0.1875557
-0.35953611 -0.13482597 0.24696296
-0.36957192 -0.1847859 0.30968684
-0.38018551 -0.23761605 0.37602174
-0.39142525 -0.29356891 0.44627002
-0.40334979 -0.35293108 0.52079827
-0.41602543 -0.41602537 0.60002106
-0.42952174 -0.48321211 0.68437332
-0.44392312 -0.55490392 0.77438188
-0.45932582 -0.63157308 0.87064856
-0.47583356 -0.7137503 0.97382176
-0.3730661 0.79942745 0.66462016
-0.37703943 0.75407881 0.69300103
-0.38109666 0.70775098 0.72198135
-0.38524213 0.66041511 0.75159186
-0.38948053 0.61204082 0.78186595
-0.39381146 0.56258774 0.81280124
-0.39823976 0.51202261 0.84443223
-0.40277067 0.46030927 0.87679565
-0.26057738 0.26057741 -0.1388707
-0.25164741 0.21569781 -0.20265612
-0.25122389 0.17944558 -0.20568138
-0.25679249 0.14673857 -0.16590557
-0.26261356 0.11254866 -0.12432652
-0.26870468 0.076772712 -0.080818668
-0.275085 0.039297886 -0.035244778
-0.28177667 -1.6298145e-08 0.012552688
-0.28880101 -0.041257251 0.062726572
-0.29618454 -0.084624171 0.11546612
-0.30395553 -0.13026668 0.17097303
-0.31214634 -0.17836936 0.22947903
-0.32078969 -0.22913559 0.29121715
-0.32992533 -0.28279313 0.35647175
-0.33959788 -0.33959785 0.42556137
-0.34985331 -0.3998324 0.49881449
-0.3607474 -0.46381804 0.57662946
-0.37234339 -0.53191906 0.6594578
-0.38470793 -0.60454094 0.74777609
-0.39792365 -0.68215483 0.84217393
-0.41207772 -0.76528716 0.94327462
-0.32455546 0.86548108 0.70449078
-0.32159328 0.80398333 0.67980653
-0.32503814 0.75842237 0.70851344
-0.32855615 0.71187156 0.7378301
-0.33215114 0.66430223 0.76778847
-0.3358272 0.61568332 0.79842222
-0.33958396 0.56597322 0.82972854
-0.34342575 0.51513851 0.86174357
-0.34735709 0.46314287 0.89450461
-0.35137782 0.40994078 0.92801046
-0.21409832 0.21409835 -0.21598502
-0.20947978 0.17456649 -0.25447291
-0.2139941 0.14266276 -0.2168535
-0.21870729 0.10935371 -0.17757688
-0.22363344 0.074544489 -0.13652582
-0.22878592 0.038131002 -0.093588457
-0.2341814 5.5879354e-09 -0.048625968
-0.23983756 -0.039972827 -0.0014915802
-0.24577364 -0.081924558 0.047976118
-0.2520119 -0.12600595 0.099961519
-0.25857422 -0.17238285 0.15464741
-0.26548743 -0.22123948 0.2122573
-0.2727814 -0.27278134 0.27304059
-0.28048646 -0.32723418 0.33724943
-0.28863946 -0.3848525 0.40519115
-0.2972818 -0.44592261 0.47721055
-0.30645639 -0.51076061 0.5536654
-0.31621662 -0.57973039 0.63500065
-0.3266176 -0.65323508 0.7216754
-0.33772606 -0.73173982 0.814246
-0.34961835 -0.81577599 0.91334832
-0.26745525 0.85585678 0.67441487
-0.26953045 0.80859125 0.69516671
-0.27243432 0.76281619 0.72420549
-0.27540025 0.71604073 0.75386494
-0.27843148 0.6682356 0.78417695
-0.28153142 0.61936909 0.81517643
-0.28469989 0.56939971 0.84686112
-0.28794047 0.5182929 0.87926716
-0.29125705 0.46601117 0.91243267
-0.29464951 0.41250944 0.94635749
-0.17710249 0.21252306 -0.22911274
-0.1713188 0.17131869 -0.28694975
-0.17350902 0.13880727 -0.26504758
-0.17722553 0.1063353 -0.22788239
-0.18110423 0.072441734 -0.18909542
-0.18515651 0.037031334 -0.14857268
-0.18939427 5.5879354e-08 -0.10619512
-0.19383116 -0.038766205 -0.061826184
-0.19848029 -0.07939212 -0.015334833
-0.20335792 -0.12201475 0.033441432
-0.20848134 -0.16678512 0.08467558
-0.2138703 -0.21387033 0.13856536
-0.2195445 -0.26345342 0.1953072
-0.22552799 -0.31573915 0.25514209
-0.2318476 -0.37095615 0.31833825
-0.23853068 -0.42935535 0.38516927
-0.24561147 -0.49122292 0.45597705
-0.25312448 -0.55687404 0.53110713
-0.26111165 -0.62666774 0.61097848
-0.26962042 -0.70101303 0.69606614
-0.27870116 -0.78036326 0.78687394
-0.28841493 -0.86524481 0.88401151
-0.214568 0.85827208 0.68196249
-0.21686828 0.81325603 0.71071565
-0.21921745 0.76726109 0.74008048
-0.22161809 0.72025889 0.77008832
-0.22407287 0.67221862 0.80077326
-0.22658163 0.62309951 0.8321327
-0.2291472 0.57286799 0.86420232
-0.23177262 0.52148837 0.89701968
-0.23445778 0.46891561 0.93058437
-0.23720588 0.4151102 0.96493584
-0.14064753 0.2109713 -0.24204366
-0.13608532 0.17010665 -0.29907116
-0.13515495 0.13515484 -0.31070083
-0.1379718 0.10347879 -0.27549016
-0.14090857 0.070454277 -0.23878068
-0.14397307 0.035993241 -0.20047441
-0.14717425 8.9406967e-08 -0.16045955
-0.15052058 -0.037630215 -0.11863044
-0.15402262 -0.077011362 -0.074854992
-0.15769151 -0.11826865 -0.028993923
-0.16153996 -0.16153988 0.01911182
-0.16558041 -0.20697555 0.069617428
-0.16982816 -0.25474221 0.12271449
-0.17430021 -0.30502546 0.17861491
-0.17901351 -0.35802698 0.23753117
-0.18398879 -0.41397485 0.29972222
-0.18924926 -0.47312313 0.36547798
-0.19481862 -0.53575116 0.43509507
-0.20072651 -0.60217953 0.50894374
-0.2070031 -0.67275989 0.58740079
-0.21368486 -0.74789709 0.67092323
-0.22081335 -0.82805008 0.76002908
-0.16184911 0.86319524 0.69734734
-0.16359428 0.81797135 0.72643352
-0.16537677 0.7717582 0.75614154
-0.16719851 0.72452688 0.78650415
-0.16906162 0.67624646 0.81755567
-0.17096592 0.62687498 0.84929413
-0.17291363 0.57637864 0.88175595
-0.17490703 0.52472103 0.91497946
-0.1769461 0.47185618 0.94896376
-0.17903326 0.41774431 0.98374999
-0.18117025 0.36234054 1.0193666
-0.10134774 0.16891292 -0.31100875
-0.098767214 0.13168958 -0.35401747
-0.10077183 0.10077188 -0.32060707
-0.10285951 0.06857302 -0.28581256
-0.10503581 0.035012007 -0.2495409
-0.10730589 2.9802322e-08 -0.21170622
-0.10967626 -0.036558717 -0.17220014
-0.11215372 -0.074769191 -0.13090913
-0.11474603 -0.11474607 -0.087703876
-0.11746066 -0.15661421 -0.042460088
-0.12030684 -0.2005114 0.004976213
-0.12329479 -0.24658954 0.054775149
-0.12643449 -0.29501376 0.10710375
-0.12973829 -0.34596878 0.16216707
-0.13321985 -0.39965957 0.220193
-0.13689291 -0.45630977 0.28141096
-0.14077482 -0.51617426 0.34610912
-0.14488272 -0.57953089 0.41457441
-0.14923759 -0.64669609 0.48715526
-0.15386298 -0.71802706 0.56424528
-0.1587836 -0.79391789 0.64625555
-0.16403005 -0.87482691 0.73369652
-0.10891017 0.92573637 0.72261643
-0.10852191 0.86817521 0.71290994
-0.10969889 0.82274169 0.74233449
-0.11090119 0.77630836 0.77239209
-0.11213014 0.72884589 0.80311573
-0.11338714 0.68032283 0.83454067
-0.11467212 0.63069665 0.86666512
-0.11598656 0.57993287 0.89952618
-0.11733203 0.52799392 0.93316275
-0.11870851 0.47483402 0.96757507
-0.12011769 0.42041191 1.0028045
-0.12156072 0.3646822 1.0388802
-0.06709449 0.16773623 -0.32277539
-0.065014981 0.13002995 -0.37476325
-0.065468729 0.098203063 -0.36341947
-0.066789769 0.066789851 -0.33039349
-0.068165213 0.034082577 -0.29600739
-0.069598503 5.9604645e-08 -0.26017523
-0.071093358 -0.035546646 -0.22280368
-0.072654054 -0.072654039 -0.18378641
-0.074284583 -0.11142677 -0.14302315
-0.075989984 -0.15197994 -0.10038817
-0.077775761 -0.19443938 -0.055743575
-0.07964725 -0.23894179 -0.0089564994
-0.081611015 -0.28563863 0.040137775
-0.083674349 -0.3346974 0.091721073
-0.085844427 -0.38629997 0.14597315
-0.088130377 -0.44065177 0.20312166
-0.090541072 -0.49797592 0.26338899
-0.09308736 -0.55852413 0.32704619
-0.095781371 -0.6225788 0.39439645
-0.098635577 -0.69044912 0.46575171
-0.10166553 -0.76249141 0.54150051
-0.10488709 -0.83909655 0.62203944
-0.10831951 -0.92071569 0.70784974
-0.053993385 0.91788757 0.69953167
-0.05457582 0.87321323 0.72865325
-0.055171195 0.82756799 0.75842202
-0.055779457 0.7809124 0.78883517
-0.056401283 0.7332167 0.81992638
-0.057037387 0.68444848 0.85173154
-0.057687741 0.63456517 0.88424921
-0.058353093 0.5835309 0.91751677
-0.059034247 0.53130823 0.95157456
-0.059731208 0.47784969 0.98642284
-0.060444828 0.42311376 1.0221037
-0.061175704 0.36705428 1.0586475
-0.033315077 0.16657543 -0.33438367
-0.032289445 0.12915775 -0.38566542
-0.031920604 0.095761836 -0.40410751
-0.032548375 0.065096781 -0.37271899
-0.033201337 0.033201352 -0.34007096
-0.033881027 -4.4703484e-08 -0.30608636
-0.034589227 -0.034589291 -0.27067631
-0.035327569 -0.07065504 -0.23375945
-0.036098115 -0.10829434 -0.195232
-0.036903132 -0.14761256 -0.15498105
-0.037744761 -0.1887238 -0.11289962
-0.038625672 -0.23175412 -0.068853892
-0.039548818 -0.27684176 -0.022696927
-0.040517032 -0.3241362 0.025713846
-0.041533981 -0.37380582 0.076561302
-0.04260315 -0.42603153 0.13001978
-0.043728821 -0.48101705 0.18630321
-0.044915747 -0.53898895 0.24564958
-0.046168737 -0.60019368 0.30829909
-0.047493819 -0.66491342 0.37455326
-0.048897024 -0.7334553 0.44471338
-0.050385665 -0.80617046 0.51914537
-0.051968008 -0.88345599 0.59826267
-0.053652734 -0.96574932 0.68249893
0 0.92318749 0.7151196
0 0.87830961 0.74458015
0 0.83245122 0.77469945
0 0.78557152 0.80547452
0 0.73764354 0.83695281
0 0.68862468 0.86913228
0 0.63848144 0.90205026
0 0.58717394 0.93573213
0 0.53466421 0.97021902
0 0.48090374 1.0055113
0 0.42585054 1.0416527
0 0.36945906 1.0786886
0 0.30597949 1.0596575
0 0.12829728 -0.39642233
0 0.093438983 -0.44282162
0 0.063487411 -0.41295153
0 0.032364547 -0.38190913
0 7.4505806e-08 -0.34963247
0 -0.033681884 -0.31604224
0 -0.068763271 -0.28105623
0 -0.10533337 -0.24458084
0 -0.14348873 -0.20652921
0 -0.18333462 -0.16679145
0 -0.22498685 -0.12524745
0 -0.26856968 -0.081782915
0 -0.31422216 -0.036249042
0 -0.36209351 0.011492431
0 -0.41235018 0.061612934
0 -0.4651767 0.11430191
0 -0.52077228 0.16974694
0 -0.57936203 0.22817804
0 -0.64119697 0.28985161
0 -0.70654947 0.35502732
0 -0.77573395 0.42403093
0 -0.84909159 0.49719033
0 -0.92701435 0.57490253
0.055455476 0.99819863 0.77263594
0.054620523 0.92854887 0.73088843
0.055216882 0.88347006 0.76070625
0.055826157 0.83739221 0.79117012
0.05644903 0.79028648 0.82231373
0.057086214 0.74212086 0.85417306
0.057737689 0.69285226 0.88674664
0.058404204 0.64244616 0.92007208
0.059086282 0.59086275 0.95417637
0.059784763 0.53806287 0.98910058
0.060499668 0.48399732 1.0248457
0.061231881 0.42862311 1.0614561
0.061982334 0.37189397 1.098979
0.060778301 0.3038916 1.0387775
0.031862095 0.12744842 -0.40703285
0.030922713 0.092768177 -0.45400196
0.030977974 0.061955959 -0.45123917
0.03156887 0.031568825 -0.42169422
0.032182749 -4.4703484e-08 -0.39100021
0.032820977 -0.032820925 -0.35908884
0.033485122 -0.066970296 -0.32588172
0.034176603 -0.10252984 -0.29130757
0.034897249 -0.13958901 -0.25527525
0.035649039 -0.17824517 -0.21768567
0.036433827 -0.21860307 -0.17844625
0.037254062 -0.26077834 -0.13743469
0.038111959 -0.30489567 -0.094539814
0.039010301 -0.3510927 -0.049622655
0.039952144 -0.39952147 -0.002530694
0.040940452 -0.45034492 0.046884909
0.041978903 -0.50374687 0.09880732
0.043071546 -0.55993009 0.15343958
0.044222437 -0.61911404 0.21098411
0.045436684 -0.68155026 0.27169645
0.046719324 -0.74750906 0.33582842
0.048076484 -0.81730014 0.40368637
0.049515039 -0.89127082 0.47561443
0.05104214 -0.96980053 0.55196923
0.10964736 0.98682618 0.74104601
0.10987917 0.9339729 0.74684155
0.11108594 0.88868755 0.77701086
0.11231901 0.84239256 0.80783749
0.11357976 0.79505831 0.83935642
0.11486966 0.74665266 0.87160361
0.11618865 0.69713187 0.90457869
0.1175383 0.64646065 0.93831968
0.11891966 0.59459835 0.97285378
0.12033445 0.54150492 1.0082234
0.12178273 0.48713079 1.0444304
0.12326628 0.43143192 1.0815192
0.12461308 0.37383911 1.1151891
0.12073274 0.30183166 1.0181806
0.063305192 0.12661043 -0.41750783
0.061450694 0.092176035 -0.46387047
0.060496442 0.060496435 -0.48772663
0.061622709 0.030811369 -0.45956999
0.062791705 2.9802322e-08 -0.43034491
0.064006083 -0.03200306 -0.39998573
0.065268181 -0.065268129 -0.36843312
0.066581056 -0.099871591 -0.33561125
0.067948014 -0.13589603 -0.30143738
0.069372088 -0.1734302 -0.26583552
0.070857331 -0.21257201 -0.22870439
0.07240735 -0.25342572 -0.18995383
0.074026711 -0.29610687 -0.14947003
0.075720385 -0.34074181 -0.10712817
0.077493131 -0.3874656 -0.062809423
0.079350874 -0.4364298 -0.016365781
0.081300139 -0.48780078 0.032365784
0.083347313 -0.54175752 0.083545044
0.085500531 -0.59850383 0.13737556
0.087767653 -0.65825737 0.19405356
0.090158276 -0.72126603 0.25381905
0.092683114 -0.78780645 0.31694016
0.095353089 -0.85817778 0.38368937
0.098181829 -0.93272734 0.4544079
0.10118314 -1.0118313 0.52944064
0.16399591 0.98397541 0.7331273
0.16578721 0.93946064 0.76298225
0.1676188 0.89396679 0.79350901
0.16949058 0.84745294 0.82470524
0.17140462 0.79988825 0.85660595
0.17336318 0.75124043 0.88924855
0.17536619 0.70146489 0.92263234
0.17741606 0.65052557 0.95679647
0.17951439 0.59838128 0.99176878
0.18166384 0.54499149 1.0275928
0.18386447 0.4903053 1.0642703
0.18611909 0.4342778 1.1018469
0.1856211 0.37124225 1.0935471
0.17988078 0.2998015 0.99787545
0.17448406 0.23264539 0.9079299
0.091591671 0.091591686 -0.47360992
0.089000948 0.059334025 -0.51678854
0.090268023 0.030089349 -0.49567062
0.091939785 -0 -0.46780801
0.093674406 -0.031224787 -0.43889767
0.095475741 -0.063650459 -0.40887529
0.09734796 -0.097348019 -0.37767178
0.099294811 -0.13239309 -0.34522414
0.1013214 -0.16886902 -0.3114478
0.10343214 -0.20686433 -0.27626869
0.1056327 -0.24647628 -0.23959269
0.10792924 -0.28781134 -0.20131701
0.11032754 -0.33098257 -0.1613453
0.11283485 -0.37611616 -0.11955695
0.11545911 -0.42335004 -0.07581915
0.11820799 -0.4728319 -0.030004531
0.12109134 -0.52472913 0.018051252
0.12411845 -0.57921946 0.068503216
0.1273008 -0.63650393 0.1215422
0.13065107 -0.69680566 0.17738014
0.13418199 -0.76036459 0.23622863
0.13790955 -0.82745731 0.2983548
0.14184961 -0.89838094 0.36402243
0.14602141 -0.97347611 0.43355259
0.15044664 -1.0531266 0.50730634
0.21993956 0.98972803 0.74910688
0.22235613 0.94501364 0.7793138
0.22482738 0.8993094 0.81020439
0.22735316 0.85257417 0.84177649
0.22993632 0.80477715 0.87406629
0.23257995 0.75588471 0.90711135
0.23528396 0.70585191 0.94091183
0.23805158 0.65464187 0.9755072
0.24088627 0.60221553 1.0109406
0.24378806 0.54852319 1.0472133
0.24676065 0.4935213 1.0843703
0.2498066 0.43716145 1.1224449
0.24578732 0.36868101 1.0722039
0.12880632 0.16100785 -0.39005876
0.12496826 0.12496828 -0.43803453
0.12135259 0.091014519 -0.48323029
0.11794108 0.058970526 -0.52587402
0.11760185 0.029400408 -0.53011465
0.11972878 5.9604645e-08 -0.503528
0.12193406 -0.030483589 -0.47596192
0.12422241 -0.062111259 -0.44735754
0.12659799 -0.0949485 -0.41766292
0.12906651 -0.12906656 -0.38680619
0.13163288 -0.16454111 -0.35472679
0.13430338 -0.20145501 -0.32134545
0.13708486 -0.23989846 -0.28657699
0.13998359 -0.27996716 -0.25034297
0.14300755 -0.32176706 -0.2125434
0.14616548 -0.36541367 -0.17306936
0.14946558 -0.41103029 -0.13181804
0.15291859 -0.45875591 -0.088655293
0.15653445 -0.50873691 -0.043457046
0.16032545 -0.56113911 0.0039304793
0.16430517 -0.61614436 0.053676814
0.16848692 -0.67394775 0.10594875
0.17288768 -0.73477256 0.16095832
0.17752388 -0.79885757 0.21891075
0.18241557 -0.86647391 0.28005704
0.18758519 -0.93792593 0.34467724
0.19305564 -1.0135421 0.41305774
0.27918398 1.060899 0.79170197
0.2765412 0.99554813 0.76527399
0.27959895 0.95063633 0.79585159
0.28272381 0.90471619 0.82710046
0.28591934 0.85775799 0.8590557
0.28918791 0.80972624 0.89174139
0.29253346 0.76058692 0.92519671
0.2959559 0.71029419 0.95942134
0.29945937 0.65881068 0.99445617
0.30304825 0.60609657 1.0303448
0.3067227 0.5521009 1.0670894
0.17605205 0.2816833 -0.23961717
0.17033195 0.23846471 -0.29681811
0.16497232 0.19796672 -0.35041466
0.15993966 0.15993966 -0.4007411
0.15520498 0.1241639 -0.44808802
0.15074255 0.090445518 -0.49271223
0.14652921 0.058611751 -0.53484547
0.14371176 0.028742373 -0.56302011
0.14625171 -0 -0.53762066
0.1488834 -0.029776767 -0.51130378
0.15161118 -0.060644448 -0.48402601
0.15444115 -0.092664763 -0.45572624
0.15737839 -0.12590267 -0.42635381
0.16042951 -0.16042952 -0.39584264
0.16360171 -0.19632202 -0.36412054
0.16690144 -0.23366202 -0.33112323
0.17033702 -0.2725392 -0.2967675
0.17391749 -0.3130514 -0.26096275
0.17765123 -0.35530239 -0.22362548
0.1815493 -0.39940846 -0.18464473
0.18562174 -0.44549221 -0.1439203
0.18988107 -0.49369079 -0.1013269
0.19434108 -0.544155 -0.056726992
0.19901499 -0.59704494 -0.0099878013
0.20391993 -0.65254378 0.039061606
0.20907205 -0.71084499 0.090582877
0.21449128 -0.77216852 0.14477509
0.22019967 -0.83675885 0.20185903
0.2262194 -0.90487754 0.26205635
0.23257753 -0.97682548 0.32563749
0.23930429 -1.0529389 0.39290532
0.3311823 1.048744 0.75971484
0.33381245 1.0014374 0.78163278
0.33752555 0.95632231 0.81257504
0.34132066 0.91018838 0.84420109
0.34520206 0.8630051 0.87654614
0.34917438 0.8147403 0.90964872
0.35323754 0.76534796 0.94350827
0.35739636 0.71479267 0.97816515
0.23303679 0.42723417 -0.058164418
0.22471271 0.37452114 -0.1275318
0.21696341 0.32544509 -0.19210927
0.20973077 0.27964109 -0.25238124
0.20296425 0.23679161 -0.30876905
0.19662119 0.19662115 -0.36162782
0.19066261 0.15888554 -0.41128275
0.18505454 0.12336965 -0.45801669
0.18045074 0.090225369 -0.49638152
0.18044989 0.060149953 -0.49638864
0.18044902 0.03007476 -0.49639583
0.18044861 -2.9802322e-08 -0.4963994
0.18044774 -0.030074701 -0.49640656
0.1804473 -0.060149089 -0.49641013
0.18097591 -0.090487972 -0.49200511
0.18433546 -0.12289029 -0.46400899
0.18782254 -0.15651877 -0.43494982
0.19144362 -0.19144371 -0.40477425
0.19520707 -0.22774154 -0.37341207
0.19912198 -0.26549602 -0.34078789
0.20319659 -0.30479488 -0.30683288
0.207442 -0.34573674 -0.27145442
0.211868 -0.38842469 -0.23457111
0.21648699 -0.43297398 -0.19607946
0.22131251 -0.47951043 -0.15586676
0.2263574 -0.52816725 -0.11382613
0.23163763 -0.57909405 -0.069824159
0.23717085 -0.63245559 -0.023714125
0.24297407 -0.68842655 0.024646163
0.24906929 -0.74720776 0.075439394
0.25547725 -0.80901122 0.12883937
0.26222369 -0.87407899 0.18505958
0.26933706 -0.9426797 0.24433765
0.27684608 -1.0151021 0.30691293
0.28478691 -1.0916833 0.37308651
0.38747904 1.0517288 0.76756978
0.39176533 1.0073966 0.79818606
0.39614928 0.96207684 0.82950008
0.40063065 0.9157272 0.86150974
0.3161771 0.6775223 0.25827003
0.30311793 0.6062358 0.16499035
0.2910957 0.54060626 0.079117149
0.27999073 0.4799841 -0.00020393729
0.26970273 0.42381859 -0.073689505
0.26014403 0.37163424 -0.14196628
0.25123963 0.32302237 -0.20556891
0.24292466 0.27762812 -0.26496163
0.23965216 0.23965211 -0.28833658
0.23965085 0.205415 -0.28834587
0.2396502 0.17117867 -0.28835052
0.23964891 0.13694215 -0.28835991
0.23964824 0.10270638 -0.28836453
0.23964696 0.06847053 -0.28837383
0.23964565 0.03423512 -0.28838319
0.23964499 1.4901161e-08 -0.28838781
0.23964368 -0.034234747 -0.2883971
0.23964304 -0.068469338 -0.28840166
0.23964176 -0.10270358 -0.28841093
0.23964043 -0.13693741 -0.28842026
0.23963979 -0.17117132 -0.28842494
0.23963848 -0.20540437 -0.28843427
0.23963784 -0.23963778 -0.28843895
0.23963654 -0.27387032 -0.28844824
0.23963587 -0.30810323 -0.28845283
0.23963459 -0.3423351 -0.2884621
0.24056378 -0.37802884 -0.28182495
0.24566571 -0.42114124 -0.24538252
0.25098804 -0.46612069 -0.20736602
0.25654608 -0.5130921 -0.16766571
0.26235664 -0.5621928 -0.12616193
0.26843566 -0.61356723 -0.082740039
0.27480397 -0.66738105 -0.037252277
0.28148088 -0.72380793 0.010439873
0.2884903 -0.78304505 0.060507149
0.29585874 -0.84531063 0.11313903
0.30361241 -0.91083723 0.16852233
0.31178451 -0.9798941 0.22689438
0.32040754 -1.0527678 0.28848764
0.32952112 -1.1297866 0.35358447
0.44545493 1.0579554 0.78395557
0.41055524 0.92374933 0.56583261
0.39139637 0.83171713 0.44608957
0.37394729 0.74789453 0.33703279
0.35798761 0.67122674 0.23728476
0.34333563 0.60083735 0.14570995
0.32983586 0.5359832 0.061336398
0.31786683 0.47680026 -0.013470098
0.31786481 0.43706411 -0.013482615
0.31786382 0.39732975 -0.013488919
0.3178618 0.35759449 -0.013501391
0.3178598 0.31785983 -0.013514057
0.31785882 0.27812651 -0.013520181
0.31785679 0.23839258 -0.013532713
0.31785581 0.19865987 -0.013539053
0.31785378 0.15892695 -0.013551503
0.3178528 0.11919483 -0.013557713
0.31785077 0.079462685 -0.013570357
0.31784877 0.039731115 -0.013582871
0.31784779 1.7695129e-08 -0.013589181
0.31784576 -0.039730713 -0.013601633
0.31784478 -0.079461209 -0.013607983
0.31784278 -0.1191911 -0.013620377
0.31784075 -0.1589203 -0.013632879
0.31783977 -0.19864979 -0.01363916
0.31783777 -0.23837832 -0.013651617
0.31783676 -0.27810711 -0.013658002
0.31783473 -0.31783479 -0.013670579
0.31783375 -0.35756284 -0.013676837
0.31783175 -0.39728969 -0.013689339
0.31782973 -0.43701586 -0.013701782
0.31782874 -0.47674304 -0.013708144
0.31782675 -0.51646847 -0.013720617
0.31782573 -0.55619502 -0.01372695
0.31782371 -0.59591949 -0.013739437
0.31782275 -0.63564539 -0.013745606
0.31782073 -0.67536914 -0.013758153
0.3178187 -0.71509218 -0.013770789
0.31945106 -0.75869608 -0.0035686493
0.32734922 -0.81837296 0.045794964
0.33564895 -0.88107872 0.09766838
0.34437937 -0.94704318 0.15223324
0.35357603 -1.0165312 0.20971254
0.36327869 -1.0898362 0.27035406
0.50601733 1.1244829 0.81106949
0.48026371 1.01389 0.66799378
0.45700458 0.91400909 0.53877652
0.43589592 0.82335889 0.42150617
0.42600113 0.75733531 0.36653519
0.42599952 0.70999932 0.36652637
0.42599633 0.66266096 0.36650854
0.42599314 0.61532336 0.36649072
0.42599154 0.56798875 0.3664819
0.42598835 0.52065241 0.3664642
0.42598674 0.47331864 0.36645538
0.42598352 0.42598346 0.36643735
0.42598033 0.37864923 0.3664197
0.42597872 0.3313168 0.36641064
0.42597553 0.28398365 0.36639291
0.42597392 0.23665217 0.36638412
0.42597073 0.18932034 0.36636633
0.42596912 0.14198956 0.36635739
0.42596593 0.09465909 0.36633968
0.42596272 0.047329217 0.36632192
0.42596114 -1.0430813e-07 0.36631304
0.42595795 -0.047328636 0.36629522
0.42595634 -0.094656959 0.3662864
0.42595312 -0.14198437 0.36626858
0.42594993 -0.18931115 0.36625081
0.42594835 -0.23663792 0.36624193
0.42594516 -0.28396341 0.36622417
0.42594352 -0.33128944 0.36621523
0.42594033 -0.37861365 0.3661975
0.42593876 -0.4259387 0.36618868
0.42593557 -0.47326165 0.36617076
0.42593235 -0.52058387 0.36615309
0.42593074 -0.56790757 0.36614415
0.42592755 -0.61522871 0.36612648
0.42592597 -0.66255164 0.3661176
0.42592275 -0.70987123 0.36609972
0.42592114 -0.75719315 0.3660908
0.42591795 -0.80451167 0.3660731
0.42591634 -0.85183263 0.36606419
0.42591476 -0.89915323 0.36605531
0.42591313 -0.9464736 0.36604649
0.42591313 -0.9937973 0.36604646
0.42591155 -1.0411171 0.36603755
0.42591155 -1.0884407 0.36603761
0.58529788 1.0535361 0.92635143
0.58529788 0.99500632 0.92635149
0.58529514 0.93647218 0.9263379
0.5852924 0.87793869 0.92632443
0.5852924 0.81940943 0.92632431
0.58528972 0.76087666 0.92631078
0.58528972 0.70234764 0.92631084
0.58528697 0.64381576 0.92629719
0.58528429 0.58528423 0.9262836
0.58528429 0.52675587 0.9262836
0.58528155 0.46822512 0.92626989
0.58527887 0.40969512 0.92625624
0.58527887 0.35116732 0.92625642
0.58527613 0.29263794 0.92624283
0.58527613 0.23411041 0.92624277
0.58527339 0.17558208 0.92622924
0.58527064 0.11705419 0.92621565
0.58527064 0.058526993 0.92621565
0.5852679 1.1920929e-07 0.92620206
0.5852679 -0.058526754 0.92620206
0.58526522 -0.11705312 0.92618847
0.58526248 -0.17557883 0.92617488
0.58526248 -0.23410502 0.92617488
0.5852598 -0.2926299 0.92616117
0.58525705 -0.3511543 0.92614758
0.58525705 -0.40967983 0.9261477
0.58525437 -0.46820349 0.92613387
0.58525437 -0.52672899 0.92613411
0.58525163 -0.58525151 0.92612046
0.58524889 -0.64377379 0.92610687
