# .PCD v0.7 - Point Cloud Data file format
VERSION 0.7
FIELDS x y z
SIZE 4 4 4
TYPE F F F
COUNT 1 1 1
WIDTH 947
HEIGHT 1
VIEWPOINT 0 0 0 1 0 0 0
POINTS 947
DATA ascii
-1.1940132 0.51172 0.84275103
-1.1055292 0.4974882 0.76368523
-1.0546508 0.42186028 0.63648915
-1.072109 0.56426787 0.82120156
-1.0729737 0.50825065 0.82347721
-0.97602254 0.41095701 0.5683428
-0.93414283 0.34415799 0.45813295
-1.0043014 0.55794525 0.78958827
-1.0177144 0.50885737 0.82684696
-1.0314859 0.45843816 0.8651008
-0.86361414 0.33584994 0.39879054
-0.82890558 0.2763018 0.30237776
-0.95201355 0.61600876 0.79990202
-0.94962519 0.55860287 0.79287744
-0.96231884 0.50946295 0.83021176
-0.97536087 0.45899329 0.86857069
-0.98876125 0.40713689 0.90798342
-0.76512748 0.27004507 0.2502372
-0.73620933 0.21653217 0.16518372
-0.87647003 0.20622824 0.57771546
-0.88315284 0.60716742 0.75971472
-0.89481992 0.55926234 0.79617441
-0.90679526 0.51007229 0.83359742
-0.91909963 0.4595499 0.87204874
-0.93174261 0.4076373 0.91155779
-0.94473386 0.35427511 0.95215553
-0.67812699 0.21191467 0.11900923
-0.65393835 0.16348466 0.043419559
-0.64872718 0.12163632 0.027134776
-0.83371776 0.66697419 0.77892166
-0.8289215 0.60787565 0.76293373
-0.8398813 0.55992085 0.79946661
-0.85113865 0.51068318 0.83699113
-0.86270189 0.46010765 0.87553519
-0.87457967 0.40813717 0.91512764
-0.88679314 0.35471728 0.95583934
-0.89935261 0.29978421 0.99770427
-0.6007123 0.1601899 0.0022364557
-0.58042759 0.11608553 -0.065379113
-0.5614664 0.074862212 -0.12858298
-0.76457131 0.65534699 0.73047423
-0.77456003 0.60858291 0.76614827
-0.78481668 0.56058329 0.80277902
-0.79534864 0.51129556 0.84039301
-0.80616337 0.46066475 0.87901717
-0.81728011 0.40864012 0.91871971
-0.82870764 0.35516039 0.95953244
-0.84045535 0.30016264 1.0014884
-0.85254496 0.24358433 1.0446658
-0.53138363 0.11386795 -0.10233912
-0.51434857 0.073478281 -0.16317862
-0.49836898 0.035597794 -0.22024837
-0.71718156 0.71718162 0.75825304
-0.71077532 0.65610033 0.73361343
-0.72007519 0.60929435 0.76938212
-0.72962159 0.56124747 0.80609936
-0.73942125 0.51190704 0.84379023
-0.74949121 0.46122539 0.88252074
-0.75983912 0.40914419 0.92232049
-0.77047318 0.3556031 0.96322089
-0.7814129 0.30054349 1.0052965
-0.79266775 0.24389774 1.0485842
-0.80424756 0.18559551 1.0931218
-0.46893835 0.072144397 -0.1965287
-0.45462725 0.03497126 -0.25157133
-0.44116381 -8.9406967e-08 -0.30335394
-0.68895918 -0.052996874 0.64970541
-0.6484763 0.7025159 0.70184678
-0.65685827 0.65685838 0.73677188
-0.66546279 0.61000746 0.77262372
-0.67429566 0.56191295 0.80942744
-0.68336308 0.5125224 0.8472085
-0.6926809 0.46178722 0.8860327
-0.70225632 0.40964955 0.92593026
-0.71209681 0.35604843 0.96693248
-0.72222048 0.30092523 1.0091143
-0.73263258 0.24421084 1.0524981
-0.74335301 0.18583825 1.0971661
-0.75439179 0.125732 1.1431611
-0.4123973 0.034366466 -0.28181565
-0.4003906 -2.9802322e-08 -0.33184355
-0.38906229 -0.032421798 -0.37904495
-0.49716747 -0.082861282 0.071393333
-0.60236603 0.76664764 0.73788971
-0.5951128 0.70331514 0.70492053
-0.60281652 0.65761799 0.73993748
-0.61072236 0.61072236 0.77587295
-0.61883551 0.56257772 0.81275094
-0.62717003 0.51313907 0.85063505
-0.635732 0.46235064 0.88955331
-0.64452809 0.41015422 0.92953527
-0.65357399 0.35649493 0.97065324
-0.66287744 0.30130789 1.0129416
-0.67244637 0.244526 1.0564368
-0.68229896 0.1860815 1.1012212
-0.6924445 0.12589896 1.1473374
-0.69646245 0.063314855 1.1656009
-0.36096308 4.4703484e-08 -0.35939652
-0.35091424 -0.031901285 -0.40507305
-0.34141058 -0.062074557 -0.44827139
-0.37409323 -0.10202543 -0.29971382
-0.53478795 0.74870312 0.67380208
-0.54163015 0.70411915 0.70801282
-0.54864967 0.65837955 0.74311048
-0.55585104 0.61143625 0.77911764
-0.56324655 0.56324661 0.81609499
-0.57084149 0.51375729 0.85406971
-0.57864141 0.46291304 0.89306921
-0.58666009 0.41066206 0.93316281
-0.59490424 0.35694256 0.97438335
-0.6033805 0.30169028 1.0167646
-0.61210465 0.24484175 1.0603855
-0.62108493 0.18632543 1.1052867
-0.63033253 0.12606642 1.1515247
-0.62255448 0.062255561 1.1126347
-0.60502577 5.9604645e-08 1.024991
-0.31397185 -0.031397223 -0.43027854
-0.30559948 -0.061119869 -0.47214043
-0.2976613 -0.089298427 -0.5118311
-0.29012579 -0.11605023 -0.54950881
-0.48923326 0.81538868 0.7178247
-0.48185301 0.74954927 0.67682362
-0.48802504 0.704925 0.71111238
-0.49435499 0.65913999 0.74627882
-0.50085354 0.61215442 0.78238189
-0.50752527 0.56391692 0.81944686
-0.51437473 0.51437473 0.8574996
-0.52141404 0.46347922 0.89660698
-0.52864873 0.41117123 0.93679953
-0.53608435 0.35738948 0.97810876
-0.54373485 0.30207494 1.0206115
-0.55160689 0.24515858 1.0643446
-0.55971009 0.18657008 1.109363
-0.56724536 0.12605447 1.1512254
-0.55108154 0.061231047 1.0614264
-0.53581345 -1.1920929e-07 0.97660351
-0.5213685 -0.057929754 0.89635408
-0.27087262 -0.060194016 -0.49528974
-0.26393977 -0.087979987 -0.53380561
-0.25735354 -0.1143793 -0.57039589
-0.25659728 -0.14255401 -0.57459736
-0.49067667 -0.32711777 0.72584367
-0.42343718 0.79394448 0.64634448
-0.42879838 0.75039721 0.67985201
-0.43429706 0.70573264 0.71421885
-0.4399367 0.65990496 0.74946648
-0.44572669 0.61287427 0.78565425
-0.45167112 0.56458884 0.82280684
-0.45777422 0.51499587 0.86095095
-0.46404657 0.46404666 0.9001534
-0.47049326 0.41168159 0.94044501
-0.4771193 0.35783935 0.98185772
-0.48393697 0.30246067 1.0244684
-0.49095231 0.2454761 1.068314
-0.49817398 0.18681526 1.1134498
-0.49582207 0.12395558 1.0987504
-0.48192218 0.060240239 1.0118761
-0.25012067 -0 -0.43688345
-0.24347708 -0.030434638 -0.47840589
-0.23717731 -0.059294373 -0.51777953
-0.2334317 -0.087536842 -0.54118955
-0.2334317 -0.11671574 -0.54118961
-0.2334317 -0.14589475 -0.54118955
-0.2334317 -0.17507368 -0.54118967
-0.33879918 -0.29644924 0.11735713
-0.37092188 0.79483247 0.64930421
-0.37562349 0.75124711 0.68288738
-0.3804442 0.70653909 0.71732068
-0.38539192 0.66067183 0.75266176
-0.39047006 0.61359578 0.78893399
-0.39568198 0.56525993 0.82616216
-0.40103677 0.51561874 0.86441052
-0.40653849 0.46461537 0.90370858
-0.4121913 0.41219133 0.94408596
-0.41800556 0.35829043 0.98561609
-0.4239862 0.3028473 1.0283349
-0.43014041 0.2457945 1.0722935
-0.4364759 0.18706113 1.1175474
-0.42673641 0.12192476 1.0479796
-0.22140747 0.031629682 -0.41865581
-0.21545984 -8.9406967e-08 -0.46113896
-0.20982386 -0.029974908 -0.50139582
-0.20915429 -0.059758246 -0.50617844
-0.20915429 -0.089637503 -0.5061785
-0.20915429 -0.11951676 -0.50617856
-0.2091538 -0.1493956 -0.50618196
-0.2091538 -0.17927468 -0.50618196
-0.2091538 -0.20915379 -0.50618201
-0.24234074 -0.27696082 -0.26913232
-0.31520563 0.84054828 0.62657559
-0.31828904 0.7957226 0.65227091
-0.32232669 0.75209558 0.68591797
-0.32646954 0.70735067 0.72044176
-0.33072025 0.66144055 0.7558645
-0.33508161 0.61431623 0.79220921
-0.3395611 0.56593502 0.82953793
-0.34416196 0.5162428 0.86787856
-0.34888762 0.46518341 0.90725887
-0.3537465 0.4127042 0.94774973
-0.35874262 0.35874265 0.98938417
-0.36388192 0.30323499 1.0322115
-0.36917058 0.24611384 1.0762837
-0.19753082 0.098765433 -0.3540476
-0.19201678 0.064005628 -0.39999798
-0.18679945 0.031133324 -0.44347554
-0.18368304 -4.4703484e-08 -0.46944571
-0.18368304 -0.03061384 -0.46944574
-0.18368304 -0.061227679 -0.46944571
-0.18368259 -0.09184134 -0.46944946
-0.18368259 -0.12245511 -0.46944946
-0.18368259 -0.15306877 -0.4694494
-0.18368259 -0.18368253 -0.46944943
-0.18368214 -0.21429592 -0.4694531
-0.18368214 -0.2449095 -0.4694531
-0.18368214 -0.27552322 -0.46945304
-0.26224828 0.8391946 0.62234527
-0.26553816 0.79661453 0.65524387
-0.2689105 0.7529493 0.68896711
-0.27237073 0.70816404 0.72356981
-0.27591997 0.66220802 0.75906235
-0.2795642 0.61504126 0.79550451
-0.283306 0.56661201 0.83292216
-0.28714797 0.51686627 0.871342
-0.29109693 0.46575505 0.91083169
-0.29515603 0.41321838 0.95142245
-0.29932994 0.35919595 0.99316168
-0.30362359 0.30362359 1.0360981
-0.16663398 0.13330722 -0.3337979
-0.16192432 0.097154543 -0.38089454
-0.15747397 0.062989593 -0.42539811
-0.15692766 0.031385541 -0.430861
-0.15692766 -0 -0.430861
-0.15692727 -0.031385496 -0.43086493
-0.15692727 -0.062770933 -0.43086484
-0.15692727 -0.094156355 -0.43086493
-0.15692727 -0.12554182 -0.43086496
-0.1569269 -0.15692696 -0.43086889
-0.1569269 -0.18831232 -0.43086886
-0.1569269 -0.21969759 -0.43086892
-0.1569269 -0.25108305 -0.4308688
-0.1569269 -0.28246841 -0.43086874
-0.1569269 -0.31385368 -0.4308688
-0.28046009 -0.61701214 0.80446315
-0.20866019 0.88680559 0.60811442
-0.21003114 0.84012449 0.62525141
-0.21266802 0.79750502 0.65821242
-0.21537286 0.75380504 0.69202298
-0.2181474 0.70897913 0.72670484
-0.2209934 0.66298008 0.76227957
-0.22391562 0.6157679 0.79880744
-0.22691616 0.56729043 0.83631432
-0.22999716 0.51749372 0.87482691
-0.23316406 0.46632802 0.91441298
-0.23641939 0.41373396 0.95510465
-0.2397669 0.35965022 0.99694848
-0.13496535 0.16870672 -0.31307083
-0.13110466 0.13110471 -0.36132944
-0.12878855 0.096591383 -0.39028087
-0.12878855 0.064394265 -0.39028078
-0.12878823 0.032197043 -0.39028484
-0.12878823 -7.4505806e-08 -0.3902849
-0.12878823 -0.032196999 -0.39028496
-0.12878823 -0.064394027 -0.39028496
-0.12878823 -0.09659113 -0.39028484
-0.12878789 -0.12878786 -0.39028901
-0.12878789 -0.16098489 -0.39028901
-0.12878789 -0.1931818 -0.39028907
-0.12878789 -0.22537883 -0.39028907
-0.12878756 -0.25757521 -0.39029321
-0.12878756 -0.28977197 -0.39029324
-0.12878756 -0.32196891 -0.39029315
-0.12878756 -0.35416582 -0.39029318
-0.17316027 -0.51948082 0.1643656
-0.155764 0.88266271 0.59592891
-0.15769747 0.84105325 0.62815332
-0.1596802 0.798401 0.66119903
-0.16171342 0.75466263 0.69508606
-0.16379839 0.70979297 0.72983527
-0.16593856 0.66375411 0.76550478
-0.16813536 0.61649626 0.80211836
-0.17039114 0.56797045 0.83971453
-0.17270747 0.51812243 0.87832022
-0.17508845 0.46690267 0.91800332
-0.10564776 0.24651144 -0.23934175
-0.10249896 0.20499793 -0.29182181
-0.099531375 0.16588563 -0.3412815
-0.099155493 0.13220736 -0.34754622
-0.09915524 0.099155292 -0.34755051
-0.09915524 0.066103593 -0.34755051
-0.09915524 0.033051789 -0.34755048
-0.09915524 7.4505806e-08 -0.34755051
-0.09915524 -0.033051789 -0.34755057
-0.099154972 -0.066103339 -0.3475548
-0.099154972 -0.099154964 -0.34755492
-0.099154972 -0.13220668 -0.3475548
-0.099154972 -0.16525823 -0.34755483
-0.099154972 -0.19831 -0.34755477
-0.099154711 -0.23136108 -0.34755915
-0.099154711 -0.26441243 -0.34755915
-0.099154711 -0.29746404 -0.34755909
-0.099154711 -0.33051559 -0.34755912
-0.09915445 -0.36356631 -0.34756351
-0.09915445 -0.39661783 -0.34756345
-0.10573787 -0.45819739 -0.23783971
-0.10360237 0.93242127 0.58992141
-0.10395616 0.88362747 0.59876645
-0.10524841 0.84198725 0.63107264
-0.10657319 0.79929888 0.66419208
-0.10793128 0.75551891 0.69814432
-0.10932491 0.71061176 0.73298502
-0.110755 0.66452998 0.76873732
-0.112223 0.61722654 0.80543721
-0.11373043 0.56865215 0.84312302
-0.11527839 0.51875269 0.88182193
-0.07135924 0.2854369 -0.21615683
-0.069204286 0.24221501 -0.2700305
-0.067906275 0.20371887 -0.30248082
-0.067906097 0.16976514 -0.30248541
-0.067906097 0.13581213 -0.30248541
-0.067906097 0.10185925 -0.30248538
-0.067906097 0.067906104 -0.30248526
-0.067906097 0.033953071 -0.30248541
-0.06790591 2.9802322e-08 -0.30248994
-0.06790591 -0.033953026 -0.30248994
-0.06790591 -0.067905828 -0.30248994
-0.06790591 -0.10185888 -0.30248994
-0.067905731 -0.13581151 -0.30249453
-0.067905731 -0.16976431 -0.30249456
-0.067905731 -0.20371717 -0.3024945
-0.067905731 -0.23766997 -0.30249456
-0.067905731 -0.27162293 -0.30249462
-0.067905545 -0.30557489 -0.30249915
-0.067905545 -0.33952776 -0.30249912
-0.067905545 -0.37348041 -0.30249915
-0.067905545 -0.40743327 -0.30249912
-0.067905545 -0.44138604 -0.30249909
-0.067905359 -0.47533754 -0.30250365
-0.051403552 0.925264 0.57003987
-0.052035168 0.8845979 0.60162067
-0.052682724 0.84292376 0.63399845
-0.053346593 0.80019891 0.66719204
-0.054027181 0.75638044 0.70122129
-0.054725595 0.71143281 0.73614198
-0.0554423 0.66530764 0.77197731
-0.05617803 0.61795837 0.80876368
-0.037331641 0.37331635 -0.13355581
-0.036155175 0.32539654 -0.19237897
-0.03504923 0.28039381 -0.24767628
-0.034904882 0.24433419 -0.25489345
-0.034904882 0.20942928 -0.25489357
-0.034904882 0.17452444 -0.25489357
-0.034904882 0.13961959 -0.25489354
-0.034904882 0.10471466 -0.25489363
-0.034904785 0.069809549 -0.25489831
-0.034904785 0.0349048 -0.25489837
-0.034904785 -5.9604645e-08 -0.25489837
-0.034904785 -0.034904741 -0.25489834
-0.034904785 -0.069809586 -0.25489834
-0.034904692 -0.10471399 -0.25490326
-0.034904692 -0.13961877 -0.25490317
-0.034904692 -0.17452344 -0.25490317
-0.034904692 -0.20942813 -0.25490332
-0.034904595 -0.24433221 -0.25490808
-0.034904595 -0.27923673 -0.25490803
-0.034904595 -0.3141413 -0.25490808
-0.034904595 -0.34904599 -0.25490808
-0.034904595 -0.3839505 -0.25490803
-0.034904495 -0.41885391 -0.25491288
-0.034904495 -0.45375842 -0.25491288
-0.034904495 -0.4886629 -0.25491285
-0.034904495 -0.52356732 -0.25491291
0 0.9774009 0.57197011
0 0.92626506 0.57282078
0 0.88557047 0.60448128
0 0.84386188 0.63693058
0 0.80109751 0.67018735
0 0.75724411 0.70430529
0 0.7122553 0.73930621
0 0.66608703 0.77522498
0 0.41639084 -0.1074522
0 0.36643583 -0.16795883
0 0.32320455 -0.20455644
0 0.28729299 -0.20455632
0 0.25138143 -0.2045563
0 0.21546973 -0.20455641
0 0.17955814 -0.20455641
0 0.14364608 -0.2045615
0 0.10773457 -0.20456141
0 0.071823068 -0.2045615
0 0.035911478 -0.2045615
0 1.4901161e-08 -0.20456664
0 -0.0359115 -0.20456657
0 -0.071822837 -0.20456663
0 -0.10773426 -0.2045666
0 -0.14364567 -0.2045666
0 -0.17955664 -0.20457171
0 -0.21546797 -0.20457177
0 -0.25137922 -0.20457175
0 -0.28729057 -0.20457181
0 -0.32320181 -0.2045718
0 -0.35911226 -0.20457685
0 -0.39502338 -0.20457682
0 -0.43093473 -0.20457691
0 -0.46684578 -0.20457685
0 -0.50275564 -0.20458198
0 -0.53866673 -0.20458193
0 -0.57457781 -0.20458207
0 -0.75264227 0.21351632
0.050895784 0.96701992 0.54465157
0.051515125 0.9272722 0.57561851
0.052149717 0.88654518 0.60734814
0.052799921 0.8447988 0.63985825
0.053466767 0.8020016 0.67320085
0.054150678 0.75810957 0.70739621
0.039717823 0.51633173 -0.014246508
0.038389888 0.46067864 -0.080643341
0.037145358 0.4085989 -0.14286989
0.03697817 0.36978173 -0.15122926
0.03697817 0.33280346 -0.15122934
0.03697817 0.29582539 -0.15122931
0.03697817 0.25884724 -0.15122935
0.036978062 0.2218684 -0.15123475
0.036978062 0.18489029 -0.15123469
0.036978062 0.1479122 -0.15123479
0.036978062 0.11093429 -0.1512347
0.036978062 0.073956102 -0.15123472
0.03697795 0.036977906 -0.15124007
0.03697795 -7.4505806e-09 -0.15124016
0.03697795 -0.036977932 -0.15124008
0.03697795 -0.073955923 -0.15124024
0.036977842 -0.11093345 -0.15124555
0.036977842 -0.14791137 -0.15124564
0.036977842 -0.18488912 -0.15124553
0.036977842 -0.22186705 -0.15124562
0.036977842 -0.25884488 -0.15124545
0.036977734 -0.29582182 -0.15125096
0.036977734 -0.33279964 -0.15125096
0.036977734 -0.36977732 -0.15125093
0.036977734 -0.40675506 -0.151251
0.036977626 -0.44373149 -0.15125647
0.036977626 -0.48070917 -0.15125644
0.036977626 -0.51768672 -0.15125635
0.036977626 -0.55466437 -0.1512565
0.036977626 -0.59164208 -0.15125647
0.036977515 -0.62861776 -0.15126187
0.036977515 -0.66559529 -0.15126184
0.10217655 1.0217656 0.55427635
0.10190104 0.9680599 0.5473882
0.1031424 0.92828161 0.57842213
0.10441393 0.88751853 0.61021054
0.10571765 0.84574121 0.64280367
0.10705435 0.80290759 0.67622089
0.080618598 0.56433022 0.015327245
0.077881992 0.50623286 -0.053088069
0.076220006 0.45732 -0.094637752
0.076220006 0.41921005 -0.094637722
0.076220006 0.38110003 -0.094637662
0.076220006 0.34298992 -0.094637699
0.076219775 0.3048791 -0.094643533
0.076219775 0.26676908 -0.094643481
0.076219775 0.22865933 -0.094643489
0.076219775 0.1905494 -0.094643503
0.076219544 0.15243915 -0.094649218
0.076219544 0.11432932 -0.094649315
0.076219544 0.076219551 -0.094649158
0.076219544 0.038109723 -0.094649255
0.076219544 4.4703484e-08 -0.094649166
0.076219313 -0.038109623 -0.094654918
0.076219313 -0.076219283 -0.094655007
0.076219313 -0.11432887 -0.094655
0.076219313 -0.15243863 -0.094655007
0.076219313 -0.1905483 -0.094654918
0.076219082 -0.22865728 -0.094660789
0.076219082 -0.26676679 -0.094660707
0.076219082 -0.30487627 -0.094660781
0.076219082 -0.34298578 -0.094660684
0.076218851 -0.38109428 -0.094666511
0.076218851 -0.41920367 -0.094666645
0.076218851 -0.457313 -0.094666541
0.076218851 -0.4954226 -0.09466657
0.076218851 -0.5335319 -0.094666451
0.07621862 -0.57163954 -0.094672367
0.07621862 -0.60974896 -0.094672352
0.07621862 -0.64785814 -0.094672233
0.07621862 -0.68596756 -0.094672233
0.07621862 -0.72407687 -0.094672233
0.15119447 1.0079629 0.51977003
0.15301611 0.96910197 0.55013061
0.15488216 0.92929298 0.58123189
0.15679367 0.88849741 0.61308998
0.1587536 0.84668583 0.64575547
0.12275596 0.61377972 0.045794874
0.11852445 0.55311406 -0.024730235
0.11793993 0.51107293 -0.034472421
0.11793993 0.47175971 -0.034472391
0.11793993 0.43244636 -0.034472466
0.11793955 0.39313176 -0.034478515
0.11793955 0.35381863 -0.03447862
0.11793955 0.31450552 -0.034478575
0.11793955 0.27519229 -0.03447853
0.11793955 0.23587911 -0.034478575
0.11793918 0.19656529 -0.03448467
0.11793918 0.15725228 -0.034484714
0.11793918 0.11793917 -0.034484662
0.11793918 0.078626171 -0.034484699
0.11793882 0.03931294 -0.034490831
0.11793882 1.4901161e-08 -0.034490779
0.11793882 -0.039312825 -0.034490798
0.11793882 -0.078625828 -0.034490831
0.11793882 -0.11793876 -0.034490775
0.11793844 -0.15725122 -0.034496933
0.11793844 -0.19656406 -0.034496963
0.11793844 -0.23587689 -0.034496978
0.11793844 -0.27518973 -0.034496993
0.11793808 -0.31450152 -0.034503102
0.11793808 -0.35381418 -0.034503117
0.11793808 -0.39312685 -0.034503147
0.11793808 -0.43243954 -0.034503147
0.11793808 -0.47175229 -0.034503073
0.11793771 -0.51106334 -0.034509227
0.11793771 -0.550376 -0.034509242
0.11793771 -0.58968854 -0.034509242
0.11793771 -0.62900108 -0.034509152
0.11793733 -0.6683116 -0.034515411
0.11793733 -0.70762402 -0.03451547
0.11793733 -0.74693656 -0.034515291
0.11793733 -0.78624904 -0.034515291
0.20295614 1.0655198 0.53681397
0.20180731 1.0090363 0.52245331
0.20424135 0.97014636 0.5528791
0.20673484 0.93030679 0.58404779
0.1724223 0.73279476 0.15514112
0.16618302 0.6647321 0.077150047
0.16238031 0.60892612 0.029616088
0.16238031 0.56833112 0.029616177
0.16238031 0.52773601 0.029616073
0.16237979 0.48713934 0.029609501
0.16237979 0.44654447 0.029609576
0.16237979 0.40594956 0.029609531
0.16237979 0.36535454 0.029609576
0.16237926 0.32475847 0.029602975
0.16237926 0.28416374 0.029603049
0.16237926 0.24356896 0.029603042
0.16237926 0.20297402 0.029603012
0.16237926 0.16237931 0.029603094
0.16237873 0.121784 0.029596452
0.16237873 0.081189387 0.029596459
0.16237873 0.040594682 0.029596535
0.16237873 6.8917871e-08 0.029596541
0.16237873 -0.040594716 0.029596534
0.16237821 -0.081189089 0.029589875
0.16237821 -0.12178363 0.02958997
0.16237821 -0.16237815 0.029589891
0.16237821 -0.20297268 0.029589988
0.16237821 -0.24356738 0.029589906
0.1623777 -0.284161 0.029583387
0.1623777 -0.32475534 0.02958332
0.1623777 -0.36534971 0.029583439
0.1623777 -0.40594435 0.029583424
0.16237716 -0.4465372 0.029576883
0.16237716 -0.48713154 0.029576808
0.16237716 -0.52772576 0.029576957
0.16237716 -0.5683201 0.029576898
0.16237716 -0.60891426 0.029576808
0.16237664 -0.64950657 0.029570401
0.16237664 -0.69010079 0.029570341
0.16237664 -0.73069489 0.029570401
0.16237664 -0.77128899 0.029570282
0.16237612 -0.81188065 0.029563814
0.16237612 -0.85247469 0.029563785
0.18120646 -0.9966355 0.264943
0.24955082 1.0481133 0.49537033
0.25252804 1.010112 0.52514243
0.25557712 0.97119296 0.55563337
0.21901569 0.78845644 0.19001922
0.21095978 0.71726334 0.10946006
0.20981623 0.67141187 0.098024517
0.20981623 0.62944865 0.098024547
0.20981553 0.58748353 0.098017678
0.20981553 0.54552042 0.098017618
0.20981553 0.50355715 0.098017469
0.20981553 0.46159416 0.098017588
0.20981553 0.419631 0.098017558
0.20981483 0.37766659 0.098010525
0.20981483 0.33570367 0.0980106
0.20981483 0.29374081 0.0980106
0.20981483 0.2517778 0.098010585
0.20981413 0.2098141 0.098003589
0.20981413 0.16785133 0.098003678
0.20981413 0.12588848 0.098003507
0.20981413 0.083925612 0.098003678
0.20981413 0.041962855 0.098003596
0.20981343 3.7252903e-09 0.097996667
0.20981343 -0.041962758 0.097996585
0.20981343 -0.083925359 0.097996518
0.20981343 -0.12588805 0.097996697
0.20981343 -0.16785073 0.09799654
0.20981273 -0.20981275 0.097989671
0.20981273 -0.25177518 0.097989626
0.20981273 -0.29373786 0.097989641
0.20981273 -0.33570036 0.097989656
0.20981205 -0.37766171 0.097982675
0.20981205 -0.41962403 0.097982705
0.20981205 -0.46158648 0.097982645
0.20981205 -0.5035488 0.097982675
0.20981205 -0.54551125 0.097982645
0.20981134 -0.58747184 0.097975612
0.20981134 -0.62943399 0.097975671
0.20981134 -0.67139626 0.097975612
0.20981134 -0.71335852 0.097975582
0.20981134 -0.75532079 0.097975731
0.20981064 -0.79728043 0.097968698
0.20981064 -0.83924246 0.097968668
0.20981064 -0.88120472 0.097968698
0.20981064 -0.92316687 0.097968727
0.20980994 -0.96512574 0.097961724
0.30236718 1.1086795 0.51958871
0.29977676 1.0492187 0.49800208
0.27791241 0.92637473 0.31579918
0.26714191 0.84594935 0.22604471
0.26056111 0.78168339 0.17120504
0.26056111 0.73825657 0.17120498
0.26056021 0.69482732 0.17119756
0.26056021 0.65140057 0.17119743
0.26056021 0.60797387 0.17119755
0.26056021 0.56454712 0.17119743
0.26056021 0.52112055 0.17119747
0.26055932 0.4776921 0.17118998
0.26055932 0.43426555 0.17118995
0.26055932 0.39083904 0.17118996
0.26055932 0.34741247 0.17119001
0.26055932 0.30398583 0.17119008
0.26055843 0.26055843 0.17118248
0.26055843 0.21713199 0.17118254
0.26055843 0.17370564 0.17118254
0.26055843 0.13027912 0.17118253
0.26055753 0.086852483 0.17117506
0.26055753 0.043426219 0.17117497
0.26055753 -5.9604645e-08 0.17117506
0.26055753 -0.043426238 0.17117509
0.26055753 -0.086852506 0.171175
0.26055664 -0.1302783 0.1711676
0.26055664 -0.1737044 0.17116752
0.26055664 -0.2171305 0.17116763
0.26055664 -0.26055658 0.17116757
0.26055574 -0.30398172 0.17116003
0.26055574 -0.34740773 0.17116006
0.26055574 -0.39083359 0.17116009
0.26055574 -0.4342595 0.17116004
0.26055574 -0.47768551 0.17116006
0.26055485 -0.52110976 0.17115271
0.26055485 -0.5645355 0.17115267
0.26055485 -0.60796124 0.17115262
0.26055485 -0.6513871 0.17115264
0.26055396 -0.69481045 0.17114517
0.26055396 -0.73823619 0.17114511
0.26055396 -0.78166169 0.17114502
0.26055396 -0.82508743 0.17114514
0.26055396 -0.86851299 0.17114511
0.26055306 -0.91193581 0.17113775
0.26055306 -0.95536113 0.17113766
0.26055306 -0.99878669 0.17113769
0.26055306 -1.0422122 0.17113769
0.34602073 1.0874937 0.47143883
0.32987598 0.98962808 0.35611939
0.31686869 0.90533924 0.26321021
0.31497374 0.85492867 0.24967468
0.31497374 0.80993259 0.2496748
0.31497261 0.76493347 0.24966663
0.31497261 0.71993744 0.24966675
0.31497261 0.6749413 0.24966662
0.31497261 0.62994528 0.24966677
0.31497148 0.58494705 0.24965872
0.31497148 0.53995121 0.24965867
0.31497148 0.49495518 0.24965879
0.31497148 0.44995922 0.24965857
0.31497148 0.40496343 0.24965861
0.31497037 0.3599661 0.24965063
0.31497037 0.31497043 0.2496506
0.31497037 0.26997465 0.24965064
0.31497037 0.22497883 0.24965063
0.31496924 0.17998239 0.2496426
0.31496924 0.13498673 0.24964257
0.31496924 0.089991219 0.24964257
0.31496924 0.044995643 0.24964263
0.31496924 -2.9802322e-08 0.24964261
0.31496814 -0.044995442 0.24963449
0.31496814 -0.089990862 0.24963458
0.31496814 -0.13498628 0.24963447
0.31496814 -0.17998178 0.24963447
0.31496698 -0.22497645 0.2496265
0.31496698 -0.26997161 0.24962652
0.31496698 -0.31496695 0.2496265
0.31496698 -0.35996234 0.24962643
0.31496698 -0.40495759 0.24962652
0.31496587 -0.44995123 0.24961844
0.31496587 -0.49494642 0.24961846
0.31496587 -0.53994155 0.24961847
0.31496587 -0.58493656 0.24961852
0.31496587 -0.62993181 0.2496186
0.31496474 -0.67492431 0.24961036
0.31496474 -0.71991926 0.2496103
0.31496474 -0.76491427 0.24961032
0.31496474 -0.80990922 0.24961036
0.31496361 -0.85490131 0.24960247
0.31496361 -0.89989603 0.24960247
0.31496361 -0.94489074 0.24960244
0.31496361 -0.98988575 0.24960244
0.31496361 -1.0348805 0.24960238
0.31496251 -1.0798714 0.24959439
0.31496251 -1.124866 0.24959442
0.40043896 1.151262 0.5026058
0.383681 1.0551227 0.39786839
0.37346664 0.9803499 0.3340286
0.37346524 0.93366301 0.33401987
0.37346524 0.88697988 0.33401993
0.37346524 0.84029675 0.33401999
0.37346524 0.79361361 0.33402002
0.37346524 0.74693048 0.33402002
0.37346387 0.70024467 0.33401132
0.37346387 0.65356159 0.33401129
0.37346387 0.60687882 0.33401138
0.37346387 0.56019574 0.33401135
0.37346387 0.51351267 0.33401129
0.37346247 0.46682814 0.33400279
0.37346247 0.42014527 0.33400261
0.37346247 0.37346244 0.3340027
0.37346247 0.32677969 0.33400267
0.3734611 0.28009585 0.33399403
0.3734611 0.2334131 0.33399403
0.3734611 0.18673062 0.33399415
0.3734611 0.14004791 0.33399397
0.3734611 0.09336517 0.33399412
0.3734597 0.046682402 0.33398551
0.3734597 -5.9604645e-08 0.33398545
0.3734597 -0.046682462 0.33398545
0.3734597 -0.093364924 0.33398539
0.37345833 -0.14004686 0.33397681
0.37345833 -0.18672916 0.33397675
0.37345833 -0.23341146 0.33397669
0.37345833 -0.2800937 0.33397672
0.37345833 -0.326776 0.33397684
0.37345695 -0.37345698 0.33396807
0.37345695 -0.42013904 0.3339681
0.37345695 -0.46682125 0.33396816
0.37345695 -0.51350325 0.33396813
0.37345555 -0.56018341 0.33395943
0.37345555 -0.60686511 0.3339594
0.37345555 -0.65354723 0.33395946
0.37345555 -0.70022905 0.33395952
0.37345555 -0.74691105 0.33395946
0.37345555 -0.79359305 0.33395946
0.37345555 -0.84027493 0.33395946
0.37345555 -0.88695687 0.33395946
0.37345555 -0.93363881 0.3339594
0.37345555 -0.98032081 0.3339594
0.37345555 -1.0270027 0.33395943
0.37345555 -1.0736848 0.33395961
0.43942705 1.1229802 0.44112363
0.43651661 1.0670406 0.42495453
0.43651491 1.0185348 0.42494515
0.43651491 0.97003323 0.42494532
0.43651491 0.92153132 0.42494512
0.43651491 0.87302995 0.42494524
0.43651325 0.82452488 0.42493582
0.43651325 0.77602351 0.42493588
0.43651325 0.72752208 0.42493594
0.43651325 0.67902064 0.42493594
0.43651325 0.63051903 0.42493588
0.43651158 0.5820154 0.42492658
0.43651158 0.53351408 0.42492655
0.43651158 0.48501286 0.4249264
0.43651158 0.43651164 0.42492664
0.43651158 0.38801017 0.4249264
0.43650988 0.33950764 0.42491707
0.43650988 0.29100657 0.42491713
0.43650988 0.24250534 0.42491716
0.43650988 0.1940043 0.42491707
0.43650988 0.14550318 0.42491722
0.43650988 0.097002134 0.4249171
0.43650988 0.048501074 0.42491719
0.43650988 2.9802322e-08 0.42491725
0.43650988 -0.048501104 0.42491722
0.43650988 -0.097002238 0.42491722
0.43650988 -0.1455033 0.42491728
0.43650988 -0.1940044 0.42491722
0.43650988 -0.24250555 0.42491722
0.43650988 -0.29100651 0.42491722
0.43650988 -0.33950773 0.42491728
0.43650988 -0.38800886 0.42491722
0.43650988 -0.43650985 0.42491722
0.43650988 -0.48501095 0.42491719
0.43650988 -0.53351218 0.42491725
0.43650988 -0.58201319 0.42491725
0.43650988 -0.63051426 0.42491722
0.43650821 -0.67901278 0.4249078
0.43650821 -0.72751373 0.42490798
0.43650821 -0.77601463 0.42490786
0.43650821 -0.82451552 0.4249078
0.43650821 -0.87301654 0.42490786
0.43650821 -0.92151725 0.42490798
0.43650821 -0.97001815 0.42490783
0.50467783 1.1607591 0.52325153
0.50467783 1.1102912 0.52325153
0.50467783 1.0598235 0.52325153
0.50467783 1.0093558 0.52325159
0.50467783 0.95888799 0.52325153
0.50467783 0.90842021 0.52325159
0.50467783 0.85795224 0.52325141
0.50467783 0.80748451 0.52325141
0.50467783 0.75701672 0.52325141
0.50467783 0.70654893 0.52325147
0.50467783 0.6560812 0.52325141
0.50467783 0.60561335 0.52325147
0.50467783 0.55514562 0.52325147
0.50467783 0.50467783 0.52325147
0.50467783 0.45421013 0.52325141
0.50467783 0.40374216 0.5232513
0.50467783 0.35327438 0.5232513
0.50467783 0.30280674 0.52325153
0.50467783 0.25233895 0.52325153
0.50467783 0.20187117 0.52325159
0.50467581 0.15140279 0.5232414
0.50467581 0.10093509 0.52324134
0.50467581 0.050467536 0.52324128
0.50467581 -0 0.52324146
0.50467581 -0.050467521 0.5232414
0.50467581 -0.10093515 0.52324128
0.50467581 -0.15140277 0.52324128
0.50467581 -0.20187032 0.5232414
0.50467581 -0.25233802 0.5232414
0.50467581 -0.30280554 0.52324134
0.50467581 -0.35327297 0.5232414
0.50467581 -0.40374053 0.52324134
0.50467581 -0.45420834 0.5232414
0.50467581 -0.50467581 0.52324134
0.50467581 -0.55514324 0.52324134
0.50467581 -0.60561109 0.5232414
0.50467581 -0.65607858 0.52324128
0.50467581 -0.70654607 0.5232414
0.50467581 -0.7570138 0.5232414
0.50467581 -0.80748123 0.52324122
0.50467384 -0.85794532 0.52323115
0.57860535 0.99940908 0.62988645
0.57860535 0.9468087 0.62988657
0.57860535 0.89420819 0.62988651
0.57860535 0.84160769 0.62988651
0.57860535 0.78900731 0.62988657
0.57860535 0.73640668 0.62988663
0.57860535 0.68380624 0.62988645
0.57860535 0.63120586 0.62988657
0.57860535 0.57860523 0.62988657
0.57860535 0.52600479 0.62988645
0.57860535 0.47340438 0.62988663
0.57860535 0.42080384 0.62988657
0.57860535 0.36820334 0.62988651
0.57860535 0.31560296 0.62988657
0.57860535 0.2630024 0.62988657
0.57860535 0.21040191 0.62988645
0.57860535 0.15780152 0.62988657
0.57860297 0.10520053 0.6298756
0.57860297 0.052600265 0.6298756
0.57860297 -2.9802322e-08 0.62987566
0.57860297 -0.052600205 0.62987566
0.57860297 -0.10520059 0.62987554
0.57860297 -0.15780066 0.6298756
0.57860297 -0.2104011 0.62987566
0.57860297 -0.26300138 0.62987554
0.57860297 -0.31560159 0.6298756
0.57860297 -0.36820176 0.6298756
0.57860297 -0.42080206 0.62987542
0.57860297 -0.47340241 0.62987554
0.57860297 -0.52600265 0.62987554
0.57860297 -0.57860279 0.62987542
0.57860297 -0.63120317 0.6298756
0.57860297 -0.68380362 0.6298756
0.57860297 -0.73640376 0.62987566
0.65905666 0.8787421 0.74593174
0.65905666 0.82382095 0.74593186
0.65905666 0.76889956 0.74593186
0.65905666 0.71397805 0.74593186
0.65905666 0.65905666 0.74593186
0.65905666 0.60413533 0.74593186
0.65905666 0.54921395 0.74593186
0.65905666 0.49429253 0.74593186
0.65905666 0.43937117 0.7459318
0.65905666 0.38444978 0.7459318
0.65905666 0.32952833 0.74593186
0.65905666 0.27460694 0.74593186
0.65905666 0.21968558 0.74593174
0.65905666 0.16476417 0.74593186
0.65905666 0.10984275 0.74593186
0.65905666 0.054921448 0.74593174
0.65905666 -0 0.7459318
0.65905386 -0.05492112 0.74591988
0.65905386 -0.10984221 0.74591994
0.65905386 -0.16476345 0.74591994
0.65905386 -0.2196846 0.74591976
0.65905386 -0.27460566 0.74591959
0.65905386 -0.32952705 0.74591988
0.65905386 -0.38444799 0.74591982
0.65905386 -0.43936908 0.7459197
0.65905386 -0.49429047 0.74592
0.65905386 -0.54921162 0.74591976
0.65905386 -0.60413259 0.7459197
0.74693531 0.68947875 0.87269032
0.74693531 0.63202214 0.87269014
0.74693531 0.57456583 0.87269044
0.74693531 0.51710904 0.87269038
0.74693531 0.45965242 0.87269044
0.74693531 0.40219581 0.87269038
0.74693531 0.34473932 0.87269038
0.74693531 0.28728282 0.87269044
0.74693531 0.22982621 0.87269032
0.74693531 0.17236945 0.87269026
0.74693531 0.11491314 0.87269044
0.74693531 0.057456493 0.87269038
0.74693531 -0 0.87269044
0.74693531 -0.057456493 0.87269044
0.74693191 -0.1149126 0.87267727
0.74693191 -0.17236882 0.87267709
0.74693191 -0.22982514 0.87267733
0.74693191 -0.28728163 0.87267739
0.74693191 -0.34473786 0.87267739
0.74693191 -0.40219414 0.87267721
0.84331954 0.54213393 1.0117176
0.84331954 0.48189676 1.0117177
0.84331954 0.42165965 1.0117174
0.84331954 0.36142272 1.0117177
0.84331954 0.30118537 1.0117176
0.84331954 0.24094844 1.0117177
0.84331954 0.18071133 1.0117176
0.84331954 0.12047434 1.0117177
0.84331954 0.060237139 1.0117174
0.84331954 5.9604645e-08 1.0117174
0.84331954 -0.06023705 1.0117174
0.84331954 -0.12047413 1.0117176
0.84331954 -0.18071142 1.0117177
0.84331954 -0.24094853 1.0117177
0.94950688 0.31650236 1.1648854
0.94950688 0.25320184 1.1648853
0.94950688 0.18990135 1.1648852
0.94950688 0.12660098 1.1648853
0.94950688 0.06330055 1.1648852
0.94950688 -1.1920929e-07 1.1648853
0.94950688 -0.063300431 1.1648853
1.0670732 0.13338429 1.3344665
