# .PCD v0.7 - Point Cloud Data file format
VERSION 0.7
FIELDS x y z
SIZE 4 4 4
TYPE F F F
COUNT 1 1 1
WIDTH 1058
HEIGHT 1
VIEWPOINT 0 0 0 1 0 0 0
POINTS 1058
DATA ascii
-23.210897 -2.3841858e-06 -7.8014903
-21.716333 7.2387791 -8.5596476
-20.682858 5.7452364 -11.430418
-20.391273 4.5313945 -12.24037
-20.141846 3.3569717 -12.933226
-19.966 2.2184453 -13.421688
-19.90118 1.1056199 -13.601741
-19.860718 -0 -13.714132
-19.888676 -1.1049275 -13.636475
-20.005371 -2.2228193 -13.312323
-20.147238 -3.357872 -12.918243
-20.42874 -4.5397186 -12.136303
-20.76478 -5.7679968 -11.202849
-19.883011 9.3567114 -10.40335
-19.197672 7.9049239 -12.419052
-18.794073 6.6332016 -13.606112
-18.526648 5.4490132 -14.392656
-18.345865 4.3166752 -14.92437
-18.214001 3.2142344 -15.31221
-18.112875 2.1309271 -15.609631
-18.059246 1.0623064 -15.767368
-18.054121 1.4305115e-06 -15.782442
-18.054121 -1.0620084 -15.782439
-18.126858 -2.1325712 -15.568502
-18.22735 -3.2165914 -15.272942
-18.366497 -4.3215275 -14.863689
-18.568398 -5.4612951 -14.269856
-18.802792 -6.636281 -13.580465
-19.292583 -7.9440045 -12.139902
-20.104395 -9.4608908 -9.7522278
-19.039461 11.899664 -9.3844748
-18.04162 10.148409 -12.502738
-17.609959 8.8049784 -13.851677
-17.272083 7.5565348 -14.907539
-17.034273 6.3878503 -15.650693
-16.861687 5.269278 -16.190022
-16.723682 4.1809211 -16.621284
-16.643143 3.1205912 -16.872974
-16.568119 2.071012 -17.107426
-16.531946 1.033246 -17.220463
-16.527596 -9.5367432e-07 -17.234062
-16.536354 -1.0335245 -17.206692
-16.577187 -2.0721493 -17.07909
-16.652292 -3.1223059 -16.844381
-16.736893 -4.1842227 -16.580009
-16.88098 -5.2753081 -16.129734
-17.058594 -6.3969736 -15.574687
-17.318964 -7.5770454 -14.761038
-17.65361 -8.826807 -13.715269
-18.162146 -10.216208 -12.126094
-19.822542 -12.389091 -6.9373484
-17.299084 12.685996 -11.219183
-16.660326 11.106884 -13.348377
-16.205351 9.7232075 -14.864958
-15.954166 8.5088902 -15.70224
-15.732616 7.3418884 -16.440746
-15.556788 6.222712 -17.026838
-15.423827 5.1412764 -17.470039
-15.324774 4.0866051 -17.80022
-15.226985 3.0453963 -18.126183
-15.188848 2.0251789 -18.2533
-15.159371 1.0106239 -18.351561
-15.135511 -9.5367432e-07 -18.431091
-15.162848 -1.0108585 -18.339973
-15.192767 -2.0257006 -18.240238
-15.238761 -3.0477543 -18.086926
-15.336653 -4.0897751 -17.76062
-15.435861 -5.1452856 -17.429928
-15.574706 -6.2298808 -16.96711
-15.754591 -7.3521452 -16.367495
-15.983696 -8.5246372 -15.603811
-16.24478 -9.7468681 -14.733534
-16.725611 -11.15041 -13.130761
-17.500902 -12.833997 -10.546456
-15.994439 13.70952 -11.759797
-15.362584 12.070603 -14.01642
-15.014562 10.724685 -15.259365
-14.739206 9.4752026 -16.242771
-14.506812 8.289608 -17.07275
-14.353015 7.1765079 -17.622028
-14.214318 6.0918512 -18.117373
-14.118731 5.0424023 -18.458761
-14.041115 4.0117474 -18.735958
-13.975307 2.99471 -18.970982
-13.937998 1.9911404 -19.104235
-13.911186 0.99365425 -19.199986
-13.903375 -2.8610229e-06 -19.227886
-13.915741 -0.99398136 -19.183718
-13.939723 -1.9913883 -19.098074
-13.984112 -2.9965949 -18.939537
-14.051449 -4.0147023 -18.699047
-14.128958 -5.0460572 -18.422234
-14.231739 -6.0993142 -18.055157
-14.370182 -7.1850929 -17.560719
-14.527908 -8.3016634 -16.997408
-14.770325 -9.4952087 -16.131636
-15.055903 -10.754215 -15.111712
-15.41446 -12.111362 -13.831156
-16.097759 -13.798079 -11.390801
-14.820886 14.820887 -11.879392
-14.24122 13.145741 -14.108869
-13.867229 11.733809 -15.547299
-13.592053 10.455426 -16.605663
-13.393806 9.2726316 -17.36816
-13.230608 8.1419106 -17.995844
-13.095804 7.0515862 -18.514317
-12.983192 5.9922428 -18.947441
-12.90104 4.9619379 -19.263409
-12.819921 3.944592 -19.575407
-12.774124 2.947875 -19.751549
-12.740553 1.960083 -19.880672
-12.709281 0.97763729 -20.000948
-12.711482 -3.8146973e-06 -19.992481
-12.721415 -0.97857094 -19.954275
-12.731868 -1.9587498 -19.914072
-12.780914 -2.9494438 -19.725437
-12.837859 -3.9501109 -19.506416
-12.899289 -4.9612684 -19.270145
-13.001348 -6.0006251 -18.877613
-13.113249 -7.0609813 -18.44722
-13.239819 -8.1475811 -17.960419
-13.418722 -9.2898836 -17.272327
-13.616516 -10.474245 -16.511578
-13.90983 -11.769856 -15.383452
-14.298702 -13.198803 -13.887789
-14.952941 -14.952941 -11.371481
-13.79064 16.089079 -11.421798
-13.165685 14.262823 -14.025779
-12.785982 12.785983 -15.607866
-12.520356 11.476992 -16.714642
-12.322369 10.268641 -17.539595
-12.142558 9.1069183 -18.288801
-12.015209 8.0101385 -18.819424
-11.898855 6.9410009 -19.304232
-11.814333 5.9071646 -19.65641
-11.748632 4.8952651 -19.930161
-11.683941 3.8946438 -20.199711
-11.647961 2.9119883 -20.349627
-11.620308 1.936717 -20.464846
-11.597173 0.96642971 -20.561245
-11.597173 -2.8610229e-06 -20.561245
-11.604525 -0.96704578 -20.530609
-11.617092 -1.936183 -20.478245
-11.652916 -2.9132309 -20.328978
-11.698452 -3.8994837 -20.139248
-11.747596 -4.8948317 -19.934483
-11.828083 -5.914041 -19.599117
-11.915046 -6.9504452 -19.236773
-12.019547 -8.0130348 -18.801352
-12.175635 -9.1317282 -18.150988
-12.343281 -10.286065 -17.452456
-12.555567 -11.509271 -16.567934
-12.820747 -12.820746 -15.463017
-13.225154 -14.327251 -13.77799
-13.922285 -16.242668 -10.873269
-12.911509 17.606604 -10.194118
-12.151812 15.46594 -13.647287
-11.75887 13.896847 -15.433386
-11.495964 12.541051 -16.628414
-11.281106 11.281102 -17.605042
-11.115406 10.104914 -18.358227
-10.979543 8.9832611 -18.975782
-10.875652 7.9095659 -19.448013
-10.776792 6.8579588 -19.897377
-10.707817 5.8406262 -20.210901
-10.642279 4.8373966 -20.508804
-10.592476 3.8518076 -20.735182
-10.560214 2.8800554 -20.881824
-10.528149 1.9142094 -21.027576
-10.514483 0.95585918 -21.089691
-10.514483 -9.5367432e-07 -21.089687
-10.514483 -0.95586491 -21.089687
-10.532158 -1.9149408 -21.00935
-10.564311 -2.881176 -20.863201
-10.597898 -3.8537807 -20.710533
-10.649225 -4.8405547 -20.477228
-10.717023 -5.8456502 -20.169056
-10.792267 -6.8678074 -19.82704
-10.88448 -7.9159832 -19.407888
-11.001722 -9.0014095 -18.874968
-11.126201 -10.114729 -18.309155
-11.308675 -11.308678 -17.479727
-11.528572 -12.576626 -16.480194
-11.80274 -13.948691 -15.233979
-12.210956 -15.541217 -13.378453
-13.179982 -17.972702 -8.9737854
-11.212995 16.81949 -12.817822
-10.785428 15.099596 -14.955657
-10.496825 13.645872 -16.398668
-10.278544 12.334253 -17.490072
-10.116763 11.128441 -18.298981
-9.9817123 9.9817104 -18.974236
-9.8701887 8.8831692 -19.531857
-9.7720661 7.8176508 -20.022469
-9.6886625 6.782063 -20.439486
-9.6286297 5.7771759 -20.739647
-9.5744333 4.7872143 -21.010633
-9.535285 3.8141136 -21.206371
-9.5092802 2.8527851 -21.336395
-9.4833879 1.896677 -21.465855
-9.472167 0.94721508 -21.521957
-9.472167 -3.8146973e-06 -21.521961
-9.472167 -0.94721985 -21.521959
-9.4866867 -1.897336 -21.44936
-9.5125399 -2.8537626 -21.320095
-9.5385637 -3.815424 -21.18998
-9.5810747 -4.7905364 -20.977428
-9.635232 -5.7811365 -20.70664
-9.6962814 -6.7873983 -20.40139
-9.7844849 -7.827589 -19.960375
-9.8832216 -8.8949013 -19.466688
-9.9927454 -9.9927444 -18.919067
-10.13818 -11.151997 -18.1919
-10.301345 -12.361614 -17.376072
-10.529004 -13.687704 -16.237776
-10.827156 -15.15802 -14.747014
-11.290054 -16.935083 -12.432523
-10.361813 18.421 -11.317168
-9.8342676 16.390446 -14.247978
-9.5202694 14.809307 -15.992407
-9.3100109 13.447792 -17.160515
-9.1359606 12.181278 -18.127464
-9.0026121 11.003193 -18.868286
-8.87533 9.8614769 -19.575407
-8.7907753 8.7907734 -20.045158
-8.7129498 7.744843 -20.477518
-8.647398 6.7257528 -20.841698
-8.596734 5.7311544 -21.123167
-8.548728 4.7492933 -21.389864
-8.5171537 3.7854023 -21.565271
-8.4903154 2.8301039 -21.714376
-8.4674311 1.881649 -21.841515
-8.4617414 0.94019318 -21.873121
-8.4572449 -2.8610229e-06 -21.898102
-8.4573441 -0.9397068 -21.897554
-8.4744663 -1.883214 -21.802423
-8.493453 -2.831152 -21.696953
-8.5165033 -3.7851124 -21.56889
-8.5571127 -4.7539539 -21.343279
-8.6031675 -5.7354498 -21.087418
-8.65166 -6.7290721 -20.818018
-8.7227631 -7.7535677 -20.423
-8.8004436 -8.8004456 -19.991442
-8.8902855 -9.8780966 -19.492317
-9.0194044 -11.023717 -18.774994
-9.158 -12.21067 -18.005016
-9.3332911 -13.48142 -17.031183
-9.5518551 -14.858441 -15.816938
-9.8906507 -16.484421 -13.934735
-10.488183 -18.645658 -10.615111
-8.9363022 17.872602 -13.03091
-8.5742054 16.076637 -15.294008
-8.3513718 14.6149 -16.68672
-8.1783791 13.289866 -17.767925
-8.0283232 12.042484 -18.705776
-7.9245377 10.896236 -19.354439
-7.8275399 9.7844257 -19.96067
-7.7523074 8.721344 -20.430878
-7.6842127 7.6842122 -20.856464
-7.6307607 6.6769142 -21.190544
-7.5826883 5.6870174 -21.490993
-7.540935 4.7130842 -21.751953
-7.5154886 3.7577429 -21.910997
-7.4902124 2.8088284 -22.068966
-7.4713674 1.8678427 -22.186749
-7.4663839 0.93329811 -22.217896
-7.4614077 9.5367432e-07 -22.249001
-7.462575 -0.93282223 -22.241701
-7.4775515 -1.8693886 -22.148094
-7.4925885 -2.8097219 -22.054119
-7.5144796 -3.7572412 -21.917299
-7.5506434 -4.7191505 -21.691275
-7.5872688 -5.6904507 -21.462364
-7.6341996 -6.6799278 -21.169048
-7.6951222 -7.6951227 -20.788282
-7.7616086 -8.7318087 -20.372742
-7.8396001 -9.7995005 -19.885296
-7.9371924 -10.913642 -19.275343
-8.0425682 -12.063854 -18.616745
-8.19979 -13.324658 -17.634109
-8.3769417 -14.659646 -16.526915
-8.6119204 -16.147352 -15.058293
-8.9947462 -17.989492 -12.665633
-8.1241741 19.730137 -10.852978
-7.6610475 17.510963 -14.161026
-7.4115243 15.881837 -15.943336
-7.2200933 14.440187 -17.310699
-7.0854535 13.158699 -18.272411
-6.9722776 11.952473 -19.080818
-6.8805385 10.812271 -19.736095
-6.8003664 9.7148056 -20.308752
-6.7349429 8.6592112 -20.776062
-6.6714578 7.6245222 -21.229527
-6.6301661 6.6301665 -21.524466
-6.5926404 5.6508312 -21.792505
-6.5586305 4.6847363 -22.03544
-6.5386233 3.7363558 -22.178347
-6.5187378 2.7937441 -22.320385
-6.5030622 1.858017 -22.432346
-6.4991231 0.92844391 -22.460491
-6.4951878 -0 -22.488598
-6.496068 -0.92801094 -22.482307
-6.5079093 -1.8594027 -22.397728
-6.5197754 -2.7941875 -22.312971
-6.5377693 -3.7358685 -22.184446
-6.5662389 -4.6901684 -21.981094
-6.5949759 -5.6528368 -21.775826
-6.6330357 -6.633038 -21.503971
-6.6845627 -7.639503 -21.13592
-6.7388315 -8.6642141 -20.748287
-6.8112226 -9.7303181 -20.231209
-6.8924956 -10.831065 -19.650684
-6.982326 -11.969702 -19.009043
-7.100976 -13.187527 -18.161541
-7.2396765 -14.479354 -17.17082
-7.4403601 -15.943628 -15.737368
-7.6882391 -17.573116 -13.966805
-8.2342539 -19.997477 -10.066696
-6.7910666 19.241354 -12.290571
-6.4802699 17.280718 -14.88055
-6.2811527 15.702881 -16.539856
-6.1376839 14.32126 -17.735432
-6.0283108 13.061336 -18.646877
-5.9356022 11.871203 -19.419445
-5.85531 10.734734 -20.088549
-5.790153 9.6502552 -20.631519
-5.7404757 8.6107121 -21.045502
-5.6921797 7.589571 -21.447964
-5.6570764 6.5999217 -21.740494
-5.6255484 5.6255465 -22.003231
-5.596169 4.6634731 -22.248055
-5.5778375 3.7185574 -22.400818
-5.5625248 2.7812576 -22.528425
-5.5483952 1.8494654 -22.646168
-5.5434895 0.92391586 -22.68705
-5.5426459 -9.5367432e-07 -22.694078
-5.5426459 -0.92377472 -22.69408
-5.5508995 -1.8503008 -22.625301
-5.5636625 -2.7818308 -22.51894
-5.5778375 -3.7185583 -22.400816
-5.60112 -4.6676006 -22.206799
-5.6276464 -5.627645 -21.985741
-5.6592979 -6.6025157 -21.721979
-5.6997404 -7.5996575 -21.384956
-5.7419605 -8.6129417 -21.033125
-5.7986732 -9.6644554 -20.560522
-5.8646994 -10.751952 -20.0103
-5.9447756 -11.889553 -19.342999
-6.0426474 -13.092402 -18.527403
-6.1508021 -14.351871 -17.626112
-6.3029265 -15.757317 -16.358408
-6.5099382 -17.359835 -14.633311
-6.8399239 -19.379784 -11.883431
-5.5692215 18.935354 -13.190575
-5.3353715 17.073185 -15.529085
-5.1954575 15.586371 -16.928219
-5.0823145 14.230478 -18.059654
-4.9881334 12.969144 -19.001465
-4.9164872 11.79957 -19.717924
-4.8577127 10.686969 -20.30567
-4.8048849 9.609767 -20.833954
-4.7638316 8.5748987 -21.244478
-4.724431 7.5590887 -21.638485
-4.6928377 6.5699711 -21.954418
-4.6678982 5.6014795 -22.203815
-4.6436238 4.6436234 -22.44656
-4.6267738 3.7014189 -22.615059
-4.6150432 2.7690248 -22.732365
-4.6033721 1.8413467 -22.849072
-4.5985179 0.91970348 -22.897617
-4.5985179 -1.9073486e-06 -22.897617
-4.5985179 -0.91970444 -22.897617
-4.6047158 -1.8418856 -22.835638
-4.6163673 -2.7698212 -22.719124
-4.6280646 -3.7024536 -22.60215
-4.6461849 -4.646184 -22.420948
-4.6703367 -5.604404 -22.17943
-4.6947546 -6.5726562 -21.935255
-4.7278738 -7.5645986 -21.604061
-4.7667809 -8.5802059 -21.214987
-4.8117237 -9.6234484 -20.76556
-4.861866 -10.696106 -20.264135
-4.9236178 -11.816683 -19.646618
-5.0007205 -13.001876 -18.875593
-5.0941882 -14.263727 -17.940912
-5.2118139 -15.635444 -16.764656
-5.3616109 -17.157154 -15.266688
-5.5989871 -19.036552 -12.892929
-4.7530465 21.388708 -9.4697132
-4.3961449 18.683617 -13.930984
-4.2418694 16.967474 -15.859432
-4.129354 15.485078 -17.265869
-4.0403166 14.141108 -18.378838
-3.974674 12.917687 -19.199373
-3.9189408 11.756819 -19.896036
-3.8722126 10.648582 -20.480141
-3.8278484 9.569622 -21.034691
-3.7956817 8.5402832 -21.436779
-3.7644365 7.528873 -21.827343
-3.7387543 6.542819 -22.148369
-3.7211168 5.5816746 -22.368835
-3.7036448 4.6295557 -22.587236
-3.6908278 3.6908255 -22.747448
-3.6823397 2.761754 -22.853552
-3.6739113 1.8369579 -22.958906
-3.6677563 0.91693783 -23.035843
-3.6663356 -0 -23.053604
-3.6681952 -0.91704941 -23.030355
-3.6749287 -1.8374653 -22.94619
-3.6833615 -2.7625208 -22.840778
-3.6918969 -3.6918964 -22.734085
-3.7057557 -4.6321945 -22.560852
-3.7232478 -5.5848737 -22.342201
-3.7409055 -6.546586 -22.121479
-3.7679844 -7.5359716 -21.782993
-3.7989862 -8.5477219 -21.395468
-3.8331141 -9.5827866 -20.968868
-3.87606 -10.659164 -20.432043
-3.9245322 -11.773599 -19.826143
-3.9809058 -12.937943 -19.121477
-4.0504742 -14.17666 -18.251871
-4.1418562 -15.531961 -17.109592
-4.2600622 -17.040249 -15.632019
-4.4273973 -18.816439 -13.540331
-3.4938724 20.963234 -10.65159
-3.2753532 18.560333 -14.293576
-3.1627574 16.868038 -16.170172
-3.0825691 15.412843 -17.506647
-3.0216074 14.100832 -18.522673
-2.9723237 12.880069 -19.34407
-2.9286406 11.714561 -20.072119
-2.893827 10.610699 -20.652344
-2.8611619 9.5372066 -21.196762
-2.8389847 8.5169544 -21.566387
-2.8179955 7.5146551 -21.916206
-2.7993338 6.5317783 -22.22723
-2.7857404 5.5714798 -22.453793
-2.7726841 4.6211386 -22.671394
-2.76279 3.6837196 -22.8363
-2.7562044 2.7562027 -22.946058
-2.7498848 1.8332577 -23.051382
-2.7452247 0.91507435 -23.129051
-2.7430875 -9.5367432e-07 -23.164669
-2.745568 -0.91518879 -23.123327
-2.7506447 -1.8337669 -23.038719
-2.7570071 -2.7570057 -22.93268
-2.7635887 -3.6847849 -22.822987
-2.7742536 -4.6237574 -22.645237
-2.7873244 -5.5746479 -22.427389
-2.801007 -6.5356851 -22.199348
-2.8205311 -7.5214171 -21.873943
-2.8415499 -8.5246506 -21.523632
-2.8648043 -9.5493469 -21.136063
-2.8976657 -10.624778 -20.588364
-2.9327061 -11.730823 -20.004362
-2.976897 -12.899889 -19.267849
-3.0288019 -14.134411 -18.402761
-3.0878928 -15.439464 -17.417915
-3.1779985 -16.949326 -15.916153
-3.295151 -18.67252 -13.963617
-3.5522988 -21.313793 -9.6778164
-2.3064289 20.757858 -11.222075
-2.1747084 18.485022 -14.515087
-2.099961 16.799688 -16.383766
-2.0513914 15.385433 -17.598015
-2.0090854 14.063598 -18.655657
-1.9762256 12.845467 -19.477156
-1.9468111 11.680864 -20.212521
-1.9261639 10.593901 -20.728699
-1.9059898 9.5299482 -21.233055
-1.890233 8.5060472 -21.626968
-1.8759916 7.5039654 -21.983007
-1.8632028 6.5212097 -22.302727
-1.8541001 5.5622978 -22.530294
-1.8450966 4.6127396 -22.755383
-1.8383197 3.6766376 -22.924805
-1.833946 2.7509184 -23.034145
-1.8295984 1.8295956 -23.142838
-1.8270535 0.91352558 -23.206455
-1.8270535 -1.9073486e-06 -23.206455
-1.8270535 -0.91352749 -23.206459
-1.8301238 -1.8301229 -23.1297
-1.8344792 -2.7517195 -23.020817
-1.83885 -3.677701 -22.911541
-1.8461709 -4.615428 -22.728523
-1.855201 -5.5656009 -22.502771
-1.8643198 -6.5251198 -22.274799
-1.8776771 -7.5107083 -21.940866
-1.8920056 -8.5140266 -21.582659
-1.9084084 -9.5420399 -21.172588
-1.9286342 -10.607491 -20.666943
-1.9494408 -11.696648 -20.146774
-1.9799216 -12.869493 -19.384754
-2.0137684 -14.096379 -18.538588
-2.055814 -15.418607 -17.487446
-2.1082909 -16.866327 -16.175526
-2.1892729 -18.608818 -14.150974
-2.3400111 -21.060097 -10.382519
-1.1484572 20.672228 -11.459936
-1.0829633 18.410378 -14.734627
-1.0500798 16.801275 -16.378803
-1.0243082 15.36462 -17.667387
-1.0019002 14.026601 -18.787786
-0.98734587 12.835494 -19.515505
-0.97325832 11.679099 -20.219879
-0.96247715 10.587247 -20.758942
-0.95227009 9.5226994 -21.269287
-0.94409627 8.4968643 -21.677984
-0.93686807 7.4949436 -22.039392
-0.93009639 6.5106745 -22.377979
-0.92583394 5.5550032 -22.591103
-0.92174238 4.6087112 -22.795677
-0.91837823 3.6735115 -22.963886
-0.91638809 2.7491636 -23.063389
-0.91440934 1.8288155 -23.162334
-0.91340238 0.91340065 -23.212681
-0.91340238 -1.9073486e-06 -23.212679
-0.91340238 -0.91340542 -23.212681
-0.91464835 -1.8292971 -23.150375
-0.9166283 -2.7498875 -23.051384
-0.91861933 -3.6744776 -22.951828
-0.92223632 -4.6111832 -22.770979
-0.92633492 -5.5580091 -22.566048
-0.93065578 -6.5145917 -22.350006
-0.9377389 -7.5019121 -21.99585
-0.94498056 -8.5048265 -21.63377
-0.95347768 -9.5347786 -21.208912
-0.96375972 -10.601358 -20.694809
-0.97494191 -11.699304 -20.135704
-0.98907542 -12.857984 -19.429022
-1.0044644 -14.062502 -18.659575
-1.0269066 -15.403601 -17.537464
-1.0529141 -16.846628 -16.237087
-1.0910553 -18.547941 -14.330035
-1.1592753 -20.866955 -10.919031
0 20.695709 -11.394704
0 18.462439 -14.581503
0 16.805609 -16.365265
0 15.350602 -17.714125
0 14.051316 -18.699516
0 12.841167 -19.493683
0 11.68249 -20.205746
0 10.584937 -20.769444
0 9.5178852 -21.293369
0 8.4940243 -21.693768
0 7.4979353 -22.020706
0 6.517416 -22.329815
0 5.5584402 -22.562452
0 4.6115494 -22.767281
0 3.6759987 -22.932808
0 2.7499065 -23.050991
0 1.8297863 -23.138155
0 0.91383553 -23.191025
0 -9.5367432e-07 -23.205551
0 -0.91396236 -23.184795
0 -1.8300457 -23.131653
0 -2.7506304 -23.038979
0 -3.6775742 -22.913122
0 -4.6140242 -22.742554
0 -5.5614505 -22.537373
0 -6.5223045 -22.294907
0 -7.5042505 -21.98123
0 -8.5012064 -21.653877
0 -9.5304585 -21.230515
0 -10.599043 -20.705338
0 -11.702671 -20.121668
0 -12.864624 -19.403473
0 -14.08413 -18.582336
0 -15.388626 -17.587385
0 -16.867432 -16.172071
0 -18.542154 -14.347045
0 -20.907547 -10.806274
1.1558944 20.806095 -11.088081
1.0897955 18.52652 -14.393026
1.0517133 16.827415 -16.297127
1.0257448 15.386169 -17.59556
1.005566 14.077923 -18.604496
0.98883241 12.854818 -19.441179
0.97413325 11.689598 -20.17613
0.96320879 10.595297 -20.722355
0.9537828 9.5378256 -21.193655
0.94497228 8.5047483 -21.634186
0.93841976 7.5073581 -21.961811
0.93242192 6.5269537 -22.261702
0.92698067 5.5618811 -22.533764
0.92313045 4.6156511 -22.726274
0.91985869 3.6794338 -22.889864
0.91688162 2.7506456 -23.038715
0.91553044 1.8310595 -23.106274
0.91446906 0.91446686 -23.159344
0.91369015 -1.9073486e-06 -23.198288
0.91459638 -0.91459656 -23.152977
0.91565806 -1.831316 -23.099892
0.91712201 -2.7513666 -23.026699
0.92025322 -3.6810122 -22.870136
0.92352784 -4.6176395 -22.706406
0.92748284 -5.5648975 -22.508654
0.93311942 -6.5318389 -22.226826
0.93920845 -7.5136666 -21.922373
0.94601387 -8.5141258 -21.582104
0.95491487 -9.5491495 -21.137054
0.96436042 -10.607967 -20.664776
0.97588795 -11.710657 -20.088402
0.9906404 -12.878326 -19.350777
1.0079217 -14.110907 -18.486712
1.0283077 -15.424617 -17.467411
1.0557084 -16.891336 -16.097374
1.0955195 -18.623833 -14.106816
1.1754456 -21.15802 -10.110519
2.3368847 21.031961 -10.460679
2.1912255 18.625418 -14.102157
2.1124356 16.899483 -16.071909
2.0578451 15.433838 -17.436672
2.0161717 14.1132 -18.478502
1.9806467 12.874205 -19.366631
1.9528773 11.717261 -20.060863
1.9307921 10.619358 -20.612993
1.9118776 9.5593882 -21.085855
1.894361 8.524622 -21.523773
1.8791957 7.5167804 -21.902905
1.8675764 6.5365162 -22.19339
1.8561212 5.5683622 -22.479767
1.8484029 4.621006 -22.672722
1.8424135 3.6848269 -22.822456
1.8366096 2.7549152 -22.967554
1.8340192 1.8340197 -23.032314
1.832072 0.91603565 -23.080994
1.8307171 9.5367432e-07 -23.114864
1.8323015 -0.91615391 -23.07526
1.8342544 -1.8342552 -23.026436
1.8371811 -2.7557716 -22.953268
1.8431363 -3.6862764 -22.804386
1.8491251 -4.6228142 -22.654669
1.8574978 -5.5724955 -22.445351
1.8689754 -6.5414166 -22.158411
1.8807772 -7.5231094 -21.863367
1.8964653 -8.5340939 -21.471165
1.9141291 -9.5706444 -21.02957
1.9331639 -10.632402 -20.553696
1.9561951 -11.737172 -19.977919
1.9840597 -12.896389 -19.281305
2.0211289 -14.147903 -18.354572
2.0642138 -15.481602 -17.277456
2.1195798 -16.956636 -15.893303
2.2033172 -18.728195 -13.799871
2.3874717 -21.487247 -9.1959991
3.6323521 21.794111 -8.3435907
3.3060734 18.734413 -13.781576
3.1884308 17.004963 -15.742285
3.1007755 15.503878 -17.203205
3.0357637 14.166898 -18.286732
2.9834926 12.928468 -19.157917
2.9385974 11.754389 -19.906172
2.904177 10.648647 -20.479849
2.8746216 9.5820713 -20.972435
2.8482981 8.5448942 -21.411163
2.825434 7.5344877 -21.792229
2.809541 6.5555954 -22.057114
2.7938578 5.5877161 -22.318497
2.7809579 4.6349297 -22.533499
2.7719197 3.6958933 -22.684135
2.7640634 2.7640638 -22.815071
2.7584248 1.8389502 -22.909046
2.7554805 0.91849327 -22.958118
2.7547257 -0 -22.970701
2.7558424 -0.91861534 -22.952093
2.7587798 -1.8391867 -22.903133
2.7648392 -2.7648392 -22.802143
2.7729945 -3.6973267 -22.666224
2.7820396 -4.6367331 -22.515467
2.795743 -5.591486 -22.287079
2.8114471 -6.5600448 -22.025345
2.8276353 -7.5403605 -21.755543
2.8513937 -8.5541821 -21.359568
2.877852 -9.5928421 -20.918596
2.9081047 -10.663052 -20.414387
2.9437222 -11.774889 -19.820761
2.9890809 -12.952685 -19.064783
3.042748 -14.199491 -18.170332
3.111197 -15.555985 -17.029512
3.2014246 -17.074265 -15.525725
3.3269098 -18.852489 -13.434299
4.4760904 19.023382 -12.931667
4.2870317 17.148125 -15.294904
4.1653633 15.620111 -16.815758
4.0718188 14.251362 -17.985064
3.997086 12.990528 -18.919224
3.93787 11.813608 -19.659424
3.8899632 10.697398 -20.258259
3.8471127 9.6177826 -20.793886
3.8116972 8.5763206 -21.23658
3.7829103 7.5658193 -21.596418
3.7598512 6.5797377 -21.884655
3.73946 5.609189 -22.139544
3.7214394 4.6518002 -22.364803
3.7070255 3.7070255 -22.544975
3.6977084 2.7732792 -22.661442
3.6890402 1.8445215 -22.769791
3.6845741 0.92114258 -22.825623
3.6845844 -1.9073486e-06 -22.825489
3.6845844 -0.9211483 -22.825489
3.6900978 -1.8450499 -22.756573
3.6987391 -2.7740526 -22.64856
3.708446 -3.7084465 -22.527222
3.7235708 -4.6544619 -22.338163
3.7416449 -5.6124654 -22.112236
3.7624226 -6.5842409 -21.852512
3.7858694 -7.5717397 -21.559425
3.8157082 -8.5853443 -21.186443
3.851625 -9.6290646 -20.737488
3.8956487 -10.713037 -20.187187
3.9442284 -11.832687 -19.579941
4.0045838 -13.014898 -18.8255
4.082006 -14.287023 -17.857721
4.1773663 -15.665123 -16.665718
4.3066516 -17.226608 -15.049649
4.5059366 -19.150232 -12.558585
5.6991897 19.377245 -11.890901
5.4209461 17.347027 -14.673334
5.2553205 15.765959 -16.32959
5.1313076 14.367658 -17.569721
5.0324373 13.084338 -18.558424
4.9520741 11.884977 -19.362057
4.887888 10.753353 -20.003918
4.8351316 9.6702633 -20.531479
4.7890825 8.620347 -20.99197
4.7505975 7.6009526 -21.376823
4.7177687 6.6048737 -21.705111
4.6925092 5.6310091 -21.957706
4.6698084 4.6698036 -22.184717
4.6499977 3.7199974 -22.382816
4.6400757 2.7840452 -22.482042
4.6301951 1.8520784 -22.580841
4.6243405 0.92486763 -22.639393
4.6243539 -0 -22.639256
4.6243539 -0.92487049 -22.639259
4.6313815 -1.8525553 -22.568981
4.6412401 -2.7847481 -22.470398
4.6512747 -3.7210217 -22.370049
4.6724792 -4.6724787 -22.158005
4.6952477 -5.6342983 -21.930323
4.7214508 -6.6100316 -21.668289
4.7547946 -7.6076717 -21.334852
4.7945905 -8.6302624 -20.936892
4.8408337 -9.6816673 -20.474461
4.8950844 -10.769185 -19.931948
4.9605465 -11.905312 -19.277332
5.0426092 -13.110785 -18.456707
5.145896 -14.40851 -17.423836
5.2709689 -15.812906 -16.173107
5.4474092 -17.431711 -14.408705
5.7548132 -19.566364 -11.334667
7.0779042 20.054062 -9.9002562
6.6008229 17.602194 -13.87594
6.3812027 15.953007 -15.706105
6.2167044 14.505642 -17.076925
6.0869536 13.188398 -18.158182
5.9867249 11.973448 -18.993422
5.9081788 10.831659 -19.647974
5.8400269 9.7333794 -20.215902
5.7798066 8.6697073 -20.717745
5.7346792 7.6462359 -21.093807
5.6934891 6.6424041 -21.437054
5.6604762 5.6604748 -21.712166
5.6325717 4.6938076 -21.944702
5.6124182 3.7416105 -22.112644
5.5991225 2.7995596 -22.223442
5.5871334 1.8623772 -22.323349
5.5804648 0.93007565 -22.378922
5.5789819 -9.5367432e-07 -22.391281
5.5812554 -0.93021107 -22.372334
5.588573 -1.8628559 -22.311354
5.6005516 -2.8002748 -22.211536
5.6141644 -3.742775 -22.098093
5.6356788 -4.6963997 -21.91881
5.6641288 -5.6641302 -21.681721
5.6984286 -6.6481705 -21.395891
5.7397075 -7.6529431 -21.051901
5.7865615 -8.6798458 -20.661451
5.8474545 -9.745759 -20.154003
5.9174848 -10.848722 -19.570421
5.9976778 -11.995358 -18.902151
6.1001449 -13.216984 -18.048254
6.2349515 -14.54822 -16.924866
6.406311 -16.015779 -15.496868
6.6386304 -17.703014 -13.560883
7.8831267 18.018574 -12.574749
7.5599594 16.199913 -14.883086
7.3314934 14.662987 -16.514986
7.1768274 13.328391 -17.619743
7.0512342 12.08783 -18.51684
6.9498429 10.921181 -19.241062
6.8665495 9.8093548 -19.836012
6.7958531 8.737525 -20.340988
6.7382264 7.70083 -20.752609
6.6841068 6.6841054 -21.139175
6.6481671 5.6984253 -21.395891
6.6133494 4.7238197 -21.644588
6.5878215 3.7644701 -21.826931
6.5690722 2.8153162 -21.960852
6.5570455 1.8734407 -22.046753
6.549325 0.93561459 -22.101904
6.5439034 -2.8610229e-06 -22.140629
6.5502582 -0.93575191 -22.095238
6.557981 -1.8737087 -22.040077
6.5711412 -2.8162041 -21.946068
6.5905576 -3.7660351 -21.807381
6.6175456 -4.726819 -21.614616
6.6524267 -5.7020812 -21.365461
6.6901608 -6.6901603 -21.095932
6.7448235 -7.7083693 -20.705486
6.8042073 -8.7482681 -20.281315
6.8751841 -9.8216906 -19.774342
6.9618917 -10.940115 -19.155001
7.0661411 -12.113382 -18.410364
7.1925235 -13.357543 -17.507627
7.3528862 -14.705772 -16.362179
7.5914474 -16.267387 -14.658174
7.9282651 -18.12175 -12.252332
9.3527002 18.7054 -10.42842
8.8086538 16.516226 -13.828704
8.525569 14.919744 -15.597988
8.306242 13.497644 -16.968781
8.145957 12.218932 -17.97057
8.0266466 11.036638 -18.716253
7.9228792 9.9035988 -19.364799
7.8331604 8.8123055 -19.925545
7.7654009 7.7654009 -20.349041
7.7036643 6.7407055 -20.734894
7.657382 5.7430353 -21.024157
7.6116743 4.7572966 -21.309826
7.5866661 3.7933331 -21.466137
7.5624428 2.8359175 -21.617531
7.5433874 1.8858471 -21.736624
7.5350637 0.94188404 -21.788645
7.5306997 -0 -21.815918
7.5359464 -0.94199467 -21.783133
7.5443158 -1.8860798 -21.730825
7.5630202 -2.8361349 -21.613922
7.5885887 -3.7942934 -21.454119
7.6171918 -4.7607441 -21.275349
7.6628971 -5.7471733 -20.989689
7.7105861 -6.7467628 -20.691637
7.7727623 -7.7727613 -20.303032
7.8433976 -8.8238239 -19.861561
7.933866 -9.9173336 -19.296135
8.0404577 -11.05563 -18.629932
8.1647367 -12.247106 -17.853191
8.3309155 -13.537738 -16.814573
8.5544062 -14.970209 -15.417757
8.8616514 -16.615599 -13.497473
9.5485411 -19.097084 -9.2044125
10.202137 17.003561 -12.204258
9.7808342 15.214627 -14.544832
9.4996309 13.721689 -16.107069
9.2993097 12.399081 -17.219963
9.142622 11.174315 -18.090454
9.0114632 10.012735 -18.819115
8.9075108 8.9075079 -19.396626
8.8243599 7.8438749 -19.858574
8.7489805 6.804759 -20.277355
8.6927624 5.7951751 -20.58967
8.6426754 4.8014851 -20.867931
8.6133509 3.8281546 -21.030846
8.5855722 2.8618555 -21.185173
8.5595407 1.9021196 -21.329792
8.5465584 0.94961834 -21.401917
8.5448189 -0 -21.411583
8.5445414 -0.94939613 -21.41312
8.5618944 -1.9026442 -21.316723
8.5799513 -2.8599873 -21.2164
8.6107903 -3.8270168 -21.045074
8.6495409 -4.8053026 -20.829788
8.6985846 -5.7990594 -20.557327
8.7572327 -6.811182 -20.231503
8.8337259 -7.8522024 -19.806543
8.9195251 -8.9195251 -19.32988
9.0250254 -10.027807 -18.743769
9.1598539 -11.195377 -17.99472
9.3209763 -12.427971 -17.099594
9.5326147 -13.769335 -15.923823
9.8222275 -15.279023 -14.314864
10.297127 -17.16188 -11.676537
11.187307 15.66223 -12.946259
10.77326 14.005239 -15.016495
10.512049 12.614458 -16.322552
10.306987 11.337683 -17.347864
10.14905 10.149049 -18.137545
10.025337 9.0228043 -18.756107
9.9206648 7.9365306 -19.279472
9.8276892 6.8793821 -19.744349
9.7645636 5.8587384 -20.059975
9.7036486 4.8518219 -20.364552
9.6624823 3.8649921 -20.570385
9.6276217 2.8882856 -20.744686
9.6053514 1.9210691 -20.856033
9.5882959 0.95882988 -20.941315
9.5860395 -9.5367432e-07 -20.952599
9.5918112 -0.95918179 -20.923744
9.6038322 -1.9207668 -20.863632
9.6322613 -2.889678 -20.721493
9.6653843 -3.8661532 -20.555876
9.7115545 -4.8557792 -20.325022
9.7723913 -5.8634372 -20.020836
9.8408222 -6.8885741 -19.678688
9.9329739 -7.9463811 -19.217928
10.043578 -9.0392227 -18.664906
10.16556 -10.165562 -18.054995
10.328222 -11.361046 -17.241684
10.53921 -12.647056 -16.186745
10.811733 -14.055254 -14.82413
11.24583 -15.744161 -12.653647
12.950477 16.482424 -10.016994
12.19951 14.417601 -13.430477
11.818343 12.892736 -15.163055
11.550239 11.550239 -16.381714
11.354631 10.322392 -17.270836
11.194776 9.1593609 -17.997456
11.063645 8.0462875 -18.593496
10.960302 6.9747372 -19.063236
10.877858 5.9333749 -19.437988
10.80452 4.9111423 -19.771345
10.755411 3.9110575 -19.99456
10.71164 2.9213552 -20.193523
10.686871 1.9430685 -20.30611
10.666874 0.96971416 -20.397007
10.673467 -9.5367432e-07 -20.367039
10.679359 -0.97085285 -20.340256
10.68729 -1.9431429 -20.304205
10.718678 -2.9232759 -20.161531
10.758746 -3.9122701 -19.979404
10.816371 -4.9165354 -19.717476
10.882105 -5.9356952 -19.418686
10.974607 -6.983839 -18.998217
11.090368 -8.0657215 -18.472027
11.222563 -9.1820974 -17.871147
11.383146 -10.348315 -17.141224
11.579025 -11.579027 -16.25086
11.86099 -12.93926 -14.969209
12.257676 -14.486347 -13.166088
13.181602 -16.776587 -8.9664202
13.989107 15.154866 -10.594847
13.316402 13.316401 -13.397784
12.912437 11.836402 -15.080965
12.646929 10.539104 -16.187262
12.437814 9.3283596 -17.058571
12.272754 8.1818333 -17.746323
12.15081 7.0879726 -18.254417
12.051579 6.0257878 -18.667885
11.958323 4.9826312 -19.05645
11.897573 3.9658566 -19.309574
11.845788 2.9614477 -19.525345
11.815706 1.9692822 -19.650688
11.793191 0.9827652 -19.744499
11.791355 -9.5367432e-07 -19.752151
11.797694 -0.9831419 -19.725735
11.816031 -1.9693394 -19.64933
11.85426 -2.9635668 -19.490046
11.901532 -3.9671779 -19.293076
11.970554 -4.9877295 -19.005486
12.055981 -6.0279927 -18.64954
12.161677 -7.0943136 -18.209141
12.303995 -8.2026634 -17.61615
12.473649 -9.3552361 -16.909256
12.671702 -10.559749 -16.084038
12.949241 -11.870136 -14.92763
13.377197 -13.377198 -13.144474
14.187635 -15.36994 -9.7676506
15.26635 14.092014 -10.166065
14.48138 12.253471 -13.185183
14.089334 10.837949 -14.693052
13.791074 9.5476656 -15.840206
13.584374 8.3596144 -16.635201
13.418765 7.2254877 -17.272161
13.283031 6.1306291 -17.79422
13.186404 5.0716925 -18.165855
13.100684 4.0309792 -18.495548
13.101299 3.0233769 -18.493183
13.101628 2.0156326 -18.49192
13.101628 1.0078144 -18.49192
13.101628 -3.8146973e-06 -18.491919
13.101587 -1.0078154 -18.492073
13.101545 -2.015624 -18.492237
13.101299 -3.0233774 -18.493183
13.106922 -4.0329008 -18.471556
13.191644 -5.0737095 -18.145704
13.311176 -6.1436219 -17.685963
13.429835 -7.231451 -17.229584
13.60412 -8.371767 -16.559258
13.823838 -9.5703516 -15.714189
14.117718 -10.859784 -14.583882
14.53774 -12.301163 -12.968414
15.419676 -14.233546 -9.5763569
16.795221 13.196244 -8.8998671
15.803692 11.288354 -12.441033
15.327724 9.8535376 -14.140921
15.029888 8.5885077 -15.204627
14.807557 7.4037795 -15.998665
14.626904 6.2686744 -16.64385
14.604289 5.215816 -16.724619
14.604621 4.1727495 -16.723436
14.605141 3.1296725 -16.721577
14.605237 2.086463 -16.721237
14.605237 1.0432301 -16.721237
14.605237 -2.8610229e-06 -16.721237
14.605188 -1.0432301 -16.721409
14.605141 -2.0864477 -16.721577
14.604953 -3.1296339 -16.722252
14.604573 -4.1727347 -16.723604
14.604337 -5.2158356 -16.724449
14.648161 -6.2777853 -16.567936
14.823877 -7.4119396 -15.940376
15.07888 -8.6165028 -15.029653
15.378472 -9.8861589 -13.959679
15.859153 -11.327969 -12.242962
17.325783 10.395467 -11.13019
16.749405 8.933013 -13.051449
16.395178 7.6510835 -14.232206
16.217491 6.4869952 -14.824492
16.217438 5.4058113 -14.824671
16.218582 4.324955 -14.820862
16.217819 3.2435641 -14.823402
16.218309 2.1624389 -14.821765
16.218418 1.0812244 -14.821405
16.218363 -1.9073486e-06 -14.821584
16.218145 -1.0812125 -14.822311
16.218201 -2.1624269 -14.822132
16.218037 -3.2436051 -14.822676
16.21771 -4.3247209 -14.823766
16.217546 -5.4058499 -14.82431
16.217165 -6.4868646 -14.825581
16.452227 -7.6777048 -14.042041
16.833393 -8.977808 -12.771488
17.435102 -10.461061 -10.765789
18.536652 8.1097851 -10.955755
18.00182 6.7506819 -12.62711
17.953865 5.6105795 -12.776967
17.953051 4.4882617 -12.779509
17.952801 3.3661489 -12.780294
17.953239 2.244154 -12.778923
17.953489 1.1220946 -12.778141
17.953428 -1.9073486e-06 -12.778336
17.953051 -1.1220689 -12.779512
17.953176 -2.2441483 -12.779121
17.95299 -3.3661885 -12.779707
17.952801 -4.488204 -12.780293
17.952549 -5.6101732 -12.781076
18.050535 -6.7689528 -12.47487
18.620375 -8.1464138 -10.694128
19.823717 4.664403 -10.57774
19.824005 3.4983521 -10.576895
19.824509 2.3322921 -10.575418
19.82494 1.1661725 -10.57415
19.824436 -1.9073486e-06 -10.575632
19.824652 -1.1661572 -10.574995
19.824436 -2.3322885 -10.575627
19.824221 -3.4983926 -10.576263
19.824005 -4.6644726 -10.5769
