# .PCD v0.7 - Point Cloud Data file format
VERSION 0.7
FIELDS x y z
SIZE 4 4 4
TYPE F F F
COUNT 1 1 1
WIDTH 1057
HEIGHT 1
VIEWPOINT 0 0 0 1 0 0 0
POINTS 1057
DATA ascii
-22.951191 1.2079561 -8.4849291
-23.655287 -2.1457672e-06 -6.6320448
-21.6119 7.2039661 -8.84974
-20.755033 5.7652869 -11.229924
-20.377214 4.5282688 -12.279426
-20.092592 3.3487649 -13.070042
-19.976948 2.2196593 -13.391275
-19.866098 1.1036706 -13.699189
-19.837051 -0 -13.779879
-19.900496 -1.1055818 -13.603643
-19.987286 -2.2208109 -13.36256
-20.149761 -3.3582935 -12.911234
-20.397161 -4.5327024 -12.224019
-20.891111 -5.8030868 -10.851934
-19.871311 9.351202 -10.437765
-19.224318 7.9158936 -12.340683
-18.813007 6.6398845 -13.550421
-18.517429 5.4463034 -14.419767
-18.326752 4.3121758 -14.980587
-18.204605 3.2125773 -15.339834
-18.084137 2.1275449 -15.694153
-18.050308 1.0617838 -15.793652
-18.038883 -9.5367432e-07 -15.827263
-18.043879 -1.0614052 -15.812561
-18.129442 -2.1328759 -15.560909
-18.231115 -3.217258 -15.261866
-18.353556 -4.3184843 -14.901745
-18.53713 -5.4520969 -14.361824
-18.854374 -6.6544862 -13.428761
-19.273825 -7.9362826 -12.195076
-20.084024 -9.4513083 -9.8121338
-19.015978 11.884985 -9.4578667
-18.056866 10.156988 -12.455088
-17.603456 8.8017273 -13.871994
-17.282982 7.5613036 -14.873478
-17.026611 6.3849802 -15.674633
-16.860308 5.2688451 -16.194334
-16.731344 4.1828346 -16.597342
-16.613287 3.1149902 -16.966274
-16.574411 2.0718002 -17.087761
-16.535715 1.0334797 -17.208683
-16.511961 -3.8146973e-06 -17.282917
-16.544163 -1.0340099 -17.182285
-16.587225 -2.0734019 -17.047718
-16.63868 -3.1197529 -16.886923
-16.728846 -4.1822114 -16.605158
-16.89189 -5.2787166 -16.09564
-17.068094 -6.4005384 -15.545003
-17.305809 -7.5712929 -14.802143
-17.63843 -8.8192139 -13.762703
-18.153885 -10.211562 -12.151908
-17.318821 12.700468 -11.153394
-16.622063 11.081374 -13.475922
-16.223976 9.7343874 -14.802872
-15.946367 8.5047283 -15.728239
-15.731487 7.341361 -16.444506
-15.563458 6.2253819 -17.004601
-15.433294 5.1444321 -17.43848
-15.317139 4.084569 -17.825665
-15.255279 3.0510535 -18.031868
-15.204923 2.0273199 -18.199722
-15.159514 1.0106344 -18.351082
-15.15704 -2.8610229e-06 -18.359333
-15.169566 -1.0113058 -18.317581
-15.187558 -2.0250096 -18.257603
-15.252338 -3.0504694 -18.04167
-15.341235 -4.0909972 -17.745348
-15.441342 -5.1471124 -17.411659
-15.572295 -6.2289209 -16.975147
-15.742672 -7.3465819 -16.407227
-15.99328 -8.5297489 -15.571861
-16.26947 -9.7616816 -14.651227
-16.695011 -11.130006 -13.232759
-17.478407 -12.817495 -10.62144
-15.95598 13.676555 -11.897157
-15.372963 12.078758 -13.979355
-14.99168 10.708344 -15.341084
-14.740461 9.4760094 -16.238293
-14.518545 8.2963114 -17.030848
-14.345657 7.1728268 -17.648306
-14.222529 6.0953698 -18.088047
-14.101497 5.0362468 -18.520309
-14.02918 4.0083356 -18.778585
-13.969717 2.9935093 -18.990948
-13.916386 1.9880562 -19.181416
-13.907709 0.9934063 -19.212406
-13.905992 9.5367432e-07 -19.218538
-13.911446 -0.99367714 -19.199066
-13.936057 -1.9908657 -19.11116
-13.980772 -2.9958811 -18.951469
-14.049565 -4.0141606 -18.705778
-14.121739 -5.0434771 -18.448013
-14.228323 -6.0978532 -18.067356
-14.382751 -7.1913776 -17.515827
-14.54343 -8.3105307 -16.941973
-14.753541 -9.4844189 -16.191576
-15.050774 -10.750556 -15.130034
-15.462706 -12.149271 -13.658848
-16.11705 -13.814613 -11.321905
-14.809501 14.809499 -11.923177
-14.212581 13.119306 -14.219022
-13.856482 11.724714 -15.588636
-13.586228 10.450945 -16.628073
-13.395522 9.2738209 -17.361561
-13.224292 8.1380272 -18.020134
-13.09806 7.0528002 -18.505646
-12.983595 5.9924264 -18.945892
-12.901716 4.9621968 -19.260811
-12.835811 3.9494805 -19.514292
-12.780563 2.9493608 -19.726786
-12.745831 1.9608965 -19.860365
-12.729039 0.9791584 -19.92495
-12.717587 -0 -19.969
-12.712718 -0.97790337 -19.987728
-12.746491 -1.9609995 -19.85783
-12.78439 -2.9502449 -19.712065
-12.824912 -3.9461298 -19.556213
-12.907489 -4.9644198 -19.238609
-13.003288 -6.0015182 -18.870152
-13.100561 -7.0541472 -18.496025
-13.2394 -8.1473236 -17.96203
-13.417216 -9.2888403 -17.278118
-13.638044 -10.490804 -16.42878
-13.902666 -11.763798 -15.411005
-14.291473 -13.192129 -13.91559
-14.958127 -14.958126 -11.351541
-13.788227 16.086264 -11.431849
-13.166718 14.263943 -14.021475
-12.771564 12.771564 -15.667948
-12.520398 11.47703 -16.714474
-12.323155 10.269295 -17.53632
-12.136872 9.1026516 -18.312492
-12.016554 8.0110359 -18.81382
-11.90201 6.9428387 -19.29109
-11.807614 5.9038067 -19.684402
-11.74188 4.8924499 -19.958294
-11.680866 3.8936234 -20.212519
-11.639359 2.9098387 -20.385464
-11.618979 1.9364986 -20.470383
-11.598704 0.9665556 -20.554859
-11.588472 -2.8610229e-06 -20.597496
-11.602957 -0.96691513 -20.537148
-11.618979 -1.9364967 -20.470383
-11.651369 -2.9128428 -20.335419
-11.693033 -3.8976798 -20.161829
-11.750062 -4.8958597 -19.924204
-11.831852 -5.9159245 -19.583416
-11.917803 -6.952054 -19.225283
-12.024525 -8.0163498 -18.780615
-12.176441 -9.1323299 -18.147627
-12.33981 -10.283177 -17.466919
-12.543903 -11.498579 -16.616535
-12.831822 -12.831822 -15.416871
-13.231632 -14.33427 -13.750989
-13.879355 -16.192585 -11.052146
-12.851373 17.524597 -10.467468
-12.160453 15.476941 -13.608007
-11.761019 13.899384 -15.423618
-11.479673 12.523279 -16.702461
-11.28553 11.28553 -17.584934
-11.1175 10.106817 -18.348701
-10.986358 8.9888382 -18.944809
-10.87445 7.9086895 -19.45348
-10.776727 6.857914 -19.897675
-10.707072 5.8402205 -20.214287
-10.646214 4.8391867 -20.49091
-10.591049 3.8512897 -20.741661
-10.559206 2.8797817 -20.886406
-10.534947 1.9154434 -20.996674
-10.5108 0.95552635 -21.106434
-10.508492 -1.9073486e-06 -21.11693
-10.519514 -0.95631886 -21.066826
-10.530842 -1.9146996 -21.015331
-10.551055 -2.8775616 -20.923454
-10.601738 -3.8551788 -20.693077
-10.652879 -4.8422194 -20.460621
-10.704547 -5.8388424 -20.225765
-10.785525 -6.8635168 -19.857677
-10.889067 -7.9193201 -19.387037
-10.994649 -8.9956236 -18.907116
-11.13341 -10.121282 -18.276394
-11.307699 -11.307699 -17.484163
-11.530525 -12.578754 -16.471321
-11.790947 -13.934755 -15.287585
-12.205693 -15.534518 -13.402374
-13.153538 -17.936642 -9.0939884
-11.185597 16.778397 -12.954813
-10.770268 15.078375 -15.031454
-10.504741 13.656162 -16.359093
-10.287219 12.34466 -17.446703
-10.114665 11.126129 -18.309473
-9.9705791 9.9705791 -19.0299
-9.8642588 8.8778286 -19.561504
-9.7615433 7.8092341 -20.075081
-9.6941195 6.785882 -20.412197
-9.6321163 5.7792702 -20.722212
-9.5741196 4.7870569 -21.012203
-9.5405712 3.816227 -21.179939
-9.5109377 2.8532801 -21.32811
-9.4868259 1.8973646 -21.448662
-9.4737282 0.94737053 -21.514153
-9.4709406 9.5367432e-07 -21.528091
-9.4767141 -0.94766998 -21.499226
-9.4865751 -1.897316 -21.449924
-9.5112753 -2.853384 -21.326422
-9.5427208 -3.81709 -21.169189
-9.5881243 -4.7940626 -20.942173
-9.6363277 -5.7817979 -20.701159
-9.7028294 -6.7919846 -20.36865
-9.7875195 -7.8300171 -19.945198
-9.8798237 -8.8918428 -19.483677
-9.9859238 -9.9859266 -18.953175
-10.13933 -11.153263 -18.18615
-10.303918 -12.364704 -17.363207
-10.522498 -13.679246 -16.270308
-10.821694 -15.150373 -14.77432
-11.288867 -16.9333 -12.438462
-10.36059 18.418823 -11.323962
-9.8347349 16.391224 -14.245379
-9.5232124 14.813885 -15.976061
-9.2959366 13.427465 -17.238701
-9.1423912 12.189856 -18.091736
-8.9955378 10.994545 -18.907585
-8.8882666 9.8758488 -19.503536
-8.7937908 8.7937889 -20.028404
-8.7131071 7.7449818 -20.476645
-8.6509104 6.7284837 -20.822186
-8.5931625 5.728776 -21.143002
-8.5456762 4.7475967 -21.40682
-8.5149012 3.7844 -21.577789
-8.4848194 2.8282738 -21.744911
-8.4607277 1.8801584 -21.878752
-8.4582577 0.93980598 -21.892479
-8.4558134 -9.5367432e-07 -21.906059
-8.4533443 -0.93926144 -21.919769
-8.4695854 -1.8821306 -21.829548
-8.4941254 -2.8313751 -21.693213
-8.5188332 -3.7861462 -21.555946
-8.5455246 -4.7475138 -21.407658
-8.6002302 -5.7334881 -21.103735
-8.6590834 -6.7348399 -20.776779
-8.7187462 -7.7499971 -20.44532
-8.7987604 -8.7987604 -20.000797
-8.9031849 -9.8924274 -19.420664
-9.0131445 -11.016068 -18.809767
-9.1546135 -12.206152 -18.023832
-9.3279705 -13.473736 -17.060741
-9.5603981 -14.87173 -15.769471
-9.8658886 -16.443148 -14.072302
-10.482186 -18.635 -10.648429
-8.9165878 17.833176 -13.154123
-8.5807495 16.088905 -15.253108
-8.3538656 14.619262 -16.671141
-8.1774445 13.288345 -17.773771
-8.0311279 12.04669 -18.688246
-7.9230499 10.894194 -19.363735
-7.8293729 9.7867146 -19.949219
-7.7463827 8.7146769 -20.467907
-7.6868744 7.686873 -20.839832
-7.629539 6.6758451 -21.198177
-7.5813046 5.685977 -21.499643
-7.5480981 4.7175598 -21.707184
-7.5182977 3.7591476 -21.893436
-7.4919128 2.8094645 -22.058338
-7.4768572 1.8692131 -22.152439
-7.4696331 0.93370342 -22.197586
-7.4666443 -1.9073486e-06 -22.21627
-7.4661026 -0.93326378 -22.219654
-7.4763141 -1.8690777 -22.15583
-7.4978037 -2.811676 -22.021521
-7.5196586 -3.7598305 -21.884926
-7.5482526 -4.717659 -21.706217
-7.5867772 -5.6900845 -21.465437
-7.6378913 -6.6831527 -21.145977
-7.6896982 -7.6896992 -20.822186
-7.7556467 -8.7251024 -20.410009
-7.8434691 -9.8043365 -19.861113
-7.935431 -10.91122 -19.286352
-8.0464134 -12.06962 -18.592712
-8.1978836 -13.321564 -17.646021
-8.3764782 -14.658838 -16.529808
-8.6169071 -16.156702 -15.027127
-8.995595 -17.99119 -12.66033
-8.1324453 19.750221 -10.793905
-7.6639934 17.5177 -14.139988
-7.4082341 15.874785 -15.96684
-7.2231488 14.446299 -17.288872
-7.0902486 13.167603 -18.238165
-6.9688911 11.946669 -19.105007
-6.8803492 10.811977 -19.737446
-6.797596 9.7108517 -20.328537
-6.7324872 8.6560564 -20.7936
-6.6787958 7.6329079 -21.177113
-6.6259532 6.6259522 -21.554558
-6.5917344 5.6500568 -21.798981
-6.5630436 4.6878862 -22.003912
-6.5349245 3.7342434 -22.204763
-6.5173798 2.7931623 -22.33008
-6.5069318 1.8591223 -22.404711
-6.4964991 0.92806911 -22.479233
-6.4926424 -9.5367432e-07 -22.506783
-6.4995165 -0.92850494 -22.457678
-6.5083418 -1.8595247 -22.39464
-6.51721 -2.7930899 -22.331295
-6.5369153 -3.7353811 -22.190544
-6.5681911 -4.6915655 -21.967146
-6.5997682 -5.6569462 -21.7416
-6.6340318 -6.6340332 -21.496855
-6.6849995 -7.639998 -21.132805
-6.7447228 -8.6717854 -20.706207
-6.806674 -9.7238197 -20.263695
-6.8858171 -10.820571 -19.698387
-6.9847722 -11.973896 -18.991566
-7.1009088 -13.187402 -18.162022
-7.2395601 -14.479119 -17.171652
-7.4360619 -15.934417 -15.76807
-7.7071509 -17.616346 -13.831718
-8.2298927 -19.986877 -10.097853
-6.7680731 19.176208 -12.482183
-6.4740992 17.264265 -14.93197
-6.2825627 15.706406 -16.528105
-6.1361432 14.317668 -17.748272
-6.025301 13.054817 -18.671957
-5.9364052 11.872808 -19.412754
-5.8590765 10.74164 -20.057159
-5.7934365 9.6557283 -20.604156
-5.7409363 8.6114025 -21.04166
-5.6950173 7.5933533 -21.424324
-5.6545253 6.5969439 -21.761753
-5.624352 5.6243496 -22.013199
-5.5977588 4.6647959 -22.234806
-5.5718822 3.7145872 -22.450445
-5.5594497 2.7797213 -22.554049
-5.5501657 1.8500566 -22.631416
-5.5409126 0.92348289 -22.708527
-5.5365591 -9.5367432e-07 -22.744804
-5.5443645 -0.92406273 -22.679754
-5.5521922 -1.8507309 -22.614525
-5.5600419 -2.7800207 -22.54911
-5.5752606 -3.7168417 -22.422291
-5.6014285 -4.6678581 -22.204224
-5.6282535 -5.628253 -21.980682
-5.6560655 -6.5987463 -21.748915
-5.6978235 -7.5971003 -21.400936
-5.7480283 -8.6220436 -20.982557
-5.7991085 -9.6651821 -20.55689
-5.862474 -10.747869 -20.028849
-5.9461665 -11.892334 -19.331406
-6.0393591 -13.085279 -18.554804
-6.1526051 -14.356082 -17.611086
-6.3071675 -15.76792 -16.323067
-6.4909 -17.309067 -14.791963
-6.8347673 -19.365173 -11.926403
-5.5584102 18.898594 -13.298693
-5.3439469 17.10063 -15.443327
-5.1920543 15.576162 -16.962252
-5.0838399 14.234752 -18.044397
-4.9863091 12.964403 -19.019705
-4.916893 11.800542 -19.713869
-4.8511662 10.672565 -20.371134
-4.8044972 9.6089935 -20.837826
-4.7611537 8.5700741 -21.271261
-4.7213678 7.5541854 -21.669121
-4.6939054 6.5714664 -21.943745
-4.6675191 5.6010227 -22.207609
-4.6451921 4.6451931 -22.430874
-4.6288633 3.7030916 -22.594162
-4.6157584 2.7694559 -22.725214
-4.6072736 1.842907 -22.810062
-4.6001348 0.92002487 -22.881451
-4.6003451 1.9073486e-06 -22.879341
-4.6009502 -0.92019081 -22.873295
-4.6074185 -1.8429689 -22.808609
-4.6168175 -2.7700939 -22.714622
-4.6314878 -3.7051907 -22.567915
-4.6463594 -4.6463614 -22.419203
-4.6684937 -5.6021919 -22.197859
-4.6970019 -6.5758038 -21.912777
-4.7288046 -7.5660872 -21.594749
-4.7652988 -8.5775366 -21.229807
-4.8095951 -9.6191912 -20.786846
-4.8639679 -10.70073 -20.24312
-4.9263005 -11.823122 -19.619785
-4.9952564 -12.987665 -18.930237
-5.0967216 -14.270821 -17.915579
-5.2055588 -15.616676 -16.827209
-5.3646317 -17.166822 -15.23648
-5.6038418 -19.053061 -12.844378
-4.7261386 21.267624 -9.8060608
-4.3978124 18.690699 -13.910146
-4.2403603 16.961439 -15.878294
-4.1294603 15.485476 -17.264544
-4.0440993 14.154346 -18.331558
-3.9752755 12.919643 -19.191851
-3.9186664 11.756 -19.899466
-3.868768 10.639111 -20.523197
-3.8303201 9.5757971 -21.003796
-3.7944062 8.5374126 -21.452717
-3.7638528 7.5277057 -21.834633
-3.7411771 6.5470581 -22.118082
-3.7197294 5.5795946 -22.386177
-3.7021534 4.6276922 -22.605877
-3.691664 3.6916637 -22.736996
-3.6812444 2.760931 -22.867241
-3.6716371 1.8358173 -22.987329
-3.6697323 0.91743088 -23.011141
-3.6698892 -1.9073486e-06 -23.009178
-3.6700461 -0.91751289 -23.007217
-3.6705382 -1.835268 -23.00107
-3.6819499 -2.7614622 -22.858423
-3.6937616 -3.6937609 -22.710779
-3.7056701 -4.6320877 -22.561918
-3.7200842 -5.5801253 -22.381742
-3.7449973 -6.5537457 -22.070332
-3.7702463 -7.5404925 -21.754715
-3.7958493 -8.5406628 -21.434675
-3.832943 -9.5823574 -20.97101
-3.8759899 -10.658971 -20.432922
-3.9237068 -11.771123 -19.83646
-3.9820757 -12.941744 -19.106852
-4.0534077 -14.186929 -18.2152
-4.1388998 -15.520875 -17.146547
-4.2592869 -17.037148 -15.641711
-4.4257989 -18.809645 -13.56031
-3.4847171 20.9083 -10.804176
-3.2774327 18.572117 -14.258922
-3.162426 16.86627 -16.175697
-3.0841348 15.420674 -17.480549
-3.018471 14.086198 -18.574944
-2.9714913 12.876461 -19.357941
-2.9279389 11.711754 -20.083813
-2.8949289 10.614739 -20.63398
-2.8649147 9.5497131 -21.13422
-2.8381417 8.5144234 -21.580437
-2.8181846 7.5151591 -21.913052
-2.8004868 6.5344696 -22.208012
-2.7837403 5.567481 -22.487125
-2.7712436 4.6187382 -22.695404
-2.7628927 3.6838551 -22.834583
-2.754946 2.7549458 -22.96703
-2.7482018 1.8321333 -23.079433
-2.746146 0.91538239 -23.113693
-2.7464743 -0 -23.108225
-2.7468023 -0.91560078 -23.102757
-2.7497361 -1.8331604 -23.053864
-2.7551897 -2.7551918 -22.962969
-2.7640159 -3.6853561 -22.815865
-2.772907 -4.6215115 -22.667681
-2.7863111 -5.5726233 -22.444279
-2.8014214 -6.5366521 -22.19244
-2.8202593 -7.5206923 -21.878475
-2.8416169 -8.5248528 -21.522516
-2.8682253 -9.5607538 -21.079041
-2.8971093 -10.622734 -20.597639
-2.9315395 -11.726159 -20.023804
-2.9784029 -12.906414 -19.242746
-3.0276053 -14.128824 -18.422709
-3.0916505 -15.458253 -17.355288
-3.1747696 -16.932104 -15.969974
-3.2911184 -18.64967 -14.030824
-3.5354145 -21.21249 -9.9592228
-2.2990885 20.691793 -11.405584
-2.1753845 18.490767 -14.498183
-2.1023273 16.818619 -16.32461
-2.0510187 15.38264 -17.607328
-2.0088034 14.061622 -18.662712
-1.9763532 12.846292 -19.473969
-1.9470996 11.682598 -20.205303
-1.9255416 10.590479 -20.744257
-1.905104 9.5255203 -21.255196
-1.8892233 8.501503 -21.652214
-1.8759587 7.5038338 -21.983826
-1.8634076 6.521925 -22.297604
-1.8533953 5.5601873 -22.547911
-1.8458532 4.6146326 -22.736465
-1.8388606 3.677721 -22.91128
-1.8335855 2.7503786 -23.043156
-1.8308474 1.8308468 -23.111612
-1.8287042 0.91435146 -23.165188
-1.8274063 -1.9073486e-06 -23.197639
-1.8280603 -0.91403198 -23.18129
-1.8313892 -1.8313904 -23.098068
-1.8347249 -2.7520876 -23.014671
-1.8384982 -3.6769962 -22.920341
-1.8459697 -4.6149254 -22.733553
-1.8552918 -5.5658774 -22.5005
-1.8647088 -6.5264812 -22.265078
-1.8752538 -7.5010176 -22.001453
-1.8917831 -8.5130253 -21.588219
-1.9088895 -9.544445 -21.160561
-1.9280795 -10.604437 -20.680807
-1.9504037 -11.702424 -20.122702
-1.9801896 -12.871233 -19.378052
-2.0127103 -14.088974 -18.565037
-2.0557616 -15.418211 -17.488758
-2.1081872 -16.865499 -16.178116
-2.1876655 -18.595156 -14.191157
-2.3259318 -20.933388 -10.734501
-1.1455995 20.620792 -11.602818
-1.0861102 18.463871 -14.577289
-1.0495764 16.793222 -16.403973
-1.0229863 15.344795 -17.73348
-1.003963 14.055483 -18.684645
-0.98719448 12.833526 -19.523075
-0.97372949 11.684753 -20.196321
-0.96243685 10.586805 -20.760954
-0.95177728 9.5177708 -21.293932
-0.94403535 8.496316 -21.681028
-0.93702352 7.4961872 -22.031622
-0.93011242 6.510787 -22.377174
-0.92587125 5.5552254 -22.589237
-0.92210948 4.6105452 -22.777321
-0.91837555 3.6735001 -22.964016
-0.9158535 2.7475595 -23.090118
-0.91478097 1.8295622 -23.143745
-0.91377842 0.91377544 -23.193878
-0.91278833 -0 -23.24338
-0.91336083 -0.91336155 -23.214752
-0.91508532 -1.8301706 -23.128532
-0.91681892 -2.7504597 -23.041851
-0.91863775 -3.6745529 -22.950912
-0.9223209 -4.6116066 -22.766752
-0.92701262 -5.562077 -22.532166
-0.93175513 -6.5222869 -22.295042
-0.93758047 -7.5006433 -22.003777
-0.94495833 -8.5046253 -21.634878
-0.95306545 -9.5306568 -21.229525
-0.96277368 -10.590511 -20.744112
-0.97384143 -11.686098 -20.190723
-0.98802179 -12.844286 -19.481707
-1.0055032 -14.077045 -18.607637
-1.0264382 -15.396575 -17.560883
-1.0531795 -16.850874 -16.223822
-1.0914327 -18.554356 -14.311162
-1.1584824 -20.852684 -10.958677
0 20.647545 -11.528506
0 18.437052 -14.656164
0 16.814171 -16.338512
0 15.348163 -17.722258
0 14.050135 -18.703743
0 12.827076 -19.547892
0 11.68896 -20.178785
0 10.584589 -20.771027
0 9.5264492 -21.250542
0 8.5000324 -21.660389
0 7.4990907 -22.01347
0 6.5177736 -22.327255
0 5.5578184 -22.56765
0 4.6123695 -22.759085
0 3.6747179 -22.948811
0 2.7490616 -23.065086
0 1.8298769 -23.135815
0 0.91394711 -23.18544
0 -1.9073486e-06 -23.213717
0 -0.91393566 -23.185963
0 -1.8299627 -23.133734
0 -2.7501354 -23.047203
0 -3.6778288 -22.909966
0 -4.6141977 -22.740833
0 -5.5599937 -22.549511
0 -6.5212302 -22.302595
0 -7.506834 -21.965096
0 -8.5100241 -21.604893
0 -9.5313034 -21.22628
0 -10.594126 -20.727688
0 -11.694804 -20.154448
0 -12.853994 -19.444366
0 -14.085893 -18.576044
0 -15.39628 -17.561863
0 -16.86075 -16.192955
0 -18.533487 -14.372538
0 -20.841579 -10.989521
1.1530575 20.755032 -11.229923
1.0882919 18.500959 -14.468207
1.0521982 16.835169 -16.272888
1.026219 15.393284 -17.571846
1.0055943 14.078318 -18.603083
0.98839504 12.849134 -19.463043
0.97508955 11.701075 -20.128319
0.96214616 10.583607 -20.775486
0.9535144 9.5351448 -21.207075
0.94530261 8.507719 -21.617668
0.9377498 7.501997 -21.995304
0.93237329 6.5266104 -22.26413
0.92734396 5.5640621 -22.515604
0.92294776 4.6147366 -22.735407
0.9198429 3.6793709 -22.890652
0.91765803 2.7529726 -22.999893
0.91548622 1.8309717 -23.10849
0.91411579 0.914114 -23.177006
0.91440934 -0 -23.162333
0.91496563 -0.91496754 -23.134518
0.91552263 -1.831048 -23.106663
0.91691297 -2.7507381 -23.037151
0.92027688 -3.6811075 -22.86895
0.92370272 -4.6185122 -22.697659
0.9271943 -5.5631666 -22.523081
0.93236518 -6.5265555 -22.26454
0.93912625 -7.5130115 -21.926483
0.94615573 -8.5154037 -21.575008
0.9548468 -9.5484695 -21.140455
0.96518183 -10.617001 -20.623707
0.97574592 -11.708953 -20.095499
0.99054891 -12.877139 -19.35535
1.0074736 -14.104633 -18.509111
1.0285542 -15.428312 -17.455088
1.0562905 -16.90065 -16.068268
1.0935057 -18.589596 -14.207511
1.1664181 -20.995525 -10.561893
2.3423786 21.081404 -10.323336
2.1915464 18.628147 -14.094136
2.1106968 16.885572 -16.115379
2.0588126 15.441093 -17.412479
2.0154836 14.108383 -18.495708
1.983485 12.892651 -19.295673
1.9552085 11.731253 -20.002581
1.9309021 10.619963 -20.610241
1.9116676 9.5583391 -21.091106
1.8942384 8.5240726 -21.526836
1.878406 7.5136242 -21.922647
1.8679341 6.5377684 -22.184444
1.857664 5.5729914 -22.441196
1.8475009 4.6187515 -22.695274
1.8426404 3.6852789 -22.816788
1.8384196 2.7576303 -22.922308
1.8342177 1.8342171 -23.027349
1.8312172 0.91560745 -23.102365
1.8318062 9.5367432e-07 -23.087643
1.8330894 -0.91654491 -23.055561
1.8343745 -1.8343754 -23.023432
1.8380781 -2.7571201 -22.930843
1.8437382 -3.687479 -22.789337
1.8506883 -4.6267223 -22.615589
1.8586296 -5.5758872 -22.417057
1.8697952 -6.5442848 -22.137917
1.8816624 -7.5266523 -21.841236
1.8936867 -8.5215893 -21.54063
1.9138844 -9.5694237 -21.035686
1.9347212 -10.640966 -20.514765
1.9569147 -11.741489 -19.95993
1.9869014 -12.91486 -19.210262
2.0199554 -14.13969 -18.383909
2.0642138 -15.481602 -17.277456
2.1177804 -16.942244 -15.938286
2.2010868 -18.709238 -13.85563
2.3749099 -21.374189 -9.5100517
3.623709 21.742252 -8.487649
3.3133004 18.775366 -13.661125
3.1883571 17.004568 -15.743512
3.104754 15.52377 -17.136898
3.0347426 14.162133 -18.303749
2.9853377 12.936462 -19.127169
2.9403872 11.761549 -19.876339
2.9068699 10.658522 -20.434963
2.8760946 9.5869808 -20.947886
2.8495674 8.5487003 -21.390005
2.8283641 7.5423036 -21.743393
2.8098681 6.5563555 -22.051662
2.7943754 5.588748 -22.309872
2.7813184 4.6355286 -22.527493
2.7712119 3.6949482 -22.695934
2.7642217 2.7642193 -22.812435
2.7578969 1.8385963 -22.917845
2.7558973 0.91863155 -22.951172
2.7543724 -1.9073486e-06 -22.976595
2.7552445 -0.91841888 -22.962053
2.7586298 -1.8390884 -22.905632
2.7654567 -2.7654581 -22.791847
2.7723098 -3.696413 -22.677631
2.7809739 -4.6349573 -22.533232
2.7962449 -5.5924907 -22.278713
2.8128641 -6.5633502 -22.001724
2.8306694 -7.5484509 -21.704971
2.8529778 -8.5589352 -21.333164
2.8789763 -9.5965862 -20.899858
2.9088757 -10.665878 -20.401535
2.94765 -11.790602 -19.755301
2.9912109 -12.961913 -19.029284
3.0448592 -14.209342 -18.135145
3.1131532 -15.565766 -16.996906
3.1999071 -17.066174 -15.55101
3.3252141 -18.84288 -13.462566
4.4807487 19.04318 -12.873441
4.2844348 17.137737 -15.327363
4.1649723 15.618647 -16.820641
4.0754924 14.264222 -17.939138
4.0031891 13.010362 -18.842934
3.9391956 11.817585 -19.642853
3.8920448 10.703121 -20.232237
3.8486195 9.6215458 -20.775055
3.8122053 8.5774593 -21.230232
3.7856021 7.5712047 -21.562769
3.7593682 6.5788937 -21.890694
3.7363994 5.604598 -22.177803
3.7222462 4.6528053 -22.354717
3.7086704 3.7086706 -22.524418
3.6951821 2.7713842 -22.69302
3.6887445 1.8443718 -22.773491
3.6866951 0.92167187 -22.799107
3.6846585 -0 -22.824568
3.6829295 -0.9207325 -22.84618
3.6900239 -1.8450146 -22.7575
3.6996105 -2.7747107 -22.637661
3.7092369 -3.709239 -22.517338
3.7218482 -4.6523123 -22.359694
3.7403836 -5.6105752 -22.128002
3.7617631 -6.5830846 -21.86076
3.7864039 -7.5728078 -21.552746
3.8207479 -8.5966835 -21.123449
3.8559396 -9.6398497 -20.683554
3.8949888 -10.711218 -20.195438
3.9488261 -11.84648 -19.522469
4.0050197 -13.016315 -18.820047
4.084156 -14.294546 -17.830849
4.1735606 -15.650852 -16.713289
4.3063493 -17.225395 -15.053434
4.4993382 -19.122189 -12.641068
5.7097864 19.413271 -11.784932
5.4259729 17.363113 -14.623065
5.2523532 15.757062 -16.359262
5.1313734 14.367842 -17.569065
5.0339961 13.088388 -18.542839
4.9582539 11.899808 -19.300261
4.8939085 10.766599 -19.94371
4.8384609 9.6769199 -20.498186
4.7913499 8.6244297 -20.969292
4.7551737 7.6082745 -21.331059
4.7213264 6.6098557 -21.669537
4.6917291 5.6300764 -21.965502
4.6730084 4.6730099 -22.152714
4.6562414 3.7249928 -22.320385
4.6395941 2.7837534 -22.486858
4.6309814 1.8523922 -22.572981
4.6278119 0.92556 -22.604681
4.6257229 -9.5367432e-07 -22.625566
4.6268668 -0.92537498 -22.614126
4.6332216 -1.8532887 -22.550583
4.6430879 -2.7858515 -22.451918
4.655231 -3.7241859 -22.330486
4.6767979 -4.6767998 -22.11482
4.699924 -5.6399088 -21.883556
4.7236962 -6.6131749 -21.645838
4.7563405 -7.6101432 -21.319393
4.7985511 -8.637393 -20.897284
4.8431792 -9.6863594 -20.451
4.9012127 -10.78267 -19.87067
4.9671159 -11.921078 -19.211641
5.0460248 -13.119665 -18.42255
5.1463895 -14.40989 -17.418901
5.2705717 -15.811717 -16.177078
5.439877 -17.407606 -14.484025
5.7485423 -19.545048 -11.397369
7.1028204 20.124653 -9.6926317
6.6114445 17.630518 -13.787423
6.3758512 15.939624 -15.750707
6.2195477 14.512278 -17.053226
6.0908704 13.196886 -18.125542
5.9918518 11.983702 -18.950697
5.9121943 10.839022 -19.61451
5.8405566 9.7342615 -20.211491
5.7886257 8.6829376 -20.644249
5.7377977 7.6503973 -21.067816
5.6967306 6.6461844 -21.410038
5.6659236 5.6659231 -21.666765
5.6371264 4.6976061 -21.906744
5.6145887 3.7430573 -22.094557
5.5988789 2.7994385 -22.225475
5.5890903 1.8630285 -22.307041
5.5793362 0.92989063 -22.388325
5.575068 -1.9073486e-06 -22.423899
5.5819011 -0.93031597 -22.366955
5.5896082 -1.8632011 -22.302727
5.5973368 -2.7986698 -22.238319
5.6147027 -3.7431383 -22.093603
5.64187 -4.7015572 -21.867216
5.6695337 -5.6695323 -21.636683
5.7021475 -6.6525064 -21.364899
5.7465744 -7.6621008 -20.994677
5.7916989 -8.6875505 -20.618639
5.8468881 -9.744812 -20.15873
5.920969 -10.855112 -19.541388
5.9983292 -11.99666 -18.896717
6.1081147 -13.234249 -17.981842
6.2276721 -14.531237 -16.985527
6.4021692 -16.005424 -15.531384
6.6346607 -17.692429 -13.593952
7.8976078 18.051674 -12.471311
7.5480795 16.174452 -14.967945
7.3441133 14.688225 -16.424845
7.1806936 13.335572 -17.592127
7.0600286 12.102909 -18.454018
6.9581499 10.934233 -19.181726
6.8675127 9.8107319 -19.829134
6.8028302 8.7464962 -20.291151
6.7406459 7.7035947 -20.735329
6.6872215 6.6872191 -21.116928
6.6531534 5.7027025 -21.360268
6.6194119 4.7281504 -21.60128
6.58603 3.763443 -21.839725
6.571506 2.8163586 -21.943466
6.5606546 1.8744726 -22.020977
6.5498395 0.93569088 -22.098232
6.5446444 9.5367432e-07 -22.135332
6.551744 -0.93596458 -22.084625
6.5617824 -1.8747978 -22.012924
6.572196 -2.8166561 -21.93854
6.5976028 -3.7700577 -21.757059
6.6232071 -4.7308626 -21.574175
6.6495204 -5.6995902 -21.386217
6.698576 -6.6985755 -21.03583
6.7523236 -7.7169414 -20.651913
6.8069415 -8.7517834 -20.261784
6.8833346 -9.833333 -19.716122
6.9688911 -10.951114 -19.105003
7.0719752 -12.123386 -18.36869
7.2017441 -13.374668 -17.441771
7.3564157 -14.712834 -16.336966
7.5796466 -16.2421 -14.742464
7.9351912 -18.137577 -12.202862
9.3979006 18.795801 -10.145918
8.8085938 16.516111 -13.829084
8.527236 14.92266 -15.587575
8.3070726 13.498992 -16.963593
8.1601048 12.240153 -17.882141
8.0295496 11.04063 -18.698109
7.9313731 9.9142151 -19.311714
7.8434453 8.8238735 -19.861265
7.7711205 7.7711186 -20.313295
7.7124338 6.7483788 -20.680088
7.6627836 5.7470884 -20.990398
7.6236424 4.7647743 -21.235029
7.5908484 3.7954245 -21.439995
7.567555 2.8378334 -21.585579
7.5503998 1.887599 -21.692795
7.5378656 0.94223118 -21.771133
7.539433 -0 -21.761341
7.5416417 -0.94270706 -21.747536
7.5481424 -1.8870373 -21.706907
7.5698247 -2.838685 -21.571394
7.5993848 -3.7996931 -21.386637
7.6292677 -4.7682953 -21.199871
7.6674838 -5.7506127 -20.961021
7.7194405 -6.7545114 -20.636295
7.7746868 -7.7746878 -20.291004
7.8511229 -8.8325138 -19.813278
7.9414039 -9.9267569 -19.249023
8.0408592 -11.056185 -18.627422
8.1784573 -12.267687 -17.767439
8.3304567 -13.536992 -16.817442
8.5380373 -14.941566 -15.520064
8.8592424 -16.611082 -13.512529
10.219667 17.03278 -12.106869
9.7775326 15.209493 -14.563171
9.5113602 13.738629 -16.041908
9.3113871 12.41518 -17.152866
9.1414671 11.172903 -18.096867
9.0220728 10.024527 -18.760166
8.9150229 8.9150219 -19.354893
8.8218603 7.8416529 -19.872461
8.7607298 6.8139005 -20.212078
8.7004395 5.800293 -20.547018
8.6435528 4.8019724 -20.863056
8.6141701 3.8285208 -21.026295
8.5875072 2.8625002 -21.174427
8.5610075 1.9024467 -21.32164
8.5486774 0.94985199 -21.390148
8.5526905 -2.8610229e-06 -21.367847
8.5567083 -0.95074749 -21.345528
8.5629826 -1.9028864 -21.310673
8.5877619 -2.862587 -21.173014
8.6175022 -3.8300009 -21.007786
8.65166 -4.8064804 -20.81802
8.7091513 -5.8061023 -20.498623
8.7704124 -6.8214316 -20.158283
8.8361511 -7.8543549 -19.793068
8.9325361 -8.9325371 -19.257597
9.0340042 -10.037783 -18.693884
9.158927 -11.194244 -17.99987
9.3187265 -12.424971 -17.112087
9.5259686 -13.759734 -15.96075
9.8093548 -15.258998 -14.386381
10.27335 -17.12225 -11.808626
11.178642 15.650099 -12.989586
10.784235 14.019506 -14.961619
10.517443 12.62093 -16.295584
10.318288 11.350116 -17.291353
10.165335 10.165338 -18.056122
10.035748 9.0321693 -18.704056
9.9286842 7.9429483 -19.239378
9.8433208 6.8903217 -19.666195
9.7746181 5.8647704 -20.009706
9.7133131 4.856657 -20.316229
9.6683455 3.8673391 -20.541065
9.6386366 2.8915911 -20.689613
9.609539 1.9219084 -20.835098
9.6004524 0.96004391 -20.880535
9.5932693 -0 -20.916449
9.5978174 -0.95978165 -20.893707
9.6175518 -1.9235086 -20.795036
9.6456566 -2.8936977 -20.654514
9.6747694 -3.8699064 -20.508949
9.7185936 -4.8592992 -20.289829
9.7780628 -5.8668394 -19.992481
9.8482294 -6.8937621 -19.641647
9.9429169 -7.9543343 -19.168213
10.050604 -9.0455446 -18.629776
10.172307 -10.17231 -18.021257
10.329084 -11.361994 -17.237373
10.53714 -12.644569 -16.197096
10.807377 -14.04959 -14.84591
11.226646 -15.717305 -12.749569
12.976728 16.515837 -9.8976631
12.207671 14.427246 -13.393383
11.834937 12.910841 -15.087623
11.565785 11.565784 -16.311045
11.370094 10.336449 -17.200552
11.191024 9.156292 -18.014507
11.076316 8.0555019 -18.535908
10.974234 6.9836006 -18.999918
10.876655 5.9327197 -19.443455
10.818321 4.917417 -19.708611
10.767613 3.9154968 -19.939095
10.717348 2.9229126 -20.167578
10.69055 1.9437361 -20.289389
10.681518 0.97104454 -20.330444
10.674239 -0 -20.363525
10.672019 -0.97018623 -20.373619
10.697301 -1.9449682 -20.258701
10.730114 -2.9263954 -20.10955
10.765519 -3.9147348 -19.94862
10.830269 -4.9228506 -19.654303
10.897614 -5.9441543 -19.348185
10.973825 -6.983345 -19.001772
11.085785 -8.0623894 -18.492867
11.212042 -9.1734915 -17.91897
11.379194 -10.344721 -17.159184
11.582321 -11.58232 -16.23588
11.85396 -12.931591 -15.001162
12.244829 -14.471163 -13.224484
13.104216 -16.678093 -9.3181877
13.995241 15.16151 -10.56929
13.321411 13.321411 -13.376919
12.9235 11.846541 -15.034876
12.659863 10.549885 -16.133366
12.449763 9.3373222 -17.008781
12.294868 8.1965761 -17.654179
12.165854 7.0967464 -18.191738
12.05455 6.0272746 -18.655499
11.974192 4.9892459 -18.99033
11.913392 3.9711285 -19.243666
11.857718 2.9644299 -19.475639
11.82935 1.9715586 -19.593834
11.807506 0.98395729 -19.684856
11.799353 -1.9073486e-06 -19.718828
11.813357 -0.98444748 -19.660475
11.836602 -1.9727669 -19.563622
11.861614 -2.9654045 -19.459398
11.911775 -3.9705911 -19.250404
11.983221 -4.9930086 -18.952707
12.06159 -6.0307984 -18.626165
12.162674 -7.094892 -18.204988
12.297491 -8.198328 -17.643248
12.463223 -9.3474178 -16.952702
12.671287 -10.559405 -16.085772
12.953366 -11.87392 -14.910439
13.340278 -13.340279 -13.298308
14.129189 -15.306619 -10.01118
15.264457 14.090268 -10.173346
14.50171 12.270678 -13.106989
14.101586 10.84737 -14.645929
13.807687 9.5591679 -15.776306
13.606155 8.3730164 -16.551434
13.428585 7.2307768 -17.234392
13.292484 6.1349907 -17.757856
13.201675 5.0775661 -18.107126
13.112469 4.0346079 -18.450226
13.048263 3.0111375 -18.697166
13.021783 2.0033512 -18.799015
12.995452 0.99964809 -18.900288
12.978037 1.9073486e-06 -18.96727
12.995008 -0.99961853 -18.901995
13.024176 -2.0037212 -18.789816
13.062115 -3.0143318 -18.643896
13.133213 -4.040988 -18.370436
13.210721 -5.0810494 -18.07233
13.303939 -6.1402812 -17.713799
13.437513 -7.2355857 -17.200052
13.609917 -8.3753338 -16.536959
13.822513 -9.5694323 -15.719284
14.123293 -10.864073 -14.562441
14.541985 -12.304755 -12.952093
15.405992 -14.220912 -9.6289854
16.883078 13.265274 -8.5860939
15.827843 11.305603 -12.354786
15.346258 9.8654509 -14.074728
15.059125 8.6052151 -15.10021
14.815786 7.4078941 -15.969275
14.661365 6.2834406 -16.520781
14.520324 5.1858292 -17.024498
14.414639 4.1184683 -17.401943
14.350135 3.0750275 -17.632317
14.294272 2.0420375 -17.831821
14.255017 1.0182152 -17.972019
14.257814 9.5367432e-07 -17.962029
14.274076 -1.019577 -17.903955
14.29373 -2.0419602 -17.833763
14.353427 -3.0757337 -17.620558
14.425207 -4.1214871 -17.364197
14.514477 -5.1837425 -17.04538
14.665374 -6.285161 -16.506462
14.828122 -7.4140587 -15.925216
15.073432 -8.61339 -15.04911
15.373069 -9.8826885 -13.978984
15.855581 -11.325417 -12.255719
17.432142 10.459284 -10.775652
16.794271 8.9569464 -12.901887
16.419212 7.6622963 -14.152092
16.184 6.473598 -14.93613
15.998103 5.3326993 -15.555784
15.848936 4.2263827 -16.053011
15.751044 3.1502075 -16.379314
15.691041 2.0921383 -16.57933
15.644917 1.0429921 -16.733074
15.642484 1.9073486e-06 -16.741184
15.640102 -1.0426736 -16.749121
15.675959 -2.090126 -16.629601
15.76967 -3.1539359 -16.317226
15.864562 -4.2305493 -16.000925
16.01833 -5.3394437 -15.488366
16.210957 -6.484386 -14.846275
16.439451 -7.6717453 -14.084623
16.819082 -8.9701757 -12.819192
17.437054 -10.462234 -10.759284
18.513859 8.0998116 -11.026988
18.073217 6.7774563 -12.403992
17.742662 5.544579 -13.436974
17.517698 4.3794212 -14.139992
17.380402 3.2588239 -14.56904
17.269186 2.1586466 -14.91659
17.217966 1.0761247 -15.076653
17.196346 -0 -15.144214
17.203701 -1.0752311 -15.121235
17.282864 -2.1603584 -14.873842
17.392672 -3.2611246 -14.530695
17.544437 -4.3861113 -14.056429
17.78507 -5.5578365 -13.304451
18.094112 -6.7852907 -12.338698
18.680496 -8.172718 -10.506248
19.866405 4.674448 -10.452194
19.486012 3.4387054 -11.570992
19.281298 2.2683883 -12.173098
19.204008 1.1296496 -12.400423
19.127335 -2.8610229e-06 -12.625929
19.172781 -1.1278119 -12.492266
19.325226 -2.2735567 -12.043894
19.490108 -3.4394293 -11.558949
19.939533 -4.6916552 -10.23711
