# .PCD v0.7 - Point Cloud Data file format
VERSION 0.7
FIELDS x y z
SIZE 4 4 4
TYPE F F F
COUNT 1 1 1
WIDTH 1058
HEIGHT 1
VIEWPOINT 0 0 0 1 0 0 0
POINTS 1058
DATA ascii
-22.85289 9.5367432e-07 -8.7436161
-21.883444 7.294477 -8.095458
-20.782734 5.7729797 -11.152979
-20.362459 4.5249901 -12.320411
-20.138554 3.3564243 -12.942368
-19.974743 2.219418 -13.397401
-19.855408 1.1030765 -13.728882
-19.862352 1.4305115e-06 -13.709595
-19.893114 -1.1051731 -13.624146
-19.977636 -2.2197375 -13.389363
-20.128967 -3.3548274 -12.968997
-20.388044 -4.5306807 -12.249342
-20.80991 -5.7805328 -11.07749
-19.9216 9.3748684 -10.289857
-19.19067 7.9020395 -12.439651
-18.813334 6.6399984 -13.549465
-18.537445 5.4521894 -14.360899
-18.348757 4.3173542 -14.915867
-18.186815 3.2094359 -15.392164
-18.114256 2.1310859 -15.605576
-18.059902 1.0623484 -15.76544
-18.015121 -0 -15.897141
-18.06366 -1.0625706 -15.75439
-18.132265 -2.1332092 -15.5526
-18.20285 -3.2122693 -15.345001
-18.352819 -4.3183136 -14.903918
-18.533049 -5.4508986 -14.373831
-18.835484 -6.6478181 -13.484314
-19.217093 -7.9129219 -12.361934
-19.996014 -9.4098873 -10.070994
-19.090357 11.93147 -9.2254372
-18.084072 10.172288 -12.370074
-17.586983 8.7934885 -13.923475
-17.254892 7.5490174 -14.961256
-17.041037 6.3903899 -15.629551
-16.852583 5.2664304 -16.218475
-16.719122 4.17978 -16.635542
-16.634863 3.1190357 -16.898849
-16.551397 2.068923 -17.159685
-16.522556 1.0326586 -17.249804
-16.528128 -9.5367432e-07 -17.232403
-16.533699 -1.0333571 -17.214987
-16.54661 -2.0683289 -17.174644
-16.648472 -3.1215897 -16.856327
-16.754156 -4.188539 -16.526062
-16.877161 -5.2741151 -16.141666
-17.071432 -6.4017887 -15.534568
-17.29674 -7.5673256 -14.830485
-17.648344 -8.824173 -13.731721
-18.156126 -10.212818 -12.144904
-19.31637 -12.072731 -8.5191393
-17.317577 12.699554 -11.157538
-16.664753 11.109833 -13.333616
-16.253147 9.7518873 -14.705641
-15.941627 8.5021973 -15.744039
-15.737591 7.3442097 -16.42416
-15.55764 6.2230544 -17.023994
-15.425947 5.1419816 -17.462975
-15.326623 4.0870991 -17.794056
-15.241022 3.0482044 -18.079388
-15.199944 2.0266571 -18.21632
-15.171854 1.0114574 -18.309952
-15.143821 -9.5367432e-07 -18.403397
-15.155469 -1.0103674 -18.364567
-15.183354 -2.0244484 -18.271614
-15.243862 -3.0487752 -18.069925
-15.319133 -4.0851035 -17.819019
-15.430038 -5.1433454 -17.449331
-15.5734 -6.2293601 -16.971464
-15.753152 -7.3514729 -16.372292
-15.984436 -8.5250311 -15.601341
-16.286982 -9.7721901 -14.59286
-16.710154 -11.1401 -13.182286
-17.425472 -12.778685 -10.797888
-15.984849 13.701295 -11.79405
-15.383933 12.087378 -13.940177
-15.01046 10.721755 -15.274013
-14.734725 9.4723244 -16.25878
-14.526877 8.301075 -17.001089
-14.358916 7.1794553 -17.600956
-14.216696 6.0928693 -18.108885
-14.121341 5.0433373 -18.449436
-14.033155 4.0094709 -18.764385
-13.97093 2.9937687 -18.986616
-13.931361 1.9901953 -19.127935
-13.907666 0.99340343 -19.212561
-13.891671 -0 -19.269682
-13.896427 -0.99260235 -19.252701
-13.925891 -1.9894152 -19.147465
-13.967337 -2.9930015 -18.999454
-14.03403 -4.009726 -18.761263
-14.118199 -5.0422168 -18.460655
-14.236775 -6.1014743 -18.03717
-14.376142 -7.1880732 -17.539431
-14.526737 -8.3009958 -17.001591
-14.753156 -9.4841719 -16.192957
-15.027281 -10.733772 -15.213941
-15.412667 -12.109955 -13.837554
-16.105183 -13.804442 -11.36429
-14.826506 14.826502 -11.857777
-14.254272 13.15779 -14.058667
-13.867505 11.734041 -15.54624
-13.60443 10.464944 -16.558067
-13.390035 9.2700214 -17.382664
-13.229645 8.1413202 -17.999546
-13.082496 7.0444193 -18.565506
-12.986417 5.9937305 -18.935041
-12.891698 4.958344 -19.299339
-12.82444 3.945981 -19.558029
-12.782476 2.9498005 -19.719427
-12.74261 1.9604006 -19.872761
-12.708355 0.97756195 -20.004511
-12.710052 -0 -19.997974
-12.713606 -0.97797394 -19.98431
-12.740592 -1.9600906 -19.88052
-12.772447 -2.9474897 -19.757999
-12.82971 -3.9476047 -19.53776
-12.891976 -4.9584527 -19.298275
-12.986698 -5.9938631 -18.933956
-13.090395 -7.048677 -18.535122
-13.230397 -8.1417847 -17.996653
-13.407285 -9.2819672 -17.31632
-13.63138 -10.485676 -16.454414
-13.907795 -11.768136 -15.391275
-14.291376 -13.192039 -13.915965
-14.907493 -14.907495 -11.546286
-13.770037 16.065041 -11.507645
-13.141135 14.236229 -14.128067
-12.781837 12.781834 -15.625149
-12.530838 11.4866 -16.670971
-12.307171 10.255975 -17.602917
-12.157237 9.1179276 -18.227642
-12.013601 8.0090675 -18.826122
-11.905165 6.9446793 -19.277941
-11.820444 5.9102225 -19.630945
-11.737028 4.8904285 -19.978512
-11.686628 3.8955421 -20.188515
-11.644589 2.9111452 -20.363678
-11.609793 1.9349642 -20.508659
-11.589064 0.96575642 -20.595032
-11.582286 -0 -20.62327
-11.586873 -0.96557617 -20.604158
-11.605745 -1.9342909 -20.525524
-11.636695 -2.909174 -20.396566
-11.682845 -3.8942838 -20.204273
-11.73949 -4.8914557 -19.968256
-11.813935 -5.9069676 -19.658068
-11.903294 -6.9435911 -19.28574
-12.022802 -8.0152016 -18.787788
-12.15674 -9.1175518 -18.229715
-12.325555 -10.271297 -17.526325
-12.54093 -11.495852 -16.628925
-12.809478 -12.809478 -15.509974
-13.196141 -14.295819 -13.898874
-13.889688 -16.204638 -11.009092
-12.938076 17.642832 -10.073359
-12.155944 15.471198 -13.628507
-11.777179 13.918482 -15.350167
-11.498017 12.54329 -16.61908
-11.287473 11.287473 -17.576099
-11.120784 10.1098 -18.333778
-10.985471 8.9881115 -18.948835
-10.867139 7.9033742 -19.486712
-10.781584 6.8610072 -19.875595
-10.699532 5.8361077 -20.248562
-10.640775 4.8367147 -20.515636
-10.59574 3.852994 -20.720339
-10.552911 2.8780661 -20.91502
-10.524736 1.9135876 -21.043083
-10.513141 0.95574093 -21.095791
-10.50528 -9.5367432e-07 -21.131527
-10.513297 -0.95575619 -21.095083
-10.52527 -1.9136839 -21.040665
-10.554483 -2.8784952 -20.907871
-10.589085 -3.8505793 -20.750589
-10.641798 -4.8371825 -20.510983
-10.701182 -5.8370104 -20.241062
-10.7806 -6.8603802 -19.880074
-10.875017 -7.9091029 -19.450897
-10.985437 -8.9880867 -18.948992
-11.123579 -10.112346 -18.321074
-11.295576 -11.295578 -17.539267
-11.504557 -12.550426 -16.589355
-11.78 -13.921817 -15.337343
-12.209524 -15.539395 -13.38496
-13.060944 -17.810375 -9.5148716
-11.207801 16.811699 -12.843793
-10.771639 15.080291 -15.024607
-10.479837 13.623789 -16.483608
-10.283569 12.340284 -17.464945
-10.103614 11.113976 -18.364725
-9.980134 9.9801321 -18.98213
-9.860239 8.8742142 -19.581602
-9.7707605 7.8166046 -20.028997
-9.6960773 6.7872539 -20.402412
-9.6230154 5.773809 -20.767717
-9.5768833 4.7884398 -20.998384
-9.5398359 3.8159342 -21.183617
-9.503046 2.850913 -21.367567
-9.4883089 1.8976612 -21.441254
-9.4742308 0.94742298 -21.511642
-9.4601946 -9.5367432e-07 -21.581823
-9.4666224 -0.9466629 -21.549683
-9.4801474 -1.8960295 -21.482059
-9.5043373 -2.8513002 -21.361111
-9.5347481 -3.8139009 -21.209053
-9.5793629 -4.7896795 -20.985981
-9.6300697 -5.7780414 -20.732443
-9.697216 -6.788054 -20.396713
-9.7744398 -7.8195539 -20.010597
-9.8673134 -8.8805828 -19.54623
-9.9863577 -9.9863567 -18.951006
-10.124496 -11.136946 -18.260311
-10.293241 -12.35189 -17.416597
-10.508136 -13.66058 -16.342113
-10.809228 -15.132919 -14.836656
-11.284553 -16.92683 -12.460033
-10.385294 18.462746 -11.18672
-9.8320971 16.386827 -14.260034
-9.5364761 14.834514 -15.902379
-9.3099804 13.447749 -17.160681
-9.1432276 12.190968 -18.087088
-9.001997 11.002439 -18.871706
-8.8920059 9.880003 -19.482769
-8.7891483 8.7891464 -20.054199
-8.7168837 7.7483411 -20.455666
-8.6489992 6.7269988 -20.832804
-8.5930099 5.728673 -21.14385
-8.551075 4.750596 -21.376825
-8.509572 3.7820301 -21.607395
-8.4820366 2.8273449 -21.760374
-8.471096 1.8824644 -21.821152
-8.4601603 0.94001675 -21.881907
-8.4521112 -1.9073486e-06 -21.92662
-8.4600859 -0.94001102 -21.882322
-8.4680996 -1.8817987 -21.837799
-8.4836264 -2.8278761 -21.751537
-8.5120487 -3.7831326 -21.593639
-8.5454741 -4.7474856 -21.40794
-8.5919905 -5.7279963 -21.149517
-8.6491022 -6.7270794 -20.832228
-8.7228422 -7.7536378 -20.42256
-8.7990274 -8.7990265 -19.999313
-8.8915682 -9.8795223 -19.485193
-9.0040674 -11.004972 -18.860201
-9.1450176 -12.193357 -18.077145
-9.320137 -13.462419 -17.104261
-9.5578117 -14.867705 -15.783844
-9.8646126 -16.441019 -14.079399
-10.446347 -18.571285 -10.847536
-8.9177618 17.835522 -13.146789
-8.5774622 16.082741 -15.273655
-8.3492594 14.611202 -16.699924
-8.1760159 13.286024 -17.782698
-8.0302763 12.045412 -18.693571
-7.9222941 10.893152 -19.36846
-7.8260646 9.7825804 -19.969891
-7.7460561 8.7143116 -20.469944
-7.6829286 7.6829281 -20.864491
-7.620822 6.6682196 -21.252659
-7.5805225 5.6853914 -21.504528
-7.5468144 4.7167559 -21.715208
-7.5134048 3.7567024 -21.924015
-7.4928722 2.8098269 -22.052345
-7.4765096 1.8691254 -22.15461
-7.4635487 0.93294239 -22.235615
-7.4632893 9.5367432e-07 -22.23724
-7.4703922 -0.9338007 -22.192846
-7.478529 -1.8696337 -22.141989
-7.4887314 -2.8082733 -22.078226
-7.5143037 -3.7571516 -21.9184
-7.5434313 -4.7146425 -21.736349
-7.5829787 -5.6872349 -21.489176
-7.632525 -6.6784596 -21.179516
-7.6922255 -7.6922259 -20.806387
-7.7548518 -8.7242069 -20.41497
-7.8322072 -9.7902613 -19.931503
-7.9265623 -10.899027 -19.34178
-8.0431204 -12.064684 -18.613291
-8.1862068 -13.302585 -17.719009
-8.3678751 -14.643785 -16.583578
-8.5978003 -16.120874 -15.14655
-8.9738665 -17.947733 -12.79613
-8.1366749 19.760494 -10.763695
-7.6670446 17.524673 -14.118189
-7.4079175 15.874107 -15.969101
-7.2202091 14.440414 -17.309875
-7.0892444 13.165738 -18.245338
-6.9676843 11.944599 -19.113625
-6.881947 10.814486 -19.726036
-6.7989917 9.7128458 -20.318573
-6.7352452 8.6595993 -20.773903
-6.6813707 7.6358514 -21.158718
-6.6291714 6.6291723 -21.531574
-6.5940499 5.6520414 -21.782444
-6.5609984 4.6864271 -22.01852
-6.533124 3.7332134 -22.217625
-6.5189075 2.7938166 -22.319168
-6.5056729 1.8587637 -22.413704
-6.4934654 0.92763901 -22.5009
-6.493166 -9.5367432e-07 -22.503036
-6.497736 -0.92825031 -22.470398
-6.5047717 -1.8585072 -22.420147
-6.516418 -2.7927513 -22.336948
-6.5342798 -3.7338762 -22.209366
-6.5604448 -4.6860313 -22.022478
-6.5933738 -5.651463 -21.787268
-6.6379805 -6.6379814 -21.468649
-6.6831741 -7.6379137 -21.145838
-6.7371588 -8.6620598 -20.760237
-6.8045154 -9.7207375 -20.279112
-6.8850384 -10.819348 -19.703949
-6.9762712 -11.959324 -19.052282
-7.0903821 -13.167853 -18.237209
-7.2518883 -14.503778 -17.083593
-7.4211197 -15.902399 -15.874799
-7.6850128 -17.565746 -13.989843
-8.2193832 -19.961359 -10.172918
-6.7883453 19.233643 -12.313251
-6.4798346 17.279556 -14.884177
-6.2888446 15.722114 -16.475756
-6.1388159 14.323901 -17.726
-6.0299478 13.064886 -18.633228
-5.9341607 11.868322 -19.431454
-5.8611927 10.745519 -20.039526
-5.7907782 9.6512957 -20.62631
-5.7415848 8.6123753 -21.036257
-5.6942945 7.5923905 -21.43034
-5.6536145 6.5958829 -21.769341
-5.6238112 5.6238108 -22.0177
-5.5949364 4.6624451 -22.258322
-5.5722842 3.7148542 -22.447094
-5.5597539 2.7798748 -22.551512
-5.5493522 1.8497839 -22.638195
-5.5405149 0.92341805 -22.711838
-5.5416918 -0 -22.702034
-5.5428529 -0.92380905 -22.692358
-5.544301 -1.8481016 -22.680286
-5.5584259 -2.7792139 -22.562584
-5.5741982 -3.7161331 -22.431145
-5.5963802 -4.6636515 -22.246296
-5.6220269 -5.6220279 -22.032574
-5.6563473 -6.5990705 -21.746569
-5.6942778 -7.5923719 -21.430479
-5.7395368 -8.6093082 -21.053322
-5.7929325 -9.6548901 -20.60836
-5.8625274 -10.747964 -20.028404
-5.9452515 -11.890501 -19.339035
-6.0774703 -13.167853 -18.237209
-6.2159042 -14.503778 -17.083593
-6.3607917 -15.901979 -15.876197
-6.5126386 -17.367037 -14.610806
-6.8320351 -19.357431 -11.949177
-5.5622725 18.911722 -13.260075
-5.3341508 17.069283 -15.541287
-5.1913176 15.573951 -16.969624
-5.076654 14.214633 -18.116253
-4.9873137 12.967012 -19.009659
-4.9141297 11.79391 -19.741497
-4.8541369 10.6791 -20.341425
-4.7991381 9.5982771 -20.891413
-4.7595763 8.567234 -21.287035
-4.7206612 7.5530572 -21.676184
-4.68961 6.5654545 -21.986698
-4.6672072 5.600647 -22.21072
-4.6450315 4.6450319 -22.432484
-4.6280513 3.7024393 -22.602285
-4.6160097 2.7696047 -22.722702
-4.6040177 1.8416061 -22.842621
-4.5977297 0.91954422 -22.905502
-4.5999112 -2.8610229e-06 -22.883682
-4.6020951 -0.92041874 -22.861847
-4.6052561 -1.8421001 -22.830235
-4.61695 -2.7701702 -22.713297
-4.6286902 -3.7029495 -22.595892
-4.6436105 -4.6436119 -22.446692
-4.665719 -5.5988617 -22.225607
-4.6914697 -6.5680575 -21.968102
-4.724556 -7.5592904 -21.637236
-4.7618861 -8.5713959 -21.263933
-4.8064632 -9.6129284 -20.818161
-4.8565836 -10.684483 -20.316959
-4.9543762 -11.890501 -19.339035
-5.0645428 -13.16781 -18.23737
-5.1799374 -14.503823 -17.083426
-5.3006773 -15.90203 -15.876023
-5.4272542 -17.367214 -14.610257
-5.5933037 -19.017235 -12.949758
-4.7741647 21.483738 -9.2057419
-4.3997512 18.698942 -13.885908
-4.2379594 16.951838 -15.908306
-4.1311965 15.491985 -17.242844
-4.0452809 14.158481 -18.316786
-3.9750791 12.919006 -19.194307
-3.9189887 11.756964 -19.895439
-3.8712344 10.645893 -20.492367
-3.8289642 9.5724125 -21.020742
-3.7970138 8.5432816 -21.42012
-3.7660441 7.5320864 -21.807247
-3.7416885 6.5479546 -22.111691
-3.7211597 5.5817356 -22.368299
-3.7021964 4.6277428 -22.605347
-3.690119 3.6901188 -22.75631
-3.6816339 2.7612219 -22.862373
-3.6735444 1.8367729 -22.963493
-3.6692722 0.91731834 -23.016895
-3.66854 -9.5367432e-07 -23.026047
-3.6690004 -0.91725159 -23.020294
-3.6730096 -1.8365059 -22.970177
-3.6823082 -2.7617321 -22.853947
-3.6922996 -3.692297 -22.729053
-3.7032077 -4.6290092 -22.592697
-3.7209768 -5.5814633 -22.370586
-3.741895 -6.5483184 -22.109108
-3.7649648 -7.5299296 -21.820736
-3.7953906 -8.539629 -21.440413
-3.8296707 -9.5741768 -21.011915
-3.8789449 -10.667101 -20.395985
-3.963501 -11.890501 -19.339035
-4.0516214 -13.167771 -18.23753
-4.1439495 -14.503823 -17.083426
-4.2405558 -15.902085 -15.875847
-4.3418179 -17.367271 -14.610078
-4.4480495 -18.904213 -13.282177
-3.4842896 20.905735 -10.811304
-3.2748311 18.557375 -14.302276
-3.1638041 16.873619 -16.152725
-3.0841842 15.420918 -17.479727
-3.0227523 14.106174 -18.503595
-2.9703302 12.871428 -19.377295
-2.9301693 11.720676 -20.04664
-2.8944342 10.612925 -20.642223
-2.8640902 9.5469646 -21.147963
-2.8400705 8.5202103 -21.54829
-2.8167212 7.5112538 -21.937445
-2.799407 6.5319471 -22.226015
-2.7841575 5.5683146 -22.480169
-2.770504 4.6175051 -22.707731
-2.7615414 3.6820574 -22.857105
-2.7547178 2.754715 -22.970833
-2.7486715 1.832448 -23.071608
-2.7461696 0.91538906 -23.113302
-2.7456229 -1.9073486e-06 -23.122417
-2.7456775 -0.91522598 -23.121506
-2.7486088 -1.832408 -23.072649
-2.7553864 -2.7553873 -22.95969
-2.7630746 -3.6841002 -22.831554
-2.7717209 -4.6195326 -22.687449
-2.7831223 -5.5662475 -22.497425
-2.7994556 -6.5320649 -22.225201
-2.8180697 -7.5148525 -21.91497
-2.8393855 -8.5181589 -21.559704
-2.8648551 -9.5495157 -21.135214
-2.9092085 -10.667101 -20.395985
-2.9726257 -11.890501 -19.339035
-3.0387161 -13.167771 -18.23753
-3.1079721 -14.503872 -17.08326
-3.1804171 -15.902085 -15.875847
-3.2563415 -17.367155 -14.61044
-3.33606 -18.904343 -13.281794
-3.5324392 -21.194633 -10.00881
-2.3019497 20.717546 -11.33405
-2.176326 18.49877 -14.474648
-2.100153 16.80122 -16.378977
-2.0478017 15.358513 -17.687752
-2.0086968 14.060875 -18.665377
-1.9740376 12.831244 -19.531855
-1.9483255 11.689952 -20.174658
-1.9246089 10.58535 -20.767572
-1.9051095 9.5255451 -21.255056
-1.8892288 8.5015297 -21.652073
-1.8736053 7.4944186 -22.042667
-1.8629872 6.5204525 -22.308121
-1.8538171 5.5614519 -22.537371
-1.8447371 4.6118412 -22.764374
-1.8390025 3.6780033 -22.907734
-1.8338521 2.7507782 -23.036497
-1.8287718 1.8287716 -23.1635
-1.8276969 0.91384697 -23.190372
-1.8280344 -1.9073486e-06 -23.18194
-1.828377 -0.91418934 -23.17337
-1.8305609 -1.8305616 -23.118771
-1.8345733 -2.7518597 -23.018463
-1.838598 -3.6771965 -22.917847
-1.8445414 -4.6113529 -22.769262
-1.8534648 -5.5603938 -22.546179
-1.8632729 -6.5214581 -22.300974
-1.8749586 -7.4998341 -22.008829
-1.889606 -8.5032253 -21.642647
-1.9061929 -9.5309658 -21.227974
-1.9394724 -10.667101 -20.395985
-1.9817505 -11.890501 -19.339035
-2.0258107 -13.167771 -18.23753
-2.0719881 -14.503919 -17.083092
-2.1202848 -15.902138 -15.875674
-2.1708944 -17.367155 -14.61044
-2.2240555 -18.904472 -13.281408
-2.3317122 -20.985409 -10.589993
-1.1455302 20.619545 -11.606285
-1.0853592 18.451105 -14.614832
-1.0500765 16.80122 -16.378977
-1.0239009 15.358513 -17.687752
-1.0043484 14.060875 -18.665377
-0.98701882 12.831244 -19.531855
-0.97416276 11.689952 -20.174658
-0.96230447 10.58535 -20.767572
-0.95255476 9.5255451 -21.255056
-0.94461441 8.5015297 -21.652073
-0.93680263 7.4944186 -22.042667
-0.93119979 6.5183964 -22.322811
-0.92603374 5.5562019 -22.581108
-0.92123836 4.6061916 -22.820877
-0.9186036 3.6744146 -22.952614
-0.91648996 2.7494669 -23.0583
-0.91438591 1.8287716 -23.1635
-0.91363049 0.91362858 -23.201269
-0.91332716 -1.9073486e-06 -23.216438
-0.91315091 -0.91314983 -23.225248
-0.91435993 -1.828721 -23.164799
-0.91667002 -2.7500114 -23.049294
-0.91906005 -3.6762409 -22.92979
-0.92192727 -4.6096354 -22.786436
-0.92583662 -5.5550199 -22.590969
-0.93109465 -6.517664 -22.328062
-0.93752033 -7.5001621 -22.006781
-0.94492507 -8.5043259 -21.636543
-0.95241666 -9.5241671 -21.261963
-0.96973622 -10.667101 -20.395985
-0.99087524 -11.890501 -19.339035
-1.0129086 -13.16781 -18.23737
-1.0359974 -14.503965 -17.082926
-1.060146 -15.902193 -15.875498
-1.0854435 -17.367094 -14.610626
-1.1120393 -18.904671 -13.280831
-1.1575657 -20.83618 -11.004512
0 20.65616 -11.504574
0 18.46269 -14.580768
0 16.80122 -16.378977
0 15.358513 -17.687752
0 14.060875 -18.665377
0 12.831244 -19.531855
0 11.689952 -20.174658
0 10.58535 -20.767572
0 9.5255451 -21.255056
0 8.5015297 -21.652073
0 7.4944186 -22.042667
0 6.5183964 -22.322811
0 5.5571613 -22.573112
0 4.6083031 -22.799768
0 3.6754723 -22.939369
0 2.7494669 -23.0583
0 1.8287716 -23.1635
0 0.91362858 -23.201269
0 -0 -23.214237
0 -0.91353989 -23.205807
0 -1.8294115 -23.147514
0 -2.7501268 -23.047333
0 -3.6762409 -22.92979
0 -4.6096354 -22.786436
0 -5.5562367 -22.580841
0 -6.517664 -22.328062
0 -7.5001621 -22.006781
0 -8.5041523 -21.637514
0 -9.5258579 -21.253504
0 -10.667101 -20.395985
0 -11.890501 -19.339035
0 -13.16781 -18.23737
0 -14.504009 -17.082758
0 -15.902241 -15.875326
0 -17.367037 -14.610806
0 -18.904736 -13.280639
0 -20.891865 -10.849838
1.1547164 20.784897 -11.146973
1.0894375 18.520435 -14.410918
1.051569 16.825104 -16.304348
1.0251435 15.377151 -17.625622
1.0052645 14.073703 -18.619572
0.98783678 12.841877 -19.490957
0.97484446 11.698133 -20.140575
0.96296674 10.592634 -20.734463
0.95311338 9.5311337 -21.227125
0.94513321 8.5061979 -21.626137
0.93728548 7.4982824 -22.01852
0.93192506 6.5234747 -22.286541
0.92733592 5.5640144 -22.516001
0.92279166 4.6139584 -22.743214
0.91988236 3.6795282 -22.88868
0.91730493 2.7519121 -23.017548
0.9148798 1.8297586 -23.138805
0.9142378 0.91423607 -23.170902
0.91440672 -9.5367432e-07 -23.162462
0.91457564 -0.91457653 -23.154015
0.91562682 -1.8312531 -23.101454
0.91763192 -2.7528954 -23.001202
0.91974831 -3.6789932 -22.895382
0.92272556 -4.6136293 -22.746521
0.92702067 -5.5621228 -22.531763
0.93196285 -6.5237412 -22.284653
0.93818444 -7.5054789 -21.973572
0.94497502 -8.504777 -21.634047
0.95359069 -9.5359068 -21.203264
0.96973914 -10.66713 -20.39584
0.99087524 -11.890501 -19.339035
1.0129118 -13.167853 -18.237209
1.0360041 -14.504061 -17.082592
1.0601529 -15.902295 -15.87515
1.0854362 -17.36698 -14.610989
1.1120393 -18.904671 -13.280831
1.1686332 -21.0354 -10.451133
2.3410068 21.069061 -10.357626
2.1881044 18.598885 -14.180188
2.1128585 16.902866 -16.061337
2.0596623 15.447466 -17.391235
2.017967 14.125766 -18.433624
1.9829594 12.889234 -19.308813
1.9557136 11.734282 -19.989958
1.9318641 10.625252 -20.586191
1.9112986 9.5564919 -21.100332
1.8952534 8.5286417 -21.501457
1.8797665 7.5190659 -21.888634
1.8679829 6.5379391 -22.183226
1.8577497 5.5732498 -22.439053
1.847851 4.619626 -22.68652
1.8421552 3.684309 -22.828915
1.8380992 2.7571468 -22.930317
1.8340663 1.8340664 -23.031139
1.8322233 0.91611004 -23.077213
1.8318583 -1.9073486e-06 -23.086342
1.8314934 -0.91574669 -23.095463
1.8333505 -1.8333521 -23.04903
1.8384509 -2.757678 -22.921524
1.8435851 -3.6871729 -22.793169
1.8492312 -4.6230812 -22.65201
1.8568761 -5.5706296 -22.460892
1.8677715 -6.5371995 -22.188513
1.8801234 -7.5204949 -21.879711
1.8947067 -8.5261822 -21.515127
1.9115995 -9.5579977 -21.09281
1.9394842 -10.667161 -20.395693
1.9817444 -11.890466 -19.339186
2.0258236 -13.167853 -18.237209
2.0720081 -14.504061 -17.082592
2.1203058 -15.902295 -15.87515
2.1708796 -17.367037 -14.610806
2.224071 -18.904602 -13.281027
2.3775241 -21.39772 -9.4446926
3.3121071 18.768606 -13.681013
3.1840038 16.981356 -15.816063
3.1037657 15.518827 -17.153366
3.0382187 14.178353 -18.245815
2.9854484 12.936943 -19.12532
2.9426725 11.770691 -19.838253
2.9068174 10.658329 -20.435837
2.8745961 9.5819864 -20.97286
2.8507454 8.5522346 -21.370371
2.8274779 7.5399423 -21.758163
2.8088462 6.5539732 -22.068691
2.793777 5.5875521 -22.319845
2.7805333 4.634222 -22.540571
2.7710447 3.6947241 -22.698719
2.76385 2.7638474 -22.818632
2.7575896 1.8383923 -22.922964
2.7541363 0.91804409 -22.980524
2.754003 -1.9073486e-06 -22.982746
2.7553077 -0.918437 -22.961002
2.7579048 -1.838603 -22.917715
2.7648866 -2.7648888 -22.80135
2.7719119 -3.6958847 -22.684265
2.7795408 -4.6325684 -22.557114
2.7939873 -5.587976 -22.316341
2.8095899 -6.5557098 -22.056297
2.8271384 -7.5390358 -21.763824
2.8498452 -8.5495358 -21.385376
2.8762746 -9.5875835 -20.944887
2.9092085 -10.667101 -20.395985
2.9726074 -11.89043 -19.339336
3.0387447 -13.167892 -18.237049
3.1080222 -14.504104 -17.082424
3.180469 -15.902347 -15.874977
3.2563193 -17.367037 -14.610806
3.3360834 -18.904472 -13.281408
4.4734921 19.012342 -12.964141
4.2868886 17.147554 -15.296684
4.1677771 15.629162 -16.785583
4.0729785 14.255423 -17.97057
4.0010986 13.003569 -18.869062
3.940377 11.821133 -19.628082
3.8921154 10.703316 -20.231356
3.8468254 9.6170635 -20.797478
3.8147242 8.583128 -21.198742
3.7831657 7.56633 -21.593222
3.7572832 6.5752439 -21.916752
3.7390258 5.6085396 -22.144974
3.721235 4.6515436 -22.367357
3.7070897 3.7070904 -22.544176
3.6974218 2.7730646 -22.665024
3.6884379 1.8442173 -22.777323
3.683804 0.92094898 -22.835243
3.6847005 -0 -22.824039
3.6864522 -0.92161274 -22.802143
3.6884167 -1.8442097 -22.777588
3.6977932 -2.7733469 -22.660378
3.7078266 -3.7078276 -22.534966
3.7208908 -4.6511145 -22.37166
3.7382441 -5.6073675 -22.154747
3.7583256 -6.5770698 -21.903727
3.7857473 -7.5714941 -21.560959
3.8154931 -8.5848618 -21.189129
3.851279 -9.6281967 -20.741808
3.8929508 -10.70562 -20.220907
3.9634645 -11.890395 -19.339489
4.0516601 -13.167892 -18.237049
4.144043 -14.504151 -17.08226
4.2406397 -15.902399 -15.874799
4.341774 -17.367094 -14.610626
4.5047855 -19.14534 -12.572974
5.7126851 19.42313 -11.755943
5.4249301 17.359774 -14.633495
5.2594776 15.778433 -16.288019
5.1304569 14.365276 -17.578228
5.0394349 13.10253 -18.488447
4.9570012 11.896803 -19.312782
4.8959188 10.77102 -19.923607
4.8371372 9.6742744 -20.511421
4.7944622 8.6300316 -20.938177
4.7553988 7.6086364 -21.328812
4.720232 6.6083236 -21.680477
4.6953025 5.6343594 -21.929771
4.6706214 4.670619 -22.176582
4.65028 3.7202244 -22.379993
4.6415477 2.7849274 -22.467316
4.6328483 1.8531399 -22.554314
4.6245399 0.92490768 -22.637396
4.6255102 9.5367432e-07 -22.627693
4.6264944 -0.9253006 -22.617851
4.6290498 -1.8516207 -22.5923
4.6385641 -2.7831402 -22.49716
4.6514091 -3.7211285 -22.368706
4.6712041 -4.6712046 -22.170753
4.6924272 -5.6309128 -21.958527
4.7237515 -6.6132517 -21.645283
4.7555532 -7.6088867 -21.327261
4.7929201 -8.6272554 -20.953598
4.8390141 -9.6780291 -20.492655
4.897871 -10.775316 -19.904087
4.9589262 -11.901423 -19.293537
5.0645909 -13.167936 -18.236891
5.1800871 -14.504246 -17.081924
5.300817 -15.902451 -15.874625
5.436018 -17.39526 -14.522616
5.7439871 -19.529556 -11.442926
7.1110339 20.147928 -9.6241808
6.6149778 17.63994 -13.757981
6.3728628 15.932156 -15.775605
6.2108064 14.491879 -17.126081
6.0941195 13.203923 -18.098469
5.9881544 11.976309 -18.98151
5.9131179 10.840717 -19.606813
5.84167 9.7361155 -20.202209
5.7854519 8.6781759 -20.670698
5.7391958 7.6522613 -21.056164
5.6936736 6.6426158 -21.435518
5.6627002 5.6626997 -21.693624
5.6373072 4.6977558 -21.905235
5.6124511 3.7416325 -22.112373
5.5995932 2.7997961 -22.219519
5.5874248 1.8624744 -22.320923
5.575953 0.92932415 -22.416519
5.5758724 -1.9073486e-06 -22.417192
5.581933 -0.9303236 -22.366688
5.5879908 -1.8626642 -22.316204
5.5971098 -2.7985582 -22.240215
5.6138544 -3.7425699 -22.100674
5.6360731 -4.6967287 -21.915518
5.6642618 -5.6642642 -21.680614
5.7026529 -6.6530967 -21.360689
5.7436342 -7.6581793 -21.019176
5.7901707 -8.685257 -20.631374
5.8477912 -9.7463198 -20.151203
5.9154005 -10.8449 -19.587793
5.9990931 -11.998188 -18.890348
6.0979681 -13.212266 -18.066395
6.2235575 -14.521634 -17.019817
6.3910661 -15.977666 -15.623911
6.6321998 -17.685867 -13.614463
7.2245321 -20.469507 -8.6783657
7.8670778 17.98189 -12.689389
7.5530653 16.185139 -14.932329
7.3468437 14.693686 -16.405342
7.1864204 13.346207 -17.551226
7.0580382 12.099494 -18.468237
6.9579349 10.9339 -19.183258
6.8731074 9.8187237 -19.789173
6.7995048 8.7422199 -20.314909
6.7439151 7.7073326 -20.711975
6.6898627 6.6898613 -21.098061
6.6509542 5.7008152 -21.37598
6.6195283 4.7282314 -21.600449
6.5901532 3.7658005 -21.810274
6.570394 2.8158827 -21.95141
6.5575037 1.8735704 -22.043486
6.549078 0.93558121 -22.103668
6.5466223 -1.9073486e-06 -22.121208
6.5527735 -0.93610954 -22.077274
6.5589356 -1.8739815 -22.033258
6.5663152 -2.8141336 -21.980545
6.5904427 -3.7659674 -21.808207
6.6158547 -4.7256107 -21.626692
6.6518378 -5.7015767 -21.369671
6.6944947 -6.6944976 -21.064976
6.7488852 -7.7130117 -20.676474
6.8066125 -8.7513599 -20.264133
6.8757715 -9.8225327 -19.770144
6.959805 -10.936838 -19.169901
7.062995 -12.107991 -18.432833
7.1925006 -13.3575 -17.507793
7.3639908 -14.727983 -16.282864
7.5746264 -16.231342 -14.778323
7.933989 -18.134834 -12.211444
9.3908739 18.781744 -10.189837
8.8145952 16.527367 -13.791574
8.5258799 14.920287 -15.596048
8.3135099 13.509454 -16.923357
8.1643486 12.246523 -17.855618
8.0320053 11.044005 -18.682768
7.9338417 9.9173031 -19.296286
7.8391228 8.8190117 -19.888277
7.7731614 7.7731581 -20.300539
7.7136817 6.7494702 -20.672287
7.6606855 5.7455144 -21.003511
7.6232138 4.7645063 -21.237711
7.586956 3.7934771 -21.464321
7.5625758 2.8359652 -21.616695
7.5513744 1.8878412 -21.686707
7.5415754 0.94269562 -21.74795
7.5318241 -9.5367432e-07 -21.808899
7.5389476 -0.94236851 -21.764374
7.5483632 -1.8870907 -21.705528
7.5643086 -2.8366165 -21.605867
7.5892148 -3.7946091 -21.450205
7.6207318 -4.7629571 -21.253223
7.6617117 -5.7462845 -20.997101
7.7124567 -6.7484007 -20.679941
7.7782106 -7.7782116 -20.268982
7.8474855 -8.8284225 -19.83601
7.9312263 -9.9140329 -19.31263
8.0386 -11.053078 -18.641544
8.1637793 -12.245667 -17.859179
8.3288136 -13.534323 -16.827715
8.5444412 -14.952773 -15.480035
8.8582067 -16.60914 -13.519003
9.4954348 -18.99087 -9.5363293
10.192265 16.987104 -12.259109
9.7761459 15.207336 -14.570873
9.5039015 13.727857 -16.083345
9.3057938 12.407725 -17.183945
9.1365652 11.166912 -18.1241
9.0184774 10.020528 -18.780144
8.9097023 8.9097004 -19.384451
8.8243055 7.8438258 -19.858873
8.7558565 6.8101096 -20.239151
8.6892157 5.7928123 -20.609371
8.6500578 4.8055849 -20.82692
8.6164513 3.8295326 -21.013626
8.5831041 2.8610344 -21.198883
8.5662241 1.9036036 -21.292664
8.5534487 0.95038509 -21.363636
8.5429535 9.5367432e-07 -21.42194
8.5487537 -0.94986248 -21.389725
8.5571384 -1.9015884 -21.343142
8.5805616 -2.8601856 -21.213009
8.6075144 -3.8255634 -21.063272
8.6494637 -4.8052573 -20.830221
8.6950846 -5.7967234 -20.576771
8.7583189 -6.8120265 -20.225471
8.8297672 -7.8486814 -19.828535
8.9205961 -8.9205952 -19.323927
9.0284576 -10.03162 -18.724703
9.1541796 -11.188445 -18.026241
9.3172579 -12.42301 -17.120253
9.5237131 -13.756476 -15.973276
9.8233938 -15.280833 -14.308385
10.282797 -17.137997 -11.756149
11.181672 15.654339 -12.974437
10.796899 14.035967 -14.898306
10.521707 12.626045 -16.274265
10.328487 11.361336 -17.240358
10.164115 10.164113 -18.06222
10.040225 9.0362005 -18.681667
9.9243975 7.9395189 -19.260809
9.8459396 6.8921552 -19.653095
9.7728071 5.8636827 -20.018761
9.7134018 4.8566999 -20.315788
9.6720943 3.8688374 -20.522327
9.6311655 2.889349 -20.726967
9.6009674 1.9201927 -20.877956
9.5911818 0.95911884 -20.926888
9.5864677 9.5367432e-07 -20.950455
9.593441 -0.95934391 -20.915592
9.6070156 -1.9214029 -20.847721
9.6336164 -2.8900871 -20.714714
9.6670389 -3.8668194 -20.547602
9.7144861 -4.8572459 -20.310364
9.7725706 -5.863543 -20.019949
9.8435001 -6.89045 -19.665295
9.9327593 -7.946207 -19.219
10.032307 -9.0290756 -18.721264
10.170893 -10.170893 -18.028334
10.330609 -11.363672 -17.22975
10.537002 -12.644402 -16.197788
10.80872 -14.051336 -14.839199
11.231347 -15.723888 -12.726057
12.969028 16.506033 -9.9326744
12.19787 14.415662 -13.437933
11.825727 12.900791 -15.129496
11.563103 11.563104 -16.323238
11.354814 10.322556 -17.270012
11.204909 9.1676512 -17.951393
11.071812 8.0522251 -18.556377
10.965565 6.9780874 -19.039318
10.887259 5.9385056 -19.395256
10.810062 4.9136658 -19.746149
10.758974 3.9123535 -19.978367
10.726571 2.9254284 -20.125658
10.694328 1.9444227 -20.272211
10.671665 0.97014999 -20.375229
10.667228 -0 -20.395401
10.671568 -0.97014332 -20.375668
10.69042 -1.9437141 -20.289976
10.717607 -2.9229851 -20.166397
10.760152 -3.9127817 -19.973013
10.813828 -4.9153757 -19.729036
10.887794 -5.9387984 -19.392822
10.971036 -6.9815702 -19.014448
11.083043 -8.0603952 -18.505327
11.211331 -9.1729097 -17.922197
11.377366 -10.343061 -17.167496
11.593094 -11.593097 -16.186916
11.869222 -12.94824 -14.931787
12.275784 -14.507745 -13.083782
13.279456 -16.901131 -8.5216312
14.009813 15.177298 -10.508576
13.316955 13.316952 -13.395488
12.926961 11.849713 -15.020457
12.671245 10.559369 -16.085945
12.450887 9.3381653 -17.004099
12.300664 8.2004423 -17.63003
12.15869 7.0925684 -18.221582
12.061063 6.03053 -18.628365
11.974526 4.9893875 -18.988935
11.903734 3.9679112 -19.283903
11.864567 2.9661407 -19.447102
11.825657 1.9709425 -19.609226
11.792723 0.9827261 -19.746452
11.78898 -2.8610229e-06 -19.762051
11.793371 -0.98278141 -19.743746
11.820806 -1.9701347 -19.62944
11.850441 -2.9626112 -19.50596
11.905642 -3.9685497 -19.275955
11.967105 -4.9862947 -19.019857
12.056396 -6.0281973 -18.647816
12.161525 -7.0942235 -18.209778
12.299214 -8.1994801 -17.636068
12.472722 -9.3545437 -16.91312
12.688438 -10.573698 -16.014301
12.973906 -11.892748 -14.824856
13.372473 -13.372476 -13.164157
14.225629 -15.4111 -9.6093407
15.239603 14.067327 -10.26894
14.512273 12.279615 -13.066362
14.072178 10.824754 -14.759031
13.807596 9.5591021 -15.776658
13.590288 8.3632526 -16.612459
13.431991 7.2326102 -17.221292
13.283622 6.1309032 -17.791946
13.198301 5.0762672 -18.120096
13.115346 4.0354891 -18.439159
13.045943 3.010603 -18.706089
13.021297 2.003274 -18.800882
12.999004 0.9999218 -18.886623
12.977634 1.9073486e-06 -18.968815
12.987747 -0.99906063 -18.929926
13.013318 -2.0020475 -18.831572
13.056203 -3.0129681 -18.666632
13.117402 -4.0361233 -18.43125
13.201509 -5.0775037 -18.107765
13.32241 -6.1488042 -17.642759
13.456054 -7.2455673 -17.128742
13.617271 -8.379859 -16.508678
13.840301 -9.581749 -15.650873
14.135653 -10.873577 -14.514906
14.560405 -12.320343 -12.881237
15.378074 -14.195147 -9.7363605
16.824949 13.219603 -8.7936945
15.826175 11.304412 -12.360741
15.362533 9.8759136 -14.016608
15.066023 8.6091557 -15.075573
14.834176 7.4170885 -15.903597
14.664466 6.2847681 -16.509705
14.51588 5.1842413 -17.040369
14.421653 4.12047 -17.376896
14.347165 3.0743923 -17.642921
14.290647 2.0415192 -17.844776
14.263998 1.0188551 -17.939941
14.254071 9.5367432e-07 -17.975401
14.258807 -1.018486 -17.958485
14.282899 -2.0404153 -17.87244
14.346159 -3.0741768 -17.646515
14.430659 -4.1230483 -17.344727
14.533063 -5.1903806 -16.979
14.65059 -6.2788253 -16.559258
14.85173 -7.4258671 -15.840904
15.077064 -8.6154652 -15.03614
15.405921 -9.9038057 -13.861648
15.88269 -11.344776 -12.158905
17.407753 10.444649 -10.856955
16.782013 8.9504089 -12.942757
16.434975 7.6696539 -14.099546
16.171097 6.4684386 -14.979139
15.994341 5.3314438 -15.568331
15.837236 4.2232618 -16.092007
15.757883 3.1515741 -16.356524
15.679319 2.0905743 -16.618401
15.636708 1.042449 -16.760437
15.642535 -1.9073486e-06 -16.741013
15.648366 -1.0432281 -16.721577
15.689103 -2.0918784 -16.585789
15.755671 -3.1511374 -16.363894
15.859402 -4.2291746 -16.018124
16.017054 -5.3390198 -15.492617
16.21014 -6.4840546 -14.848999
16.469627 -7.6858282 -13.984038
16.843319 -8.9831038 -12.738402
17.514488 -10.508694 -10.501165
18.624414 8.1481781 -10.681499
18.056866 6.7713242 -12.45509
17.687325 5.527287 -13.609909
17.510668 4.377666 -14.161955
17.346151 3.2524028 -14.676073
17.266117 2.1582632 -14.92618
17.220787 1.0762973 -15.067833
17.187449 -2.3841858e-06 -15.172019
17.216585 -1.0760355 -15.080969
17.284199 -2.1605277 -14.869677
17.39514 -3.2615891 -14.522987
17.552752 -4.3881888 -14.030452
17.763412 -5.5510674 -13.372133
18.108301 -6.7906113 -12.294355
18.618153 -8.1454439 -10.701067
19.905291 4.6835957 -10.337821
19.437551 3.4301543 -11.713526
19.309538 2.2717109 -12.090035
19.194305 1.129076 -12.428959
19.14534 -1.9073486e-06 -12.572976
19.18199 -1.1283541 -12.465181
19.316357 -2.2725148 -12.069984
19.515066 -3.4438393 -11.485542
19.953859 -4.6950278 -10.194977
