# .PCD v0.7 - Point Cloud Data file format
VERSION 0.7
FIELDS x y z
SIZE 4 4 4
TYPE F F F
COUNT 1 1 1
WIDTH 1075
HEIGHT 1
VIEWPOINT 0 0 0 1 0 0 0
POINTS 1075
DATA ascii
-22.255188 2.3426518 -10.316515
-21.884176 1.1517978 -11.292858
-21.906916 4.7683716e-07 -11.233024
-21.994776 -1.15762 -11.001806
-22.259968 -2.3431535 -10.303934
-20.719919 6.9066381 -11.327461
-20.134005 5.5927773 -12.955006
-19.865555 4.414567 -13.700703
-19.604103 3.2673502 -14.426954
-19.526129 2.169569 -14.643553
-19.466614 1.0814781 -14.808867
-19.417154 -9.5367432e-07 -14.946259
-19.468773 -1.0816002 -14.802871
-19.520668 -2.1689615 -14.658722
-19.642723 -3.2737861 -14.319675
-19.854525 -4.4121161 -13.73134
-20.184868 -5.6069069 -12.813723
-20.759348 -6.919785 -11.217942
-19.269413 9.0679598 -12.208052
-18.701435 7.7005911 -13.878577
-18.379393 6.4868417 -14.825765
-18.112936 5.327333 -15.609454
-17.980604 4.2307301 -15.998666
-17.850252 3.1500425 -16.382055
-17.727057 2.0855365 -16.74439
-17.712709 1.041924 -16.786592
-17.706232 -2.8610229e-06 -16.805645
-17.722692 -1.0425119 -16.757225
-17.768625 -2.0904264 -16.622137
-17.864765 -3.1526051 -16.339371
-17.97706 -4.2298994 -16.009089
-18.174128 -5.345335 -15.429478
-18.42259 -6.5020924 -14.698709
-18.770796 -7.7291522 -13.674574
-19.374294 -9.1173153 -11.899577
-18.331877 11.457422 -11.595683
-17.633841 9.9190321 -13.777049
-17.228682 8.6143398 -15.043165
-16.907806 7.3971663 -16.045898
-16.723412 6.2712784 -16.622135
-16.550598 5.1720624 -17.162178
-16.400206 4.1000504 -17.632153
-16.339838 3.0637183 -17.820805
-16.281765 2.0352192 -18.002281
-16.238789 1.0149221 -18.136589
-16.199041 -1.9073486e-06 -18.260788
-16.238583 -1.0149117 -18.137228
-16.281147 -2.0351453 -18.004213
-16.341238 -3.0639858 -17.816431
-16.445829 -4.1114597 -17.489578
-16.57073 -5.1783547 -17.099262
-16.743858 -6.2789459 -16.558237
-16.952116 -7.4165535 -15.907435
-17.248533 -8.6242685 -14.981129
-17.685987 -9.9483709 -13.614082
-18.464533 -11.540334 -11.181133
-16.823242 12.337041 -12.80532
-16.254187 10.836121 -14.702177
-15.917605 9.550561 -15.824112
-15.640407 8.3415508 -16.74811
-15.441587 7.2060728 -17.410833
-15.266086 6.106432 -17.995846
-15.139593 5.0465302 -18.417486
-15.03618 4.0096464 -18.762199
-14.971871 2.9943733 -18.976559
-14.918616 1.9891491 -19.154076
-14.91221 0.99414635 -19.175428
-14.906363 -3.8146973e-06 -19.194923
-14.913408 -0.99422932 -19.171438
-14.935648 -1.9914207 -19.097305
-14.991864 -2.998373 -18.909912
-15.050853 -4.0135617 -18.713287
-15.154659 -5.0515547 -18.367262
-15.280824 -6.11233 -17.946716
-15.447964 -7.2090521 -17.389585
-15.669039 -8.3568201 -16.652668
-15.948843 -9.5693054 -15.719989
-16.328573 -10.885716 -14.454219
-16.924574 -12.411354 -12.467552
-15.55651 13.334148 -13.323835
-15.028333 11.807977 -15.210176
-14.710382 10.507414 -16.345718
-14.444956 9.2860432 -17.293671
-14.268742 8.1535645 -17.923002
-14.096776 7.0483842 -18.53717
-13.963829 5.984498 -19.011978
-13.868154 4.9529123 -19.353674
-13.785455 3.9387016 -19.649029
-13.73151 2.9424648 -19.841692
-13.68775 1.9553919 -19.997974
-13.670763 0.97648144 -20.058643
-13.660732 -0 -20.094467
-13.672672 -0.97662067 -20.051823
-13.69141 -1.9559183 -19.984903
-13.747557 -2.9459066 -19.78438
-13.81229 -3.9463716 -19.553188
-13.891158 -4.9611287 -19.271519
-13.994536 -5.9976597 -18.902309
-14.124618 -7.0623074 -18.437733
-14.287837 -8.1644802 -17.854809
-14.48196 -9.3098307 -17.161512
-14.73699 -10.526421 -16.25069
-15.107143 -11.869897 -14.928714
-15.633536 -13.400175 -13.04874
-14.429834 14.429832 -13.383427
-13.928724 12.857284 -15.310778
-13.604783 11.51174 -16.556707
-13.349786 10.269067 -17.537464
-13.159032 9.1100979 -18.271139
-12.975783 7.985095 -18.975937
-12.862092 6.9257402 -19.41321
-12.756674 5.8876929 -19.818665
-12.678661 4.8764048 -20.118713
-12.611549 3.880475 -20.376839
-12.565867 2.8998165 -20.552536
-12.528502 1.9274588 -20.696253
-12.512726 0.96251583 -20.756924
-12.502519 9.5367432e-07 -20.796188
-12.514073 -0.96262264 -20.751743
-12.528238 -1.9274225 -20.69726
-12.56851 -2.9004278 -20.542372
-12.616608 -3.8820329 -20.35738
-12.688812 -4.880311 -20.079668
-12.76438 -5.8912559 -19.789024
-12.87551 -6.9329686 -19.361599
-13.00446 -8.0027447 -18.865643
-13.175815 -9.1217213 -18.206583
-13.380098 -10.292383 -17.420877
-13.623035 -11.527184 -16.486506
-13.977912 -12.90269 -15.121592
-14.486193 -14.486196 -13.166666
-13.388978 15.620473 -13.09539
-12.869023 13.94144 -15.261867
-12.541134 12.541132 -16.628075
-12.278139 11.25496 -17.723886
-12.104386 10.086988 -18.447853
-11.941535 8.956152 -19.126398
-11.803753 7.8691678 -19.700497
-11.701749 6.8260174 -20.125511
-11.608293 5.8041439 -20.51491
-11.545582 4.8106594 -20.776203
-11.489593 3.8298645 -21.009493
-11.453099 2.8632736 -21.161552
-11.420618 1.9034348 -21.296886
-11.407428 0.9506197 -21.351847
-11.398035 -0 -21.390984
-11.408338 -0.95069695 -21.348057
-11.41866 -1.9031105 -21.305046
-11.456667 -2.8641663 -21.146687
-11.49616 -3.8320522 -20.982132
-11.553802 -4.8140836 -20.741951
-11.621567 -5.8107848 -20.4596
-11.714349 -6.8333697 -20.073006
-11.814442 -7.8762956 -19.655956
-11.960878 -8.9706612 -19.045801
-12.117452 -10.097876 -18.393417
-12.311683 -11.285711 -17.584116
-12.564391 -12.564392 -16.531172
-12.91395 -13.99011 -15.074673
-13.464319 -15.708373 -12.781465
-12.489999 17.031815 -12.110072
-11.899463 15.144773 -14.794327
-11.539207 13.637243 -16.431856
-11.283947 12.309761 -17.592129
-11.091376 11.091375 -18.467449
-10.921822 9.9289284 -19.238152
-10.791575 8.8294697 -19.830179
-10.684903 7.7708364 -20.315058
-10.599771 6.745307 -20.702023
-10.52286 5.7397413 -21.051615
-10.467229 4.7578306 -21.304483
-10.41641 3.7877855 -21.535475
-10.385637 2.8324451 -21.675354
-10.356197 1.8829451 -21.809172
-10.34627 0.94056797 -21.854298
-10.338565 -2.8610229e-06 -21.88932
-10.348659 -0.94078732 -21.843437
-10.361986 -1.8839951 -21.782856
-10.389691 -2.8335524 -21.656925
-10.422267 -3.789917 -21.508854
-10.471997 -4.7599993 -21.28281
-10.532534 -5.7450213 -21.007643
-10.604374 -6.7482395 -20.681097
-10.696074 -7.7789607 -20.264284
-10.807653 -8.8426237 -19.757101
-10.947491 -9.9522657 -19.121473
-11.109859 -11.109863 -18.383434
-11.300552 -12.327877 -17.516649
-11.557704 -13.659106 -16.347776
-11.914321 -15.163683 -14.72679
-12.574871 -17.147554 -11.724288
-11.845092 18.952145 -9.6573353
-10.93424 16.401358 -14.211598
-10.548572 14.768002 -16.139936
-10.29996 13.389947 -17.382996
-10.095247 12.114296 -18.406563
-9.9475574 10.942311 -19.145008
-9.8114204 9.8114204 -19.825693
-9.7086248 8.7377605 -20.33967
-9.607933 7.6863451 -20.843128
-9.5332508 6.6732759 -21.216537
-9.4720001 5.6831989 -21.522797
-9.4248714 4.7124348 -21.758442
-9.3834038 3.7533598 -21.965776
-9.3559608 2.8067884 -22.102989
-9.3334398 1.8666897 -22.215595
-9.3226528 0.93226433 -22.269533
-9.3216534 -0 -22.274529
-9.3251915 -0.93251991 -22.256836
-9.332736 -1.8665495 -22.219112
-9.3559065 -2.8067713 -22.103264
-9.3878651 -3.755146 -21.943468
-9.4285984 -4.7143011 -21.739803
-9.4788628 -5.6873183 -21.48848
-9.5428343 -6.6799822 -21.168627
-9.622756 -7.6982064 -20.769014
-9.7151318 -8.7436199 -20.30714
-9.8191738 -9.8191738 -19.786928
-9.9557438 -10.95132 -19.10408
-10.120263 -12.144316 -18.281485
-10.319314 -13.41511 -17.286224
-10.589668 -14.825539 -15.934451
-10.991639 -16.487459 -13.924604
-10.078947 17.918125 -12.888645
-9.6343985 16.057327 -15.35836
-9.3495293 14.543709 -16.940969
-9.1408329 13.203424 -18.100391
-8.9827051 11.976936 -18.978878
-8.8426247 10.807652 -19.757099
-8.7422457 9.7136078 -20.314762
-8.6543484 8.6543465 -20.803083
-8.5724859 7.6199851 -21.257874
-8.5131493 6.6213393 -21.587524
-8.4557142 5.6371412 -21.906607
-8.4113178 4.6729536 -22.153255
-8.3762169 3.7227631 -22.348257
-8.3501377 2.7833776 -22.493145
-8.3316898 1.8514853 -22.595627
-8.3257513 0.92508316 -22.628624
-8.3277378 -0 -22.617586
-8.3297253 -0.92552567 -22.606543
-8.3362703 -1.8525057 -22.570183
-8.355051 -2.7850151 -22.465845
-8.3806276 -3.7247257 -22.323753
-8.4148855 -4.6749372 -22.133432
-8.4575663 -5.6383762 -21.896322
-8.5119238 -6.6203852 -21.594334
-8.5789604 -7.6257429 -21.221905
-8.6613874 -8.6613865 -20.763977
-8.7430372 -9.7144871 -20.310362
-8.8571463 -10.825402 -19.67643
-8.9907351 -11.987647 -18.934267
-9.1533403 -13.221493 -18.030905
-9.3638563 -14.565997 -16.86137
-9.6505136 -16.08419 -15.268834
-10.123086 -17.996597 -12.643433
-9.4444408 20.069433 -9.8550425
-8.7183638 17.436726 -14.393026
-8.410491 15.76967 -16.317228
-8.2016182 14.352829 -17.622683
-8.0309029 13.050215 -18.689655
-7.9035196 11.855277 -19.4858
-7.790072 10.711346 -20.194847
-7.7023282 9.6279097 -20.743248
-7.623981 8.5769768 -21.232914
-7.5641756 7.5641737 -21.606697
-7.5126152 6.5735359 -21.928947
-7.462986 5.5972385 -22.23913
-7.4247632 4.6404743 -22.478027
-7.3970313 3.6985149 -22.651348
-7.3747206 2.7655191 -22.790792
-7.3617945 1.8404474 -22.871584
-7.3548326 0.91935349 -22.915091
-7.3535728 -9.5367432e-07 -22.922968
-7.3535514 -0.91919708 -22.9231
-7.359479 -1.8398724 -22.886051
-7.3767281 -2.7662735 -22.778248
-7.3954382 -3.6977205 -22.661308
-7.4284048 -4.6427526 -22.455267
-7.4635272 -5.5976443 -22.235752
-7.5086064 -6.5700302 -21.95401
-7.561554 -7.5615544 -21.623085
-7.6272788 -8.5806885 -21.212303
-7.7047477 -9.6309338 -20.728123
-7.7992988 -10.724036 -20.13718
-7.9070392 -11.860559 -19.463806
-8.0411358 -13.066845 -18.625696
-8.2120562 -14.371101 -17.557444
-8.4308434 -15.807835 -16.19002
-8.7588491 -17.5177 -14.139991
-7.8759065 19.127197 -12.626328
-7.5001321 17.143158 -15.310425
-7.262713 15.56296 -17.006271
-7.0963683 14.192734 -18.194452
-6.9628601 12.931025 -19.148083
-6.8560801 11.753277 -19.910795
-6.7682285 10.635786 -20.538307
-6.6926255 9.5608931 -21.078327
-6.6240249 8.5166016 -21.568333
-6.5742865 7.5134678 -21.923605
-6.5308514 6.5308495 -22.23386
-6.489799 5.5626831 -22.52709
-6.4567089 4.6119347 -22.763447
-6.4336414 3.6763649 -22.928219
-6.4121423 2.7480593 -23.081779
-6.4059434 1.8302708 -23.126057
-6.3999014 0.9142704 -23.169216
-6.3942881 -9.5367432e-07 -23.209309
-6.396122 -0.91373253 -23.196209
-6.4033027 -1.8295174 -23.144917
-6.4210248 -2.7518702 -23.018335
-6.4367113 -3.6781206 -22.906288
-6.4584308 -4.6131649 -22.751152
-6.5056171 -5.5762453 -22.414104
-6.5581336 -6.5581341 -22.038984
-6.6115446 -7.5560527 -21.657478
-6.665832 -8.5703564 -21.269714
-6.7210183 -9.6014557 -20.875523
-6.7770858 -10.649707 -20.475044
-6.8613214 -11.762265 -19.873358
-6.9694514 -12.943269 -19.101
-7.1079659 -14.215934 -18.111609
-7.2825756 -15.60552 -16.864399
-7.5264425 -17.203297 -15.122491
-7.9781594 -19.37553 -11.895943
-6.6297865 18.784393 -13.634578
-6.3535295 16.942745 -15.936717
-6.1713843 15.428458 -17.454592
-6.0297599 14.06944 -18.634796
-5.9267483 12.841285 -19.493233
-5.8295541 11.659105 -20.303179
-5.7642264 10.567748 -20.847576
-5.702939 9.5048981 -21.358303
-5.6501403 8.4752073 -21.798292
-5.6071377 7.4761829 -22.156647
-5.5648007 6.4922667 -22.509455
-5.533989 5.533988 -22.766222
-5.5093889 4.591157 -22.971222
-5.4892478 3.6594992 -23.139069
-5.4736252 2.7368126 -23.269253
-5.4617653 1.8205891 -23.368082
-5.4564409 0.90940666 -23.412455
-5.4538059 -9.5367432e-07 -23.434414
-5.4565024 -0.90941715 -23.411938
-5.461905 -1.8206348 -23.366922
-5.4734855 -2.7367449 -23.270416
-5.4883895 -3.658927 -23.146221
-5.5319753 -4.6099825 -22.783001
-5.5762429 -5.5762453 -22.414104
-5.6212573 -6.5581341 -22.038984
-5.6670375 -7.5560527 -21.657478
-5.7135701 -8.5703564 -21.269714
-5.7608728 -9.6014557 -20.875523
-5.808948 -10.649741 -20.474897
-5.8577609 -11.715525 -20.068121
-5.9297328 -12.847754 -19.468357
-6.0455804 -14.106357 -18.502964
-6.1807079 -15.451771 -17.376898
-6.3642087 -16.971224 -15.84772
-6.6561818 -18.859182 -13.414616
-5.8829002 21.178442 -10.053793
-5.427547 18.453655 -14.607329
-5.233511 16.747232 -16.547689
-5.099225 15.297675 -17.890545
-4.9885349 13.967898 -18.997444
-4.9098568 12.765625 -19.784233
-4.8368611 11.608467 -20.514183
-4.7800207 10.516045 -21.08259
-4.7247639 9.4495287 -21.635155
-4.6864548 8.4356184 -22.018246
-4.6526604 7.4442549 -22.356197
-4.619349 6.4670868 -22.689304
-4.5964427 5.5157328 -22.918369
-4.574789 4.574789 -23.134907
-4.5550661 3.6440516 -23.332138
-4.543324 2.7259941 -23.449558
-4.5344133 1.8137636 -23.538662
-4.5293078 0.9058609 -23.589718
-4.5283518 9.5367432e-07 -23.599277
-4.5294356 -0.90589046 -23.588444
-4.5355763 -1.81423 -23.527031
-4.5431828 -2.7259121 -23.450968
-4.573658 -3.658927 -23.146221
-4.6099796 -4.6099825 -22.783001
-4.6468692 -5.5762453 -22.414104
-4.684381 -6.5581341 -22.038984
-4.7225318 -7.5560527 -21.657478
-4.7612944 -8.5703297 -21.269852
-4.8007131 -9.6014252 -20.875668
-4.8407898 -10.649741 -20.474897
-4.8814821 -11.715557 -20.067972
-4.9229403 -12.799643 -19.653399
-5.0001612 -14.000453 -18.881186
-5.1078525 -15.323559 -17.80427
-5.2508793 -16.802813 -16.374006
-5.4636302 -18.576344 -14.246494
-4.5765171 20.594324 -11.676334
-4.3060465 18.300699 -15.057211
-4.1564064 16.625624 -16.927717
-4.0580587 15.217718 -18.157063
-3.9744408 13.910541 -19.202288
-3.9079955 12.700985 -20.032852
-3.8532851 11.559853 -20.716736
-3.8093512 10.475716 -21.265909
-3.7676423 9.4191055 -21.787268
-3.7368224 8.4078465 -22.172516
-3.7078266 7.4156542 -22.534966
-3.6828873 6.4450493 -22.846703
-3.6655109 5.4982634 -23.063911
-3.6490421 4.5613003 -23.269772
-3.6334076 3.6334066 -23.465202
-3.6239362 2.7179518 -23.583599
-3.6174083 1.8087015 -23.665192
-3.6123936 0.90309715 -23.727875
-3.6116338 -9.5367432e-07 -23.737377
-3.6126573 -0.90316677 -23.724583
-3.6168392 -1.8084192 -23.672306
-3.6302719 -2.7227058 -23.504395
-3.6589265 -3.658927 -23.146221
-3.6879835 -4.6099825 -22.783001
-3.7174952 -5.5762453 -22.414104
-3.7475049 -6.5581341 -22.038984
-3.7780142 -7.5560279 -21.657619
-3.8090353 -8.5703297 -21.269852
-3.8405707 -9.6014252 -20.875668
-3.8726318 -10.649741 -20.474897
-3.9052095 -11.715629 -20.067675
-3.9383159 -12.799528 -19.653851
-3.9779778 -13.922923 -19.158073
-4.0631566 -15.236839 -18.09334
-4.1710181 -16.684074 -16.745068
-4.3220944 -18.368902 -14.856617
-4.6390562 -20.875757 -10.894593
-3.382756 20.296535 -12.503526
-3.211071 18.196066 -15.364946
-3.1041851 16.555655 -17.146378
-3.0303705 15.151851 -18.376621
-2.9705954 13.862778 -19.372873
-2.9210117 12.657717 -20.199266
-2.8811069 11.524428 -20.864347
-2.8487101 10.445269 -21.404299
-2.8185384 9.3951263 -21.907156
-2.7958724 8.3876181 -22.284922
-2.7739825 7.3972836 -22.649757
-2.7557402 6.4300594 -22.953793
-2.7426045 5.4852076 -23.172722
-2.7305663 4.5509434 -23.37336
-2.7195673 3.6260891 -23.556671
-2.7112429 2.7112427 -23.695415
-2.7068114 1.8045406 -23.769272
-2.7040975 0.90136528 -23.814507
-2.7029467 -0 -23.833683
-2.7041428 -0.90138245 -23.813749
-2.7067583 -1.8045092 -23.770157
-2.7227042 -2.7227058 -23.504395
-2.7441947 -3.658927 -23.146221
-2.7659876 -4.6099825 -22.783001
-2.7881215 -5.5762453 -22.414104
-2.810637 -6.5581541 -22.038849
-2.8335106 -7.5560279 -21.657619
-2.8567767 -8.5703297 -21.269852
-2.8804278 -9.6014252 -20.875668
-2.9044652 -10.649707 -20.475044
-2.928916 -11.715664 -20.06753
-2.953737 -12.799528 -19.653851
-2.9790277 -13.90213 -19.232332
-3.0325978 -15.162992 -18.339497
-3.1101949 -16.587706 -17.046217
-3.2209804 -18.252222 -15.199792
-3.4161985 -20.497192 -11.946153
-2.2354333 20.1189 -12.996962
-2.1288192 18.094961 -15.662315
-2.0611663 16.489328 -17.353642
-2.0124967 15.093725 -18.570381
-1.9753886 13.827719 -19.498081
-1.9440709 12.636461 -20.281023
-1.918065 11.508389 -20.931173
-1.8951865 10.423525 -21.503136
-1.8749315 9.3746567 -22.009512
-1.8608487 8.3738184 -22.361574
-1.8469708 7.3878822 -22.708523
-1.8352168 6.4232569 -23.002378
-1.8259962 5.4779873 -23.232891
-1.816873 4.542182 -23.46097
-1.8100011 3.6200018 -23.632771
-1.8057357 2.7086039 -23.739401
-1.8021462 1.8021431 -23.829145
-1.7995059 0.89975452 -23.895147
-1.7995965 -9.5367432e-07 -23.892881
-1.799974 -0.89998722 -23.883446
-1.8017374 -1.8017378 -23.839357
-1.815136 -2.7227058 -23.504395
-1.8294632 -3.658927 -23.146221
-1.8439918 -4.6099825 -22.783001
-1.858753 -5.5762601 -22.413971
-1.873758 -6.5581541 -22.038849
-1.8890071 -7.5560279 -21.657619
-1.9045177 -8.5703297 -21.269852
-1.9202853 -9.6014252 -20.875668
-1.9363102 -10.649707 -20.475044
-1.9526107 -11.715664 -20.06753
-1.969164 -12.799568 -19.653696
-1.9860185 -13.90213 -19.232332
-2.0188277 -15.141209 -18.412104
-2.0686054 -16.548843 -17.167662
-2.1366138 -18.161219 -15.467451
-2.2575912 -20.318321 -12.443018
-1.117546 20.115822 -13.005503
-1.0644096 18.094961 -15.662315
-1.0305831 16.489328 -17.353642
-1.0062484 15.093725 -18.570381
-0.98700976 13.818134 -19.532309
-0.97040874 12.615311 -20.362358
-0.95783651 11.494037 -20.990971
-0.94716656 10.418833 -21.524467
-0.93741387 9.374136 -22.012106
-0.92975503 8.367794 -22.395042
-0.92231566 7.3785238 -22.767015
-0.91663605 6.4164515 -23.050993
-0.91237432 5.4742451 -23.26408
-0.90822375 4.5411177 -23.471611
-0.9046495 3.6185961 -23.65032
-0.90203279 2.7060976 -23.781158
-0.900536 1.8010693 -23.855995
-0.89975798 0.89975739 -23.894892
-0.89987373 -9.5367432e-07 -23.889109
-0.89998698 -0.89998722 -23.883446
-0.900536 -1.8010731 -23.855995
-0.90756798 -2.7227058 -23.504395
-0.91473162 -3.658927 -23.146221
-0.92199588 -4.6099825 -22.783001
-0.92937648 -5.5762601 -22.413971
-0.93688166 -6.5581717 -22.038712
-0.94450355 -7.5560279 -21.657619
-0.95225883 -8.5703297 -21.269852
-0.96014267 -9.6014252 -20.875668
-0.96815217 -10.649675 -20.475187
-0.97630239 -11.715629 -20.067675
-0.98458493 -12.799606 -19.653547
-0.99300927 -13.90213 -19.232332
-1.007398 -15.11097 -18.512899
-1.03264 -16.522242 -17.250799
-1.0660669 -18.123138 -15.579455
-1.1236366 -20.22546 -12.700962
0 20.115822 -13.005503
0 18.094961 -15.662315
0 16.489328 -17.353642
0 15.093725 -18.570381
0 13.818134 -19.532309
0 12.623231 -20.331907
0 11.498383 -20.972862
0 10.418833 -21.524467
0 9.374136 -22.012106
0 8.367794 -22.395042
0 7.3820362 -22.745066
0 6.4190121 -23.032707
0 5.4743853 -23.262917
0 4.5411177 -23.471611
0 3.6185961 -23.65032
0 2.7066431 -23.772057
0 1.8010693 -23.855995
0 0.89975739 -23.894892
0 -9.5367432e-07 -23.889109
0 -0.89994621 -23.885586
0 -1.8010731 -23.855995
0 -2.7227058 -23.504395
0 -3.658927 -23.146221
0 -4.6099825 -22.783001
0 -5.5762601 -22.413971
0 -6.5581717 -22.038712
0 -7.5560279 -21.657619
0 -8.5703297 -21.269852
0 -9.6014252 -20.875668
0 -10.649675 -20.475187
0 -11.715629 -20.067675
0 -12.799723 -19.653093
0 -13.90213 -19.232332
0 -15.120531 -18.481028
0 -16.533167 -17.216646
0 -18.137619 -15.536864
0 -20.260195 -12.604484
1.1213971 20.185148 -12.812941
1.0665437 18.131243 -15.555607
1.0320175 16.512276 -17.281927
1.00748 15.112199 -18.508797
0.98832822 13.836594 -19.466383
0.97264951 12.644441 -20.250322
0.95953286 11.514393 -20.906155
0.94808179 10.428898 -21.478708
0.93808877 9.3808851 -21.978359
0.93087113 8.37784 -22.339237
0.92392552 7.3914042 -22.68652
0.91797215 6.425806 -22.984188
0.91335821 5.4801493 -23.214886
0.90889573 4.5444775 -23.438011
0.90538502 3.6215391 -23.613544
0.90313387 2.709403 -23.726097
0.90135819 1.8027172 -23.814884
0.90035707 0.90035534 -23.864941
0.89997441 -0 -23.884075
0.90030926 -0.90031242 -23.867334
0.90126735 -1.802536 -23.819427
0.90757316 -2.7227211 -23.504139
0.91473162 -3.658927 -23.146221
0.92199588 -4.6099825 -22.783001
0.92937648 -5.5762601 -22.413971
0.93688166 -6.5581717 -22.038712
0.94450355 -7.5560279 -21.657619
0.95225608 -8.5703058 -21.269993
0.96013969 -9.6013966 -20.875809
0.96815217 -10.649675 -20.475187
0.97630537 -11.715664 -20.06753
0.98459101 -12.799683 -19.653248
0.99300927 -13.90213 -19.232332
1.0099016 -15.148524 -18.387714
1.0348947 -16.558317 -17.13806
1.0701399 -18.192379 -15.375801
1.1308144 -20.354662 -12.342072
2.2644136 20.379725 -12.272453
2.1453161 18.235186 -15.249893
2.0727286 16.581829 -17.064575
2.0235307 15.176481 -18.294525
1.9829472 13.880629 -19.30912
1.9492991 12.670443 -20.150316
1.9224532 11.534719 -20.821468
1.9012098 10.456654 -21.352549
1.8807386 9.4036932 -21.864328
1.8655952 8.3951778 -22.24292
1.8506988 7.4027939 -22.615326
1.8380835 6.4332914 -22.93071
1.8299677 5.4899015 -23.133602
1.8219284 4.554821 -23.334583
1.8144199 3.6288376 -23.522305
1.8088567 2.7132845 -23.661381
1.805842 1.8058405 -23.736744
1.8040251 0.90201187 -23.782169
1.8033477 -9.5367432e-07 -23.799103
1.804096 -0.90204906 -23.780399
1.8058726 -1.8058729 -23.735985
1.8151513 -2.7227297 -23.504013
1.8294632 -3.658927 -23.146221
1.8439918 -4.6099825 -22.783001
1.858753 -5.5762601 -22.413971
1.8737633 -6.5581717 -22.038712
1.8890127 -7.5560527 -21.657478
1.9045122 -8.5703058 -21.269993
1.9202794 -9.6013966 -20.875809
1.9362986 -10.649641 -20.475334
1.9526107 -11.715664 -20.06753
1.9691759 -12.799643 -19.653399
1.9860247 -13.902172 -19.232178
2.024823 -15.186174 -18.262222
2.0778878 -16.623102 -16.935602
2.1515622 -18.288279 -15.093738
2.2904897 -20.614407 -11.620552
3.4542093 20.725256 -11.312637
3.2365181 18.340265 -14.940835
3.1235981 16.659189 -16.822828
3.0485222 15.242611 -18.074095
2.9846916 13.92856 -19.137936
2.9365776 12.725168 -19.93984
2.8945124 11.578048 -20.640923
2.8605857 10.488812 -21.206371
2.828795 9.4293156 -21.736212
2.8051574 8.415472 -22.130173
2.7848804 7.4263458 -22.468121
2.7654567 6.452733 -22.791849
2.7524011 5.5047998 -23.009443
2.7394605 4.5657663 -23.225122
2.7271185 3.6361589 -23.43082
2.7209623 2.7209616 -23.533424
2.7158954 1.8105955 -23.617874
2.7117684 0.90392113 -23.686657
2.7109537 -1.9073486e-06 -23.700233
2.7116008 -0.90386772 -23.689449
2.7154064 -1.8102732 -23.626024
2.7227118 -2.7227144 -23.504267
2.7441947 -3.658927 -23.146221
2.7659876 -4.6099825 -22.783001
2.7881296 -5.5762601 -22.413971
2.8106532 -6.5581927 -22.038572
2.8335187 -7.5560527 -21.657478
2.8567681 -8.5703058 -21.269993
2.8804193 -9.6013966 -20.875809
2.9044476 -10.649641 -20.475334
2.9289072 -11.715629 -20.067675
2.953764 -12.799643 -19.653399
2.989007 -13.9487 -19.066015
3.0535743 -15.267871 -17.989889
3.1351612 -16.720858 -16.63011
3.2549033 -18.444452 -14.634409
3.5092387 -21.055431 -10.395489
4.3709044 18.576342 -14.246494
4.2049708 16.819881 -16.320665
4.0923877 15.346449 -17.727955
4.0012727 14.004455 -18.866886
3.9354022 12.790055 -19.690269
3.8755934 11.626778 -20.437881
3.8299897 10.532473 -21.007927
3.7880864 9.4702168 -21.531715
3.7553437 8.449522 -21.941002
3.7275171 7.4550328 -22.288834
3.7007914 6.4763842 -22.622904
3.6815288 5.5222902 -22.863689
3.6645298 4.5806608 -23.076172
3.6498282 3.649827 -23.259941
3.6399004 2.7299232 -23.384039
3.6313474 1.8156729 -23.490955
3.6286759 0.90716743 -23.524349
3.6275408 -9.5367432e-07 -23.538536
3.6288292 -0.90720844 -23.52243
3.6332536 -1.8166256 -23.467125
3.6394374 -2.729579 -23.389828
3.6589265 -3.658927 -23.146221
3.6879835 -4.6099825 -22.783001
3.7175059 -5.5762601 -22.413971
3.7475376 -6.5581927 -22.038572
3.7780254 -7.5560527 -21.657478
3.8090243 -8.5703058 -21.269993
3.8405588 -9.6013966 -20.875809
3.8725972 -10.649641 -20.475334
3.9051979 -11.715595 -20.067823
3.9383397 -12.799606 -19.653547
4.0114594 -14.04011 -18.73955
4.0984068 -15.369027 -17.652712
4.2163882 -16.865551 -16.177942
4.389729 -18.656345 -14.011185
5.5622144 18.911528 -13.260652
5.317915 17.017324 -15.703647
5.159359 15.478078 -17.289202
5.041235 14.115458 -18.470448
4.9518452 12.874799 -19.364342
4.8709908 11.690377 -20.17289
4.8141999 10.591238 -20.740799
4.7629151 9.5258284 -21.253645
4.7170496 8.4906874 -21.712301
4.6810832 7.4897313 -22.07196
4.6460505 6.5044708 -22.422289
4.618885 5.5426636 -22.693945
4.5974932 4.5974932 -22.907866
4.5816407 3.6653118 -23.066391
4.5682564 2.7409544 -23.200233
4.5604367 1.8241711 -23.278431
4.5559816 0.91119576 -23.322979
4.5515361 -0 -23.367439
4.5537381 -0.91075039 -23.345413
4.558589 -1.8234367 -23.296906
4.5705528 -2.7423325 -23.177267
4.5825543 -3.6660433 -23.057253
4.6099796 -4.6099825 -22.783001
4.6468959 -5.5762763 -22.413836
4.684422 -6.5581927 -22.038572
4.7225318 -7.5560527 -21.657478
4.7612805 -8.5703058 -21.269993
4.8006845 -9.6013718 -20.87595
4.8407459 -10.649641 -20.475334
4.8814821 -11.715557 -20.067972
4.9545441 -12.881816 -19.337355
5.0517435 -14.144883 -18.36536
5.1677432 -15.503231 -17.20536
5.3269639 -17.046286 -15.613158
5.5911465 -19.009897 -12.971332
6.8224273 19.33021 -12.029236
6.4640217 17.237389 -15.01595
6.2482066 15.620517 -16.814409
6.1026711 14.239565 -18.027206
5.987226 12.972321 -18.989246
5.8956594 11.791319 -19.7523
5.8167171 10.66398 -20.410152
5.7515039 9.5858402 -20.953598
5.688273 8.5324078 -21.480524
5.6489506 7.5319328 -21.808208
5.6115375 6.5467911 -22.119984
5.5747781 5.5747776 -22.426311
5.5468655 4.622386 -22.658918
5.5269556 3.6846352 -22.824833
5.5091686 2.7545834 -22.973057
5.5022144 1.8340721 -23.03101
5.4970298 0.91617107 -23.074219
5.4936514 -9.5367432e-07 -23.102369
5.4936361 -0.91560459 -23.102497
5.5001454 -1.8333826 -23.048248
5.5149117 -2.7574568 -22.925198
5.5276999 -3.6851349 -22.818632
5.5487781 -4.6239843 -22.642979
5.5762749 -5.5762763 -22.413836
5.6213064 -6.5581927 -22.038572
5.6670547 -7.5560732 -21.657345
5.7135534 -8.5703297 -21.269852
5.7608213 -9.6013718 -20.87595
5.8180318 -10.666393 -20.3992
5.8991356 -11.798273 -19.723331
5.9950886 -12.98936 -18.923721
6.1166081 -14.272085 -17.91106
6.2720127 -15.680032 -16.616024
6.4876938 -17.300514 -14.818681
6.9294419 -19.633419 -11.137444
7.7023811 17.605442 -13.865789
7.4089651 15.87635 -15.961621
7.2119112 14.42382 -17.369146
7.0552974 13.102693 -18.487818
6.940486 11.897975 -19.307898
6.8345108 10.739944 -20.064865
6.7610173 9.658596 -20.589813
6.6934209 8.6058254 -21.072651
6.6368852 7.585011 -21.476473
6.5911555 6.5911536 -21.803114
6.546052 5.6109018 -22.125282
6.5119543 4.6513958 -22.368839
6.4873877 3.7070789 -22.544308
6.4682956 2.7721262 -22.680685
6.4550443 1.8442974 -22.775341
6.449574 0.92136669 -22.814413
6.4495554 -1.9073486e-06 -22.814545
6.4495182 -0.92136192 -22.814812
6.4536572 -1.8439045 -22.785248
6.4700418 -2.7728758 -22.668211
6.4884162 -3.7076664 -22.53697
6.5159473 -4.6542501 -22.340317
6.547174 -5.6118636 -22.117266
6.5888038 -6.5888033 -21.819914
6.6359863 -7.5839849 -21.482897
6.6972609 -8.6107635 -21.045216
6.7625804 -9.6608276 -20.578653
6.8467245 -10.75914 -19.977623
6.9454718 -11.906523 -19.272284
7.0620871 -13.115306 -18.439314
7.2178721 -14.435747 -17.326565
7.4219751 -15.904232 -15.86869
7.7369823 -17.684532 -13.618639
9.0555525 18.111103 -12.285597
8.6229095 16.167953 -14.989611
8.3530521 14.617836 -16.676226
8.1660833 13.269887 -17.844772
8.0165243 12.024786 -18.77952
7.8965626 10.857772 -19.52928
7.7999368 9.7499199 -20.13319
7.7188854 8.6837444 -20.639767
7.6417904 7.6417913 -21.121607
7.5880966 6.6395845 -21.457191
7.5391021 5.6543255 -21.763409
7.5000534 4.6875334 -22.007462
7.4683547 3.7341757 -22.205578
7.4449663 2.7918596 -22.351757
7.4280834 1.8570185 -22.457275
7.4211459 0.92764378 -22.500631
7.4229217 -0 -22.489534
7.4246988 -0.92808723 -22.478428
7.4309773 -1.8577452 -22.439188
7.4470119 -2.7926302 -22.338966
7.470067 -3.7350349 -22.19488
7.502851 -4.6892824 -21.989977
7.542172 -5.65663 -21.744223
7.5892148 -6.6405625 -21.450203
7.6528525 -7.6528544 -21.052469
7.7262511 -8.6920338 -20.593725
7.8011894 -9.7514877 -20.12536
7.902986 -10.866605 -19.489138
8.0271969 -12.040796 -18.712816
8.1763792 -13.286617 -17.780428
8.3711939 -14.64959 -16.562832
8.6473246 -16.213736 -14.837019
9.1421137 -18.284227 -11.744589
9.9620199 16.603367 -13.538235
9.5831413 14.90711 -15.643119
9.3334408 13.481636 -17.030348
9.1335974 12.178128 -18.140587
8.9948397 10.993692 -18.911465
8.8645468 9.849493 -19.635317
8.7705984 8.7705946 -20.157255
8.6822615 7.7175646 -20.64801
8.6131973 6.6991549 -21.031702
8.5515299 5.7010164 -21.3743
8.5094976 4.7274971 -21.607811
8.4711704 3.7649632 -21.820736
8.4467878 2.8155985 -21.956198
8.4250183 1.8722267 -22.077137
8.4171591 0.93523979 -22.120796
8.4128809 -0 -22.144566
8.4168415 -0.93520832 -22.122566
8.4254599 -1.8723259 -22.074686
8.4500647 -2.8166904 -21.93799
8.4782372 -3.7681055 -21.781477
8.5140753 -4.730042 -21.58238
8.5611591 -5.7074394 -21.320797
8.6200409 -6.7044759 -20.993681
8.6911201 -7.7254415 -20.598799
8.7748489 -8.7748489 -20.133635
8.8796835 -9.8663139 -19.551222
9.0072594 -11.008871 -18.842466
9.1590433 -12.212057 -17.999226
9.3473272 -13.501696 -16.953205
9.6067581 -14.943846 -15.511919
10.00386 -16.673103 -13.305795
11.53388 17.300819 -11.213396
10.92218 15.291049 -14.271899
10.563356 13.732361 -16.066015
10.329581 12.395496 -17.234888
10.138339 11.152172 -18.191099
9.9835386 9.9835358 -18.965101
9.8573399 8.871603 -19.596098
9.7539396 7.8031511 -20.113098
9.6768341 6.7737851 -20.498623
9.6057529 5.7634501 -20.854031
9.5553579 4.7776794 -21.106007
9.5087738 3.8035088 -21.338924
9.4792814 2.8437824 -21.486385
9.4533863 1.8906775 -21.615864
9.4432344 0.94432259 -21.666628
9.4353437 -1.9073486e-06 -21.706078
9.4438162 -0.94438553 -21.663715
9.4553862 -1.891078 -21.605867
9.4807339 -2.8442221 -21.479126
9.5098982 -3.8039608 -21.333305
9.5590754 -4.7795405 -21.087416
9.6133862 -5.7680306 -20.815865
9.6850471 -6.7795348 -20.457561
9.7669048 -7.8135247 -20.048267
9.8774881 -8.88974 -19.495352
10.005141 -10.005142 -18.857092
10.15709 -11.1728 -18.097347
10.336582 -12.403898 -17.199888
10.591132 -13.768473 -15.927134
10.951356 -15.3319 -14.126018
11.721917 -17.582878 -10.273211
12.546393 15.968134 -11.853735
11.94826 14.12067 -14.572526
11.598525 12.652935 -16.162228
11.338884 11.338881 -17.342419
11.165082 10.150074 -18.132423
11.013942 9.0114059 -18.819426
10.879162 7.912117 -19.43206
10.783456 6.8621988 -19.867086
10.697528 5.8350143 -20.257671
10.635021 4.8340998 -20.541794
10.577474 3.8463526 -20.803371
10.542603 2.8752527 -20.961876
10.512298 1.9113255 -21.099621
10.50073 0.95460987 -21.152206
10.492295 9.5367432e-07 -21.190544
10.504407 -0.95494652 -21.135494
10.516639 -1.9121161 -21.079891
10.549797 -2.8772182 -20.929173
10.586045 -3.849472 -20.764408
10.640615 -4.8366456 -20.516363
10.706457 -5.8398895 -20.217083
10.791871 -6.8675561 -19.828833
10.89292 -7.9221249 -19.369522
11.024644 -9.0201635 -18.770782
11.173963 -10.158151 -18.092058
11.368633 -11.368636 -17.207188
11.616947 -12.673033 -16.078495
11.969793 -14.146119 -14.474646
12.591689 -16.025787 -11.647845
13.574878 14.706119 -12.320806
13.020974 13.02097 -14.628738
12.674614 11.618395 -16.071907
12.418097 10.348414 -17.140722
12.233063 9.1747971 -17.911705
12.069997 8.0466642 -18.591139
11.942791 6.9666276 -19.12117
11.839324 5.9196587 -19.55228
11.766494 4.9027052 -19.85574
11.702351 3.9007835 -20.122997
11.658686 2.91467 -20.304939
11.62447 1.9374104 -20.447502
11.608955 0.96741199 -20.512148
11.598287 -1.9073486e-06 -20.556602
11.609095 -0.96742535 -20.511564
11.621042 -1.9368401 -20.461788
11.666998 -2.9167509 -20.270308
11.717726 -3.9059081 -20.058939
11.784735 -4.9103088 -19.779736
11.856407 -5.9282031 -19.481098
11.967291 -6.9809208 -19.019085
12.089457 -8.059639 -18.510063
12.255151 -9.1913624 -17.819672
12.454381 -10.37865 -16.989544
12.684647 -11.627593 -16.030104
13.076482 -13.076483 -14.397453
13.647652 -14.784956 -12.017582
14.776966 13.640276 -12.048314
14.172908 11.992457 -14.371614
13.814754 10.626735 -15.749126
13.53117 9.3677311 -16.839836
13.356009 8.2190819 -17.513531
13.193765 7.1043348 -18.137548
13.057425 6.026504 -18.661928
12.964725 4.9864335 -19.018467
12.8861 3.9649529 -19.320877
12.833213 2.9615107 -19.524286
12.791309 1.9678917 -19.685455
12.776231 0.98278618 -19.74345
12.771667 -1.9073486e-06 -19.760998
12.777635 -0.98289585 -19.738045
12.789588 -1.9676304 -19.692072
12.845034 -2.9642396 -19.478825
12.905895 -3.971046 -19.244736
12.980332 -4.9924355 -18.958443
13.086915 -6.0401139 -18.548508
13.208094 -7.1120529 -18.082438
13.371633 -8.2286987 -17.453444
13.557302 -9.3858261 -16.739325
13.847859 -10.652198 -15.621797
14.214077 -12.027295 -14.213268
14.897567 -13.751599 -11.584465
16.130262 12.673777 -11.274713
15.424539 11.017528 -13.795156
15.032445 9.6637125 -15.195494
14.749679 8.4283867 -16.205374
14.540567 7.2702823 -16.952198
14.388951 6.1666918 -17.493683
14.25132 5.0897555 -17.985224
14.15079 4.0430832 -18.344259
14.086947 3.0186296 -18.572269
14.035254 2.0050354 -18.756891
14.015303 1.0010929 -18.828148
14.009505 1.9073486e-06 -18.848846
14.016916 -1.0012102 -18.822386
14.053159 -2.0075922 -18.692944
14.105646 -3.0226388 -18.505489
14.166274 -4.0475101 -18.288961
14.2748 -5.0981445 -17.901369
14.395802 -6.1696296 -17.469221
14.570992 -7.2854939 -16.843536
14.788942 -8.4508266 -16.065149
15.065217 -9.6847858 -15.07845
15.494557 -11.067542 -13.545089
16.213501 -12.739179 -10.977438
16.898209 10.138924 -12.555433
16.393005 8.742938 -14.239443
16.085743 7.5066791 -15.263654
15.850914 6.3403659 -16.046413
15.685382 5.2284613 -16.598192
15.545217 4.1453896 -17.065411
15.459439 3.091888 -17.35133
15.403255 2.0537667 -17.538612
15.362228 1.0241499 -17.675369
15.343477 -1.9073486e-06 -17.737869
15.359979 -1.0239983 -17.682867
15.390291 -2.0520411 -17.581827
15.464046 -3.0928092 -17.335974
15.565516 -4.150806 -16.997746
15.686147 -5.2287145 -16.595646
15.869256 -6.347703 -15.985278
16.083868 -7.5058031 -15.269907
16.450432 -8.7735672 -14.048022
16.930035 -10.158019 -12.449351
19.023706 9.5118532 -9.433713
18.054903 7.8990192 -12.461224
17.621166 6.6079364 -13.816648
17.333422 5.4166918 -14.715854
17.147898 4.2869735 -15.295613
17.021772 3.1915832 -15.68976
16.918474 2.1148052 -16.012568
16.865 1.05406 -16.17967
16.848997 -9.5367432e-07 -16.229679
16.871412 -1.0544639 -16.159639
16.939846 -2.1174812 -15.945774
17.029879 -3.1931024 -15.664427
17.174263 -4.2935681 -15.213223
17.364403 -5.4263754 -14.619041
17.652338 -6.6196241 -13.719239
18.080009 -7.9100037 -12.382771
19.760424 5.8118868 -10.763899
19.212032 4.5204782 -12.376822
18.959633 3.345818 -13.119167
18.808546 2.2127709 -13.563545
18.686552 1.0992069 -13.922352
18.6847 -2.3841858e-06 -13.927794
18.741859 -1.1024656 -13.759682
18.800272 -2.2117977 -13.587873
18.927036 -3.3400655 -13.215046
19.237432 -4.5264568 -12.302111
19.845507 -5.8369164 -10.51366
