# .PCD v0.7 - Point Cloud Data file format
VERSION 0.7
FIELDS x y z
SIZE 4 4 4
TYPE F F F
COUNT 1 1 1
WIDTH 1060
HEIGHT 1
VIEWPOINT 0 0 0 1 0 0 0
POINTS 1060
DATA ascii
-23.280977 1.2253115 -7.6170673
-23.126535 9.5367432e-07 -8.0234947
-23.101372 -1.2158628 -8.0897131
-21.520292 7.17343 -9.104207
-20.804752 5.7790947 -11.09182
-20.331444 4.5180979 -12.406565
-20.133444 3.3555713 -12.95656
-19.974949 2.2194357 -13.396826
-19.883896 1.10466 -13.64975
-19.876665 -2.3841858e-06 -13.669838
-19.877007 -1.1042795 -13.668891
-19.967926 -2.2186604 -13.416336
-20.159018 -3.3598356 -12.885523
-20.420671 -4.5379281 -12.158707
-20.83843 -5.7884541 -10.998269
-19.88236 9.3564043 -10.405266
-19.221752 7.914835 -12.348234
-18.773565 6.6259632 -13.666428
-18.521942 5.4476295 -14.406492
-18.320492 4.3107018 -14.998995
-18.205153 3.2126698 -15.338232
-18.114197 2.1310797 -15.605752
-18.056503 1.0621486 -15.775431
-18.050131 -4.7683716e-07 -15.794176
-18.049059 -1.0617099 -15.797329
-18.099394 -2.1293416 -15.649284
-18.221766 -3.2156086 -15.289368
-18.355711 -4.318994 -14.895405
-18.571362 -5.4621644 -14.261147
-18.817862 -6.6415968 -13.536145
-19.289251 -7.9426336 -12.149706
-20.065756 -9.4427109 -9.8658657
-19.101332 11.93833 -9.1911335
-18.090616 10.175972 -12.349623
-17.591549 8.7957754 -13.909204
-17.280951 7.5604148 -14.879825
-17.050858 6.3940687 -15.598873
-16.844534 5.2639174 -16.243631
-16.7239 4.1809716 -16.620607
-16.621386 3.1165104 -16.940968
-16.547354 2.0684199 -17.172314
-16.524731 1.032794 -17.243011
-16.504976 -1.9073486e-06 -17.304749
-16.530727 -1.0331707 -17.224277
-16.586798 -2.0733514 -17.049055
-16.651808 -3.1222167 -16.845894
-16.748487 -4.1871214 -16.543772
-16.884081 -5.2762752 -16.120049
-17.066454 -6.3999181 -15.550128
-17.326305 -7.5802588 -14.738092
-17.635107 -8.8175545 -13.773083
-18.173042 -10.222337 -12.092041
-19.328043 -12.080029 -8.4826622
-17.356119 12.727818 -11.02907
-16.648029 11.098688 -13.389362
-16.237402 9.7424412 -14.758122
-15.936418 8.4994211 -15.761403
-15.7279 7.3396859 -16.456463
-15.56883 6.2275314 -16.986698
-15.418162 5.1393847 -17.488922
-15.30267 4.0807109 -17.873894
-15.237413 3.047482 -18.091417
-15.183497 2.0244656 -18.271141
-15.148287 1.0098848 -18.388504
-15.152185 -1.9073486e-06 -18.375507
-15.178628 -1.0119076 -18.287369
-15.207127 -2.0276189 -18.192377
-15.242659 -3.048532 -18.073935
-15.330516 -4.0881386 -17.781073
-15.445887 -5.1486282 -17.396505
-15.57139 -6.2285585 -16.978161
-15.753974 -7.3518553 -16.369549
-15.984648 -8.5251455 -15.600633
-16.286594 -9.7719603 -14.594142
-16.72422 -11.149482 -13.135396
-17.482204 -12.820284 -10.608782
-15.955923 13.676505 -11.897356
-15.392079 12.093777 -13.911084
-14.998517 10.713226 -15.316666
-14.744127 9.4783659 -16.225201
-14.519622 8.2969246 -17.027004
-14.352786 7.1763921 -17.622845
-14.208266 6.0892544 -18.138988
-14.104985 5.0374937 -18.507851
-14.032499 4.0092835 -18.766724
-13.962444 2.9919529 -19.016922
-13.928518 1.9897871 -19.138088
-13.90123 0.99294472 -19.235548
-13.883325 -1.9073486e-06 -19.299492
-13.907795 -0.99341488 -19.212101
-13.935497 -1.9907856 -19.113165
-13.981465 -2.9960308 -18.948992
-14.052809 -4.0150895 -18.694195
-14.126477 -5.0451722 -18.431093
-14.225493 -6.0966382 -18.077465
-14.383393 -7.1917 -17.513535
-14.551838 -8.3153381 -16.911942
-14.748905 -9.4814425 -16.208136
-15.059125 -10.756517 -15.100208
-15.417466 -12.113724 -13.820415
-16.06934 -13.77372 -11.492297
-14.823353 14.823351 -11.869902
-14.209153 13.116141 -14.232208
-13.877716 11.742681 -15.506962
-13.58508 10.450062 -16.632486
-13.386135 9.2673225 -17.397657
-13.220949 8.1359663 -18.032993
-13.094657 7.0509672 -18.51873
-12.986537 5.9937854 -18.934574
-12.89591 4.9599657 -19.28314
-12.82975 3.9476142 -19.537605
-12.782946 2.9499083 -19.717625
-12.744978 1.9607649 -19.863651
-12.72393 0.97876358 -19.944603
-12.719869 -9.5367432e-07 -19.960228
-12.729001 -0.97915268 -19.925098
-12.741756 -1.9602718 -19.87604
-12.780367 -2.949316 -19.727537
-12.834119 -3.9489622 -19.520803
-12.901 -4.9619231 -19.263563
-13.002317 -6.00107 -18.873882
-13.109304 -7.0588574 -18.462395
-13.223289 -8.1374073 -18.023993
-13.42544 -9.2945347 -17.246489
-13.633867 -10.487593 -16.444845
-13.90322 -11.764263 -15.408875
-14.287374 -13.188346 -13.931359
-14.929784 -14.929783 -11.460554
-13.769889 16.064869 -11.508262
-13.161423 14.258207 -14.043532
-12.783147 12.783144 -15.619681
-12.519301 11.476026 -16.719038
-12.313058 10.260881 -17.57839
-12.153756 9.1153164 -18.242147
-12.01794 8.01196 -18.808052
-11.895044 6.9387741 -19.32011
-11.812129 5.9060631 -19.665592
-11.733391 4.8889117 -19.99367
-11.680548 3.8935175 -20.213844
-11.639746 2.9099369 -20.383854
-11.600064 1.9333439 -20.5492
-11.592995 0.96608067 -20.578655
-11.589376 -2.8610229e-06 -20.593729
-11.592577 -0.96604919 -20.580391
-11.621496 -1.9369173 -20.459892
-11.652846 -2.9132128 -20.329271
-11.694307 -3.8981037 -20.156515
-11.746417 -4.8943405 -19.939396
-11.823412 -5.9117069 -19.61858
-11.920967 -6.9538984 -19.212099
-12.033554 -8.0223713 -18.742987
-12.168691 -9.1265163 -18.17992
-12.341073 -10.284226 -17.46166
-12.555444 -11.509158 -16.568445
-12.83724 -12.837239 -15.394297
-13.209096 -14.309854 -13.844898
-13.850087 -16.158434 -11.174102
-12.885895 17.571674 -10.310543
-12.151647 15.465727 -13.648045
-11.766453 13.905807 -15.39892
-11.484403 12.528439 -16.680964
-11.287653 11.287653 -17.575283
-11.112998 10.102725 -18.369165
-10.974335 8.979001 -18.999456
-10.870008 7.9054613 -19.473663
-10.775185 6.8569365 -19.904682
-10.705324 5.8392663 -20.222233
-10.643078 4.8377619 -20.505169
-10.594472 3.8525324 -20.726103
-10.557852 2.8794127 -20.892561
-10.53291 1.9150724 -21.005932
-10.519639 0.95633125 -21.066257
-10.510612 -0 -21.107285
-10.515639 -0.95596695 -21.084435
-10.5315 -1.9148178 -21.012344
-10.554233 -2.8784275 -20.909014
-10.597835 -3.8537588 -20.710823
-10.653263 -4.8423934 -20.458874
-10.714915 -5.8445005 -20.178637
-10.779549 -6.8597145 -19.88485
-10.881235 -7.9136267 -19.422638
-11.002713 -9.0022192 -18.870464
-11.126936 -10.115396 -18.305817
-11.311132 -11.311134 -17.468559
-11.52647 -12.574331 -16.489752
-11.80152 -13.947254 -15.23952
-12.202999 -15.531092 -13.414613
-13.127637 -17.901323 -9.2117176
-11.19147 16.787203 -12.925446
-10.761337 15.06587 -15.076112
-10.478234 13.621706 -16.491625
-10.273361 12.328032 -17.515991
-10.109835 11.120817 -18.333622
-9.9793596 9.9793587 -18.985996
-9.8656197 8.8790569 -19.554701
-9.7742023 7.8193593 -20.011784
-9.6949959 6.7864952 -20.407814
-9.6263838 5.7758298 -20.750879
-9.5790491 4.7895231 -20.987549
-9.5323763 3.8129492 -21.220915
-9.5050392 2.85151 -21.357603
-9.4857635 1.8971519 -21.453976
-9.4704952 0.94704914 -21.530319
-9.4706068 9.5367432e-07 -21.529762
-9.4759598 -0.94759655 -21.502993
-9.4895401 -1.8979082 -21.435099
-9.5085211 -2.8525572 -21.340191
-9.5409946 -3.8164005 -21.17782
-9.5830994 -4.7915497 -20.967297
-9.6362696 -5.7817631 -20.70145
-9.6996126 -6.7897315 -20.384731
-9.7775583 -7.8220487 -19.995005
-9.8756104 -8.8880463 -19.504747
-9.9956636 -9.9956646 -18.904478
-10.136743 -11.150417 -18.199083
-10.305534 -12.366643 -17.355125
-10.529073 -13.687797 -16.237432
-10.828505 -15.159905 -14.740276
-11.291798 -16.937698 -12.423806
-10.362888 18.422913 -11.311194
-9.8301287 16.383543 -14.270973
-9.5172043 14.804535 -16.009441
-9.2988615 13.431686 -17.222452
-9.1255693 12.167423 -18.18519
-9.0001783 11.000219 -18.881805
-8.888649 9.8762741 -19.501413
-8.7850952 8.7850924 -20.07671
-8.7071619 7.7396994 -20.509678
-8.6440172 6.7231231 -20.860481
-8.5889587 5.7259703 -21.166363
-8.5488291 4.7493467 -21.389305
-8.5103731 3.7823887 -21.602947
-8.486659 2.8288841 -21.734692
-8.4670839 1.8815746 -21.843439
-8.452013 0.93911266 -21.927166
-8.4510269 -2.8610229e-06 -21.932652
-8.4557638 -0.93952847 -21.906334
-8.4681244 -1.8818045 -21.837658
-8.4932785 -2.8310966 -21.697916
-8.5210629 -3.7871399 -21.543556
-8.552186 -4.7512155 -21.370651
-8.5922966 -5.7281971 -21.147816
-8.6503677 -6.728066 -20.825195
-8.7150736 -7.7467303 -20.465721
-8.7968616 -8.7968636 -20.011341
-8.8952818 -9.8836479 -19.464561
-9.0194044 -11.023717 -18.774994
-9.1498137 -12.199753 -18.050501
-9.3374729 -13.487461 -17.007948
-9.5521688 -14.858932 -15.815187
-9.8874102 -16.479017 -13.952741
-10.469304 -18.612099 -10.719994
-8.9369221 17.873844 -13.027028
-8.5724068 16.073265 -15.305247
-8.3416042 14.597806 -16.747772
-8.1674566 13.272117 -17.836193
-8.0271969 12.040792 -18.712818
-7.9143062 10.882171 -19.418381
-7.824091 9.7801132 -19.982227
-7.742981 8.7108526 -20.489164
-7.6840525 7.6840525 -20.857471
-7.6287932 6.6751933 -21.202839
-7.5822196 5.6866627 -21.493927
-7.5451775 4.7157345 -21.725435
-7.5164318 3.758215 -21.905098
-7.4931126 2.8099174 -22.050846
-7.4762487 1.8690605 -22.156239
-7.4683986 0.93354893 -22.205307
-7.4662108 -1.9073486e-06 -22.218977
-7.4649982 -0.93312645 -22.226555
-7.4738612 -1.8684673 -22.17116
-7.4932213 -2.8099594 -22.050165
-7.5166512 -3.7583265 -21.903727
-7.5466375 -4.7166481 -21.716309
-7.5808358 -5.6856294 -21.502573
-7.630353 -6.6765609 -21.193089
-7.6843505 -7.6843495 -20.855606
-7.7544084 -8.723711 -20.417746
-7.8343759 -9.7929707 -19.917948
-7.9326434 -10.907387 -19.303772
-8.0550737 -12.082613 -18.538586
-8.1925364 -13.312872 -17.679445
-8.3728819 -14.652548 -16.55228
-8.6191854 -16.160975 -15.012884
-8.9832277 -17.966455 -12.737619
-8.1318283 19.748724 -10.798307
-7.654202 17.495317 -14.209926
-7.3967528 15.850183 -16.048847
-7.2169476 14.433894 -17.333168
-7.0792637 13.147202 -18.316624
-6.9669294 11.943306 -19.119015
-6.8721633 10.799112 -19.795914
-6.7944388 9.7063427 -20.351088
-6.7280035 8.6502914 -20.825626
-6.6755505 7.6291976 -21.200298
-6.6311221 6.6311188 -21.517639
-6.5909047 5.6493464 -21.804903
-6.5576758 4.6840515 -22.042255
-6.5351334 3.7343607 -22.203274
-6.5127821 2.7911911 -22.362923
-6.5035882 1.8581686 -22.428591
-6.4968176 0.92811584 -22.476955
-6.4936342 -0 -22.499699
-6.4947762 -0.92782784 -22.491541
-6.499929 -1.8571224 -22.454731
-6.5156641 -2.792428 -22.342337
-6.5336733 -3.7335272 -22.213697
-6.5624514 -4.6874657 -22.008144
-6.5919275 -5.6502237 -21.797604
-6.6341491 -6.6341481 -21.496019
-6.6797462 -7.6339955 -21.170326
-6.7385893 -8.6639013 -20.750015
-6.8036933 -9.7195625 -20.284985
-6.8833766 -10.816733 -19.715822
-6.9847722 -11.973896 -18.991566
-7.1021399 -13.189688 -18.153225
-7.2413058 -14.48261 -17.159184
-7.4364548 -15.93526 -15.765262
-7.7103157 -17.623583 -13.809109
-8.2595835 -20.058989 -9.8857727
-6.7925243 19.245483 -12.278428
-6.4665327 17.244089 -14.995023
-6.274703 15.686757 -16.593605
-6.1318564 14.307662 -17.783998
-6.0188775 13.040901 -18.725483
-5.9282403 11.85648 -19.480797
-5.8521509 10.728943 -20.11487
-5.7881398 9.6468992 -20.648298
-5.7355986 8.6033983 -21.08614
-5.6875858 7.5834451 -21.486246
-5.6507688 6.5925651 -21.793056
-5.6181335 5.6181316 -22.065018
-5.5927329 4.6606121 -22.276688
-5.5719309 3.7146196 -22.450039
-5.5568581 2.7784262 -22.575645
-5.5479331 1.8493099 -22.650019
-5.5392909 0.92321396 -22.722034
-5.535893 -1.9073486e-06 -22.750355
-5.5401492 -0.92335987 -22.714884
-5.5457659 -1.8485928 -22.668079
-5.5589375 -2.7794695 -22.558319
-5.5732012 -3.7154694 -22.439455
-5.5966067 -4.6638412 -22.244404
-5.620832 -5.6208324 -22.042528
-5.6554856 -6.5980659 -21.75375
-5.6924648 -7.5899539 -21.445587
-5.7416363 -8.6124573 -21.035828
-5.7958536 -9.6597557 -20.584015
-5.8612814 -10.745685 -20.038782
-5.9414463 -11.882894 -19.370743
-6.037622 -13.081514 -18.569283
-6.1559987 -14.363998 -17.582806
-6.3056431 -15.764111 -16.335764
-6.5054197 -17.347788 -14.670959
-6.8429294 -19.3883 -11.858382
-5.5633683 18.915451 -13.249113
-5.33355 17.067358 -15.547301
-5.1861978 15.55859 -17.020823
-5.0746689 14.209074 -18.136105
-4.9845486 12.959825 -19.037312
-4.9134994 11.792397 -19.747801
-4.8529658 10.676523 -20.353138
-4.7997251 9.5994473 -20.885546
-4.7563543 8.5614376 -21.319252
-4.7198029 7.5516834 -21.684769
-4.688189 6.5634632 -22.000906
-4.6625957 5.5951157 -22.256836
-4.6421638 4.6421623 -22.461161
-4.6235962 3.6988773 -22.646832
-4.6142225 2.7685318 -22.74057
-4.6067328 1.8426933 -22.815468
-4.600924 0.92018509 -22.873558
-4.5992012 -2.8610229e-06 -22.890785
-4.600174 -0.92003536 -22.881052
-4.6018977 -1.8407593 -22.863819
-4.6138263 -2.7682953 -22.744539
-4.6258163 -3.7006569 -22.624634
-4.6450181 -4.6450167 -22.432617
-4.6656647 -5.5988007 -22.226149
-4.6937823 -6.5712981 -21.944973
-4.7242785 -7.5588479 -21.640011
-4.7634792 -8.5742636 -21.248005
-4.8071523 -9.6143064 -20.81127
-4.8598838 -10.691746 -20.283958
-4.9232264 -11.815741 -19.650537
-4.9967918 -12.991658 -18.914881
-5.0944948 -14.264585 -17.937847
-5.2014699 -15.60441 -16.868097
-5.3655615 -17.169796 -15.22718
-5.6055598 -19.058903 -12.8272
-4.7266936 21.270123 -9.7991199
-4.4050808 18.721592 -13.819285
-4.2386289 16.954514 -15.899935
-4.1256356 15.47113 -17.312357
-4.0398855 14.139599 -18.384228
-3.9701631 12.903028 -19.25576
-3.9126399 11.737919 -19.974796
-3.8658867 10.631187 -20.559214
-3.8262217 9.5655508 -21.055029
-3.7919137 8.531805 -21.483873
-3.7625549 7.5251074 -21.850863
-3.7380269 6.5415449 -22.157463
-3.7187304 5.5780954 -22.39867
-3.700536 4.6256676 -22.626099
-3.6889133 3.6889124 -22.771376
-3.6782782 2.758708 -22.90432
-3.6729889 1.8364954 -22.970436
-3.6700044 0.9175005 -23.00774
-3.6686342 -9.5367432e-07 -23.024868
-3.6695023 -0.91737461 -23.014017
-3.6716268 -1.8358135 -22.987461
-3.6801291 -2.7600975 -22.881186
-3.6892729 -3.6892757 -22.766884
-3.7042203 -4.6302767 -22.580046
-3.7199337 -5.5798998 -22.383625
-3.7419167 -6.5483561 -22.108837
-3.7655373 -7.5310745 -21.81358
-3.7962077 -8.5414667 -21.430199
-3.8309128 -9.577282 -20.996386
-3.8719797 -10.647944 -20.483049
-3.923671 -11.771015 -19.836906
-3.982285 -12.942429 -19.104235
-4.053586 -14.187551 -18.212969
-4.1408305 -15.528116 -17.122414
-4.2597098 -17.038841 -15.636425
-4.4295759 -18.825699 -13.5131
-3.4913204 20.947922 -10.694123
-3.273299 18.548693 -14.327815
-3.164551 16.877605 -16.140282
-3.0798647 15.399323 -17.551714
-3.0177636 14.082892 -18.58674
-2.9673634 12.858572 -19.426743
-2.928694 11.714773 -20.071234
-2.892128 10.604469 -20.68066
-2.8613317 9.5377703 -21.193939
-2.8362575 8.5087729 -21.611837
-2.8153906 7.5077052 -21.959621
-2.7969739 6.5262709 -22.266565
-2.7824645 5.564929 -22.508387
-2.7703609 4.6172667 -22.710115
-2.7617073 3.6822758 -22.85434
-2.7530448 2.753046 -22.998716
-2.7476311 1.8317537 -23.088947
-2.744499 0.91483307 -23.141148
-2.7435553 -1.9073486e-06 -23.156874
-2.7447643 -0.91492367 -23.136726
-2.7472088 -1.8314734 -23.095984
-2.7538614 -2.7538614 -22.985106
-2.7607045 -3.6809397 -22.871056
-2.771872 -4.6197882 -22.684931
-2.7836199 -5.5672402 -22.489132
-2.799886 -6.5330672 -22.218029
-2.8178968 -7.5143924 -21.917847
-2.8402877 -8.5208645 -21.544666
-2.8661308 -9.5537701 -21.113949
-2.8961449 -10.619198 -20.613714
-2.9339001 -11.735601 -19.984461
-2.977108 -12.900803 -19.26433
-3.0242386 -14.113113 -18.478819
-3.0933938 -15.46697 -17.326235
-3.1739972 -16.927984 -15.982844
-3.2958033 -18.676216 -13.952744
-3.54601 -21.276058 -9.7826309
-2.2976768 20.679092 -11.440872
-2.1731298 18.4716 -14.554556
-2.1020734 16.816589 -16.330959
-2.0482841 15.36213 -17.675697
-2.0076318 14.053419 -18.692005
-1.9751098 12.838211 -19.505051
-1.9486263 11.691757 -20.167135
-1.9240394 10.582216 -20.781813
-1.9046474 9.5232353 -21.266613
-1.8878658 8.4953957 -21.686153
-1.8735452 7.4941797 -22.044163
-1.8618661 6.5165329 -22.33614
-1.8516625 5.554987 -22.591234
-1.8444462 4.6111145 -22.771641
-1.8387766 3.6775532 -22.913382
-1.8329016 2.7493525 -23.060257
-1.8288031 1.8288021 -23.16272
-1.8271105 0.91355515 -23.20503
-1.8264989 1.9073486e-06 -23.220325
-1.8273596 -0.91367912 -23.198805
-1.8293487 -1.8293505 -23.149075
-1.8332827 -2.7499275 -23.05073
-1.8378682 -3.6757364 -22.93609
-1.8450435 -4.6126099 -22.756704
-1.8528779 -5.5586357 -22.560848
-1.8634022 -6.5219078 -22.297739
-1.8754669 -7.5018678 -21.996126
-1.8899722 -8.5048752 -21.633493
-1.9077805 -9.5389032 -21.188286
-1.9289057 -10.608981 -20.660152
-1.9511013 -11.706608 -20.105261
-1.9797634 -12.86846 -19.388714
-2.0131135 -14.091794 -18.55496
-2.0565367 -15.424024 -17.469379
-2.1085603 -16.868483 -16.168793
-2.1839838 -18.563862 -14.283204
-2.3329799 -20.996819 -10.558301
-1.1473681 20.652622 -11.514397
-1.0858024 18.458641 -14.592676
-1.0481613 16.770578 -16.474733
-1.0224469 15.336699 -17.760458
-1.0027462 14.038445 -18.745485
-0.98715812 12.833055 -19.524893
-0.97334081 11.680088 -20.215761
-0.96097982 10.570778 -20.833805
-0.95151556 9.5151548 -21.307016
-0.94306982 8.4876289 -21.729303
-0.93621939 7.4897552 -22.071827
-0.93021464 6.5115013 -22.372066
-0.92519784 5.5511856 -22.622906
-0.92120147 4.6060066 -22.822721
-0.91820788 3.6728296 -22.972403
-0.9154914 2.7464724 -23.108227
-0.91395223 1.8279018 -23.185184
-0.91284275 0.9128418 -23.240662
-0.91251147 -9.5367432e-07 -23.257225
-0.91304213 -0.91304207 -23.23069
-0.91407424 -1.8281498 -23.179083
-0.91606468 -2.7481909 -23.079561
-0.91843325 -3.6737356 -22.961136
-0.92192191 -4.6096115 -22.786701
-0.92601776 -5.5561051 -22.581909
-0.93121052 -6.5184746 -22.322268
-0.93722004 -7.4977617 -22.021797
-0.9442957 -8.4986629 -21.668011
-0.95326865 -9.5326872 -21.219364
-0.96370786 -10.600784 -20.697407
-0.97438103 -11.692573 -20.163744
-0.98895085 -12.856361 -19.435253
-1.0059117 -14.082765 -18.587212
-1.0261633 -15.392451 -17.574629
-1.053152 -16.85043 -16.225199
-1.0911145 -18.548944 -14.327076
-1.1594173 -20.869511 -10.911932
0 20.660431 -11.492704
0 18.465118 -14.573622
0 16.792074 -16.407568
0 15.346502 -17.727789
0 14.036738 -18.751581
0 12.82971 -19.537756
0 11.671898 -20.249884
0 10.574028 -20.819025
0 9.522193 -21.271824
0 8.4889469 -21.721981
0 7.488359 -22.080544
0 6.5223036 -22.294903
0 5.567915 -22.483513
0 4.621233 -22.670467
0 3.6821384 -22.856052
0 2.7505674 -23.040024
0 1.8275661 -23.193617
0 0.91289425 -23.238071
0 -9.5367432e-07 -23.242477
0 -0.91303253 -23.231337
0 -1.8286037 -23.167788
0 -2.7479134 -23.084255
0 -3.6743631 -22.953274
0 -4.6089478 -22.793301
0 -5.5570679 -22.573914
0 -6.5179267 -22.326178
0 -7.4991999 -22.012791
0 -8.49891 -21.666626
0 -9.5305996 -21.229809
0 -10.598091 -20.709667
0 -11.704125 -20.11561
0 -12.861105 -19.417013
0 -14.083821 -18.583437
0 -15.399031 -17.552698
0 -16.84795 -16.232954
0 -18.5667 -14.27486
0 -20.906944 -10.807949
1.1560354 20.80864 -11.08102
1.08915 18.515549 -14.425297
1.0523771 16.838034 -16.263941
1.0242268 15.3634 -17.671461
1.0041196 14.057675 -18.676813
0.98794591 12.843298 -19.485497
0.97406548 11.688787 -20.179522
0.96224982 10.584745 -20.770306
0.9526366 9.5263643 -21.250967
0.94546914 8.5092239 -21.609339
0.94157994 7.5326376 -21.803802
0.93772793 6.5640945 -21.996395
0.93390733 5.6034451 -22.187426
0.93011791 4.650589 -22.376904
0.92636156 3.7054443 -22.564716
0.92263293 2.7678967 -22.751152
0.91893679 1.8378735 -22.935959
0.91525966 0.91525745 -23.119814
0.91337639 -0 -23.213976
0.91382515 -0.91382504 -23.19154
0.91552526 -1.8310518 -23.106535
0.91707492 -2.7512264 -23.029053
0.91958266 -3.6783295 -22.903664
0.92281806 -4.6140919 -22.74189
0.92720228 -5.5632153 -22.522682
0.93200332 -6.524024 -22.282627
0.93835407 -7.506834 -21.965096
0.94550526 -8.5095501 -21.607533
0.95389587 -9.5389595 -21.188002
0.96445584 -10.609015 -20.660006
0.97675866 -11.721106 -20.044859
0.98980862 -12.867513 -19.392368
1.0079406 -14.111172 -18.485764
1.0284195 -15.426291 -17.461824
1.0562074 -16.899321 -16.072428
1.0952847 -18.619841 -14.118565
1.1656281 -20.981304 -10.601395
2.3362823 21.026543 -10.475733
2.1910317 18.623766 -14.107008
2.1127477 16.901979 -16.064108
2.056438 15.423285 -17.471848
2.0146823 14.102776 -18.515738
1.9797816 12.86858 -19.388254
1.9521369 11.71282 -20.079372
1.9292296 10.610764 -20.652058
1.9111793 9.5558949 -21.103313
1.9032282 8.5645275 -21.302094
1.8953539 7.5814152 -21.498951
1.8875445 6.6064072 -21.69418
1.8798048 5.6394129 -21.887672
1.8721284 4.6803198 -22.079586
1.8645197 3.7290392 -22.269804
1.8569672 2.7854509 -22.458614
1.8494864 1.8494864 -22.645636
1.8420392 0.92101669 -22.831818
1.8346622 -2.8610229e-06 -23.016241
1.8308421 -0.91542149 -23.111744
1.8339409 -1.8339415 -23.034275
1.8365991 -2.7549 -22.967815
1.8421341 -3.684269 -22.829441
1.8487214 -4.6218052 -22.664757
1.8573799 -5.5721393 -22.448299
1.8678582 -6.5375042 -22.186344
1.8802441 -7.5209765 -21.87669
1.895767 -8.5309515 -21.488623
1.9134861 -9.5674324 -21.045643
1.9336401 -10.635022 -20.54179
1.9579624 -11.747774 -19.933737
1.9849652 -12.902274 -19.258667
2.021821 -14.152749 -18.337275
2.060513 -15.453847 -17.369972
2.1213472 -16.970778 -15.849119
2.203136 -18.726654 -13.804397
2.3700564 -21.330511 -9.6313829
3.6525252 21.915154 -8.0073757
3.3141308 18.780077 -13.647282
3.189579 17.011086 -15.723147
3.0992026 15.496015 -17.229416
3.0338941 14.15817 -18.317898
2.9827828 12.925393 -19.169746
2.9393487 11.757394 -19.89365
2.9024308 10.642244 -20.508949
2.8856018 9.6186714 -20.789434
2.873518 8.620554 -20.990828
2.861552 7.6308036 -21.190262
2.8496938 6.6492863 -21.387901
2.837925 5.675848 -21.584049
2.8262696 4.7104473 -21.778307
2.8147011 3.7529325 -21.971111
2.8032353 2.8032341 -22.162205
2.7918622 1.8612394 -22.351755
2.7805653 0.92685413 -22.540035
2.7693436 1.9073486e-06 -22.727066
2.7582517 -0.91941738 -22.911934
2.7562044 -1.8374691 -22.946056
2.7622604 -2.7622604 -22.845123
2.770504 -3.6940022 -22.707729
2.7808378 -4.6347294 -22.535503
2.7935667 -5.5871329 -22.323349
2.8096473 -6.5558438 -22.055344
2.8273618 -7.5396304 -21.760098
2.8525565 -8.5576706 -21.340189
2.8790879 -9.5969601 -20.897997
2.907588 -10.661156 -20.422998
2.9477668 -11.791067 -19.753349
2.9902937 -12.957938 -19.044569
3.0448973 -14.209524 -18.134504
3.1106658 -15.55333 -17.038364
3.1995358 -17.064192 -15.557199
3.3274028 -18.855282 -13.426083
4.4748144 19.017958 -12.947619
4.2880883 17.152355 -15.28169
4.1610951 15.604105 -16.869108
4.0703125 14.246094 -18.003891
3.9961431 12.987465 -18.931009
3.9365575 11.809671 -19.675827
3.8894107 10.695877 -20.265163
3.8729234 9.6823053 -20.471256
3.8565865 8.6773205 -20.675463
3.8404217 7.6808453 -20.877527
3.824414 6.6927228 -21.07762
3.808517 5.7127743 -21.276331
3.7927628 4.7409544 -21.473259
3.7771385 3.7771368 -21.668566
3.7616529 2.8212404 -21.862133
3.7463055 1.8731527 -22.053982
3.7310495 0.9327631 -22.244675
3.7159071 -1.9073486e-06 -22.433956
3.7008975 -0.92522526 -22.621574
3.6865368 -1.8432703 -22.80109
3.6954052 -2.771554 -22.690235
3.705617 -3.7056189 -22.562584
3.7203314 -4.6504154 -22.378653
3.7382224 -5.6073337 -22.155018
3.7596865 -6.5794544 -21.886713
3.7860367 -7.5720749 -21.557337
3.8189228 -8.592577 -21.146257
3.8543005 -9.6357517 -20.704042
3.8953657 -10.712256 -20.190722
3.9489472 -11.846842 -19.520954
4.0050445 -13.016396 -18.819738
4.0827565 -14.289647 -17.848335
4.1746702 -15.655015 -16.699417
4.2994885 -17.197956 -15.139191
4.5060472 -19.150703 -12.557205
5.7003808 19.38129 -11.87899
5.4233031 17.354568 -14.649768
5.247386 15.742154 -16.408937
5.1249342 14.349813 -17.633459
5.0334759 13.087036 -18.548035
4.9548645 11.891673 -19.334152
4.8942509 10.767349 -19.940289
4.8733807 9.7467594 -20.148991
4.8527021 8.7348642 -20.355772
4.8322277 7.731564 -20.56052
4.8119535 6.736732 -20.763258
4.7918067 5.7501669 -20.964729
4.7718558 4.7718534 -21.164238
4.7520843 3.8016691 -21.36195
4.7324619 2.8394747 -21.558174
4.7130289 1.885211 -21.752506
4.6937137 0.93874168 -21.945662
4.6745558 -1.9073486e-06 -22.137234
4.6555405 -0.93111038 -22.327389
4.6367192 -1.8546858 -22.515602
4.6386309 -2.7831802 -22.496489
4.6551905 -3.7241535 -22.330893
4.6718011 -4.6718006 -22.164787
4.6929469 -5.6315374 -21.953323
4.7198858 -6.6078391 -21.683939
4.7533193 -7.6053123 -21.3496
4.7950907 -8.6311655 -20.931887
4.8437042 -9.6874104 -20.445755
4.8976922 -10.774924 -19.905874
4.9627805 -11.910673 -19.254992
5.0385671 -13.100275 -18.497129
5.1379266 -14.386195 -17.503527
5.2694497 -15.808349 -16.188299
5.4410911 -17.411491 -14.471886
5.7432899 -19.527184 -11.449899
7.0978856 20.110676 -9.7337475
6.5974393 17.59317 -13.904133
6.3748827 15.937206 -15.758773
6.2103066 14.490714 -17.130239
6.08705 13.188606 -18.157383
5.9912386 11.982474 -18.955811
5.9126287 10.839819 -19.610886
5.8872652 9.8121071 -19.822254
5.8621001 8.793148 -20.031963
5.8372025 7.7829356 -20.239447
5.8125677 6.7813292 -20.444733
5.788105 5.7881031 -20.648588
5.7637963 4.8031645 -20.851162
5.7397585 3.8265066 -21.051472
5.7159042 2.8579531 -21.250261
5.6922808 1.8974247 -21.447126
5.6688347 0.94480515 -21.642508
5.6455483 -9.5367432e-07 -21.836559
5.6224194 -0.93707085 -22.029301
5.5995283 -1.8665094 -22.220058
5.5956502 -2.7978239 -22.25238
5.6150136 -3.7433424 -22.091019
5.6369781 -4.697484 -21.907978
5.6630158 -5.6630149 -21.690998
5.6967812 -6.646246 -21.40962
5.7379169 -7.650557 -21.066822
5.7857466 -8.6786194 -20.668242
5.845295 -9.7421589 -20.172003
5.9168868 -10.847628 -19.575405
6.0020394 -12.004081 -18.865799
6.0979104 -13.212141 -18.066875
6.2353139 -14.549068 -16.921844
6.4017234 -16.004309 -15.535099
6.6504512 -17.734531 -13.462376
7.8937063 18.042757 -12.499178
7.5551677 16.189642 -14.917315
7.3306112 14.661221 -16.521292
7.1760502 13.326948 -17.625296
7.0478368 12.082005 -18.541107
6.9456863 10.91465 -19.270752
6.9148364 9.8783369 -19.491106
6.8850598 8.8522186 -19.7038
6.8556418 7.8350196 -19.913923
6.8264961 6.8264947 -20.122112
6.7976165 5.8265271 -20.328396
6.7688584 4.834898 -20.533806
6.7404242 3.8516722 -20.736908
6.7122474 2.8766756 -20.938175
6.6843247 1.9098053 -21.137619
6.6566339 0.95094395 -21.335415
6.6290731 -3.8146973e-06 -21.532274
6.6017594 -0.94311047 -21.727367
6.5747085 -1.8784885 -21.920589
6.5679231 -2.8148251 -21.969059
6.5892663 -3.7652969 -21.81661
6.6182065 -4.7272887 -21.609892
6.6500115 -5.7000084 -21.382713
6.6916513 -6.6916523 -21.085287
6.7415943 -7.7046814 -20.728554
6.8056874 -8.7501717 -20.270744
6.8807483 -9.8296413 -19.734592
6.9648838 -10.944817 -19.133629
7.0724411 -12.124187 -18.365362
7.1984992 -13.368642 -17.464947
7.3641353 -14.72827 -16.28183
7.589427 -16.263058 -14.672606
7.9556475 -18.184341 -12.056742
9.3412981 18.682596 -10.499682
8.8025713 16.50482 -13.866727
8.5095358 14.891686 -15.698196
8.305706 13.496767 -16.972137
8.149231 12.223846 -17.950102
8.022295 11.030657 -18.743454
7.9563241 9.945406 -19.155769
7.9218798 8.9121151 -19.371048
7.8878045 7.8878031 -19.584019
7.8540449 6.8722887 -19.795017
7.8206205 5.8654675 -20.003914
7.7872677 4.8670444 -20.212372
7.7543383 3.8771687 -20.418182
7.7217093 2.8956394 -20.622114
7.6893768 1.9223442 -20.824192
7.6573362 0.95716572 -21.024443
7.6254039 -0 -21.224022
7.5938492 -0.94923306 -21.421242
7.5624647 -1.8906164 -21.61739
7.5635533 -2.8363323 -21.610588
7.5926843 -3.7963438 -21.42852
7.6218147 -4.7636371 -21.246454
7.6595912 -5.7446952 -21.010349
7.7085772 -6.7450056 -20.704187
7.7730913 -7.7730904 -20.300978
7.8530154 -8.8346443 -19.801453
7.9369483 -9.9211845 -19.276873
8.0411615 -11.056595 -18.62554
8.1767168 -12.265078 -17.778316
8.3370934 -13.547776 -16.775967
8.5492926 -14.961265 -15.449713
8.8632383 -16.618574 -13.487555
9.5906191 -19.181238 -8.9414272
10.227895 17.04649 -12.06116
9.7636566 15.187908 -14.640262
9.494524 13.714311 -16.135439
9.2966242 12.395496 -17.234888
9.1379204 11.16857 -18.116573
9.0120516 10.013391 -18.815842
8.9727983 8.9727974 -19.033913
8.9339685 7.9413052 -19.249638
8.8954735 6.9187007 -19.463501
8.8573627 5.9049067 -19.675224
8.819335 4.8996282 -19.88649
8.7817926 3.9030161 -20.095058
8.7445688 2.914855 -20.301857
8.7077112 1.9350452 -20.506622
8.6711893 0.96346664 -20.709522
8.6348171 -0 -20.911587
8.5988264 -0.95542717 -21.11154
8.5630579 -1.9029045 -21.310249
8.5795193 -2.8598404 -21.218798
8.6083069 -3.8259144 -21.058868
8.6487923 -4.8048854 -20.833954
8.7004137 -5.8002777 -20.547167
8.7606764 -6.8138614 -20.212372
8.8336716 -7.8521562 -19.806839
8.9301672 -8.9301662 -19.270756
9.0335541 -10.037283 -18.696388
9.1700039 -11.207783 -17.938332
9.3231964 -12.430927 -17.087261
9.539114 -13.778721 -15.887718
9.8146725 -15.267269 -14.356839
10.300972 -17.168287 -11.655172
11.156244 15.618741 -13.101575
10.773297 14.005284 -15.016313
10.516721 12.620061 -16.299192
10.304709 11.335177 -17.359249
10.147194 10.147194 -18.146828
10.038158 9.0343428 -18.692005
9.994421 7.9955363 -18.910686
9.9510641 6.9657421 -19.127474
9.9081421 5.9448824 -19.342087
9.8652868 4.9326425 -19.556362
9.8230104 3.929203 -19.767746
9.7810946 2.9343262 -19.977325
9.7396231 1.9479237 -20.184683
9.698473 0.96984768 -20.39043
9.6575823 -2.8610229e-06 -20.594887
9.6170053 -0.96170235 -20.797766
9.6034031 -1.920682 -20.86578
9.6307335 -2.8892202 -20.729132
9.6663418 -3.8665385 -20.551085
9.71346 -4.85673 -20.315495
9.7672606 -5.8603582 -20.046492
9.8433504 -6.8903461 -19.666044
9.932085 -7.9456697 -19.22237
10.044425 -9.0399837 -18.660673
10.168258 -10.168259 -18.041508
10.345687 -11.380255 -17.154366
10.547812 -12.657372 -16.14374
10.828176 -14.07663 -14.741915
11.252593 -15.75363 -12.619831
12.939069 16.467907 -10.068847
12.188967 14.40514 -13.478402
11.819921 12.894458 -15.155878
11.565143 11.565141 -16.313967
11.356271 10.323882 -17.263386
11.198529 9.1624298 -17.980392
11.069424 8.0504875 -18.567236
11.021108 7.0134296 -18.786852
10.973247 5.985405 -19.004402
10.925462 4.9661174 -19.221603
10.878292 3.9557409 -19.436012
10.831594 2.9540701 -19.648273
10.785329 1.9609652 -19.858574
10.739489 0.97631454 -20.066936
10.693974 -9.5367432e-07 -20.273827
10.669928 -0.9699955 -20.383121
10.693456 -1.9442682 -20.276176
10.717381 -2.9229193 -20.167431
10.760545 -3.9129272 -19.971231
10.817528 -4.9170604 -19.712215
10.887895 -5.9388533 -19.392366
10.972091 -6.9822402 -19.009659
11.075795 -8.0551243 -18.538273
11.215772 -9.1765432 -17.902018
11.393367 -10.357605 -17.094765
11.58854 -11.588537 -16.207617
11.874915 -12.954455 -14.90591
12.27038 -14.501357 -13.108344
13.142697 -16.727074 -9.1432648
13.981712 15.146855 -10.625657
13.279861 13.279862 -13.550036
12.926052 11.848881 -15.024248
12.645355 10.537795 -16.193821
12.439697 9.329771 -17.050724
12.27689 8.1845932 -17.72909
12.143971 7.0839796 -18.282917
12.052933 6.0264664 -18.662243
12.0002 5.0000801 -18.881962
11.947964 3.982655 -19.099613
11.89629 2.9740696 -19.31492
11.845134 1.9741898 -19.528069
11.794452 0.98287106 -19.739246
11.788764 -9.5367432e-07 -19.762949
11.793588 -0.98279858 -19.742849
11.821711 -1.9702854 -19.625668
11.851095 -2.9627776 -19.503233
11.90322 -3.967742 -19.286045
11.966586 -4.9860816 -19.022022
12.059105 -6.0295544 -18.636524
12.164781 -7.0961232 -18.196207
12.298588 -8.1990576 -17.63868
12.467608 -9.3507061 -16.934429
12.690231 -10.575192 -16.00683
12.974254 -11.893065 -14.823402
13.37039 -13.37039 -13.172839
14.240003 -15.426669 -9.5494576
15.21151 14.041391 -10.37699
14.481581 12.253644 -13.18441
14.074877 10.826825 -14.748657
13.79271 9.5487995 -15.833908
13.580539 8.357254 -16.649958
13.415108 7.2235184 -17.286228
13.286531 6.1322451 -17.78075
13.179799 5.0691533 -18.191257
13.111812 4.0344038 -18.452755
13.044928 3.0103674 -18.710001
13.004137 2.0006351 -18.866886
12.980211 0.99847698 -18.958908
12.972243 -1.9073486e-06 -18.989555
12.983474 -0.99872684 -18.946358
13.009312 -2.0014343 -18.846979
13.052782 -3.0121837 -18.679789
13.112798 -4.0347085 -18.448961
13.191852 -5.0737929 -18.144907
13.303348 -6.1400051 -17.716078
13.433931 -7.2336569 -17.213829
13.612352 -8.376833 -16.527594
13.820824 -9.568264 -15.725784
14.118718 -10.860554 -14.580039
14.539053 -12.302276 -12.963363
15.506488 -14.313683 -9.2424555
16.835258 13.227705 -8.7568703
15.790234 11.27874 -12.489102
15.332524 9.8566217 -14.123781
15.027481 8.5871277 -15.213221
14.806194 7.4030948 -16.003532
14.63579 6.272481 -16.612118
14.502516 5.1794686 -17.088097
14.41132 4.117517 -17.413799
14.336345 3.0720739 -17.681561
14.276971 2.039566 -17.893616
14.247355 1.0176659 -17.999386
14.236011 -1.9073486e-06 -18.0399
14.252222 -1.0180178 -17.982002
14.280545 -2.0400782 -17.88085
14.33817 -3.0724683 -17.675045
14.412196 -4.1177702 -17.410667
14.516208 -5.18436 -17.039198
14.654641 -6.2805614 -16.544792
14.82983 -7.4149141 -15.919118
15.071364 -8.6122084 -15.056494
15.385983 -9.8909883 -13.932859
15.851732 -11.322665 -12.269464
17.424906 10.454943 -10.799774
16.745802 8.9310932 -13.063457
16.404369 7.6553707 -14.201564
16.155619 6.4622493 -15.030733
15.97074 5.3235784 -15.646994
15.82815 4.220839 -16.122297
15.739232 3.1478453 -16.41869
15.685382 2.0913825 -16.598194
15.648366 1.0432243 -16.721577
15.636505 -1.9073486e-06 -16.761112
15.642991 -1.0428681 -16.739496
15.669548 -2.0892744 -16.650974
15.745906 -3.1491814 -16.396442
15.844151 -4.2251086 -16.068962
15.980574 -5.3268576 -15.614218
16.186495 -6.4745998 -14.92781
16.441635 -7.6727662 -14.077343
16.806376 -8.9633999 -12.861546
17.553402 -10.532043 -10.371456
18.614721 8.1439371 -10.711795
18.031004 6.7616243 -12.535905
17.731604 5.5411258 -13.471535
17.516865 4.3792133 -14.142597
17.365162 3.2559662 -14.616662
17.260214 2.1575246 -14.944628
17.216988 1.0760598 -15.079712
17.194624 -4.7683716e-07 -15.149599
17.201515 -1.0750937 -15.128059
17.25576 -2.1569724 -14.958548
17.352287 -3.2535515 -14.656896
17.525867 -4.3814673 -14.114463
17.730993 -5.5409346 -13.473441
18.07176 -6.776906 -12.40855
18.696096 -8.1795425 -10.457499
19.816322 4.6626644 -10.599492
19.505117 3.4420815 -11.514805
19.302385 2.2708664 -12.111073
19.180107 1.1282396 -12.470716
19.159418 -2.8610229e-06 -12.531565
19.204615 -1.1296816 -12.398638
19.299116 -2.2704849 -12.120689
19.482267 -3.4380498 -11.582015
19.914494 -4.6857662 -10.310759
