# .PCD v0.7 - Point Cloud Data file format
VERSION 0.7
FIELDS x y z
SIZE 4 4 4
TYPE F F F
COUNT 1 1 1
WIDTH 1059
HEIGHT 1
VIEWPOINT 0 0 0 1 0 0 0
POINTS 1059
DATA ascii
-22.919273 -2.8610229e-06 -8.5689163
-21.785917 7.2619696 -8.3663578
-20.757191 5.7658844 -11.223934
-20.337868 4.5195265 -12.388722
-20.105076 3.3508453 -13.035369
-19.966482 2.2184954 -13.420351
-19.885399 1.104743 -13.645578
-19.885195 -1.9073486e-06 -13.646148
-19.88929 -1.1049614 -13.634768
-19.985216 -2.2205796 -13.368301
-20.155371 -3.3592272 -12.895657
-20.413404 -4.5363116 -12.178894
-20.863272 -5.7953558 -10.929263
-19.826736 9.3302298 -10.568866
-19.15801 7.8885908 -12.535707
-18.790911 6.6320853 -13.615412
-18.507595 5.4434128 -14.448692
-18.333017 4.3136497 -14.962163
-18.19504 3.2108898 -15.36797
-18.125418 2.1323977 -15.572744
-18.058113 1.0622406 -15.770698
-18.016783 4.7683716e-07 -15.892258
-18.076611 -1.0633307 -15.716299
-18.13936 -2.1340423 -15.531738
-18.202608 -3.2122245 -15.345715
-18.352571 -4.3182521 -14.904642
-18.561974 -5.4594059 -14.288758
-18.855282 -6.654808 -13.426085
-19.261339 -7.9311414 -12.231796
-20.057592 -9.4388676 -9.8898802
-19.029894 11.893682 -9.4143801
-18.061047 10.159338 -12.442028
-17.598284 8.7991371 -13.888164
-17.26878 7.5550919 -14.917857
-17.043688 6.3913836 -15.621269
-16.862185 5.269433 -16.188469
-16.739559 4.1848898 -16.571676
-16.636208 3.1192894 -16.89465
-16.5397 2.0674624 -17.196232
-16.533806 1.0333624 -17.214659
-16.528233 -1.9073486e-06 -17.232071
-16.522717 -1.0326691 -17.249308
-16.565987 -2.0707488 -17.11409
-16.657734 -3.1233263 -16.827379
-16.750504 -4.1876254 -16.537472
-16.891556 -5.2786126 -16.096684
-17.064756 -6.3992834 -15.555431
-17.294184 -7.566205 -14.83847
-17.66148 -8.8307419 -13.690667
-18.169771 -10.220495 -12.102262
-19.485146 -12.178216 -7.991714
-17.292454 12.68113 -11.241285
-16.643782 11.095854 -13.403523
-16.242208 9.7453251 -14.7421
-15.951741 8.507596 -15.710323
-15.725389 7.3385119 -16.464832
-15.555535 6.2222142 -17.031013
-15.41255 5.1375151 -17.507629
-15.309173 4.0824442 -17.852219
-15.235298 3.04706 -18.098469
-15.180585 2.0240774 -18.280849
-15.152661 1.0101767 -18.373924
-15.148192 -2.8610229e-06 -18.388823
-15.176242 -1.0117474 -18.295322
-15.204348 -2.0272474 -18.201639
-15.25311 -3.0506234 -18.039097
-15.332756 -4.0887375 -17.773609
-15.432999 -5.1443338 -17.43947
-15.576062 -6.2304244 -16.962585
-15.757729 -7.3536043 -16.357035
-15.977877 -8.5215359 -15.623206
-16.27265 -9.7635927 -14.640626
-16.715012 -11.143343 -13.166086
-17.478977 -12.817917 -10.619541
-15.982071 13.698916 -11.803969
-15.360699 12.069118 -14.023159
-14.981312 10.700934 -15.378113
-14.721292 9.463686 -16.306751
-14.507887 8.2902231 -17.068914
-14.357634 7.1788168 -17.60553
-14.220823 6.0946379 -18.094141
-14.104674 5.037384 -18.508957
-14.025991 4.0074263 -18.78997
-13.959848 2.991395 -19.02619
-13.923955 1.9891348 -19.154385
-13.895827 0.99256039 -19.254841
-13.892913 9.5367432e-07 -19.265249
-13.91136 -0.9936676 -19.199371
-13.935067 -1.9907265 -19.114702
-13.977779 -2.9952393 -18.962158
-14.046412 -4.0132613 -18.717037
-14.136627 -5.0487967 -18.394844
-14.232368 -6.0995874 -18.052912
-14.371968 -7.185986 -17.554333
-14.547047 -8.3125973 -16.92906
-14.766548 -9.4927826 -16.145121
-15.052584 -10.751846 -15.123571
-15.455704 -12.143771 -13.683854
-16.104836 -13.804146 -11.365524
-14.796825 14.796824 -11.97193
-14.237973 13.142744 -14.121363
-13.865252 11.732136 -15.554903
-13.603147 10.463959 -16.563
-13.381639 9.2642097 -17.414953
-13.211847 8.1303654 -18.067997
-13.073707 7.0396852 -18.59931
-12.975179 5.988544 -18.97826
-12.884274 4.9554882 -19.327898
-12.821963 3.9452186 -19.567547
-12.769134 2.946722 -19.770746
-12.737799 1.9596615 -19.891262
-12.71241 0.97787762 -19.988916
-12.709551 -1.9073486e-06 -19.999908
-12.711675 -0.97782421 -19.991741
-12.748357 -1.9612885 -19.850657
-12.788883 -2.9512825 -19.69478
-12.831087 -3.9480276 -19.532463
-12.902592 -4.9625359 -19.257442
-12.997471 -5.9988351 -18.892523
-13.099003 -7.0533109 -18.502016
-13.248666 -8.1530256 -17.926392
-13.410249 -9.2840195 -17.304916
-13.629869 -10.484515 -16.460222
-13.894446 -11.75684 -15.442614
-14.303884 -13.203589 -13.867858
-14.933619 -14.933617 -11.445798
-13.783798 16.081097 -11.450306
-13.13872 14.233613 -14.138129
-12.764936 12.764935 -15.69556
-12.511798 11.469146 -16.750305
-12.305093 10.254244 -17.611576
-12.135957 9.1019678 -18.316307
-12.007066 8.0047083 -18.853359
-11.892261 6.9371495 -19.331713
-11.803897 5.9019494 -19.69989
-11.733069 4.8887777 -19.995003
-11.676629 3.8922062 -20.230179
-11.635292 2.9088211 -20.402412
-11.603374 1.9338951 -20.535404
-11.58722 0.96560097 -20.602711
-11.582112 -9.5367432e-07 -20.623997
-11.592125 -0.96601295 -20.582277
-11.614786 -1.9357996 -20.487856
-11.649858 -2.912466 -20.341721
-11.693954 -3.8979864 -20.157991
-11.748739 -4.8953104 -19.929718
-11.832251 -5.9161282 -19.581753
-11.919937 -6.9532952 -19.216393
-12.028757 -8.0191708 -18.76298
-12.170838 -9.1281281 -18.170973
-12.334608 -10.278843 -17.488596
-12.558384 -11.511853 -16.556194
-12.834552 -12.834551 -15.405499
-13.194474 -14.294012 -13.905826
-13.889639 -16.204578 -11.009299
-12.850626 17.523581 -10.470859
-12.132862 15.441823 -13.733422
-11.738907 13.873254 -15.524131
-11.493725 12.538607 -16.638594
-11.283587 11.283587 -17.593761
-11.11579 10.105263 -18.356476
-10.971444 8.976635 -19.012596
-10.861971 7.8996148 -19.510201
-10.771545 6.854619 -19.921223
-10.693617 5.83288 -20.275446
-10.63566 4.8343897 -20.538887
-10.58364 3.8485947 -20.775341
-10.551841 2.8777752 -20.919882
-10.523047 1.9132795 -21.050762
-10.512735 0.95570374 -21.097637
-10.504874 -1.9073486e-06 -21.133369
-10.515046 -0.95591259 -21.087132
-10.527241 -1.9140472 -21.0317
-10.558639 -2.8796291 -20.888981
-10.602024 -3.8552828 -20.691778
-10.64724 -4.8396583 -20.486256
-10.70989 -5.8417616 -20.201477
-10.787005 -6.8644581 -19.850954
-10.875986 -7.9098086 -19.446495
-10.997826 -8.9982224 -18.892681
-11.136806 -10.124371 -18.260948
-11.309795 -11.309796 -17.474636
-11.514174 -12.560917 -16.545643
-11.811955 -13.959582 -15.192092
-12.224533 -15.558498 -13.316736
-13.068321 -17.820435 -9.4813366
-11.182254 16.773378 -12.971525
-10.761661 15.066324 -15.074493
-10.483525 13.628579 -16.465174
-10.279202 12.335039 -17.48679
-10.110756 11.121832 -18.329016
-9.9688492 9.9688473 -19.038548
-9.8573399 8.871603 -19.596098
-9.7612772 7.8090234 -20.07641
-9.6888962 6.7822256 -20.438316
-9.6226702 5.7736006 -20.769444
-9.5731792 4.7865868 -21.016899
-9.5312462 3.812499 -21.226562
-9.5011377 2.8503408 -21.377106
-9.4788904 1.8957758 -21.488344
-9.4653978 0.94653893 -21.555807
-9.4624748 -0 -21.570421
-9.4765463 -0.94765663 -21.500063
-9.4906311 -1.8981256 -21.429642
-9.5082121 -2.8524637 -21.341736
-9.5450706 -3.8180285 -21.157446
-9.5823002 -4.7911501 -20.971294
-9.6323195 -5.7793941 -20.721203
-9.7063417 -6.7944379 -20.351089
-9.7855854 -7.8284674 -19.954872
-9.8798542 -8.8918686 -19.483526
-9.9945459 -9.9945469 -18.910069
-10.124879 -11.137367 -18.2584
-10.312304 -12.374766 -17.321278
-10.530004 -13.689003 -16.23278
-10.809591 -15.133429 -14.83484
-11.276605 -16.914907 -12.499773
-10.331432 18.366989 -11.485952
-9.8102188 16.350365 -14.381582
-9.5213652 14.811012 -15.98632
-9.2980556 13.430524 -17.226931
-9.1271505 12.169533 -18.176403
-8.9913769 10.989462 -18.930698
-8.8758192 9.8620205 -19.572687
-8.7849092 8.7849083 -20.077745
-8.7054081 7.7381406 -20.519417
-8.6394281 6.7195549 -20.885975
-8.5864124 5.7242718 -21.180508
-8.5402584 4.7445879 -21.436913
-8.5088482 3.7817078 -21.61142
-8.4807205 2.8269062 -21.767689
-8.4675055 1.8816652 -21.841099
-8.4595175 0.93994427 -21.885475
-8.4515686 9.5367432e-07 -21.929634
-8.462039 -0.94022846 -21.871473
-8.4729548 -1.8828793 -21.810825
-8.4839239 -2.8279762 -21.749886
-8.5153513 -3.7846031 -21.575291
-8.5568857 -4.7538252 -21.344543
-8.5988007 -5.7325344 -21.111683
-8.6572714 -6.7334342 -20.786846
-8.7227373 -7.7535448 -20.423141
-8.7906675 -8.7906694 -20.04575
-8.9010773 -9.8900852 -19.432369
-9.0156422 -11.01912 -18.795893
-9.1607523 -12.214335 -17.989733
-9.3210964 -13.463807 -17.098927
-9.563776 -14.876985 -15.750708
-9.8826866 -16.471146 -13.978983
-10.471802 -18.616539 -10.706116
-8.9090281 17.818058 -13.201369
-8.5693827 16.067593 -15.324154
-8.3459301 14.605375 -16.720734
-8.1645555 13.267403 -17.854324
-8.0251455 12.037716 -18.725641
-7.9161315 10.884677 -19.406975
-7.8221412 9.7776756 -19.994413
-7.7434006 8.7113237 -20.486544
-7.6778426 7.6778407 -20.896282
-7.6218596 6.6691256 -21.246174
-7.5782466 5.6836853 -21.518751
-7.5400076 4.7125044 -21.757751
-7.5111909 3.7555952 -21.937853
-7.4868584 2.8075714 -22.08993
-7.4778996 1.8694715 -22.145926
-7.4697852 0.9337225 -22.19664
-7.4627919 -1.9073486e-06 -22.240351
-7.4651933 -0.93314934 -22.225336
-7.4790506 -1.8697634 -22.138729
-7.4954028 -2.8107767 -22.03653
-7.5180998 -3.7590504 -21.894672
-7.5514851 -4.7196789 -21.686012
-7.5851903 -5.6888938 -21.475357
-7.6285672 -6.6749983 -21.20425
-7.6932135 -7.6932144 -20.800209
-7.7589889 -8.7288647 -20.389114
-7.8423462 -9.8029346 -19.868132
-7.9349422 -10.910547 -19.28941
-8.0471926 -12.070791 -18.587839
-8.1978579 -13.32152 -17.646185
-8.3788776 -14.663033 -16.514816
-8.612093 -16.147675 -15.057213
-8.9709587 -17.941917 -12.814307
-8.129158 19.742241 -10.817381
-7.6496015 17.484798 -14.242786
-7.3995471 15.856171 -16.028889
-7.2316122 14.463223 -17.228424
-7.0738177 13.137089 -18.355526
-6.9639363 11.938177 -19.140394
-6.8688741 10.793943 -19.819412
-6.7938857 9.7055473 -20.355042
-6.7265968 8.6484804 -20.835672
-6.6724854 7.6256957 -21.222187
-6.6262465 6.626246 -21.552467
-6.5872817 5.6462412 -21.830782
-6.5574656 4.6839018 -22.043755
-6.5315895 3.732337 -22.228584
-6.5148354 2.7920713 -22.348255
-6.5042267 1.8583508 -22.424032
-6.4971919 0.92816925 -22.474281
-6.493372 -2.8610229e-06 -22.501568
-6.4954128 -0.92791939 -22.486992
-6.507627 -1.8593225 -22.399742
-6.5210967 -2.794755 -22.303539
-6.5361943 -3.7349701 -22.19569
-6.5650525 -4.6893206 -21.989565
-6.5988398 -5.6561494 -21.748226
-6.6353803 -6.6353822 -21.487225
-6.6872611 -7.6425858 -21.116642
-6.7416949 -8.6678934 -20.727833
-6.8074765 -9.724967 -20.257965
-6.8901553 -10.827389 -19.6674
-6.9819365 -11.969033 -19.011822
-7.1019163 -13.189273 -18.154823
-7.2442164 -14.488433 -17.138395
-7.4307151 -15.922961 -15.806263
-7.7099729 -17.622795 -13.811561
-8.2458582 -20.025654 -9.9838142
-6.782361 19.216688 -12.363123
-6.4935627 17.316166 -14.769773
-6.3425517 15.856377 -16.028194
-6.1985049 14.463178 -17.228586
-6.0608745 13.131893 -18.375511
-5.9289503 11.857898 -19.47488
-5.8537478 10.73187 -20.101566
-5.7913342 9.6522226 -20.621679
-5.7352748 8.602911 -21.088839
-5.6886749 7.5848985 -21.477173
-5.6515131 6.5934296 -21.786854
-5.6188855 5.618885 -22.05875
-5.5936565 4.6613798 -22.26899
-5.5724773 3.714983 -22.445488
-5.5567141 2.7783527 -22.576847
-5.5442853 1.8480949 -22.68042
-5.5430279 0.92383671 -22.690897
-5.5418506 -9.5367432e-07 -22.700708
-5.5406899 -0.92344761 -22.710381
-5.5510111 -1.8503361 -22.624369
-5.5614033 -2.7807016 -22.537766
-5.574472 -3.7163143 -22.42886
-5.5986838 -4.6655703 -22.227097
-5.6279259 -5.6279273 -21.983418
-5.6577725 -6.6007333 -21.734692
-5.6996064 -7.5994778 -21.38608
-5.7442837 -8.6164284 -21.013767
-5.7971935 -9.6619892 -20.572851
-5.8679428 -10.757895 -19.983271
-5.9436045 -11.887209 -19.35276
-6.0408897 -13.088596 -18.542049
-6.148119 -14.345613 -17.64847
-6.306756 -15.766891 -16.3265
-6.5114088 -17.363758 -14.621055
-6.854979 -19.42244 -11.757974
-5.5480614 18.863407 -13.402183
-5.4113026 17.316166 -14.769773
-5.2854428 15.85633 -16.028366
-5.165421 14.463178 -17.228586
-5.0506968 13.131811 -18.375828
-4.9407763 11.857863 -19.475031
-4.8508296 10.671824 -20.374496
-4.7983942 9.5967865 -20.898857
-4.7563963 8.5615139 -21.318829
-4.7192907 7.5508657 -21.689892
-4.6872878 6.5622005 -22.009918
-4.6628256 5.5953903 -22.254539
-4.6413469 4.6413469 -22.469324
-4.627439 3.701951 -22.608404
-4.6156917 2.769413 -22.725876
-4.6042547 1.8416996 -22.840252
-4.6020689 0.92041206 -22.86211
-4.599885 -9.5367432e-07 -22.883949
-4.5977163 -0.91954517 -22.905632
-4.605823 -1.8423309 -22.824568
-4.6178112 -2.7706871 -22.704683
-4.6298623 -3.7038898 -22.584173
-4.6481309 -4.6481304 -22.401487
-4.6703501 -5.604423 -22.179293
-4.6927829 -6.5698957 -21.954967
-4.7264433 -7.5623136 -21.618364
-4.7674165 -8.5813494 -21.208633
-4.8091063 -9.6182137 -20.791733
-4.8651881 -10.703416 -20.230915
-4.9229851 -11.815165 -19.652945
-5.0009537 -13.00248 -18.873262
-5.0938821 -14.262871 -17.943977
-5.2114763 -15.63443 -16.768036
-5.3598065 -17.151382 -15.284728
-5.6094484 -19.072124 -12.788313
-4.7323413 21.295536 -9.7285309
-4.4347181 18.847551 -13.448816
-4.329042 17.316166 -14.769773
-4.228354 15.85633 -16.028366
-4.1323233 14.463131 -17.228752
-4.0405321 13.131727 -18.376143
-3.9526699 11.858007 -19.474426
-3.8686864 10.638887 -20.524216
-3.8261535 9.565383 -21.055882
-3.7917798 8.5315037 -21.485548
-3.7634017 7.5268025 -21.840275
-3.7391884 6.5435791 -22.142937
-3.7189987 5.5784969 -22.395313
-3.701515 4.626894 -22.613861
-3.6911774 3.6911745 -22.743084
-3.6813078 2.7609797 -22.866451
-3.6720145 1.8360062 -22.982616
-3.6689792 0.91724205 -23.020557
-3.6688435 -1.9073486e-06 -23.022251
-3.6695755 -0.91739368 -23.013103
-3.6747818 -1.8373919 -22.948025
-3.6828768 -2.7621584 -22.846832
-3.6915479 -3.6915483 -22.738451
-3.7046573 -4.6308222 -22.574577
-3.7240016 -5.5860033 -22.332777
-3.7445619 -6.5529828 -22.075775
-3.7697387 -7.5394773 -21.761065
-3.7997711 -8.5494862 -21.385658
-3.8315513 -9.5788794 -20.988405
-3.8746133 -10.655189 -20.450127
-3.9245322 -11.773599 -19.826143
-3.982975 -12.944669 -19.09561
-4.0517235 -14.181032 -18.23625
-4.1406708 -15.527514 -17.124414
-4.2531514 -17.012606 -15.718404
-4.4245515 -18.804342 -13.575905
-3.4806092 20.883654 -10.872643
-3.3260386 18.847551 -13.448816
-3.2467813 17.316166 -14.769773
-3.1712551 15.856276 -16.028542
-3.0992327 14.463081 -17.228922
-3.0303898 13.13169 -18.376301
-2.964566 11.858263 -19.473362
-2.9014976 10.638825 -20.524504
-2.8611026 9.5370064 -21.197754
-2.8366575 8.5099716 -21.605171
-2.8143728 7.504993 -21.976582
-2.7970793 6.5265179 -22.264807
-2.7819195 5.563839 -22.517471
-2.7704165 4.6173601 -22.709187
-2.7622287 3.68297 -22.84565
-2.754545 2.7545443 -22.973709
-2.7477717 1.8318462 -23.086601
-2.7456462 0.91521549 -23.122025
-2.7458494 -2.8610229e-06 -23.118641
-2.7463961 -0.9154644 -23.109526
-2.7496028 -1.8330698 -23.056082
-2.7556458 -2.7556467 -22.955368
-2.7624896 -3.68332 -22.841305
-2.7721188 -4.6201982 -22.680817
-2.7861984 -5.5723968 -22.446159
-2.8015516 -6.5369534 -22.190273
-2.8195591 -7.5188246 -21.890144
-2.8419597 -8.5258808 -21.5168
-2.8662074 -9.5540257 -21.112673
-2.8977094 -10.624935 -20.587641
-2.9341412 -11.736563 -19.980446
-2.9764197 -12.897819 -19.275803
-3.0276432 -14.129002 -18.422075
-3.0915713 -15.457856 -17.356609
-3.1744041 -16.930155 -15.97606
-3.2909501 -18.648718 -14.033628
-3.553031 -21.318184 -9.6656179
-2.295399 20.65859 -11.497822
-2.2173591 18.847551 -13.448816
-2.164521 17.316166 -14.769773
-2.1141632 15.856225 -16.028713
-2.0661485 14.463039 -17.229086
-2.020247 13.131605 -18.376617
-1.9764016 11.858409 -19.472755
-1.9343317 10.638825 -20.524504
-1.9045854 9.5229273 -21.26816
-1.8890736 8.5008278 -21.655956
-1.8743854 7.497539 -22.023159
-1.8615592 6.5154562 -22.343817
-1.8519557 5.5558653 -22.583906
-1.843395 4.6084881 -22.797924
-1.8380258 3.6760502 -22.932154
-1.8337945 2.7506905 -23.037933
-1.8296347 1.8296347 -23.141926
-1.8279097 0.91395378 -23.185055
-1.8277487 9.5367432e-07 -23.189075
-1.827588 -0.91379738 -23.1931
-1.8293434 -1.8293447 -23.149208
-1.8342334 -2.7513514 -23.02696
-1.839344 -3.6786919 -22.899195
-1.8458797 -4.6147003 -22.735806
-1.8546611 -5.5639834 -22.516273
-1.8640499 -6.5241766 -22.281548
-1.8752865 -7.5011458 -22.000633
-1.8913552 -8.5110989 -21.598919
-1.9080633 -9.5403175 -21.181211
-1.9285936 -10.607265 -20.667955
-1.9517226 -11.710335 -20.089731
-1.9783272 -12.859129 -19.424614
-2.0144176 -14.100925 -18.522356
-2.0556104 -15.417078 -17.492537
-2.1070693 -16.856554 -16.206064
-2.1867886 -18.587706 -14.213081
-2.3329968 -20.996971 -10.557878
-1.1456771 20.622187 -11.598946
-1.1086795 18.847551 -13.448816
-1.0822569 17.316111 -14.769952
-1.0570782 15.856171 -16.028889
-1.0330709 14.462991 -17.229252
-1.0101204 13.131565 -18.376778
-0.9881947 11.858334 -19.473061
-0.96716583 10.638825 -20.524504
-0.95133275 9.5133247 -21.316158
-0.94317764 8.4885969 -21.723915
-0.93635285 7.4908228 -22.065149
-0.93015015 6.5110502 -22.37529
-0.92517918 5.5510731 -22.623837
-0.92124635 4.6062326 -22.820477
-0.91798264 3.6719313 -22.983664
-0.91577274 2.7473173 -23.094158
-0.91392893 1.827857 -23.186352
-0.91299033 0.91299057 -23.233282
-0.91264337 -0 -23.250624
-0.91293591 -0.91293716 -23.235998
-0.91406649 -1.8281345 -23.179474
-0.9158718 -2.7476149 -23.089209
-0.91862726 -3.674509 -22.951433
-0.921848 -4.6092405 -22.790398
-0.92605239 -5.5563149 -22.580177
-0.93097889 -6.5168524 -22.333853
-0.93683529 -7.4946852 -22.041029
-0.94423473 -8.4981136 -21.671059
-0.95279169 -9.5279179 -21.24321
-0.96259224 -10.588516 -20.753181
-0.97432494 -11.691902 -20.166546
-0.98794895 -12.843335 -19.485346
-1.0051295 -14.071815 -18.626322
-1.0256859 -15.385289 -17.598503
-1.0518234 -16.829174 -16.291632
-1.0898767 -18.527905 -14.388964
-1.1562806 -20.813051 -11.068768
0 20.615437 -11.617698
0 18.847551 -13.448816
0 17.316111 -14.769952
0 15.856171 -16.028889
0 14.462991 -17.229252
0 13.131523 -18.376938
0 11.858227 -19.473513
0 10.638857 -20.524361
0 9.5153236 -21.306173
0 8.4931793 -21.698471
0 7.4935913 -22.047848
0 6.511838 -22.369646
0 5.5528145 -22.609337
0 4.6067057 -22.815731
0 3.6733675 -22.965721
0 2.748559 -23.073433
0 1.8285227 -23.169735
0 0.91332245 -23.2167
0 -9.5367432e-07 -23.228359
0 -0.91320038 -23.222919
0 -1.8284187 -23.172329
0 -2.7490158 -23.065866
0 -3.6760731 -22.93189
0 -4.6112871 -22.769922
0 -5.5588598 -22.558983
0 -6.5181351 -22.324694
0 -7.4969983 -22.026569
0 -8.5025558 -21.646389
0 -9.5325451 -21.22007
0 -10.595521 -20.721346
0 -11.698809 -20.13777
0 -12.8461 -19.474728
0 -14.082677 -18.587523
0 -15.396673 -17.560555
0 -16.837812 -16.264631
0 -18.550268 -14.32319
0 -20.863647 -10.92822
1.1515433 20.727777 -11.305634
1.1086795 18.847551 -13.448816
1.0822569 17.316111 -14.769952
1.0570747 15.856119 -16.02906
1.0330676 14.462946 -17.229414
1.0101141 13.131481 -18.377094
0.9881795 11.858156 -19.473818
0.96718037 10.638983 -20.523777
0.95268458 9.526844 -21.248569
0.9450472 8.5054245 -21.630436
0.93749034 7.4999208 -22.008282
0.93119699 6.5183773 -22.322945
0.92626292 5.5575781 -22.569649
0.92229444 4.6114721 -22.768074
0.91946709 3.6778679 -22.909443
0.91732323 2.7519674 -23.016636
0.91521543 1.8304291 -23.122023
0.91442746 0.9144249 -23.161423
0.91434699 -9.5367432e-07 -23.165449
0.91426641 -0.91426659 -23.169474
0.91518939 -1.8303776 -23.123325
0.91758478 -2.7527552 -23.003555
0.92006379 -3.6802559 -22.879606
0.92335027 -4.6167526 -22.715281
0.92784387 -5.5670638 -22.490604
0.93254077 -6.5277853 -22.255756
0.93824732 -7.505981 -21.970428
0.94625032 -8.5162544 -21.570282
0.95449567 -9.5449572 -21.15801
0.96493584 -10.614294 -20.636003
0.97643864 -11.717264 -20.060863
0.98990303 -12.868739 -19.387648
1.0079753 -14.111658 -18.484026
1.0288239 -15.432359 -17.441605
1.0550025 -16.880041 -16.132675
1.0947222 -18.610277 -14.146693
1.1718374 -21.093075 -10.290923
2.3320501 20.988449 -10.581547
2.2173591 18.847551 -13.448816
2.1645138 17.316111 -14.769952
2.1141565 15.856171 -16.028889
2.0661285 14.462898 -17.229584
2.0202217 13.131438 -18.377254
1.9763471 11.85808 -19.474121
1.9343724 10.639046 -20.523489
1.909184 9.5459175 -21.1532
1.8922448 8.5150976 -21.576679
1.8780552 7.512219 -21.931416
1.8665473 6.5329151 -22.219112
1.8563621 5.5690842 -22.473743
1.8483603 4.6209002 -22.673786
1.8430202 3.6860399 -22.807291
1.8378944 2.7568407 -22.935432
1.8327919 1.8327885 -23.063
1.8316444 0.91582203 -23.091682
1.8320094 -2.8610229e-06 -23.082561
1.8323746 -0.91618729 -23.073433
1.8346883 -1.8346901 -23.015587
1.8387241 -2.7580843 -22.914696
1.8427722 -3.6855431 -22.813488
1.8490986 -4.6227484 -22.655333
1.859161 -5.5774851 -22.403769
1.869415 -6.5429554 -22.147417
1.8816404 -7.5265613 -21.841785
1.8965993 -8.5346975 -21.467812
1.9119686 -9.559845 -21.083582
1.9335473 -10.63451 -20.544115
1.9584032 -11.750422 -19.922716
1.986981 -12.91538 -19.208267
2.0207734 -14.145416 -18.363457
2.0642269 -15.481701 -17.277128
2.1200683 -16.960552 -15.881087
2.1988912 -18.690577 -13.910519
2.3842525 -21.458275 -9.2764816
3.5898631 21.539177 -9.0517492
3.3260386 18.847551 -13.448816
3.2467597 17.31605 -14.770137
3.1712656 15.85633 -16.028366
3.0991826 14.46285 -17.22975
3.030323 13.131399 -18.377411
2.9645021 11.858007 -19.474426
2.9021952 10.641382 -20.512875
2.8731246 9.5770826 -20.997383
2.8475757 8.5427246 -21.423203
2.8259304 7.5358124 -21.783958
2.8071392 6.5499926 -22.097139
2.7920885 5.5841761 -22.347988
2.778461 4.630765 -22.575115
2.7711561 3.6948719 -22.696861
2.7641425 2.764143 -22.813753
2.7571566 1.8381052 -22.930183
2.7552919 0.91843033 -22.961267
2.7539873 -1.9073486e-06 -22.983009
2.7543566 -0.91812038 -22.976856
2.7585275 -1.8390179 -22.907341
2.7649262 -2.764926 -22.800692
2.7721267 -3.6961699 -22.680683
2.7823765 -4.6372976 -22.509855
2.7956457 -5.5912924 -22.2887
2.8110135 -6.559031 -22.032572
2.8302214 -7.5472574 -21.71244
2.8531888 -8.5595675 -21.329653
2.8780751 -9.593585 -20.914879
2.9106295 -10.672308 -20.372303
2.9468851 -11.78754 -19.768047
2.9913034 -12.962316 -19.027739
3.0453491 -14.211628 -18.126982
3.1134844 -15.567422 -16.991385
3.1982746 -17.057468 -15.578218
3.3366942 -18.907936 -13.271221
4.4693146 18.994587 -13.016365
4.3290129 17.31605 -14.770137
4.2283821 15.856429 -16.028023
4.1322308 14.462806 -17.229914
4.0404181 13.131359 -18.377567
3.9526455 11.857937 -19.474728
3.8889759 10.694681 -20.270597
3.8464231 9.6160583 -20.802511
3.8112006 8.5751991 -21.242788
3.7810991 7.5621958 -21.619057
3.7562418 6.5734224 -21.929771
3.7361176 5.6041765 -22.18133
3.7190635 4.6488276 -22.394505
3.7066839 3.7066841 -22.549246
3.696795 2.7725925 -22.672855
3.688195 1.8440952 -22.780361
3.6864417 0.92160797 -22.802277
3.6846898 -0 -22.824169
3.6839099 -0.92097855 -22.833925
3.689527 -1.8447647 -22.76371
3.6988771 -2.7741585 -22.64683
3.7085421 -3.7085438 -22.52602
3.7237215 -4.6546535 -22.336277
3.7415469 -5.6123214 -22.113459
3.7600598 -6.5801053 -21.88205
3.7868831 -7.5737648 -21.546761
3.8197613 -8.5944633 -21.135778
3.8536427 -9.6341095 -20.712263
3.8989763 -10.722185 -20.145596
3.9463687 -11.839106 -19.553188
4.0092731 -13.030137 -18.76688
4.0839353 -14.293774 -17.833603
4.1799707 -15.674889 -16.633165
4.3076024 -17.23041 -15.037764
4.5079565 -19.158819 -12.533339
5.6918316 19.352228 -11.964481
5.4112663 17.31605 -14.770137
5.2855296 15.856587 -16.027498
5.165288 14.462806 -17.229914
5.0505071 13.131317 -18.377728
4.9505506 11.881321 -19.377293
4.8877397 10.753024 -20.005402
4.8366575 9.673315 -20.516222
4.7886839 8.6196289 -20.99596
4.749938 7.5999002 -21.383411
4.7183633 6.6057086 -21.69916
4.689774 5.6277275 -21.985054
4.6689272 4.6689262 -22.193523
4.6499844 3.7199879 -22.38295
4.6374412 2.782465 -22.508385
4.6286635 1.8514643 -22.596159
4.6266274 0.92532349 -22.616524
4.6256566 -0 -22.626232
4.6255636 -0.92511272 -22.627159
4.6342359 -1.8536949 -22.540438
4.6429405 -2.7857647 -22.453392
4.6516647 -3.7213297 -22.366148
4.6740398 -4.6740398 -22.142395
4.69873 -5.6384778 -21.895493
4.7236962 -6.6131749 -21.645838
4.7597313 -7.6155682 -21.285488
4.7971206 -8.6348171 -20.911589
4.8399749 -9.6799507 -20.483051
4.9017501 -10.78385 -19.865294
4.9651232 -11.916297 -19.231565
5.0483203 -13.125633 -18.399593
5.1363854 -14.381878 -17.518944
5.2750297 -15.82509 -16.132502
5.4514875 -17.444761 -14.367918
5.7600451 -19.584154 -11.282345
7.0967379 20.107422 -9.7433147
6.5986118 17.596296 -13.894366
6.3672519 15.918128 -15.822366
6.2067337 14.482379 -17.160015
6.085515 13.185282 -18.17017
5.9865952 11.973187 -18.994507
5.9057574 10.827219 -19.668152
5.8391795 9.7319641 -20.222965
5.7799277 8.6698895 -20.716734
5.7331638 7.6442165 -21.106434
5.6931701 6.6420336 -21.439711
5.6599784 5.6599779 -21.716312
5.6335082 4.6945877 -21.936895
5.6115375 3.741025 -22.119984
5.5957313 2.797864 -22.251705
5.5875216 1.8625069 -22.320114
5.5814652 0.93024254 -22.370586
5.5754218 -9.5367432e-07 -22.420948
5.5776281 -0.92960548 -22.402561
5.5893011 -1.863101 -22.305286
5.6014938 -2.8007479 -22.203682
5.6159439 -3.7439623 -22.083263
5.6407986 -4.7006664 -21.876141
5.6668053 -5.6668062 -21.65942
5.6995053 -6.6494231 -21.386919
5.7448649 -7.6598191 -21.008926
5.793767 -8.6906528 -20.601406
5.8524351 -9.7540607 -20.112507
5.9211869 -10.855508 -19.539576
6.0013123 -12.002626 -18.871859
6.1101055 -13.238564 -17.965252
6.2371669 -14.553391 -16.906404
6.3961892 -15.990472 -15.581224
6.6522841 -17.739424 -13.447099
7.2854261 -20.642042 -8.1709099
7.8677645 17.983461 -12.684483
7.5453238 16.16855 -14.987626
7.3409061 14.681809 -16.447756
7.1710024 13.317574 -17.661354
7.0504618 12.086504 -18.522358
6.9498429 10.921181 -19.241062
6.8642902 9.8061275 -19.852152
6.7954841 8.7370491 -20.343626
6.7366948 7.6990781 -20.763546
6.6863685 6.6863666 -21.123024
6.6476765 5.6980066 -21.399395
6.6126504 4.723321 -21.649578
6.5877056 3.7644033 -21.827755
6.565033 2.8135881 -21.989702
6.558496 1.8738556 -22.036396
6.5523348 0.93604565 -22.080402
6.546185 -1.9073486e-06 -22.124331
6.5505247 -0.93579197 -22.093332
6.5589547 -1.8739891 -22.033121
6.572618 -2.8168373 -21.935528
6.5942621 -3.7681484 -21.780926
6.6236353 -4.7311692 -21.571114
6.6553946 -5.7046247 -21.344261
6.6963258 -6.6963248 -21.051899
6.749208 -7.7133813 -20.674164
6.807065 -8.7519398 -20.260904
6.8827667 -9.8325253 -19.720177
6.9677916 -10.949388 -19.112854
7.072463 -12.124222 -18.365204
7.200201 -13.371802 -17.452785
7.3668809 -14.733762 -16.26222
7.5914979 -16.2675 -14.657807
7.9459386 -18.162142 -12.126095
9.3558607 18.711721 -10.408667
8.7938213 16.488415 -13.921411
8.508214 14.889372 -15.706463
8.3082247 13.500866 -16.956387
8.1504173 12.225625 -17.942688
8.0240698 11.033094 -18.732361
7.9197845 9.8997288 -19.384148
7.8368797 8.8164883 -19.902298
7.7645345 7.764534 -20.354454
7.705924 6.7426848 -20.720772
7.6573591 5.7430167 -21.024302
7.6166511 4.7604065 -21.278728
7.5863972 3.7931976 -21.467813
7.5617318 2.8356466 -21.621973
7.54739 1.8868456 -21.711613
7.5384173 0.9423027 -21.767685
7.5334988 -9.5367432e-07 -21.798428
7.5432544 -0.94290924 -21.737457
7.5532351 -1.8883104 -21.675076
7.5644202 -2.8366575 -21.605173
7.5912738 -3.7956381 -21.437336
7.6284089 -4.7677593 -21.205242
7.6658859 -5.7494144 -20.971006
7.7210374 -6.7559061 -20.62631
7.7795968 -7.7795968 -20.260315
7.8459072 -8.8266449 -19.845875
7.9420404 -9.9275503 -19.245045
8.0446529 -11.061399 -18.603708
8.1793661 -12.269051 -17.761753
8.3312654 -13.538307 -16.812386
8.5510254 -14.964297 -15.438887
8.8677864 -16.6271 -13.459128
9.5690184 -19.138039 -9.0764313
10.200412 17.000683 -12.213842
9.7665205 15.192366 -14.624348
9.4965162 13.717189 -16.124372
9.3041191 12.405491 -17.193249
9.1479349 11.180808 -18.060938
9.0170174 10.018907 -18.788254
8.9094286 8.9094267 -19.385973
8.8189592 7.8390746 -19.888577
8.7507772 6.80616 -20.267368
8.6898947 5.7932611 -20.605608
8.6452036 4.8028889 -20.853886
8.604701 3.8243132 -21.078899
8.5776901 2.8592291 -21.228962
8.5565319 1.9014502 -21.346512
8.5481977 0.94979954 -21.392807
8.5444908 9.5367432e-07 -21.413403
8.5555201 -0.95061398 -21.352127
8.5682764 -1.9040623 -21.281261
8.5877619 -2.862587 -21.173014
8.62117 -3.8316307 -20.987408
8.6548395 -4.8082471 -20.800354
8.6985321 -5.7990232 -20.557619
8.7692442 -6.8205199 -20.164778
8.8411407 -7.8587928 -19.765347
8.9314613 -8.9314594 -19.263565
9.0355825 -10.039537 -18.685114
9.1576815 -11.192724 -18.006786
9.3329601 -12.443948 -17.03302
9.5412827 -13.781852 -15.875672
9.8162355 -15.269701 -14.348153
10.27397 -17.123283 -11.805185
11.166579 15.633208 -13.049903
10.770917 14.002193 -15.028212
10.518542 12.622249 -16.290085
10.316271 11.347898 -17.301441
10.158821 10.158821 -18.088692
10.019875 9.0178871 -18.783422
9.9206648 7.9365306 -19.279472
9.8339958 6.8837991 -19.712814
9.7633791 5.8580275 -20.065903
9.7088299 4.854414 -20.338642
9.6618729 3.864747 -20.573433
9.6294947 2.8888464 -20.735325
9.604291 1.9208574 -20.861338
9.593298 0.95932674 -20.916309
9.5861254 -9.5367432e-07 -20.952171
9.592926 -0.95929241 -20.918167
9.6034603 -1.9206924 -20.865494
9.6368761 -2.8910656 -20.698418
9.6779699 -3.8711877 -20.492945
9.7194157 -4.8597064 -20.285719
9.782402 -5.8694439 -19.970787
9.8518772 -6.8963146 -19.623409
9.9272747 -7.9418187 -19.24642
10.051075 -9.0459671 -18.62742
10.17974 -10.179743 -17.984097
10.347982 -11.382782 -17.142887
10.532657 -12.639189 -16.219513
10.830982 -14.080276 -14.727888
11.258025 -15.761236 -12.592672
12.899089 16.417023 -10.250572
12.206745 14.426154 -13.39759
11.82545 12.900489 -15.130752
11.565105 11.565104 -16.314137
11.356161 10.323782 -17.263884
11.192157 9.1572161 -18.009359
11.068939 8.0501366 -18.569439
10.960812 6.9750614 -19.060923
10.877925 5.9334121 -19.437683
10.808049 4.9127507 -19.755299
10.755641 3.9111395 -19.993523
10.714915 2.9222517 -20.178637
10.687936 1.9432602 -20.301273
10.672502 0.97022724 -20.371426
10.66832 9.5367432e-07 -20.39043
10.674464 -0.97040749 -20.362507
10.699047 -1.945282 -20.250765
10.731481 -2.9267683 -20.103342
10.764144 -3.9142337 -19.954872
10.820967 -4.918623 -19.696583
10.901272 -5.9461498 -19.33156
10.984619 -6.990212 -18.952709
11.094679 -8.0688581 -18.452438
11.221567 -9.181282 -17.875673
11.379853 -10.345325 -17.156193
11.602516 -11.602518 -16.144081
11.880454 -12.960499 -14.880733
12.274506 -14.506233 -13.089586
13.238734 -16.8493 -8.7067299
14.036597 15.206312 -10.396979
13.309381 13.309381 -13.42704
12.933022 11.855268 -14.995206
12.660942 10.550784 -16.128872
12.446673 9.3350039 -17.021656
12.281887 8.1879234 -17.708267
12.14611 7.0852299 -18.274002
12.04485 6.0224271 -18.695915
11.956509 4.9818788 -19.064011
11.899516 3.9665027 -19.301479
11.846115 2.9615269 -19.523983
11.818093 1.9696817 -19.640743
11.793011 0.98275089 -19.745247
11.790527 -1.9073486e-06 -19.755598
11.795821 -0.98298645 -19.733543
11.831345 -1.9718924 -19.585526
11.870474 -2.9676199 -19.422485
11.911186 -3.9703975 -19.252853
11.986903 -4.9945445 -18.937366
12.06355 -6.0317755 -18.618002
12.166697 -7.0972385 -18.188229
12.315649 -8.210434 -17.567593
12.471192 -9.3533955 -16.919497
12.694236 -10.578531 -15.990145
12.94937 -11.870257 -14.927087
13.36789 -13.367892 -13.183252
14.22322 -15.408486 -9.6193848
15.240824 14.06845 -10.264246
14.492216 12.262642 -13.143507
14.088763 10.837508 -14.695242
13.811652 9.5619125 -15.761055
13.593423 8.3651819 -16.600399
13.438635 7.2361879 -17.195736
13.307366 6.1418614 -17.700619
13.188774 5.072607 -18.156742
13.109797 4.0337844 -18.460499
13.049199 3.0113535 -18.693569
13.009676 2.0014887 -18.845579
12.984402 0.99879646 -18.942795
12.980292 9.5367432e-07 -18.958599
13.002521 -1.0001965 -18.873104
13.024784 -2.0038147 -18.787477
13.052252 -3.0120611 -18.681824
13.129257 -4.039773 -18.385653
13.218651 -5.084096 -18.041828
13.311982 -6.1439929 -17.682865
13.457699 -7.2464523 -17.122416
13.609607 -8.3751411 -16.538153
13.848088 -9.5871401 -15.620916
14.131403 -10.87031 -14.531247
14.570395 -12.328795 -12.842816
15.405084 -14.220078 -9.6324778
17.032103 13.382365 -8.0538626
15.812677 11.294769 -12.408947
15.363317 9.8764181 -14.013804
15.046049 8.5977411 -15.146908
14.825537 7.412766 -15.934452
14.633366 6.2714405 -16.620779
14.520324 5.1858292 -17.024498
14.420175 4.1200495 -17.382172
14.337897 3.0724053 -17.676023
14.280229 2.040031 -17.881981
14.258898 1.0184927 -17.95816
14.254206 -0 -17.974916
14.268154 -1.0191536 -17.925106
14.294817 -2.0421171 -17.829874
14.360106 -3.0771661 -17.596706
14.435744 -4.1245017 -17.326563
14.512186 -5.1829238 -17.053562
14.675691 -6.2895832 -16.469614
14.855206 -7.4276056 -15.828485
15.097424 -8.6271029 -14.963427
15.388242 -9.8924427 -13.924788
15.883922 -11.345658 -12.154507
17.390507 10.434302 -10.914438
16.794739 8.9571924 -12.900331
16.431452 7.6680107 -14.111294
16.183565 6.473424 -14.937577
15.99556 5.331852 -15.564263
15.84545 4.2254524 -16.064629
15.744007 3.1487994 -16.402775
15.68319 2.0910926 -16.605495
15.648923 1.0432606 -16.719717
15.643092 -9.5367432e-07 -16.739155
15.638125 -1.0425429 -16.755709
15.690428 -2.0920558 -16.581367
15.762668 -3.1525359 -16.340569
15.85487 -4.2279649 -16.03323
16.017637 -5.3392124 -15.490667
16.192739 -6.4770985 -14.906997
16.464067 -7.6832318 -14.002577
16.816679 -8.9688969 -12.827198
17.500204 -10.500124 -10.548786
18.529781 8.1067801 -10.977226
18.064785 6.7742934 -12.430344
17.72123 5.5378833 -13.503955
17.532789 4.3831973 -14.09283
17.376003 3.2579989 -14.582785
17.276892 2.1596103 -14.892507
17.210197 1.0756369 -15.100931
17.196346 -0 -15.144214
17.223091 -1.0764427 -15.060636
17.283678 -2.1604586 -14.871307
17.392143 -3.261025 -14.532347
17.547188 -4.3867946 -14.047832
17.722755 -5.5383606 -13.499187
18.122833 -6.7960653 -12.248943
18.730167 -8.1944475 -10.351026
19.90131 4.6826591 -10.349533
19.497402 3.4407172 -11.537495
19.31806 2.2727132 -12.064967
19.202862 1.1295786 -12.403793
19.100224 -0 -12.705669
19.191208 -1.1288958 -12.438066
19.320858 -2.2730436 -12.056742
19.486221 -3.4387472 -11.570379
19.920946 -4.687283 -10.291776
