# .PCD v0.7 - Point Cloud Data file format
VERSION 0.7
FIELDS x y z
SIZE 4 4 4
TYPE F F F
COUNT 1 1 1
WIDTH 1059
HEIGHT 1
VIEWPOINT 0 0 0 1 0 0 0
POINTS 1059
DATA ascii
-23.273355 1.2249136 -7.6371193
-22.88051 -2.3841858e-06 -8.6709251
-21.819891 7.2732944 -8.2719898
-20.789669 5.7749066 -11.133713
-20.360312 4.5245156 -12.326374
-20.084789 3.3474646 -13.091713
-19.962698 2.2180738 -13.43086
-19.858948 1.1032748 -13.719051
-19.846905 -4.7683716e-07 -13.752504
-19.862556 -1.1034751 -13.709026
-19.986044 -2.2206707 -13.366006
-20.157545 -3.3595934 -12.889617
-20.389193 -4.5309315 -12.246153
-20.871616 -5.7976713 -10.906084
-19.888069 9.3590937 -10.388471
-19.1752 7.895669 -12.48515
-18.806993 6.6377606 -13.568106
-18.51392 5.4452705 -14.430086
-18.313133 4.3089714 -15.020638
-18.173283 3.2070494 -15.431964
-18.096222 2.1289659 -15.65862
-18.040369 1.0611963 -15.822887
-18.015419 9.5367432e-07 -15.89627
-18.043819 -1.0614028 -15.812739
-18.097118 -2.1290731 -15.655975
-18.195585 -3.2109852 -15.366369
-18.337317 -4.3146639 -14.949511
-18.524263 -5.4483128 -14.399667
-18.817085 -6.641324 -13.538426
-19.230536 -7.918457 -12.322398
-20.097157 -9.4574842 -9.7735119
-18.935699 11.834811 -9.7087355
-18.035173 10.144784 -12.522879
-17.573359 8.7866783 -13.966054
-17.248188 7.5460796 -14.98221
-17.011705 6.3793888 -15.721214
-16.846848 5.2646384 -16.236399
-16.709465 4.1773629 -16.665718
-16.617094 3.1157031 -16.954378
-16.556452 2.0695524 -17.143883
-16.532106 1.0332584 -17.219963
-16.519695 -9.5367432e-07 -17.258751
-16.528074 -1.0330067 -17.232567
-16.557837 -2.0697298 -17.139561
-16.629652 -3.118062 -16.915134
-16.730694 -4.182672 -16.59938
-16.868538 -5.2714195 -16.168615
-17.050066 -6.3937778 -15.601341
-17.269939 -7.5556002 -14.914238
-17.630941 -8.8154726 -13.786104
-18.123343 -10.194381 -12.247347
-17.270802 12.665252 -11.313463
-16.603539 11.069023 -13.537667
-16.208834 9.7252998 -14.853351
-15.924221 8.492918 -15.802059
-15.705896 7.3294168 -16.52981
-15.53896 6.2155833 -17.086262
-15.403255 5.1344161 -17.538612
-15.322292 4.0859442 -17.808487
-15.243187 3.0486364 -18.07217
-15.176337 2.0235109 -18.295006
-15.151711 1.0101166 -18.377094
-15.142396 -2.8610229e-06 -18.408146
-15.154089 -1.0102749 -18.369167
-15.18665 -2.024889 -18.260628
-15.241504 -3.0483022 -18.077785
-15.320445 -4.0854559 -17.814646
-15.425848 -5.1419492 -17.463305
-15.5608 -6.2243223 -17.013468
-15.723545 -7.3376551 -16.470982
-15.962448 -8.5133076 -15.674633
-16.262674 -9.7576036 -14.673882
-16.673042 -11.115363 -13.30599
-17.485054 -12.822376 -10.599283
-15.959427 13.679506 -11.884845
-15.358918 12.067718 -14.029519
-14.989685 10.706917 -15.348208
-14.713264 9.4585257 -16.335423
-14.504011 8.2880058 -17.08276
-14.329324 7.1646609 -17.706638
-14.20661 6.0885463 -18.144907
-14.096247 5.0343738 -18.539059
-14.013994 4.0039959 -18.832817
-13.951896 2.9896927 -19.054598
-13.914324 1.9877605 -19.188786
-13.889444 0.99210262 -19.277637
-13.886063 9.5367432e-07 -19.289715
-13.89497 -0.99250031 -19.257902
-13.924385 -1.9891977 -19.152847
-13.966773 -2.9928808 -19.001463
-14.03049 -4.0087109 -18.773903
-14.112981 -5.0403519 -18.479294
-14.222978 -6.0955625 -18.086449
-14.347438 -7.1737213 -17.641945
-14.532735 -8.3044205 -16.980171
-14.7533 -9.4842634 -16.19244
-15.019266 -10.728048 -15.242564
-15.431142 -12.124469 -13.771574
-16.100002 -13.800006 -11.382786
-14.780203 14.780203 -12.035864
-14.208671 13.115696 -14.234061
-13.870263 11.736379 -15.535629
-13.575999 10.443079 -16.667412
-13.373513 9.258585 -17.446211
-13.209136 8.1287003 -18.078426
-13.081022 7.0436254 -18.571169
-13.023891 6.0110264 -18.790909
-12.967176 4.9873743 -19.009041
-12.910953 3.9725971 -19.225285
-12.855216 2.9665861 -19.439659
-12.799957 1.969223 -19.652193
-12.74525 0.9804039 -19.862606
-12.699905 -0 -20.037003
-12.712989 -0.97792339 -19.986687
-12.744589 -1.9607058 -19.865147
-12.771979 -2.947382 -19.7598
-12.827586 -3.9469528 -19.545925
-12.892373 -4.9586058 -19.296745
-12.981903 -5.9916501 -18.952402
-13.093714 -7.0504627 -18.52236
-13.234165 -8.1441021 -17.982162
-13.405308 -9.2805996 -17.323919
-13.636934 -10.48995 -16.433052
-13.909228 -11.769348 -15.38576
-14.292645 -13.193213 -13.911083
-14.920732 -14.920732 -11.495365
-13.740542 16.03063 -11.630538
-13.137736 14.232549 -14.142223
-12.788905 12.788903 -15.595694
-12.512731 11.470002 -16.74642
-12.306661 10.25555 -17.605042
-12.138857 9.1041393 -18.30423
-12.044776 8.029851 -18.69623
-11.992338 6.9955282 -18.914722
-11.940317 5.9701576 -19.131474
-11.888673 4.9536142 -19.346661
-11.837473 3.9458237 -19.559988
-11.786713 2.9466763 -19.771492
-11.736385 1.9560633 -19.981186
-11.686557 0.97387981 -20.188808
-11.637115 -9.5367432e-07 -20.394819
-11.588056 -0.96567345 -20.599232
-11.60592 -1.9343204 -20.524794
-11.634662 -2.9086657 -20.405041
-11.680584 -3.8935308 -20.213696
-11.74188 -4.8924518 -19.958292
-11.81596 -5.9079814 -19.64963
-11.909424 -6.9471655 -19.260197
-12.019135 -8.0127573 -18.803066
-12.156432 -9.1173277 -18.230991
-12.338904 -10.28242 -17.470697
-12.546023 -11.500522 -16.607704
-12.828923 -12.828924 -15.428946
-13.203766 -14.30408 -13.867105
-13.915213 -16.234417 -10.902744
-12.86571 17.544153 -10.40229
-12.137189 15.447332 -13.713755
-11.7552 13.892509 -15.450068
-11.47878 12.522303 -16.706524
-11.271157 11.271156 -17.650265
-11.101847 10.092587 -18.419859
-11.013667 9.0111799 -18.820671
-10.965871 7.9751778 -19.03793
-10.918453 6.9481068 -19.253464
-10.871377 5.9298425 -19.467445
-10.824673 4.9203053 -19.679737
-10.778367 3.919405 -19.890219
-10.732457 2.9270325 -20.098904
-10.686935 1.9430799 -20.305817
-10.64183 0.96743965 -20.510841
-10.597168 -0 -20.713852
-10.552691 -0.95933628 -20.916023
-10.522547 -1.9131899 -21.05304
-10.552659 -2.8780003 -20.916162
-10.590004 -3.8509102 -20.746418
-10.641382 -4.8369918 -20.512875
-10.702411 -5.8376808 -20.235474
-10.778793 -6.8592324 -19.888279
-10.872713 -7.9074283 -19.461376
-10.997689 -8.9981098 -18.893303
-11.126515 -10.115016 -18.307724
-11.311349 -11.311352 -17.467573
-11.51777 -12.56484 -16.529297
-11.808645 -13.955673 -15.207134
-12.222212 -15.555541 -13.327288
-13.072712 -17.826424 -9.4613762
-11.197428 16.796143 -12.895658
-10.766629 15.07328 -15.049649
-10.477484 13.620728 -16.49538
-10.271852 12.32622 -17.523535
-10.101109 11.11122 -18.377253
-9.9878769 9.9878769 -18.943411
-9.9444218 8.9499798 -19.160685
-9.9015274 7.9212203 -19.375162
-9.8590307 6.9013186 -19.587643
-9.8167477 5.8900452 -19.799059
-9.7748852 4.8874416 -20.008373
-9.7333488 3.8933392 -20.216051
-9.6921635 2.907649 -20.421978
-9.6513262 1.9302645 -20.626165
-9.6109171 0.96109009 -20.828213
-9.570816 -0 -21.028715
-9.5309639 -0.95309544 -21.227974
-9.4913588 -1.8982725 -21.426003
-9.5013065 -2.8503923 -21.376263
-9.5372066 -3.8148842 -21.196762
-9.5756578 -4.7878275 -21.004509
-9.6301279 -5.7780809 -20.732157
-9.6956091 -6.7869291 -20.404747
-9.7768154 -7.8214521 -19.998718
-9.8808861 -8.8927956 -19.478369
-9.9914732 -9.9914742 -18.925426
-10.135433 -11.148978 -18.205626
-10.300356 -12.360426 -17.38102
-10.524529 -13.681889 -16.260155
-10.807522 -15.130529 -14.845184
-11.272536 -16.908804 -12.520116
-10.356219 18.411055 -11.348247
-9.8290281 16.381712 -14.277087
-9.5150785 14.801231 -16.021252
-9.2952509 13.42647 -17.242514
-9.1274672 12.169954 -18.174648
-8.9878902 10.985197 -18.950075
-8.9281578 9.9201736 -19.281919
-8.8895769 8.889576 -19.496262
-8.8515158 7.8680134 -19.707706
-8.8137531 6.8551426 -19.917498
-8.7762051 5.8508015 -20.126102
-8.7390547 4.8550282 -20.332493
-8.7021656 3.8676271 -20.537436
-8.6655855 2.8885288 -20.740654
-8.6293116 1.9176235 -20.942173
-8.5933924 0.95482063 -21.141727
-8.5577192 -1.9073486e-06 -21.339909
-8.5224171 -0.9469347 -21.536034
-8.4872303 -1.8860502 -21.731516
-8.4838753 -2.8279581 -21.750162
-8.5154266 -3.7846365 -21.574867
-8.5499134 -4.7499533 -21.383274
-8.5921688 -5.7281122 -21.148525
-8.6464176 -6.7249928 -20.847147
-8.7127666 -7.7446847 -20.478539
-8.8001223 -8.8001261 -19.993223
-8.8968668 -9.8854084 -19.455759
-9.0092487 -11.011303 -18.831417
-9.1586952 -12.211596 -18.001154
-9.3323278 -13.480029 -17.036528
-9.5591679 -14.869816 -15.77631
-9.8812027 -16.468672 -13.987226
-10.45087 -18.579323 -10.822411
-8.9322405 17.864479 -13.056293
-8.5822086 16.09164 -15.243991
-8.3343945 14.58519 -16.792833
-8.1659546 13.269676 -17.845585
-8.0254202 12.038128 -18.723921
-7.9168134 10.885618 -19.402714
-7.8827329 9.8534145 -19.615715
-7.8489213 8.8300362 -19.82704
-7.8155165 7.8155155 -20.035816
-7.7823954 6.8095951 -20.242826
-7.7494602 5.8120933 -20.448673
-7.7168484 4.8230305 -20.652489
-7.6844883 3.8422432 -20.854744
-7.6523976 2.8696489 -21.055309
-7.620574 1.9051428 -21.25421
-7.5890141 0.94862366 -21.451462
-7.5577807 -9.5367432e-07 -21.646667
-7.5268035 -0.94085217 -21.840279
-7.4959702 -1.8739929 -22.032986
-7.487751 -2.8079062 -22.084352
-7.5104899 -3.7552452 -21.942234
-7.5419512 -4.7137194 -21.745605
-7.5780458 -5.6835361 -21.520008
-7.6270075 -6.6736317 -21.213997
-7.6835251 -7.6835246 -20.860764
-7.7526102 -8.7216854 -20.428982
-7.8371663 -9.7964592 -19.900511
-7.9332061 -10.908159 -19.300259
-8.0525799 -12.078869 -18.554174
-8.1862583 -13.30267 -17.718681
-8.3736725 -14.653927 -16.547344
-8.6174545 -16.157728 -15.023704
-8.9923897 -17.984779 -12.680362
-8.1262846 19.73526 -10.837905
-7.65311 17.492823 -14.217726
-7.3947864 15.845967 -16.062897
-7.2187977 14.437597 -17.319954
-7.0809555 13.150343 -18.304546
-6.9700551 11.948665 -19.096687
-6.8806858 10.812506 -19.735043
-6.851264 9.7875156 -19.9452
-6.822072 8.7712364 -20.153713
-6.7932506 7.7637134 -20.359577
-6.7646313 6.7646294 -20.564003
-6.7361917 5.7738762 -20.767139
-6.7080097 4.7914343 -20.968441
-6.6800828 3.8171892 -21.167915
-6.6523681 2.8510151 -21.365883
-6.6248822 1.8928232 -21.56221
-6.5976219 0.94251919 -21.756924
-6.5706625 -9.5367432e-07 -21.94949
-6.5438461 -0.93483448 -22.141035
-6.5172858 -1.8620806 -22.330755
-6.5155706 -2.7923899 -22.34301
-6.5384903 -3.7362795 -22.179295
-6.5625472 -4.6875324 -22.007463
-6.5934124 -5.6514969 -21.786991
-6.6313372 -6.6313376 -21.516102
-6.6784 -7.6324582 -21.179941
-6.7359705 -8.660532 -20.768724
-6.8039813 -9.7199764 -20.28293
-6.8819256 -10.814455 -19.726183
-6.9769845 -11.960545 -19.047194
-7.0908508 -13.168723 -18.23386
-7.2437739 -14.487549 -17.141556
-7.4327745 -15.927375 -15.791552
-7.6976962 -17.594736 -13.89925
-8.269043 -20.081964 -9.8182049
-6.785006 19.224182 -12.341082
-6.4772701 17.272717 -14.905549
-6.2760692 15.690173 -16.582218
-6.1313691 14.306524 -17.788055
-6.0227828 13.04936 -18.692944
-5.9283857 11.856771 -19.479582
-5.8583827 10.740367 -20.062939
-5.833499 9.722496 -20.270304
-5.8088255 8.7132378 -20.475916
-5.7844291 7.7125707 -20.679222
-5.7602201 6.7202563 -20.880962
-5.7361784 5.7361798 -21.08131
-5.7123194 4.7602654 -21.280132
-5.6886921 3.7924604 -21.477032
-5.6652422 2.8326187 -21.672445
-5.6419854 1.880661 -21.866253
-5.6189184 0.93648434 -22.058477
-5.5961366 9.5367432e-07 -22.248322
-5.5734105 -0.92890358 -22.43771
-5.5509634 -1.8503227 -22.624767
-5.5564423 -2.7782221 -22.579109
-5.5744562 -3.7163048 -22.428995
-5.5955529 -4.6629591 -22.253191
-5.6209955 -5.620997 -22.041166
-5.6522574 -6.5943012 -21.780651
-5.6943617 -7.5924826 -21.429779
-5.7430367 -8.6145554 -21.024158
-5.8007812 -9.6679707 -20.542955
-5.8643613 -10.751329 -20.013123
-5.9433303 -11.886661 -19.355043
-6.0308518 -13.066845 -18.625696
-6.1462793 -14.341319 -17.663797
-6.2951179 -15.737794 -16.423477
-6.4965563 -17.32415 -14.744831
-6.8372355 -19.372168 -11.905834
-5.5648112 18.920359 -13.23468
-5.3410559 17.091379 -15.472237
-5.1847272 15.554181 -17.035524
-5.0751009 14.210281 -18.131784
-4.9862008 12.964125 -19.020782
-4.9125094 11.790021 -19.7577
-4.8496456 10.669218 -20.386341
-4.8291821 9.6583643 -20.590975
-4.8088908 8.656004 -20.793888
-4.788826 7.6621194 -20.994534
-4.7689142 6.6764774 -21.193653
-4.749125 5.6989498 -21.391548
-4.7294993 4.7294979 -21.587803
-4.710063 3.7680483 -21.782166
-4.6907721 2.8144608 -21.975079
-4.6716518 1.86866 -22.166277
-4.6526604 0.9305315 -22.356199
-4.6339021 -9.5367432e-07 -22.543777
-4.6152287 -0.92304707 -22.730511
-4.6024771 -1.840992 -22.858025
-4.6134424 -2.7680645 -22.748371
-4.6263213 -3.7010593 -22.619583
-4.6444416 -4.6444397 -22.438379
-4.6662598 -5.5995131 -22.220196
-4.6932621 -6.5705671 -21.950176
-4.7249165 -7.5598693 -21.633629
-4.7663713 -8.5794697 -21.219078
-4.8102136 -9.6204281 -20.780664
-4.8586221 -10.688969 -20.296577
-4.926271 -11.82305 -19.620089
-4.9972887 -12.992949 -18.90991
-5.0924473 -14.258851 -17.958324
-5.2055755 -15.616728 -16.827042
-5.3553295 -17.137056 -15.329501
-5.5941787 -19.02021 -12.941006
-4.7458272 21.35622 -9.5599546
-4.4028363 18.712049 -13.847348
-4.2414503 16.965801 -15.864671
-4.1249743 15.468655 -17.320614
-4.0380988 14.133342 -18.406565
-3.969918 12.902232 -19.258823
-3.9126518 11.737957 -19.974648
-3.8648653 10.628379 -20.57198
-3.8380055 9.5950127 -20.907728
-3.8220069 8.5995159 -21.10771
-3.8061523 7.6123018 -21.305891
-3.7904289 6.6332498 -21.502438
-3.7748125 5.66222 -21.697639
-3.7592914 4.6991138 -21.891655
-3.7439625 3.7439594 -22.083263
-3.7287261 2.7965422 -22.27372
-3.7136133 1.8568039 -22.462633
-3.6986222 0.92465401 -22.650021
-3.6837726 -1.9073486e-06 -22.83564
-3.6690629 -0.91726589 -23.019512
-3.6712813 -1.8356409 -22.991781
-3.6783834 -2.758791 -22.903006
-3.6897807 -3.689784 -22.76054
-3.703325 -4.6291609 -22.591232
-3.7202566 -5.5803866 -22.379593
-3.7411554 -6.5470209 -22.118355
-3.7649648 -7.5299296 -21.820736
-3.7987621 -8.5472145 -21.398273
-3.8343472 -9.5858688 -20.953457
-3.8732145 -10.651339 -20.467617
-3.9240899 -11.77227 -19.831675
-3.9806104 -12.936985 -19.125168
-4.0537653 -14.188178 -18.210733
-4.1374764 -15.515539 -17.164339
-4.256259 -17.025034 -15.67956
-4.4251447 -18.80687 -13.568485
-3.4907143 20.944286 -10.704223
-3.2772658 18.571171 -14.261703
-3.1638768 16.874006 -16.151516
-3.0792363 15.39618 -17.562193
-3.0182543 14.085184 -18.578564
-2.967345 12.858493 -19.427048
-2.9258184 11.703273 -20.119156
-2.8911755 10.600977 -20.696541
-2.8603396 9.5344639 -21.210468
-2.8479116 8.5437336 -21.417603
-2.8361826 7.5631523 -21.613087
-2.824533 6.5905752 -21.807245
-2.8129709 5.6259403 -21.999954
-2.8014781 4.6691294 -22.19149
-2.7901196 3.7201586 -22.3808
-2.7788448 2.7788448 -22.568716
-2.7676528 1.8450994 -22.755249
-2.7565506 0.91884899 -22.940285
-2.745537 -1.9073486e-06 -23.123848
-2.7445381 -0.91484642 -23.140495
-2.7493837 -1.8329229 -23.059736
-2.753516 -2.7535133 -22.990864
-2.7614625 -3.6819515 -22.858423
-2.7712913 -4.6188173 -22.694609
-2.7842541 -5.5685086 -22.478561
-2.799618 -6.532444 -22.222494
-2.8183739 -7.5156646 -21.909899
-2.8409562 -8.522871 -21.533527
-2.8669307 -9.5564394 -21.100616
-2.8977962 -10.625252 -20.586191
-2.9342124 -11.736851 -19.979256
-2.9726622 -12.881535 -19.338425
-3.0285835 -14.13339 -18.406404
-3.0886731 -15.443367 -17.404909
-3.1769841 -16.943916 -15.93306
-3.2962756 -18.678896 -13.944866
-3.5314183 -21.188511 -10.025821
-2.3031113 20.728001 -11.305016
-2.1745174 18.483398 -14.519859
-2.1025951 16.820763 -16.317915
-2.0476062 15.357046 -17.69264
-2.0064425 14.045096 -18.721729
-1.9744979 12.834234 -19.520351
-1.9466875 11.680124 -20.215611
-1.9229184 10.576054 -20.809834
-1.9050193 9.5250969 -21.257311
-1.8870742 8.4918346 -21.70594
-1.8786527 7.5146103 -21.916479
-1.8709911 6.5484676 -22.108021
-1.8633807 5.5901413 -22.298279
-1.8558055 4.6395121 -22.487663
-1.848334 3.6966677 -22.674448
-1.8409119 2.7613697 -22.860001
-1.8335437 1.8335447 -23.044203
-1.8262811 0.91313839 -23.225767
-1.8262552 9.5367432e-07 -23.226416
-1.8267009 -0.91335487 -23.215273
-1.8297857 -1.8297863 -23.138153
-1.8331939 -2.7497911 -23.052948
-1.83822 -3.6764383 -22.927298
-1.8446841 -4.6117105 -22.765696
-1.8533527 -5.5600605 -22.548981
-1.8628739 -6.5200605 -22.310951
-1.8753849 -7.5015407 -21.998177
-1.8892399 -8.5015812 -21.651794
-1.9066164 -9.533082 -21.217388
-1.9278429 -10.603136 -20.686724
-1.9524567 -11.71474 -20.071381
-1.9792458 -12.865099 -19.401648
-2.0139763 -14.097836 -18.533386
-2.0554726 -15.416044 -17.495981
-2.1090853 -16.872684 -16.155664
-2.1873832 -18.592754 -14.19822
-2.3277657 -20.94989 -10.688653
-1.1472453 20.650412 -11.520533
-1.0856558 18.45615 -14.600003
-1.0484446 16.775112 -16.460564
-1.0226774 15.34016 -17.748924
-1.0026275 14.036784 -18.751423
-0.98697644 12.830694 -19.533974
-0.97278476 11.673417 -20.243559
-0.96116346 10.572796 -20.824623
-0.95199972 9.5199947 -21.28281
-0.94302285 8.4872055 -21.731651
-0.93608874 7.4887114 -22.078362
-0.92992431 6.5094709 -22.38658
-0.92579669 5.5547781 -22.592964
-0.92205667 4.61028 -22.779964
-0.91836512 3.67346 -22.964542
-0.91534561 2.7460375 -23.115517
-0.91383034 1.8276587 -23.191284
-0.91275209 0.91275311 -23.24519
-0.91261488 -2.8610229e-06 -23.252048
-0.91303438 -0.91303253 -23.231079
-0.91421449 -1.8284311 -23.172073
-0.91597867 -2.7479372 -23.083862
-0.91853017 -3.6741199 -22.956284
-0.9218058 -4.6090307 -22.792509
-0.92611635 -5.5566969 -22.576977
-0.931162 -6.5181351 -22.324694
-0.93733197 -7.4986558 -22.016199
-0.94429296 -8.4986362 -21.66815
-0.95311904 -9.5311899 -21.226843
-0.96355492 -10.599102 -20.705053
-0.97481197 -11.697742 -20.142199
-0.9891302 -12.858692 -19.426285
-1.0057955 -14.081135 -18.593025
-1.0259671 -15.389504 -17.584444
-1.0529451 -16.847126 -16.235537
-1.0917659 -18.56002 -14.2945
-1.1607136 -20.892841 -10.847118
0 20.654024 -11.510508
0 18.463499 -14.578386
0 16.782494 -16.437498
0 15.345185 -17.732178
0 14.040019 -18.739866
0 12.834471 -19.519442
0 11.684116 -20.198971
0 10.569357 -20.840261
0 9.5172663 -21.296465
0 8.4902172 -21.71493
0 7.4904051 -22.067741
0 6.5130825 -22.360769
0 5.5526056 -22.611065
0 4.6073389 -22.809401
0 3.6746025 -22.950256
0 2.7471294 -23.097286
0 1.8280487 -23.181549
0 0.91304684 -23.230429
0 -1.9073486e-06 -23.244673
0 -0.91311932 -23.226933
0 -1.8281794 -23.178307
0 -2.748354 -23.076952
0 -3.6734896 -22.964149
0 -4.6099663 -22.783136
0 -5.5557408 -22.584972
0 -6.5186648 -22.320923
0 -7.4977617 -22.021797
0 -8.4986858 -21.667873
0 -9.5335922 -21.214842
0 -10.602598 -20.68918
0 -11.695902 -20.149874
0 -12.859406 -19.42355
0 -14.086152 -18.575104
0 -15.403205 -17.538776
0 -16.85236 -16.219168
0 -18.542347 -14.346484
0 -20.870338 -10.909634
1.1534004 20.761208 -11.212775
1.0868511 18.476469 -14.540241
1.052322 16.837151 -16.266697
1.0248758 15.373137 -17.639008
1.0043986 14.061579 -18.662868
0.98789746 12.842665 -19.487925
0.97503054 11.700363 -20.131271
0.96277654 10.590541 -20.743967
0.95281428 9.528142 -21.242081
0.94427907 8.4985104 -21.668844
0.93740565 7.4992437 -22.012514
0.93145579 6.5201912 -22.310005
0.92628956 5.5577364 -22.568319
0.92268318 4.6134157 -22.748636
0.91982973 3.6793194 -22.891308
0.91691297 2.7507372 -23.037151
0.9149527 1.8299036 -23.135162
0.91386139 0.91386127 -23.189724
0.91353977 -9.5367432e-07 -23.205807
0.9141444 -0.91414642 -23.175577
0.91507226 -1.8301468 -23.129181
0.91706705 -2.7512007 -23.029442
0.91942245 -3.6776896 -22.911674
0.9230113 -4.6150589 -22.732231
0.9270314 -5.5621905 -22.531227
0.93229765 -6.5260844 -22.26791
0.93831855 -7.5065498 -21.966871
0.9456386 -8.5107479 -21.600866
0.95437115 -9.5437145 -21.164238
0.96479988 -10.612799 -20.642801
0.9764564 -11.71748 -20.059975
0.99081421 -12.880582 -19.342087
1.0067991 -14.09519 -18.542837
1.0291002 -15.436504 -17.427786
1.0550474 -16.880758 -16.130428
1.0937771 -18.59421 -14.193946
1.17226 -21.100683 -10.269795
2.3401814 21.061632 -10.378262
2.1897869 18.613184 -14.13813
2.1132956 16.906363 -16.050407
2.056668 15.42501 -17.466097
2.0145311 14.101715 -18.51952
1.9807992 12.875195 -19.362818
1.9539028 11.723416 -20.035225
1.9296112 10.612862 -20.642511
1.9093595 9.5467968 -21.148809
1.8925674 8.5165501 -21.568611
1.8784333 7.513731 -21.921963
1.8659034 6.5306625 -22.23521
1.8564477 5.5693407 -22.471603
1.8478352 4.619586 -22.68692
1.8420287 3.6840544 -22.832079
1.8362429 2.7543621 -22.976727
1.8331469 1.833147 -23.054123
1.8316654 0.91583252 -23.091162
1.8309828 -0 -23.108225
1.8316497 -0.91582298 -23.091553
1.8327397 -1.8327398 -23.064302
1.8369765 -2.7554674 -22.958382
1.8415385 -3.6830778 -22.84433
1.8491093 -4.6227741 -22.655066
1.8570851 -5.5712562 -22.455667
1.8680588 -6.5382056 -22.18133
1.8797719 -7.5190883 -21.888498
1.8948741 -8.5269356 -21.510946
1.9119571 -9.5597887 -21.083866
1.9317076 -10.624395 -20.590103
1.9578791 -11.747273 -19.93582
1.9870609 -12.915898 -19.206276
2.0199809 -14.139868 -18.383274
2.0653131 -15.489849 -17.249969
2.1211724 -16.969379 -15.853491
2.2037621 -18.731981 -13.788743
2.3782794 -21.404516 -9.4258089
3.6367581 21.820549 -8.2701626
3.3153939 18.787231 -13.626228
3.1851594 16.987516 -15.796806
3.0999691 15.499846 -17.216644
3.0344663 14.160841 -18.308361
2.9814842 12.919762 -19.191393
2.9387405 11.754961 -19.903788
2.9038975 10.647623 -20.484507
2.8734667 9.5782213 -20.991684
2.8471222 8.5413675 -21.430756
2.8253431 7.5342493 -21.793745
2.8069189 6.5494757 -22.100815
2.7919431 5.5838823 -22.35041
2.7791088 4.6318483 -22.564316
2.7694867 3.692647 -22.724684
2.7623868 2.7623835 -22.843016
2.7578733 1.8385811 -22.91824
2.7555199 0.91850567 -22.957462
2.7544899 -1.9073486e-06 -22.97463
2.7550716 -0.91835594 -22.964933
2.7564876 -1.8376598 -22.941338
2.7629876 -2.7629881 -22.833004
2.7701542 -3.6935406 -22.71356
2.7811501 -4.6352491 -22.530294
2.793179 -5.5863595 -22.329815
2.8100479 -6.5567818 -22.048662
2.8279002 -7.5410695 -21.751125
2.850956 -8.5528698 -21.366865
2.8773375 -9.5911255 -20.92717
2.9084551 -10.664335 -20.408546
2.9464264 -11.785705 -19.77569
2.9903955 -12.958382 -19.04287
3.0463576 -14.216335 -18.110167
3.110235 -15.551175 -17.045547
3.202656 -17.080835 -15.505192
3.337225 -18.91094 -13.262382
4.470789 19.000851 -12.997933
4.2828097 17.131237 -15.347675
4.1615791 15.605922 -16.863052
4.0701323 14.245462 -18.006142
3.9968131 12.98964 -18.922634
3.9386532 11.815958 -19.649632
3.8891993 10.695295 -20.267807
3.8451362 9.6128407 -20.818594
3.8119569 8.5769024 -21.233335
3.7816322 7.5632644 -21.612392
3.7562311 6.5734015 -21.929909
3.735467 5.6032009 -22.189461
3.7189879 4.6487331 -22.395447
3.7033889 3.7033892 -22.590435
3.6963177 2.7722378 -22.678827
3.6903412 1.84517 -22.753532
3.6847849 0.92119503 -22.822987
3.6834035 9.5367432e-07 -22.840248
3.6841838 -0.92104912 -22.830498
3.6872544 -1.843627 -22.79211
3.6959887 -2.7719908 -22.682941
3.7049346 -3.7049332 -22.571115
3.7206647 -4.6508312 -22.374485
3.7371805 -5.6057701 -22.168043
3.7602139 -6.5803742 -21.880123
3.7841558 -7.5683131 -21.580849
3.8161719 -8.5863867 -21.180649
3.8513598 -9.6284008 -20.740801
3.8939047 -10.708238 -20.208988
3.9446275 -11.833883 -19.574955
4.0065155 -13.021176 -18.80135
4.0859966 -14.300988 -17.807838
4.1765938 -15.662225 -16.675375
4.3064356 -17.225746 -15.052351
4.5056057 -19.148823 -12.562729
5.707984 19.407145 -11.802958
5.4123764 17.319603 -14.759035
5.2454529 15.73636 -16.428263
5.1230741 14.344606 -17.652056
5.0281601 13.073214 -18.601196
4.9527445 11.886584 -19.355352
4.8882146 10.754072 -20.000648
4.8344197 9.6688366 -20.538597
4.7893109 8.6207581 -20.989689
4.7484522 7.5975223 -21.39827
4.717907 6.6050696 -21.703728
4.6906075 5.6287279 -21.976717
4.6680198 4.6680174 -22.202599
4.6517992 3.7214394 -22.364803
4.6369333 2.7821598 -22.513462
4.6295161 1.8518066 -22.587635
4.6237559 0.92474937 -22.645241
4.6214056 -0 -22.668739
4.6240215 -0.92480469 -22.64258
4.6289434 -1.8515778 -22.593365
4.6404366 -2.7842646 -22.478428
4.6526732 -3.7221375 -22.35606
4.6724114 -4.6724129 -22.158682
4.6931801 -5.6318188 -21.950998
4.722753 -6.6118555 -21.655262
4.7540359 -7.6064572 -21.342438
4.7951622 -8.6312943 -20.931173
4.8414164 -9.6828318 -20.468634
4.8966489 -10.772627 -19.916311
4.9638977 -11.913356 -19.243816
5.0468793 -13.121884 -18.414003
5.1435928 -14.402061 -17.446867
5.2752891 -15.825868 -16.129906
5.4485159 -17.435249 -14.39764
5.7694006 -19.615963 -11.188787
7.1156716 20.161066 -9.585535
6.6072369 17.619299 -13.822489
6.3720846 15.93021 -15.782089
6.2116852 14.493932 -17.118752
6.0882969 13.191308 -18.146988
5.9898448 11.979688 -18.967426
5.9052696 10.826325 -19.672218
5.8383145 9.7305202 -20.230179
5.7819352 8.6729002 -20.700005
5.7372518 7.6496682 -21.072365
5.6979241 6.6475768 -21.400095
5.6632814 5.6632824 -21.688782
5.6343136 4.695262 -21.930182
5.6148992 3.7432652 -22.091969
5.5963802 2.7981892 -22.246298
5.5867295 1.8622408 -22.326717
5.5808845 0.93014717 -22.375427
5.5785627 -9.5367432e-07 -22.394772
5.5788202 -0.92980576 -22.392624
5.5840802 -1.8613615 -22.348797
5.5967207 -2.7983627 -22.243458
5.6111465 -3.7407637 -22.123241
5.6359582 -4.6966305 -21.916479
5.6614881 -5.6614885 -21.703728
5.6987314 -6.6485224 -21.393368
5.7379851 -7.6506476 -21.066256
5.7891636 -8.6837482 -20.639767
5.8466578 -9.7444305 -20.160646
5.9148932 -10.84397 -19.592024
6.0052686 -12.010539 -18.838888
6.1071291 -13.232116 -17.990053
6.23312 -14.543946 -16.94013
6.4032307 -16.008076 -15.522538
6.6528335 -17.740891 -13.442514
7.3289223 -20.765278 -7.8084431
7.8928485 18.040798 -12.505302
7.5446167 16.167034 -14.992681
7.3332124 14.666423 -16.50271
7.1755247 13.325973 -17.629049
7.0508809 12.087222 -18.519365
6.9529958 10.926136 -19.21854
6.8692722 9.8132439 -19.81657
6.7940493 8.7352047 -20.35387
6.741715 7.7048159 -20.72769
6.6930428 6.6930423 -21.075348
6.6509147 5.7007809 -21.376263
6.6196065 4.7282887 -21.599894
6.592679 3.7672453 -21.792229
6.5730014 2.8169985 -21.932789
6.5579042 1.8736849 -22.040623
6.5492301 0.93560123 -22.102583
6.5478024 -9.5367432e-07 -22.11278
6.5467176 -0.93524551 -22.120527
6.5555954 -1.8730307 -22.057114
6.5749774 -2.8178482 -21.918673
6.5958834 -3.7690773 -21.769342
6.6207933 -4.7291393 -21.591412
6.6517787 -5.7015266 -21.37009
6.6953902 -6.6953883 -21.058582
6.7440357 -7.7074676 -20.711113
6.8054614 -8.7498789 -20.27236
6.8778701 -9.825531 -19.755148
6.9686537 -10.950743 -19.106699
7.0736623 -12.126278 -18.356638
7.2009606 -13.373215 -17.447363
7.3641834 -14.728368 -16.281487
7.5924449 -16.269524 -14.651045
7.9556198 -18.184275 -12.056943
9.3980036 18.796005 -10.145273
8.8174028 16.532629 -13.774026
8.51159 14.895278 -15.685365
8.3061886 13.497554 -16.969122
8.1488953 12.223344 -17.952198
8.0328321 11.045141 -18.677595
7.9315929 9.9144897 -19.310341
7.8388362 8.8186893 -19.89007
7.7690802 7.7690792 -20.326046
7.7065005 6.7431898 -20.717167
7.6551738 5.7413788 -21.037964
7.6193333 4.762084 -21.261961
7.5838056 3.7919035 -21.484013
7.5628424 2.8360624 -21.615032
7.5453548 1.8863373 -21.724331
7.531846 0.94147968 -21.808762
7.5360785 9.5367432e-07 -21.782303
7.5403161 -0.94254017 -21.755817
7.5499573 -1.8874912 -21.695568
7.5709376 -2.8391027 -21.56444
7.5961113 -3.7980566 -21.407099
7.6239591 -4.7649727 -21.233055
7.659637 -5.7447262 -21.010063
7.7118101 -6.7478352 -20.683981
7.7708154 -7.7708173 -20.315203
7.8442335 -8.8247643 -19.856333
7.93822 -9.9227762 -19.268919
8.0494576 -11.068007 -18.573685
8.1638308 -12.245749 -17.858852
8.344821 -13.560335 -16.727661
8.5463419 -14.956099 -15.46816
8.8619566 -16.616167 -13.495569
9.5731449 -19.146294 -9.0506363
10.202029 17.00338 -12.204858
9.7800083 15.213344 -14.549419
9.4989767 13.720743 -16.110703
9.3016987 12.402264 -17.206692
9.1458836 11.178301 -18.07233
9.0180283 10.020029 -18.782642
8.9162855 8.9162855 -19.347881
8.8321095 7.8507628 -19.815523
8.7592459 6.8127441 -20.220322
8.6991854 5.7994556 -20.553988
8.6534948 4.8074961 -20.807825
8.611558 3.8273582 -21.040806
8.5847321 2.8615761 -21.189838
8.5672369 1.9038286 -21.287033
8.5545597 0.95050716 -21.357458
8.551075 -9.5367432e-07 -21.376822
8.5561275 -0.95068359 -21.348759
8.5689602 -1.9042177 -21.277458
8.582036 -2.8606806 -21.204817
8.6141195 -3.8284979 -21.026581
8.6588764 -4.8104844 -20.777931
8.7077112 -5.8051395 -20.506624
8.7626638 -6.815402 -20.201328
8.8353424 -7.8536367 -19.797562
8.9305258 -8.9305258 -19.268766
9.0361185 -10.040133 -18.682137
9.1642303 -11.200727 -17.970409
9.3327789 -12.443705 -17.034023
9.5299177 -13.765437 -15.938808
9.8259926 -15.28488 -14.293943
10.309295 -17.182161 -11.608936
11.170378 15.638528 -13.030909
10.794399 14.032717 -14.910803
10.506249 12.607498 -16.351549
10.324943 11.357435 -17.258087
10.161483 10.161484 -18.075378
10.029274 9.0263453 -18.736427
9.9233255 7.9386606 -19.266167
9.8346872 6.8842797 -19.709362
9.7723627 5.8634133 -20.020988
9.7121992 4.8560987 -20.321798
9.669508 3.8678007 -20.535257
9.6359529 2.8907833 -20.703033
9.6094246 1.9218845 -20.83567
9.5985909 0.95985699 -20.889839
9.5903244 -1.9073486e-06 -20.931175
9.5916681 -0.95916748 -20.924458
9.6129847 -1.9225979 -20.817875
9.6373959 -2.891222 -20.69582
9.6727047 -3.8690815 -20.519276
9.7234974 -4.8617477 -20.26531
9.7806482 -5.8683891 -19.979557
9.8435001 -6.89045 -19.665295
9.9415035 -7.9532032 -19.175278
10.052174 -9.0469589 -18.621929
10.165302 -10.165302 -18.056284
10.348548 -11.383404 -17.140059
10.548607 -12.658328 -16.139761
10.831566 -14.081036 -14.724966
11.256174 -15.758642 -12.601929
12.937179 16.4655 -10.07744
12.209482 14.429384 -13.385157
11.829045 12.904411 -15.114409
11.567675 11.567675 -16.302456
11.354049 10.321859 -17.273487
11.209911 9.1717453 -17.928652
11.079782 8.0580215 -18.520149
10.969234 6.9804196 -19.022638
10.88756 5.9386663 -19.393888
10.812274 4.9146709 -19.736092
10.759465 3.9125299 -19.976135
10.722152 2.9242201 -20.145741
10.686773 1.9430494 -20.306553
10.678811 0.97080135 -20.342743
10.67543 -0 -20.358116
10.680132 -0.97092152 -20.336739
10.700858 -1.94561 -20.242533
10.731057 -2.926651 -20.105263
10.769416 -3.9161534 -19.930906
10.811383 -4.9142652 -19.740147
10.897849 -5.9442849 -19.347116
10.988267 -6.9925332 -18.936131
11.088633 -8.0644598 -18.479925
11.223488 -9.1828566 -17.86694
11.395238 -10.359308 -17.086262
11.585999 -11.585999 -16.21917
11.879099 -12.959017 -14.886893
12.268423 -14.499048 -13.117235
13.215555 -16.819798 -8.8120918
14.054578 15.225793 -10.322054
13.307226 13.307228 -13.43602
12.932632 11.85491 -14.996832
12.655424 10.546185 -16.151859
12.454903 9.341176 -16.98737
12.275758 8.1838369 -17.733807
12.161103 7.093977 -18.211533
12.055604 6.027802 -18.651112
11.972485 4.9885349 -18.997446
11.911553 3.9705186 -19.251324
11.862124 2.9655333 -19.457275
11.829279 1.9715452 -19.594139
11.806314 0.98386097 -19.689816
11.799461 -2.8610229e-06 -19.718372
11.809925 -0.98416042 -19.674774
11.821168 -1.9701958 -19.627928
11.858374 -2.9645934 -19.472912
11.920267 -3.973424 -19.215014
11.982775 -4.9928236 -18.954567
12.07313 -6.0365648 -18.578093
12.173025 -7.1009326 -18.161858
12.303211 -8.2021427 -17.619417
12.48498 -9.3637362 -16.862045
12.682606 -10.568839 -16.038609
12.973123 -11.892025 -14.828123
13.385776 -13.385777 -13.10873
14.218821 -15.403727 -9.6377106
15.280402 14.104983 -10.112022
14.499448 12.268764 -13.115688
14.083216 10.833242 -14.716582
13.815255 9.5644073 -15.747196
13.604075 8.3717384 -16.559429
13.439715 7.2367678 -17.191586
13.303262 6.1399646 -17.716404
13.182 5.0699997 -18.182793
13.111564 4.034328 -18.453701
13.041917 3.0096722 -18.721575
13.009555 2.0014706 -18.846046
12.986255 0.99894333 -18.935661
12.977715 9.5367432e-07 -18.96851
13.002641 -1.0002041 -18.872635
13.028717 -2.0044203 -18.772345
13.067172 -3.0154996 -18.624437
13.134285 -4.0413189 -18.366312
13.202091 -5.0777292 -18.10552
13.311558 -6.1437974 -17.684496
13.465885 -7.2508616 -17.090931
13.625253 -8.3847733 -16.477978
13.834077 -9.5774403 -15.674809
14.141242 -10.877879 -14.493403
14.575521 -12.333134 -12.823097
15.45071 -14.262194 -9.4569883
17.256308 13.558527 -7.2531309
15.807408 11.291004 -12.427767
15.359547 9.8739929 -14.027275
15.054947 8.6028271 -15.115126
14.807216 7.4036078 -15.999884
14.656738 6.2814593 -16.5373
14.510364 5.182271 -17.060072
14.399482 4.1141367 -17.456072
14.332742 3.0713024 -17.694429
14.281631 2.0402322 -17.876968
14.245418 1.0175285 -18.006302
14.245103 9.5367432e-07 -18.007431
14.267477 -1.0191059 -17.927525
14.294455 -2.0420651 -17.831169
14.330964 -3.0709229 -17.700779
14.436485 -4.1247096 -17.323919
14.547845 -5.1956587 -16.926208
14.667618 -6.2861209 -16.498447
14.843217 -7.4216099 -15.87131
15.096362 -8.6264935 -14.967223
15.388399 -9.8925438 -13.924228
15.894175 -11.352985 -12.117884
17.393515 10.436108 -10.904413
16.775188 8.9467678 -12.965502
16.428543 7.6666517 -14.120989
16.180637 6.4722543 -14.94734
15.994021 5.3313384 -15.569387
15.855495 4.2281308 -16.031147
15.756185 3.1512346 -16.362179
15.67316 2.0897527 -16.638931
15.654151 1.0436063 -16.702295
15.637772 1.9073486e-06 -16.756893
15.649126 -1.0432763 -16.71904
15.702678 -2.0936909 -16.540537
15.769103 -3.1538205 -16.319115
15.845607 -4.2254958 -16.064108
16.014078 -5.338027 -15.502537
16.208563 -6.483427 -14.854257
16.46283 -7.6826582 -14.006695
16.860909 -8.9924841 -12.679769
17.544151 -10.526491 -10.402294
18.615797 8.1444101 -10.708429
18.048069 6.7680259 -12.482579
17.750126 5.5469146 -13.413655
17.505728 4.3764315 -14.177395
17.353867 3.2538509 -14.65196
17.257551 2.1571932 -14.952942
17.179764 1.0737338 -15.19603
17.196518 -1.4305115e-06 -15.143679
17.214512 -1.0759072 -15.087443
17.283503 -2.1604381 -14.871849
17.395081 -3.2615786 -14.523169
17.529686 -4.3824215 -14.10253
17.773283 -5.5541534 -13.341287
18.099392 -6.7872739 -12.3222
18.734119 -8.1961794 -10.338673
19.86388 4.6738534 -10.459621
19.508039 3.4425955 -11.506214
19.297552 2.2702985 -12.12529
19.143129 1.1260653 -12.579473
19.164654 -9.5367432e-07 -12.516164
19.186228 -1.1286011 -12.452714
19.332533 -2.2744145 -12.022406
19.515345 -3.4438863 -11.484721
19.945059 -4.6929569 -10.220862
