# .PCD v0.7 - Point Cloud Data file format
VERSION 0.7
FIELDS x y z
SIZE 4 4 4
TYPE F F F
COUNT 1 1 1
WIDTH 1075
HEIGHT 1
VIEWPOINT 0 0 0 1 0 0 0
POINTS 1075
DATA ascii
-22.234552 2.3404784 -10.370818
-21.958364 1.1557026 -11.09763
-21.904325 -4.7683716e-07 -11.23984
-21.950167 -1.155272 -11.119202
-22.23908 -2.3409584 -10.358903
-20.664707 6.888236 -11.480833
-20.139534 5.594316 -12.939647
-19.82802 4.4062238 -13.804963
-19.618841 3.2698073 -14.386017
-19.517445 2.1686025 -14.667673
-19.464064 1.0813341 -14.815952
-19.415462 -3.8146973e-06 -14.950958
-19.474663 -1.0819283 -14.78651
-19.534292 -2.1704783 -14.620871
-19.634735 -3.2724571 -14.341867
-19.91363 -4.4252524 -13.567156
-20.205002 -5.6125021 -12.75779
-20.807144 -6.9357185 -11.085174
-19.259441 9.0632658 -12.237381
-18.719286 7.7079406 -13.826071
-18.386063 6.4891977 -14.806143
-18.144775 5.3366976 -15.515814
-17.963898 4.2267981 -16.047802
-17.851707 3.1503024 -16.377775
-17.760262 2.0894451 -16.646732
-17.720396 1.0423746 -16.763981
-17.70755 -1.9073486e-06 -16.801765
-17.714027 -1.0420012 -16.782713
-17.738609 -2.0868959 -16.710413
-17.867392 -3.1530714 -16.331648
-17.997995 -4.2348228 -15.947514
-18.131065 -5.3326674 -15.55614
-18.435192 -6.5065393 -14.661644
-18.768991 -7.7284074 -13.679876
-19.349558 -9.1056747 -11.972328
-18.301775 11.438607 -11.689754
-17.613392 9.9075298 -13.840947
-17.209738 8.6048689 -15.102365
-16.922588 7.4036317 -15.999706
-16.720478 6.2701783 -16.631298
-16.553417 5.1729426 -17.153366
-16.432655 4.1081638 -17.530746
-16.333307 3.0624928 -17.841213
-16.276104 2.0345116 -18.019974
-16.233566 1.0145988 -18.152905
-16.202049 9.5367432e-07 -18.251394
-16.244781 -1.0152998 -18.117859
-16.288511 -2.0360641 -17.981201
-16.347982 -3.0652485 -17.795353
-16.410398 -4.1026001 -17.600304
-16.573771 -5.1793032 -17.089764
-16.747562 -6.280334 -16.546665
-16.948824 -7.4151115 -15.917723
-17.259867 -8.6299381 -14.945715
-17.69091 -9.9511366 -13.598701
-18.498428 -11.561522 -11.07521
-16.807604 12.325573 -12.857452
-16.27479 10.849858 -14.633496
-15.905542 9.5433254 -15.864322
-15.641673 8.3422222 -16.743887
-15.421216 7.1965642 -17.478745
-15.265071 6.1060271 -17.999226
-15.139166 5.0463881 -18.418911
-15.043676 4.0116467 -18.737206
-14.984698 2.9969406 -18.9338
-14.93112 1.9908152 -19.112392
-14.912947 0.99419689 -19.172974
-14.907099 -9.5367432e-07 -19.192469
-14.913454 -0.99423122 -19.171284
-14.920921 -1.9894562 -19.146393
-14.980467 -2.9960942 -18.947908
-15.045364 -4.0120983 -18.731581
-15.155135 -5.0517125 -18.365681
-15.286291 -6.1145163 -17.928492
-15.467762 -7.2182879 -17.323589
-15.667258 -8.3558693 -16.658604
-15.964244 -9.5785465 -15.668651
-16.305685 -10.870457 -14.530512
-16.902884 -12.395449 -12.539852
-15.554469 13.332399 -13.331124
-15.047909 11.823354 -15.14027
-14.703613 10.502581 -16.369894
-14.454687 9.2922974 -17.258915
-14.265669 8.1518078 -17.933977
-14.10706 7.0535288 -18.500439
-13.980555 5.9916658 -18.952244
-13.880886 4.9574599 -19.308201
-13.804293 3.9440804 -19.581753
-13.739634 2.9442072 -19.812677
-13.689372 1.9556246 -19.992184
-13.67068 0.97647476 -20.058939
-13.660732 -0 -20.094467
-13.673335 -0.97666836 -20.049454
-13.690328 -1.9557629 -19.988766
-13.738711 -2.9440079 -19.815971
-13.793262 -3.9409323 -19.621143
-13.881657 -4.9577317 -19.30545
-13.978775 -5.9909048 -18.958597
-14.11904 -7.0595179 -18.457653
-14.291282 -8.1664467 -17.842506
-14.469681 -9.3019381 -17.205364
-14.760018 -10.54287 -16.168446
-15.103295 -11.866875 -14.942461
-15.62833 -13.395715 -13.06733
-14.414324 14.414323 -13.443091
-13.922884 12.851892 -15.333243
-13.590905 11.499995 -16.610083
-13.350852 10.269886 -17.533369
-13.15109 9.104599 -18.301683
-12.98815 7.9927073 -18.928375
-12.859759 6.9244871 -19.42218
-12.755157 5.8869958 -19.824497
-12.679585 4.8767624 -20.115166
-12.60942 3.8798218 -20.385025
-12.563641 2.8993015 -20.5611
-12.526401 1.9271355 -20.704332
-12.512913 0.96253109 -20.756207
-12.501659 -9.5367432e-07 -20.799492
-12.514786 -0.962677 -20.74901
-12.530978 -1.9278469 -20.686728
-12.570813 -2.9009609 -20.533512
-12.616873 -3.8821135 -20.356358
-12.688812 -4.880311 -20.079668
-12.76703 -5.8924761 -19.778837
-12.87555 -6.9329906 -19.36145
-12.997633 -7.9985418 -18.891907
-13.183537 -9.1270647 -18.176882
-13.374838 -10.28834 -17.441113
-13.645118 -11.545869 -16.401575
-13.963264 -12.889169 -15.177933
-14.513129 -14.513127 -13.063072
-13.372705 15.601488 -13.163191
-12.856941 13.92835 -15.312208
-12.52454 12.524538 -16.697218
-12.281887 11.258393 -17.708267
-12.089078 10.074231 -18.511639
-11.93327 8.9499531 -19.160839
-11.803536 7.8690224 -19.701393
-11.703771 6.8271966 -20.11709
-11.626676 5.8133364 -20.438316
-11.554563 4.8143978 -20.738785
-11.500199 3.8333988 -20.965298
-11.456123 2.864028 -21.148952
-11.417681 1.9029455 -21.309128
-11.407327 0.95061016 -21.352268
-11.397934 -1.9073486e-06 -21.391407
-11.409888 -0.95082283 -21.341595
-11.423321 -1.9038868 -21.285625
-11.458197 -2.8645515 -21.140312
-11.495543 -3.8318491 -20.984701
-11.555324 -4.8147211 -20.735613
-11.617372 -5.8086867 -20.477081
-11.714278 -6.8333278 -20.073303
-11.821095 -7.8807306 -19.628231
-11.962583 -8.9719372 -19.038702
-12.126013 -10.105012 -18.357746
-12.307171 -11.281574 -17.602919
-12.589909 -12.58991 -16.424845
-12.9426 -14.02115 -14.955296
-13.488821 -15.73696 -12.679374
-12.445693 16.971401 -12.311462
-11.86246 15.097673 -14.962524
-11.521106 13.615852 -16.514133
-11.268036 12.292402 -17.664452
-11.07389 11.073887 -18.546934
-10.915423 9.9231091 -19.267237
-10.789964 8.8281517 -19.837505
-10.683871 7.7700868 -20.319746
-10.595646 6.7426848 -20.720772
-10.528932 5.7430501 -21.024017
-10.474569 4.7611675 -21.271122
-10.427763 3.791914 -21.483871
-10.389386 2.8334656 -21.658314
-10.359985 1.8836355 -21.791952
-10.347419 0.94067287 -21.849073
-10.339984 9.5367432e-07 -21.88287
-10.348629 -0.94078636 -21.843575
-10.360168 -1.8836679 -21.791124
-10.389691 -2.8335524 -21.656925
-10.423372 -3.7903194 -21.50383
-10.47494 -4.7613363 -21.26943
-10.532972 -5.7452598 -21.00565
-10.610476 -6.7521214 -20.653357
-10.698853 -7.7809844 -20.251646
-10.805806 -8.841116 -19.765495
-10.943734 -9.9488516 -19.13855
-11.114149 -11.114149 -18.363935
-11.31605 -12.344779 -17.446211
-11.565143 -13.667895 -16.313965
-11.947292 -15.205646 -14.576921
-12.595363 -17.175495 -11.631148
-11.717649 18.748238 -10.294549
-10.9283 16.392447 -14.2413
-10.546982 14.765772 -16.147888
-10.289258 13.376035 -17.436506
-10.092714 12.111258 -18.419226
-9.9327288 10.926002 -19.219154
-9.8051424 9.8051414 -19.857079
-9.69485 8.7253647 -20.408546
-9.6149082 7.6919284 -20.808254
-9.5365286 6.6755691 -21.200155
-9.4737568 5.6842508 -21.514015
-9.4209261 4.7104626 -21.778168
-9.3834581 3.7533808 -21.965504
-9.3543568 2.8063059 -22.111012
-9.3332233 1.866643 -22.216679
-9.3224363 0.93224335 -22.270611
-9.3179016 -2.8610229e-06 -22.293287
-9.3238945 -0.93239021 -22.263321
-9.3354979 -1.8671007 -22.205307
-9.3587914 -2.8076382 -22.08884
-9.3887691 -3.7555084 -21.938948
-9.4306984 -4.7153502 -21.729305
-9.4801474 -5.6880889 -21.482056
-9.5415049 -6.6790519 -21.175274
-9.621088 -7.6968722 -20.777355
-9.7220287 -8.7498283 -20.272652
-9.8251095 -9.8251104 -19.757248
-9.9668121 -10.963494 -19.048735
-10.115269 -12.138323 -18.306452
-10.334291 -13.434582 -17.211338
-10.603101 -14.84434 -15.86729
-10.987211 -16.480818 -13.946741
-10.042291 17.852961 -13.092293
-9.609849 16.016415 -15.494742
-9.3427439 14.533158 -16.978662
-9.1319275 13.190562 -18.149864
-8.9703808 11.960506 -19.047346
-8.8391447 10.803397 -19.77644
-8.7330208 9.7033567 -20.366014
-8.6441975 8.6441975 -20.859478
-8.5749979 7.6222205 -21.243917
-8.5048742 6.614902 -21.633492
-8.4528513 5.6352329 -21.92251
-8.4100962 4.6722736 -22.160038
-8.3780584 3.7235794 -22.338028
-8.3492708 2.7830906 -22.497955
-8.3336563 1.8519211 -22.584707
-8.3223782 0.92470837 -22.647362
-8.3194132 -9.5367432e-07 -22.663834
-8.3232384 -0.92480469 -22.64258
-8.3342552 -1.8520565 -22.581373
-8.3527861 -2.7842646 -22.478428
-8.3809919 -3.724884 -22.321732
-8.4161329 -4.6756306 -22.126505
-8.4629278 -5.6419539 -21.866529
-8.5210133 -6.6274571 -21.543831
-8.5804596 -7.6270742 -21.213573
-8.6658449 -8.6658478 -20.739214
-8.7541094 -9.7267885 -20.248852
-8.8594217 -10.828186 -19.663786
-9.00208 -12.002774 -18.871239
-9.1669855 -13.2412 -17.955099
-9.3766489 -14.585897 -16.790304
-9.6693277 -16.115547 -15.16431
-10.162546 -18.066748 -12.424205
-9.3897438 19.953203 -10.196899
-8.7038622 17.407722 -14.48366
-8.4072771 15.763647 -16.337309
-8.1937094 14.338989 -17.672113
-8.0264454 13.042973 -18.717508
-7.8939233 11.840883 -19.545776
-7.7844896 10.703672 -20.229738
-7.6948462 9.6185589 -20.790007
-7.6179128 8.5701513 -21.27084
-7.5547423 7.5547414 -21.665657
-7.50213 6.5643616 -21.994486
-7.4597211 5.5947914 -22.259541
-7.4224086 4.6390066 -22.492744
-7.3955445 3.697772 -22.660645
-7.3726296 2.7647371 -22.803858
-7.3595634 1.8398914 -22.885525
-7.3487873 0.91859818 -22.952877
-7.3478227 -1.9073486e-06 -22.958904
-7.3499622 -0.91874695 -22.945536
-7.361815 -1.840456 -22.871452
-7.3769817 -2.7663717 -22.776661
-7.4006467 -3.700326 -22.628759
-7.4285979 -4.6428719 -22.454062
-7.4695902 -5.6021919 -22.197859
-7.5192857 -6.5793762 -21.887264
-7.5711598 -7.5711598 -21.563046
-7.633996 -8.5882454 -21.170324
-7.7137508 -9.642189 -20.671854
-7.8017335 -10.727384 -20.121964
-7.9194183 -11.879131 -19.386429
-8.0482502 -13.078405 -18.581236
-8.2207613 -14.386334 -17.503035
-8.4429255 -15.830487 -16.114511
-8.7749395 -17.549879 -14.039426
-7.882741 19.143799 -12.577505
-7.4914775 17.123375 -15.372242
-7.2682667 15.574855 -16.966606
-7.0888653 14.177731 -18.248045
-6.9603434 12.92635 -19.166061
-6.8483691 11.740059 -19.965878
-6.7700386 10.638632 -20.525375
-6.7140675 9.5915222 -20.925171
-6.6589947 8.5615625 -21.318548
-6.6048374 7.5483837 -21.705391
-6.5515347 6.5515337 -22.086121
-6.4991417 5.570693 -22.460354
-6.4557652 4.6112595 -22.770187
-6.432704 3.6758299 -22.93491
-6.4159594 2.7496948 -23.054516
-6.4048872 1.8299656 -23.133606
-6.3943968 0.91348362 -23.20853
-6.3934536 -1.9073486e-06 -23.215275
-6.3949962 -0.91357136 -23.204254
-6.4040308 -1.8297234 -23.139715
-6.415082 -2.74932 -23.060781
-6.4366193 -3.6780701 -22.906946
-6.461153 -4.6151114 -22.731701
-6.4942894 -5.5665331 -22.495018
-6.5366116 -6.5366135 -22.192711
-6.5801244 -7.520144 -21.88191
-6.6310444 -8.525629 -21.518194
-6.7023816 -9.574831 -21.00864
-6.7782884 -10.651599 -20.46645
-6.8697538 -11.77672 -19.813126
-6.978303 -12.959707 -19.037775
-7.1162739 -14.232548 -18.052267
-7.2911315 -15.623853 -16.803286
-7.5340948 -17.220787 -15.067836
-7.963325 -19.339504 -12.001904
-6.6033282 18.709427 -13.855065
-6.3419065 16.911747 -16.033579
-6.1573334 15.393332 -17.571682
-6.0238533 14.055655 -18.684019
-5.9193535 12.825262 -19.554852
-5.8516541 11.703306 -20.119009
-5.8028903 10.638632 -20.525375
-5.7549324 9.5915537 -20.925028
-5.7077265 8.5615883 -21.318409
-5.6612892 7.5483837 -21.705391
-5.6156011 6.5515337 -22.086121
-5.5706611 5.5706587 -22.460623
-5.5265288 4.6054401 -22.828388
-5.4860506 3.6573658 -23.165709
-5.4750376 2.7375174 -23.257486
-5.4638519 1.8212805 -23.350697
-5.4565024 0.9094162 -23.411938
-5.4540215 9.5367432e-07 -23.432617
-5.45749 -0.90958118 -23.403715
-5.4639602 -1.8213215 -23.349794
-5.4755654 -2.7377825 -23.253086
-5.4915581 -3.6610394 -23.119816
-5.5127077 -4.5939245 -22.943567
-5.5373373 -5.5373373 -22.738317
-5.5703716 -6.4987698 -22.463032
-5.6128101 -7.4837484 -22.109381
-5.6558995 -8.4838486 -21.750298
-5.710917 -9.5181942 -21.291822
-5.772377 -10.582691 -20.779655
-5.8414755 -11.682951 -20.203835
-5.9398746 -12.869731 -19.383839
-6.0473218 -14.110419 -18.488449
-6.185678 -15.464195 -17.335484
-6.3768406 -17.004908 -15.742459
-6.6716137 -18.902908 -13.286016
-5.8635001 21.108599 -10.247797
-5.4285722 18.457144 -14.597073
-5.2290382 16.732922 -16.592417
-5.0934143 15.280243 -17.948652
-4.9875145 13.965042 -19.007647
-4.9177041 12.78603 -19.705753
-4.8763785 11.703306 -20.119009
-4.8357563 10.638664 -20.52523
-4.7957768 9.5915537 -20.925028
-4.7564387 8.5615883 -21.318409
-4.7177405 7.5483837 -21.705391
-4.6796679 6.5515337 -22.086121
-4.6422172 5.5706587 -22.460623
-4.605401 4.605401 -22.828785
-4.5691776 3.6553402 -23.191021
-4.5420542 2.7252312 -23.46225
-4.5336976 1.8134794 -23.545818
-4.5295882 0.90591621 -23.586914
-4.527422 9.5367432e-07 -23.608578
-4.5301623 -0.90603447 -23.581173
-4.5340042 -1.8136024 -23.542749
-4.5446067 -2.7267637 -23.436726
-4.5569882 -3.6455917 -23.312912
-4.5777044 -4.5777044 -23.105755
-4.5993719 -5.5192451 -22.889074
-4.6237426 -6.4732404 -22.645369
-4.6571169 -7.4513893 -22.311625
-4.6909771 -8.443759 -21.973026
-4.7317247 -9.4634476 -21.565552
-4.7874017 -10.532286 -21.008781
-4.8444042 -11.62657 -20.438757
-4.9200349 -12.792089 -19.682449
-4.9996796 -13.999102 -18.886002
-5.1166229 -15.349872 -17.716564
-5.2604403 -16.83341 -16.278391
-5.4657831 -18.583662 -14.224968
-4.5784702 20.603113 -11.651917
-4.2960877 18.258373 -15.181695
-4.1537104 16.61484 -16.961416
-4.0486145 15.182302 -18.275116
-3.9678257 13.88739 -19.284975
-3.9341633 12.78603 -19.705753
-3.9011028 11.703306 -20.119009
-3.8686051 10.638664 -20.52523
-3.8366215 9.5915537 -20.925028
-3.8051512 8.5615883 -21.318409
-3.7741926 7.5483837 -21.705391
-3.7437339 6.5515337 -22.086121
-3.7137845 5.5706778 -22.460487
-3.6842997 4.6053734 -22.829048
-3.6553214 3.6553202 -23.191282
-3.6267846 2.7200871 -23.547991
-3.6169102 1.8084545 -23.671417
-3.6126471 0.90315914 -23.724709
-3.612201 -9.5367432e-07 -23.730282
-3.6136818 -0.9034214 -23.711777
-3.6183641 -1.8091831 -23.653246
-3.6254876 -2.7191143 -23.564205
-3.6352239 -3.6352243 -23.442501
-3.651226 -4.5640335 -23.24247
-3.6678398 -5.5017614 -23.034798
-3.6852279 -6.4491487 -22.817446
-3.7113647 -7.4227309 -22.490736
-3.7408185 -8.4168415 -22.122564
-3.7730865 -9.4327183 -21.719213
-3.8149054 -10.49099 -21.196482
-3.8592803 -11.577842 -20.64179
-3.9160438 -12.727143 -19.932245
-3.9834681 -13.942138 -19.089447
-4.0686531 -15.257447 -18.024633
-4.1734796 -16.693916 -16.714306
-4.3261175 -18.386002 -14.806325
-4.6427202 -20.892241 -10.848793
-3.3713572 20.228142 -12.69351
-3.2038147 18.154949 -15.485884
-3.1009247 16.538263 -17.200716
-3.0259635 15.129819 -18.450066
-2.9758418 13.887262 -19.285433
-2.9506226 12.78603 -19.705753
-2.925827 11.703306 -20.119009
-2.9014626 10.638698 -20.525084
-2.8774662 9.5915537 -20.925028
-2.8538632 8.5615883 -21.318409
-2.8306446 7.5483837 -21.705391
-2.8078005 6.5515337 -22.086121
-2.7853384 5.5706778 -22.460487
-2.7632091 4.6053467 -22.829311
-2.741483 3.6553106 -23.19141
-2.7200806 2.7200813 -23.548117
-2.7062423 1.804162 -23.778755
-2.7037945 0.90126419 -23.819553
-2.7034538 -9.5367432e-07 -23.825232
-2.7032645 -0.90108871 -23.828388
-2.7071757 -1.8047829 -23.763199
-2.7125151 -2.7125177 -23.674213
-2.7207475 -3.6276665 -23.537003
-2.7321889 -4.5536489 -23.346313
-2.7442415 -5.4884853 -23.145435
-2.7573693 -6.4338636 -22.92664
-2.7766709 -7.4044547 -22.604948
-2.7988551 -8.3965664 -22.23521
-2.8216686 -9.4055643 -21.854984
-2.8528514 -10.460455 -21.335274
-2.8854725 -11.541889 -20.79159
-2.9270158 -12.683736 -20.099197
-2.9773009 -13.894073 -19.261116
-3.0385058 -15.19253 -18.241035
-3.1117184 -16.595831 -17.020821
-3.2251983 -18.276123 -15.129494
-3.4135654 -20.481392 -11.99004
-2.2382629 20.144367 -12.926221
-2.1273768 18.082701 -15.698377
-2.0600977 16.480778 -17.380358
-2.0113144 15.084858 -18.599939
-1.9838943 13.887262 -19.285433
-1.9670817 12.78603 -19.705753
-1.9505514 11.703306 -20.119009
-1.9343084 10.638698 -20.525084
-1.9183165 9.5915804 -20.924885
-1.9025756 8.5615883 -21.318409
-1.8870963 7.5483837 -21.705391
-1.8718725 6.5515528 -22.085987
-1.8568976 5.570693 -22.460354
-1.8421446 4.60536 -22.829182
-1.8276449 3.6552887 -23.191673
-1.8133769 2.7200642 -23.548374
-1.8016264 1.8016262 -23.842133
-1.8010417 0.90051842 -23.856754
-1.8003365 -9.5367432e-07 -23.874386
-1.8007998 -0.90040112 -23.862799
-1.8019241 -1.8019228 -23.834694
-1.8058978 -2.7088499 -23.73535
-1.8105001 -3.6210003 -23.620293
-1.8179506 -4.5448771 -23.434032
-1.8268617 -5.480588 -23.211254
-1.8360072 -6.4260259 -22.982616
-1.8482437 -7.3929744 -22.676704
-1.8623832 -8.3807278 -22.323214
-1.8767411 -9.3837061 -21.964273
-1.8977625 -10.437695 -21.438734
-1.9205717 -11.523432 -20.868505
-1.947571 -12.659214 -20.19352
-1.9792703 -13.854892 -19.401041
-2.0187454 -15.14059 -18.414162
-2.0699759 -16.559805 -17.133402
-2.1395614 -18.186272 -15.393765
-2.2597947 -20.33815 -12.38793
-1.1151103 20.071985 -13.127281
-1.0613346 18.04269 -15.816063
-1.0297323 16.475718 -17.396175
-1.0049663 15.07449 -18.634487
-0.99194717 13.887262 -19.285433
-0.98354083 12.78603 -19.705753
-0.9752757 11.703306 -20.119009
-0.96715707 10.638726 -20.524942
-0.95915538 9.5915537 -20.925028
-0.95128781 8.5615883 -21.318409
-0.94355094 7.5484076 -21.70525
-0.93593627 6.5515528 -22.085987
-0.92845148 5.5707083 -22.460222
-0.92107761 4.6053867 -22.828918
-0.91381466 3.6552563 -23.192059
-0.90668595 2.7200546 -23.548502
-0.90018582 1.8003712 -23.873503
-0.89943862 0.89943695 -23.910864
-0.89915216 -2.8610229e-06 -23.925186
-0.89964479 -0.89964581 -23.900558
-0.90050828 -1.8010159 -23.857384
-0.90220726 -2.7066231 -23.772434
-0.9047817 -3.6191263 -23.643711
-0.90792644 -4.5396328 -23.486471
-0.91227078 -5.4736261 -23.269253
-0.9170357 -6.41925 -23.03101
-0.92291069 -7.3832874 -22.737261
-0.92987067 -8.3688354 -22.389267
-0.93768966 -9.3768969 -21.998312
-0.94725859 -10.419844 -21.519867
-0.9588896 -11.506677 -20.938318
-0.97222346 -12.638903 -20.271627
-0.9878307 -13.829632 -19.491257
-1.007521 -15.112815 -18.506746
-1.0327493 -16.523991 -17.245329
-1.0667418 -18.134609 -15.54571
-1.123323 -20.21981 -12.716652
0 20.099073 -13.052031
0 18.053167 -15.785245
0 16.475718 -17.396175
0 15.074444 -18.634642
0 13.887301 -19.285282
0 12.78603 -19.705753
0 11.703342 -20.118864
0 10.638726 -20.524942
0 9.5915222 -20.925171
0 8.561615 -21.318266
0 7.5484076 -21.70525
0 6.5515528 -22.085987
0 5.5707083 -22.460222
0 4.6054115 -22.828651
0 3.6552563 -23.192059
0 2.7200422 -23.548758
0 1.800643 -23.866703
0 0.89981365 -23.892128
0 -1.9073486e-06 -23.909609
0 -0.89997292 -23.884329
0 -1.8012238 -23.852217
0 -2.7074022 -23.759401
0 -3.6195059 -23.639
0 -4.5414648 -23.468151
0 -5.4761705 -23.248037
0 -6.4217939 -23.012844
0 -7.38623 -22.718861
0 -8.3725605 -22.368568
0 -9.3786736 -21.989431
0 -10.426504 -21.489595
0 -11.512952 -20.912161
0 -12.646507 -20.242386
0 -13.837233 -19.464108
0 -15.119775 -18.483553
0 -16.537416 -17.203371
0 -18.153923 -15.488899
0 -20.264017 -12.593855
1.1206474 20.17165 -12.850428
1.0645646 18.097599 -15.654568
1.0313923 16.502277 -17.313177
1.0065221 15.09783 -18.556692
0.99195033 13.887301 -19.285282
0.98354083 12.78603 -19.705753
0.97527868 11.703342 -20.118864
0.96715707 10.638726 -20.524942
0.95915252 9.5915222 -20.925171
0.95129055 8.561615 -21.318266
0.94355094 7.5484076 -21.70525
0.93593895 6.5515709 -22.08585
0.92845416 5.5707245 -22.460091
0.92108017 4.605401 -22.828785
0.91381985 3.6552801 -23.191803
0.90667564 2.720027 -23.549011
0.901227 1.802453 -23.821447
0.90085864 0.90085793 -23.839865
0.90059143 -9.5367432e-07 -23.853226
0.9006595 -0.90066147 -23.849821
0.90136331 -1.8027287 -23.814632
0.90321755 -2.7096539 -23.72192
0.90578002 -3.6231222 -23.593796
0.90943766 -4.5471897 -23.410913
0.91387433 -5.4832478 -23.189075
0.91837823 -6.4286475 -22.963886
0.9246608 -7.3972864 -22.649754
0.93173623 -8.3856268 -22.295986
0.93909883 -9.3909893 -21.927855
0.94949436 -10.444437 -21.408079
0.96081054 -11.529725 -20.84227
0.974446 -12.667798 -20.1605
0.99039036 -13.865466 -19.363276
1.0103265 -15.154898 -18.36647
1.0358306 -16.57329 -17.091261
1.0710623 -18.208059 -15.329681
1.1323861 -20.382948 -12.263491
2.2609458 20.348511 -12.359153
2.1401019 18.190865 -15.380248
2.0703154 16.562525 -17.12491
2.0198731 15.149045 -18.385971
1.9839067 13.887346 -19.28513
1.9670817 12.78603 -19.705753
1.9505574 11.703342 -20.118864
1.9343141 10.638726 -20.524942
1.9182993 9.5914955 -20.925314
1.9025811 8.561615 -21.318266
1.8871019 7.5484076 -21.70525
1.8718779 6.5515709 -22.08585
1.8569083 5.5707245 -22.460091
1.8421552 4.6053867 -22.828918
1.8276503 3.6553001 -23.191544
1.8133463 2.7200184 -23.549139
1.8054824 1.8054829 -23.745735
1.8032215 0.90160942 -23.802258
1.8030699 9.5367432e-07 -23.806047
1.8035904 -0.90179443 -23.793037
1.80643 -1.8064308 -23.722046
1.809828 -2.7147446 -23.637093
1.8151975 -3.6303968 -23.502857
1.8230172 -4.5575447 -23.307365
1.8310609 -5.4931831 -23.106272
1.8391811 -6.4371333 -22.903271
1.8526591 -7.4106388 -22.566317
1.8675871 -8.4041424 -22.193117
1.8831432 -9.41572 -21.804214
1.9039769 -10.471871 -21.283373
1.9252768 -11.551661 -20.750881
1.9536301 -12.698593 -20.042046
1.9874352 -13.91205 -19.196917
2.0289078 -15.216806 -18.160101
2.0762658 -16.610126 -16.976156
2.1549623 -18.317177 -15.008739
2.2911747 -20.620573 -11.603432
3.4598293 20.758974 -11.218975
3.2345011 18.328842 -14.974443
3.1224868 16.653261 -16.841349
3.0435536 15.217767 -18.156902
2.9820092 13.916041 -19.182644
2.9506226 12.78603 -19.705753
2.9258449 11.703379 -20.118713
2.9014714 10.638726 -20.524942
2.8774405 9.5914669 -20.925455
2.8538802 8.5616417 -21.318127
2.8306527 7.5484076 -21.70525
2.8078167 6.5515709 -22.08585
2.7853625 5.5707245 -22.460091
2.7632327 4.6053867 -22.828918
2.741483 3.6553106 -23.19141
2.7200193 2.7200184 -23.549139
2.7154906 1.8103256 -23.624622
2.7125838 0.90419388 -23.673071
2.7118826 -0 -23.684752
2.7131934 -0.90439606 -23.662905
2.7162545 -1.8108358 -23.611889
2.7217448 -2.7217455 -23.520386
2.728745 -3.6383266 -23.403717
2.7412028 -4.5686722 -23.196081
2.7541521 -5.5083055 -22.980261
2.7676132 -6.4577661 -22.755913
2.7875419 -7.433445 -22.423767
2.8081517 -8.4244556 -22.080269
2.8328788 -9.4429302 -21.668148
2.8649995 -10.504997 -21.132805
2.8990233 -11.596094 -20.565742
2.9426367 -12.751425 -19.838852
2.9914889 -13.960281 -19.024649
3.0576456 -15.288228 -17.922037
3.1398718 -16.745985 -16.5516
3.2526882 -18.4319 -14.671324
3.5135422 -21.081253 -10.323762
4.3611903 18.535055 -14.367923
4.1992507 16.797001 -16.39216
4.0848818 15.318305 -17.821775
3.9984765 13.994667 -18.901842
3.9341633 12.78603 -19.705753
3.9011264 11.703379 -20.118713
3.8686283 10.638726 -20.524942
3.8365757 9.5914383 -20.925598
3.8051736 8.5616417 -21.318127
3.7742038 7.5484076 -21.70525
3.7437558 6.5515709 -22.08585
3.7138166 5.5707245 -22.460091
3.6843207 4.605401 -22.828785
3.6553316 3.6553278 -23.191154
3.6393654 2.7295227 -23.390732
3.63146 1.8157301 -23.489548
3.6278167 0.9069519 -23.535086
3.6258447 -1.9073486e-06 -23.559738
3.6284306 -0.90710735 -23.527416
3.6322081 -1.8161058 -23.480194
3.6411769 -2.7308836 -23.368084
3.6513608 -3.6513605 -23.240789
3.6667325 -4.5834188 -23.048641
3.6838889 -5.5258331 -22.834187
3.7043161 -6.4825554 -22.578846
3.7311039 -7.4622078 -22.243999
3.7591598 -8.4581089 -21.893301
3.7933776 -9.4834461 -21.465576
3.8359125 -10.548759 -20.933887
3.8820684 -11.646206 -20.356943
3.9435759 -12.816622 -19.588095
4.0102978 -14.036043 -18.754078
4.1032271 -15.387105 -17.592455
4.2215734 -16.886292 -16.113127
4.4004879 -18.702076 -13.876696
5.5441999 18.850281 -13.440796
5.3078284 16.985048 -15.804513
5.1536417 15.460923 -17.346376
5.0356498 14.099819 -18.526297
4.9476275 12.863832 -19.406517
4.8764229 11.703413 -20.118567
4.8357854 10.638726 -20.524942
4.7957196 9.5914383 -20.925598
4.7564669 8.5616417 -21.318127
4.7177687 7.5484285 -21.705111
4.6797085 6.5515919 -22.085712
4.6422844 5.5707397 -22.459953
4.6054144 4.6054115 -22.828651
4.5801148 3.6640921 -23.081648
4.570436 2.742259 -23.178434
4.5615869 1.8246346 -23.266926
4.5546923 0.91093826 -23.335876
4.5531454 -9.5367432e-07 -23.351341
4.5553627 -0.91107178 -23.32917
4.5611606 -1.8244658 -23.271194
4.5699043 -2.7419434 -23.183756
4.5835853 -3.6668682 -23.046944
4.6002531 -4.6002541 -22.880264
4.622056 -5.5464687 -22.662239
4.6503339 -6.510468 -22.379459
4.6858273 -7.4973245 -22.024525
4.7218666 -8.4993572 -21.664133
4.7695928 -9.5391846 -21.186871
4.8210368 -10.606281 -20.672434
4.8806682 -11.713603 -20.076118
4.962811 -12.903307 -19.254688
5.0557117 -14.155993 -18.325684
5.1721287 -15.516385 -17.161512
5.3382034 -17.082251 -15.500764
5.5997663 -19.039207 -12.885132
6.8450403 19.394276 -11.840798
6.4577951 17.220787 -15.067835
6.2576222 15.644056 -16.735943
6.0968513 14.225986 -18.075699
5.9832006 12.9636 -19.022795
5.8884859 11.77697 -19.81208
5.8085632 10.649034 -20.4781
5.7548637 9.5914383 -20.925598
5.707777 8.5616636 -21.317986
5.6613226 7.5484285 -21.705111
5.6156502 6.5515919 -22.085712
5.5706925 5.570693 -22.460354
5.5458937 4.6215763 -22.667017
5.5257697 3.6838465 -22.834717
5.5083513 2.7541733 -22.979868
5.4988456 1.8329468 -23.059086
5.4903712 0.91506195 -23.129702
5.4899502 -9.5367432e-07 -23.133213
5.4910741 -0.91518116 -23.123848
5.5004902 -1.8334999 -23.045376
5.5109768 -2.7554855 -22.957989
5.5295196 -3.686347 -22.803465
5.5501018 -4.6250868 -22.631947
5.5795302 -5.5795317 -22.386713
5.6164994 -6.5525827 -22.078634
5.6539788 -7.5386395 -21.766306
5.6962266 -8.5443401 -21.414242
5.7599964 -9.5999966 -20.882824
5.8254037 -10.679907 -20.337765
5.9074554 -11.814909 -19.653999
5.999392 -12.998682 -18.887867
6.1237278 -14.288695 -17.851734
6.2761307 -15.690328 -16.581709
6.4933009 -17.31547 -14.771955
6.9363127 -19.652887 -11.080191
7.6841216 17.563705 -13.996211
7.3943739 15.845083 -16.065842
7.2055907 14.41118 -17.414293
7.0509024 13.094533 -18.519205
6.932754 11.88472 -19.363125
6.8326035 10.736948 -20.078485
6.7549558 9.6499348 -20.633112
6.6866455 8.5971146 -21.12104
6.6318445 7.5792508 -21.51248
6.5822582 6.5822573 -21.866665
6.5447588 5.6097927 -22.134521
6.5098276 4.6498756 -22.384027
6.4872198 3.7069826 -22.545507
6.4666061 2.7714033 -22.692753
6.4548407 1.8442402 -22.776794
6.4461594 0.92087746 -22.838799
6.4442229 -0 -22.852627
6.4470448 -0.92100906 -22.832478
6.4564309 -1.8446951 -22.765427
6.4702835 -2.7729778 -22.666485
6.4907527 -3.7090034 -22.520277
6.5153441 -4.6538162 -22.344625
6.5520492 -5.616045 -22.082447
6.5972161 -6.5972166 -21.759819
6.6430306 -7.5920358 -21.432579
6.7022624 -8.6171951 -21.009495
6.7700186 -9.6714554 -20.525522
6.8463497 -10.75855 -19.980297
6.9552932 -11.92336 -19.202133
7.0710645 -13.131977 -18.375191
7.2294545 -14.458909 -17.243837
7.4333878 -15.928686 -15.787173
7.7555199 -17.726904 -13.486223
9.0516367 18.103273 -12.310069
8.5998106 16.124645 -15.133982
8.3470392 14.60732 -16.713797
8.1535673 13.249544 -17.923002
8.0086699 12.013001 -18.828613
7.8895206 10.848089 -19.573296
7.791934 9.7399158 -20.183205
7.7102628 8.6740456 -20.693657
7.6482148 7.6482143 -21.081455
7.5857491 6.6375284 -21.471863
7.536365 5.6522751 -21.78051
7.4981313 4.6863317 -22.019474
7.4688749 3.734437 -22.202326
7.4442558 2.7915955 -22.356194
7.4294767 1.8573675 -22.448566
7.4190292 0.9273777 -22.513865
7.4166141 -2.8610229e-06 -22.528957
7.4201837 -0.92752266 -22.506647
7.4307418 -1.857686 -22.44066
7.4477229 -2.7928953 -22.334526
7.4726253 -3.7363119 -22.178888
7.5046883 -4.6904306 -21.978497
7.5455542 -5.6591644 -21.723083
7.5951252 -6.6457357 -21.413261
7.6518745 -7.6518745 -21.058578
7.7292895 -8.6954536 -20.574736
7.810751 -9.7634392 -20.065603
7.9116554 -10.878528 -19.43495
8.0339594 -12.05094 -18.670547
8.1892786 -13.30758 -17.6998
8.384635 -14.673112 -16.47883
8.6598597 -16.237238 -14.758669
9.1624479 -18.324894 -11.617498
9.9432793 16.572134 -13.642354
9.5690842 14.885243 -15.721215
9.3198967 13.462074 -17.105593
9.1313515 12.175136 -18.153065
8.9813681 10.977226 -18.986305
8.8630819 9.847867 -19.643456
8.7611799 8.7611771 -20.209576
8.6831989 7.7183971 -20.642803
8.6121721 6.6983538 -21.037395
8.5557985 5.703866 -21.350584
8.5112982 4.7284985 -21.597807
8.474988 3.7666616 -21.79953
8.4456301 2.8152084 -21.962629
8.4256802 1.8723698 -22.07346
8.4168663 0.93520546 -22.122429
8.4118061 -1.9073486e-06 -22.150541
8.418334 -0.93537235 -22.114277
8.4289913 -1.8731108 -22.055069
8.4506321 -2.8168774 -21.934843
8.4760294 -3.7671242 -21.793741
8.5147762 -4.730432 -21.578487
8.5596924 -5.7064633 -21.328953
8.6214523 -6.705574 -20.985838
8.6935196 -7.7275734 -20.585466
8.782752 -8.782753 -20.089733
8.8813992 -9.8682194 -19.541695
9.0123606 -11.015108 -18.814129
9.1528492 -12.203796 -18.033636
9.3560228 -13.514256 -16.904894
9.6177311 -14.960916 -15.450957
10.033072 -16.721785 -13.143507
11.565797 17.348694 -11.053808
10.900169 15.260235 -14.381953
10.556772 13.723806 -16.09893
10.311775 12.37413 -17.323921
10.124943 11.137435 -18.258081
9.97472 9.97472 -19.009197
9.8580036 8.8722019 -19.592775
9.7541761 7.8033395 -20.111916
9.6770964 6.7739658 -20.497314
9.6141043 5.7684636 -20.812275
9.5620012 4.7809992 -21.072792
9.5184202 3.8073664 -21.290695
9.4821587 2.8446484 -21.472002
9.453969 1.8907938 -21.612947
9.4429846 0.94429493 -21.667873
9.4365053 -2.8610229e-06 -21.700268
9.4435663 -0.94435787 -21.664963
9.4560814 -1.8912182 -21.60239
9.4830523 -2.8449163 -21.467533
9.5136938 -3.8054771 -21.314327
9.5613194 -4.7806582 -21.076199
9.6146498 -5.7687912 -20.809546
9.6866503 -6.7806587 -20.449543
9.7667274 -7.8133831 -20.04916
9.8718529 -8.8846684 -19.523531
10.002591 -10.002593 -18.869841
10.159205 -11.175127 -18.086765
10.359107 -12.430927 -17.087261
10.597236 -13.776409 -15.896618
10.970394 -15.358555 -14.030824
11.843043 -17.764565 -9.6675797
12.486079 15.891371 -12.127896
11.914361 14.080606 -14.72661
11.577851 12.630382 -16.256201
11.341825 11.341825 -17.329041
11.152841 10.138945 -18.188068
11.000047 9.0000362 -18.882582
10.87973 7.9125295 -19.42948
10.779286 6.8595443 -19.886044
10.707785 5.8406091 -20.211048
10.639912 4.8363218 -20.519562
10.585318 3.849205 -20.767715
10.545837 2.8761358 -20.94717
10.515389 1.9118881 -21.085571
10.503128 0.95482922 -21.141302
10.491518 -1.9073486e-06 -21.194078
10.502412 -0.95476627 -21.144562
10.514109 -1.9116583 -21.091393
10.548414 -2.8768425 -20.935461
10.584652 -3.8489656 -20.770741
10.643238 -4.8378372 -20.504442
10.706295 -5.839798 -20.217817
10.796447 -6.8704638 -19.808041
10.8952 -7.9237823 -19.359163
11.033474 -9.0273895 -18.730644
11.185154 -10.168323 -18.041183
11.369364 -11.369366 -17.203869
11.633247 -12.690817 -16.0044
11.998028 -14.179489 -14.346302
12.620239 -16.06212 -11.518077
13.528276 14.655628 -12.514983
13.020578 13.020577 -14.630385
12.65132 11.597043 -16.168964
12.427088 10.355906 -17.103262
12.232132 9.1740971 -17.915579
12.072714 8.0484753 -18.579819
11.952549 6.9723191 -19.080509
11.846732 5.9233656 -19.521408
11.776111 4.906713 -19.81567
11.71101 3.9036694 -20.086918
11.661362 2.9153404 -20.293791
11.618805 1.9364672 -20.471111
11.608013 0.96733379 -20.516075
11.597589 -1.9073486e-06 -20.559502
11.611294 -0.9676075 -20.502403
11.626781 -1.9377975 -20.43788
11.665341 -2.9163351 -20.277206
11.708986 -3.9029961 -20.095354
11.776217 -4.9067569 -19.815224
11.849314 -5.9246583 -19.510658
11.958212 -6.975625 -19.056911
12.088965 -8.059309 -18.51211
12.255812 -9.1918573 -17.816916
12.451328 -10.37611 -17.00226
12.715301 -11.655693 -15.902374
13.069799 -13.069799 -14.425299
13.699842 -14.841494 -11.800124
14.774096 13.637624 -12.059353
14.157128 11.979106 -14.432303
13.810376 10.623365 -15.765965
13.527844 9.3654289 -16.852623
13.350852 8.21591 -17.533367
13.19156 7.103147 -18.146025
13.073747 6.0340381 -18.599155
12.96983 4.9883947 -18.998837
12.898415 3.9687405 -19.27351
12.837583 2.9625206 -19.507473
12.787672 1.9673338 -19.69944
12.777245 0.98286533 -19.739548
12.771901 -0 -19.760098
12.777713 -0.98290348 -19.737745
12.793694 -1.9682627 -19.676281
12.839987 -2.9630723 -19.498232
12.893407 -3.9672036 -19.292772
12.975863 -4.9907179 -18.975628
13.069092 -6.031888 -18.617058
13.214643 -7.1155796 -18.057245
13.377747 -8.2324619 -17.429928
13.564467 -9.3907862 -16.711767
13.845431 -10.650331 -15.631141
14.223742 -12.035473 -14.176094
14.893748 -13.748076 -11.59915
16.079145 12.633613 -11.457273
15.42401 11.017147 -13.797045
15.023472 9.6579466 -15.227535
14.75678 8.4324436 -16.180014
14.545732 7.2728653 -16.933754
14.380868 6.1632295 -17.522549
14.259981 5.0928488 -17.954292
14.155058 4.0443015 -18.329018
14.098894 3.0211902 -18.529602
14.048865 2.006979 -18.708279
14.015738 1.0011234 -18.826591
14.010465 -1.9073486e-06 -18.845423
14.016479 -1.0011768 -18.82394
14.040327 -2.0057621 -18.73877
14.095496 -3.0204644 -18.541737
14.159462 -4.0455618 -18.31329
14.26603 -5.0950112 -17.932686
14.408554 -6.1750965 -17.423674
14.565905 -7.2829552 -16.86171
14.789524 -8.4511576 -16.063068
15.086657 -9.6985645 -15.001883
15.503461 -11.073903 -13.513289
16.319975 -12.822837 -10.597172
16.861202 10.11672 -12.678787
16.403757 8.7486687 -14.203608
16.041111 7.4858513 -15.412428
15.847115 6.3388453 -16.059078
15.666648 5.2222157 -16.660637
15.552979 4.1474586 -17.039536
15.451572 3.0903139 -17.377558
15.385484 2.0513983 -17.597847
15.358073 1.0238695 -17.68922
15.344647 -2.8610229e-06 -17.733969
15.367949 -1.0245314 -17.656296
15.410435 -2.0547276 -17.514681
15.467217 -3.0934463 -17.325409
15.559997 -4.1493354 -17.01614
15.707276 -5.2357621 -16.525209
15.873848 -6.3495388 -15.96997
16.132027 -7.5282784 -15.10938
16.417704 -8.7561073 -14.157118
16.971817 -10.183092 -12.310071
18.847675 9.4238377 -9.9838104
17.9753 7.8641944 -12.709985
17.612188 6.6045685 -13.844713
17.335581 5.417367 -14.709106
17.153839 4.2884603 -15.277048
17.017889 3.1908531 -15.701887
16.932325 2.11654 -15.969276
16.863068 1.0539398 -16.185707
16.85021 -1.9073486e-06 -16.225889
16.872295 -1.0545182 -16.156876
16.925816 -2.1157255 -15.989626
17.038387 -3.1947007 -15.637836
17.164703 -4.2911758 -15.243099
17.374714 -5.4296002 -14.586816
17.629494 -6.6110592 -13.790632
18.116392 -7.9259224 -12.269071
19.720821 5.8002415 -10.88038
19.192825 4.5159559 -12.433315
18.911398 3.3373051 -13.261034
18.79459 2.2111278 -13.604591
18.736212 1.102129 -13.776292
18.679407 -2.3841858e-06 -13.943367
18.694277 -1.0996633 -13.899628
18.838013 -2.216239 -13.476875
19.012804 -3.3552036 -12.962782
19.199492 -4.5175309 -12.413705
19.84054 -5.8354545 -10.528263
