# .PCD v0.7 - Point Cloud Data file format
VERSION 0.7
FIELDS x y z
SIZE 4 4 4
TYPE F F F
COUNT 1 1 1
WIDTH 1058
HEIGHT 1
VIEWPOINT 0 0 0 1 0 0 0
POINTS 1058
DATA ascii
-22.991404 -0 -8.3790979
-21.687716 7.2292399 -8.6391411
-20.706959 5.7519341 -11.363467
-20.390413 4.5311999 -12.242762
-20.102144 3.3503575 -13.043509
-19.95417 2.2171297 -13.454547
-19.895302 1.1052918 -13.618069
-19.85466 -1.9073486e-06 -13.730959
-19.910824 -1.1061587 -13.574951
-19.989492 -2.2210569 -13.356428
-20.146257 -3.3577123 -12.920971
-20.394146 -4.5320339 -12.232394
-20.837008 -5.7880573 -11.002223
-19.945784 9.3862505 -10.218721
-19.209469 7.9097805 -12.384356
-18.795494 6.6337023 -13.601934
-18.525581 5.4487009 -14.395793
-18.349617 4.3175578 -14.913332
-18.183128 3.2087855 -15.403009
-18.097418 2.129107 -15.655099
-18.057398 1.0621982 -15.772802
-18.027708 1.4305115e-06 -15.86013
-18.072371 -1.0630808 -15.728768
-18.120134 -2.1317806 -15.588281
-18.215818 -3.2145562 -15.306858
-18.35873 -4.3197021 -14.886532
-18.526209 -5.448885 -14.393949
-18.853983 -6.6543455 -13.429905
-19.259916 -7.930552 -12.235984
-20.135695 -9.4756222 -9.6601677
-19.110477 11.944046 -9.1625566
-18.085915 10.173326 -12.364315
-17.580318 8.7901592 -13.944304
-17.288029 7.5635123 -14.857704
-17.037992 6.3892465 -15.639069
-16.850431 5.2657571 -16.225201
-16.745165 4.1862922 -16.554153
-16.647072 3.1213226 -16.860703
-16.561403 2.0701733 -17.128407
-16.533327 1.0333319 -17.216148
-16.514238 9.5367432e-07 -17.275801
-16.507515 -1.0317192 -17.296814
-16.567211 -2.0709038 -17.11026
-16.627396 -3.1176376 -16.922182
-16.732758 -4.1831913 -16.59292
-16.885298 -5.2766552 -16.116243
-17.063231 -6.3987136 -15.560202
-17.320303 -7.5776329 -14.756847
-17.646894 -8.8234444 -13.736254
-18.157854 -10.213793 -12.139504
-19.66065 -12.287909 -7.4432607
-17.317516 12.699508 -11.157744
-16.62756 11.085038 -13.4576
-16.243248 9.7459488 -14.738638
-15.932367 8.497261 -15.774906
-15.729232 7.3403082 -16.452023
-15.572495 6.2289982 -16.974476
-15.423876 5.1412902 -17.469873
-15.307232 4.0819268 -17.858696
-15.250604 3.0501184 -18.047449
-15.196834 2.0262442 -18.226686
-15.172998 1.0115309 -18.306135
-15.169518 -9.5367432e-07 -18.317738
-15.167278 -1.0111523 -18.325203
-15.186889 -2.0249176 -18.259832
-15.240252 -3.0480518 -18.081957
-15.334657 -4.0892415 -17.767279
-15.452858 -5.1509538 -17.373268
-15.575459 -6.2301841 -16.9646
-15.758191 -7.3538237 -16.35549
-15.96039 -8.512208 -15.681493
-16.284233 -9.7705393 -14.602018
-16.708012 -11.138678 -13.18942
-17.476065 -12.815783 -10.629248
-15.988594 13.704508 -11.780679
-15.381044 12.085107 -13.950491
-15.006209 10.718721 -15.28919
-14.733087 9.4712696 -16.264629
-14.534048 8.305172 -16.975483
-14.344424 7.1722097 -17.65271
-14.217144 6.0930624 -18.107283
-14.121606 5.0434303 -18.448486
-14.032631 4.0093207 -18.766254
-13.981465 2.9960289 -18.94899
-13.930672 1.9900961 -19.1304
-13.894713 0.99247742 -19.25882
-13.893385 -1.9073486e-06 -19.263565
-13.899772 -0.99284077 -19.240755
-13.929121 -1.9898767 -19.135937
-13.978342 -2.9953613 -18.960144
-14.03049 -4.0087109 -18.773903
-14.122803 -5.0438604 -18.444218
-14.222934 -6.0955434 -18.086607
-14.369173 -7.184587 -17.56432
-14.553107 -8.3160639 -16.907412
-14.768534 -9.4940577 -16.138035
-15.043587 -10.74542 -15.155698
-15.445213 -12.135527 -13.721317
-16.110077 -13.808638 -11.346806
-14.816792 14.816792 -11.895136
-14.223258 13.129159 -14.177956
-13.874035 11.739567 -15.521124
-13.597575 10.459672 -16.584427
-13.397666 9.2753067 -17.35331
-13.220407 8.1356325 -18.035082
-13.091132 7.0490704 -18.532284
-12.989198 5.9950151 -18.924339
-12.901278 4.9620318 -19.262493
-12.814542 3.9429359 -19.596096
-12.775411 2.9481707 -19.746597
-12.746181 1.9609489 -19.859024
-12.72451 0.97880936 -19.942369
-12.719636 1.9073486e-06 -19.961117
-12.726602 -0.97897053 -19.93433
-12.750416 -1.9616051 -19.842735
-12.78525 -2.9504423 -19.708761
-12.840382 -3.9508872 -19.496717
-12.907248 -4.9643283 -19.239532
-12.995695 -5.998013 -18.899355
-13.108114 -7.0582147 -18.466974
-13.245562 -8.1511135 -17.93833
-13.395823 -9.2740307 -17.360407
-13.6348 -10.488308 -16.441256
-13.907703 -11.768056 -15.391631
-14.284154 -13.185373 -13.943745
-14.897991 -14.897989 -11.582829
-13.788571 16.086664 -11.430412
-13.163441 14.260391 -14.035128
-12.776846 12.776843 -15.64594
-12.532506 11.488127 -16.664026
-12.320049 10.266706 -17.549257
-12.140458 9.1053448 -18.29755
-12.021941 8.0146255 -18.791374
-11.906523 6.9454703 -19.272285
-11.804258 5.9021268 -19.698391
-11.745345 4.8938937 -19.943859
-11.689706 3.8965683 -20.17569
-11.643887 2.9109716 -20.3666
-11.614647 1.9357738 -20.488438
-11.599437 0.96661854 -20.551811
-11.586421 1.9073486e-06 -20.606041
-11.590524 -0.96587944 -20.588943
-11.613214 -1.9355364 -20.494402
-11.638203 -2.9095526 -20.390285
-11.687937 -3.8959813 -20.18306
-11.745095 -4.8937893 -19.944901
-11.813357 -5.9066801 -19.660473
-11.918244 -6.952311 -19.223444
-12.02827 -8.0188465 -18.765009
-12.173064 -9.1297979 -18.161701
-12.344742 -10.287284 -17.446371
-12.531733 -11.487424 -16.667244
-12.840227 -12.840228 -15.381847
-13.210225 -14.311079 -13.840192
-13.905192 -16.222723 -10.944495
-12.896834 17.586592 -10.260826
-12.142351 15.453897 -13.690292
-11.76927 13.909137 -15.386114
-11.495517 12.540563 -16.630451
-11.282149 11.282146 -17.6003
-11.120713 10.109737 -18.334097
-10.981961 8.9852409 -18.96479
-10.869141 7.90483 -19.477608
-10.777645 6.858501 -19.893501
-10.703414 5.8382263 -20.230915
-10.642502 4.8375015 -20.507786
-10.59517 3.8527889 -20.722933
-10.554107 2.8783932 -20.909588
-10.521703 1.9130335 -21.056873
-10.517108 0.95610046 -21.077763
-10.513547 -9.5367432e-07 -21.093945
-10.517889 -0.95617294 -21.074211
-10.537017 -1.9158211 -20.987263
-10.562041 -2.8805571 -20.87352
-10.598913 -3.8541498 -20.705917
-10.650187 -4.8409934 -20.472858
-10.711867 -5.8428392 -20.19249
-10.790983 -6.8669877 -19.83287
-10.876554 -7.9102206 -19.443913
-10.990758 -8.9924412 -18.924807
-11.133829 -10.121663 -18.274483
-11.308675 -11.308678 -17.479727
-11.525419 -12.573187 -16.494526
-11.795937 -13.940654 -15.264903
-12.203547 -15.531789 -13.412127
-13.182044 -17.975515 -8.9644156
-11.201988 16.80298 -12.872855
-10.778528 15.089939 -14.990151
-10.499496 13.649345 -16.385311
-10.284819 12.341782 -17.458704
-10.110343 11.121376 -18.331081
-9.9836941 9.9836922 -18.964327
-9.8602095 8.8741894 -19.581753
-9.7690992 7.8152785 -20.0373
-9.6996126 6.7897291 -20.384731
-9.6345682 5.7807412 -20.709957
-9.5723534 4.7861748 -21.021027
-9.534296 3.8137178 -21.211315
-9.5094767 2.8528404 -21.335413
-9.4875536 1.8975105 -21.445028
-9.4721117 0.94720745 -21.52224
-9.4689341 9.5367432e-07 -21.538122
-9.4755697 -0.9475565 -21.504948
-9.4824934 -1.8964987 -21.470324
-9.5088863 -2.8526669 -21.338367
-9.5415049 -3.8166018 -21.175274
-9.5786505 -4.7893243 -20.989548
-9.6392145 -5.7835283 -20.686726
-9.7023621 -6.7916522 -20.370987
-9.7835026 -7.8268027 -19.965281
-9.8816748 -8.8935061 -19.474426
-9.9930868 -9.9930887 -18.91736
-10.125389 -11.137928 -18.255852
-10.308968 -12.370761 -17.337959
-10.518749 -13.674375 -16.289053
-10.823259 -15.152563 -14.766495
-11.270365 -16.905548 -12.530972
-10.357107 18.412636 -11.343309
-9.8348351 16.39139 -14.244827
-9.5278177 14.82105 -15.950477
-9.3063316 13.442478 -17.180958
-9.1390734 12.18543 -18.110167
-8.9992552 10.999089 -18.886934
-8.880909 9.8676777 -19.544415
-8.78475 8.78475 -20.07863
-8.7093086 7.7416053 -20.497749
-8.6429853 6.722322 -20.866209
-8.5888557 5.7259035 -21.166924
-8.5423994 4.7457781 -21.425022
-8.5117483 3.7829981 -21.595306
-8.487977 2.8293257 -21.727369
-8.4700804 1.8822403 -21.826794
-8.4550972 0.93945503 -21.910034
-8.4470587 -1.9073486e-06 -21.954693
-8.4573183 -0.93970394 -21.897692
-8.4675798 -1.8816833 -21.840687
-8.4882755 -2.8294287 -21.725712
-8.5177307 -3.7856579 -21.562071
-8.5501661 -4.750092 -21.381874
-8.5985451 -5.7323656 -21.113098
-8.649929 -6.7277231 -20.827637
-8.7152834 -7.7469192 -20.464556
-8.8011656 -8.8011637 -19.987431
-8.894927 -9.883255 -19.466536
-9.0044031 -11.005383 -18.858335
-9.1458836 -12.194511 -18.072332
-9.3212166 -13.463979 -17.098263
-9.5451183 -14.847962 -15.854362
-9.8809338 -16.468224 -13.988722
-10.48378 -18.637831 -10.639575
-8.9258308 17.85166 -13.096355
-8.5705528 16.069786 -15.316841
-8.3555183 14.622159 -16.660803
-8.1682339 13.273381 -17.831333
-8.0402575 12.060386 -18.631187
-7.9188585 10.88843 -19.389929
-7.823853 9.7798138 -19.983719
-7.7428646 8.710722 -20.489893
-7.6800871 7.6800852 -20.882252
-7.6212058 6.6685543 -21.250261
-7.5785589 5.683919 -21.516802
-7.5370712 4.7106695 -21.7761
-7.5107083 3.755352 -21.940868
-7.484508 2.8066893 -22.104622
-7.4721265 1.8680296 -22.182007
-7.4631376 0.93289089 -22.238186
-7.4618182 -9.5367432e-07 -22.246433
-7.4694605 -0.9336834 -22.198669
-7.4789419 -1.8697367 -22.139408
-7.4956207 -2.8108578 -22.035166
-7.5188241 -3.7594118 -21.890144
-7.5503998 -4.7190018 -21.692795
-7.5884323 -5.6913238 -21.455095
-7.6334753 -6.6792908 -21.173576
-7.6829748 -7.6829767 -20.864204
-7.7525172 -8.7215843 -20.429565
-7.8313017 -9.7891273 -19.937162
-7.9309092 -10.904999 -19.314617
-8.0469923 -12.070491 -18.589096
-8.1864405 -13.302967 -17.717543
-8.3633356 -14.635839 -16.611948
-8.6046104 -16.133642 -15.103986
-8.9951544 -17.990307 -12.66308
-8.1388502 19.765779 -10.748154
-7.6685586 17.528131 -14.107379
-7.4065533 15.871183 -15.978846
-7.2236128 14.447225 -17.285566
-7.0874825 13.162466 -18.257921
-6.9691062 11.947039 -19.103462
-6.8733373 10.800959 -19.787525
-6.795054 9.7072182 -20.346699
-6.7268186 8.6487656 -20.834095
-6.6746206 7.6281362 -21.206936
-6.6260319 6.6260295 -21.553999
-6.5902109 5.6487522 -21.809862
-6.5561681 4.6829748 -22.053026
-6.5339384 3.7336798 -22.211803
-6.5126314 2.7911263 -22.363997
-6.5017304 1.8576365 -22.441868
-6.4917626 0.92739391 -22.513062
-6.4901543 -9.5367432e-07 -22.524551
-6.4945703 -0.92779541 -22.49301
-6.5040579 -1.8583031 -22.42524
-6.5184731 -2.7936325 -22.322273
-6.5336733 -3.7335272 -22.213697
-6.5636368 -4.6883135 -21.999674
-6.5947828 -5.6526709 -21.777205
-6.6328015 -6.6328011 -21.505646
-6.6802616 -7.6345868 -21.166641
-6.7376018 -8.6626301 -20.757069
-6.8026252 -9.7180367 -20.292618
-6.8828716 -10.815941 -19.719427
-6.9759693 -11.958806 -19.054445
-7.0927262 -13.172204 -18.220465
-7.2383275 -14.476655 -17.180458
-7.4263306 -15.913567 -15.837581
-7.6900234 -17.577196 -13.954056
-8.2698927 -20.084026 -9.8121338
-6.7878919 19.232357 -12.317034
-6.4706278 17.255005 -14.960896
-6.2831559 15.707891 -16.523165
-6.1372938 14.320348 -17.738686
-6.0269928 13.058483 -18.657854
-5.9296236 11.859247 -19.469267
-5.8542089 10.732716 -20.097721
-5.790535 9.6508884 -20.628338
-5.7341852 8.6012783 -21.097919
-5.6903014 7.5870667 -21.463619
-5.6506367 6.5924101 -21.794157
-5.6200466 5.6200457 -22.049076
-5.5922794 4.6602297 -22.280468
-5.5725579 3.7150393 -22.444815
-5.5542369 2.7771187 -22.597492
-5.5453997 1.8484678 -22.671131
-5.5375752 0.92292786 -22.736336
-5.537353 1.9073486e-06 -22.738186
-5.5404353 -0.92340851 -22.7125
-5.5450172 -1.8483419 -22.674316
-5.5582819 -2.7791395 -22.563782
-5.5745044 -3.7163363 -22.428595
-5.5955367 -4.6629496 -22.253325
-5.6220269 -5.6220279 -22.032574
-5.6547899 -6.5972533 -21.759546
-5.694664 -7.5928874 -21.427258
-5.7390761 -8.6086159 -21.057161
-5.796741 -9.6612368 -20.576622
-5.862278 -10.747512 -20.030478
-5.9384861 -11.876974 -19.395409
-6.0334148 -13.072399 -18.604336
-6.1487455 -14.347074 -17.643248
-6.2969046 -15.742262 -16.408594
-6.5105529 -17.361471 -14.628191
-6.8505044 -19.409765 -11.795259
-5.5654273 18.922451 -13.228521
-5.3397622 17.087236 -15.485177
-5.1909657 15.572898 -16.973139
-5.0799718 14.22392 -18.083076
-4.9885044 12.97011 -18.997753
-4.9195685 11.806964 -19.687111
-4.8531265 10.676878 -20.351528
-4.8012862 9.6025715 -20.869938
-4.7553844 8.5596895 -21.328949
-4.7202597 7.5524154 -21.680201
-4.6877928 6.5629101 -22.004868
-4.6635418 5.5962496 -22.247379
-4.6413469 4.6413469 -22.469324
-4.625803 3.7006426 -22.624767
-4.6116176 2.7669706 -22.766617
-4.6037803 1.8415117 -22.844992
-4.5970731 0.91941547 -22.912071
-4.5988331 -0 -22.894461
-4.601819 -0.92036438 -22.864609
-4.6053219 -1.8421288 -22.829575
-4.6120934 -2.7672586 -22.76186
-4.627399 -3.7019196 -22.608803
-4.6429944 -4.6429939 -22.452854
-4.6662598 -5.5995131 -22.220196
-4.6920986 -6.5689383 -21.961807
-4.7236409 -7.5578237 -21.646391
-4.7617311 -8.5711174 -21.265484
-4.8069801 -9.6139622 -20.812994
-4.8576245 -10.686775 -20.306547
-4.9209075 -11.810177 -19.673725
-4.9969935 -12.992183 -18.912861
-5.0888724 -14.248841 -17.994076
-5.2041783 -15.612535 -16.841015
-5.3628974 -17.16127 -15.253824
-5.590661 -19.008247 -12.976188
-4.7407761 21.33349 -9.6230965
-4.4039507 18.716789 -13.833411
-4.2422047 16.968817 -15.855236
-4.1285992 15.482246 -17.275307
-4.0418005 14.146304 -18.360285
-3.9729567 12.912109 -19.22084
-3.9191437 11.75743 -19.893499
-3.8667693 10.633614 -20.548183
-3.8272114 9.5680256 -21.042658
-3.7921035 8.5322323 -21.481503
-3.7641392 7.5282784 -21.831057
-3.7385914 6.5425348 -22.150406
-3.7189131 5.5783672 -22.396385
-3.7016425 4.6270504 -22.612267
-3.6889663 3.6889648 -22.770716
-3.6776686 2.7582521 -22.911938
-3.6715431 1.8357697 -22.988508
-3.6658864 0.91647148 -23.059212
-3.6672964 -0 -23.041592
-3.6693661 -0.91734314 -23.015717
-3.6722553 -1.8361292 -22.979605
-3.6796241 -2.7597189 -22.887497
-3.6891885 -3.6891899 -22.767941
-3.7040925 -4.6301174 -22.581644
-3.7197833 -5.5796776 -22.385506
-3.7418082 -6.5481653 -22.110197
-3.7661214 -7.5322447 -21.806282
-3.7953906 -8.539629 -21.440413
-3.8306735 -9.576684 -20.999378
-3.8715489 -10.646758 -20.488438
-3.9204569 -11.761372 -19.877089
-3.9784944 -12.930107 -19.151619
-4.0485125 -14.169792 -18.276394
-4.1357489 -15.509059 -17.185938
-4.2521534 -17.008617 -15.730873
-4.4317412 -18.8349 -13.486029
-3.4941757 20.965054 -10.64653
-3.2700617 18.530348 -14.381768
-3.1644681 16.877157 -16.141665
-3.0834947 15.417473 -17.491219
-3.0198402 14.092587 -18.552126
-2.9708695 12.873766 -19.368303
-2.9281344 11.712537 -20.080555
-2.892024 10.60409 -20.682394
-2.8620358 9.5401192 -21.182201
-2.8363075 8.5089226 -21.611004
-2.8156288 7.5083394 -21.955654
-2.7963827 6.5248928 -22.276421
-2.7824566 5.5649109 -22.508522
-2.7694628 4.6157703 -22.725082
-2.7605624 3.680748 -22.873425
-2.7522836 2.7522831 -23.011406
-2.7479048 1.8319378 -23.084383
-2.7441635 0.91471958 -23.146738
-2.7439296 -9.5367432e-07 -23.150639
-2.7442961 -0.91476536 -23.144527
-2.7478187 -1.8318815 -23.085815
-2.7537045 -2.753705 -22.98772
-2.7618415 -3.6824541 -22.852104
-2.7730265 -4.6217127 -22.665689
-2.78423 -5.5684614 -22.478962
-2.7996747 -6.5325761 -22.22155
-2.8169265 -7.5118046 -21.934019
-2.8397613 -8.5192842 -21.55344
-2.8653991 -9.5513287 -21.126144
-2.894738 -10.61404 -20.637163
-2.9311657 -11.724662 -20.030035
-2.9738801 -12.886814 -19.318127
-3.0253947 -14.11851 -18.459547
-3.0890784 -15.445393 -17.398153
-3.1734548 -16.925089 -15.991887
-3.29703 -18.68317 -13.932297
-3.5415223 -21.249136 -9.85742
-2.3011928 20.710735 -11.352976
-2.1756713 18.493204 -14.491015
-2.100811 16.806486 -16.36252
-2.0501564 15.376172 -17.628883
-2.0085402 14.059781 -18.669294
-1.976699 12.848539 -19.465322
-1.9466698 11.680017 -20.216053
-1.924632 10.585474 -20.767
-1.9048558 9.5242767 -21.261398
-1.8881149 8.4965172 -21.679922
-1.8743745 7.4974985 -22.023434
-1.8620654 6.51723 -22.33116
-1.8524512 5.5573521 -22.571514
-1.8437066 4.6092653 -22.790134
-1.8377422 3.6754837 -22.939238
-1.8321241 2.7481842 -23.079689
-1.8293072 1.8293037 -23.15012
-1.8265921 0.91329384 -23.217995
-1.8264314 -0 -23.222012
-1.8271729 -0.91358662 -23.203474
-1.8294839 -1.8294868 -23.145699
-1.832698 -2.7490454 -23.065346
-1.8386085 -3.6772184 -22.917587
-1.8461814 -4.6154556 -22.72826
-1.8535395 -5.5606203 -22.54431
-1.8630948 -6.5208335 -22.305424
-1.8754449 -7.501781 -21.996675
-1.8900278 -8.5051231 -21.632105
-1.9059784 -9.5298939 -21.233335
-1.9269193 -10.598057 -20.709814
-1.9514977 -11.708988 -20.095354
-1.9794528 -12.866445 -19.396475
-2.0114777 -14.080343 -18.595856
-2.0529158 -15.39687 -17.5599
-2.1083117 -16.866495 -16.175007
-2.1835392 -18.560083 -14.294317
-2.3337834 -21.004051 -10.53821
-1.1478633 20.661537 -11.489637
-1.0857877 18.458389 -14.593411
-1.0486702 16.778721 -16.449291
-1.0239041 15.358562 -17.68759
-1.0032901 14.046062 -18.718288
-0.9873004 12.834904 -19.517776
-0.97352624 11.682315 -20.206482
-0.96201104 10.582121 -20.782244
-0.95158875 9.5158863 -21.30336
-0.94342929 8.4908609 -21.711334
-0.93631202 7.4904966 -22.067196
-0.93033028 6.512311 -22.366287
-0.92549044 5.5529432 -22.608273
-0.92122257 4.6061087 -22.821667
-0.91822881 3.6729136 -22.971355
-0.91558516 2.7467546 -23.103539
-0.91400152 1.828001 -23.182716
-0.9129644 0.91296482 -23.234575
-0.91267449 -9.5367432e-07 -23.249073
-0.91294366 -0.91294289 -23.235611
-0.91406387 -1.8281269 -23.1796
-0.91586393 -2.747591 -23.089596
-0.91830224 -3.673213 -22.967688
-0.92184532 -4.6092262 -22.790527
-0.92577535 -5.5546517 -22.594028
-0.93096805 -6.516777 -22.334393
-0.93690079 -7.4952044 -22.037758
-0.94415992 -8.4974413 -21.674799
-0.95245618 -9.5245647 -21.259989
-0.96260095 -10.588613 -20.752748
-0.97457284 -11.694874 -20.154156
-0.98899043 -12.856876 -19.433279
-1.0050133 -14.070186 -18.632132
-1.0256923 -15.385386 -17.598177
-1.0524528 -16.839247 -16.260157
-1.0900133 -18.530226 -14.382135
-1.1563843 -20.81492 -11.063577
0 20.659988 -11.493936
0 18.466055 -14.570873
0 16.804623 -16.368349
0 15.354504 -17.701107
0 14.0582 -18.674932
0 12.821334 -19.569969
0 11.684578 -20.197056
0 10.58573 -20.765848
0 9.5151548 -21.307016
0 8.4925814 -21.70179
0 7.4921083 -22.057114
0 6.5139656 -22.354446
0 5.5538349 -22.600821
0 4.6073771 -22.809006
0 3.673542 -22.963493
0 2.7474747 -23.091553
0 1.8288555 -23.161421
0 0.91322422 -23.221493
0 -9.5367432e-07 -23.251404
0 -0.91306686 -23.229523
0 -1.8278332 -23.187
0 -2.7519608 -23.016766
0 -3.6840143 -22.832603
0 -4.6235962 -22.646832
0 -5.5707746 -22.459688
0 -6.5256667 -22.270884
0 -7.4950781 -22.038576
0 -8.498786 -21.667316
0 -9.5260544 -21.252518
0 -10.594599 -20.725529
0 -11.693602 -20.159466
0 -12.858416 -19.427351
0 -14.081135 -18.593025
0 -15.384602 -17.60079
0 -16.839079 -16.260674
0 -18.563925 -14.283015
0 -20.890961 -10.852352
1.1557615 20.803705 -11.094725
1.0895224 18.521881 -14.406674
1.0522361 16.835773 -16.271
1.0243962 15.365942 -17.662983
1.0056885 14.079638 -18.598372
0.98809457 12.845228 -19.478065
0.97479129 11.697495 -20.143232
0.96336162 10.596977 -20.714716
0.95301735 9.5301723 -21.231928
0.94463933 8.5017529 -21.650829
0.93734562 7.4987645 -22.015516
0.93156362 6.5209417 -22.304615
0.9262256 5.5573521 -22.571514
0.92236316 4.6118164 -22.764633
0.91892624 3.6757059 -22.936481
0.91667002 2.7500076 -23.049294
0.9151634 1.8303261 -23.12463
0.91424567 0.91424561 -23.170513
0.91332716 -1.9073486e-06 -23.216438
0.91572326 -0.9157238 -23.096634
0.91940403 -1.838809 -22.912594
0.92310399 -2.769311 -22.727596
0.92683381 -3.7073345 -22.541105
0.93059659 -4.6529865 -22.352966
0.93438727 -5.6063247 -22.163429
0.9382118 -6.567482 -21.972206
0.94207603 -7.5366087 -21.778996
0.94597214 -8.5137482 -21.584187
0.95404863 -9.5404873 -21.180363
0.96415818 -10.605743 -20.674887
0.97560978 -11.707317 -20.102306
0.98976904 -12.866996 -19.394344
1.0068433 -14.095807 -18.540634
1.0278611 -15.417918 -17.489742
1.0555319 -16.88851 -16.106205
1.0951654 -18.617813 -14.124525
1.1659532 -20.987156 -10.585135
2.3341472 21.007326 -10.529112
2.1911061 18.624403 -14.105141
2.1126783 16.901424 -16.065842
2.0577133 15.432848 -17.43996
2.0162854 14.113997 -18.47566
1.9817566 12.881416 -19.338879
1.9550483 11.73029 -20.006588
1.9290503 10.609776 -20.656536
1.9095125 9.5475616 -21.144985
1.8925619 8.5165272 -21.568748
1.8782854 7.5131402 -21.925659
1.8666122 6.5331421 -22.217487
1.85633 5.5689878 -22.474548
1.8482914 4.6207266 -22.67551
1.841391 3.6827822 -22.848022
1.8364419 2.7546616 -22.971748
1.8325363 1.8325338 -23.069389
1.8302695 0.91513348 -23.12606
1.8355883 9.5367432e-07 -22.993088
1.8429832 -0.92149353 -22.808212
1.8504329 -1.8504343 -22.621975
1.8579214 -2.7868853 -22.434761
1.8654763 -3.7309532 -22.245892
1.8730983 -4.6827459 -22.055342
1.8807772 -5.6423321 -21.863365
1.8885304 -6.6098557 -21.669533
1.8963535 -7.5854173 -21.473957
1.9042472 -8.5691156 -21.276615
1.912207 -9.5610371 -21.077618
1.9315628 -10.623597 -20.593727
1.9560999 -11.736601 -19.980297
1.9847815 -12.901081 -19.263256
2.0184352 -14.129046 -18.421915
2.0613379 -15.460035 -17.349348
2.1212842 -16.970272 -15.850696
2.2034829 -18.729605 -13.795724
2.3943191 -21.548872 -9.0248175
3.6540732 21.92444 -7.9815717
3.3096092 18.754452 -13.722645
3.1883464 17.004517 -15.743689
3.1000683 15.50034 -17.214991
3.0378747 14.176748 -18.251549
2.9830041 12.92635 -19.166061
2.9431212 11.772483 -19.83078
2.9046662 10.650442 -20.471693
2.8756065 9.5853529 -20.956024
2.8482056 8.5446148 -21.412701
2.8261702 7.5364528 -21.779961
2.806968 6.549592 -22.099998
2.7919915 5.5839825 -22.349606
2.7788289 4.631381 -22.568985
2.7690339 3.6920443 -22.732231
2.7614386 2.7614384 -22.858818
2.7558346 1.8372221 -22.952221
2.759639 0.91987801 -22.888809
2.7707584 -9.5367432e-07 -22.703491
2.7819996 -0.92733383 -22.516136
2.7933002 -1.8621988 -22.327791
2.8046765 -2.804678 -22.138187
2.8161542 -3.7548723 -21.946894
2.8277347 -4.7128935 -21.753885
2.8394189 -5.6788392 -21.559149
2.8511832 -6.6527615 -21.363075
2.8630712 -7.6348567 -21.164946
2.875067 -8.6252022 -20.965015
2.8871636 -9.6238804 -20.763405
2.9070451 -10.659164 -20.432043
2.9429686 -11.771875 -19.833321
2.9872222 -12.944628 -19.095764
3.0423453 -14.197612 -18.177044
3.1091433 -15.545717 -17.063742
3.2007771 -17.07081 -15.536514
3.3349192 -18.897877 -13.300805
4.4730883 19.010624 -12.969193
4.2802038 17.120813 -15.38025
4.1598043 15.599264 -16.885242
4.0731072 14.255875 -17.96896
4.0000544 13.000177 -18.882118
3.9413304 11.823989 -19.616167
3.8891993 10.695295 -20.267807
3.8507032 9.6267548 -20.749008
3.812973 8.5791855 -21.220633
3.7816434 7.5632854 -21.612255
3.7570751 6.5748816 -21.919357
3.73615 5.6042242 -22.180923
3.7185261 4.648159 -22.401218
3.7049985 3.704999 -22.570312
3.694175 2.7706318 -22.705612
3.6879201 1.8439589 -22.783796
3.7027926 0.92569733 -22.597893
3.7178173 -9.5367432e-07 -22.41008
3.7329755 -0.93324471 -22.220604
3.7482359 -1.8741188 -22.029844
3.7635999 -2.8227034 -21.837799
3.7791011 -3.7791023 -21.644033
3.7947419 -4.7434287 -21.448523
3.8105464 -5.7158198 -21.250965
3.8264263 -6.6962461 -21.052469
3.8424735 -7.684947 -20.851877
3.8586791 -8.6820288 -20.649309
3.87501 -9.6875229 -20.445171
3.8919623 -10.702897 -20.233269
3.9471312 -11.841393 -19.543661
4.0075135 -13.02442 -18.788879
4.0785918 -14.275072 -17.900402
4.1732221 -15.649585 -16.71752
4.3074012 -17.229603 -15.040285
4.5092516 -19.164318 -12.517154
5.7020574 19.386992 -11.862225
5.4220238 17.350473 -14.662558
5.2456069 15.736818 -16.426729
5.1239386 14.34703 -17.64341
5.0288982 13.075135 -18.593811
4.9541016 11.889843 -19.34178
4.8867154 10.750772 -20.015642
4.837501 9.6750011 -20.507786
4.7908363 8.6235046 -20.97443
4.7515368 7.6024604 -21.367424
4.7207026 6.6089826 -21.67577
4.6902661 5.6283169 -21.980137
4.6687241 4.668725 -22.195557
4.649837 3.7198677 -22.384428
4.6370134 2.7822056 -22.512661
4.6390853 1.8556356 -22.49194
4.6579394 0.93158722 -22.303402
4.6769881 -9.5367432e-07 -22.112915
4.696166 -0.93923378 -21.921139
4.7154737 -1.8861885 -21.728062
4.7349272 -2.8409567 -21.533525
4.7545557 -3.803647 -21.33724
4.7743616 -4.774363 -21.139179
4.7943912 -5.7532697 -20.938885
4.8145022 -6.7403035 -20.737774
4.8347974 -7.7356787 -20.534821
4.8553381 -8.7396088 -20.329416
4.8760238 -9.7520485 -20.122557
4.8968873 -10.773153 -19.913925
4.9650464 -11.916113 -19.232334
5.0412979 -13.107374 -18.469818
5.1394529 -14.390471 -17.488266
5.2673802 -15.802142 -16.208996
5.4423795 -17.415611 -14.459003
5.7368398 -19.505259 -11.514391
7.1145701 20.157951 -9.5947075
6.5959749 17.589264 -13.916343
6.3760405 15.940097 -15.749128
6.2179461 14.508537 -17.066582
6.0892954 13.193473 -18.138668
5.9907556 11.98151 -18.959835
5.9056125 10.826958 -19.669357
5.8375378 9.7292271 -20.23665
5.7798929 8.669838 -20.717022
5.7335038 7.6446714 -21.103596
5.6940594 6.6430693 -21.432297
5.6583529 5.6583519 -21.729858
5.6316514 4.6930428 -21.952366
5.6100378 3.7400246 -22.132484
5.5927167 2.7963562 -22.276825
5.6024203 1.8674736 -22.195961
5.6253347 0.93755531 -22.005001
5.6484876 9.5367432e-07 -21.812065
5.6718321 -0.94530582 -21.617531
5.6952691 -1.8984232 -21.422224
5.7189007 -2.8594513 -21.22529
5.742763 -3.8285084 -21.026434
5.7668605 -4.805717 -20.825626
5.7912126 -5.791214 -20.622692
5.8156662 -6.7849455 -20.418911
5.8403449 -7.787128 -20.213255
5.8653049 -8.7979593 -20.005253
5.8904619 -9.8174381 -19.795616
5.9158354 -10.845699 -19.584166
6.004559 -12.009122 -18.844803
6.102459 -13.221995 -18.028976
6.225564 -14.526317 -17.003096
6.3989239 -15.997309 -15.558434
6.6458268 -17.722206 -13.500901
7.8987155 18.054205 -12.463399
7.5580821 16.19589 -14.896491
7.345191 14.690382 -16.417149
7.1761417 13.327119 -17.624641
7.0580826 12.099568 -18.467922
6.9471641 10.916969 -19.260197
6.8709688 9.8156719 -19.804445
6.7988677 8.7414017 -20.319454
6.7384486 7.7010832 -20.751022
6.6894655 6.6894646 -21.100899
6.6448922 5.6956196 -21.419281
6.6123781 4.7231274 -21.651522
6.5858569 3.7633457 -21.840961
6.5654154 2.8137484 -21.986969
6.578126 1.8794641 -21.896179
6.6052246 0.94360256 -21.702621
6.6325479 -0 -21.507458
6.6601367 -0.95144653 -21.310392
6.6878371 -1.9108124 -21.112532
6.7157688 -2.87819 -20.913017
6.7439752 -3.8536997 -20.711544
6.7725015 -4.8375015 -20.507786
6.8012695 -5.8296609 -20.302301
6.8301797 -6.8301811 -20.095798
6.8593578 -7.8392673 -19.887383
6.8888283 -8.8570652 -19.676882
6.9185739 -9.8836775 -19.464409
6.9586229 -10.93498 -19.178347
7.0690675 -12.1184 -18.389458
7.189218 -13.351404 -17.531239
7.3562241 -14.712446 -16.338339
7.5831928 -16.249701 -14.71713
7.9462185 -18.162785 -12.12409
9.3530731 18.706146 -10.426087
8.8129969 16.524364 -13.801572
8.5148544 14.900993 -15.664957
8.3148527 13.511633 -16.91497
8.1585016 12.237749 -17.892159
8.0317793 11.043697 -18.684174
7.9298587 9.912322 -19.32118
7.8406272 8.8207035 -19.87888
7.7652135 7.7652116 -20.350212
7.7104011 6.7466011 -20.692787
7.6562204 5.7421641 -21.031414
7.6150966 4.7594376 -21.288441
7.5815945 3.7907963 -21.497831
7.5584903 2.8344336 -21.642227
7.566421 1.8916044 -21.592667
7.5978379 0.94972801 -21.396313
7.6294265 -9.5367432e-07 -21.198879
7.6613693 -0.95767117 -20.999237
7.6934438 -1.9233599 -20.798777
7.7257876 -2.897171 -20.596624
7.7584505 -3.8792291 -20.392479
7.7915335 -4.8697085 -20.185715
7.8248277 -5.8686204 -19.977623
7.8582883 -6.8760023 -19.768497
7.8920841 -7.8920846 -19.55727
7.9262209 -8.9169989 -19.343914
7.9607034 -9.9508801 -19.128399
8.0367937 -11.050592 -18.652836
8.1676636 -12.251495 -17.834896
8.3284626 -13.533751 -16.829903
8.5393972 -14.943945 -15.511567
8.8490124 -16.591896 -13.576473
9.5785236 -19.157047 -9.0170269
10.225549 17.042578 -12.0742
9.7816267 15.215864 -14.540423
9.5106106 13.737546 -16.046072
9.3054047 12.407207 -17.186104
9.1469812 11.179641 -18.066235
9.0146599 10.016289 -18.801352
8.9138422 8.9138412 -19.361446
8.8228817 7.8425627 -19.866787
8.7483454 6.8042679 -20.280876
8.6927624 5.7951751 -20.58967
8.6451521 4.8028622 -20.854172
8.6075144 3.8255625 -21.063269
8.5784521 2.8594847 -21.224728
8.5675917 1.9039078 -21.285063
8.6033726 0.95593166 -21.086281
8.6394281 -2.8610229e-06 -20.885975
8.675786 -0.963974 -20.683983
8.712347 -1.9360781 -20.480869
8.749217 -2.9164047 -20.276031
8.7864819 -3.9051046 -20.069008
8.8242521 -4.9023628 -19.859169
8.862133 -5.9080892 -19.648727
8.9003115 -6.9224672 -19.436623
8.9388494 -7.9456425 -19.222525
8.9777489 -8.9777479 -19.006411
9.0222416 -10.024715 -18.75923
9.1543531 -11.188654 -18.02528
9.3108482 -12.414465 -17.155859
9.5372295 -13.776 -15.898188
9.811348 -15.262098 -14.375307
10.293321 -17.155537 -11.697675
11.18241 15.655372 -12.970748
10.781382 14.015795 -14.975889
10.511705 12.614043 -16.32427
10.324047 11.35645 -17.262558
10.156641 10.156641 -18.099592
10.019969 9.0179691 -18.782953
9.9196558 7.9357219 -19.284519
9.833395 6.8833766 -19.71582
9.7647715 5.8588629 -20.058939
9.7044096 4.8522034 -20.360748
9.6604233 3.8641663 -20.580681
9.6250019 2.8874998 -20.757788
9.6006813 1.9201336 -20.879391
9.6221237 0.96221256 -20.772177
9.6627722 1.9073486e-06 -20.568932
9.7036781 -0.97036934 -20.364407
9.744813 -1.9489622 -20.15873
9.7863293 -2.9358988 -19.951151
9.8283501 -3.9313402 -19.741045
9.8708839 -4.9354448 -19.528374
9.9135141 -5.9481096 -19.315228
9.9565134 -6.9695601 -19.100231
9.9999189 -7.9999347 -18.883207
10.043704 -9.0393333 -18.664282
10.175588 -10.175588 -18.004856
10.331572 -11.364729 -17.224941
10.551788 -12.662146 -16.123856
10.808792 -14.05143 -14.838834
11.232014 -15.724817 -12.722726
12.996356 16.540815 -9.8084517
12.218838 14.440443 -13.342627
11.839886 12.916237 -15.065136
11.566617 11.566616 -16.307264
11.363452 10.330408 -17.230745
11.194528 9.1591587 -17.998581
11.068835 8.0500603 -18.56991
10.962101 6.9758811 -19.055065
10.873281 5.9308805 -19.458794
10.80795 4.9127054 -19.755749
10.753222 3.9102621 -20.004511
10.714363 2.9221001 -20.181141
10.683549 1.9424629 -20.321213
10.665621 0.96960258 -20.402704
10.699759 9.5367432e-07 -20.247528
10.745258 -0.97684193 -20.040709
10.791116 -1.9620199 -19.832275
10.837398 -2.955657 -19.621899
10.884313 -3.9579315 -19.408649
10.931704 -4.9689569 -19.193233
10.979237 -5.9886765 -18.977177
11.027184 -7.0172977 -18.759232
11.075623 -8.0550013 -18.539059
11.206824 -9.1692209 -17.942686
11.374515 -10.340466 -17.180458
11.589868 -11.589869 -16.20158
11.863692 -12.942211 -14.956922
12.252119 -14.479777 -13.19135
13.185039 -16.780958 -8.9508038
13.972202 15.136554 -10.665282
13.288269 13.288268 -13.515003
12.931463 11.853841 -15.001698
12.644692 10.537243 -16.196579
12.444589 9.3334408 -17.030346
12.277474 8.1849804 -17.726652
12.146493 7.0854521 -18.272411
12.04196 6.0209789 -18.70797
11.96273 4.9844694 -19.038084
11.897427 3.9658089 -19.310188
11.851095 2.9627743 -19.503233
11.820625 1.9701023 -19.630192
11.803428 0.98361778 -19.701845
11.787216 -0 -19.769394
11.800831 -0.98340321 -19.712666
11.851532 -1.9752569 -19.501415
11.902706 -2.9756784 -19.288187
11.954658 -3.9848876 -19.07172
12.007028 -5.0029292 -18.853514
12.059595 -6.0297985 -18.634485
12.160605 -7.0936871 -18.213606
12.291855 -8.1945744 -17.666733
12.45884 -9.3441315 -16.970961
12.670705 -10.558923 -16.088196
12.94477 -11.866041 -14.946259
13.351577 -13.351578 -13.251229
14.152955 -15.332371 -9.9121494
15.265125 14.090885 -10.170774
14.494424 12.26451 -13.135013
14.0881 10.836997 -14.697799
13.801628 9.5549736 -15.799607
13.574942 8.3538113 -16.67148
13.420703 7.2265334 -17.264709
13.289782 6.1337471 -17.76825
13.187819 5.0722375 -18.160419
13.107005 4.0329223 -18.471241
13.047571 3.0109768 -18.699829
13.005066 2.0007763 -18.86331
12.982628 0.99866104 -18.94961
12.974777 -2.8610229e-06 -18.979805
12.981582 -0.99858189 -18.95364
13.008907 -2.0013714 -18.848536
13.048547 -3.0112062 -18.696075
13.117772 -4.0362363 -18.429827
13.204758 -5.0787544 -18.095264
13.293371 -6.1354032 -17.754444
13.436737 -7.2351661 -17.203039
13.606641 -8.3733196 -16.549561
13.825893 -9.5717716 -15.706282
14.115098 -10.857767 -14.593961
14.534507 -12.298428 -12.980846
15.411894 -14.226366 -9.6062832
17.225496 13.534319 -7.3631663
15.798263 11.284474 -12.46043
15.345423 9.8649139 -14.077715
15.02252 8.5842962 -15.230936
14.811159 7.4055805 -15.9858
14.638309 6.27356 -16.603119
14.505505 5.1805358 -17.077423
14.404317 4.11552 -17.438808
14.32659 3.0699821 -17.716406
14.279234 2.0398893 -17.885536
14.246409 1.0175991 -18.002766
14.2406 -1.9073486e-06 -18.02351
14.248436 -1.0177469 -17.995522
14.282582 -2.04037 -17.873573
14.334702 -3.0717216 -17.687429
14.422438 -4.1206961 -17.374096
14.519482 -5.1855316 -17.027506
14.655308 -6.2808447 -16.542412
14.829684 -7.4148407 -15.91964
15.062346 -8.6070566 -15.088701
15.38283 -9.8889608 -13.944117
15.853574 -11.323982 -12.262891
17.395206 10.437123 -10.898775
16.764296 8.9409542 -13.001817
16.400133 7.6533933 -14.215683
16.15416 6.4616632 -15.035599
15.973804 5.3246012 -15.636778
15.836353 4.2230268 -16.094948
15.732513 3.1465001 -16.441086
15.668936 2.0891924 -16.653006
15.625978 1.0417314 -16.796206
15.630885 -9.5367432e-07 -16.779844
15.650496 -1.0433669 -16.714474
15.67438 -2.08992 -16.634863
15.743031 -3.1486082 -16.406025
15.845294 -4.2254114 -16.065147
15.985866 -5.3286219 -15.596578
16.175648 -6.4702606 -14.963965
16.441635 -7.6727662 -14.077343
16.818262 -8.9697399 -12.821926
17.489298 -10.49358 -10.585137
18.534384 8.1087904 -10.962848
18.037954 6.7642312 -12.514193
17.705084 5.5328383 -13.554415
17.492704 4.3731723 -14.218096
17.34919 3.2529721 -14.666574
17.252811 2.1565995 -14.967762
17.190374 1.0743999 -15.162872
17.175467 -4.2915344e-06 -15.209462
17.204792 -1.0753016 -15.117819
17.279211 -2.1599026 -14.885261
17.374245 -3.2576718 -14.588281
17.542883 -4.3857241 -14.061283
17.7731 -5.5540943 -13.341862
18.065228 -6.7744608 -12.428955
18.687479 -8.1757717 -10.484427
19.895952 4.6814017 -10.365286
19.496708 3.4405951 -11.53954
19.281637 2.2684283 -12.1721
19.179838 1.1282225 -12.471507
19.156467 4.7683716e-07 -12.540243
19.199896 -1.129406 -12.412514
19.309061 -2.2716541 -12.09144
19.537645 -3.4478183 -11.419129
19.909275 -4.684536 -10.326104
