# .PCD v0.7 - Point Cloud Data file format
VERSION 0.7
FIELDS x y z
SIZE 4 4 4
TYPE F F F
COUNT 1 1 1
WIDTH 1061
HEIGHT 1
VIEWPOINT 0 0 0 1 0 0 0
POINTS 1061
DATA ascii
-22.89653 1.2050807 -8.6287689
-22.98138 9.5367432e-07 -8.4054794
-23.06686 -1.2140465 -8.1805305
-21.83626 7.2787504 -8.2265253
-20.789446 5.7748475 -11.134336
-20.307352 4.5127449 -12.473487
-20.128967 3.354826 -12.968997
-19.978739 2.2198558 -13.386301
-19.870596 1.1039219 -13.686693
-19.825781 9.5367432e-07 -13.811183
-19.887173 -1.1048455 -13.640646
-19.955683 -2.2172999 -13.450345
-20.128618 -3.3547692 -12.96997
-20.367184 -4.5260401 -12.307287
-20.849531 -5.7915392 -10.967432
-19.937281 9.3822489 -10.243735
-19.167206 7.8923774 -12.508661
-18.766996 6.6236434 -13.68575
-18.511227 5.4444761 -14.438011
-18.310009 4.3082371 -15.029835
-18.172558 3.2069225 -15.434097
-18.088444 2.1280513 -15.68149
-18.032045 1.0607085 -15.84737
-18.023668 2.3841858e-06 -15.872005
-18.041916 -1.0612912 -15.818338
-18.095921 -2.128933 -15.659496
-18.190142 -3.2100253 -15.382383
-18.331602 -4.3133187 -14.966316
-18.553411 -5.4568863 -14.313937
-18.836456 -6.6481643 -13.481455
-19.231819 -7.9189844 -12.318624
-20.057959 -9.4390392 -9.8887987
-19.030245 11.8939 -9.4132843
-18.041367 10.148267 -12.503528
-17.559994 8.7799969 -14.007815
-17.260098 7.5512919 -14.94499
-17.019352 6.3822556 -15.697317
-16.839245 5.2622647 -16.260157
-16.711472 4.1778674 -16.659447
-16.609055 3.1141982 -16.979502
-16.551928 2.0689893 -17.15802
-16.503916 1.0314932 -17.30806
-16.508625 -9.5367432e-07 -17.293337
-16.526428 -1.0329037 -17.237709
-16.560232 -2.0700297 -17.132072
-16.619989 -3.11625 -16.945326
-16.726942 -4.181736 -16.611101
-16.86108 -5.2690868 -16.191919
-17.048035 -6.3930144 -15.607693
-17.28977 -7.5642757 -14.852262
-17.624485 -8.8122425 -13.806284
-18.12162 -10.193411 -12.252728
-19.813467 -12.383415 -6.9657145
-17.326902 12.70639 -11.126459
-16.630651 11.087099 -13.44729
-16.215858 9.7295113 -14.829939
-15.925114 8.4933929 -15.799084
-15.715356 7.3338313 -16.49828
-15.53611 6.2144427 -17.095762
-15.403009 5.1343369 -17.539431
-15.306212 4.0816569 -17.862089
-15.227656 3.0455317 -18.12394
-15.182256 2.0242996 -18.275276
-15.146482 1.0097637 -18.394526
-15.141161 -0 -18.41226
-15.151282 -1.010088 -18.378521
-15.187128 -2.0249519 -18.259037
-15.232943 -3.0465903 -18.106323
-15.332707 -4.0887251 -17.773769
-15.435071 -5.1450272 -17.43256
-15.558944 -6.2235751 -17.01965
-15.731487 -7.341362 -16.444504
-15.954535 -8.5090857 -15.70101
-16.256485 -9.753891 -14.694513
-16.686125 -11.124084 -13.262381
-17.416609 -12.772182 -10.827437
-16.000517 13.714728 -11.738091
-15.402392 12.101878 -13.874249
-14.997468 10.712476 -15.320412
-14.714225 9.4591446 -16.331989
-14.502423 8.2870979 -17.088428
-14.343831 7.1719136 -17.654829
-14.206833 6.0886445 -18.144104
-14.102424 5.0365782 -18.516998
-14.0177 4.0050573 -18.81958
-13.958681 2.9911451 -19.030363
-13.918794 1.9883976 -19.172817
-13.892956 0.99235249 -19.265097
-13.88448 9.5367432e-07 -19.295368
-13.894371 -0.99245644 -19.260046
-13.916816 -1.9881172 -19.179884
-13.958638 -2.9911361 -19.030518
-14.023983 -4.0068512 -18.797142
-14.111214 -5.0397191 -18.485607
-14.21665 -6.0928497 -18.109043
-14.355942 -7.1779733 -17.611574
-14.529314 -8.3024683 -16.99239
-14.744079 -9.4783363 -16.225372
-15.024976 -10.732125 -15.222169
-15.412351 -12.109706 -13.838685
-16.062294 -13.76768 -11.517461
-14.828398 14.828397 -11.850498
-14.228386 13.133894 -14.158235
-13.841491 11.71203 -15.64629
-13.593733 10.456713 -16.599213
-13.378303 9.2618999 -17.42779
-13.207468 8.1276722 -18.084841
-13.081595 7.0439358 -18.568968
-12.970634 5.9864464 -18.995743
-12.88614 4.9562063 -19.320723
-12.814267 3.9428492 -19.597157
-12.767886 2.946434 -19.775541
-12.73396 1.9590702 -19.906025
-12.717355 0.97825718 -19.969893
-12.699521 -1.9073486e-06 -20.038488
-12.752125 -0.98093414 -19.836163
-12.806852 -1.9702854 -19.625668
-12.86221 -2.9682012 -19.412754
-12.91801 -3.9747715 -19.198145
-12.974294 -4.9901109 -18.981665
-13.031072 -6.0143394 -18.763288
-13.088225 -7.0475049 -18.543468
-13.2286 -8.1406784 -18.003569
-13.397966 -9.2755146 -17.352154
-13.615054 -10.473122 -16.517202
-13.898924 -11.760628 -15.425394
-14.263895 -13.166673 -14.021661
-14.893324 -14.893324 -11.60078
-13.771215 16.066416 -11.502734
-13.15107 14.246992 -14.086673
-12.798992 12.798989 -15.553665
-12.528887 11.48481 -16.6791
-12.31451 10.262091 -17.57234
-12.140422 9.1053123 -18.297709
-12.006916 8.0046082 -18.853981
-11.891894 6.9369359 -19.333237
-11.805774 5.9028854 -19.692074
-11.735637 4.8898482 -19.98431
-11.678535 3.8928432 -20.222235
-11.634907 2.9087267 -20.404018
-11.604002 1.934 -20.532787
-11.594248 0.96618652 -20.573429
-11.64336 -2.8610229e-06 -20.368793
-11.692821 -0.97440338 -20.162712
-11.742702 -1.9571171 -19.954872
-11.793083 -2.9482718 -19.744949
-11.843899 -3.9479675 -19.533215
-11.895191 -4.9563293 -19.319504
-11.946856 -5.9734268 -19.104233
-11.99897 -6.9993987 -18.887087
-12.051429 -8.0342855 -18.668509
-12.152875 -9.1146545 -18.245815
-12.332363 -10.27697 -17.49795
-12.536533 -11.491822 -16.647243
-12.828498 -12.828502 -15.43072
-13.203541 -14.303835 -13.868047
-13.877759 -16.19072 -11.058797
-12.917398 17.614632 -10.167349
-12.157196 15.472793 -13.622813
-11.765202 13.904326 -15.404612
-11.473682 12.516743 -16.729692
-11.285746 11.285746 -17.58395
-11.107385 10.097621 -18.394684
-10.970016 8.9754658 -19.019085
-10.863204 7.9005113 -19.504597
-10.768662 6.8527851 -19.934334
-10.693844 5.833005 -20.274414
-10.626975 4.8304415 -20.578363
-10.583767 3.8486414 -20.774769
-10.545869 2.8761435 -20.947031
-10.518858 1.9125166 -21.069809
-10.558292 0.95984364 -20.890556
-10.602818 9.5367432e-07 -20.688171
-10.647495 -0.96795464 -20.485088
-10.692648 -1.9441195 -20.279848
-10.738218 -2.9286051 -20.072712
-10.784212 -3.9215326 -19.863651
-10.830567 -4.9229884 -19.652943
-10.87729 -5.9330702 -19.440571
-10.924484 -6.9519458 -19.226051
-10.971886 -7.9795542 -19.010588
-11.019735 -9.0161495 -18.793089
-11.125466 -10.114061 -18.312492
-11.294063 -11.294063 -17.546148
-11.520543 -12.567867 -16.516689
-11.79798 -13.943068 -15.255612
-12.192451 -15.517667 -13.462564
-13.162487 -17.948847 -9.0533075
-11.194273 16.791407 -12.911432
-10.770124 15.078175 -15.032173
-10.500113 13.650146 -16.382227
-10.285542 12.342648 -17.45509
-10.113075 11.124381 -18.317421
-9.9770393 9.9770384 -18.997599
-9.8640471 8.8776417 -19.562563
-9.7611885 7.808948 -20.076855
-9.689333 6.7825298 -20.436131
-9.6246271 5.774776 -20.759659
-9.5729513 4.7864742 -21.018036
-9.5296106 3.811842 -21.234749
-9.4987545 2.8496265 -21.389023
-9.4963446 1.8992682 -21.401073
-9.5359917 0.95359898 -21.202839
-9.5758572 -0 -21.003513
-9.6160002 -0.96160316 -20.802795
-9.6564808 -1.9312992 -20.600391
-9.6973629 -2.9092112 -20.395985
-9.7385912 -3.8954363 -20.189838
-9.7801723 -4.8900886 -19.981932
-9.8220806 -5.8932514 -19.772394
-9.8644094 -6.9050879 -19.560749
-9.9069834 -7.92559 -19.347879
-9.9498949 -8.9549046 -19.13332
-9.9933977 -9.9933987 -18.915808
-10.124083 -11.136492 -18.262383
-10.293799 -12.35256 -17.413799
-10.522291 -13.67898 -16.271341
-10.805562 -15.127789 -14.854984
-11.268826 -16.90324 -12.538667
-10.37198 18.439072 -11.260687
-9.8373404 16.395567 -14.230907
-9.5236197 14.81452 -15.973798
-9.2976389 13.42992 -17.229252
-9.1379204 12.183891 -18.116573
-8.9966002 10.995843 -18.901688
-8.8864946 9.8738804 -19.513384
-8.790802 8.7908001 -20.045012
-8.7079992 7.7404432 -20.50502
-8.6464939 6.7250509 -20.846718
-8.5860815 5.7240534 -21.182343
-8.5410395 4.7450228 -21.432577
-8.5060234 3.7804546 -21.627106
-8.4787092 2.8262367 -21.778854
-8.4916601 1.8870344 -21.706909
-8.5268831 0.9474287 -21.511225
-8.5621977 -2.8610229e-06 -21.315035
-8.5978823 -0.95532036 -21.116785
-8.6338654 -1.9186363 -20.916882
-8.6701765 -2.8900585 -20.715149
-8.7067947 -3.8696866 -20.511715
-8.7437248 -4.8576241 -20.306553
-8.7809677 -5.8539791 -20.099644
-8.8185301 -6.8588562 -19.890966
-8.8563871 -7.872344 -19.680643
-8.8944626 -8.8944645 -19.469114
-8.9330873 -9.9256525 -19.254534
-9.0032835 -11.004015 -18.864552
-9.1437473 -12.191664 -18.084202
-9.3202562 -13.462594 -17.103594
-9.5484543 -14.853149 -15.835832
-9.8600121 -16.433353 -14.104956
-10.445367 -18.569542 -10.852978
-8.9336042 17.867208 -13.047769
-8.5861588 16.099047 -15.219307
-8.3525095 14.616891 -16.679611
-8.1702557 13.276664 -17.818697
-8.0366936 12.055037 -18.653461
-7.9128714 10.880198 -19.427351
-7.8258743 9.782342 -19.971081
-7.7440295 8.7120304 -20.482613
-7.677659 7.6776581 -20.897425
-7.6217017 6.6689892 -21.24716
-7.5726743 5.6795044 -21.553581
-7.5374241 4.7108898 -21.773891
-7.5076642 3.7538328 -21.95989
-7.4849434 2.8068533 -22.101902
-7.4998569 1.8749647 -22.00869
-7.5306997 0.94133854 -21.81592
-7.5617094 -0 -21.622112
-7.5929751 -0.94912052 -21.426701
-7.6245685 -1.9061432 -21.229244
-7.6564255 -2.8711605 -21.030138
-7.6885729 -3.844286 -20.829216
-7.7209682 -4.8256044 -20.626743
-7.7536144 -5.8152122 -20.422705
-7.786561 -6.8132443 -20.216789
-7.8197894 -7.8197899 -20.009111
-7.8532066 -8.8348579 -19.800253
-7.8870797 -9.8588486 -19.588551
-7.9242692 -10.89587 -19.356112
-8.0515471 -12.077322 -18.560629
-8.1846714 -13.300092 -17.728603
-8.3669233 -14.642116 -16.589527
-8.6122379 -16.147945 -15.056312
-8.9894066 -17.978815 -12.698998
-8.136322 19.75964 -10.766209
-7.6553988 17.498049 -14.201382
-7.394908 15.846231 -16.062025
-7.2236352 14.447271 -17.2854
-7.0776844 13.144269 -18.327904
-6.963872 11.938065 -19.140858
-6.8705292 10.796545 -19.80759
-6.795279 9.7075405 -20.345089
-6.7290487 8.6516342 -20.818165
-6.6748776 7.628428 -21.205101
-6.6302438 6.6302419 -21.523911
-6.587359 5.646307 -21.830235
-6.5562444 4.6830301 -22.052479
-6.5306621 3.7318048 -22.235214
-6.5115023 2.7906437 -22.372065
-6.5206437 1.863039 -22.306774
-6.5472126 0.93531609 -22.116993
-6.5740757 9.5367432e-07 -21.925114
-6.6010442 -0.94300556 -21.732483
-6.6283321 -1.8938084 -21.537563
-6.6558661 -2.8525133 -21.340893
-6.6836109 -3.8192062 -21.142719
-6.7115669 -4.7939749 -20.943031
-6.739799 -5.7769699 -20.741379
-6.768249 -6.7682495 -20.538164
-6.7969398 -7.7679324 -20.333225
-6.8257923 -8.7760191 -20.127136
-6.8550367 -9.7929096 -19.918247
-6.884407 -10.818356 -19.708458
-6.9827805 -11.970483 -19.005795
-7.0950942 -13.176605 -18.203552
-7.2327499 -14.465502 -17.220297
-7.4309845 -15.923541 -15.804334
-7.6945939 -17.587643 -13.921412
-8.264492 -20.070911 -9.850708
-6.7842193 19.221954 -12.347637
-6.4738607 17.263626 -14.933962
-6.2711573 15.677891 -16.623156
-6.1312718 14.306301 -17.788864
-6.0216556 13.046918 -18.702335
-5.9325204 11.865039 -19.445127
-5.8504844 10.725887 -20.128761
-5.7936101 9.6560173 -20.602709
-5.7378316 8.6067467 -21.067535
-5.6908212 7.5877604 -21.459286
-5.6538959 6.596209 -21.766998
-5.6192617 5.6192579 -22.055616
-5.5931864 4.6609879 -22.272911
-5.5712552 3.7141695 -22.455669
-5.5556908 2.7778463 -22.585373
-5.5537896 1.8512621 -22.601219
-5.5762749 0.92937946 -22.413837
-5.5990086 -3.8146973e-06 -22.224392
-5.6218138 -0.93697071 -22.034348
-5.6449213 -1.8816404 -21.841791
-5.6682024 -2.8341026 -21.647776
-5.6916766 -3.7944517 -21.45216
-5.7153292 -4.762774 -21.255054
-5.739213 -5.7392163 -21.056023
-5.7632804 -6.7238274 -20.855461
-5.78755 -7.7167325 -20.653214
-5.8119903 -8.7179852 -20.449543
-5.8367081 -9.7278461 -20.243561
-5.8615308 -10.746141 -20.036707
-5.9439707 -11.887943 -19.34971
-6.0351501 -13.076158 -18.589884
-6.1482167 -14.34584 -17.647652
-6.2921033 -15.730259 -16.448603
-6.5007992 -17.335463 -14.709474
-6.8344765 -19.364353 -11.928822
-5.5565677 18.89233 -13.317118
-5.334929 17.071772 -15.533505
-5.1853957 15.556185 -17.028843
-5.0807576 14.226122 -18.075218
-4.9893241 12.972242 -18.989557
-4.9175386 11.802092 -19.707407
-4.8535514 10.677811 -20.347286
-4.8055878 9.6111736 -20.82692
-4.7585769 8.5654392 -21.297028
-4.7195535 7.5512843 -21.68726
-4.6872602 6.5621614 -22.010193
-4.662704 5.5952425 -22.255756
-4.6407313 4.6407318 -22.475485
-4.6244068 3.6995239 -22.638727
-4.6108775 2.7665243 -22.774021
-4.6011214 1.8404474 -22.871584
-4.6175857 0.92351723 -22.706936
-4.6362519 -0 -22.520275
-4.655056 -0.93101406 -22.332237
-4.6740537 -1.8696241 -22.14226
-4.6932073 -2.8159237 -21.950726
-4.712532 -3.7700243 -21.757477
-4.7319613 -4.7319641 -21.563183
-4.7516351 -5.7019625 -21.366446
-4.7714171 -6.6799822 -21.168627
-4.7913785 -7.6662059 -20.969011
-4.8115077 -8.6607151 -20.767717
-4.8318067 -9.6636143 -20.564728
-4.8569207 -10.685226 -20.313589
-4.9221268 -11.813105 -19.66153
-4.9975209 -12.993555 -18.907583
-5.0861373 -14.241186 -18.02142
-5.2034883 -15.610462 -16.847914
-5.3645954 -17.16671 -15.23684
-5.6018519 -19.046295 -12.864277
-4.7481031 21.366463 -9.5315113
-4.4010901 18.704628 -13.869176
-4.2413664 16.965467 -15.865717
-4.1266537 15.474947 -17.299627
-4.0433626 14.151768 -18.340765
-3.9707386 12.904899 -19.248564
-3.9182491 11.754744 -19.904684
-3.8671408 10.634635 -20.543537
-3.8281217 9.570303 -21.031277
-3.792249 8.5325565 -21.479687
-3.7637978 7.5275946 -21.835323
-3.7390909 6.5434065 -22.144159
-3.7189023 5.5783539 -22.396519
-3.7018023 4.6272516 -22.610268
-3.6885648 3.6885633 -22.775736
-3.6783204 2.7587395 -22.903793
-3.6709254 1.8354616 -22.996227
-3.6709146 0.91773033 -22.996361
-3.6856289 -0 -22.812435
-3.7005041 -0.92512608 -22.626497
-3.7155209 -1.8577604 -22.438782
-3.7306495 -2.7979879 -22.249676
-3.7459021 -3.7459049 -22.059023
-3.7612464 -4.7015572 -21.867216
-3.7767837 -5.6651759 -21.673
-3.7924054 -6.6367126 -21.47773
-3.8081679 -7.6163344 -21.280701
-3.8240619 -8.6041412 -21.08202
-3.8400893 -9.6002235 -20.881681
-3.8711529 -10.645672 -20.493385
-3.9195135 -11.758543 -19.888876
-3.9777565 -12.927708 -19.160839
-4.049098 -14.171847 -18.269068
-4.1352305 -15.507115 -17.192417
-4.2568221 -17.02729 -15.672521
-4.4292407 -18.824272 -13.517292
-3.4858873 20.915321 -10.784676
-3.2782226 18.576595 -14.245751
-3.1641672 16.875557 -16.146677
-3.0815358 15.407679 -17.523863
-3.0211916 14.098893 -18.529606
-2.9694715 12.86771 -19.391605
-2.9294937 11.717974 -20.057901
-2.8920066 10.604025 -20.682686
-2.8618743 9.5395794 -21.184891
-2.8360991 8.5082989 -21.614475
-2.8142827 7.504755 -21.978085
-2.7972901 6.5270081 -22.261295
-2.7816949 5.5633888 -22.52121
-2.7700987 4.6168289 -22.714489
-2.7596865 3.6795788 -22.888023
-2.7523699 2.7523708 -23.009964
-2.7467711 1.8311787 -23.103277
-2.744343 0.91477966 -23.143745
-2.7469196 -1.9073486e-06 -23.100801
-2.7579443 -0.91931725 -22.917061
-2.7690656 -1.8460445 -22.731701
-2.7802691 -2.7802706 -22.544975
-2.7915556 -3.7220755 -22.356869
-2.8029261 -4.6715441 -22.167362
-2.8144302 -5.6288614 -21.975624
-2.8260047 -6.5940132 -21.782717
-2.8376746 -7.5671339 -21.588219
-2.8494413 -8.5483265 -21.392105
-2.8642857 -9.5476179 -21.144705
-2.8944256 -10.612894 -20.642368
-2.9308722 -11.72349 -20.034929
-2.9736421 -12.885781 -19.322098
-3.0229697 -14.107194 -18.499969
-3.0888414 -15.444207 -17.402103
-3.1761587 -16.939516 -15.946819
-3.2952857 -18.673286 -13.961366
-3.5446563 -21.267937 -9.8051968
-2.3041418 20.737274 -11.279253
-2.175745 18.493828 -14.489177
-2.1030076 16.824057 -16.307611
-2.0469291 15.351965 -17.709572
-2.0097318 14.068121 -18.639503
-1.9746008 12.834904 -19.517776
-1.948709 11.692252 -20.165073
-1.9259565 10.592758 -20.733885
-1.9049066 9.5245333 -21.26013
-1.8884805 8.4981632 -21.670782
-1.8740307 7.4961219 -22.032028
-1.8623779 6.5183239 -22.323347
-1.8520088 5.5560236 -22.582577
-1.8440605 4.6101494 -22.781284
-1.8374329 3.6748657 -22.946976
-1.8327031 2.7490549 -23.065216
-1.8298167 1.8298168 -23.137375
-1.8278317 0.91391563 -23.187
-1.8260584 9.5367432e-07 -23.231339
-1.8271574 -0.91357899 -23.203863
-1.8344738 -1.8344736 -23.020947
-1.8418493 -2.7627726 -22.836559
-1.8492792 -3.6985607 -22.65082
-1.8567584 -4.6418982 -22.46384
-1.8643415 -5.5930266 -22.27426
-1.8719542 -6.5518408 -22.083941
-1.8796347 -7.518539 -21.891926
-1.8890625 -8.500782 -21.656235
-1.9070514 -9.5352573 -21.206512
-1.9276291 -10.601961 -20.692068
-1.950321 -11.701925 -20.124773
-1.9789233 -12.863005 -19.409712
-2.0127103 -14.088974 -18.565037
-2.0536232 -15.402177 -17.542215
-2.1076627 -16.861301 -16.191233
-2.1868405 -18.588146 -14.211781
-2.3278835 -20.950951 -10.685707
-1.1467466 20.641436 -11.545466
-1.0859233 18.460695 -14.586633
-1.0495594 16.79295 -16.404827
-1.023738 15.356068 -17.695896
-1.0038315 14.053638 -18.691223
-0.98664665 12.826407 -19.550463
-0.97364402 11.683727 -20.200594
-0.96212608 10.583385 -20.776493
-0.95108253 9.5108242 -21.328669
-0.94324946 8.4892445 -21.720322
-0.93621123 7.4896913 -22.072233
-0.93026572 6.5118561 -22.369511
-0.92541867 5.5525112 -22.611866
-0.9211514 4.6057558 -22.825226
-0.91818953 3.6727571 -22.973318
-0.91554606 2.7466373 -23.105492
-0.91403788 1.8280745 -23.180901
-0.9128117 0.91281223 -23.242214
-0.91256058 -9.5367432e-07 -23.254765
-0.91301882 -0.91302109 -23.231855
-0.91389 -1.8277817 -23.188297
-0.91559821 -2.7467947 -23.102886
-0.91883439 -3.6753407 -22.941072
-0.92252713 -4.6126347 -22.756441
-0.92627096 -5.5576258 -22.569248
-0.93068266 -6.51478 -22.34866
-0.93684351 -7.4947519 -22.040621
-0.94424856 -8.4982367 -21.670366
-0.95214623 -9.5214615 -21.275486
-0.96259511 -10.588546 -20.75304
-0.97442234 -11.693068 -20.161678
-0.9890663 -12.857863 -19.429478
-1.0055001 -14.077002 -18.607796
-1.0256597 -15.384897 -17.59981
-1.0523875 -16.838198 -16.263426
-1.0912514 -18.551273 -14.320227
-1.1586201 -20.85516 -10.951797
0 20.673555 -11.456249
0 18.471416 -14.555102
0 16.783041 -16.435787
0 15.360125 -17.682377
0 14.047504 -18.713131
0 12.840023 -19.498079
0 11.681467 -20.210016
0 10.581962 -20.782963
0 9.5190392 -21.287598
0 8.492979 -21.699577
0 7.4928722 -22.052341
0 6.5141573 -22.3531
0 5.5543165 -22.596823
0 4.6072474 -22.810326
0 3.6736355 -22.962315
0 2.7472935 -23.094551
0 1.8284016 -23.172722
0 0.91308308 -23.228746
0 -9.5367432e-07 -23.240532
0 -0.91297722 -23.233929
0 -1.8284445 -23.171682
0 -2.7480774 -23.08152
0 -3.6742468 -22.954714
0 -4.6115656 -22.767149
0 -5.556201 -22.581108
0 -6.5180211 -22.325504
0 -7.4965615 -22.029299
0 -8.4992123 -21.664963
0 -9.5265627 -21.249981
0 -10.591398 -20.740078
0 -11.700119 -20.132303
0 -12.856639 -19.434189
0 -14.069571 -18.634327
0 -15.386025 -17.59605
0 -16.846571 -16.237259
0 -18.531609 -14.378073
0 -20.853733 -10.955759
1.1534666 20.762396 -11.209468
1.0886084 18.506344 -14.452374
1.0519608 16.831371 -16.284756
1.025918 15.388768 -17.586895
1.0050291 14.070404 -18.631346
0.98906326 12.857822 -19.429628
0.97372067 11.684647 -20.196764
0.96250588 10.587564 -20.757502
0.95274091 9.5274096 -21.245747
0.94430125 8.4987106 -21.667736
0.93753397 7.5002708 -22.006094
0.93129677 6.5190744 -22.317959
0.92655092 5.5593071 -22.555248
0.92214912 4.6107454 -22.775337
0.9191677 3.676671 -22.924412
0.91628635 2.7488594 -23.068478
0.91498643 1.8299723 -23.133474
0.91374463 0.91374302 -23.195564
0.91365391 -1.9073486e-06 -23.200104
0.91402495 -0.91402245 -23.181549
0.91515553 -1.8303108 -23.125019
0.91682935 -2.7504902 -23.041332
0.91979551 -3.679184 -22.893021
0.92355967 -4.6177998 -22.704815
0.92725837 -5.5635514 -22.519876
0.93204391 -6.5243087 -22.280603
0.93817621 -7.5054088 -21.973984
0.94553304 -8.509799 -21.606144
0.95365286 -9.5365295 -21.200155
0.9638204 -10.602024 -20.69178
0.97623718 -11.714847 -20.070932
0.99017709 -12.872304 -19.37394
1.0067582 -14.094613 -18.544886
1.0276674 -15.415012 -17.499428
1.0553207 -16.885132 -16.11676
1.0942605 -18.602428 -14.16977
1.1719612 -21.095301 -10.284737
2.3446312 21.101677 -10.267022
2.1871305 18.590607 -14.204535
2.1131012 16.904808 -16.055264
2.0586348 15.439761 -17.416924
2.016077 14.112538 -18.480871
1.9820555 12.883362 -19.331406
1.9548879 11.729326 -20.010597
1.9300221 10.61512 -20.632242
1.9100621 9.5503092 -21.131243
1.8928124 8.5176544 -21.562487
1.8788995 7.5155978 -21.910309
1.8661416 6.531496 -22.229259
1.856603 5.569808 -22.46772
1.8479995 4.6199989 -22.682806
1.8418177 3.6836338 -22.837349
1.8363477 2.7545204 -22.974106
1.8332931 1.8332939 -23.05047
1.8306183 0.91530991 -23.11734
1.8305558 9.5367432e-07 -23.1189
1.8309776 -0.91548824 -23.108356
1.833246 -1.8332453 -23.051643
1.8370919 -2.7556391 -22.955498
1.8421763 -3.6843519 -22.828388
1.8496246 -4.6240625 -22.642181
1.8571334 -5.5714002 -22.454464
1.8678744 -6.5375609 -22.185936
1.8796347 -7.518539 -21.891926
1.8946455 -8.5259037 -21.516663
1.912065 -9.5603247 -21.081173
1.9320092 -10.626053 -20.582565
1.9556899 -11.73414 -19.990547
1.9845061 -12.89929 -19.270145
2.019119 -14.133835 -18.404819
2.0618265 -15.4637 -17.337135
2.118645 -16.949158 -15.916677
2.2037547 -18.731915 -13.788932
2.3774188 -21.39677 -9.4473295
3.7127821 22.27669 -7.0030956
3.3164871 18.793427 -13.608009
3.1894207 17.010244 -15.725781
3.1029379 15.514691 -17.167162
3.0375688 14.17532 -18.256649
2.9844148 12.932464 -19.142548
2.9436238 11.774494 -19.822403
2.9041944 10.648712 -20.479557
2.8736122 9.5787058 -20.98926
2.8470047 8.5410137 -21.43272
2.8260956 7.5362549 -21.7812
2.8067884 6.5491705 -22.102991
2.7919998 5.5839977 -22.349468
2.7787809 4.6313 -22.569782
2.7692564 3.6923399 -22.728523
2.76072 2.7607203 -22.870792
2.7567158 1.8378105 -22.937534
2.752723 0.91757298 -23.004078
2.753736 1.9073486e-06 -22.987198
2.7554176 -0.91847324 -22.959167
2.7575269 -1.8383512 -22.924019
2.7623236 -2.7623253 -22.84407
2.7704642 -3.6939535 -22.708393
2.7809658 -4.634944 -22.533363
2.7935507 -5.5871019 -22.323616
2.8091404 -6.5546622 -22.063789
2.8279831 -7.5412898 -21.749744
2.850106 -8.5503178 -21.381031
2.8763261 -9.5877514 -20.944031
2.9075267 -10.660929 -20.424019
2.9449077 -11.779633 -19.801003
2.9888866 -12.951843 -19.068018
3.0426614 -14.199089 -18.17177
3.1095438 -15.547721 -17.057066
3.1987834 -17.060179 -15.56974
3.3352077 -18.899511 -13.296003
4.4760432 19.023186 -12.932252
4.2857184 17.142872 -15.311317
4.165916 15.622183 -16.808847
4.0738678 14.258535 -17.959452
4.0009494 13.003084 -18.870928
3.9421749 11.826525 -19.605604
3.8900924 10.697754 -20.256641
3.848067 9.6201649 -20.781956
3.811223 8.5752506 -21.242506
3.782588 7.5651755 -21.600449
3.7565379 6.5739412 -21.926073
3.7366924 5.6050386 -22.174143
3.7187304 4.6484137 -22.398666
3.7058091 3.7058086 -22.560184
3.694355 2.7707663 -22.703358
3.6880682 1.8440342 -22.781946
3.6820869 0.92052078 -22.85671
3.6836145 9.5367432e-07 -22.837614
3.6860089 -0.92150211 -22.807686
3.6888077 -1.8444042 -22.772697
3.694896 -2.7711725 -22.696596
3.707047 -3.7070503 -22.544712
3.7192888 -4.6491127 -22.391689
3.7384503 -5.6076779 -22.152168
3.7594671 -6.5790696 -21.889456
3.7846453 -7.5692911 -21.574732
3.815007 -8.5837669 -21.195208
3.8522475 -9.630619 -20.729708
3.8943524 -10.709469 -20.203392
3.9437332 -11.831201 -19.58613
4.0052314 -13.017003 -18.817398
4.0802336 -14.280818 -17.879879
4.1746569 -15.654963 -16.699583
4.3080931 -17.232372 -15.031633
4.5006595 -19.127802 -12.624556
5.7116508 19.419611 -11.766289
5.4238877 17.356441 -14.643915
5.256248 15.768742 -16.320318
5.1294923 14.362576 -17.587875
5.0361857 13.094083 -18.520937
4.9505658 11.881359 -19.377138
4.8880959 10.753811 -20.001837
4.8347397 9.6694775 -20.5354
4.7872024 8.6169624 -21.010777
4.7505412 7.6008639 -21.377388
4.7168145 6.6035371 -21.714653
4.6912503 5.6295013 -21.970291
4.6673565 4.6673565 -22.209232
4.6510463 3.7208347 -22.372334
4.6363854 2.7818298 -22.518942
4.6295424 1.8518152 -22.587372
4.6229987 0.92459774 -22.652809
4.6224542 -1.9073486e-06 -22.658255
4.6233974 -0.92468071 -22.648823
4.628983 -1.851594 -22.592962
4.6400757 -2.7840471 -22.48204
4.6524177 -3.7219362 -22.358618
4.6717196 -4.6717215 -22.1656
4.6933441 -5.6320133 -21.949356
4.7210908 -6.6095276 -21.671892
4.7549491 -7.6079197 -21.333305
4.7934341 -8.6281815 -20.948456
4.8398581 -9.6797161 -20.484217
4.8960977 -10.771416 -19.921822
4.9608064 -11.905939 -19.274731
5.0421352 -13.109552 -18.461445
5.1404381 -14.393227 -17.478416
5.2681389 -15.804417 -16.201406
5.4505458 -17.441746 -14.377338
5.7596946 -19.582964 -11.285847
7.1051722 20.131321 -9.673027
6.6123047 17.632812 -13.780253
6.3735356 15.933839 -15.769995
6.2195678 14.512324 -17.053062
6.0940809 13.20384 -18.098791
5.9946423 11.989285 -18.927443
5.9086666 10.832555 -19.643906
5.8402038 9.7336721 -20.214432
5.78126 8.6718893 -20.705631
5.7354455 7.6472611 -21.087416
5.693069 6.6419115 -21.440554
5.6616378 5.6616373 -21.702482
5.6319962 4.6933308 -21.949493
5.6123528 3.7415676 -22.11319
5.593802 2.7968998 -22.267776
5.5838699 1.861289 -22.350544
5.5749068 0.92915058 -22.425241
5.5751162 -1.9073486e-06 -22.423496
5.5797553 -0.92996025 -22.384832
5.5877156 -1.8625717 -22.318497
5.6001291 -2.800065 -22.215054
5.6147847 -3.7431889 -22.092926
5.6397276 -4.6997747 -21.885063
5.6665559 -5.6665559 -21.661501
5.7001448 -6.6501684 -21.381594
5.7380018 -7.6506705 -21.066113
5.7892852 -8.6839294 -20.638752
5.8460736 -9.7434559 -20.165514
5.9173036 -10.84839 -19.571932
5.9989076 -11.997812 -18.891903
6.0975833 -13.21143 -18.069605
6.225925 -14.52716 -17.000084
6.391912 -15.97978 -15.616862
6.6395426 -17.70545 -13.55327
7.2476358 -20.534969 -8.4858322
7.8956428 18.04718 -12.485351
7.5548129 16.188883 -14.919848
7.347682 14.695362 -16.399351
7.1708422 13.317278 -17.662493
7.0603385 12.103437 -18.451809
6.953361 10.926707 -19.215933
6.8653989 9.8077126 -19.844234
6.7932506 8.7341766 -20.359579
6.7376623 7.7001853 -20.756636
6.6852374 6.6852365 -21.131104
6.6471467 5.6975508 -21.403177
6.6103215 4.7216578 -21.66621
6.5885339 3.7648754 -21.821838
6.5679421 2.8148298 -21.968922
6.5548711 1.8728199 -22.06229
6.5463943 0.93519688 -22.122837
6.5440555 -0 -22.139544
6.5515151 -0.93593121 -22.086256
6.559432 -1.8741236 -22.029709
6.5738649 -2.8173714 -21.92662
6.5961156 -3.7692108 -21.767687
6.6228561 -4.7306132 -21.576677
6.6577549 -5.7066474 -21.327408
6.697361 -6.6973596 -21.044504
6.7432485 -7.7065697 -20.716734
6.8047419 -8.7489529 -20.2775
6.8734217 -9.8191738 -19.786928
6.9618273 -10.940013 -19.15546
7.0674047 -12.115551 -18.401339
7.1949353 -13.362023 -17.490402
7.3560796 -14.71216 -16.339371
7.5801826 -16.24325 -14.738636
7.9474807 -18.165672 -12.115079
9.3792076 18.758413 -10.262747
8.8081722 16.51532 -13.83172
8.5128555 14.897496 -15.677448
8.319582 13.51932 -16.885412
8.1568995 12.235347 -17.90218
8.0316038 11.043455 -18.68527
7.9287109 9.9108868 -19.328358
7.8375001 8.8171864 -19.898422
7.7684708 7.7684679 -20.329857
7.7113714 6.7474504 -20.686728
7.6605258 5.7453957 -21.004507
7.6166058 4.7603769 -21.279011
7.5879178 3.7939587 -21.458309
7.5682669 2.8381014 -21.581129
7.5517511 1.8879385 -21.684353
7.5383515 0.94229412 -21.768101
7.5327053 -9.5367432e-07 -21.803387
7.5379982 -0.9422493 -21.770308
7.545001 -1.8862524 -21.72654
7.5648646 -2.8368244 -21.602394
7.5911841 -3.7955942 -21.437893
7.6189728 -4.7618585 -21.264214
7.6638551 -5.7478909 -20.9837
7.7122717 -6.7482395 -20.681097
7.7766833 -7.7766829 -20.278526
7.8536139 -8.8353157 -19.79771
7.9392729 -9.9240923 -19.262339
8.0368185 -11.050628 -18.652678
8.168519 -12.25278 -17.829554
8.3318319 -13.539228 -16.808846
8.5418615 -14.948258 -15.49616
8.8673897 -16.626358 -13.461609
9.4965563 -18.993114 -9.5293188
10.2223 17.037167 -12.092239
9.7871132 15.224398 -14.509943
9.507988 13.733761 -16.060638
9.3102198 12.413626 -17.159351
9.140111 11.171248 -18.104399
9.0253057 10.028116 -18.742208
8.9135962 8.9135971 -19.362818
8.8256235 7.8449998 -19.851553
8.7626114 6.8153634 -20.201622
8.7032633 5.8021755 -20.531334
8.6468306 4.8037939 -20.844852
8.6083326 3.8259258 -21.05872
8.5852928 2.861762 -21.186729
8.5648813 1.903307 -21.300123
8.5547113 0.95052242 -21.356621
8.5518579 -0 -21.372475
8.5569363 -0.95077229 -21.344265
8.5666542 -1.9037018 -21.290268
8.5891876 -2.8630657 -21.165089
8.6187592 -3.8305578 -21.000805
8.6554346 -4.8085761 -20.79705
8.7084446 -5.8056326 -20.502552
8.7682085 -6.8197184 -20.170528
8.8393326 -7.8571849 -19.775391
8.9303322 -8.930335 -19.269835
9.0314693 -10.034966 -18.707968
9.1635637 -11.199913 -17.974113
9.334013 -12.445352 -17.027172
9.523901 -13.756748 -15.972232
9.8300285 -15.291155 -14.271529
10.313003 -17.188341 -11.588337
11.174915 15.644879 -13.008219
10.793712 14.031825 -14.914236
10.514968 12.61796 -16.307955
10.325836 11.358418 -17.253614
10.159367 10.159365 -18.085964
10.031963 9.0287647 -18.722984
9.9320536 7.945642 -19.222525
9.8368511 6.8857946 -19.69854
9.7667875 5.8600712 -20.048862
9.716979 4.858489 -20.297897
9.6727343 3.8690948 -20.519127
9.6350584 2.8905134 -20.707506
9.6022854 1.920455 -20.871368
9.5947847 0.95947838 -20.908871
9.5915251 -1.9073486e-06 -20.925169
9.5953579 -0.9595356 -20.90601
9.6158276 -1.9231653 -20.803661
9.6371937 -2.891161 -20.696829
9.6743336 -3.8697324 -20.511131
9.721323 -4.8606639 -20.276178
9.7756271 -5.865375 -20.004658
9.8509731 -6.8956819 -19.62793
9.9294195 -7.9435363 -19.235704
10.046839 -9.0421543 -18.648602
10.181705 -10.181706 -17.974274
10.340866 -11.374955 -17.178465
10.542628 -12.651155 -16.169655
10.828687 -14.077291 -14.739365
11.23668 -15.731354 -12.699392
12.996214 16.540634 -9.8091002
12.215969 14.437055 -13.355659
11.831181 12.90674 -15.104706
11.569792 11.569792 -16.292833
11.371664 10.337873 -17.193413
11.191908 9.1570148 -18.010487
11.08117 8.0590305 -18.513845
10.974812 6.9839706 -18.997292
10.883811 5.9366226 -19.410929
10.813828 4.9153752 -19.729038
10.761494 3.913269 -19.966919
10.722607 2.9243469 -20.143673
10.698272 1.9451389 -20.254288
10.682711 0.97115326 -20.32502
10.670668 -0 -20.379761
10.678199 -0.97074509 -20.345528
10.698012 -1.945096 -20.255466
10.717867 -2.9230528 -20.16522
10.767843 -3.9155803 -19.938055
10.823249 -4.9196572 -19.686211
10.889636 -5.9398022 -19.384449
10.986903 -6.9916635 -18.942327
11.093427 -8.0679464 -18.458126
11.22395 -9.1832323 -17.864841
11.386845 -10.351679 -17.124416
11.583079 -11.58308 -16.232433
11.87874 -12.958627 -14.888519
12.275314 -14.507189 -13.085911
13.26597 -16.883966 -8.5829296
14.030325 15.199515 -10.423114
13.292066 13.292066 -13.499189
12.935751 11.85777 -14.983837
12.640967 10.534138 -16.212097
12.463705 9.3477764 -16.950691
12.297491 8.1983261 -17.64325
12.152111 7.0887318 -18.249001
12.061176 6.0305891 -18.627892
11.979838 4.9915972 -18.966805
11.900725 3.966907 -19.296438
11.855061 2.9637642 -19.48671
11.823376 1.9705591 -19.618732
11.801517 0.98345757 -19.709812
11.803428 -0 -19.701845
11.808842 -0.98407078 -19.679291
11.829858 -1.9716444 -19.591721
11.868505 -2.9671259 -19.430696
11.917104 -3.9723673 -19.228193
11.985229 -4.9938464 -18.944342
12.067886 -6.0339417 -18.599939
12.171759 -7.1001954 -18.167135
12.302781 -8.2018557 -17.62121
12.467085 -9.3503122 -16.936607
12.698285 -10.581904 -15.973278
12.962105 -11.881932 -14.874025
13.377106 -13.377105 -13.144856
14.180863 -15.362604 -9.795867
15.302701 14.125569 -10.026251
14.515042 12.281956 -13.055711
14.094839 10.842186 -14.671873
13.815666 9.5646915 -15.745619
13.602306 8.3706493 -16.566235
13.435226 7.2343516 -17.208849
13.305081 6.1408052 -17.709406
13.19518 5.0750675 -18.132107
13.116292 4.0357809 -18.435522
13.068111 3.015718 -18.620827
13.022352 2.003437 -18.796831
12.99404 0.99954033 -18.905722
12.99053 9.5367432e-07 -18.919224
12.987061 -0.99900723 -18.932562
13.0117 -2.0017996 -18.837795
13.057751 -3.0133262 -18.660675
13.109756 -4.0337715 -18.460659
13.211347 -5.0812912 -18.069923
13.314905 -6.1453428 -17.671623
13.458261 -7.2467556 -17.120251
13.63058 -8.3880501 -16.457489
13.841309 -9.5824442 -15.646996
14.134171 -10.872438 -14.520598
14.56304 -12.322573 -12.871101
15.473226 -14.282979 -9.3703909
16.775335 13.180619 -8.9708843
15.83296 11.309257 -12.336511
15.355987 9.8717031 -14.039987
15.058369 8.6047821 -15.102907
14.818856 7.4094276 -15.958309
14.661651 6.2835627 -16.519756
14.519528 5.1855431 -17.02734
14.419759 4.1199298 -17.383656
14.341455 3.0731683 -17.663309
14.28127 2.0401821 -17.878262
14.26454 1.0188913 -17.938007
14.262418 -1.9073486e-06 -17.945587
14.260297 -1.0185919 -17.953167
14.280456 -2.0400648 -17.881172
14.339813 -3.0728197 -17.66918
14.431398 -4.1232591 -17.342087
14.543617 -5.19415 -16.941299
14.658503 -6.2822175 -16.530998
14.84312 -7.4215603 -15.871655
15.077921 -8.6159563 -15.033077
15.405974 -9.903841 -13.861462
15.909946 -11.364249 -12.06156
17.400412 10.440247 -10.881422
16.801403 8.9607458 -12.878119
16.420553 7.6629233 -14.147625
16.185574 6.4742289 -14.930884
15.979304 5.3264341 -15.618447
15.851747 4.2271309 -16.043642
15.754745 3.1509495 -16.366978
15.689154 2.0918851 -16.585617
15.656944 1.0437946 -16.692986
15.638683 -9.5367432e-07 -16.753853
15.646135 -1.0430756 -16.729013
15.699155 -2.0932236 -16.55228
15.756803 -3.1513619 -16.360119
15.869673 -4.231915 -15.983886
16.016045 -5.338685 -15.495984
16.211664 -6.4846673 -14.843916
16.445276 -7.6744623 -14.065208
16.86297 -8.9935856 -12.672898
17.470184 -10.48211 -10.648853
18.564589 8.1220074 -10.868462
18.07601 6.7785034 -12.395266
17.697781 5.5305562 -13.577234
17.528551 4.3821387 -14.106075
17.373425 3.2575169 -14.590848
17.282167 2.1602678 -14.876019
17.212269 1.0757647 -15.09446
17.175352 -1.9073486e-06 -15.209823
17.212555 -1.0757842 -15.09356
17.250671 -2.1563344 -14.974445
17.375946 -3.2579918 -14.58297
17.540375 -4.3850946 -14.069126
17.767336 -5.5522919 -13.359877
18.124556 -6.7967081 -12.243563
18.66181 -8.1645422 -10.564639
19.89646 4.6815186 -10.363795
19.499695 3.4411244 -11.530751
19.308857 2.2716289 -12.09204
19.194979 1.1291137 -12.426977
19.12212 -9.5367432e-07 -12.641267
19.203131 -1.1295981 -12.402996
19.286871 -2.2690444 -12.156708
19.55147 -3.4502604 -11.378474
19.965874 -4.6978521 -10.159634
