# .PCD v0.7 - Point Cloud Data file format
VERSION 0.7
FIELDS x y z
SIZE 4 4 4
TYPE F F F
COUNT 1 1 1
WIDTH 1058
HEIGHT 1
VIEWPOINT 0 0 0 1 0 0 0
POINTS 1058
DATA ascii
-23.196018 -1.2208447 -7.8406444
-21.736706 7.2455711 -8.5030575
-20.767311 5.7686963 -11.195818
-20.331444 4.5180979 -12.406565
-20.131136 3.355186 -12.962975
-19.972263 2.2191405 -13.404285
-19.861399 1.1034093 -13.712245
-19.874756 1.9073486e-06 -13.675142
-19.921301 -1.106741 -13.545851
-19.977291 -2.2197022 -13.390321
-20.117712 -3.3529553 -13.000263
-20.405281 -4.5345092 -12.201465
-20.832886 -5.7869115 -11.013672
-19.93285 9.3801661 -10.256766
-19.188248 7.9010415 -12.446774
-18.791233 6.6321993 -13.614462
-18.52853 5.4495645 -14.387121
-18.345804 4.316658 -14.924553
-18.190321 3.2100568 -15.381851
-18.105383 2.1300459 -15.631668
-18.064194 1.0626006 -15.75281
-18.035194 -4.7683716e-07 -15.838105
-18.069445 -1.0629091 -15.73737
-18.119595 -2.1317172 -15.589872
-18.226805 -3.2164969 -15.274549
-18.335289 -4.314187 -14.955474
-18.54442 -5.4542437 -14.340387
-18.815403 -6.640729 -13.543379
-19.2507 -7.9267597 -12.263092
-20.000984 -9.4122267 -10.056375
-19.118994 11.949371 -9.1359434
-18.068146 10.16333 -12.419848
-17.603155 8.8015757 -13.872934
-17.277704 7.5589952 -14.889973
-17.053623 6.3951063 -15.590225
-16.854567 5.2670512 -16.212271
-16.720642 4.1801586 -16.630791
-16.646587 3.121233 -16.862211
-16.573238 2.0716538 -17.091427
-16.534973 1.0334339 -17.211006
-16.520596 -1.9073486e-06 -17.255932
-16.53816 -1.0336342 -17.20105
-16.566679 -2.0708346 -17.111925
-16.6411 -3.1202064 -16.879362
-16.750286 -4.1875734 -16.538153
-16.894161 -5.2794285 -16.088543
-17.061535 -6.398077 -15.565501
-17.311626 -7.5738373 -14.783964
-17.61767 -8.808835 -13.827573
-18.152029 -10.210516 -12.157703
-19.433155 -12.145723 -8.1541834
-17.339724 12.715796 -11.083722
-16.6609 11.107265 -13.346465
-16.249098 9.7494583 -14.719133
-15.93847 8.5005169 -15.754565
-15.726772 7.3391604 -16.460222
-15.556686 6.2226734 -17.027172
-15.429497 5.1431642 -17.451141
-15.333827 4.0890212 -17.770039
-15.243187 3.0486364 -18.07217
-15.189135 2.0252171 -18.252346
-15.172473 1.0115004 -18.307882
-15.160323 -1.9073486e-06 -18.348385
-15.15623 -1.0104151 -18.36203
-15.195303 -2.026042 -18.231787
-15.261404 -3.0522833 -18.011452
-15.33714 -4.0899024 -17.758995
-15.420969 -5.1403241 -17.479565
-15.575157 -6.2300644 -16.965601
-15.754436 -7.3520718 -16.368008
-15.982372 -8.5239325 -15.608219
-16.286926 -9.7721577 -14.593044
-16.708996 -11.139332 -13.186143
-17.407627 -12.765592 -10.857371
-15.999097 13.713512 -11.743163
-15.392185 12.093857 -13.910711
-15.005909 10.718508 -15.290261
-14.729379 9.4688845 -16.277874
-14.523319 8.2990379 -17.013802
-14.356948 7.1784716 -17.607983
-14.218534 6.0936546 -18.102318
-14.114882 5.0410295 -18.472506
-14.027608 4.0078864 -18.784199
-13.974051 2.9944391 -18.975475
-13.937178 1.9910259 -19.107159
-13.900629 0.99290085 -19.237694
-13.88448 9.5367432e-07 -19.295368
-13.897028 -0.99264622 -19.250555
-13.922493 -1.9889288 -19.159609
-13.969674 -2.9934998 -18.991104
-14.029617 -4.0084624 -18.777023
-14.114041 -5.040731 -18.475504
-14.221183 -6.0947962 -18.092859
-14.362166 -7.1810813 -17.589348
-14.540286 -8.3087349 -16.953205
-14.73564 -9.4729147 -16.255508
-15.037863 -10.741332 -15.176139
-15.431354 -12.124639 -13.770818
-16.114399 -13.812344 -11.331374
-14.831919 14.831918 -11.836954
-14.241027 13.145559 -14.109618
-13.867459 11.734002 -15.546416
-13.603588 10.464298 -16.561302
-13.391021 9.2707081 -17.378874
-13.22379 8.1377172 -18.022064
-13.083805 7.045125 -18.560471
-12.989521 5.9951601 -18.9231
-12.901278 4.9620318 -19.262493
-12.827429 3.9468989 -19.546532
-12.778027 2.9487734 -19.736542
-12.744512 1.9606943 -19.865444
-12.717549 0.97827148 -19.969149
-12.704379 1.9073486e-06 -20.019798
-12.716042 -0.97815704 -19.974947
-12.731984 -1.9587679 -19.913626
-12.774241 -2.9479027 -19.751102
-12.82 -3.9446168 -19.575108
-12.89762 -4.9606218 -19.276566
-12.979688 -5.9906254 -18.960918
-13.098142 -7.0528445 -18.505329
-13.232532 -8.143096 -17.988441
-13.397838 -9.2754269 -17.352652
-13.623878 -10.479906 -16.483265
-13.911218 -11.771034 -15.378114
-14.293817 -13.194293 -13.906578
-14.897248 -14.897246 -11.585688
-13.772296 16.067677 -11.498235
-13.16582 14.26297 -14.025215
-12.782216 12.782216 -15.62356
-12.524824 11.481087 -16.696032
-12.307641 10.256367 -17.600956
-12.15345 9.1150856 -18.243423
-12.013601 8.0090675 -18.826122
-11.906082 6.9452133 -19.27412
-11.813646 5.9068232 -19.659269
-11.734746 4.8894763 -19.988026
-11.689918 3.896636 -20.174805
-11.646451 2.9116116 -20.355917
-11.605571 1.9342632 -20.526249
-11.592438 0.96603489 -20.580973
-11.587116 -2.8610229e-06 -20.603146
-11.593377 -0.96611595 -20.577053
-11.611643 -1.9352732 -20.500952
-11.641816 -2.9104557 -20.375233
-11.685709 -3.8952379 -20.192341
-11.745024 -4.8937593 -19.945198
-11.81755 -5.9087758 -19.643002
-11.91126 -6.9482341 -19.252546
-12.016144 -8.0107632 -18.815529
-12.157237 -9.1179295 -18.227642
-12.32764 -10.273033 -17.517633
-12.53515 -11.490552 -16.653006
-12.815769 -12.815773 -15.483759
-13.215379 -14.316664 -13.818723
-13.866597 -16.177698 -11.105304
-12.927493 17.628399 -10.121462
-12.139894 15.450773 -13.701457
-11.772635 13.91311 -15.37082
-11.496785 12.541945 -16.624681
-11.282905 11.282902 -17.59687
-11.11607 10.105515 -18.355207
-10.983324 8.9863548 -18.958597
-10.868007 7.9040031 -19.482771
-10.782339 6.8614874 -19.872166
-10.702477 5.8377137 -20.235178
-10.639688 4.8362207 -20.520582
-10.593807 3.8522911 -20.72913
-10.556908 2.8791561 -20.896854
-10.532753 1.9150438 -21.006645
-10.522141 0.95655537 -21.054886
-10.511518 -0 -21.103167
-10.506371 -0.95512676 -21.126568
-10.527429 -1.9140825 -21.030849
-10.551023 -2.8775511 -20.923599
-10.592063 -3.8516569 -20.737053
-10.638473 -4.8356686 -20.526104
-10.702411 -5.8376808 -20.235474
-10.778465 -6.8590221 -19.889771
-10.870543 -7.9058499 -19.471237
-10.988472 -8.9905682 -18.935196
-11.122251 -10.111136 -18.32711
-11.308964 -11.308963 -17.478418
-11.507998 -12.554178 -16.573717
-11.790632 -13.934383 -15.289012
-12.190561 -15.515259 -13.471153
-13.057861 -17.806171 -9.528883
-11.20866 16.812986 -12.839499
-10.783404 15.096762 -14.965777
-10.480555 13.624718 -16.480026
-10.287054 12.344463 -17.447527
-10.111455 11.1226 -18.325523
-9.9825487 9.9825468 -18.970055
-9.8601179 8.8741045 -19.582205
-9.7686844 7.8149471 -20.039377
-9.6970119 6.787909 -20.397738
-9.626729 5.7760367 -20.749153
-9.5823574 4.7911787 -20.971006
-9.5383654 3.8153458 -21.190968
-9.4968204 2.8490467 -21.398691
-9.4848413 1.8969698 -21.45859
-9.4766302 0.94766331 -21.499647
-9.4684057 -9.5367432e-07 -21.540771
-9.4684887 -0.94684982 -21.540352
-9.4826059 -1.8965235 -21.469769
-9.5039444 -2.8511829 -21.363075
-9.5366411 -3.8146572 -21.199589
-9.5765696 -4.7882853 -20.99995
-9.6311941 -5.7787209 -20.726824
-9.6932154 -6.7852497 -20.416723
-9.7769642 -7.8215728 -19.997976
-9.8708544 -8.88377 -19.528528
-9.9851494 -9.9851513 -18.957047
-10.125484 -11.138032 -18.255375
-10.293964 -12.352757 -17.412977
-10.508616 -13.661202 -16.339712
-10.802443 -15.123421 -14.870581
-11.258615 -16.887926 -12.589717
-10.372166 18.439407 -11.259651
-9.8320971 16.386827 -14.260034
-9.5322695 14.827972 -15.92574
-9.3095322 13.4471 -17.163174
-9.1359606 12.181278 -18.127464
-8.9943094 10.993045 -18.914412
-8.889658 9.8773956 -19.495806
-8.7898407 8.7898407 -20.050344
-8.7166471 7.7481318 -20.456978
-8.6446877 6.7236466 -20.85675
-8.5872269 5.7248154 -21.175983
-8.5510998 4.7506104 -21.376686
-8.515276 3.784565 -21.575705
-8.4874048 2.829134 -21.730549
-8.4715672 1.8825703 -21.818531
-8.4557638 0.93952751 -21.906334
-8.4468861 -9.5367432e-07 -21.95565
-8.4531479 -0.93924046 -21.920866
-8.4641647 -1.880929 -21.859657
-8.4852915 -2.8284321 -21.74229
-8.5120487 -3.7831326 -21.593639
-8.5489302 -4.7494078 -21.388742
-8.5939016 -5.7292676 -21.138897
-8.6485863 -6.7266793 -20.835098
-8.7164898 -7.7479925 -20.457853
-8.7931509 -8.7931519 -20.031961
-8.8917599 -9.879735 -19.484131
-9.0040112 -11.004904 -18.860512
-9.1449594 -12.19328 -18.077463
-9.3200464 -13.462289 -17.104759
-9.5582533 -14.868395 -15.78139
-9.8651161 -16.441864 -14.076594
-10.440285 -18.560509 -10.881216
-8.9308157 17.861628 -13.065201
-8.5770054 16.081884 -15.276513
-8.347743 14.608552 -16.709398
-8.175808 13.285685 -17.783998
-8.0373201 12.055977 -18.649544
-7.9261479 10.898451 -19.344374
-7.825851 9.7823105 -19.971231
-7.746592 8.7149143 -20.466595
-7.6869659 7.6869655 -20.839256
-7.6282506 6.6747189 -21.20623
-7.5842299 5.6881733 -21.481359
-7.5455098 4.7159452 -21.723362
-7.5098104 3.7549047 -21.946482
-7.492022 2.8095083 -22.057661
-7.4797459 1.8699341 -22.134384
-7.4676404 0.93345642 -22.210045
-7.4642196 -0 -22.231422
-7.4682031 -0.93352604 -22.206524
-7.4743176 -1.8685799 -22.168312
-7.4909759 -2.8091173 -22.064198
-7.5120454 -3.7560234 -21.932514
-7.5436306 -4.7147684 -21.735107
-7.5789604 -5.6842194 -21.51429
-7.6284537 -6.6748972 -21.204958
-7.6829057 -7.6829057 -20.864635
-7.7521672 -8.7211876 -20.431755
-7.8323498 -9.7904377 -19.930611
-7.9268794 -10.89946 -19.339798
-8.0432463 -12.06487 -18.612509
-8.1861801 -13.302545 -17.719168
-8.3676033 -14.643306 -16.585279
-8.5982018 -16.121628 -15.144036
-8.9743357 -17.948671 -12.793201
-8.1379385 19.763565 -10.754663
-7.6664972 17.52342 -14.122106
-7.4101348 15.878859 -15.953263
-7.2209034 14.441807 -17.304914
-7.0849633 13.157789 -18.275913
-6.9671454 11.943678 -19.117472
-6.8790464 10.809928 -19.74675
-6.7989502 9.7127857 -20.318863
-6.7348628 8.6591072 -20.776638
-6.6777663 7.6317301 -21.184467
-6.6279421 6.6279407 -21.540352
-6.5941463 5.6521254 -21.781752
-6.5631967 4.6879969 -22.002819
-6.5337682 3.7335796 -22.213024
-6.5178699 2.7933702 -22.326584
-6.5045457 1.8584414 -22.421753
-6.4940643 0.92772007 -22.496622
-6.4956937 -1.9073486e-06 -22.484985
-6.4991417 -0.92844868 -22.460358
-6.5035133 -1.8581457 -22.429129
-6.5155134 -2.7923651 -22.343414
-6.5360999 -3.7349167 -22.196365
-6.5619159 -4.6870804 -22.011969
-6.594069 -5.6520586 -21.782305
-6.6330357 -6.633038 -21.503971
-6.6798258 -7.6340842 -21.169756
-6.7368965 -8.661726 -20.762102
-6.8045774 -9.7208233 -20.278675
-6.8852067 -10.819613 -19.702747
-6.976552 -11.959805 -19.050278
-7.0907173 -13.168475 -18.234818
-7.2522383 -14.504478 -17.081089
-7.4213638 -15.902925 -15.873055
-7.6857209 -17.567364 -13.984786
-8.2574339 -20.053768 -9.9011278
-6.7949147 19.252256 -12.258507
-6.4751849 17.267157 -14.922927
-6.2846079 15.711519 -16.511063
-6.138835 14.323948 -17.725834
-6.026072 13.056486 -18.665531
-5.9309897 11.86198 -19.45788
-5.8590937 10.74167 -20.057014
-5.7912817 9.6521349 -20.622112
-5.7409873 8.6114807 -21.041233
-5.6931195 7.5908237 -21.440132
-5.6525717 6.5946655 -21.77803
-5.6231565 5.6231546 -22.023159
-5.5972071 4.6643372 -22.239403
-5.5751643 3.7167749 -22.423096
-5.5616593 2.7808304 -22.535633
-5.5482197 1.8494053 -22.647629
-5.5383539 0.92305851 -22.729847
-5.5402131 9.5367432e-07 -22.714354
-5.544301 -0.92405033 -22.680283
-5.5483952 -1.8494635 -22.646168
-5.5582976 -2.77915 -22.563652
-5.5748744 -3.7165861 -22.425508
-5.5947261 -4.6622734 -22.26008
-5.6221409 -5.6221423 -22.03162
-5.6526875 -6.5948029 -21.777061
-5.6939592 -7.5919461 -21.43314
-5.7396731 -8.6095095 -21.052185
-5.7930541 -9.6550903 -20.607342
-5.8625984 -10.7481 -20.027807
-5.9450865 -11.890174 -19.340406
-6.0777955 -13.168557 -18.234499
-6.2162042 -14.504478 -17.081089
-6.3610854 -15.902713 -15.873755
-6.51299 -17.367973 -14.607878
-6.8306084 -19.353392 -11.961058
-5.5581608 18.897743 -13.301192
-5.3435211 17.099268 -15.447583
-5.1953402 15.586019 -16.929396
-5.0783367 14.219339 -18.09943
-4.9928536 12.981419 -18.95426
-4.9188471 11.805229 -19.69433
-4.8563347 10.683935 -20.319452
-4.7996964 9.5993919 -20.885836
-4.7618017 8.5712395 -21.26478
-4.7245002 7.5592012 -21.637793
-4.6929746 6.5701647 -21.953051
-4.6676273 5.6011486 -22.206524
-4.6425524 4.6425486 -22.457275
-4.626029 3.7008228 -22.622505
-4.616447 2.7698669 -22.718328
-4.606904 1.8427601 -22.813751
-4.6006083 0.92012215 -22.876711
-4.6004634 -1.9073486e-06 -22.878159
-4.6003323 -0.92006874 -22.879475
-4.6028719 -1.8411493 -22.85408
-4.6134157 -2.7680511 -22.74864
-4.6266408 -3.701313 -22.61639
-4.6445756 -4.644577 -22.437042
-4.6664495 -5.5997376 -22.218302
-4.6932344 -6.5705285 -21.950451
-4.7246528 -7.5594454 -21.636267
-4.762013 -8.5716228 -21.262669
-4.8065925 -9.6131859 -20.816872
-4.8568473 -10.685064 -20.314323
-4.9542694 -11.890245 -19.340105
-5.0647979 -13.168475 -18.234818
-5.1801538 -14.504432 -17.081259
-5.3008871 -15.902661 -15.873928
-5.4274921 -17.367973 -14.607878
-5.5930314 -19.016304 -12.95248
-4.7591796 21.416306 -9.393055
-4.397872 18.690956 -13.909394
-4.2377639 16.951054 -15.910749
-4.1302686 15.488503 -17.254446
-4.044239 14.154834 -18.329811
-3.9723315 12.910077 -19.228655
-3.9163659 11.749094 -19.928226
-3.8704545 10.643747 -20.502113
-3.8289528 9.5723801 -21.020885
-3.7956483 8.540205 -21.437195
-3.7639301 7.5278597 -21.833673
-3.7404816 6.5458422 -22.126778
-3.7220633 5.5830936 -22.357006
-3.7040069 4.6300068 -22.582708
-3.6912723 3.6912708 -22.741892
-3.6811919 2.7608929 -22.867899
-3.6724017 1.8361998 -22.97777
-3.6688015 0.91719913 -23.022778
-3.6691675 -9.5367432e-07 -23.018202
-3.6702452 -0.91756248 -23.00473
-3.6734605 -1.83673 -22.96454
-3.6819918 -2.7614965 -22.857895
-3.6910818 -3.691082 -22.74427
-3.7039537 -4.6299448 -22.583376
-3.7202024 -5.5803041 -22.380262
-3.7408295 -6.546453 -22.122427
-3.765075 -7.5301518 -21.819359
-3.7954803 -8.5398283 -21.439295
-3.8298185 -9.5745468 -21.010063
-3.8789799 -10.667196 -20.395546
-3.963501 -11.890501 -19.339035
-4.0518126 -13.168391 -18.235134
-4.1441097 -14.504385 -17.081427
-4.2406955 -15.902609 -15.8741
-4.3419933 -17.367973 -14.607878
-4.4482493 -18.90506 -13.279676
-3.484252 20.90551 -10.811932
-3.2725666 18.544546 -14.340016
-3.1611834 16.859644 -16.196405
-3.0784409 15.392205 -17.575445
-3.0217304 14.101408 -18.520624
-2.9691427 12.866283 -19.397083
-2.9286761 11.714705 -20.071527
-2.8939917 10.611301 -20.649601
-2.8639882 9.546627 -21.149656
-2.8391433 8.5174294 -21.563744
-2.8163595 7.5102916 -21.943466
-2.7990174 6.5310373 -22.232506
-2.7846234 5.5692444 -22.472406
-2.771148 4.6185789 -22.696999
-2.7623315 3.6831064 -22.843937
-2.7548044 2.7548037 -22.969387
-2.7481627 1.8321066 -23.080086
-2.7455525 0.91518307 -23.123589
-2.745615 -1.9073486e-06 -23.122547
-2.7464118 -0.91547108 -23.109268
-2.7495401 -1.8330269 -23.057127
-2.755913 -2.7559156 -22.950909
-2.7623079 -3.6830778 -22.84433
-2.7712038 -4.6186714 -22.696068
-2.7851617 -5.5703244 -22.463436
-2.7996261 -6.5324636 -22.222359
-2.8181517 -7.5150709 -21.913601
-2.8394523 -8.5183582 -21.558592
-2.864974 -9.5499134 -21.133228
-2.909235 -10.667196 -20.395546
-2.9726899 -11.890759 -19.337967
-3.0388501 -13.168352 -18.235294
-3.1080723 -14.504341 -17.081591
-3.1805112 -15.902555 -15.874279
-3.256495 -17.367973 -14.607878
-3.3361869 -18.90506 -13.279676
-3.5313799 -21.188282 -10.026465
-2.3036387 20.732746 -11.291828
-2.1722279 18.463932 -14.577107
-2.1023479 16.818783 -16.324095
-2.0473001 15.354752 -17.700293
-2.0091546 14.064081 -18.653933
-1.9758918 12.843298 -19.485497
-1.9489391 11.693632 -20.159317
-1.9245917 10.585256 -20.768005
-1.9051266 9.525631 -21.254631
-1.8897725 8.503973 -21.638485
-1.8748877 7.4995508 -22.010601
-1.8632298 6.5213051 -22.302052
-1.8531926 5.5595779 -22.552979
-1.8433316 4.6083298 -22.799503
-1.8382462 3.6764898 -22.926643
-1.8338624 2.7507915 -23.036236
-1.8300561 1.8300552 -23.131393
-1.8281745 0.91408634 -23.178432
-1.8277073 -2.8610229e-06 -23.190117
-1.8273441 -0.91367435 -23.199196
-1.8296973 -1.8296976 -23.140366
-1.8343954 -2.7515955 -23.022905
-1.8391234 -3.6782503 -22.904715
-1.8454244 -4.6135635 -22.747183
-1.8543673 -5.5631037 -22.523613
-1.8637747 -6.5232115 -22.288429
-1.8750134 -7.5000553 -22.007462
-1.8891901 -8.5013552 -21.653048
-1.9062889 -9.5314445 -21.225574
-1.93949 -10.667196 -20.395546
-1.9817932 -11.890759 -19.337967
-2.0258934 -13.168309 -18.235455
-2.0720415 -14.504289 -17.081758
-2.1203339 -15.902504 -15.874451
-2.1709967 -17.367973 -14.607878
-2.2241247 -18.90506 -13.279676
-2.332253 -20.990278 -10.576474
-1.1455873 20.620567 -11.603434
-1.0834738 18.41905 -14.709109
-1.0486121 16.777794 -16.45219
-1.0224988 15.337484 -17.757854
-1.0026587 14.037221 -18.749861
-0.98642582 12.823536 -19.561504
-0.97271711 11.672606 -20.246941
-0.96098834 10.570871 -20.833378
-0.95139176 9.5139179 -21.313204
-0.94349289 8.491436 -21.708153
-0.93620855 7.4896674 -22.072369
-0.93046743 6.5132685 -22.359425
-0.92534941 5.5520935 -22.615326
-0.92115408 4.6057711 -22.825092
-0.9181267 3.6725063 -22.976463
-0.9156242 2.7468729 -23.101583
-0.91405874 1.8281183 -23.179859
-0.9130162 0.91301537 -23.231983
-0.9127236 -3.8146973e-06 -23.246616
-0.91292554 -0.91292477 -23.236519
-0.91386658 -1.8277349 -23.189468
-0.91605163 -2.7481546 -23.080212
-0.91835725 -3.6734285 -22.964937
-0.92187178 -4.6093569 -22.789209
-0.92596978 -5.55582 -22.584305
-0.93091422 -6.5163994 -22.337084
-0.9369635 -7.4957075 -22.03462
-0.94401598 -8.4961433 -21.682001
-0.95242518 -9.52425 -21.261539
-0.9697479 -10.667226 -20.395401
-0.9908905 -11.890684 -19.338272
-1.0129436 -13.168268 -18.235617
-1.0360174 -14.504246 -17.081924
-1.060167 -15.902504 -15.874451
-1.0854983 -17.367973 -14.607878
-1.1120623 -18.90506 -13.279676
-1.1604792 -20.888626 -10.858833
0 20.662422 -11.487181
0 18.435068 -14.662008
0 16.793112 -16.404318
0 15.341918 -17.743069
0 14.045579 -18.720009
0 12.830927 -19.533066
0 11.680475 -20.21414
0 10.575734 -20.811272
0 9.5163908 -21.300827
0 8.4960194 -21.682692
0 7.4930677 -22.051121
0 6.5162096 -22.338432
0 5.5544262 -22.595894
0 4.606719 -22.815601
0 3.6733217 -22.966248
0 2.7483416 -23.077084
0 1.8288431 -23.161682
0 0.91341877 -23.211901
0 -1.9073486e-06 -23.226156
0 -0.91304207 -23.23082
0 -1.8284121 -23.172592
0 -2.7493429 -23.060389
0 -3.6752357 -22.942387
0 -4.6109314 -22.773491
0 -5.5585537 -22.561518
0 -6.5183434 -22.323214
0 -7.496624 -22.028893
0 -8.4980879 -21.671196
0 -9.5259438 -21.253084
0 -10.667292 -20.395109
0 -11.890577 -19.338726
0 -13.168223 -18.235775
0 -14.504197 -17.08209
0 -15.902504 -15.874451
0 -17.367918 -14.608059
0 -18.90506 -13.279676
0 -20.9256 -10.756132
1.154174 20.775133 -11.174095
1.0872587 18.483398 -14.519859
1.0521363 16.834177 -16.275986
1.0243278 15.364913 -17.66641
1.0053712 14.075196 -18.614235
0.98851949 12.850754 -19.456821
0.975128 11.701534 -20.126396
0.96293789 10.592317 -20.735901
0.95311904 9.531189 -21.226845
0.94543308 8.5088959 -21.611141
0.93794656 7.5035744 -21.985466
0.93213564 6.5249481 -22.276014
0.92711151 5.5626669 -22.527222
0.92229444 4.6114721 -22.768074
0.91961682 3.6784649 -22.901955
0.91742265 2.752264 -23.011665
0.91538984 1.8307791 -23.113304
0.91448987 0.91448784 -23.158302
0.91428465 -3.8146973e-06 -23.168568
0.91417038 -0.91417217 -23.174282
0.91535854 -1.8307199 -23.114868
0.91765022 -2.7529497 -23.000288
0.92001384 -3.6800585 -22.882103
0.92302716 -4.615139 -22.731436
0.92764056 -5.5658445 -22.500765
0.93233824 -6.5263696 -22.265888
0.9382118 -7.5056944 -21.972204
0.94499719 -8.5049772 -21.632935
0.95363587 -9.5363598 -21.201
0.96976542 -10.667419 -20.394522
0.99087524 -11.890501 -19.339035
1.0129372 -13.168183 -18.235933
1.0360141 -14.504197 -17.08209
1.0601773 -15.902661 -15.873928
1.0854946 -17.367918 -14.608059
1.1120623 -18.90506 -13.279676
1.1682515 -21.028524 -10.470224
2.3429241 21.086315 -10.309694
2.1881416 18.599201 -14.179256
2.109756 16.878046 -16.138899
2.0570886 15.428164 -17.45558
2.0173409 14.121384 -18.449276
1.9809698 12.876303 -19.358551
1.9544072 11.726443 -20.022615
1.9315395 10.623467 -20.594307
1.9112531 9.5562649 -21.101471
1.8946565 8.5259533 -21.51638
1.8786143 7.5144558 -21.917439
1.8672351 6.5353212 -22.201921
1.8581467 5.5744371 -22.429131
1.849141 4.6228514 -22.654272
1.8430836 3.6861668 -22.805706
1.8380572 2.7570858 -22.931366
1.8330894 1.8330889 -23.055559
1.831436 0.91571617 -23.096897
1.831973 1.9073486e-06 -23.083473
1.8325102 -0.9162569 -23.070042
1.8344164 -1.8344183 -23.022387
1.8386662 -2.7579994 -22.916138
1.842941 -3.6858816 -22.809267
1.8484029 -4.6210108 -22.672724
1.8576533 -5.5729594 -22.441467
1.8678906 -6.5376172 -22.185528
1.8801837 -7.5207348 -21.878204
1.8947569 -8.5264072 -21.513872
1.9116789 -9.5583944 -21.090824
1.9395427 -10.667483 -20.394234
1.9817322 -11.890395 -19.339489
2.0258617 -13.168102 -18.236254
2.0720215 -14.504151 -17.08226
2.1203687 -15.902767 -15.873577
2.1709893 -17.367918 -14.608059
2.2241247 -18.90506 -13.279676
2.3769622 -21.392658 -9.458744
3.6073396 21.644035 -8.7604694
3.308203 18.746481 -13.746083
3.187252 16.998672 -15.761933
3.1049838 15.524917 -17.133068
3.0374925 14.174963 -18.257923
2.9854023 12.936742 -19.126091
2.942502 11.770006 -19.841093
2.9061701 10.655955 -20.446629
2.8746216 9.5820713 -20.972435
2.8496013 8.5488033 -21.389442
2.8273454 7.5395875 -21.760372
2.809263 6.554945 -22.061747
2.794157 5.5883112 -22.313511
2.7805815 4.6342993 -22.539772
2.7707584 3.6943426 -22.703491
2.7636838 2.7636814 -22.821404
2.7579837 1.8386555 -22.916401
2.7548831 0.91829491 -22.968079
2.7547965 -1.9073486e-06 -22.969521
2.7550402 -0.91834927 -22.965458
2.7571881 -1.838129 -22.929661
2.763818 -2.7638178 -22.819162
2.7708619 -3.6944847 -22.701767
2.7811983 -4.6353321 -22.529491
2.7934134 -5.5868263 -22.325907
2.8094835 -6.5554647 -22.058067
2.8272212 -7.539257 -21.762444
2.8499207 -8.5497637 -21.384117
2.876369 -9.5878973 -20.943317
2.9092877 -10.667391 -20.394669
2.9725709 -11.890285 -19.339951
3.0387831 -13.16806 -18.23641
3.1080222 -14.504104 -17.082424
3.1805844 -15.902925 -15.873055
3.2564733 -17.367859 -14.608247
3.3361988 -18.905123 -13.279489
4.4774442 19.029142 -12.914738
4.2894454 17.15778 -15.264727
4.1661181 15.622944 -16.806316
4.0725918 14.254068 -17.975403
4.0025792 13.008382 -18.850557
3.9421511 11.826452 -19.605909
3.8919623 10.702896 -20.233265
3.8470781 9.6176958 -20.794321
3.815448 8.5847559 -21.189697
3.7855244 7.5710483 -21.563742
3.7596207 6.5793362 -21.887535
3.7392864 5.6089296 -22.141718
3.7197406 4.6496754 -22.38604
3.7063529 3.7063532 -22.553379
3.6981227 2.773591 -22.656263
3.6904681 1.845233 -22.751944
3.68488 0.92121983 -22.821798
3.6847746 -9.5367432e-07 -22.823116
3.6854391 -0.92136192 -22.814812
3.6882899 -1.8441467 -22.779171
3.6954792 -2.7716093 -22.689306
3.7057557 -3.7057562 -22.560852
3.7201381 -4.6501751 -22.381073
3.7384934 -5.6077418 -22.151625
3.7597744 -6.5796056 -21.885616
3.7858026 -7.5716047 -21.560263
3.8155835 -8.5850649 -21.187998
3.8513598 -9.6284008 -20.740801
3.8930688 -10.705941 -20.219437
3.9634035 -11.890209 -19.340256
4.0516982 -13.168017 -18.23657
4.1440163 -14.504061 -17.082592
4.2408075 -15.903027 -15.872705
4.3419642 -17.367859 -14.608247
4.5045018 -19.144136 -12.576519
5.7068706 19.403358 -11.814091
5.4230103 17.353632 -14.652693
5.2556467 15.766941 -16.326326
5.130784 14.366192 -17.574957
5.0362644 13.094286 -18.520151
4.9522872 11.885489 -19.359922
4.8941617 10.767154 -19.941181
4.8373995 9.674799 -20.508804
4.7940478 8.6292858 -20.942316
4.753221 7.605155 -21.350582
4.7170773 6.6039066 -21.712025
4.6948915 5.6338711 -21.93388
4.6731849 4.6731844 -22.150948
4.6538305 3.7230644 -22.344486
4.6425385 2.7855225 -22.457409
4.6313014 1.852519 -22.569778
4.6216311 0.9243269 -22.666485
4.6249385 -9.5367432e-07 -22.63341
4.6283574 -0.92567158 -22.599224
4.6317811 -1.8527107 -22.564981
4.6394868 -2.7836952 -22.487928
4.6542344 -3.7233877 -22.34045
4.6711364 -4.6711416 -22.171432
4.6944394 -5.6333294 -21.938402
4.7199826 -6.607976 -21.68297
4.7540078 -7.6064124 -21.342718
4.7930198 -8.6274338 -20.952597
4.8390574 -9.6781158 -20.49222
4.8979158 -10.775414 -19.903639
4.9589567 -11.901499 -19.293228
5.0646067 -13.167979 -18.236731
5.1800036 -14.504009 -17.082758
5.3010616 -15.903185 -15.872182
5.4363298 -17.396257 -14.519497
5.7429824 -19.52614 -11.452971
7.1002083 20.117256 -9.7143936
6.6112866 17.630098 -13.788743
6.3817506 15.95438 -15.701535
6.2108665 14.492019 -17.12558
6.0947347 13.205256 -18.093342
5.9921126 11.984223 -18.948526
5.9140959 10.842508 -19.598663
5.8414226 9.7357025 -20.204273
5.7847409 8.6771107 -20.67662
5.739264 7.6523514 -21.055595
5.6956215 6.6448917 -21.419283
5.6655912 5.6655903 -21.669537
5.6367807 4.6973171 -21.909624
5.6102495 3.7401648 -22.130714
5.5972557 2.7986288 -22.238998
5.588201 1.8627338 -22.314457
5.5791912 0.92986202 -22.389534
5.5791111 -9.5367432e-07 -22.390207
5.5820785 -0.93034744 -22.365479
5.5850492 -1.8616848 -22.340719
5.5952287 -2.7976151 -22.255892
5.6129403 -3.7419596 -22.108295
5.6360402 -4.6967001 -21.915794
5.6633477 -5.6633482 -21.688231
5.6984286 -6.6481705 -21.395891
5.7380872 -7.6507831 -21.065403
5.7888684 -8.6833038 -20.642225
5.8478618 -9.7464371 -20.150614
5.9156542 -10.845366 -19.585682
5.9993734 -11.998748 -18.88802
6.098392 -13.213182 -18.062862
6.2233968 -14.521261 -17.021154
6.3913617 -15.978406 -15.621447
6.6330199 -17.688055 -13.607628
7.2648687 -20.583796 -8.3422241
7.8900566 18.034412 -12.525248
7.5429497 16.163462 -15.004588
7.3450227 14.690047 -16.418344
7.1850219 13.343612 -17.561211
7.0580163 12.099457 -18.468395
6.9569254 10.93231 -19.190472
6.8717651 9.8168068 -19.798759
6.7998939 8.7427197 -20.312122
6.7443995 7.7078819 -20.708515
6.6927247 6.6927228 -21.07762
6.6521125 5.7018118 -21.367706
6.6180506 4.7271786 -21.611004
6.5904617 3.7659769 -21.808073
6.572618 2.8168344 -21.935524
6.5603876 1.8743944 -22.022888
6.5493636 0.93562412 -22.101627
6.5446067 9.5367432e-07 -22.135605
6.5491533 -0.9355917 -22.103123
6.5552711 -1.8729362 -22.059429
6.5712371 -2.816247 -21.945381
6.5897675 -3.7655821 -21.813028
6.6187897 -4.7277088 -21.605726
6.651072 -5.7009201 -21.375141
6.6942363 -6.6942368 -21.066824
6.7435713 -7.7069402 -20.714424
6.8040223 -8.7480297 -20.282639
6.8758764 -9.8226814 -19.769392
6.9599771 -10.937105 -19.168674
7.0630169 -12.108029 -18.432673
7.1923628 -13.357244 -17.508778
7.3641591 -14.728319 -16.28166
7.5749831 -16.232107 -14.775777
7.93262 -18.131704 -12.221224
9.3913536 18.782707 -10.186839
8.8203936 16.538233 -13.755338
8.5249481 14.918659 -15.601869
8.3138323 13.509976 -16.921345
8.1581135 12.237171 -17.894583
8.0271215 11.037291 -18.713285
7.9313245 9.914155 -19.312019
7.8397675 8.8197365 -19.884253
7.7730675 7.7730675 -20.301126
7.7086692 6.7450843 -20.703609
7.6566081 5.7424521 -21.028999
7.6236424 4.7647743 -21.235029
7.5916095 3.7958012 -21.435234
7.564198 2.8365736 -21.60656
7.5500231 1.8875065 -21.695148
7.538506 0.94231224 -21.767132
7.5319996 -1.9073486e-06 -21.807795
7.5350204 -0.94187832 -21.788921
7.5435195 -1.8858805 -21.735798
7.5621543 -2.8358088 -21.619337
7.587605 -3.7938042 -21.460266
7.6205511 -4.7628474 -21.254351
7.6618938 -5.7464223 -20.99596
7.7100549 -6.7462993 -20.694954
7.7728324 -7.7728314 -20.302593
7.8414626 -8.8216476 -19.873655
7.9337926 -9.917243 -19.296591
8.0387754 -11.053317 -18.640444
8.1637268 -12.245593 -17.859501
8.3291101 -13.534801 -16.825863
8.5450087 -14.953766 -15.476492
8.8456068 -16.585514 -13.597754
9.5016737 -19.003349 -9.4973402
10.216387 17.027311 -12.125091
9.7750902 15.205692 -14.57674
9.5024357 13.72574 -16.091486
9.308814 12.411749 -17.167164
9.1490612 11.182186 -18.054674
9.0254755 10.028303 -18.74127
8.9115934 8.9115925 -19.373941
8.8269958 7.8462176 -19.843933
8.7622662 6.8150935 -20.203541
8.6985054 5.7990041 -20.557762
8.6543484 4.807972 -20.803082
8.6144781 3.8286552 -21.024588
8.5777407 2.8592453 -21.228678
8.5655651 1.9034595 -21.296326
8.5580988 0.95090008 -21.337799
8.5506716 -9.5367432e-07 -21.379068
8.5487022 -0.9498558 -21.390001
8.563818 -1.9030733 -21.306032
8.5826464 -2.8608818 -21.201424
8.6136322 -3.8282804 -21.029282
8.6497478 -4.8054171 -20.828642
8.7005177 -5.8003445 -20.546585
8.7592192 -6.8127275 -20.22047
8.8339415 -7.8523932 -19.805346
8.9219427 -8.9219437 -19.316448
9.0241814 -10.026868 -18.748457
9.1629257 -11.199131 -17.977655
9.3206463 -12.427528 -17.101429
9.526 -13.759777 -15.960576
9.809886 -15.259825 -14.383428
10.263849 -17.106417 -11.861411
11.188241 15.663535 -12.94159
10.79078 14.028013 -14.928894
10.521844 12.62621 -16.273577
10.320969 11.353067 -17.277954
10.154526 10.154524 -18.110165
10.037846 9.0340605 -18.693569
9.9252539 7.9402041 -19.256523
9.8466635 6.892664 -19.649479
9.7693071 5.8615837 -20.036263
9.7066631 4.8533325 -20.34948
9.6713095 3.8685217 -20.526245
9.6374817 2.8912439 -20.695385
9.6103716 1.9220743 -20.830936
9.6006527 0.96006584 -20.879532
9.5909252 -2.8610229e-06 -20.928173
9.5908966 -0.95909214 -20.928314
9.606987 -1.9213982 -20.847866
9.627737 -2.8883209 -20.74411
9.664978 -3.8659925 -20.557907
9.709651 -4.8548265 -20.334545
9.769989 -5.8619952 -20.032852
9.8435316 -6.8904719 -19.665144
9.9311047 -7.9448848 -19.227276
10.04082 -9.0367393 -18.678692
10.169061 -10.169063 -18.037493
10.342162 -11.376377 -17.171986
10.534553 -12.641467 -16.21003
10.807123 -14.049256 -14.847182
11.228017 -15.719224 -12.742713
12.996404 16.540876 -9.8082314
12.20178 14.420283 -13.42016
11.827741 12.902988 -15.120338
11.56896 11.568958 -16.296614
11.366444 10.333128 -17.217146
11.211226 9.172821 -17.922682
11.071604 8.0520744 -18.557323
10.964105 6.9771571 -19.045958
10.889335 5.9396358 -19.385822
10.81604 4.9163799 -19.718975
10.767189 3.9153404 -19.941032
10.72605 2.9252853 -20.128023
10.685225 1.9427652 -20.313587
10.67041 0.97003746 -20.38093
10.665492 -9.5367432e-07 -20.40329
10.674174 -0.97037983 -20.363819
10.690356 -1.9437008 -20.29027
10.72134 -2.9240017 -20.149433
10.760741 -3.9129972 -19.970337
10.81895 -4.9177065 -19.705753
10.884882 -5.9372072 -19.406061
10.974505 -6.9837756 -18.99868
11.075137 -8.0546465 -18.541264
11.215133 -9.1760187 -17.904924
11.37828 -10.343889 -17.163342
11.582586 -11.582591 -16.234676
11.861864 -12.940211 -14.965232
12.274932 -14.506739 -13.087654
13.216641 -16.82118 -8.8071537
13.966948 15.130859 -10.687183
13.310116 13.310113 -13.423984
12.928043 11.850706 -15.015953
12.665219 10.554348 -16.111048
12.440579 9.3304329 -17.04705
12.294948 8.1966305 -17.653852
12.159151 7.0928364 -18.219667
12.063287 6.031641 -18.619101
11.976197 4.9900794 -18.981976
11.89827 3.9660873 -19.306675
11.859902 2.9649744 -19.466537
11.831018 1.9718361 -19.586887
11.802274 0.98352337 -19.706657
11.790527 -1.9073486e-06 -19.755598
11.801877 -0.98348904 -19.708309
11.818455 -1.9697437 -19.639236
11.858993 -2.9647484 -19.470329
11.904505 -3.9681711 -19.280697
11.976309 -4.9901304 -18.981512
12.057674 -6.0288386 -18.642487
12.166352 -7.0970407 -18.189663
12.295769 -8.1971807 -17.650425
12.461736 -9.3463011 -16.9589
12.689898 -10.574917 -16.008223
12.967981 -11.88732 -14.849543
13.35661 -13.356609 -13.230257
14.207521 -15.391485 -9.6847906
15.282243 14.106685 -10.104935
14.504374 12.272932 -13.096741
14.075113 10.827009 -14.747743
13.820961 9.5683546 -15.725255
13.602572 8.3708143 -16.565214
13.435786 7.2346535 -17.20669
13.284886 6.1314831 -17.787081
13.200425 5.077086 -18.111931
13.123203 4.037909 -18.408936
13.058811 3.0135722 -18.656597
13.024136 2.0037136 -18.78997
12.989602 0.99919987 -18.922791
12.976668 -9.5367432e-07 -18.972534
12.985328 -0.99887276 -18.939228
13.010647 -2.0016394 -18.841845
13.05433 -3.0125403 -18.673838
13.114524 -4.0352411 -18.44232
13.199052 -5.0765562 -18.117214
13.310119 -6.1431351 -17.690035
13.453631 -7.2442617 -17.138062
13.62512 -8.3846893 -16.478487
13.834077 -9.5774403 -15.674809
14.12501 -10.865392 -14.555836
14.569431 -12.327979 -12.846524
15.427352 -14.240635 -9.5468273
15.836967 11.312119 -12.322202
15.363266 9.8763819 -14.013995
15.04821 8.5989771 -15.139187
14.819002 7.4094992 -15.957787
14.661747 6.2836046 -16.519417
14.518124 5.1850443 -17.032351
14.427378 4.1221089 -17.356445
14.33776 3.0723772 -17.676512
14.280545 2.0400777 -17.880844
14.268787 1.0191994 -17.922842
14.257229 9.5367432e-07 -17.964125
14.245687 -1.0175514 -18.005339
14.297086 -2.0424428 -17.821774
14.360838 -3.0773239 -17.59409
14.434359 -4.1241016 -17.331518
14.518031 -5.18501 -17.032686
14.666233 -6.2855301 -16.503391
14.840088 -7.4200439 -15.882481
15.090345 -8.6230555 -14.988709
15.402971 -9.9019098 -13.872181
15.855804 -11.325576 -12.254922
17.384056 10.43043 -10.935942
16.784462 8.9517117 -12.93459
16.43755 7.6708565 -14.090965
16.175865 6.470346 -14.963247
15.984966 5.3283195 -15.599578
15.840095 4.2240243 -16.082478
15.767096 3.153419 -16.325813
15.695989 2.0927982 -16.56283
15.63291 1.0421934 -16.773094
15.633568 -0 -16.770903
15.660752 -1.0440502 -16.680286
15.688031 -2.0917373 -16.589355
15.741747 -3.1483502 -16.410305
15.872386 -4.2326369 -15.974844
16.01429 -5.3380957 -15.501829
16.208508 -6.4834032 -14.854439
16.47373 -7.6877403 -13.970366
16.852726 -8.9881201 -12.707043
17.511187 -10.506712 -10.512177
18.612768 8.1430864 -10.717893
18.068398 6.7756472 -12.419052
17.723425 5.538569 -13.497089
17.530758 4.3826876 -14.099173
17.343229 3.251852 -14.685202
17.274168 2.1592712 -14.901022
17.23947 1.0774646 -15.009459
17.20508 -2.3841858e-06 -15.116924
17.196173 -1.0747619 -15.144756
17.288088 -2.1610112 -14.857524
17.398785 -3.2622714 -14.511597
17.544497 -4.3861275 -14.056244
17.776535 -5.5551696 -13.331123
18.117094 -6.7939091 -12.266877
18.668644 -8.167532 -10.543286
19.897617 4.6817904 -10.360392
19.47436 3.4366527 -11.605265
19.292721 2.2697306 -12.139502
19.192488 1.1289668 -12.434306
19.148689 -2.8610229e-06 -12.56312
19.195583 -1.1291509 -12.425194
19.333422 -2.2745228 -12.019793
19.559649 -3.4517019 -11.354416
19.981991 -4.7016478 -10.112238
