# .PCD v0.7 - Point Cloud Data file format
VERSION 0.7
FIELDS x y z
SIZE 4 4 4
TYPE F F F
COUNT 1 1 1
WIDTH 1076
HEIGHT 1
VIEWPOINT 0 0 0 1 0 0 0
POINTS 1076
DATA ascii
-22.25219 2.3423343 -10.324399
-21.890446 1.1521277 -11.276365
-21.915472 -0 -11.210502
-22.006018 -1.1582136 -10.972229
-22.262075 -2.3433774 -10.29839
-20.747229 6.9157381 -11.251605
-20.139954 5.5944304 -12.93848
-19.891134 4.4202533 -13.629644
-19.658522 3.2764206 -14.275789
-19.518036 2.1686707 -14.666029
-19.459944 1.0811086 -14.827396
-19.44949 -2.3841858e-06 -14.856434
-19.443289 -1.0801845 -14.873663
-19.539696 -2.1710777 -14.605863
-19.667332 -3.2778888 -14.251316
-19.850918 -4.4113164 -13.741357
-20.189018 -5.6080637 -12.802193
-20.835508 -6.9451714 -11.006384
-19.280823 9.0733271 -12.174497
-18.708534 7.7035131 -13.8577
-18.410191 6.497714 -14.735172
-18.141827 5.3358293 -15.524487
-17.97706 4.2298961 -16.00909
-17.845535 3.1492095 -16.395927
-17.750292 2.0882697 -16.676056
-17.710989 1.0418239 -16.791649
-17.695808 9.5367432e-07 -16.836304
-17.725449 -1.0426736 -16.749121
-17.779423 -2.0916972 -16.590378
-17.850252 -3.1500463 -16.382057
-17.993853 -4.233849 -15.959705
-18.164051 -5.3423705 -15.459117
-18.426003 -6.5032969 -14.688671
-18.787619 -7.7360792 -13.62509
-19.310629 -9.0873575 -12.08683
-18.269501 11.418438 -11.790603
-17.630882 9.9173708 -13.786291
-17.242239 8.6211185 -15.000801
-16.925425 7.4048729 -15.990843
-16.713751 6.2676549 -16.652332
-16.555334 5.1735396 -17.147381
-16.420969 4.1052423 -17.567268
-16.340408 3.0638251 -17.819021
-16.271526 2.0339403 -18.034279
-16.232899 1.0145559 -18.154985
-16.219095 -0 -18.198128
-16.233309 -1.0145807 -18.153702
-16.278778 -2.0348501 -18.011612
-16.351046 -3.0658207 -17.78578
-16.442102 -4.1105256 -17.501232
-16.575371 -5.1798072 -17.084759
-16.738634 -6.2769895 -16.574568
-16.964569 -7.4219999 -15.868515
-17.224243 -8.6121235 -15.057032
-17.702892 -9.9578781 -13.561258
-18.361292 -11.475811 -11.503759
-16.822012 12.336143 -12.809422
-16.255173 10.836778 -14.698895
-15.913301 9.5479794 -15.838455
-15.625117 8.3333969 -16.79907
-15.448704 7.209394 -17.387115
-15.276181 6.1104732 -17.962191
-15.141018 5.0470042 -18.412735
-15.057331 4.0152874 -18.691692
-14.986094 2.99722 -18.929148
-14.929735 1.9906292 -19.117016
-14.896336 0.99308777 -19.228346
-14.900151 -1.9073486e-06 -19.21563
-14.914652 -0.99431229 -19.16729
-14.945035 -1.9926729 -19.066015
-14.976098 -2.9952197 -18.962469
-15.060009 -4.0160007 -18.682766
-15.152852 -5.0509524 -18.373289
-15.281211 -6.1124845 -17.945425
-15.450731 -7.210341 -17.380358
-15.666038 -8.3552208 -16.662668
-15.950108 -9.5700645 -15.715772
-16.310146 -10.873428 -14.515638
-16.940193 -12.42281 -12.415486
-15.569142 13.344979 -13.278716
-15.030689 11.809826 -15.201761
-14.726634 10.519022 -16.287676
-14.462436 9.2972803 -17.231241
-14.266438 8.1522465 -17.931232
-14.082808 7.0414023 -18.587051
-13.964955 5.9849782 -19.007957
-13.864613 4.9516463 -19.366325
-13.791911 3.9405441 -19.625969
-13.731091 2.942379 -19.843185
-13.694199 1.9563131 -19.974949
-13.666492 0.97617722 -20.073898
-13.663839 9.5367432e-07 -20.083368
-13.664005 -0.97600269 -20.082779
-13.694364 -1.956337 -19.974354
-13.732388 -2.9426537 -19.838554
-13.805901 -3.9445424 -19.576014
-13.892571 -4.9616356 -19.266472
-13.995624 -5.9981265 -18.898424
-14.124795 -7.062397 -18.437101
-14.284712 -8.1626949 -17.865973
-14.489179 -9.3144712 -17.135733
-14.724998 -10.517855 -16.29352
-15.113122 -11.874597 -14.907357
-15.603218 -13.374186 -13.157018
-14.411196 14.411196 -13.455121
-13.929931 12.858395 -15.306145
-13.607749 11.514244 -16.545305
-13.337615 10.259703 -17.584278
-13.161391 9.1117306 -18.262064
-12.992909 7.9956369 -18.910069
-12.8581 6.9235902 -19.428566
-12.758969 5.8887539 -19.809834
-12.670253 4.8731742 -20.151052
-12.609041 3.8797054 -20.386486
-12.558851 2.8981943 -20.579521
-12.529628 1.9276333 -20.691925
-12.505097 0.96192741 -20.78627
-12.502705 -9.5367432e-07 -20.795467
-12.505733 -0.96197891 -20.783827
-12.535146 -1.9284859 -20.670696
-12.565264 -2.8996792 -20.554859
-12.620832 -3.8833323 -20.341135
-12.678892 -4.8764973 -20.117828
-12.770693 -5.8941655 -19.764748
-12.870955 -6.9305153 -19.379124
-13.008545 -8.0052595 -18.849934
-13.170008 -9.1176996 -18.228918
-13.369281 -10.284063 -17.462481
-13.616295 -11.521483 -16.51243
-13.959956 -12.886114 -15.190656
-14.490961 -14.490961 -13.148331
-13.409713 15.644666 -13.008992
-12.870524 13.943065 -15.255615
-12.551445 12.551444 -16.585106
-12.29119 11.266923 -17.669506
-12.107231 10.089359 -18.435995
-11.928699 8.9465237 -19.179882
-11.809636 7.8730907 -19.675978
-11.700543 6.8253169 -20.130533
-11.619749 5.8098726 -20.467176
-11.545997 4.8108292 -20.774479
-11.494893 3.8316298 -20.987408
-11.449942 2.862484 -21.174709
-11.425585 1.9042616 -21.276194
-11.405137 0.95042801 -21.361391
-11.404329 -0 -21.364761
-11.405575 -0.95046616 -21.359568
-11.428155 -1.9046946 -21.265486
-11.453609 -2.8634033 -21.159426
-11.506195 -3.8353987 -20.940319
-11.564113 -4.8183799 -20.698994
-11.625031 -5.8125191 -20.445171
-11.712999 -6.8325849 -20.078632
-11.819685 -7.8797913 -19.634111
-11.949775 -8.9623318 -19.092066
-12.110193 -10.091828 -18.423658
-12.30827 -11.282579 -17.598339
-12.566066 -12.566069 -16.524187
-12.913819 -13.989972 -15.075213
-13.459955 -15.703279 -12.799649
-12.481017 17.019567 -12.150906
-11.892307 15.135663 -14.826853
-11.540485 13.638756 -16.426043
-11.273526 12.298392 -17.639494
-11.087833 11.087832 -18.483551
-10.9315 9.937727 -19.194157
-10.803135 8.8389282 -19.777637
-10.696074 7.7789621 -20.264282
-10.591113 6.7397985 -20.741377
-10.525426 5.7411404 -21.039955
-10.464165 4.7564373 -21.318413
-10.422329 3.789937 -21.508572
-10.383445 2.8318472 -21.685322
-10.362502 1.8840914 -21.78051
-10.344728 0.94042778 -21.861307
-10.344244 -9.5367432e-07 -21.863506
-10.345785 -0.94052792 -21.856499
-10.364444 -1.8844442 -21.771687
-10.385028 -2.8322811 -21.678122
-10.426965 -3.7916241 -21.487503
-10.477545 -4.7625194 -21.257591
-10.533255 -5.7454133 -21.004366
-10.605041 -6.7486653 -20.678064
-10.696137 -7.7790079 -20.263988
-10.803332 -8.8390923 -19.776739
-10.936871 -9.9426098 -19.169746
-11.095827 -11.095826 -18.447224
-11.29983 -12.327088 -17.519928
-11.557591 -13.658972 -16.348291
-11.924836 -15.177065 -14.678996
-12.543149 -17.104298 -11.868484
-11.802132 18.883408 -9.8721409
-10.939704 16.409552 -14.184278
-10.548814 14.76834 -16.138723
-10.309331 13.40213 -17.336142
-10.104629 12.125555 -18.35965
-9.9441767 10.938592 -19.161913
-9.8059206 9.8059196 -19.853199
-9.710969 8.7398701 -20.327953
-9.6180401 7.6944299 -20.792597
-9.5360193 6.6752114 -21.202698
-9.4754581 5.6852732 -21.505505
-9.4228573 4.7114277 -21.768511
-9.3846626 3.7538652 -21.959482
-9.3512316 2.8053713 -22.12664
-9.3321409 1.8664265 -22.222088
-9.3174162 0.93174171 -22.295713
-9.3168764 -9.5367432e-07 -22.298412
-9.3198719 -0.93198395 -22.283436
-9.3355522 -1.8671122 -22.205032
-9.3571854 -2.8071585 -22.096869
-9.3883038 -3.7553244 -21.941278
-9.4288197 -4.7144117 -21.738699
-9.4789753 -5.6873865 -21.487923
-9.5429764 -6.6800823 -21.167919
-9.6229582 -7.6983685 -20.768005
-9.7151318 -8.7436199 -20.30714
-9.818964 -9.818965 -19.787977
-9.9509411 -10.946035 -19.128092
-10.110565 -12.132677 -18.329969
-10.319247 -13.415023 -17.286556
-10.588519 -14.823924 -15.940202
-10.973462 -16.460194 -14.015487
-12.073773 -19.318037 -8.5139313
-10.072989 17.907534 -12.921747
-9.6288261 16.048042 -15.389321
-9.3489857 14.542866 -16.943985
-9.1329069 13.191978 -18.144424
-8.9834299 11.977905 -18.974857
-8.8493252 10.815841 -19.719877
-8.7435389 9.715044 -20.307575
-8.648818 8.6488171 -20.833807
-8.5681753 7.6161571 -21.281822
-8.5054741 6.6153674 -21.630159
-8.4548254 5.636549 -21.911545
-8.4121971 4.6734409 -22.148369
-8.3796101 3.7242708 -22.329411
-8.3536777 2.7845592 -22.473478
-8.3358622 1.8524113 -22.572449
-8.3248653 0.92498493 -22.633543
-8.3219242 -9.5367432e-07 -22.649887
-8.3257513 -0.92508507 -22.628624
-8.3365345 -1.8525629 -22.568718
-8.35534 -2.7851124 -22.464239
-8.3808947 -3.724843 -22.322271
-8.4151545 -4.6750851 -22.131939
-8.4577885 -5.6385288 -21.895084
-8.5120487 -6.6204824 -21.593639
-8.5789862 -7.6257663 -21.221762
-8.6613874 -8.6613865 -20.763977
-8.7430115 -9.7144566 -20.310514
-8.8569832 -10.825202 -19.677332
-8.9904556 -11.987278 -18.935818
-9.1556845 -13.224879 -18.017883
-9.3642807 -14.56666 -16.859015
-9.6526356 -16.087727 -15.257043
-10.133073 -18.014355 -12.587948
-9.4091663 19.994478 -10.075506
-8.7126694 17.425337 -14.428613
-8.4104357 15.769568 -16.31757
-8.2020102 14.353516 -17.620234
-8.0329571 13.053554 -18.676813
-7.9015303 11.852297 -19.49823
-7.7910147 10.712644 -20.188955
-7.7067084 9.6333866 -20.715868
-7.6268725 8.5802307 -21.214844
-7.5635309 7.563529 -21.610727
-7.508934 6.5703154 -21.951958
-7.4611697 5.5958767 -22.250484
-7.425406 4.6408758 -22.474012
-7.3940153 3.6970072 -22.6702
-7.3728199 2.7648067 -22.802671
-7.3571453 1.8392849 -22.900639
-7.3494582 0.91868114 -22.948681
-7.3462501 2.8610229e-06 -22.968735
-7.3510957 -0.91888618 -22.938454
-7.3596478 -1.8399143 -22.884998
-7.3769393 -2.7663517 -22.776924
-7.3956079 -3.6978045 -22.660248
-7.4285979 -4.6428719 -22.454062
-7.4636998 -5.5977769 -22.234669
-7.508759 -6.5701661 -21.953053
-7.5615759 -7.5615788 -21.622944
-7.6272788 -8.5806885 -21.212303
-7.704679 -9.6308517 -20.728552
-7.799181 -10.723871 -20.137917
-7.906796 -11.860193 -19.465321
-8.0408592 -13.066396 -18.627422
-8.211978 -14.370962 -17.557936
-8.4400473 -15.82509 -16.132502
-8.7613831 -17.522768 -14.124152
-7.882134 19.142321 -12.581841
-7.5059042 17.156353 -15.269193
-7.2619877 15.561398 -17.011459
-7.0986485 14.197296 -18.17816
-6.9672313 12.939144 -19.116856
-6.8548908 11.751239 -19.919289
-6.7652607 10.631122 -20.559504
-6.693202 9.5617161 -21.074211
-6.6262465 8.5194559 -21.552467
-6.5778184 7.5175071 -21.898376
-6.5303211 6.5303192 -22.237644
-6.487257 5.5605059 -22.545244
-6.459671 4.6140499 -22.742287
-6.4342475 3.6767111 -22.923885
-6.4168916 2.7500954 -23.047859
-6.4025202 1.8292913 -23.150505
-6.3955774 0.91365337 -23.200102
-6.3922558 -1.9073486e-06 -23.223824
-6.3963218 -0.91375923 -23.194786
-6.4035034 -1.8295736 -23.143486
-6.4212074 -2.7519445 -23.017025
-6.4369135 -3.6782379 -22.904846
-6.4585786 -4.6132727 -22.750092
-6.505692 -5.5763078 -22.413568
-6.5581908 -6.5581927 -22.038572
-6.6116023 -7.5561156 -21.657066
-6.6658912 -8.5704336 -21.269289
-6.7210584 -9.6015129 -20.875238
-6.7771463 -10.649802 -20.474606
-6.8614259 -11.762444 -19.872608
-6.9692364 -12.942869 -19.102537
-7.1076303 -14.215261 -18.114012
-7.291934 -15.625576 -16.797552
-7.5222206 -17.193647 -15.152646
-7.956069 -19.321882 -12.053732
-6.6194229 18.755032 -13.720939
-6.3505416 16.934776 -15.961618
-6.1705565 15.426392 -17.461494
-6.0241351 14.056314 -18.681669
-5.9270935 12.842035 -19.490347
-5.8356848 11.67137 -20.252087
-5.7662745 10.571503 -20.830505
-5.7002959 9.5004911 -21.380329
-5.64677 8.4701557 -21.826382
-5.6074471 7.4765954 -22.15407
-5.5686688 6.4967813 -22.477222
-5.5349884 5.5349865 -22.757893
-5.5088229 4.5906849 -22.975941
-5.4881401 3.6587582 -23.1483
-5.472291 2.7361431 -23.280369
-5.461874 1.8206234 -23.36718
-5.4561329 0.90935516 -23.415024
-5.4539905 -0 -23.432873
-5.4566875 -0.90944767 -23.4104
-5.4620905 -1.8206968 -23.365379
-5.4736404 -2.736824 -23.269123
-5.4884362 -3.6589622 -23.145828
-5.5320387 -4.6100349 -22.782473
-5.5762749 -5.5762763 -22.413836
-5.6213226 -6.5582104 -22.038437
-5.6670876 -7.5561156 -21.657066
-5.7136207 -8.5704336 -21.269289
-5.7609243 -9.6015425 -20.875092
-5.8089828 -10.649802 -20.474606
-5.8578496 -11.715698 -20.067383
-5.9295506 -12.847361 -19.469872
-6.0453153 -14.105734 -18.505175
-6.1843309 -15.460826 -17.346708
-6.3714747 -16.990601 -15.787172
-6.6518936 -18.847034 -13.450346
-5.886322 21.190758 -10.019577
-5.4350262 18.479088 -14.532535
-5.2330518 16.745764 -16.552282
-5.1021352 15.306407 -17.861441
-4.9935355 13.981898 -18.947443
-4.9088078 12.7629 -19.794712
-4.8340859 11.601805 -20.541939
-4.7808871 10.517952 -21.073927
-4.7291241 9.4582481 -21.591553
-4.688148 8.4386673 -22.001316
-4.6514359 7.4422965 -22.368435
-4.6168442 6.463582 -22.714352
-4.5928478 5.5114174 -22.954319
-4.5719423 4.5719414 -23.163374
-4.5566268 3.6453009 -23.316526
-4.5435166 2.7261086 -23.447632
-4.5354614 1.8141804 -23.528187
-4.5293713 0.90587234 -23.589077
-4.5285306 -3.8146973e-06 -23.597494
-4.5296264 -0.9059267 -23.586533
-4.5357294 -1.8142939 -23.525501
-4.5433111 -2.7259865 -23.449684
-4.57371 -3.6589708 -23.145699
-4.6100059 -4.6100073 -22.782738
-4.6469092 -5.576292 -22.413704
-4.6844358 -6.5582104 -22.038437
-4.7225871 -7.5561404 -21.656925
-4.7613506 -8.5704336 -21.269289
-4.8007703 -9.6015425 -20.875092
-4.8408189 -10.649802 -20.474606
-4.8815417 -11.715698 -20.067383
-4.9229403 -12.799643 -19.653399
-4.9999595 -13.999887 -18.883205
-5.1075606 -15.322682 -17.80719
-5.2569003 -16.822083 -16.313795
-5.4592185 -18.561344 -14.29061
-4.5791383 20.606121 -11.64357
-4.3057871 18.299597 -15.060453
-4.15693 16.627716 -16.921175
-4.055387 15.207702 -18.19046
-3.9739747 13.908911 -19.208113
-3.9095504 12.706039 -20.013416
-3.8539889 11.561966 -20.707937
-3.8081789 10.472493 -21.280558
-3.7668927 9.4172306 -21.796638
-3.7369525 8.4081411 -22.170891
-3.7092369 7.4184728 -22.51734
-3.6834564 6.4460468 -22.839588
-3.6653333 5.4979982 -23.066132
-3.6478324 4.5597868 -23.284893
-3.6338792 3.6338768 -23.459305
-3.6235585 2.7176676 -23.588314
-3.6163106 1.8081551 -23.678909
-3.612566 0.90314007 -23.725719
-3.6117756 -0 -23.735603
-3.6127892 -0.90319729 -23.722935
-3.616961 -1.8084822 -23.670784
-3.6303542 -2.7227669 -23.50337
-3.658947 -3.6589489 -23.14596
-3.687973 -4.6099663 -22.783136
-3.7175274 -5.576292 -22.413704
-3.7475483 -6.5582104 -22.038437
-3.7780697 -7.5561404 -21.656925
-3.8090804 -8.5704336 -21.269289
-3.8406165 -9.6015425 -20.875092
-3.8726554 -10.649802 -20.474606
-3.9052331 -11.715698 -20.067383
-3.9383519 -12.799643 -19.653399
-3.9778059 -13.922319 -19.160223
-4.0629258 -15.235973 -18.096226
-4.1708965 -16.683586 -16.74659
-4.3246498 -18.379759 -14.824674
-4.644546 -20.900461 -10.825968
-3.3832066 20.29924 -12.496017
-3.2072737 18.174547 -15.428237
-3.1042647 16.556078 -17.14505
-3.0285172 15.142588 -18.407511
-2.9694989 13.857661 -19.391148
-2.9223204 12.663385 -20.17746
-2.8824401 11.529758 -20.842129
-2.8482814 10.443699 -21.411438
-2.8177159 9.3923836 -21.920866
-2.7953625 8.3860865 -22.293421
-2.7748196 7.399519 -22.635803
-2.7567236 6.432353 -22.937405
-2.7431889 5.4863777 -23.162979
-2.729856 4.5497608 -23.385197
-2.7191689 3.6255589 -23.563313
-2.7132239 2.7132225 -23.662399
-2.7072744 1.8048477 -23.761557
-2.7042034 0.90140152 -23.812738
-2.7030528 -9.5367432e-07 -23.831917
-2.7042413 -0.90141582 -23.812107
-2.7068646 -1.8045778 -23.768387
-2.7227654 -2.7227669 -23.50337
-2.7441947 -3.658927 -23.146221
-2.7659798 -4.6099663 -22.783136
-2.7881536 -5.5763078 -22.413568
-2.8106613 -6.5582104 -22.038437
-2.8335524 -7.5561404 -21.656925
-2.8568187 -8.5704575 -21.269148
-2.8804622 -9.6015425 -20.875092
-2.9045002 -10.649834 -20.474461
-2.9289248 -11.715698 -20.067383
-2.953764 -12.799643 -19.653399
-2.979037 -13.902172 -19.232178
-3.0324359 -15.16218 -18.342197
-3.1098244 -16.585732 -17.052391
-3.2181995 -18.236465 -15.246136
-3.4227386 -20.536434 -11.837155
-2.236886 20.131977 -12.960642
-2.1307786 18.111614 -15.613337
-2.0616219 16.492975 -17.342251
-2.0143735 15.1078 -18.52346
-1.9755644 13.828949 -19.493685
-1.9425044 12.62628 -20.320183
-1.9171281 11.502767 -20.954597
-1.8954599 10.425028 -21.4963
-1.875937 9.3796816 -21.984373
-1.860682 8.3730659 -22.365747
-1.8458902 7.3835573 -22.73554
-1.8342857 6.4199991 -23.025652
-1.8258252 5.4774742 -23.237165
-1.8174475 4.5436172 -23.446609
-1.8108108 3.6216192 -23.612526
-1.806572 2.7098589 -23.718496
-1.8026508 1.8026514 -23.816525
-1.7995763 0.89978504 -23.893385
-1.7992896 -0 -23.900555
-1.8000143 -0.90000725 -23.882441
-1.801803 -1.8018045 -23.837719
-1.8151667 -2.7227516 -23.503626
-1.8294529 -3.658906 -23.146475
-1.8439918 -4.6099825 -22.783001
-1.8587744 -5.5763259 -22.413433
-1.8737798 -6.5582304 -22.038301
-1.8890349 -7.5561404 -21.656925
-1.9045459 -8.5704575 -21.269148
-1.9203082 -9.6015425 -20.875092
-1.9363334 -10.649834 -20.474461
-1.9526166 -11.715698 -20.067383
-1.9691759 -12.799643 -19.653399
-1.9860247 -13.902172 -19.232178
-2.0187137 -15.140351 -18.414953
-2.0682797 -16.546236 -17.175806
-2.1373091 -18.16713 -15.450069
-2.2524245 -20.271824 -12.572186
-1.113829 20.04892 -13.191348
-1.0617899 18.050428 -15.793302
-1.0287482 16.45997 -17.445387
-1.0049945 15.074913 -18.633072
-0.9858638 13.802092 -19.589605
-0.97012502 12.611623 -20.376545
-0.9571898 11.486277 -21.023306
-0.94628924 10.409184 -21.568331
-0.93673444 9.3673439 -22.046074
-0.9290626 8.3615627 -22.429668
-0.92197478 7.3757954 -22.78406
-0.91611165 6.4127808 -23.077215
-0.91172558 5.4703541 -23.29652
-0.90757316 4.5378637 -23.504141
-0.90459102 3.6183653 -23.653244
-0.90215665 2.7064676 -23.774963
-0.90042514 1.8008499 -23.861542
-0.89940596 0.89940643 -23.912495
-0.89900649 -0 -23.932468
-0.89953923 -0.89953899 -23.905834
-0.90054101 -1.8010817 -23.855745
-0.90757829 -2.7227364 -23.50388
-0.91472375 -3.6588955 -23.146605
-0.92200118 -4.6100073 -22.782738
-0.92938721 -5.5763259 -22.413433
-0.93688989 -6.5582304 -22.038301
-0.94452018 -7.5561614 -21.656786
-0.95227295 -8.5704575 -21.269148
-0.96015126 -9.6015129 -20.875238
-0.96816963 -10.649868 -20.474314
-0.97630829 -11.715698 -20.067383
-0.98458797 -12.799643 -19.653399
-0.99301541 -13.902216 -19.232023
-1.0080827 -15.121243 -18.478659
-1.0325936 -16.521498 -17.253117
-1.0665861 -18.131964 -15.553488
-1.1246734 -20.244118 -12.649133
0 20.074348 -13.120713
0 18.073322 -15.72596
0 16.467764 -17.421038
0 15.08726 -18.591927
0 13.811062 -19.557571
0 12.615237 -20.362652
0 11.48983 -21.008497
0 10.414173 -21.545647
0 9.371789 -22.023846
0 8.3657646 -22.406319
0 7.3770008 -22.776529
0 6.4153004 -23.059216
0 5.4728327 -23.275845
0 4.5397844 -23.484934
0 3.6195822 -23.637985
0 2.7077379 -23.753834
0 1.8013515 -23.848938
0 0.89950562 -23.907593
0 -2.8610229e-06 -23.920542
0 -0.89970589 -23.897537
0 -1.8010817 -23.855745
0 -2.7227211 -23.504139
0 -3.6588955 -23.146605
0 -4.6100073 -22.782738
0 -5.5763259 -22.413433
0 -6.5582304 -22.038301
0 -7.5561614 -21.656786
0 -8.5704575 -21.269148
0 -9.6014843 -20.875378
0 -10.649868 -20.474314
0 -11.715698 -20.067383
0 -12.799643 -19.653399
0 -13.902258 -19.231874
0 -15.126639 -18.460657
0 -16.530779 -17.224112
0 -18.136835 -15.539167
0 -20.244118 -12.649133
1.1211822 20.181276 -12.823684
1.0667453 18.134668 -15.545534
1.0319778 16.511642 -17.283911
1.0080101 15.120151 -18.482292
0.98855287 13.839739 -19.455151
0.97206771 12.636879 -20.279409
0.95921254 11.51055 -20.922169
0.94836396 10.432003 -21.4646
0.93844438 9.3844433 -21.960579
0.93083882 8.3775463 -22.340855
0.92346424 7.3877134 -22.709587
0.91768944 6.4238272 -22.998322
0.91337895 5.4802723 -23.213848
0.90918332 4.5459175 -23.423628
0.90571374 3.6228542 -23.597111
0.90370959 2.7111292 -23.697319
0.9017421 1.803483 -23.795692
0.90039235 0.90038967 -23.863178
0.90000957 9.5367432e-07 -23.882313
0.90034199 -0.90034294 -23.865696
0.90130013 -1.8026018 -23.817791
0.90756798 -2.7227058 -23.504395
0.91472644 -3.658906 -23.146475
0.92200118 -4.6100073 -22.782738
0.92938989 -5.5763416 -22.4133
0.93689257 -6.55825 -22.038166
0.94452018 -7.5561614 -21.656786
0.95227581 -8.5704832 -21.269007
0.96014553 -9.6014557 -20.875523
0.96817249 -10.649895 -20.474169
0.97630829 -11.715698 -20.067383
0.98458797 -12.799643 -19.653399
0.99302161 -13.902304 -19.231716
1.0098447 -15.147671 -18.390568
1.0347217 -16.555546 -17.146713
1.0697237 -18.185303 -15.396608
1.1312557 -20.362602 -12.320015
2.2633786 20.370407 -12.298332
2.1426594 18.212606 -15.316306
2.0728624 16.582899 -17.061241
2.0218654 15.16399 -18.336163
1.9820189 13.87413 -19.332321
1.9506696 12.679354 -20.116055
1.9236368 11.541819 -20.791876
1.9008168 10.454493 -21.362373
1.8794426 9.397213 -21.89673
1.8653735 8.3941784 -22.248461
1.8516519 7.4066057 -22.591499
1.839281 6.4374819 -22.900772
1.8302435 5.4907303 -23.126709
1.8212996 4.5532484 -23.350307
1.8136221 3.627244 -23.542242
1.8096347 2.7144518 -23.641926
1.8059739 1.8059721 -23.73345
1.804106 0.90205193 -23.780148
1.8034185 -9.5367432e-07 -23.797333
1.8041617 -0.90208054 -23.778755
1.8059384 -1.8059387 -23.734337
1.8151309 -2.7226973 -23.504524
1.8294632 -3.658927 -23.146221
1.8440024 -4.6100073 -22.782738
1.8587798 -5.5763416 -22.4133
1.8737851 -6.55825 -22.038166
1.8890404 -7.5561614 -21.656786
1.9045516 -8.5704832 -21.269007
1.9202911 -9.6014557 -20.875523
1.936345 -10.649895 -20.474169
1.9526225 -11.715736 -20.067232
1.9691759 -12.799643 -19.653399
1.9860493 -13.902344 -19.231565
2.0247273 -15.185456 -18.264614
2.0777872 -16.622297 -16.938116
2.1510446 -18.283882 -15.106679
2.2935667 -20.642099 -11.543629
3.4703753 20.822247 -11.043209
3.2403197 18.361811 -14.87747
3.1239214 16.660913 -16.817438
3.0489166 15.244582 -18.067516
2.9863257 13.936186 -19.110703
2.935863 12.722074 -19.951744
2.8935149 11.574057 -20.657553
2.8606617 10.489094 -21.205097
2.8297734 9.4325781 -21.719906
2.8065274 8.4195805 -22.107342
2.7845993 7.4255986 -22.472805
2.7647996 6.4511986 -22.802803
2.7513344 5.5026674 -23.027222
2.738466 4.5641088 -23.241699
2.7285597 3.6380806 -23.406797
2.7207398 2.7207394 -23.53713
2.715498 1.8103323 -23.624493
2.7118371 0.90394592 -23.685513
2.7110603 -1.9073486e-06 -23.69846
2.7117152 -0.90390587 -23.687548
2.7154906 -1.8103275 -23.624622
2.7226963 -2.7226973 -23.504524
2.7442105 -3.6589489 -23.14596
2.7660115 -4.6100197 -22.782608
2.7881696 -5.5763416 -22.4133
2.8106778 -6.55825 -22.038166
2.8335688 -7.5561848 -21.656651
2.8568273 -8.5704832 -21.269007
2.8804364 -9.6014557 -20.875523
2.9045177 -10.649895 -20.474169
2.9289339 -11.715736 -20.067232
2.953764 -12.799643 -19.653399
2.9888866 -13.948141 -19.068018
3.0534008 -15.267001 -17.992788
3.1362813 -16.726835 -16.611437
3.2539818 -18.439228 -14.649769
3.5121875 -21.073124 -10.346341
4.3683233 18.565372 -14.278753
4.2040372 16.816147 -16.332333
4.0916719 15.343772 -17.736895
4.0026913 14.009416 -18.849159
3.9346442 12.787594 -19.699741
3.8754766 11.626431 -20.439339
3.8310268 10.535323 -20.994961
3.7894917 9.4737282 -21.514153
3.7556283 8.4501619 -21.937443
3.7262545 7.452507 -22.304615
3.7005677 6.4759912 -22.625698
3.6794348 5.5191517 -22.88986
3.6619344 4.5774174 -23.108616
3.649642 3.6496401 -23.26227
3.6397154 2.7297869 -23.386354
3.6330895 1.8165445 -23.469173
3.6287065 0.90717411 -23.523968
3.6276839 9.5367432e-07 -23.536745
3.6289725 -0.90724564 -23.520641
3.6333768 -1.8166904 -23.465588
3.6395402 -2.7296553 -23.388542
3.6589575 -3.6589622 -23.145828
3.688026 -4.6100349 -22.782473
3.7175703 -5.5763578 -22.413166
3.7475812 -6.5582681 -22.038029
3.7780919 -7.5561848 -21.656651
3.8091033 -8.5704832 -21.269007
3.8405821 -9.6014557 -20.875523
3.87269 -10.649895 -20.474169
3.9052567 -11.715773 -20.067083
3.9383519 -12.799643 -19.653399
4.0112972 -14.039539 -18.741581
4.0981588 -15.368096 -17.655807
4.2212276 -16.884909 -16.117455
4.3914509 -18.663668 -13.989657
5.5554357 18.888479 -13.328438
5.3146305 17.006815 -15.736493
5.1589127 15.476737 -17.293669
5.0362172 14.101408 -18.520624
4.9520741 12.875392 -19.362057
4.8754921 11.701178 -20.127874
4.8153524 10.593773 -20.729275
4.7601395 9.520277 -21.281403
4.7149763 8.4869547 -21.733034
4.6819553 7.4911261 -22.063244
4.6495142 6.5093193 -22.387651
4.6204367 5.5445242 -22.678429
4.5993719 4.599371 -22.889076
4.5818491 3.6654787 -23.064304
4.5688658 2.7413187 -23.194134
4.5588474 1.8235378 -23.294325
4.553442 0.9106884 -23.348377
4.551549 9.5367432e-07 -23.36731
4.5538931 -0.91077995 -23.343868
4.5587568 -1.8235016 -23.295227
4.5706697 -2.7424021 -23.176098
4.5826845 -3.6661501 -23.055952
4.6100321 -4.6100349 -22.782473
4.6469631 -5.5763578 -22.413166
4.6844764 -6.5582681 -22.038029
4.7226148 -7.5561848 -21.656651
4.7613788 -8.5704832 -21.269007
4.8007274 -9.6014557 -20.875523
4.8408628 -10.649895 -20.474169
4.8815713 -11.715773 -20.067083
4.9543915 -12.881418 -19.338879
5.0515218 -14.144263 -18.36758
5.1735582 -15.520674 -17.147213
5.3295927 -17.054697 -15.586872
5.5792241 -18.969362 -13.090553
6.824091 19.334927 -12.015368
6.4711051 17.256281 -14.956918
6.249157 15.62289 -16.80649
6.1095061 14.255514 -17.970245
5.9916105 12.981822 -18.952709
5.8929067 11.785813 -19.77524
5.8136525 10.658364 -20.435692
5.7530804 9.5884628 -20.940458
5.6937575 8.5406361 -21.434816
5.6510334 7.5347118 -21.790848
5.6099396 6.5449295 -22.133295
5.5709176 5.5709181 -22.458479
5.5474868 4.6229038 -22.653736
5.5257063 3.6838045 -22.835239
5.5111184 2.755558 -22.956808
5.4986734 1.8328886 -23.06052
5.4929328 0.91548824 -23.108358
5.4900436 -9.5367432e-07 -23.132433
5.4936514 -0.91561031 -23.102367
5.5002866 -1.8334293 -23.047075
5.5150537 -2.7575274 -22.924019
5.5278735 -3.6852503 -22.817184
5.5488896 -4.6240768 -22.642048
5.5763235 -5.5763259 -22.413433
5.6213717 -6.5582681 -22.038029
5.6671376 -7.5561848 -21.656651
5.7136717 -8.570507 -21.268866
5.7608728 -9.6014557 -20.875523
5.8180842 -10.666489 -20.398762
5.8990993 -11.7982 -19.723631
5.9948845 -12.988917 -18.925426
6.1163568 -14.271502 -17.913157
6.2799273 -15.69982 -16.550072
6.4920564 -17.312149 -14.782326
6.9037514 -19.560629 -11.351541
7.6835713 17.562449 -14.000144
7.4073329 15.872852 -15.973279
7.211195 14.422387 -17.37426
7.0522275 13.096993 -18.509745
6.9411278 11.899075 -19.303314
6.8390336 10.747051 -20.032555
6.7645297 9.6636124 -20.564728
6.6921282 8.6041622 -21.081882
6.6333089 7.5809231 -21.502018
6.5871468 6.5871463 -21.831745
6.5462422 5.611064 -22.123924
6.5142517 4.6530342 -22.35243
6.4874258 3.7070999 -22.544043
6.4684258 2.7721815 -22.679756
6.4537678 1.8439293 -22.784456
6.4463439 0.92090416 -22.837482
6.4431725 -9.5367432e-07 -22.860134
6.4471374 -0.92102146 -22.831818
6.4538236 -1.8439493 -22.784058
6.4702277 -2.772954 -22.666883
6.488584 -3.7077637 -22.535769
6.5161166 -4.6543684 -22.339106
6.5473647 -5.6120291 -22.115904
6.5889196 -6.5889201 -21.819084
6.6359663 -7.5839601 -21.483038
6.6972609 -8.6107635 -21.045216
6.7625194 -9.6607428 -20.579084
6.8465996 -10.758941 -19.978516
6.9452577 -11.906158 -19.273811
7.0618215 -13.114811 -18.441216
7.2187977 -14.437596 -17.319954
7.4242744 -15.909161 -15.852263
7.7253871 -17.65803 -13.701458
9.0649252 18.12985 -12.227009
8.6283712 16.178198 -14.955475
8.3520765 14.616133 -16.682318
8.1661615 13.270011 -17.844286
8.0202951 12.030441 -18.755953
7.8969984 10.858372 -19.526558
7.796937 9.7461691 -20.151943
7.7171035 8.6817417 -20.6509
7.6437416 7.6437411 -21.109413
7.5840955 6.6360846 -21.482197
7.5359464 5.6519594 -21.783131
7.4974766 4.6859198 -22.023569
7.4693303 3.734664 -22.199484
7.4454398 2.7920418 -22.348795
7.4303341 1.8575821 -22.443207
7.4196062 0.92744732 -22.510258
7.4179392 -1.9073486e-06 -22.520681
7.4203119 -0.92754173 -22.505846
7.4312353 -1.8578091 -22.437576
7.4472709 -2.7927275 -22.337353
7.4703269 -3.7351656 -22.193251
7.5030918 -4.6894331 -21.988476
7.5423484 -5.6567631 -21.743114
7.5893049 -6.6406431 -21.449642
7.6529207 -7.6529226 -21.05204
7.726274 -8.6920595 -20.59358
7.8010473 -9.7513103 -20.126247
7.9028645 -10.866438 -19.489895
8.0268469 -12.040272 -18.715006
8.179678 -13.291979 -17.759808
8.3764238 -14.658743 -16.530148
8.6501713 -16.219074 -14.819223
9.1390963 -18.278191 -11.763449
9.9467621 16.577936 -13.623006
9.5811443 14.904 -15.654216
9.334403 13.483025 -17.025002
9.137517 12.183355 -18.118816
8.9917402 10.989906 -18.928684
8.864356 9.8492851 -19.636372
8.7755938 8.7755928 -20.129498
8.6908064 7.7251606 -20.600536
8.6128893 6.6989155 -21.033409
8.5590353 5.7060223 -21.332603
8.5107727 4.7282028 -21.600727
8.4760294 3.7671223 -21.793743
8.4457283 2.8152418 -21.962082
8.4281816 1.8729277 -22.059566
8.4148121 0.93497944 -22.133839
8.4138346 -2.8610229e-06 -22.139275
8.416523 -0.93517113 -22.124329
8.4301929 -1.8733788 -22.048389
8.4494238 -2.8164778 -21.941551
8.478858 -3.7683811 -21.77803
8.5143747 -4.7302089 -21.580709
8.5612869 -5.7075233 -21.320095
8.6202211 -6.7046161 -20.992682
8.6913023 -7.7255998 -20.597786
8.7748756 -8.7748775 -20.133484
8.8761454 -9.8623867 -19.570873
8.9983606 -10.997996 -18.891907
9.1486568 -12.198211 -18.056923
9.3396702 -13.490634 -16.995737
9.5966043 -14.928051 -15.56833
10.006556 -16.677593 -13.290824
11.538347 17.307518 -11.191067
10.925851 15.29619 -14.253542
10.564535 13.733893 -16.060122
10.320008 12.384008 -17.282751
10.13588 11.149468 -18.203394
9.9915676 9.9915657 -18.924965
9.8637447 8.8773699 -19.564072
9.7655716 7.8124571 -20.054937
9.6735477 6.771482 -20.515057
9.6084499 5.765069 -20.840549
9.5474205 4.7737093 -21.145695
9.5096455 3.8038578 -21.334572
9.4738131 2.842145 -21.513733
9.4549694 1.8909931 -21.60795
9.4381933 0.94381809 -21.69183
9.4378614 -0 -21.693489
9.4376955 -0.94377041 -21.694321
9.4572754 -1.8914547 -21.596418
9.4786682 -2.8436012 -21.48946
9.5195742 -3.8078299 -21.28492
9.5666342 -4.7833161 -21.049625
9.6164312 -5.7698607 -20.800642
9.6822786 -6.7775965 -20.471403
9.7691584 -7.8153281 -20.037003
9.8695221 -8.8825722 -19.535185
9.9949493 -9.9949512 -18.908051
10.145275 -11.159801 -18.156425
10.341897 -12.410275 -17.173317
10.592945 -13.770829 -15.918069
10.961017 -15.345423 -14.077719
11.761629 -17.642443 -10.074649
12.536797 15.955922 -11.897356
11.937704 14.108194 -14.620504
11.601452 12.656128 -16.148926
11.355177 11.355177 -17.268353
11.167829 10.152573 -18.119938
11.007024 9.0057468 -18.850864
10.880632 7.9131861 -19.425375
10.777317 6.8582907 -19.894993
10.702443 5.8376937 -20.235327
10.634063 4.833663 -20.546146
10.585191 3.8491583 -20.768295
10.544487 2.8757668 -20.953312
10.520483 1.9128151 -21.06242
10.501789 0.95470715 -21.147394
10.499701 -1.9073486e-06 -21.156879
10.501103 -0.9546442 -21.150507
10.521984 -1.9130878 -21.055595
10.543167 -2.8754082 -20.959307
10.593712 -3.8522596 -20.729565
10.647304 -4.8396826 -20.485962
10.706683 -5.8400087 -20.216053
10.792036 -6.8676596 -19.828091
10.892082 -7.9215136 -19.373333
11.018603 -9.0152206 -18.798233
11.173786 -10.15799 -18.092859
11.362576 -11.362576 -17.234722
11.618167 -12.674364 -16.072947
11.970239 -14.146645 -14.472621
12.601549 -16.038338 -11.603022
13.587964 14.720295 -12.266278
13.017683 13.017681 -14.642452
12.674405 11.618206 -16.072777
12.405054 10.337543 -17.195072
12.235388 9.1765375 -17.902016
12.077661 8.0517731 -18.55921
11.942791 6.9666276 -19.12117
11.848041 5.9240198 -19.515959
11.765311 4.9022131 -19.860664
11.706395 3.9021311 -20.106148
11.656152 2.9140358 -20.315495
11.627655 1.9379396 -20.434235
11.604037 0.96700096 -20.532642
11.603863 -1.9073486e-06 -20.533369
11.606269 -0.96719074 -20.523346
11.631402 -1.9385681 -20.418623
11.659002 -2.914752 -20.303617
11.710868 -3.9036226 -20.087513
11.777761 -4.9074006 -19.808786
11.865441 -5.9327192 -19.443459
11.959211 -6.9762049 -19.05275
12.095364 -8.0635767 -18.485447
12.252429 -9.1893215 -17.831011
12.44106 -10.36755 -17.045046
12.695238 -11.637301 -15.985974
13.057205 -13.057205 -14.477772
13.68746 -14.828082 -11.851717
14.740417 13.606537 -12.188882
14.169931 11.989944 -14.383059
13.82128 10.631752 -15.724026
13.544662 9.3770704 -16.787945
13.353067 8.2172699 -17.524845
13.192101 7.1034384 -18.143948
13.061829 6.0285363 -18.644993
12.957819 4.9837747 -19.045033
12.884315 3.9644036 -19.327744
12.825109 2.9596386 -19.555456
12.790487 1.9677668 -19.688614
12.762979 0.98176384 -19.794418
12.762629 -2.8610229e-06 -19.795763
12.766834 -0.9820652 -19.779587
12.797999 -1.9689226 -19.659719
12.833724 -2.9616265 -19.522318
12.903746 -3.9703832 -19.253006
12.986377 -4.994761 -18.9352
13.082455 -6.0380554 -18.565666
13.214059 -7.1152649 -18.05949
13.362877 -8.2233114 -17.487118
13.565039 -9.391181 -16.709568
13.841811 -10.647545 -15.645057
14.229354 -12.040223 -14.154511
14.877383 -13.732971 -11.662092
16.167133 12.702746 -11.143036
15.43035 11.021679 -13.774403
15.024574 9.6586533 -15.2236
14.750643 8.428937 -16.201927
14.555223 7.2776117 -16.899857
14.386608 6.165688 -17.502052
14.240286 5.085815 -18.024635
14.169971 4.048563 -18.275753
14.101982 3.0218511 -18.518576
14.043347 2.0061913 -18.727985
14.001235 1.0000868 -18.878387
14.011683 -9.5367432e-07 -18.841064
14.025424 -1.0018167 -18.792
14.053684 -2.0076704 -18.691067
14.098938 -3.0212045 -18.529449
14.178267 -4.0509343 -18.246132
14.264857 -5.0945907 -17.936878
14.403994 -6.173142 -17.43996
14.565434 -7.2827153 -16.863388
14.786951 -8.449687 -16.072254
15.078123 -9.6930809 -15.032356
15.466579 -11.047559 -13.645011
16.28953 -12.798919 -10.705907
16.887569 10.132538 -12.5909
16.397072 8.7451029 -14.225894
16.086012 7.5068026 -15.262762
15.833549 6.3334184 -16.104301
15.693132 5.2310424 -16.572357
15.555183 4.1480484 -17.032185
15.447864 3.0895715 -17.389915
15.401045 2.0534716 -17.545982
15.368684 1.024579 -17.653852
15.355191 -1.9073486e-06 -17.698826
15.342015 -1.0228024 -17.742748
15.397213 -2.0529613 -17.558754
15.466177 -3.0932345 -17.328876
15.559546 -4.1492128 -17.017645
15.69849 -5.232832 -16.554495
15.85586 -6.3423457 -16.02993
16.103128 -7.5147939 -15.205699
16.437159 -8.7664862 -14.092272
16.961859 -10.177115 -12.343266
18.988838 9.4944172 -9.5426731
18.049524 7.8966684 -12.478033
17.633841 6.6126885 -13.777045
17.351177 5.4222441 -14.660365
17.127022 4.281754 -15.360851
17.026218 3.1924129 -15.675865
16.934109 2.1167622 -15.963705
16.842989 1.0526853 -16.248451
16.854015 -9.5367432e-07 -16.213995
16.88253 -1.0551586 -16.124893
16.932325 -2.1165428 -15.969276
17.035456 -3.1941504 -15.646996
17.171057 -4.2927656 -15.223242
17.374479 -5.4295278 -14.587547
17.628948 -6.6108561 -13.79233
18.114737 -7.9251971 -12.274244
19.729284 5.8027306 -10.855492
19.215002 4.5211773 -12.368088
18.980749 3.3495431 -13.057064
18.771826 2.2084475 -13.671546
18.701563 1.1000915 -13.878199
18.696577 -2.3841858e-06 -13.892862
18.718199 -1.1010709 -13.829271
18.844891 -2.2170444 -13.456647
18.97818 -3.3490896 -13.064618
19.228575 -4.5243731 -12.328163
19.723808 -5.8011198 -10.871599
