# .PCD v0.7 - Point Cloud Data file format
VERSION 0.7
FIELDS x y z
SIZE 4 4 4
TYPE F F F
COUNT 1 1 1
WIDTH 1058
HEIGHT 1
VIEWPOINT 0 0 0 1 0 0 0
POINTS 1058
DATA ascii
-23.133709 -1.6689301e-06 -8.0046129
-21.904959 7.301652 -8.0356913
-20.804678 5.7790775 -11.092026
-20.396084 4.5324612 -12.227011
-20.085276 3.3475428 -13.090361
-19.968201 2.2186899 -13.41557
-19.902821 1.1057091 -13.597182
-19.837866 -1.4305115e-06 -13.777615
-19.879461 -1.1044173 -13.662071
-20.003435 -2.2226048 -13.317697
-20.132816 -3.3554711 -12.958309
-20.452612 -4.5450239 -12.069984
-20.821653 -5.783792 -11.044871
-19.952477 9.3894005 -10.199039
-19.218307 7.9134212 -12.35836
-18.816566 6.6411405 -13.53995
-18.498272 5.4406686 -14.476118
-18.336702 4.314517 -14.951319
-18.212969 3.2140522 -15.315241
-18.100533 2.1294708 -15.645941
-18.055193 1.0620699 -15.779287
-18.05567 4.7683716e-07 -15.777882
-18.056147 -1.0621247 -15.776484
-18.098196 -2.1292014 -15.652807
-18.224436 -3.2160769 -15.281513
-18.36058 -4.320138 -14.881092
-18.576532 -5.463686 -14.245941
-18.856583 -6.6552653 -13.422258
-19.292379 -7.943922 -12.140502
-20.025068 -9.423563 -9.9855375
-19.128723 11.955452 -9.1055384
-18.086359 10.173573 -12.362929
-17.575876 8.7879362 -13.958181
-17.277529 7.5589185 -14.890516
-17.039402 6.3897734 -15.634663
-16.872074 5.2725229 -16.157564
-16.712555 4.1781383 -16.656057
-16.632284 3.1185541 -16.906908
-16.578894 2.0723591 -17.073753
-16.525793 1.0328588 -17.239697
-16.506086 -3.8146973e-06 -17.301277
-16.541187 -1.0338225 -17.191586
-16.578573 -2.0723219 -17.074753
-16.624819 -3.1171551 -16.930237
-16.747835 -4.1869602 -16.545815
-16.887791 -5.2774348 -16.108456
-17.077662 -6.4041257 -15.515104
-17.318556 -7.576869 -14.762309
-17.656696 -8.8283482 -13.705622
-18.113588 -10.188893 -12.277828
-17.306652 12.69154 -11.193963
-16.598173 11.065447 -13.555555
-16.249153 9.7494936 -14.718953
-15.952427 8.5079613 -15.708039
-15.719398 7.3357177 -16.484802
-15.555835 6.2223315 -17.030012
-15.425454 5.1418161 -17.464619
-15.330273 4.0880728 -17.781887
-15.241455 3.0482898 -18.077946
-15.185168 2.0246887 -18.265564
-15.173332 1.0115547 -18.305023
-15.161514 -0 -18.344418
-15.157848 -1.0105257 -18.356636
-15.201618 -2.0268841 -18.210735
-15.262706 -3.0525413 -18.007107
-15.332123 -4.0885653 -17.775717
-15.44727 -5.1490932 -17.391893
-15.56411 -6.225646 -17.00243
-15.742107 -7.3463163 -16.409107
-15.968627 -8.5166044 -15.654038
-16.273254 -9.7639551 -14.638616
-16.674425 -11.116283 -13.301381
-17.41774 -12.77301 -10.823668
-16.004097 13.717794 -11.725304
-15.399444 12.099564 -13.884778
-15.008809 10.720579 -15.279905
-14.72389 9.4653549 -16.297476
-14.527581 8.3014736 -16.998581
-14.359327 7.1796632 -17.599483
-14.211268 6.0905442 -18.128262
-14.112362 5.0401287 -18.481503
-14.040284 4.0115085 -18.738926
-13.974961 2.9946327 -18.972221
-13.930672 1.9900961 -19.1304
-13.909899 0.99356174 -19.204586
-13.898143 -0 -19.246576
-13.910672 -0.99361992 -19.201826
-13.936489 -1.9909296 -19.109625
-13.987282 -2.9972768 -18.928215
-14.038446 -4.0109849 -18.745489
-14.117005 -5.0417862 -18.46492
-14.243481 -6.1043496 -18.013222
-14.374078 -7.1870403 -17.546801
-14.552027 -8.3154449 -16.911272
-14.769259 -9.4945259 -16.135439
-15.027681 -10.734059 -15.212504
-15.43294 -12.125882 -13.765154
-16.043819 -13.751846 -11.583442
-14.838915 14.838912 -11.810044
-14.23037 13.135726 -14.150601
-13.867597 11.73412 -15.545884
-13.605801 10.466 -16.552795
-13.388192 9.2687454 -17.389751
-13.216898 8.1334743 -18.048573
-13.098552 7.0530643 -18.503752
-12.990126 5.9954424 -18.920773
-12.894956 4.9595976 -19.286808
-12.819489 3.9444561 -19.577068
-12.779352 2.9490795 -19.731441
-12.742221 1.9603386 -19.874252
-12.71098 0.97776508 -19.994411
-12.719018 -9.5367432e-07 -19.963497
-12.730163 -0.97924137 -19.92063
-12.742648 -1.9604082 -19.872608
-12.775333 -2.9481554 -19.746899
-12.842549 -3.9515553 -19.488377
-12.910476 -4.9655666 -19.227121
-12.997713 -5.9989438 -18.891594
-13.108114 -7.0582147 -18.466974
-13.23136 -8.142374 -17.99295
-13.415667 -9.2877712 -17.284075
-13.613371 -10.471827 -16.523678
-13.896386 -11.758481 -15.435162
-14.274456 -13.176422 -13.981043
-14.937886 -14.937887 -11.429392
-13.762774 16.056568 -11.537907
-13.168693 14.266085 -14.013241
-12.7942 12.794197 -15.573627
-12.510785 11.468216 -16.754528
-12.317377 10.264481 -17.56039
-12.154864 9.1161461 -18.237526
-12.017863 8.0119076 -18.808365
-11.89684 6.9398212 -19.312632
-11.816393 5.9081964 -19.647823
-11.745523 4.8939676 -19.943113
-11.685602 3.8952007 -20.192783
-11.647223 2.9118061 -20.352699
-11.615659 1.9359436 -20.484217
-11.601283 0.96677303 -20.544119
-11.589864 -1.9073486e-06 -20.591698
-11.59989 -0.96665668 -20.549927
-11.619643 -1.9366083 -20.467615
-11.648453 -2.9121132 -20.347578
-11.698027 -3.8993421 -20.141016
-11.755821 -4.8982587 -19.900211
-11.814839 -5.9074216 -19.654301
-11.917656 -6.9519677 -19.225897
-12.037567 -8.0250435 -18.726265
-12.165624 -9.1242189 -18.192696
-12.345846 -10.288204 -17.441769
-12.545981 -11.500485 -16.607872
-12.809308 -12.809306 -15.510681
-13.224609 -14.32666 -13.780254
-13.924244 -16.244953 -10.865115
-12.940015 17.645472 -10.064548
-12.146434 15.459097 -13.671732
-11.769347 13.909227 -15.385763
-11.491038 12.535677 -16.650803
-11.284163 11.284161 -17.591148
-11.11544 10.104946 -18.358067
-10.981688 8.9850178 -18.96603
-10.870843 7.9060669 -19.469873
-10.776399 6.8577065 -19.89917
-10.705615 5.8394246 -20.220909
-10.645735 4.8389702 -20.493092
-10.594948 3.8527069 -20.723942
-10.544675 2.8758192 -20.952456
-10.529151 1.9143906 -21.023022
-10.518139 0.95619202 -21.073074
-10.507243 -1.9073486e-06 -21.122599
-10.513827 -0.95580387 -21.092669
-10.537927 -1.915987 -20.983131
-10.563585 -2.8809795 -20.866501
-10.589561 -3.8507519 -20.74843
-10.647047 -4.8395667 -20.487129
-10.715791 -5.8449774 -20.174658
-10.78546 -6.8634763 -19.857973
-10.887392 -7.9181051 -19.39465
-10.991986 -8.9934425 -18.919224
-11.130294 -10.118448 -18.290552
-11.303872 -11.30387 -17.50156
-11.512788 -12.559403 -16.551943
-11.795937 -13.940654 -15.264903
-12.220736 -15.553663 -13.334
-13.113924 -17.882622 -9.2740555
-11.223553 16.835327 -12.765034
-10.791902 15.108662 -14.923288
-10.481852 13.626409 -16.473537
-10.287449 12.344938 -17.445553
-10.11794 11.129736 -18.293095
-9.9713516 9.9713497 -19.026039
-9.8682508 8.881423 -19.54154
-9.7760429 7.8208332 -20.002581
-9.6976547 6.7883563 -20.394522
-9.6204844 5.7722878 -20.780376
-9.5775385 4.7887659 -20.995106
-9.5409107 3.8163624 -21.178242
-9.5076504 2.8522949 -21.344543
-9.4853163 1.8970623 -21.456215
-9.4755697 0.94755363 -21.504948
-9.4713306 -0 -21.52614
-9.4741468 -0.94741631 -21.51206
-9.4895401 -1.8979082 -21.435099
-9.5111065 -2.8533354 -21.327265
-9.5417309 -3.8166933 -21.174141
-9.5842409 -4.7921219 -20.96159
-9.6430845 -5.785852 -20.667374
-9.7026243 -6.7918386 -20.369673
-9.7735491 -7.8188386 -20.015053
-9.8827362 -8.8944645 -19.469114
-9.9943905 -9.9943905 -18.910845
-10.137924 -11.151718 -18.193176
-10.307911 -12.369493 -17.343243
-10.535726 -13.696444 -16.204166
-10.818275 -15.145587 -14.791418
-11.259561 -16.889343 -12.584989
-10.355145 18.409143 -11.354214
-9.8282604 16.380434 -14.281349
-9.5236816 14.814615 -15.973452
-9.3119259 13.45056 -17.14987
-9.1268625 12.169148 -18.178001
-9.003396 11.004149 -18.863932
-8.889822 9.8775806 -19.494896
-8.786108 8.786108 -20.071083
-8.7096491 7.7419086 -20.495859
-8.6490507 6.7270389 -20.832516
-8.5930347 5.7286873 -21.143711
-8.5491066 4.7495022 -21.387762
-8.5166779 3.7851896 -21.567915
-8.4908876 2.8302965 -21.711197
-8.4665394 1.8814516 -21.846462
-8.4536905 0.93929768 -21.91785
-8.4561577 -9.5367432e-07 -21.904139
-8.4586277 -0.9398489 -21.890419
-8.4611235 -1.8802519 -21.876556
-8.490366 -2.830121 -21.7141
-8.5219908 -3.7875519 -21.538404
-8.5538273 -4.7521281 -21.36153
-8.5984182 -5.7322779 -21.113808
-8.6548138 -6.7315254 -20.800499
-8.7215557 -7.7524929 -20.429712
-8.8058214 -8.8058205 -19.961567
-8.9012413 -9.8902693 -19.431454
-9.0029478 -11.003606 -18.866419
-9.1565819 -12.208778 -18.012897
-9.3189068 -13.460644 -17.11109
-9.5540285 -14.861822 -15.804862
-9.8855867 -16.475977 -13.962868
-10.451624 -18.580666 -10.818215
-8.9311876 17.862373 -13.062879
-8.5769768 16.081829 -15.276692
-8.3551664 14.621537 -16.663008
-8.1738358 13.282482 -17.796324
-8.0360165 12.054024 -18.657696
-7.9222455 10.893085 -19.368763
-7.8284683 9.7855816 -19.954872
-7.7472682 8.7156754 -20.46237
-7.6832271 7.6832256 -20.862627
-7.6313486 6.6774263 -21.186871
-7.5855927 5.6891928 -21.472841
-7.5423927 4.7139959 -21.74284
-7.5111465 3.7555742 -21.938126
-7.4926758 2.8097506 -22.053574
-7.4767485 1.8691864 -22.153118
-7.4647827 0.93309593 -22.227907
-7.4669685 -9.5367432e-07 -22.214241
-7.4699368 -0.93374443 -22.19569
-7.4782906 -1.8695736 -22.143482
-7.4951849 -2.8106956 -22.037891
-7.5217462 -3.7608747 -21.871887
-7.5484962 -4.7178116 -21.704695
-7.5806117 -5.6854587 -21.503971
-7.6361012 -6.6815882 -21.157162
-7.6945243 -7.6945271 -20.792019
-7.7541518 -8.7234221 -20.41935
-7.8375235 -9.7969065 -19.898272
-7.9367766 -10.913069 -19.277943
-8.0545187 -12.081779 -18.542051
-8.1945181 -13.316092 -17.667059
-8.3808136 -14.666425 -16.502714
-8.6104221 -16.144543 -15.067656
-8.9679585 -17.935919 -12.833055
-8.1127939 19.702497 -10.934271
-7.6677756 17.526344 -14.112969
-7.4094281 15.877345 -15.958311
-7.2197003 14.439399 -17.313511
-7.0885749 13.164495 -18.250116
-6.9728169 11.953398 -19.076962
-6.872478 10.799608 -19.793667
-6.8026657 9.7180948 -20.292322
-6.7370582 8.6619301 -20.760956
-6.6777067 7.6316657 -21.184889
-6.6296391 6.6296391 -21.528233
-6.5930457 5.6511803 -21.789612
-6.5614767 4.6867695 -22.015106
-6.5342984 3.7338848 -22.20923
-6.5204549 2.7944822 -22.308119
-6.5073643 1.8592463 -22.401625
-6.4983921 0.92834091 -22.465714
-6.4928479 9.5367432e-07 -22.505312
-6.4976978 -0.92824268 -22.470667
-6.5081539 -1.8594742 -22.395985
-6.5186434 -2.7937021 -22.321058
-6.5377879 -3.7358799 -22.184309
-6.5668316 -4.6905947 -21.976858
-6.5995164 -5.6567307 -21.743393
-6.638196 -6.6381974 -21.467112
-6.6872015 -7.6425157 -21.117069
-6.7381053 -8.6632786 -20.753469
-6.8080316 -9.7257595 -20.253996
-6.8922634 -10.830701 -19.652344
-6.9799895 -11.965696 -19.02573
-7.1028118 -13.190938 -18.148426
-7.2400489 -14.480099 -17.168161
-7.4337802 -15.92953 -15.784369
-7.7087331 -17.619961 -13.820419
-8.2173443 -19.956406 -10.187482
-6.7831702 19.218981 -12.356375
-6.4673772 17.246334 -14.987988
-6.2861013 15.715252 -16.498621
-6.1366692 14.318894 -17.743885
-6.027802 13.060236 -18.651114
-5.9337964 11.867591 -19.434492
-5.8584008 10.7404 -20.06279
-5.7923765 9.6539612 -20.612991
-5.7395029 8.6092529 -21.053604
-5.6919618 7.5892825 -21.449781
-5.6519928 6.5939918 -21.782856
-5.6249256 5.6249247 -22.008419
-5.598814 4.665678 -22.226013
-5.5767741 3.7178488 -22.409678
-5.5587616 2.7793818 -22.559782
-5.5494161 1.8498039 -22.637663
-5.5418029 0.92363262 -22.701105
-5.5362892 1.9073486e-06 -22.747049
-5.5419617 -0.92366219 -22.69978
-5.5512185 -1.8504057 -22.622639
-5.5605221 -2.780261 -22.545109
-5.5745687 -3.7163763 -22.428057
-5.6012015 -4.6676702 -22.20612
-5.6282701 -5.6282716 -21.980545
-5.6562643 -6.5989761 -21.747261
-5.6965294 -7.5953717 -21.41172
-5.7477889 -8.6216822 -20.984558
-5.7999969 -9.6666641 -20.549486
-5.8682284 -10.758419 -19.980896
-5.9415746 -11.883148 -19.369677
-6.0382071 -13.082783 -18.564407
-6.1534877 -14.358141 -17.603731
-6.3054376 -15.763593 -16.337484
-6.5023751 -17.339668 -14.696335
-6.8236327 -19.333628 -12.019193
-5.5690293 18.934696 -13.192507
-5.3413749 17.092396 -15.469049
-5.1916189 15.574855 -16.966606
-5.0838237 14.234705 -18.044559
-4.9842238 12.958981 -19.040556
-4.9190273 11.805664 -19.692524
-4.8572578 10.685967 -20.310217
-4.7995105 9.5990171 -20.887693
-4.7616186 8.5709114 -21.266613
-4.725111 7.5601773 -21.631687
-4.6931248 6.5703764 -21.951546
-4.6657729 5.5989275 -22.225067
-4.6457553 4.6457539 -22.425241
-4.6275454 3.702034 -22.607342
-4.6113796 2.7668266 -22.768995
-4.60606 1.8424244 -22.822195
-4.6027269 0.92054272 -22.855526
-4.6003585 -1.9073486e-06 -22.879213
-4.6004901 -0.92010021 -22.877897
-4.6081443 -1.8432579 -22.801353
-4.617281 -2.7703705 -22.709984
-4.6304216 -3.70434 -22.578579
-4.6479564 -4.6479588 -22.403233
-4.6701741 -5.6042085 -22.181053
-4.694809 -6.5727348 -21.934704
-4.7265959 -7.5625539 -21.616838
-4.7679958 -8.5823917 -21.202839
-4.8101416 -9.6202812 -20.781382
-4.8585191 -10.688743 -20.297606
-4.9281564 -11.827577 -19.601229
-4.999804 -12.999491 -18.884758
-5.0935755 -14.262012 -17.947041
-5.2058959 -15.617685 -16.823841
-5.3650966 -17.168308 -15.231831
-5.5931096 -19.016573 -12.951704
-4.7422786 21.34025 -9.6043205
-4.3989539 18.695557 -13.895865
-4.2415619 16.966248 -15.863272
-4.1278977 15.479614 -17.284075
-4.0432987 14.151545 -18.34156
-3.9742937 12.916453 -19.204128
-3.9177363 11.753207 -19.911093
-3.8687563 10.639079 -20.523342
-3.8297503 9.5743761 -21.010918
-3.7946301 8.5379162 -21.449921
-3.7667384 7.533474 -21.798569
-3.7415035 6.5476313 -22.114002
-3.7173555 5.5760326 -22.415848
-3.7042308 4.6302872 -22.579914
-3.6923945 3.6923943 -22.727861
-3.6816657 2.7612486 -22.861977
-3.6735444 1.8367729 -22.963493
-3.6708837 0.91771984 -22.996754
-3.6699836 -2.8610229e-06 -23.008003
-3.6697009 -0.91742516 -23.011536
-3.6723285 -1.8361645 -22.978687
-3.6824553 -2.7618437 -22.852104
-3.692903 -3.6929045 -22.721506
-3.7034104 -4.6292658 -22.590168
-3.7227414 -5.5841126 -22.348526
-3.7459781 -6.5554647 -22.058067
-3.7694957 -7.5389924 -21.764101
-3.7992442 -8.5482998 -21.392248
-3.8329887 -9.5824718 -20.970436
-3.8738556 -10.653105 -20.4596
-3.9256334 -11.776901 -19.812378
-3.9814968 -12.939865 -19.114088
-4.0501809 -14.175633 -18.255535
-4.1391129 -15.521673 -17.143887
-4.2583709 -17.033484 -15.653159
-4.4227276 -18.796593 -13.598704
-3.4828944 20.897366 -10.834555
-3.2738428 18.551773 -14.318749
-3.1630371 16.86953 -16.165508
-3.0816739 15.408367 -17.521568
-3.02139 14.099819 -18.526297
-2.9725983 12.881256 -19.339493
-2.9258981 11.70359 -20.117826
-2.8938618 10.610825 -20.651768
-2.8649657 9.5498829 -21.133369
-2.8366408 8.5099239 -21.605448
-2.8166554 7.5110779 -21.938538
-2.8001702 6.5337296 -22.213295
-2.7845833 5.5691671 -22.473076
-2.7717845 4.6196375 -22.68639
-2.762948 3.6839275 -22.833664
-2.755693 2.7556915 -22.95458
-2.7488434 1.8325615 -23.068737
-2.7450061 0.91499996 -23.132698
-2.7448812 -0 -23.134777
-2.7463412 -0.9154501 -23.110439
-2.7485383 -1.8323612 -23.073824
-2.7558579 -2.7558584 -22.951828
-2.763818 -3.6850929 -22.819162
-2.7725806 -4.6209679 -22.673122
-2.7858286 -5.5716567 -22.452318
-2.8027956 -6.5398574 -22.169533
-2.8199708 -7.5199218 -21.883282
-2.8385007 -8.515502 -21.574451
-2.8683786 -9.5612621 -21.076483
-2.8989015 -10.629306 -20.567774
-2.9329021 -11.73161 -20.001095
-2.976227 -12.896985 -19.279013
-3.0265045 -14.12369 -18.441055
-3.0923338 -15.461667 -17.343904
-3.1757824 -16.937508 -15.953089
-3.2926674 -18.658447 -14.005009
-3.530915 -21.185492 -10.034216
-2.2954645 20.65918 -11.496183
-2.1762156 18.497828 -14.477407
-2.1014488 16.81159 -16.346575
-2.04936 15.370201 -17.648792
-2.0086091 14.060263 -18.667568
-1.976341 12.846216 -19.474274
-1.9469877 11.681925 -20.208103
-1.9256971 10.591331 -20.740368
-1.9065655 9.5328255 -21.218658
-1.8892955 8.5018272 -21.65041
-1.8749533 7.4998126 -22.008965
-1.8639905 6.5239668 -22.283031
-1.8541481 5.5624447 -22.529091
-1.8447899 4.6119728 -22.76305
-1.8380098 3.6760178 -22.932549
-1.8334967 2.7502432 -23.045376
-1.8301133 1.8301115 -23.129963
-1.8273441 0.91367054 -23.199196
-1.8282574 -9.5367432e-07 -23.176357
-1.8292291 -0.91461563 -23.152065
-1.8311338 -1.8311338 -23.104448
-1.8341864 -2.7512808 -23.028133
-1.8394755 -3.6789522 -22.895912
-1.8467377 -4.6168442 -22.714354
-1.8542818 -5.5628452 -22.525757
-1.8648492 -6.5269723 -22.261564
-1.8767411 -7.5069628 -21.964272
-1.8912383 -8.5105715 -21.601837
-1.9089404 -9.5447025 -21.159286
-1.9289057 -10.608981 -20.660152
-1.9497834 -11.698702 -20.138212
-1.9805431 -12.873531 -19.369219
-2.0139384 -14.097569 -18.534332
-2.0551903 -15.413929 -17.503035
-2.1086223 -16.86898 -16.167236
-2.1865733 -18.585873 -14.218466
-2.3259487 -20.93354 -10.734077
-1.1444832 20.600695 -11.658635
-1.0859818 18.461689 -14.583704
-1.0490804 16.785286 -16.428778
-1.0237672 15.356507 -17.694431
-1.0029837 14.041771 -18.733612
-0.98627168 12.821531 -19.569212
-0.97242904 11.669148 -20.261345
-0.96142471 10.575672 -20.811556
-0.95197719 9.5197706 -21.283937
-0.94435388 8.4991837 -21.665104
-0.93685442 7.4948339 -22.040077
-0.93066931 6.5146837 -22.349331
-0.92595649 5.5557365 -22.584972
-0.92183483 4.6091738 -22.791058
-0.91832054 3.6732836 -22.966766
-0.916623 2.7498684 -23.051643
-0.91493183 1.8298626 -23.136206
-0.91376799 0.91376686 -23.194397
-0.91329867 -9.5367432e-07 -23.217865
-0.91392893 -0.91392803 -23.186352
-0.9149527 -1.8299046 -23.135164
-0.91597605 -2.7479296 -23.083994
-0.91880816 -3.6752357 -22.942387
-0.92254299 -4.6127148 -22.755646
-0.9263109 -5.5578661 -22.567249
-0.93097341 -6.5168147 -22.334126
-0.93810791 -7.5048637 -21.977402
-0.94535249 -8.5081749 -21.61517
-0.95300049 -9.5300064 -21.232769
-0.96313381 -10.594476 -20.726103
-0.97531116 -11.703734 -20.117237
-0.98918498 -12.859406 -19.42355
-1.005654 -14.079156 -18.6001
-1.0261633 -15.392451 -17.574629
-1.0530313 -16.848503 -16.231228
-1.0917363 -18.559515 -14.295982
-1.1578655 -20.841579 -10.989521
0 20.622551 -11.597926
0 18.442459 -14.640263
0 16.796181 -16.39473
0 15.357388 -17.691498
0 14.051451 -18.699047
0 12.828882 -19.540936
0 11.676628 -20.230179
0 10.579716 -20.793169
0 9.5216293 -21.274643
0 8.5007076 -21.656649
0 7.4960365 -22.032576
0 6.5138931 -22.354984
0 5.5589361 -22.558315
0 4.6122923 -22.75988
0 3.676137 -22.931103
0 2.7494917 -23.057909
0 1.8300085 -23.132563
0 0.91386127 -23.189724
0 -3.8146973e-06 -23.246616
0 -0.91344547 -23.210606
0 -1.8300753 -23.130871
0 -2.7499342 -23.050598
0 -3.6764507 -22.927166
0 -4.6145554 -22.737259
0 -5.5604434 -22.545776
0 -6.521852 -22.298141
0 -7.5062189 -21.968924
0 -8.5086489 -21.61253
0 -9.5280876 -21.242367
0 -10.599898 -20.701445
0 -11.708741 -20.096386
0 -12.846968 -19.471388
0 -14.089239 -18.564089
0 -15.40011 -17.549093
0 -16.865057 -16.179495
0 -18.53688 -14.36256
0 -20.862144 -10.932392
1.153231 20.758154 -11.221251
1.0878099 18.492769 -14.492299
1.0523598 16.837755 -16.264805
1.0253395 15.380093 -17.615822
1.0053147 14.074404 -18.617062
0.98845279 12.849884 -19.460159
0.97438693 11.692642 -20.16345
0.96386939 10.602562 -20.689325
0.95357656 9.5357647 -21.203968
0.94516379 8.5064735 -21.624611
0.9382118 7.505692 -21.972208
0.93220854 6.5254555 -22.272369
0.92711949 5.5627146 -22.526821
0.92329997 4.6164961 -22.7178
0.91987967 3.6795177 -22.888813
0.91648465 2.7494535 -23.058561
0.91527015 1.8305397 -23.119293
0.9146874 0.91468525 -23.148426
0.91415477 -9.5367432e-07 -23.175056
0.91456521 -0.91456413 -23.154533
0.9161638 -1.8323288 -23.074608
0.9179852 -2.7539568 -22.983534
0.92009801 -3.6803932 -22.877895
0.92338204 -4.616909 -22.713694
0.92791873 -5.5675144 -22.486858
0.93295979 -6.5307178 -22.234806
0.93859488 -7.5087576 -21.953051
0.9460361 -8.5143299 -21.580988
0.95497721 -9.5497704 -21.133938
0.96466684 -10.611334 -20.649456
0.97674686 -11.720963 -20.045454
0.99031115 -12.874044 -19.367239
1.0080954 -14.113336 -18.478029
1.028334 -15.425009 -17.466097
1.0563253 -16.901205 -16.066534
1.0937473 -18.5937 -14.195434
1.1671922 -21.009462 -10.523184
2.329906 20.969154 -10.635149
2.1898613 18.613815 -14.136269
2.1102123 16.881699 -16.127485
2.0579569 15.434676 -17.433874
2.0156982 14.109889 -18.490341
1.982776 12.888045 -19.313395
1.9533811 11.720286 -20.048269
1.932073 10.626402 -20.580971
1.9113098 9.5565491 -21.100048
1.8921112 8.5144978 -21.580017
1.8798708 7.5194826 -21.886024
1.8678203 6.5373678 -22.187292
1.8559232 5.5677691 -22.484718
1.8487533 4.6218824 -22.66396
1.8430362 3.6860723 -22.806896
1.8375429 2.7563114 -22.944221
1.8342073 1.8342066 -23.027615
1.8330373 0.91651821 -23.056864
1.8323849 -2.8610229e-06 -23.07317
1.8322076 -0.91610718 -23.077608
1.8345838 -1.8345823 -23.018204
1.8386557 -2.7579851 -22.916401
1.842899 -3.6858006 -22.810326
1.8486525 -4.6216335 -22.666485
1.8588282 -5.5764837 -22.412092
1.8691165 -6.5419087 -22.154882
1.8799146 -7.51966 -21.88493
1.8965043 -8.5342731 -21.470188
1.9143113 -9.5715599 -21.025013
1.9326125 -10.62937 -20.567484
1.957599 -11.745597 -19.942818
1.9875212 -12.918886 -19.194771
2.0202978 -14.142086 -18.375351
2.0652599 -15.48945 -17.251293
2.1201663 -16.96133 -15.878643
2.2023897 -18.720312 -13.823057
2.3837845 -21.454062 -9.2881832
3.6000495 21.600292 -8.8819752
3.3081689 18.746288 -13.746649
3.1872203 16.998507 -15.762457
3.1037362 15.518681 -17.153864
3.0368333 14.171888 -18.268909
2.9850423 12.935184 -19.132092
2.9423497 11.769397 -19.843636
2.9049284 10.651402 -20.467323
2.875675 9.5855818 -20.954882
2.8497105 8.5491295 -21.387619
2.828099 7.5415978 -21.747812
2.8097699 6.5561314 -22.053297
2.7934699 5.5869398 -22.324965
2.7810299 4.6350479 -22.532295
2.7724133 3.6965494 -22.675907
2.7647519 2.7647505 -22.803596
2.7577393 1.8384933 -22.920473
2.7550638 0.91835403 -22.965067
2.7547178 -0 -22.970833
2.7544506 -0.91814995 -22.975285
2.7564955 -1.8376637 -22.941208
2.7647758 -2.7647772 -22.8032
2.7731061 -3.6974745 -22.664362
2.7825289 -4.6375494 -22.50732
2.7961478 -5.5922961 -22.280333
2.8116601 -6.5605397 -22.021795
2.8306694 -7.5484509 -21.704971
2.8528347 -8.5585022 -21.335554
2.8796375 -9.598793 -20.88884
2.9096997 -10.668898 -20.387802
2.9476318 -11.790529 -19.7556
2.992583 -12.967861 -19.006411
3.0417607 -14.194882 -18.186789
3.1147704 -15.573853 -16.969957
3.1957021 -17.043747 -15.621095
3.3315017 -18.878511 -13.357766
4.4647107 18.975021 -13.073911
4.2889166 17.155666 -15.271337
4.1609607 15.6036 -16.870789
4.0734162 14.256958 -17.965092
3.9978306 12.992947 -18.909914
3.9418736 11.825619 -19.609381
3.8888702 10.694393 -20.271919
3.8514059 9.6285124 -20.740225
3.8163302 8.5867424 -21.178669
3.7820547 7.5641088 -21.607115
3.7588193 6.5779324 -21.897552
3.7395144 5.609273 -22.138865
3.7204068 4.6505089 -22.377712
3.7071216 3.7071218 -22.543774
3.6976657 2.7732515 -22.661972
3.6882582 1.8441286 -22.779564
3.6830666 0.92076492 -22.844467
3.6850383 -9.5367432e-07 -22.81982
3.6870222 -0.9217577 -22.795015
3.6903942 -1.8451977 -22.752869
3.6993446 -2.7745066 -22.640987
3.7108514 -3.7108507 -22.497154
3.724077 -4.655097 -22.331833
3.7387869 -5.6081824 -22.147961
3.7624226 -6.5842409 -21.852512
3.7887332 -7.5774689 -21.52363
3.8154027 -8.5846558 -21.190262
3.8548775 -9.6371956 -20.696829
3.8998857 -10.724687 -20.134226
3.946187 -11.83856 -19.555454
4.0090361 -13.029367 -18.769844
4.0853615 -14.298767 -17.815781
4.1780171 -15.667562 -16.657583
4.3070264 -17.228104 -15.044971
4.5125709 -19.178429 -12.47566
5.6876268 19.337931 -12.006527
5.4176793 17.336567 -14.706008
5.2523875 15.757161 -16.358921
5.1331735 14.372889 -17.551058
5.0343266 13.089248 -18.53953
4.9582386 11.899769 -19.300413
4.893373 10.765418 -19.94907
4.8373995 9.674799 -20.508804
4.7928486 8.6271257 -20.954311
4.7515092 7.6024137 -21.367706
4.7200522 6.6080737 -21.682276
4.6953163 5.6343765 -21.929636
4.6708245 4.6708231 -22.174547
4.6514359 3.7211494 -22.368435
4.6422577 2.7853537 -22.460222
4.6331015 1.85324 -22.551781
4.625989 0.92519855 -22.622906
4.6260686 -1.9073486e-06 -22.622108
4.6290631 -0.92581177 -22.592163
4.6339288 -1.8535728 -22.543507
4.6405172 -2.7843132 -22.477627
4.6561065 -3.724884 -22.321732
4.6735649 -4.6735649 -22.147148
4.6946449 -5.6335759 -21.936348
4.7252913 -6.6154079 -21.629883
4.7592101 -7.6147366 -21.290695
4.7963772 -8.6334791 -20.919024
4.845469 -9.6909399 -20.428102
4.9019594 -10.784313 -19.863203
4.9618311 -11.908396 -19.264482
5.0484943 -13.126087 -18.397854
5.1451387 -14.406392 -17.431408
5.272748 -15.818245 -16.155317
5.4440546 -17.420977 -14.442249
5.7648535 -19.600502 -11.234262
7.0575452 19.996378 -10.06992
6.597259 17.592688 -13.905638
6.3795791 15.948947 -15.719636
6.2117252 14.494025 -17.11842
6.0939274 13.203507 -18.100071
5.9874306 11.974859 -18.987545
5.9113259 10.83743 -19.621746
5.8375201 9.7291985 -20.236797
5.7857289 8.6785927 -20.668388
5.7406974 7.6542616 -21.04365
5.6963611 6.6457534 -21.41312
5.6646438 5.6646423 -21.677429
5.6373734 4.6978083 -21.904686
5.6146049 3.7430687 -22.094421
5.599463 2.7997313 -22.220602
5.5892687 1.8630896 -22.305557
5.5810943 0.93018055 -22.373676
5.5752125 9.5367432e-07 -22.422691
5.5801749 -0.93002987 -22.381336
5.5867782 -1.8622599 -22.326313
5.5968666 -2.7984333 -22.242241
5.6178069 -3.7452049 -22.067741
5.6427269 -4.7022753 -21.860073
5.6697998 -5.6697989 -21.634462
5.7015581 -6.6518202 -21.369808
5.7436342 -7.6581793 -21.019176
5.7946882 -8.6920338 -20.593725
5.8483758 -9.7472916 -20.146332
5.9209323 -10.855043 -19.541693
6.0078478 -12.015696 -18.817402
6.1062989 -13.230317 -17.996975
6.2378521 -14.554989 -16.900694
6.4001322 -16.000332 -15.548361
6.6552415 -17.747311 -13.422453
7.3291445 -20.765913 -7.8065858
7.8663082 17.980135 -12.694878
7.5449705 16.167793 -14.990151
7.3310876 14.662175 -16.517883
7.1849532 13.343483 -17.561703
7.0565572 12.096955 -18.478819
6.957634 10.933426 -19.185408
6.8731279 9.8187551 -19.789024
6.7997098 8.7424831 -20.313444
6.7452073 7.7088075 -20.702744
6.6915913 6.6915922 -21.085712
6.6459503 5.6965275 -21.411722
6.6188288 4.7277327 -21.60545
6.591908 3.7668056 -21.797741
6.5666022 2.8142567 -21.978495
6.5561872 1.8731947 -22.052891
6.5494585 0.93563557 -22.100948
6.5442834 -9.5367432e-07 -22.137917
6.5513058 -0.9359026 -22.087757
6.562891 -1.8751125 -22.005005
6.5765324 -2.8185148 -21.907568
6.5944166 -3.7682352 -21.779823
6.6243758 -4.7316966 -21.565826
6.6575975 -5.7065163 -21.328527
6.6911349 -6.6911354 -21.088982
6.7478948 -7.7118788 -20.683552
6.8101521 -8.7559071 -20.238857
6.8765059 -9.8235836 -19.764896
6.9711547 -10.954674 -19.088831
7.0741286 -12.127081 -18.353304
7.1940851 -13.360443 -17.496471
7.3711953 -14.742391 -16.231403
7.5798254 -16.242485 -14.741187
7.9540749 -18.180742 -12.06798
9.3394003 18.678797 -10.511545
8.7927999 16.4865 -13.927792
8.5088043 14.890406 -15.70277
8.3075018 13.499689 -16.960913
8.1604414 12.240662 -17.880039
8.0251198 11.034536 -18.725798
7.9295406 9.9119263 -19.323166
7.8394809 8.819416 -19.886042
7.7664318 7.7664289 -20.342598
7.7124567 6.7483983 -20.679943
7.6605945 5.7454462 -21.004082
7.6234622 4.7646627 -21.236156
7.5914078 3.7957039 -21.436497
7.5642643 2.8365984 -21.606142
7.5502005 1.8875504 -21.694042
7.5435419 0.94293976 -21.735661
7.5394773 -9.5367432e-07 -21.761063
7.5391464 -0.94239521 -21.763134
7.5531244 -1.8882809 -21.67577
7.5703812 -2.8388929 -21.567915
7.5876942 -3.7938471 -21.459709
7.6237783 -4.7648621 -21.234182
7.6704769 -5.7528577 -20.942314
7.7193942 -6.754468 -20.636585
7.7795734 -7.779573 -20.260464
7.8522243 -8.8337545 -19.806391
7.9418931 -9.9273701 -19.245962
8.0439749 -11.060465 -18.607952
8.1795998 -12.269401 -17.76029
8.3364182 -13.546679 -16.780184
8.554492 -14.970363 -15.417222
8.8468227 -16.587791 -13.590157
9.5572605 -19.114521 -9.1499176
10.189396 16.982327 -12.27504
9.7671795 15.193388 -14.620689
9.4963293 13.71692 -16.12541
9.2966242 12.395496 -17.234888
9.138814 11.169661 -18.111609
9.0205564 10.022839 -18.768595
8.9193878 8.9193859 -19.330643
8.8246822 7.8441625 -19.856781
8.7620811 6.81495 -20.204571
8.7012243 5.8008142 -20.542665
8.6464424 4.8035774 -20.847004
8.6141958 3.8285303 -21.026152
8.587328 2.862442 -21.175415
8.5608816 1.9024172 -21.322346
8.554409 0.95048809 -21.358303
8.550848 9.5367432e-07 -21.378086
8.5472898 -0.94969845 -21.39785
8.5643244 -1.9031839 -21.303215
8.5913782 -2.8637934 -21.152916
8.6197081 -3.8309822 -20.995531
8.6571417 -4.8095236 -20.787563
8.7106705 -5.8071132 -20.490185
8.7693758 -6.8206263 -20.164042
8.8294983 -7.8484445 -19.830029
8.9272776 -8.9272785 -19.286814
9.034709 -10.038565 -18.689968
9.1610413 -11.196833 -17.988119
9.3360586 -12.448078 -17.015804
9.5302315 -13.765893 -15.937066
9.8317633 -15.293856 -14.261889
10.285207 -17.142012 -11.742759
11.161738 15.626432 -13.074106
10.768287 13.998773 -15.041364
10.509612 12.611534 -16.334736
10.306623 11.337282 -17.34968
10.153852 10.153852 -18.113529
10.036281 9.0326481 -18.701397
9.9288979 7.9431186 -19.238304
9.8387766 6.8871427 -19.688917
9.7687435 5.8612423 -20.039082
9.7107058 4.8553524 -20.329271
9.669014 3.8676052 -20.537724
9.6373959 2.8912163 -20.69582
9.6059542 1.9211903 -20.853024
9.5958719 0.9595871 -20.903435
9.5982475 -1.9073486e-06 -20.89156
9.6021137 -0.96021461 -20.872227
9.6127539 -1.9225512 -20.819023
9.6434593 -2.8930407 -20.665495
9.6784353 -3.8713722 -20.49062
9.7142515 -4.8571291 -20.311539
9.7736683 -5.8642015 -20.014458
9.8548651 -6.898407 -19.608473
9.9401836 -7.9521465 -19.181877
10.050008 -9.0450077 -18.632757
10.183155 -10.183155 -17.967024
10.336748 -11.370423 -17.199057
10.552203 -12.662646 -16.121778
10.828031 -14.076441 -14.742642
11.267564 -15.77459 -12.544978
12.940771 16.470072 -10.061108
12.191108 14.407672 -13.468671
11.814873 12.888948 -15.178832
11.553517 11.553515 -16.366806
11.355542 10.323218 -17.266697
11.192863 9.157795 -18.006142
11.070011 8.0509148 -18.564562
10.961524 6.9755135 -19.057686
10.888062 5.9389415 -19.391607
10.821463 4.9188452 -19.69433
10.758256 3.9120941 -19.981636
10.722639 2.9243546 -20.14353
10.698756 1.9452267 -20.252087
10.675108 0.97046375 -20.359577
10.676364 -9.5367432e-07 -20.353874
10.683935 -0.9712677 -20.31945
10.69155 -1.943923 -20.28484
10.720626 -2.92381 -20.152678
10.772529 -3.917284 -19.916756
10.826196 -4.9209971 -19.672821
10.897782 -5.9442463 -19.347422
10.990587 -6.9940104 -18.925583
11.090195 -8.0655966 -18.472816
11.212042 -9.1734915 -17.91897
11.391828 -10.356205 -17.101761
11.593587 -11.593586 -16.184675
11.875114 -12.954673 -14.905005
12.285625 -14.519372 -13.039051
13.231658 -16.840296 -8.7388916
13.965837 15.129654 -10.691812
13.27256 13.272558 -13.580463
12.91041 11.834542 -15.089422
12.641919 10.53493 -16.208136
12.4409 9.3306742 -17.045715
12.276342 8.184226 -17.731367
12.146989 7.085742 -18.270344
12.051015 6.025507 -18.670233
11.972781 4.9886584 -18.996208
11.903 3.9676661 -19.286961
11.856589 2.9641476 -19.480339
11.828663 1.9714422 -19.596701
11.800831 0.98340321 -19.712667
11.796361 -1.9073486e-06 -19.731289
11.814224 -0.984519 -19.65686
11.833664 -1.9722795 -19.575863
11.864129 -2.9660358 -19.448925
11.922365 -3.9741216 -19.206274
11.987126 -4.994637 -18.936436
12.052971 -6.0264869 -18.662086
12.176671 -7.1030602 -18.146666
12.316591 -8.2110615 -17.563663
12.470225 -9.3526688 -16.923523
12.690356 -10.575298 -16.006311
12.957321 -11.877543 -14.893955
13.389164 -13.389165 -13.094617
14.160791 -15.340858 -9.8794994
15.240213 14.067887 -10.266592
14.473115 12.246482 -13.21697
14.080515 10.831161 -14.726974
13.791756 9.5481377 -15.83758
13.584816 8.3598862 -16.633503
13.418163 7.2251639 -17.274477
13.289401 6.1335702 -17.769711
13.199759 5.0768313 -18.114491
13.123367 4.0379577 -18.408304
13.052375 3.0120859 -18.681358
13.017773 2.0027351 -18.81444
12.999611 0.99996948 -18.884293
12.982184 9.5367432e-07 -18.951317
12.998843 -0.9999094 -18.887243
13.024906 -2.0038328 -18.787008
13.051071 -3.0117884 -18.686367
13.124602 -4.038341 -18.403555
13.218401 -5.0840001 -18.042793
13.318254 -6.1468868 -17.658745
13.454411 -7.2446852 -17.135065
13.619708 -8.381361 -16.499302
13.837234 -9.5796251 -15.662665
14.138758 -10.875969 -14.502962
14.555188 -12.315928 -12.901305
15.531991 -14.337223 -9.144372
16.793592 13.194964 -8.9056807
15.775639 11.268312 -12.541231
15.328873 9.8542747 -14.136822
15.038416 8.5933781 -15.17417
14.806633 7.4033155 -16.001968
14.644401 6.2761703 -16.581367
14.499763 5.1784868 -17.097929
14.414823 4.1185207 -17.401283
14.343145 3.0735312 -17.657274
14.289468 2.0413527 -17.84898
14.268832 1.0192022 -17.922684
14.25051 -9.5367432e-07 -17.988121
14.264134 -1.0188675 -17.939459
14.308619 -2.0440855 -17.780588
14.358367 -3.0767956 -17.602915
14.426732 -4.1219258 -17.358755
14.536439 -5.1915874 -16.966946
14.665278 -6.2851191 -16.506804
14.85173 -7.4258671 -15.840904
15.100764 -8.6290083 -14.951499
15.390081 -9.8936272 -13.918219
15.893895 -11.352781 -12.118885
17.343025 10.405813 -11.072716
16.766973 8.9423857 -12.992887
16.404816 7.6555815 -14.200077
16.185085 6.4740334 -14.932516
15.994711 5.3315687 -15.567093
15.850914 4.2269096 -16.046417
15.756185 3.1512346 -16.362179
15.663294 2.088439 -16.671818
15.637721 1.0425167 -16.757059
15.631493 -1.9073486e-06 -16.777819
15.625269 -1.0416856 -16.798569
15.68589 -2.0914526 -16.596493
15.769207 -3.1538434 -16.318773
15.859454 -4.229187 -16.017952
16.022369 -5.3407893 -15.474896
16.203991 -6.4815969 -14.86949
16.445108 -7.674386 -14.065767
16.86904 -8.9968224 -12.652667
17.524218 -10.514533 -10.468739
18.583145 8.130126 -10.810465
18.032646 6.7622423 -12.530774
17.747862 5.5462041 -13.420731
17.513229 4.3783078 -14.153954
17.375887 3.257978 -14.583155
17.269476 2.1586857 -14.915686
17.200424 1.0750275 -15.131471
17.20462 -1.9073486e-06 -15.118361
17.216988 -1.0760627 -15.079711
17.263224 -2.1579051 -14.935226
17.382572 -3.2592335 -14.562254
17.541569 -4.3853912 -14.065393
17.781385 -5.5566826 -13.315968
18.094112 -6.7852907 -12.338698
18.667967 -8.1672354 -10.545402
19.856167 4.6720376 -10.482305
19.455524 3.4333267 -11.66067
19.300819 2.2706838 -12.115681
19.148623 1.12639 -12.563318
19.131481 -0 -12.613733
19.175133 -1.1279507 -12.48535
19.244537 -2.2640657 -12.281214
19.569233 -3.4533963 -11.326225
19.92334 -4.6878481 -10.284734
