# .PCD v0.7 - Point Cloud Data file format
VERSION 0.7
FIELDS x y z
SIZE 4 4 4
TYPE F F F
COUNT 1 1 1
WIDTH 1058
HEIGHT 1
VIEWPOINT 0 0 0 1 0 0 0
POINTS 1058
DATA ascii
-23.018927 4.7683716e-07 -8.3066711
-21.52589 7.1752958 -9.0886564
-20.758232 5.7661753 -11.221041
-20.363031 4.5251188 -12.318819
-20.114569 3.3524246 -13.008995
-19.979013 2.2198915 -13.385536
-19.900427 1.1055765 -13.603829
-19.858335 -1.9073486e-06 -13.720752
-19.902889 -1.1057177 -13.596992
-19.961252 -2.217917 -13.434874
-20.136173 -3.3560309 -12.948979
-20.431259 -4.5402832 -12.129295
-20.836706 -5.7879744 -11.003056
-19.952259 9.3892994 -10.199682
-19.217567 7.913115 -12.360545
-18.774532 6.6263037 -13.663589
-18.523008 5.4479437 -14.403357
-18.32583 4.3119569 -14.983295
-18.205818 3.2127938 -15.336273
-18.114796 2.1311502 -15.603989
-18.049654 1.0617447 -15.795584
-18.048939 -2.3841858e-06 -15.797681
-18.048164 -1.061657 -15.799959
-18.098915 -2.129283 -15.650695
-18.222553 -3.215744 -15.287049
-18.365141 -4.3212094 -14.867678
-18.552469 -5.4566069 -14.316713
-18.845993 -6.6515279 -13.453402
-19.29129 -7.9434757 -12.143704
-20.121105 -9.4687548 -9.7030764
-19.161467 11.975913 -9.0032139
-18.088709 10.174899 -12.355579
-17.596899 8.7984486 -13.892487
-17.295578 7.5668154 -14.834112
-17.032413 6.387156 -15.656502
-16.867266 5.2710185 -16.17259
-16.714455 4.1786127 -16.650124
-16.619883 3.1162281 -16.945662
-16.559753 2.0699692 -17.133568
-16.500427 1.0312738 -17.318964
-16.515774 -1.9073486e-06 -17.271002
-16.534283 -1.0333915 -17.213165
-16.57329 -2.071661 -17.091259
-16.651917 -3.1222363 -16.845562
-16.741899 -4.1854753 -16.564363
-16.881865 -5.2755847 -16.126966
-17.067076 -6.4001536 -15.548182
-17.305576 -7.571188 -14.802873
-17.631725 -8.8158617 -13.783652
-18.174454 -10.223127 -12.087631
-19.941532 -12.463458 -6.5655079
-17.348822 12.722467 -11.053394
-16.657738 11.105157 -13.357004
-16.243904 9.7463398 -14.73645
-15.935418 8.498888 -15.764738
-15.733795 7.3424358 -16.436813
-15.560248 6.2240958 -17.015305
-15.438181 5.1460595 -17.422195
-15.320202 4.0853844 -17.815456
-15.230732 3.046145 -18.113693
-15.182829 2.024375 -18.273365
-15.167325 1.0111561 -18.325045
-15.169566 -4.7683716e-06 -18.317579
-15.173285 -1.0115528 -18.305183
-15.203103 -2.0270824 -18.205788
-15.256918 -3.0513859 -18.026403
-15.316605 -4.0844293 -17.827446
-15.436947 -5.145647 -17.426306
-15.581342 -6.2325397 -16.944988
-15.749759 -7.3498855 -16.383598
-15.98539 -8.5255432 -15.598163
-16.284838 -9.7709064 -14.600004
-16.697378 -11.131585 -13.224867
-17.489044 -12.825298 -10.58598
-15.958635 13.678827 -11.887671
-15.39166 12.093446 -13.912586
-15.00956 10.721115 -15.277228
-14.735737 9.4729729 -16.255165
-14.530439 8.3031054 -16.988373
-14.347028 7.1735129 -17.64341
-14.209342 6.0897179 -18.135147
-14.110727 5.0395417 -18.487343
-14.021583 4.006166 -18.805714
-13.972144 2.9940319 -18.982283
-13.923052 1.989006 -19.157614
-13.898829 0.99277496 -19.244122
-13.892357 -1.9073486e-06 -19.267239
-13.894927 -0.99249458 -19.258053
-13.936532 -1.9909363 -19.109468
-13.987411 -2.9973021 -18.927755
-14.03871 -4.0110621 -18.744551
-14.132902 -5.0474658 -18.408146
-14.228548 -6.0979528 -18.066555
-14.367295 -7.1836495 -17.57103
-14.545543 -8.3117409 -16.934423
-14.746781 -9.480072 -16.215721
-15.062749 -10.759109 -15.087265
-15.436271 -12.128497 -13.75326
-16.067392 -13.77205 -11.499255
-14.833549 14.833548 -11.830683
-14.225387 13.131126 -14.169768
-13.865115 11.732019 -15.555428
-13.60412 10.464705 -16.559261
-13.373256 9.2584076 -17.447197
-13.228264 8.1404667 -18.004856
-13.093632 7.0504146 -18.522673
-12.984723 5.992949 -18.941553
-12.898693 4.9610367 -19.272436
-12.83215 3.9483533 -19.528374
-12.779704 2.9491634 -19.730087
-12.747384 1.9611349 -19.854393
-12.724549 0.97881222 -19.942223
-12.718746 -0 -19.964537
-12.726058 -0.97893143 -19.936415
-12.749482 -1.9614592 -19.846321
-12.778807 -2.9489555 -19.733541
-12.824833 -3.9461026 -19.556515
-12.911671 -4.9660292 -19.222525
-12.999692 -5.9998589 -18.883982
-13.106306 -7.0572433 -18.473925
-13.240489 -8.147994 -17.95784
-13.413903 -9.2865524 -17.290861
-13.629425 -10.484174 -16.461929
-13.900218 -11.761724 -15.420422
-14.276454 -13.178265 -13.973361
-14.928397 -14.928401 -11.465878
-13.777651 16.073923 -11.475919
-13.15546 14.251749 -14.068381
-12.800391 12.800394 -15.547828
-12.508597 11.466212 -16.763645
-12.32229 10.268574 -17.539921
-12.153373 9.1150303 -18.243744
-12.01278 8.0085192 -18.82955
-11.905274 6.9447422 -19.277487
-11.800615 5.9003057 -19.713568
-11.737955 4.8908157 -19.974648
-11.680902 3.89363 -20.212374
-11.635047 2.9087629 -20.403435
-11.610072 1.935009 -20.507494
-11.587777 0.96564674 -20.600391
-11.587847 -9.5367432e-07 -20.600103
-11.60083 -0.96673679 -20.546007
-11.617617 -1.9362698 -20.476063
-11.649225 -2.9123077 -20.344357
-11.695405 -3.8984704 -20.151941
-11.752065 -4.8966956 -19.915859
-11.813682 -5.9068389 -19.659121
-11.92012 -6.9534063 -19.215626
-12.035991 -8.0239983 -18.732832
-12.154826 -9.1161213 -18.237686
-12.341822 -10.284852 -17.458536
-12.551241 -11.505307 -16.585957
-12.838562 -12.838562 -15.388787
-13.212574 -14.313622 -13.8304
-13.847455 -16.155365 -11.185062
-12.890963 17.578583 -10.287512
-12.152522 15.466844 -13.644061
-11.74966 13.88596 -15.475252
-11.49742 12.542641 -16.621794
-11.28348 11.283479 -17.594254
-11.115826 10.105291 -18.356319
-10.975594 8.9800329 -18.993732
-10.865972 7.9025221 -19.492016
-10.780566 6.8603606 -19.880222
-10.703252 5.8381352 -20.231647
-10.643814 4.8380957 -20.501823
-10.594092 3.8523951 -20.727833
-10.557506 2.8793182 -20.894138
-10.534163 1.9153004 -21.000233
-10.516858 0.95607567 -21.078899
-10.513827 -9.5367432e-07 -21.09267
-10.517358 -0.95612526 -21.076626
-10.523798 -1.9134216 -21.047352
-10.55886 -2.8796873 -20.88798
-10.599993 -3.8545437 -20.701012
-10.648489 -4.8402247 -20.480576
-10.71177 -5.8427825 -20.192932
-10.786906 -6.8643928 -19.851404
-10.881703 -7.91397 -19.420507
-10.998441 -8.9987221 -18.889885
-11.137648 -10.125134 -18.257126
-11.302753 -11.302754 -17.506645
-11.522456 -12.56995 -16.507996
-11.794954 -13.93949 -15.269372
-12.203589 -15.53184 -13.411937
-13.175813 -17.967018 -8.9927378
-11.207801 16.811699 -12.843793
-10.778745 15.090244 -14.989069
-10.49053 13.63769 -16.430145
-10.285542 12.342648 -17.45509
-10.105264 11.115791 -18.356478
-9.9793291 9.9793272 -18.986153
-9.8688564 8.8819714 -19.538513
-9.7717094 7.817368 -20.02425
-9.694149 6.7859044 -20.41205
-9.6315403 5.7789226 -20.725096
-9.5730085 4.7865047 -21.01775
-9.5374327 3.8149729 -21.195629
-9.5048151 2.8514414 -21.358727
-9.4813204 1.8962622 -21.476192
-9.4746208 0.94746017 -21.509689
-9.4691572 -0 -21.537006
-9.4725027 -0.94725132 -21.520285
-9.4894562 -1.897891 -21.435516
-9.5123158 -2.8536949 -21.321217
-9.5371218 -3.814847 -21.197187
-9.5796766 -4.7898374 -20.984413
-9.6420155 -5.785212 -20.672718
-9.7078638 -6.7955065 -20.343477
-9.7774687 -7.8219757 -19.995453
-9.8748522 -8.8873653 -19.508537
-9.9987373 -9.9987364 -18.889109
-10.126281 -11.138908 -18.251392
-10.308571 -12.370287 -17.339937
-10.526456 -13.684393 -16.250515
-10.832185 -15.165061 -14.721871
-11.285501 -16.928253 -12.455287
-10.356219 18.411055 -11.348247
-9.827527 16.379211 -14.285425
-9.5118294 14.796176 -16.039305
-9.296176 13.427811 -17.237373
-9.1274376 12.169916 -18.174805
-8.9908466 10.988813 -18.933647
-8.882679 9.8696442 -19.534578
-8.7905617 8.7905598 -20.046345
-8.7054081 7.7381406 -20.519417
-8.6435785 6.7227831 -20.862913
-8.5922451 5.7281628 -21.148102
-8.5450964 4.7472754 -21.41004
-8.5140247 3.7840099 -21.582657
-8.4845953 2.8281956 -21.746155
-8.466218 1.881382 -21.848251
-8.4559355 0.9395504 -21.905371
-8.4456797 -0 -21.962358
-8.4567509 -0.93963909 -21.900846
-8.4717655 -1.8826122 -21.817434
-8.4905148 -2.8301716 -21.71327
-8.514926 -3.7844124 -21.577652
-8.5478697 -4.7488174 -21.394627
-8.5944118 -5.7296062 -21.136061
-8.6502647 -6.727984 -20.825773
-8.7175922 -7.7489696 -20.451733
-8.7960072 -8.7960062 -20.016088
-8.8941078 -9.8823414 -19.471088
-9.0158386 -11.019361 -18.794804
-9.1562052 -12.208276 -18.014988
-9.3308258 -13.477859 -17.044878
-9.5505629 -14.856432 -15.824114
-9.8783722 -16.463951 -14.002953
-10.467186 -18.608332 -10.731763
-8.9300413 17.860083 -13.070038
-8.570096 16.068926 -15.319697
-8.3410101 14.596766 -16.751486
-8.1655397 13.269001 -17.848171
-8.0310774 12.046616 -18.68856
-7.9185176 10.887959 -19.392061
-7.8194809 9.7743473 -20.011042
-7.743866 8.7118511 -20.483633
-7.6768579 7.676857 -20.902431
-7.6278663 6.6743836 -21.20863
-7.5829115 5.6871824 -21.489597
-7.5459299 4.7162037 -21.720737
-7.5155754 3.7577868 -21.910446
-7.4934826 2.8100548 -22.048531
-7.4772692 1.869318 -22.149858
-7.4682469 0.93352985 -22.206253
-7.4609966 -0 -22.251568
-7.4641113 -0.93301487 -22.232101
-7.4731026 -1.8682766 -22.175903
-7.487555 -2.8078356 -22.085579
-7.5137558 -3.7568789 -21.921825
-7.5418406 -4.7136497 -21.746294
-7.5835819 -5.6876874 -21.485409
-7.6280923 -6.6745815 -21.20722
-7.6873102 -7.6873088 -20.837109
-7.7522373 -8.7212658 -20.431316
-7.8337564 -9.7921953 -19.921822
-7.9332304 -10.908193 -19.300106
-8.0550985 -12.082649 -18.538427
-8.186389 -13.302884 -17.717867
-8.3788776 -14.663033 -16.514816
-8.6195326 -16.161621 -15.010721
-8.9875555 -17.975113 -12.710572
-8.1047373 19.682932 -10.991813
-7.652226 17.490801 -14.224037
-7.4011025 15.859503 -16.017776
-7.2193995 14.438797 -17.315659
-7.0783076 13.145428 -18.323456
-6.9621711 11.93515 -19.153
-6.872457 10.799573 -19.793818
-6.7945004 9.7064285 -20.350653
-6.7298126 8.6526175 -20.812706
-6.674304 7.6277771 -21.209194
-6.627552 6.6275525 -21.54314
-6.5908856 5.6493311 -21.80504
-6.5597758 4.6855545 -22.027252
-6.5310974 3.7320528 -22.232101
-6.5166259 2.7928391 -22.33547
-6.5022368 1.8577795 -22.438248
-6.4938769 0.92769527 -22.497959
-6.4899111 9.5367432e-07 -22.526287
-6.4928102 -0.9275465 -22.505579
-6.5029125 -1.857976 -22.433422
-6.5151181 -2.7921944 -22.346241
-6.5364223 -3.7350998 -22.194067
-6.5592599 -4.6851835 -22.030937
-6.5943971 -5.652339 -21.779961
-6.6304388 -6.6304393 -21.522518
-6.6806774 -7.6350613 -21.163671
-6.7349229 -8.6591873 -20.776207
-6.8032827 -9.718977 -20.287922
-6.8841548 -10.817958 -19.710262
-6.9818282 -11.968848 -19.012594
-7.1031032 -13.191478 -18.146349
-7.2443328 -14.488667 -17.137564
-7.4352279 -15.93263 -15.774028
-7.7000122 -17.600031 -13.882712
-8.257555 -20.054062 -9.9002609
-6.7844572 19.222628 -12.345651
-6.4785304 17.276077 -14.895047
-6.2761512 15.690377 -16.581537
-6.1334143 14.311299 -17.771013
-6.021543 13.046676 -18.703274
-5.9290042 11.858007 -19.474426
-5.8532863 10.731024 -20.105412
-5.7896152 9.6493578 -20.636005
-5.7320743 8.5981102 -21.115511
-5.6910224 7.588027 -21.457611
-5.6527371 6.5948606 -21.776651
-5.6183133 5.6183138 -22.063517
-5.5924897 4.6604061 -22.278713
-5.5716734 3.7144489 -22.452187
-5.5565219 2.7782612 -22.578445
-5.5444603 1.8481512 -22.678963
-5.538878 0.9231472 -22.725479
-5.5371466 -9.5367432e-07 -22.739906
-5.5384331 -0.92307186 -22.729183
-5.5462756 -1.8487577 -22.66383
-5.555531 -2.7777653 -22.586704
-5.5748582 -3.7165728 -22.425646
-5.5945964 -4.6621647 -22.261158
-5.6236477 -5.6236501 -22.019066
-5.6542935 -6.5966768 -21.763683
-5.695437 -7.5939169 -21.42082
-5.7407827 -8.6111736 -21.04294
-5.7974544 -9.6624241 -20.570673
-5.8630614 -10.748945 -20.023952
-5.939436 -11.878874 -19.387499
-6.0400391 -13.086754 -18.549137
-6.1508417 -14.351963 -17.625786
-6.3037496 -15.759374 -16.351549
-6.5055733 -17.348194 -14.669683
-6.8571696 -19.428646 -11.739718
-5.5563183 18.891479 -13.319615
-5.3369107 17.07811 -15.513692
-5.1881208 15.56436 -17.001591
-5.0761738 14.213284 -18.121059
-4.9869275 12.96601 -19.013523
-4.913065 11.791353 -19.752148
-4.8502159 10.670477 -20.380638
-4.801343 9.6026869 -20.869362
-4.7562842 8.5613098 -21.319954
-4.7236128 7.5577793 -21.646667
-4.6919618 6.5687456 -21.963177
-4.6619339 5.5943203 -22.263454
-4.6420836 4.6420813 -22.461962
-4.6248984 3.6999207 -22.633808
-4.6111555 2.7666931 -22.771244
-4.6036749 1.8414688 -22.846043
-4.5967312 0.91934681 -22.915483
-4.5958385 -9.5367432e-07 -22.924412
-4.5977297 -0.91954803 -22.9055
-4.60465 -1.8418636 -22.836296
-4.6124902 -2.7674971 -22.757896
-4.6275587 -3.7020512 -22.607208
-4.6432486 -4.6432476 -22.45031
-4.666368 -5.5996418 -22.219112
-4.6907859 -6.5670991 -21.974939
-4.7242923 -7.5588684 -21.639872
-4.7608156 -8.5694675 -21.274645
-4.8068366 -9.6136742 -20.81443
-4.8609552 -10.694101 -20.273241
-4.9276738 -11.826418 -19.60606
-4.9992447 -12.998036 -18.890348
-5.0929308 -14.260205 -17.953489
-5.2085409 -15.625628 -16.797384
-5.3652039 -17.168655 -15.230756
-5.5989285 -19.036356 -12.893514
-4.7557507 21.400879 -9.4359112
-4.4047647 18.720247 -13.823244
-4.2350173 16.940067 -15.94508
-4.1230454 15.46142 -17.344728
-4.0386686 14.13534 -18.399435
-3.9708245 12.905178 -19.247494
-3.9142342 11.742702 -19.95487
-3.8655849 10.630357 -20.562986
-3.8266082 9.5665207 -21.050192
-3.7913332 8.5304966 -21.491135
-3.7641058 7.5282102 -21.83147
-3.7389498 6.5431614 -22.145924
-3.7188916 5.5783348 -22.396652
-3.7006955 4.6258678 -22.624104
-3.6889241 3.6889238 -22.771246
-3.6778369 2.7583761 -22.909838
-3.6711452 1.8355713 -22.993481
-3.6669934 0.91674614 -23.045376
-3.6661372 -1.9073486e-06 -23.05608
-3.6668787 -0.91672039 -23.046812
-3.6716478 -1.8358259 -22.987198
-3.6785829 -2.7589397 -22.900509
-3.6904366 -3.6904383 -22.752342
-3.7031333 -4.6289186 -22.593632
-3.7212026 -5.5818038 -22.367764
-3.7410793 -6.5468907 -22.119301
-3.7673666 -7.5347323 -21.790712
-3.7961967 -8.5414429 -21.43034
-3.8315287 -9.5788202 -20.988693
-3.8729815 -10.650699 -20.470528
-3.9255257 -11.776575 -19.813728
-3.9795153 -12.933424 -19.138857
-4.0520678 -14.182239 -18.231949
-4.1392994 -15.522371 -17.141554
-4.2557244 -17.022896 -15.686243
-4.4323211 -18.837368 -13.478782
-3.4947195 20.968315 -10.63747
-3.2773991 18.571926 -14.259478
-3.1610901 16.859144 -16.197962
-3.0799534 15.399765 -17.550241
-3.0182824 14.085318 -18.578091
-2.968029 12.861458 -19.415644
-2.92659 11.70636 -20.106297
-2.8902061 10.597422 -20.712696
-2.8619509 9.5398331 -21.183617
-2.8363576 8.5090714 -21.610168
-2.815448 7.5078616 -21.958664
-2.7970145 6.5263672 -22.265886
-2.7825048 5.5650091 -22.507713
-2.7703927 4.6173201 -22.709587
-2.7617309 3.6823044 -22.853947
-2.7530448 2.753046 -22.998716
-2.7476232 1.831748 -23.089077
-2.7443197 0.91477299 -23.144138
-2.7429085 -0 -23.167658
-2.7446473 -0.91488266 -23.138676
-2.7482803 -1.8321857 -23.078125
-2.7536023 -2.7536039 -22.989426
-2.7615888 -3.6821194 -22.856318
-2.7705834 -4.6176395 -22.706406
-2.7840371 -5.5680747 -22.482176
-2.7985957 -6.530056 -22.239538
-2.8179214 -7.5144567 -21.917437
-2.8393605 -8.5180817 -21.560123
-2.8651526 -9.5505075 -21.130253
-2.8960404 -10.618814 -20.615454
-2.9328842 -11.731539 -20.00139
-2.9765298 -12.898295 -19.273968
-3.0272541 -14.127184 -18.428562
-3.0912447 -15.456225 -17.362053
-3.1772246 -16.9452 -15.929051
-3.2959719 -18.677174 -13.949934
-3.5406003 -21.243603 -9.8727903
-2.3032925 20.729631 -11.300481
-2.1741207 18.480026 -14.529778
-2.0995226 16.796181 -16.39473
-2.0468705 15.351528 -17.711035
-2.0067616 14.047331 -18.713753
-1.9744554 12.833961 -19.52141
-1.9472588 11.68355 -20.20133
-1.9236712 10.580191 -20.791014
-1.9046981 9.523489 -21.265347
-1.887899 8.4955444 -21.685326
-1.8735778 7.4943118 -22.043346
-1.8618877 6.5166063 -22.335606
-1.8516839 5.5550508 -22.590698
-1.8444515 4.6111279 -22.771511
-1.8387872 3.6775732 -22.913118
-1.832912 2.7493658 -23.059998
-1.8287977 1.8287954 -23.162849
-1.8271054 0.91355228 -23.205158
-1.8264781 -3.8146973e-06 -23.220844
-1.8273337 -0.91366768 -23.199455
-1.8294009 -1.8294029 -23.147778
-1.8324684 -2.7487049 -23.071087
-1.8384036 -3.6768064 -22.922703
-1.8453028 -4.6132574 -22.750225
-1.8535395 -5.5606203 -22.54431
-1.8634509 -6.5220785 -22.296524
-1.8758714 -7.5034857 -21.986013
-1.8900278 -8.5051231 -21.632105
-1.9068931 -9.5344677 -21.210466
-1.9271963 -10.599579 -20.70289
-1.9498365 -11.699018 -20.136887
-1.9803786 -12.87246 -19.373331
-2.0123391 -14.086374 -18.574314
-2.0560241 -15.420182 -17.482189
-2.1087468 -16.869972 -16.164131
-2.1838133 -18.562416 -14.28746
-2.3410068 -21.069063 -10.357624
-1.1454731 20.618513 -11.609142
-1.0849495 18.444138 -14.635324
-1.0485951 16.777517 -16.453049
-1.0228302 15.342453 -17.741283
-1.0026368 14.036915 -18.750954
-0.98625958 12.821375 -19.569817
-0.97278476 11.673417 -20.243559
-0.96100563 10.571062 -20.832514
-0.95154375 9.5154381 -21.305607
-0.94308645 8.4877777 -21.728474
-0.93624663 7.4899702 -22.070465
-0.93022537 6.5115776 -22.371529
-0.92520577 5.5512333 -22.622509
-0.92120945 4.6060457 -22.822327
-0.91821051 3.6728411 -22.972271
-0.91549659 2.7464867 -23.107967
-0.91395223 1.8279018 -23.185184
-0.91284019 0.91283894 -23.240789
-0.91250366 9.5367432e-07 -23.257614
-0.91303438 -0.91303253 -23.231079
-0.91406131 -1.828124 -23.179733
-0.91607255 -2.7482176 -23.07917
-0.91898394 -3.6759338 -22.933598
-0.92255884 -4.6127968 -22.754852
-0.92618299 -5.5570979 -22.573647
-0.93103004 -6.5172095 -22.331295
-0.93702084 -7.4961677 -22.031755
-0.94438154 -8.4994316 -21.663717
-0.95260274 -9.5260267 -21.252663
-0.96337312 -10.597103 -20.71414
-0.97492415 -11.69909 -20.136589
-0.98914236 -12.858849 -19.42568
-1.0054373 -14.076121 -18.610933
-1.0267822 -15.401731 -17.54369
-1.0518543 -16.829668 -16.290085
-1.0913031 -18.552155 -14.317641
-1.1609648 -20.897366 -10.834558
0 20.687141 -11.418514
0 18.468731 -14.56299
0 16.77976 -16.446043
0 15.341719 -17.743725
0 14.037831 -18.747677
0 12.82255 -19.565285
0 11.672287 -20.248264
0 10.574345 -20.817591
0 9.5225601 -21.269993
0 8.4891205 -21.721012
0 7.488647 -22.07877
0 6.5223618 -22.2945
0 5.5679779 -22.482979
0 4.6212711 -22.670071
0 3.6821823 -22.855526
0 2.750597 -23.039501
0 1.8275604 -23.193748
0 0.91288662 -23.238331
0 -9.5367432e-07 -23.242859
0 -0.91302299 -23.231728
0 -1.8285751 -23.168438
0 -2.7478762 -23.084908
0 -3.6754837 -22.939236
0 -4.613245 -22.750357
0 -5.559258 -22.555649
0 -6.5188532 -22.319576
0 -7.4977837 -22.02166
0 -8.5009079 -21.65554
0 -9.5263929 -21.250826
0 -10.600532 -20.698563
0 -11.701358 -20.127136
0 -12.848781 -19.464411
0 -14.088755 -18.565821
0 -15.398095 -17.555809
0 -16.860912 -16.19244
0 -18.572367 -14.258182
0 -20.843979 -10.982853
1.154762 20.785715 -11.144696
1.0895593 18.522505 -14.404834
1.0517511 16.828018 -16.295238
1.0249869 15.374803 -17.633457
1.0045648 14.063902 -18.654562
0.98797935 12.843729 -19.483829
0.97410381 11.689245 -20.177605
0.96229297 10.58522 -20.76815
0.95269018 9.5268993 -21.248291
0.94548863 8.5093956 -21.608368
0.94159919 7.5327911 -21.802837
0.93773615 6.5641527 -21.995991
0.93391824 5.6035089 -22.186886
0.93012863 4.6506424 -22.376366
0.92637229 3.7054863 -22.564184
0.92264342 2.7679291 -22.750626
0.91894466 1.8378887 -22.935566
0.9152779 0.91528034 -23.1189
0.91337121 -0 -23.214237
0.91381729 -0.91382027 -23.191933
0.91550958 -1.8310213 -23.107317
0.91706187 -2.7511892 -23.029705
0.91964316 -3.6785736 -22.90064
0.92351192 -4.6175604 -22.707201
0.92780644 -5.5668402 -22.492477
0.93253267 -6.5277309 -22.256161
0.93820912 -7.5056734 -21.972345
0.94553858 -8.5098476 -21.605869
0.95414484 -9.5414486 -21.175556
0.96471024 -10.611812 -20.647285
0.97636163 -11.716339 -20.064716
0.99017709 -12.872304 -19.37394
1.0078491 -14.109886 -18.490341
1.0275755 -15.41363 -17.504021
1.0557708 -16.89233 -16.094257
1.0947071 -18.610023 -14.147436
1.1709293 -21.076725 -10.336332
2.3325403 20.992861 -10.569292
2.1897645 18.612997 -14.138683
2.1135108 16.908087 -16.045027
2.0558336 15.418749 -17.486956
2.0137432 14.096201 -18.539217
1.9798731 12.869173 -19.385973
1.9522198 11.713319 -20.077299
1.9293453 10.611399 -20.649166
1.911185 9.5559254 -21.103172
1.9032788 8.5647545 -21.300827
1.8953818 7.5815272 -21.498249
1.8875667 6.6064849 -21.693626
1.8798324 5.6394958 -21.88699
1.8721557 4.6803904 -22.078907
1.8645468 3.7290926 -22.269131
1.856994 2.785491 -22.457947
1.8494971 1.8494978 -22.64537
1.8420709 0.92103577 -22.831024
1.8346988 -9.5367432e-07 -23.015326
1.8308109 -0.91540813 -23.112522
1.8339148 -1.8339157 -23.034931
1.8365781 -2.7548695 -22.968342
1.8420919 -3.684186 -22.830496
1.8489976 -4.6224918 -22.657856
1.8584148 -5.5752454 -22.422424
1.8680534 -6.5381875 -22.181465
1.8799751 -7.5199032 -21.883417
1.8942775 -8.5242462 -21.52586
1.9116561 -9.5582809 -21.091391
1.9321135 -10.626623 -20.579956
1.9582125 -11.749275 -19.927483
1.9850203 -12.902633 -19.25729
2.0211923 -14.148345 -18.352987
2.0633466 -15.475101 -17.299129
2.1204875 -16.963902 -15.87061
2.2056878 -18.748343 -13.740602
2.3845618 -21.461058 -9.2687511
3.6648366 21.989017 -7.8021846
3.309144 18.751816 -13.730396
3.1882834 17.004177 -15.74474
3.1002579 15.501289 -17.211834
3.0358114 14.16712 -18.285936
2.9829488 12.92611 -19.166983
2.9394741 11.757896 -19.89156
2.9025705 10.642756 -20.506624
2.8856363 9.6187878 -20.78886
2.873595 8.6207838 -20.989544
2.8615861 7.6308956 -21.189697
2.8497274 6.649363 -21.387337
2.8379748 5.6759481 -21.583214
2.8263109 4.7105179 -21.777618
2.8147502 3.7530003 -21.970287
2.8032677 2.8032675 -22.161665
2.7918787 1.8612537 -22.351486
2.7805974 0.92686462 -22.539505
2.7694073 -9.5367432e-07 -22.726009
2.7582986 -0.91943455 -22.91115
2.756165 -1.8374443 -22.946714
2.762213 -2.7622128 -22.845917
2.7704322 -3.6939116 -22.708923
2.7807417 -4.634572 -22.537102
2.7935104 -5.5870199 -22.324291
2.8087726 -6.5538049 -22.06992
2.8285298 -7.5427465 -21.740631
2.8513937 -8.5541821 -21.359568
2.8789678 -9.5965595 -20.900002
2.9092085 -10.667101 -20.395985
2.9477937 -11.791177 -19.752899
2.9884887 -12.950119 -19.07465
3.0452719 -14.211269 -18.128263
3.1077921 -15.538961 -17.08626
3.2023587 -17.079247 -15.510151
3.3340442 -18.892916 -13.315395
4.4750009 19.018749 -12.945289
4.2809014 17.123602 -15.371531
4.1621714 15.608141 -16.855658
4.0718961 14.251637 -17.984095
3.9963784 12.98823 -18.928062
3.936738 11.810211 -19.673573
3.8893635 10.695749 -20.265749
3.8729815 9.6824532 -20.470528
3.856679 8.6775265 -20.674309
3.840456 7.6809111 -20.8771
3.8244596 6.6928048 -21.077049
3.8085849 5.7128763 -21.275486
3.79283 4.7410374 -21.472424
3.7772162 3.777216 -21.667597
3.7616971 2.82127 -21.861584
3.7463162 1.8731594 -22.053841
3.7310822 0.93276882 -22.24427
3.7159715 -1.9073486e-06 -22.433153
3.7009828 -0.92524815 -22.620514
3.6864731 -1.8432369 -22.80188
3.6953411 -2.7715063 -22.691029
3.7055106 -3.7055092 -22.563917
3.7202346 -4.6502943 -22.37986
3.7376034 -5.6064057 -22.162754
3.7600052 -6.5800109 -21.882734
3.7843671 -7.5687332 -21.578207
3.8174393 -8.5892372 -21.164804
3.8552582 -9.6381454 -20.692068
3.8944349 -10.709699 -20.202358
3.9486568 -11.845968 -19.52459
4.0083246 -13.027057 -18.778738
4.0848947 -14.297133 -17.821615
4.176106 -15.660397 -16.681473
4.3040023 -17.216011 -15.082767
4.5110211 -19.171839 -12.495033
5.6913486 19.35058 -11.969314
5.4200149 17.344046 -14.682647
5.2501597 15.750475 -16.381201
5.1252441 14.35068 -17.630356
5.0292444 13.076035 -18.590351
4.9520893 11.885012 -19.361904
4.8942361 10.767318 -19.940435
4.8734841 9.7469673 -20.147955
4.8527756 8.7349939 -20.355043
4.8322716 7.7316318 -20.560085
4.8120112 6.7368164 -20.76268
4.7919068 5.7502837 -20.963734
4.771955 4.7719517 -21.163248
4.7521825 3.8017454 -21.36097
4.7325177 2.8395109 -21.557617
4.7130427 1.8852167 -21.752369
4.6937547 0.93874931 -21.94525
4.674624 -9.5367432e-07 -22.136555
4.6556487 -0.93113136 -22.326309
4.636826 -1.8547325 -22.514534
4.6385107 -2.7831059 -22.497692
4.6550694 -3.7240562 -22.3321
4.6725473 -4.6725473 -22.157326
4.6937823 -5.6325393 -21.944973
4.7204256 -6.6085968 -21.678539
4.7549911 -7.6079888 -21.332884
4.7975926 -8.6356678 -20.906868
4.8440976 -9.6881943 -20.441816
4.8954124 -10.769907 -19.928673
4.9665637 -11.919753 -19.217159
5.0403504 -13.104911 -18.479296
5.1457639 -14.40814 -17.425156
5.2685528 -15.805659 -16.197269
5.4481282 -17.434011 -14.401513
5.7427773 -19.525442 -11.455022
7.1070814 20.136726 -9.6571198
6.6049542 17.613211 -13.841511
6.3727789 15.931948 -15.776308
6.2162242 14.504521 -17.080927
6.0851507 13.184493 -18.173208
5.9874306 11.974859 -18.987545
5.9125929 10.839752 -19.611191
5.8873906 9.8123169 -19.821205
5.8621535 8.7932281 -20.031517
5.8372908 7.7830544 -20.238707
5.8126378 6.7814088 -20.444151
5.7881918 5.7881913 -20.647865
5.7639337 4.803277 -20.850014
5.7398953 3.8265953 -21.050335
5.7159719 2.8579845 -21.249699
5.6922975 1.8974323 -21.446987
5.6688514 0.94480705 -21.642368
5.6455979 -2.8610229e-06 -21.836149
5.6225343 -0.93708992 -22.028347
5.5996418 -1.8665495 -22.219112
5.5962825 -2.7981424 -22.247108
5.6172023 -3.7448015 -22.072781
5.6382785 -4.6985664 -21.897141
5.6632481 -5.6632504 -21.689056
5.6973696 -6.6469293 -21.404716
5.7379508 -7.6505995 -21.06654
5.7900314 -8.6850471 -20.63253
5.852541 -9.7542353 -20.111618
5.9182467 -10.850119 -19.564074
6.0049143 -12.009828 -18.841848
6.1029797 -13.223122 -18.024633
6.2361393 -14.550994 -16.914967
6.4018087 -16.004519 -15.534391
6.6343193 -17.691517 -13.596806
7.8870735 18.027597 -12.546555
7.5502048 16.179008 -14.952765
7.3327584 14.665515 -16.505951
7.1765761 13.327927 -17.621538
7.0481892 12.082609 -18.538586
6.9459 10.914986 -19.269222
6.9149218 9.878458 -19.490501
6.8851223 8.8522997 -19.703346
6.8557673 7.8351607 -19.913033
6.8265991 6.8265967 -20.121374
6.797699 5.8265967 -20.327805
6.7690215 4.8350153 -20.532642
6.7405653 3.8517485 -20.735901
6.7123075 2.8767033 -20.937744
6.6843247 1.9098053 -21.137619
6.6566138 0.95094299 -21.335556
6.6291318 9.5367432e-07 -21.531853
6.6018758 -0.94312668 -21.72654
6.5748239 -1.87852 -21.919767
6.5695515 -2.8155241 -21.957432
6.5941463 -3.7680826 -21.781754
6.6195679 -4.7282615 -21.60017
6.6505418 -5.7004652 -21.378929
6.6919694 -6.6919699 -21.083015
6.7439752 -7.7074013 -20.711542
6.8095341 -8.7551155 -20.243267
6.8805804 -9.829402 -19.735794
6.9600201 -10.937177 -19.168365
7.0723524 -12.124034 -18.365995
7.1947746 -13.361724 -17.49155
7.3669767 -14.733954 -16.261534
7.5891199 -16.262398 -14.674796
7.9631 -18.20137 -12.003512
9.3960142 18.792025 -10.15771
8.8003445 16.500647 -13.880644
8.5102673 14.892963 -15.69363
8.3056793 13.496726 -16.972301
8.1496954 12.224543 -17.947201
8.0226936 11.031203 -18.740959
7.9563737 9.9454689 -19.15546
7.9219532 8.9121971 -19.370586
7.8879495 7.8879476 -19.583113
7.8541651 6.8723927 -19.794264
7.8206687 5.8654995 -20.00362
7.7874804 4.8671737 -20.211048
7.7545018 3.8772507 -20.41716
7.7217784 2.8956661 -20.621677
7.6893768 1.9223442 -20.824192
7.6572909 0.95715904 -21.024731
7.6254716 -9.5367432e-07 -21.223598
7.5939164 -0.94924164 -21.420822
7.5625758 -1.890646 -21.616695
7.5633755 -2.8362684 -21.6117
7.593401 -3.7967033 -21.424042
7.6235075 -4.7646942 -21.235874
7.6615973 -5.7461996 -20.997808
7.7116942 -6.7477331 -20.684704
7.7717772 -7.7717767 -20.309191
7.8512187 -8.8326216 -19.812679
7.9406934 -9.9258671 -19.253464
8.0467911 -11.064337 -18.590355
8.1744843 -12.261728 -17.792269
8.3384428 -13.549971 -16.767527
8.5396242 -14.944344 -15.510149
8.8551903 -16.603481 -13.537857
9.6180639 -19.236126 -8.7698994
10.209329 17.015545 -12.164305
9.7687607 15.195848 -14.611904
9.49331 13.712557 -16.142183
9.2972507 12.396334 -17.231407
9.138381 11.16913 -18.114012
9.0121078 10.013452 -18.815529
8.9728823 8.9728794 -19.033455
8.9341059 7.9414272 -19.248873
8.8955832 6.918787 -19.462891
8.8574171 5.9049444 -19.674925
8.8195763 4.8997645 -19.885143
8.7819529 3.9030867 -20.09417
8.7446222 2.9148741 -20.301567
8.7077112 1.9350452 -20.506622
8.6711369 0.96345806 -20.709812
8.6348944 -9.5367432e-07 -20.91116
8.5989027 -0.95543385 -21.111111
8.5631847 -1.9029284 -21.309547
8.5793924 -2.8597994 -21.219505
8.6081028 -3.8258257 -21.060001
8.6485081 -4.804728 -20.835529
8.6983757 -5.7989168 -20.558487
8.7591925 -6.812706 -20.220613
8.8326483 -7.8512444 -19.812529
8.9257917 -8.9257946 -19.295061
9.0271063 -10.030117 -18.732206
9.1657667 -11.202604 -17.96187
9.3248167 -12.433089 -17.078257
9.5405273 -13.780761 -15.879864
9.8260603 -15.284984 -14.293573
10.317557 -17.19593 -11.563031
11.167083 15.633914 -13.047382
10.76962 14.000507 -15.034697
10.508204 12.609843 -16.341774
10.305336 11.335869 -17.356113
10.147641 10.147638 -18.144587
10.038252 9.0344267 -18.691534
9.9945774 7.9956598 -18.909916
9.9511871 6.9658308 -19.126862
9.9082031 5.944921 -19.341778
9.8655891 4.9327941 -19.55485
9.8231897 3.9292755 -19.766846
9.7811537 2.9343462 -19.977028
9.7395935 1.9479179 -20.18483
9.6984148 0.969841 -20.390722
9.6575823 -2.8610229e-06 -20.594887
9.6170921 -0.96170998 -20.797337
9.6032019 -1.9206409 -20.866783
9.6305599 -2.8891678 -20.729992
9.6658773 -3.866354 -20.55341
9.7129622 -4.8564816 -20.317987
9.7725992 -5.8635597 -20.019798
9.841815 -6.8892722 -19.673721
9.9307671 -7.9446139 -19.22896
10.035936 -9.0323429 -18.703117
10.176489 -10.176491 -18.000351
10.344556 -11.379015 -17.160015
10.543458 -12.652148 -16.165512
10.814858 -14.059318 -14.808506
11.241705 -15.738388 -12.674273
12.901769 16.420427 -10.238396
12.194342 14.411491 -13.453975
11.818501 12.892909 -15.162338
11.554196 11.554193 -16.363724
11.356853 10.324409 -17.260738
11.199096 9.1628952 -17.977816
11.069632 8.0506401 -18.566294
11.021245 7.0135188 -18.786228
10.973314 5.9854441 -19.004093
10.925766 4.9662566 -19.220222
10.87846 3.9558024 -19.435253
10.831628 2.9540777 -19.648125
10.785295 1.9609632 -19.858723
10.739391 0.97630692 -20.067381
10.693876 -2.8610229e-06 -20.274269
10.669767 -0.96997833 -20.383854
10.693262 -1.9442301 -20.277061
10.717056 -2.9228334 -20.168907
10.759891 -3.9126859 -19.974205
10.822686 -4.9194036 -19.688766
10.896474 -5.943532 -19.353369
10.973655 -6.9832339 -19.002548
11.082973 -8.0603447 -18.505644
11.210054 -9.1718616 -17.928009
11.387504 -10.352275 -17.121416
11.591537 -11.591537 -16.193989
11.879139 -12.959063 -14.886713
12.279828 -14.512527 -13.065394
13.138014 -16.721107 -9.1645498
13.963311 15.126919 -10.702334
13.292111 13.29211 -13.498996
12.911187 11.835256 -15.086184
12.641671 10.534726 -16.209169
12.440339 9.3302536 -17.048054
12.27728 8.1848526 -17.727463
12.144353 7.0842066 -18.281322
12.053045 6.0265207 -18.661772
12.000387 5.0001593 -18.881184
11.948112 3.9827018 -19.098999
11.896327 2.9740801 -19.31477
11.845098 1.9741821 -19.528225
11.79438 0.98286533 -19.739548
11.788619 -0 -19.76355
11.793407 -0.98278427 -19.743597
11.821458 -1.9702435 -19.626728
11.850877 -2.9627213 -19.504143
11.91262 -3.9708748 -19.24688
11.982663 -4.9927783 -18.955032
12.055604 -6.0278044 -18.65111
12.16072 -7.0937572 -18.213127
12.296983 -8.1979923 -17.645369
12.465797 -9.349349 -16.941973
12.67137 -10.559474 -16.085424
12.972338 -11.891309 -14.831392
13.35056 -13.350563 -13.255461
14.229612 -15.415416 -9.5927429
15.210681 14.040626 -10.380179
14.459659 12.235093 -13.268727
14.073267 10.825589 -14.754846
13.798443 9.5527678 -15.811863
13.581156 8.3576317 -16.647583
13.415667 7.2238193 -17.284073
13.286869 6.1324 -17.779453
13.179966 5.0692153 -18.19062
13.111935 4.03444 -18.452282
13.045049 3.0103955 -18.70953
13.004137 2.0006351 -18.866886
12.980211 0.99847698 -18.958908
12.972122 -2.8610229e-06 -18.990019
12.983314 -0.99871635 -18.946976
13.00911 -2.0014009 -18.847759
13.05327 -3.0122952 -18.67791
13.125344 -4.0385675 -18.400705
13.2028 -5.0779996 -18.102798
13.302416 -6.1395769 -17.719656
13.438248 -7.2359805 -17.197233
13.601644 -8.3702421 -16.568787
13.830326 -9.5748425 -15.689233
14.132405 -10.871083 -14.52739
14.545826 -12.308005 -12.937314
15.499708 -14.307426 -9.2685308
17.004396 13.360597 -8.152812
15.783265 11.273758 -12.513997
15.34119 9.8621922 -14.092831
15.027831 8.5873327 -15.211966
14.822268 7.4111347 -15.946123
14.636599 6.2728257 -16.609232
14.502891 5.1796036 -17.086761
14.411457 4.1175594 -17.413307
14.336528 3.0721097 -17.680912
14.277016 2.0395751 -17.893452
14.247355 1.0176659 -17.999386
14.235786 -1.9073486e-06 -18.040707
14.251726 -1.0179815 -17.983776
14.284983 -2.0407119 -17.865
14.335662 -3.0719275 -17.684006
14.414178 -4.1183381 -17.403589
14.520464 -5.185883 -17.023994
14.655166 -6.280786 -16.542921
14.834859 -7.4174328 -15.901154
15.059979 -8.6057034 -15.097154
15.385719 -9.8908186 -13.933797
15.880898 -11.3435 -12.165302
17.381052 10.428627 -10.945954
16.765226 8.9414511 -12.998713
16.407883 7.6570101 -14.189854
16.158485 6.4633932 -15.02118
15.961921 5.3206396 -15.676392
15.834743 4.2225971 -16.100315
15.725287 3.1450572 -16.46517
15.669649 2.0892854 -16.650631
15.620416 1.0413604 -16.814743
15.617131 -9.5367432e-07 -16.825695
15.630429 -1.0420308 -16.781361
15.674229 -2.0898986 -16.63537
15.744674 -3.1489358 -16.400555
15.849874 -4.2266355 -16.049889
15.994235 -5.3314142 -15.568684
16.176407 -6.4705639 -14.961438
16.438444 -7.6712761 -14.087979
16.818321 -8.9697733 -12.821732
17.521038 -10.512625 -10.479339
18.597778 8.1365261 -10.764742
18.029175 6.7609391 -12.541627
17.73814 5.5431643 -13.45111
17.516804 4.3792005 -14.142782
17.362411 3.2554526 -14.625263
17.267506 2.1584401 -14.921839
17.199677 1.0749774 -15.133806
17.174263 -2.8610229e-06 -15.213223
17.196747 -1.0747995 -15.14296
17.259287 -2.1574135 -14.94752
17.363289 -3.2556176 -14.622519
17.509954 -4.3774891 -14.164188
17.73527 -5.5422735 -13.460084
18.095638 -6.7858639 -12.333926
18.603287 -8.1389389 -10.747525
19.85631 4.672071 -10.48188
19.503588 3.4418068 -11.519303
19.28796 2.2691712 -12.153504
19.194103 1.1290631 -12.429552
19.159084 2.3841858e-06 -12.532551
19.183401 -1.1284356 -12.461024
19.299458 -2.2705235 -12.119682
19.537088 -3.4477243 -11.420773
19.948767 -4.6938276 -10.209953
