# .PCD v0.7 - Point Cloud Data file format
VERSION 0.7
FIELDS x y z
SIZE 4 4 4
TYPE F F F
COUNT 1 1 1
WIDTH 1060
HEIGHT 1
VIEWPOINT 0 0 0 1 0 0 0
POINTS 1060
DATA ascii
-23.162365 1.2190697 -7.9292059
-22.002634 7.3342104 -7.7643676
-20.751911 5.7644172 -11.2386
-20.366325 4.525847 -12.309672
-20.08124 3.3468728 -13.101578
-19.963661 2.218183 -13.428187
-19.899332 1.1055164 -13.606871
-19.869028 -3.8146973e-06 -13.691049
-19.883692 -1.1046495 -13.650318
-19.988113 -2.2209048 -13.360257
-20.156912 -3.3594837 -12.891369
-20.384098 -4.5297976 -12.260302
-20.864248 -5.7956262 -10.926546
-21.947117 -7.3157063 -7.9185853
-19.865828 9.3486223 -10.453894
-19.190804 7.9020939 -12.439254
-18.7813 6.6286917 -13.643682
-18.51129 5.4444957 -14.437828
-18.321167 4.3108611 -14.997011
-18.212788 3.2140183 -15.315777
-18.105682 2.1300788 -15.630791
-18.063778 1.0625777 -15.754039
-18.030321 4.7683716e-07 -15.85244
-18.056147 -1.0621247 -15.776484
-18.127098 -2.1326041 -15.567799
-18.200186 -3.2117972 -15.35284
-18.364832 -4.321137 -14.868587
-18.555426 -5.4574795 -14.308014
-18.84606 -6.6515527 -13.453209
-19.257 -7.9293556 -12.244559
-20.055532 -9.4378967 -9.895937
-19.090851 11.931783 -9.2238836
-18.082039 10.171144 -12.376423
-17.577017 8.7885075 -13.954618
-17.274399 7.55755 -14.900298
-17.040249 6.3900919 -15.632019
-16.873346 5.2729201 -16.153587
-16.732542 4.1831341 -16.593605
-16.629652 3.1180577 -16.915136
-16.562202 2.0702739 -17.12591
-16.533327 1.0333319 -17.216148
-16.520807 -0 -17.255268
-16.535185 -1.0334511 -17.210342
-16.577719 -2.0722175 -17.077423
-16.649925 -3.121861 -16.851784
-16.747671 -4.1869168 -16.546326
-16.893719 -5.2792888 -16.089928
-17.081512 -6.4055681 -15.503067
-17.318207 -7.5767155 -14.763399
-17.663542 -8.8317738 -13.684231
-18.177853 -10.225043 -12.077004
-19.388739 -12.117965 -8.292984
-17.308575 12.692955 -11.187546
-16.650671 11.100446 -13.380561
-16.243904 9.7463398 -14.73645
-15.947577 8.505373 -15.724201
-15.731642 7.3414297 -16.443993
-15.552979 6.2211928 -17.039534
-15.408122 5.1360421 -17.522387
-15.32672 4.0871234 -17.79373
-15.252434 3.0504851 -18.041348
-15.188323 2.0251074 -18.255054
-15.154231 1.0102806 -18.368692
-15.16099 -9.5367432e-07 -18.346165
-15.173236 -1.0115499 -18.305344
-15.193389 -2.0257859 -18.238165
-15.252194 -3.0504394 -18.042149
-15.339432 -4.0905137 -17.751358
-15.430582 -5.1435299 -17.447525
-15.577822 -6.2311273 -16.956722
-15.756339 -7.3529587 -16.361664
-15.975286 -8.520153 -15.631845
-16.27951 -9.7677078 -14.617763
-16.698938 -11.132626 -13.219666
-17.481571 -12.81982 -10.61089
-15.994327 13.70942 -11.760204
-15.365728 12.073073 -14.005195
-14.998666 10.713332 -15.316131
-14.70995 9.4563942 -16.347263
-14.516627 8.2952166 -17.037697
-14.34374 7.1718688 -17.655159
-14.203115 6.0870466 -18.157383
-14.102821 5.0367208 -18.515579
-14.018746 4.0053558 -18.815844
-13.963267 2.9921303 -19.013987
-13.916128 1.9880161 -19.182339
-13.894799 0.992486 -19.258514
-13.88217 -0 -19.303621
-13.904232 -0.99315929 -19.224827
-13.940973 -1.9915686 -19.093605
-13.977865 -2.9952593 -18.961849
-14.035385 -4.0101123 -18.75642
-14.131749 -5.0470572 -18.412262
-14.230616 -6.098835 -18.05917
-14.376096 -7.1880474 -17.539595
-14.547517 -8.3128643 -16.927382
-14.764372 -9.4913807 -16.152899
-15.054797 -10.753424 -15.115665
-15.465572 -12.15152 -13.648614
-16.103514 -13.803015 -11.37025
-14.809763 14.809762 -11.922169
-14.239718 13.144356 -14.114651
-13.869021 11.735329 -15.540402
-13.591833 10.455256 -16.606516
-13.376847 9.2608919 -17.433384
-13.211764 8.1303158 -18.068317
-13.082413 7.0443749 -18.565819
-12.966975 5.984756 -19.009811
-12.887012 4.956542 -19.317364
-12.813639 3.9426575 -19.599571
-12.768003 2.9464607 -19.775091
-12.729388 1.9583664 -19.923611
-12.713451 0.97795582 -19.984903
-12.705305 9.5367432e-07 -20.016235
-12.718554 -0.97834969 -19.965282
-12.747696 -1.9611855 -19.853199
-12.783413 -2.9500189 -19.71582
-12.83282 -3.9485621 -19.525799
-12.910476 -4.9655666 -19.227121
-12.997874 -5.9990187 -18.890974
-13.097937 -7.0527382 -18.506117
-13.251938 -8.1550398 -17.913801
-13.412313 -9.2854481 -17.296978
-13.637778 -10.490602 -16.429806
-13.894494 -11.75688 -15.442438
-14.284544 -13.185733 -13.94224
-14.937193 -14.937197 -11.432055
-13.743477 16.034056 -11.618312
-13.156087 14.252425 -14.065765
-12.778072 12.778069 -15.640831
-12.506409 11.464208 -16.772758
-12.302036 10.251695 -17.624315
-12.138589 9.1039438 -18.30534
-12.002028 8.0013504 -18.874348
-11.897903 6.9404445 -19.308201
-11.807722 5.9038601 -19.68395
-11.735886 4.8899517 -19.983269
-11.679524 3.8931751 -20.218113
-11.636204 2.9090519 -20.398615
-11.608641 1.9347734 -20.513458
-11.590768 0.96589565 -20.587933
-11.587186 -9.5367432e-07 -20.602854
-11.592542 -0.96604729 -20.580536
-11.610038 -1.9350042 -20.507643
-11.650912 -2.9127264 -20.337328
-11.694803 -3.8982668 -20.154449
-11.743381 -4.8930764 -19.952045
-11.827974 -5.9139891 -19.599571
-11.918575 -6.9525042 -19.222063
-12.029244 -8.0194969 -18.760944
-12.175097 -9.1313257 -18.153225
-12.333308 -10.277758 -17.494011
-12.562838 -11.515934 -16.537643
-12.836258 -12.83626 -15.398387
-13.216644 -14.31803 -13.813446
-13.9096 -16.227867 -10.92613
-12.863701 17.541409 -10.41143
-12.134942 15.444472 -13.723964
-11.751376 13.887986 -15.467453
-11.480827 12.524538 -16.697218
-11.26653 11.266529 -17.671297
-11.105155 10.095594 -18.404821
-10.97141 8.9766073 -19.012749
-10.858206 7.8968763 -19.527317
-10.7665 6.8514113 -19.944157
-10.693908 5.8330383 -20.27412
-10.630198 4.8319073 -20.563713
-10.58652 3.8496437 -20.762251
-10.546246 2.8762503 -20.945314
-10.52433 1.9135132 -21.044933
-10.503284 0.95484352 -21.140594
-10.512267 -1.9073486e-06 -21.099766
-10.522891 -0.95662403 -21.051472
-10.533505 -1.9151831 -21.003225
-10.560844 -2.8802328 -20.87896
-10.597739 -3.8537216 -20.711254
-10.645126 -4.8386936 -20.495857
-10.71164 -5.8427124 -20.193521
-10.791148 -6.867095 -19.832123
-10.875217 -7.9092488 -19.449986
-11.000765 -9.0006275 -18.879322
-11.13488 -10.122616 -18.269707
-11.309434 -11.309436 -17.47628
-11.515297 -12.562143 -16.540537
-11.801559 -13.947298 -15.239343
-12.212388 -15.543037 -13.371944
-13.068224 -17.820309 -9.4817743
-11.20585 16.808773 -12.853547
-10.761733 15.066422 -15.074135
-10.4839 13.62907 -16.463295
-10.273295 12.327951 -17.516321
-10.104756 11.115229 -18.359016
-9.9670591 9.9670601 -19.047501
-9.858819 8.8729372 -19.588699
-9.7657499 7.8125982 -20.054047
-9.6848431 6.7793889 -20.458582
-9.6231594 5.7738967 -20.766996
-9.5712147 4.7856073 -21.026722
-9.531332 3.8125296 -21.226141
-9.5008583 2.850256 -21.378508
-9.4798126 1.8959627 -21.483734
-9.4675417 0.9467535 -21.54509
-9.4689064 -9.5367432e-07 -21.538261
-9.4771042 -0.94771194 -21.497274
-9.4853163 -1.8970613 -21.456215
-9.5009422 -2.8502827 -21.378086
-9.5431452 -3.8172607 -21.167068
-9.587182 -4.7935934 -20.946886
-9.6347122 -5.780827 -20.709236
-9.7066345 -6.7946453 -20.349627
-9.7852278 -7.8281837 -19.956656
-9.8806725 -8.8926067 -19.479429
-10.001162 -10.001163 -18.876989
-10.132562 -11.145821 -18.219988
-10.315841 -12.379007 -17.303595
-10.53083 -13.690081 -16.228647
-10.82286 -15.152005 -14.768497
-11.27459 -16.911884 -12.509848
-10.338734 18.379969 -11.445388
-9.8107834 16.351303 -14.378447
-9.5217724 14.811643 -15.984063
-9.2980556 13.430524 -17.226931
-9.1267481 12.168996 -18.178642
-8.9910707 10.989085 -18.932404
-8.8772345 9.8635941 -19.564829
-8.7807016 8.7807026 -20.10112
-8.7083397 7.7407465 -20.50313
-8.6417999 6.7213979 -20.872803
-8.5869465 5.7246294 -21.17754
-8.543911 4.7466192 -21.416622
-8.507123 3.7809429 -21.621002
-8.482235 2.8274117 -21.75927
-8.4611235 1.8802462 -21.876554
-8.4517412 0.9390831 -21.928673
-8.4460239 -0 -21.96044
-8.4572201 -0.93969345 -21.898239
-8.4730291 -1.8828936 -21.810413
-8.4888973 -2.8296318 -21.722256
-8.5191336 -3.7862825 -21.554276
-8.5549898 -4.7527738 -21.355074
-8.5919399 -5.7279587 -21.149801
-8.6521769 -6.7294698 -20.815151
-8.7203999 -7.7514658 -20.436131
-8.7900276 -8.7900267 -20.049309
-8.8967848 -9.8853178 -19.456213
-9.0064192 -11.007845 -18.847134
-9.1514606 -12.201947 -18.041348
-9.3198662 -13.46203 -17.105761
-9.5607767 -14.872323 -15.767366
-9.8793831 -16.465637 -13.997334
-10.466013 -18.606243 -10.738281
-8.9102621 17.820522 -13.193661
-8.5690975 16.067057 -15.325934
-8.3463364 14.60609 -16.718191
-8.163909 13.266349 -17.858368
-8.0247202 12.037079 -18.728296
-7.9158392 10.884277 -19.408798
-7.8218093 9.7772598 -19.996494
-7.7439823 8.7119789 -20.482906
-7.6841669 7.6841655 -20.856752
-7.6265559 6.6732364 -21.21682
-7.5742111 5.6806555 -21.543974
-7.5388813 4.7118006 -21.764788
-7.5090222 3.754509 -21.95141
-7.4879475 2.8079777 -22.083126
-7.4730587 1.8682652 -22.176178
-7.4672937 0.93340969 -22.212212
-7.4633327 9.5367432e-07 -22.236965
-7.4687014 -0.93358898 -22.203413
-7.4808331 -1.8702106 -22.12759
-7.4933305 -2.8100004 -22.049484
-7.5132074 -3.7566042 -21.925251
-7.5497804 -4.7186136 -21.696672
-7.5885439 -5.6914072 -21.454399
-7.6352639 -6.6808562 -21.162399
-7.6950302 -7.6950331 -20.788857
-7.7588015 -8.728653 -20.390284
-7.8438516 -9.8048153 -19.858725
-7.9401789 -10.917747 -19.25668
-8.0551491 -12.082725 -18.538113
-8.199398 -13.324023 -17.636555
-8.3811407 -14.666998 -16.500666
-8.6080046 -16.140009 -15.082769
-8.9860811 -17.972164 -12.719787
-8.1153946 19.708817 -10.915689
-7.6505365 17.486938 -14.236106
-7.3998628 15.856848 -16.02663
-7.2315197 14.463039 -17.229086
-7.0733957 13.136308 -18.35854
-6.963872 11.938065 -19.140858
-6.8688951 10.793975 -19.819263
-6.7937012 9.7052879 -20.356359
-6.7272201 8.6492825 -20.831226
-6.6790533 7.6332011 -21.175276
-6.6315517 6.6315503 -21.51457
-6.5902109 5.6487522 -21.809862
-6.5576563 4.684041 -22.042393
-6.533143 3.7332239 -22.217487
-6.5125751 2.7911034 -22.364399
-6.5025373 1.8578691 -22.436104
-6.498354 0.92833614 -22.465981
-6.4949069 -1.9073486e-06 -22.490601
-6.4949818 -0.92785645 -22.49007
-6.5054665 -1.8587074 -22.415176
-6.5194545 -2.794054 -22.315262
-6.5362139 -3.7349815 -22.195555
-6.5665445 -4.6903887 -21.978905
-6.5978928 -5.6553402 -21.75499
-6.6329379 -6.6329389 -21.504665
-6.6862884 -7.6414719 -21.123592
-6.7418766 -8.668129 -20.726536
-6.8079081 -9.725584 -20.254879
-6.8915672 -10.829608 -19.65731
-6.9800544 -11.965809 -19.025265
-7.1048274 -13.194681 -18.134024
-7.2447057 -14.489413 -17.134901
-7.4367733 -15.935944 -15.762983
-7.7017231 -17.603937 -13.870492
-8.2525034 -20.041794 -9.9363432
-6.7829804 19.218441 -12.357965
-6.4936285 17.316341 -14.769225
-6.3427191 15.856793 -16.026806
-6.1984253 14.462991 -17.229252
-6.0606847 13.131481 -18.377094
-5.9291682 11.858334 -19.473061
-5.8536592 10.731707 -20.102303
-5.7911081 9.651844 -20.62356
-5.7351217 8.6026812 -21.090117
-5.6917772 7.589036 -21.451317
-5.6553698 6.5979319 -21.754715
-5.6207829 5.6207819 -22.042938
-5.5919065 4.6599197 -22.283573
-5.5720916 3.7147245 -22.4487
-5.5565858 2.7782917 -22.577911
-5.5475187 1.8491697 -22.653475
-5.5434575 0.92391014 -22.687317
-5.5393863 9.5367432e-07 -22.721241
-5.5380678 -0.92301178 -22.732229
-5.5495439 -1.8498478 -22.6366
-5.5629892 -2.781496 -22.524551
-5.5765004 -3.7176676 -22.411959
-5.6000319 -4.6666956 -22.215868
-5.6260071 -5.6260076 -21.999405
-5.6560159 -6.5986829 -21.749332
-5.6993198 -7.5990953 -21.388462
-5.7458391 -8.6187572 -21.000805
-5.7970018 -9.6616688 -20.574448
-5.8678002 -10.757635 -19.984459
-5.9404774 -11.880957 -19.378817
-6.0398879 -13.086424 -18.550396
-6.148139 -14.345658 -17.648308
-6.30161 -15.754025 -16.369381
-6.5074806 -17.353283 -14.65379
-6.8598738 -19.436308 -11.717183
-5.5478702 18.862755 -13.404099
-5.411521 17.316864 -14.76759
-5.2855988 15.856793 -16.026806
-5.165338 14.462946 -17.229414
-5.05057 13.131481 -18.377094
-4.9409738 11.858334 -19.473061
-4.8506107 10.671341 -20.37669
-4.7983222 9.5966434 -20.899572
-4.7563267 8.5613871 -21.31953
-4.7192073 7.5507317 -21.69072
-4.6903481 6.5664873 -21.979317
-4.662096 5.594512 -22.261837
-4.6420965 4.6420956 -22.461828
-4.6241674 3.6993332 -22.641117
-4.6116967 2.7670155 -22.765827
-4.6014633 1.8405867 -22.86816
-4.6000428 0.92000771 -22.882366
-4.6002007 -1.9073486e-06 -22.880791
-4.6003585 -0.92007446 -22.879213
-4.6078014 -1.8431196 -22.804783
-4.6173344 -2.770401 -22.709454
-4.6269069 -3.7015247 -22.613728
-4.6452994 -4.645299 -22.429804
-4.6704183 -5.6045036 -22.178616
-4.6958232 -6.5741544 -21.924564
-4.729444 -7.5671124 -21.58836
-4.7683349 -8.583004 -21.19945
-4.8087473 -9.6174936 -20.795324
-4.8666596 -10.706652 -20.2162
-4.9270701 -11.824969 -19.612093
-5.0047956 -13.01247 -18.834839
-5.0943499 -14.26418 -17.939299
-5.2141953 -15.642589 -16.740843
-5.3649359 -17.167793 -15.233442
-5.6036272 -19.05233 -12.846525
-4.73248 21.296162 -9.7267895
-4.4345198 18.846706 -13.451302
-4.3291731 17.31669 -14.768135
-4.2284651 15.856744 -16.026979
-4.1322703 14.462946 -17.229414
-4.0404434 13.131438 -18.377254
-3.9527788 11.858334 -19.473061
-3.8686168 10.638698 -20.525084
-3.8260508 9.5651264 -21.057161
-3.7917125 8.531352 -21.486389
-3.7633138 7.5266266 -21.841377
-3.7379076 6.541337 -22.158955
-3.717989 5.5769825 -22.407932
-3.701813 4.6272669 -22.610134
-3.6897278 3.6897259 -22.7612
-3.6807392 2.7605543 -22.873556
-3.6722028 1.8361025 -22.980261
-3.6698892 0.91747093 -23.009182
-3.6688223 -9.5367432e-07 -23.022514
-3.6686134 -0.91715431 -23.025131
-3.6731145 -1.8365583 -22.968864
-3.6822028 -2.7616539 -22.855265
-3.6922781 -3.6922798 -22.729321
-3.7059689 -4.6324625 -22.558182
-3.7240663 -5.5861001 -22.331966
-3.7427328 -6.5497842 -22.098637
-3.7678299 -7.5356607 -21.78492
-3.7993674 -8.5485792 -21.390703
-3.8314371 -9.5785923 -20.989828
-3.8751967 -10.656792 -20.442839
-3.923157 -11.769472 -19.843336
-3.9814351 -12.939664 -19.114859
-4.0524635 -14.183622 -18.227007
-4.142416 -15.534062 -17.102594
-4.253798 -17.015192 -15.710325
-4.4224691 -18.795496 -13.601931
-3.4814754 20.888851 -10.858209
-3.3259125 18.84684 -13.450918
-3.2468472 17.316517 -14.768681
-3.1713386 15.856691 -16.027155
-3.0991926 14.462898 -17.229584
-3.030323 13.131399 -18.377411
-2.9645841 11.858334 -19.473061
-2.9014626 10.638698 -20.525084
-2.861001 9.5366697 -21.199448
-2.8365991 8.5097952 -21.606144
-2.8143156 7.5048413 -21.977539
-2.7975252 6.5275583 -22.257378
-2.7826653 5.5653296 -22.505043
-2.7691689 4.6152811 -22.72998
-2.7613835 3.6818447 -22.859737
-2.7549772 2.7549744 -22.966507
-2.7486088 1.832406 -23.072649
-2.7461538 0.91538334 -23.113564
-2.7453573 9.5367432e-07 -23.126837
-2.745662 -0.91522312 -23.121765
-2.749047 -1.8326979 -23.065346
-2.7555671 -2.7555685 -22.956678
-2.7630982 -3.6841316 -22.831158
-2.7726283 -4.6210451 -22.672325
-2.7861261 -5.5722523 -22.447361
-2.8009825 -6.5356264 -22.199753
-2.8194191 -7.5184531 -21.892475
-2.8427966 -8.5283899 -21.502855
-2.8666413 -9.5554733 -21.105442
-2.8983183 -10.627167 -20.577492
-2.9340785 -11.736318 -19.981487
-2.976016 -12.89607 -19.28253
-3.0285361 -14.133169 -18.407194
-3.0925517 -15.462759 -17.340271
-3.1719534 -16.917088 -16.016909
-3.2949598 -18.67144 -13.966801
-3.5642059 -21.385235 -9.4793625
-2.2960374 20.664337 -11.481856
-2.2173057 18.847099 -13.450153
-2.1645429 17.316341 -14.769225
-2.1142187 15.856637 -16.027327
-2.0661221 14.46285 -17.22975
-2.0202091 13.131359 -18.377567
-1.9763894 11.858334 -19.473061
-1.9343084 10.638698 -20.525084
-1.9045459 9.5227289 -21.269148
-1.8894062 8.502326 -21.64764
-1.8744674 7.4978666 -22.021114
-1.8620654 6.51723 -22.33116
-1.851524 5.5545702 -22.594694
-1.8442295 4.6105719 -22.777058
-1.8388134 3.6776247 -22.912462
-1.8339511 2.7509251 -23.034016
-1.8291148 1.8291149 -23.154922
-1.8274271 0.9137125 -23.197121
-1.8279721 -0 -23.183498
-1.8285224 -0.91426182 -23.169735
-1.8305558 -1.8305578 -23.118902
-1.8347197 -2.7520809 -23.014803
-1.838908 -3.6778183 -22.910099
-1.8445625 -4.6114073 -22.768736
-1.8547091 -5.5641274 -22.515066
-1.8650384 -6.5276356 -22.256838
-1.8770092 -7.5080361 -21.957565
-1.892573 -8.5165787 -21.568472
-1.9085612 -9.5428085 -21.168764
-1.9292238 -10.610731 -20.652201
-1.9530432 -11.71826 -20.056715
-1.9803908 -12.872541 -19.37303
-2.0153258 -14.107283 -18.499651
-2.0570557 -15.427917 -17.456404
-2.1097836 -16.878271 -16.138208
-2.1845398 -18.568584 -14.269303
-2.3303108 -20.972799 -10.625028
-1.1441414 20.594545 -11.675722
-1.1086872 18.847683 -13.448434
-1.0822605 17.316166 -14.769773
-1.0571059 15.856587 -16.027498
-1.0330642 14.462898 -17.229584
-1.0101013 13.131317 -18.377728
-0.9881947 11.858334 -19.473061
-0.9671542 10.638698 -20.525084
-0.95158309 9.5158272 -21.303642
-0.94386917 8.4948225 -21.689337
-0.93636107 7.4908872 -22.064741
-0.9302792 6.5119524 -22.368839
-0.92544258 5.5526524 -22.610668
-0.92117512 4.605875 -22.824039
-0.91839129 3.673563 -22.96323
-0.91641426 2.7492418 -23.062082
-0.91445082 1.8289013 -23.160252
-0.9135527 0.91355228 -23.205158
-0.91341531 -9.5367432e-07 -23.212029
-0.91330385 -0.91330433 -23.217604
-0.91420931 -1.8284187 -23.172329
-0.916623 -2.7498684 -23.051643
-0.91922021 -3.6768827 -22.921787
-0.92228127 -4.6114073 -22.768736
-0.92684186 -5.5610523 -22.540705
-0.93145043 -6.520155 -22.310276
-0.93720913 -7.4976721 -22.022341
-0.9450472 -8.5054245 -21.63044
-0.95302022 -9.5302029 -21.231785
-0.96313965 -10.594536 -20.725815
-0.97503346 -11.700401 -20.131124
-0.988392 -12.849099 -19.463198
-1.0058331 -14.081663 -18.591139
-1.026219 -15.393286 -17.571846
-1.0524769 -16.839628 -16.258953
-1.0912995 -18.55209 -14.317823
-1.1636387 -20.945501 -10.700857
0 20.614849 -11.619328
0 18.847551 -13.448816
0 17.31605 -14.770137
0 15.856533 -16.027676
0 14.462946 -17.229414
0 13.131276 -18.377884
0 11.858334 -19.473061
0 10.638726 -20.524942
0 9.5176048 -21.294775
0 8.4973412 -21.675354
0 7.4935021 -22.048391
0 6.5129519 -22.36171
0 5.5526524 -22.610668
0 4.6076279 -22.806501
0 3.6750851 -22.944225
0 2.7492418 -23.062082
0 1.8289013 -23.160252
0 0.91355228 -23.205158
0 -9.5367432e-07 -23.212029
0 -0.91366482 -23.199715
0 -1.8292198 -23.152328
0 -2.7500677 -23.048382
0 -3.6768827 -22.921787
0 -4.6114073 -22.768736
0 -5.5610523 -22.540705
0 -6.5226636 -22.292343
0 -7.5015616 -21.998035
0 -8.5095978 -21.607254
0 -9.5349474 -21.208069
0 -10.600532 -20.698563
0 -11.707071 -20.10334
0 -12.857863 -19.429478
0 -14.091264 -18.556852
0 -15.406204 -17.52878
0 -16.854126 -16.213654
0 -18.55209 -14.317823
0 -20.945501 -10.700857
1.151877 20.733786 -11.288941
1.1086681 18.847355 -13.449392
1.0822495 17.315992 -14.770319
1.057099 15.856483 -16.027847
1.0330709 14.462991 -17.229252
1.0100981 13.131276 -18.377884
0.9881947 11.858334 -19.473061
0.96716005 10.63876 -20.524796
0.95266199 9.5266171 -21.249699
0.94503605 8.5053225 -21.630993
0.93756133 7.5004902 -22.00473
0.93139917 6.5197916 -22.31284
0.92638022 5.55828 -22.563786
0.9224689 4.6123428 -22.75935
0.9197877 3.6791506 -22.893414
0.9173547 2.7520628 -23.015064
0.91505146 1.8301029 -23.13022
0.91408461 0.91408443 -23.178562
0.91434699 -9.5367432e-07 -23.165449
0.91461974 -0.91461849 -23.151806
0.91567898 -1.831357 -23.09885
0.91776538 -2.7532949 -22.994528
0.91985869 -3.6794357 -22.889866
0.92278636 -4.6139345 -22.743477
0.92777699 -5.5666628 -22.493946
0.93294632 -6.5306206 -22.235481
0.93899202 -7.5119352 -21.933197
0.94677365 -8.5209656 -21.544113
0.95475626 -9.5475636 -21.144985
0.96517313 -10.616905 -20.624138
0.97708195 -11.724987 -20.0287
0.9908722 -12.881338 -19.339188
1.0083512 -14.116919 -18.465237
1.0293964 -15.440947 -17.412977
1.055802 -16.892832 -16.092697
1.0938551 -18.595539 -14.190042
1.1735724 -21.124304 -10.204176
2.3323629 20.991262 -10.573729
2.2173057 18.847099 -13.450153
2.1644847 17.31588 -14.770679
2.1141911 15.856429 -16.028023
2.0661418 14.462991 -17.229252
2.0202026 13.131317 -18.377728
1.9763894 11.858334 -19.473061
1.9343317 10.638825 -20.524504
1.9091216 9.5456066 -21.154757
1.8922004 8.5149002 -21.577789
1.8780169 7.5120664 -21.932377
1.8663957 6.532383 -22.2229
1.8565228 5.5695696 -22.46973
1.847326 4.6183128 -22.699646
1.8423187 3.6846352 -22.824833
1.8380467 2.7570677 -22.931629
1.8337893 1.833787 -23.038063
1.8323328 0.91616535 -23.074474
1.8318009 9.5367432e-07 -23.087774
1.8312745 -0.91563702 -23.100933
1.8335645 -1.8335676 -23.043682
1.8385665 -2.7578506 -22.918634
1.8435903 -3.6871815 -22.793041
1.8501297 -4.6253252 -22.629555
1.8591449 -5.5774364 -22.404173
1.8682485 -6.5388694 -22.176586
1.8805848 -7.522337 -21.868177
1.8961915 -8.5328608 -21.478012
1.9120593 -9.560297 -21.081314
1.9333382 -10.633361 -20.549343
1.9572003 -11.743201 -19.952789
1.9853754 -12.904939 -19.248411
2.020431 -14.143021 -18.372019
2.0634527 -15.475894 -17.296482
2.1164644 -16.931715 -15.971187
2.2020354 -18.717302 -13.831908
2.394613 -21.551517 -9.0174732
3.6136045 21.681625 -8.6560545
3.3259239 18.846901 -13.450728
3.246716 17.315817 -14.770864
3.1712759 15.856377 -16.028194
3.0992227 14.463039 -17.229086
3.030304 13.131317 -18.377728
2.9645751 11.858297 -19.473211
2.9020555 10.640871 -20.5152
2.8730648 9.5768833 -20.998379
2.8475254 8.542572 -21.424042
2.8258641 7.5356355 -21.785061
2.806772 6.5491343 -22.103262
2.7917414 5.5834808 -22.353771
2.7796929 4.6328201 -22.554583
2.7698443 3.6931238 -22.718727
2.76279 2.7627888 -22.836296
2.7562435 1.8374939 -22.945404
2.7547729 0.91825581 -22.969913
2.7546394 -9.5367432e-07 -22.972141
2.7547336 -0.91824722 -22.97057
2.7585196 -1.8390131 -22.907471
2.7642138 -2.7642145 -22.812569
2.7715139 -3.6953526 -22.690897
2.7820637 -4.636776 -22.515064
2.7957916 -5.5915847 -22.28627
2.810956 -6.5588999 -22.033529
2.8302131 -7.547236 -21.71258
2.853821 -8.5614643 -21.319111
2.8779464 -9.5931559 -20.917021
2.9114547 -10.675332 -20.358555
2.9475508 -11.790202 -19.75695
2.9923048 -12.966653 -19.011049
3.0458002 -14.213737 -18.119457
3.1148708 -15.574354 -16.968285
3.2010212 -17.072113 -15.532447
3.3283546 -18.86068 -13.410213
4.4693766 18.994848 -13.015589
4.3289256 17.315699 -14.77123
4.2283683 15.856377 -16.028194
4.1323233 14.463131 -17.228752
4.0404181 13.131359 -18.377567
3.9527545 11.858263 -19.473362
3.8888466 10.694324 -20.272215
3.8463542 9.6158829 -20.803373
3.8111331 8.5750465 -21.243633
3.7817433 7.563488 -21.611004
3.7586658 6.5776653 -21.899475
3.7359982 5.6039972 -22.182817
3.7181501 4.6476879 -22.405914
3.7037725 3.7037697 -22.58564
3.6943443 2.7707596 -22.703487
3.687561 1.8437777 -22.788284
3.6848693 0.92121601 -22.82193
3.6845634 9.5367432e-07 -22.825752
3.6846898 -0.92117405 -22.824173
3.6911774 -1.8455887 -22.743084
3.6988344 -2.774127 -22.647366
3.7072284 -3.7072287 -22.542442
3.7215898 -4.651988 -22.362921
3.7415252 -5.6122904 -22.113731
3.7619059 -6.5833354 -21.858971
3.789536 -7.579072 -21.513594
3.8204417 -8.5959949 -21.127277
3.8533311 -9.6333313 -20.716156
3.900264 -10.725728 -20.129498
3.9486325 -11.845898 -19.524891
4.0123348 -13.040088 -18.728609
4.0841818 -14.29464 -17.830524
4.1824555 -15.68421 -16.6021
4.3064356 -17.225746 -15.052351
4.5158477 -19.192352 -12.434704
5.6925969 19.35483 -11.956826
5.411375 17.316397 -14.769047
5.2854428 15.85633 -16.028366
5.1654372 14.463223 -17.228424
5.0505228 13.131359 -18.377567
4.9505806 11.881395 -19.376987
4.8876948 10.752926 -20.005848
4.8364687 9.6729355 -20.51811
4.7885127 8.6193237 -20.997667
4.7534599 7.6055331 -21.348198
4.7216311 6.6102834 -21.666489
4.6927009 5.6312389 -21.955788
4.6684799 4.668478 -22.197994
4.6519203 3.7215357 -22.363594
4.6380692 2.7828398 -22.502104
4.6310611 1.8524237 -22.572182
4.6276522 0.92553043 -22.606277
4.6242609 9.5367432e-07 -22.64019
4.6215248 -0.92430687 -22.667547
4.6324081 -1.8529634 -22.558714
4.6436505 -2.786191 -22.446289
4.6549482 -3.723959 -22.333313
4.6755476 -4.6755466 -22.127319
4.6972899 -5.6367478 -21.909897
4.719955 -6.6079364 -21.683245
4.7569733 -7.6111588 -21.313066
4.795877 -8.6325798 -20.924026
4.8393631 -9.6787243 -20.489164
4.898572 -10.776857 -19.897079
4.9592624 -11.902231 -19.290173
5.0442848 -13.115142 -18.439949
5.1361556 -14.381234 -17.52124
5.2714181 -15.814256 -16.168617
5.45014 -17.440449 -14.381399
5.7615924 -19.589415 -11.266876
7.0734963 20.041573 -9.9369907
6.5995364 17.598761 -13.886662
6.3669372 15.91734 -15.824987
6.2069135 14.482799 -17.158518
6.0850549 13.184286 -18.174006
5.9864278 11.972856 -18.995897
5.9056849 10.827089 -19.668755
5.838985 9.7316418 -20.224586
5.7807231 8.6710825 -20.710098
5.7374225 7.6498976 -21.070942
5.6965294 6.6459494 -21.41172
5.6594472 5.6594467 -21.720736
5.632391 4.6936598 -21.946207
5.6104126 3.7402744 -22.129358
5.5927167 2.7963562 -22.276825
5.5843544 1.8614511 -22.346506
5.5814009 0.93023396 -22.37112
5.5784497 -0 -22.395716
5.5799813 -0.9299984 -22.38295
5.5890098 -1.8630047 -22.307718
5.5980673 -2.7990341 -22.232235
5.6131196 -3.7420835 -22.106796
5.6399746 -4.6999807 -21.883007
5.6688013 -5.6688018 -21.642784
5.7006998 -6.650816 -21.376966
5.7459245 -7.6612325 -21.000093
5.793819 -8.6907282 -20.600973
5.8530912 -9.7551537 -20.107037
5.9250021 -10.862506 -19.507778
6.0046897 -12.00938 -18.843712
6.1120973 -13.242878 -17.948654
6.2380738 -14.555504 -16.898849
6.4039316 -16.00983 -15.516699
6.641758 -17.711357 -13.53481
7.328227 -20.763309 -7.8142376
7.8663902 17.980318 -12.694293
7.5452485 16.16839 -14.988167
7.3412414 14.682482 -16.445358
7.1704311 13.316511 -17.66543
7.0501084 12.085899 -18.524879
6.9495215 10.920673 -19.243361
6.8640394 9.8057699 -19.853945
6.7956281 8.7372351 -20.342598
6.7418966 7.7050214 -20.726391
6.6912141 6.6912127 -21.088409
6.6456952 5.69631 -21.41354
6.6146116 4.7247219 -21.635571
6.5871277 3.7640734 -21.831884
6.5687847 2.8151922 -21.962902
6.5541649 1.8726187 -22.067333
6.5480494 0.9354372 -22.111012
6.5438271 -2.8610229e-06 -22.141174
6.5502963 -0.93575859 -22.094963
6.5615339 -1.8747263 -22.0147
6.5737681 -2.8173313 -21.927305
6.593451 -3.7676868 -21.786715
6.6218247 -4.729877 -21.584045
6.6559062 -5.705061 -21.340611
6.6989937 -6.6989951 -21.032841
6.751575 -7.7160869 -20.657259
6.806777 -8.7515717 -20.262959
6.8843865 -9.8348389 -19.708611
6.9689341 -10.951181 -19.104696
7.074173 -12.127155 -18.352989
7.2009377 -13.373171 -17.447527
7.3673382 -14.734678 -16.258951
7.5770974 -16.236637 -14.760672
7.961102 -18.196808 -12.01778
9.3300934 18.660187 -10.569712
8.8001032 16.500193 -13.882148
8.508523 14.889914 -15.704529
8.3086014 13.501473 -16.954044
8.1502371 12.225354 -17.943813
8.0237694 11.032681 -18.734238
7.9217095 9.9021358 -19.372116
7.833899 8.8131361 -19.920925
7.7627082 7.7627082 -20.36587
7.7036185 6.7406645 -20.735182
7.655674 5.7417541 -21.03483
7.6161108 4.7600698 -21.282104
7.5832243 3.7916088 -21.487644
7.5594673 2.8347998 -21.636126
7.5410671 1.8852654 -21.751125
7.5342922 0.94178391 -21.793472
7.5323963 -0 -21.805317
7.5388813 -0.94236183 -21.76479
7.5513301 -1.8878345 -21.686983
7.5655088 -2.8370647 -21.598362
7.5950809 -3.7975388 -21.413542
7.6271434 -4.7669654 -21.21315
7.6604805 -5.7453604 -21.004795
7.7162704 -6.7517376 -20.656105
7.7783513 -7.7783542 -20.268101
7.8456922 -8.8264046 -19.847221
7.9413543 -9.9266949 -19.249332
8.0397053 -11.054597 -18.63464
8.1782751 -12.267411 -17.768578
8.3299723 -13.536205 -16.820471
8.557704 -14.975986 -15.397141
8.8634825 -16.619032 -13.486031
9.5843716 -19.168745 -8.9804764
10.19973 16.999546 -12.217633
9.763361 15.187447 -14.641909
9.4966717 13.717417 -16.123507
9.2953701 12.393826 -17.24185
9.1395063 11.170506 -18.107761
9.0080156 10.008905 -18.838264
8.9092093 8.9092102 -19.387192
8.8236609 7.8432555 -19.862457
8.749588 6.8052349 -20.273975
8.6932068 5.7954683 -20.587208
8.6448946 4.8027182 -20.85561
8.6091518 3.8262901 -21.054173
8.5798502 2.8599463 -21.216965
8.5612869 1.9025068 -21.320095
8.5478449 0.94975948 -21.394768
8.5511255 -0 -21.376545
8.5585537 -0.95095158 -21.335276
8.5660715 -1.903574 -21.293507
8.5808668 -2.8602915 -21.211315
8.6188354 -3.8305922 -21.000378
8.6587467 -4.8104129 -20.778648
8.7058268 -5.8038883 -20.51709
8.7700138 -6.8211222 -20.1605
8.840682 -7.8583832 -19.767897
8.9328117 -8.9328136 -19.256065
9.0417318 -10.046369 -18.650953
9.1690454 -11.206613 -17.943653
9.3352156 -12.446956 -17.020489
9.5437346 -13.785394 -15.862051
9.8118467 -15.262873 -14.372538
10.309772 -17.182953 -11.606283
11.155432 15.617604 -13.105638
10.773405 14.005425 -15.01577
10.50721 12.608652 -16.346745
10.308406 11.339248 -17.340765
10.148986 10.148985 -18.137867
10.025681 9.0231113 -18.754389
9.9195337 7.9356251 -19.28513
9.8321638 6.8825145 -19.721981
9.7619867 5.8571925 -20.072861
9.7018642 4.8509321 -20.373474
9.6599302 3.8639698 -20.583147
9.6227274 2.8868179 -20.769156
9.6044922 1.9208937 -20.860336
9.5887251 0.9588728 -20.939175
9.5916395 1.9073486e-06 -20.924599
9.6013403 -0.96013451 -20.876095
9.6110897 -1.9222183 -20.827353
9.64112 -2.8923388 -20.677197
9.6749439 -3.8699756 -20.50808
9.7116432 -4.8558226 -20.324581
9.777112 -5.8662648 -19.997234
9.8499784 -6.8949857 -19.632904
9.9265099 -7.9412074 -19.250248
10.046463 -9.0418177 -18.650484
10.169382 -10.169382 -18.035885
10.338209 -11.372029 -17.191751
10.53214 -12.638571 -16.222097
10.830436 -14.079565 -14.730618
11.25039 -15.750549 -12.630849
12.956496 16.490086 -9.9896336
12.216054 14.437153 -13.355276
11.826319 12.901438 -15.126799
11.55265 11.552649 -16.370749
11.354704 10.322457 -17.270506
11.197042 9.1612148 -17.987154
11.057771 8.0420132 -18.620199
10.962135 6.9759035 -19.054907
10.875752 5.9322276 -19.447559
10.810426 4.9138288 -19.744495
10.754987 3.910903 -19.996492
10.716147 2.9225817 -20.173037
10.68758 1.9431944 -20.302883
10.671762 0.97015762 -20.37479
10.665556 -1.9073486e-06 -20.402996
10.670506 -0.97004509 -20.380493
10.689775 -1.9435978 -20.292908
10.73057 -2.9265184 -20.107479
10.771677 -3.9169745 -19.92063
10.824011 -4.9200063 -19.682749
10.899594 -5.9452338 -19.339188
10.983529 -6.9895225 -18.957666
11.095965 -8.0697918 -18.44659
11.230395 -9.1885061 -17.835543
11.392231 -10.356573 -17.099928
11.605141 -11.605141 -16.132156
11.884723 -12.965152 -14.861331
12.269827 -14.500705 -13.110857
13.241607 -16.852955 -8.6936731
14.011032 15.178616 -10.503496
13.304383 13.304384 -13.447865
12.928432 11.85106 -15.014329
12.657456 10.547879 -16.143396
12.440259 9.3301926 -17.048384
12.276538 8.1843557 -17.730556
12.152225 7.0887976 -18.248524
12.043574 6.0217876 -18.701239
11.966401 4.9860005 -19.022793
11.89585 3.9652815 -19.316751
11.853241 2.9633102 -19.494289
11.814369 1.969059 -19.656258
11.799498 0.98329163 -19.718224
11.789663 -1.9073486e-06 -19.759201
11.805232 -0.98376942 -19.694328
11.833954 -1.9723282 -19.57465
11.862818 -2.9657063 -19.454393
11.903477 -3.9678259 -19.284973
11.983965 -4.9933186 -18.94961
12.065511 -6.0327554 -18.609837
12.166619 -7.0971985 -18.188543
12.310624 -8.2070827 -17.588531
12.459443 -9.3445845 -16.968449
12.68723 -10.572692 -16.019337
12.948546 -11.869498 -14.930523
13.366826 -13.366827 -13.187683
14.17977 -15.361419 -9.8004265
15.266796 14.092426 -10.16435
14.507039 12.275187 -13.086489
14.08753 10.83656 -14.699986
13.79917 9.5532703 -15.809062
13.602748 8.3709202 -16.564533
13.43445 7.2339315 -17.211838
13.293371 6.1354008 -17.754448
13.187943 5.0722852 -18.159941
13.103763 4.0319238 -18.483711
13.048385 3.011167 -18.696701
13.004743 2.0007286 -18.864553
12.983595 0.99873734 -18.94589
12.976267 -2.8610229e-06 -18.974083
12.993193 -0.99947739 -18.908985
13.027704 -2.0042629 -18.776243
13.062399 -3.0144019 -18.642797
13.129627 -4.0398831 -18.384228
13.21527 -5.0827971 -18.054834
13.31105 -6.1435637 -17.686449
13.461812 -7.2486701 -17.106592
13.623699 -8.3838167 -16.483952
13.856803 -9.593173 -15.587401
14.130973 -10.869983 -14.532901
14.568721 -12.32738 -12.849253
15.45071 -14.262194 -9.4569883
16.968149 13.332113 -8.2822609
15.786915 11.276366 -12.500957
15.349134 9.8672981 -14.064462
15.056859 8.6039181 -15.108297
14.815494 7.4077487 -15.970319
14.645209 6.2765174 -16.578478
14.503031 5.1796527 -17.08626
14.424422 4.1212611 -17.367004
14.352238 3.0754781 -17.624804
14.288651 2.0412345 -17.851896
14.246364 1.0175943 -18.002926
14.257904 -1.9073486e-06 -17.961704
14.269509 -1.0192528 -17.920263
14.281405 -2.0402017 -17.877775
14.344012 -3.0737152 -17.654177
14.426916 -4.1219769 -17.358095
14.510783 -5.1824226 -17.058571
14.665374 -6.285161 -16.506462
14.834225 -7.4171133 -15.903425
15.07888 -8.6165028 -15.029653
15.388399 -9.8925438 -13.924228
15.915342 -11.368104 -12.042292
17.411144 10.446685 -10.845653
16.794155 8.9568844 -12.902277
16.43766 7.6709075 -14.090591
16.179768 6.4719052 -14.950233
15.994341 5.3314438 -15.568331
15.855443 4.228116 -16.031321
15.724826 3.1449623 -16.466711
15.683496 2.0911312 -16.604477
15.655827 1.0437202 -16.696711
15.628304 -9.5367432e-07 -16.788452
15.632708 -1.0421834 -16.773773
15.69747 -2.0929966 -16.557898
15.762822 -3.152565 -16.340059
15.854298 -4.2278128 -16.035137
16.022158 -5.3407211 -15.475605
16.20013 -6.480052 -14.882362
16.480141 -7.6907315 -13.948992
16.811525 -8.9661474 -12.844378
17.486383 -10.491832 -10.594849
18.58053 8.1289835 -10.818635
18.053574 6.7700896 -12.465376
17.747128 5.5459757 -13.423029
17.515673 4.3789191 -14.146318
17.384392 3.2595716 -14.556572
17.274052 2.1592546 -14.901381
17.191236 1.074451 -15.160187
17.201057 -1.4305115e-06 -15.129496
17.22603 -1.0766296 -15.051451
17.276892 -2.1596117 -14.892509
17.393141 -3.2612166 -14.52923
17.559336 -4.3898363 -14.009874
17.76568 -5.5517759 -13.365048
18.125513 -6.7970676 -12.240571
18.705875 -8.1838188 -10.426934
19.84709 4.6699033 -10.509001
19.51284 3.4434438 -11.492092
19.294285 2.2699165 -12.134901
19.19215 1.1289501 -12.435294
19.100224 -0 -12.705669
19.19471 -1.1290998 -12.427768
19.322769 -2.2732677 -12.051121
19.523701 -3.445358 -11.460144
19.938225 -4.6913471 -10.240959
