# .PCD v0.7 - Point Cloud Data file format
VERSION 0.7
FIELDS x y z
SIZE 4 4 4
TYPE F F F
COUNT 1 1 1
WIDTH 1059
HEIGHT 1
VIEWPOINT 0 0 0 1 0 0 0
POINTS 1059
DATA ascii
-23.055902 1.2134671 -8.2093687
-22.97076 -0 -8.4334221
-21.841858 7.2806149 -8.2109737
-20.78512 5.7736444 -11.146353
-20.331444 4.5180979 -12.406565
-20.105423 3.3509059 -13.034399
-19.941874 2.2157636 -13.488702
-19.879461 1.104413 -13.662071
-19.818523 -1.9073486e-06 -13.831345
-19.881918 -1.1045547 -13.655247
-19.988873 -2.2209868 -13.35815
-20.146469 -3.3577447 -12.920384
-20.34837 -4.5218592 -12.35955
-20.851557 -5.7920995 -10.961804
-19.938734 9.3829317 -10.239462
-19.16593 7.8918524 -12.512411
-18.799498 6.6351156 -13.590155
-18.52602 5.4488292 -14.394503
-18.306454 4.3074017 -15.040283
-18.178114 3.2079024 -15.417761
-18.08396 2.1275263 -15.694682
-18.033888 1.0608125 -15.841953
-18.022421 -4.7683716e-07 -15.875677
-18.038643 -1.0610957 -15.827963
-18.095083 -2.1288323 -15.661963
-18.188568 -3.2097492 -15.38701
-18.326138 -4.3120341 -14.982392
-18.540272 -5.4530201 -14.352587
-18.805508 -6.6372385 -13.572478
-19.226751 -7.9168959 -12.333529
-20.113262 -9.465065 -9.72614
-19.102112 11.93882 -9.1886959
-18.041304 10.148232 -12.503725
-17.574017 8.7870083 -13.96399
-17.270807 7.5559778 -14.911522
-17.037205 6.3889508 -15.641535
-16.839355 5.2622972 -16.259811
-16.713369 4.1783409 -16.653517
-16.616825 3.1156535 -16.955212
-16.548737 2.0685911 -17.167994
-16.51339 1.0320854 -17.27845
-16.503283 -1.9073486e-06 -17.31004
-16.507673 -1.0317311 -17.29632
-16.553577 -2.0691986 -17.152866
-16.621063 -3.1164508 -16.941975
-16.723738 -4.1809363 -16.621117
-16.860529 -5.2689195 -16.193647
-17.042561 -6.3909631 -15.624795
-17.293777 -7.5660276 -14.839743
-17.607008 -8.803504 -13.860898
-18.105946 -10.184594 -12.301716
-17.289728 12.679135 -11.250366
-16.624123 11.082747 -13.469055
-16.216457 9.7298717 -14.827942
-15.92065 8.4910126 -15.813963
-15.707174 7.3300147 -16.525549
-15.539411 6.2157621 -17.084759
-15.4036 5.1345301 -17.537466
-15.322487 4.0859947 -17.80784
-15.243332 3.048666 -18.071692
-15.176337 2.0235109 -18.295006
-15.151711 1.0101166 -18.377094
-15.142253 -0 -18.408621
-15.153804 -1.010253 -18.370117
-15.185743 -2.0247664 -18.263657
-15.229771 -3.0459523 -18.116896
-15.312816 -4.0834179 -17.84008
-15.418753 -5.139585 -17.486954
-15.55353 -6.2214127 -17.037699
-15.738822 -7.3447857 -16.420057
-15.956962 -8.5103817 -15.692924
-16.255173 -9.7531033 -14.698891
-16.688374 -11.125586 -13.254883
-17.441086 -12.790131 -10.745846
-15.939327 13.662278 -11.956631
-15.362165 12.070273 -14.017918
-14.980813 10.700579 -15.379892
-14.714273 9.4591732 -16.33182
-14.504571 8.2883263 -17.080755
-14.329871 7.1649337 -17.704687
-14.206923 6.0886788 -18.143787
-14.096467 5.0344529 -18.538269
-14.014082 4.0040221 -18.832508
-13.951939 2.9896994 -19.054443
-13.914281 1.987752 -19.188938
-13.889401 0.99210167 -19.277788
-13.885934 -0 -19.290173
-13.894756 -0.99248219 -19.258669
-13.924128 -1.9891644 -19.153767
-13.966903 -2.9929099 -19.000999
-14.043566 -4.0124474 -18.727201
-14.125901 -5.0449667 -18.433149
-14.22024 -6.094389 -18.096224
-14.362166 -7.1810813 -17.589348
-14.525754 -8.3004303 -17.005106
-14.743356 -9.4778757 -16.227955
-15.036208 -10.740148 -15.182054
-15.454537 -12.142852 -13.688022
-16.109846 -13.808442 -11.34763
-14.799442 14.79944 -11.961863
-14.212483 13.119215 -14.219397
-13.853499 11.722192 -15.600103
-13.576881 10.443754 -16.664024
-13.374153 9.2590256 -17.443745
-13.209553 8.1289539 -18.07682
-13.081105 7.0436702 -18.570854
-13.023973 6.0110641 -18.790592
-12.967257 4.9874058 -19.008732
-12.911033 3.9726238 -19.224979
-12.855295 2.9666042 -19.439356
-12.800075 1.969243 -19.651741
-12.745288 0.98040485 -19.862457
-12.69979 -1.9073486e-06 -20.037451
-12.712757 -0.97790241 -19.987579
-12.744394 -1.9606752 -19.865892
-12.771745 -2.9473257 -19.760698
-12.833253 -3.9486942 -19.524137
-12.908324 -4.9647408 -19.235395
-12.991174 -5.9959264 -18.916739
-13.09564 -7.0514984 -18.514946
-13.225756 -8.1389256 -18.014505
-13.40097 -9.2775965 -17.340603
-13.622191 -10.478609 -16.489752
-13.886239 -11.749895 -15.474186
-14.275479 -13.177366 -13.977109
-14.919348 -14.919347 -11.500691
-13.758606 16.051708 -11.555271
-13.146727 14.242288 -14.104768
-12.772155 12.772153 -15.665483
-12.511028 11.468442 -16.753513
-12.307288 10.256075 -17.602425
-12.139428 9.1045694 -18.301844
-12.044927 8.0299492 -18.695604
-11.992487 6.995615 -18.914103
-11.940392 5.9701939 -19.131168
-11.888745 4.9536452 -19.346355
-11.837545 3.945848 -19.559692
-11.786785 2.9466953 -19.771193
-11.736493 1.9560814 -19.980743
-11.686628 0.97388363 -20.188513
-11.637151 -0 -20.394669
-11.58809 -0.96567535 -20.599091
-11.605711 -1.934288 -20.525669
-11.634311 -2.908577 -20.406504
-11.679807 -3.8932672 -20.216936
-11.745417 -4.8939252 -19.943562
-11.825077 -5.9125376 -19.611641
-11.905826 -6.9450655 -19.275192
-12.022166 -8.0147772 -18.790436
-12.15716 -9.1178732 -18.227962
-12.338824 -10.282355 -17.471024
-12.55569 -11.509381 -16.567427
-12.838306 -12.838307 -15.389853
-13.216555 -14.317933 -13.813823
-13.921534 -16.241787 -10.876408
-12.866834 17.545681 -10.39719
-12.122891 15.429132 -13.778747
-11.750518 13.886972 -15.471351
-11.476175 12.519463 -16.718363
-11.271839 11.271837 -17.647163
-11.102368 10.093061 -18.417484
-11.013873 9.0113459 -18.819736
-10.966041 7.9753003 -19.037159
-10.918554 6.9481702 -19.253006
-10.871477 5.9298954 -19.466991
-10.824772 4.9203506 -19.679289
-10.778465 3.9194412 -19.889771
-10.732553 2.9270611 -20.098457
-10.687064 1.9431019 -20.305233
-10.641926 0.96744728 -20.510405
-10.597168 -0 -20.713852
-10.552785 -0.95934391 -20.915592
-10.522327 -1.9131517 -21.054033
-10.552439 -2.8779383 -20.917164
-10.589529 -3.8507385 -20.748573
-10.64087 -4.8367581 -20.515203
-10.699823 -5.8362679 -20.247238
-10.779549 -6.8597145 -19.88485
-10.875351 -7.9093475 -19.449381
-10.984823 -8.9875851 -18.95178
-11.125397 -10.113999 -18.312811
-11.307988 -11.307989 -17.482849
-11.498765 -12.544107 -16.615686
-11.802662 -13.948599 -15.234334
-12.22141 -15.55452 -13.330934
-13.058102 -17.806503 -9.5277843
-11.182837 16.774254 -12.968611
-10.75907 15.062696 -15.087446
-10.484686 13.630087 -16.45937
-10.272541 12.327047 -17.520092
-10.101616 11.111776 -18.374714
-9.9879074 9.9879074 -18.943256
-9.9446373 8.9501734 -19.159607
-9.9017105 7.9213667 -19.374247
-9.8591213 6.9013844 -19.587191
-9.8168678 5.8901205 -19.798458
-9.7749739 4.8874855 -20.007927
-9.7334375 3.8933725 -20.215612
-9.6922522 2.9076757 -20.421535
-9.6514711 1.930294 -20.625441
-9.6109743 0.96109676 -20.827927
-9.570816 -0 -21.028715
-9.5309925 -0.95309925 -21.227835
-9.4914713 -1.8982954 -21.425438
-9.5011101 -2.8503342 -21.377247
-9.5369806 -3.8147955 -21.197893
-9.5754585 -4.7877302 -21.005505
-9.6310215 -5.7786131 -20.727686
-9.6974211 -6.788197 -20.395695
-9.7710867 -7.8168693 -20.027363
-9.8774586 -8.8897133 -19.495502
-9.9907608 -9.9907618 -18.928993
-10.132115 -11.145329 -18.222221
-10.306888 -12.368266 -17.348358
-10.53021 -13.689273 -16.23175
-10.818312 -15.145637 -14.791236
-11.266301 -16.899452 -12.551291
-10.357219 18.41283 -11.342693
-9.8099852 16.349974 -14.382876
-9.5161724 14.802934 -16.015169
-9.2960567 13.427635 -17.238039
-9.1280136 12.170685 -18.17161
-8.9883356 10.985742 -18.947598
-8.9282408 9.9202671 -19.281456
-8.889822 8.889822 -19.494896
-8.8516779 7.8681593 -19.706806
-8.8138609 6.8552246 -19.916904
-8.7763109 5.8508744 -20.125511
-8.7391071 4.8550606 -20.332199
-8.7022171 3.8676519 -20.537144
-8.665637 2.8885441 -20.74037
-8.6294403 1.9176521 -20.94146
-8.5934687 0.95482922 -21.141302
-8.5577955 -2.8610229e-06 -21.339491
-8.5224171 -0.9469347 -21.536034
-8.4872808 -1.8860626 -21.731237
-8.4846449 -2.8282185 -21.74588
-8.5180559 -3.7858038 -21.560263
-8.5517321 -4.7509623 -21.373178
-8.5934429 -5.7289634 -21.141447
-8.6447392 -6.7236876 -20.856466
-8.7159386 -7.7475038 -20.460913
-8.802825 -8.802824 -19.97822
-8.8985891 -9.8873205 -19.44619
-9.0133419 -11.016309 -18.808674
-9.1551924 -12.206924 -18.020617
-9.3238268 -13.46775 -17.083759
-9.5520744 -14.858785 -15.815711
-9.8840694 -16.473452 -13.971301
-10.449173 -18.576309 -10.831834
-8.9208822 17.841763 -13.127283
-8.5750341 16.078188 -15.288833
-8.3456593 14.604903 -16.722422
-8.1664724 13.270517 -17.842344
-8.0254955 12.038239 -18.723454
-7.9168377 10.885651 -19.402561
-7.8828292 9.8535357 -19.615114
-7.8490887 8.830225 -19.825994
-7.8156352 7.8156328 -20.035076
-7.7824659 6.8096585 -20.242382
-7.7495303 5.8121467 -20.448235
-7.7168951 4.8230591 -20.652199
-7.6845341 3.8422661 -20.854462
-7.6524434 2.8696651 -21.055027
-7.620687 1.9051714 -21.253506
-7.5891476 0.94864178 -21.450623
-7.557847 9.5367432e-07 -21.64625
-7.5267811 -0.94084644 -21.840412
-7.4959702 -1.8739929 -22.032986
-7.4895153 -2.808567 -22.073322
-7.5169148 -3.7584591 -21.902081
-7.5444922 -4.7153091 -21.729719
-7.5799875 -5.6849928 -21.507874
-7.6285214 -6.6749597 -21.204535
-7.6835251 -7.6835246 -20.860764
-7.7571187 -8.726759 -20.400805
-7.838264 -9.7978306 -19.893648
-7.9279051 -10.900868 -19.333391
-8.0538645 -12.080798 -18.546146
-8.1900606 -13.308847 -17.694921
-8.3771591 -14.660031 -16.525551
-8.6211767 -16.164707 -15.00044
-9.0029869 -18.005976 -12.614128
-8.1443233 19.779068 -10.709064
-7.6602402 17.509117 -14.166795
-7.4007139 15.858672 -16.020555
-7.2223158 14.444632 -17.294827
-7.0763736 13.141835 -18.337273
-6.9635701 11.93755 -19.143007
-6.8807278 10.812572 -19.734741
-6.851368 9.7876682 -19.944454
-6.8222165 8.7714195 -20.152681
-6.7933121 7.7637849 -20.359138
-6.7646918 6.7646909 -20.563566
-6.7362719 5.7739458 -20.766567
-6.7080898 4.7914906 -20.967869
-6.6801229 3.8172131 -21.167635
-6.6524267 2.8510399 -21.365459
-6.6249986 1.8928566 -21.561375
-6.5977387 0.9425354 -21.756096
-6.5707197 -0 -21.949081
-6.5438843 -0.93484116 -22.140768
-6.5172672 -1.8620787 -22.330894
-6.5154004 -2.7923155 -22.344221
-6.5398002 -3.7370281 -22.169937
-6.5642872 -4.6887779 -21.995033
-6.5936446 -5.6516972 -21.785337
-6.6302247 -6.6302247 -21.52405
-6.6800437 -7.6343341 -21.168201
-6.7396984 -8.6653252 -20.742096
-6.8097811 -9.72826 -20.241501
-6.8853755 -10.819879 -19.701544
-6.9859419 -11.9759 -18.983213
-7.0945802 -13.175652 -18.20722
-7.2463837 -14.492765 -17.122913
-7.4256697 -15.912148 -15.842301
-7.6903386 -17.577919 -13.951805
-8.2902832 -20.133545 -9.6664896
-6.7850776 19.224384 -12.340485
-6.4719505 17.258533 -14.949873
-6.2744994 15.686248 -16.595301
-6.1320505 14.308117 -17.782373
-6.0186901 13.040493 -18.727047
-5.9277487 11.855496 -19.48489
-5.8584538 10.740499 -20.062346
-5.8335872 9.7226448 -20.269569
-5.808948 8.7134209 -20.474899
-5.7844987 7.7126637 -20.678642
-5.7602887 6.7203364 -20.88039
-5.7362294 5.7362294 -21.080887
-5.7123871 4.7603216 -21.279572
-5.6887422 3.7924938 -21.476612
-5.6652918 2.8326454 -21.672031
-5.6420841 1.8806953 -21.865429
-5.6190329 0.93650436 -22.057522
-5.596169 -9.5367432e-07 -22.248055
-5.5734587 -0.92891216 -22.437309
-5.5509157 -1.8503084 -22.625168
-5.5562983 -2.7781506 -22.580311
-5.5743113 -3.7162075 -22.430202
-5.5954232 -4.6628523 -22.254271
-5.6218629 -5.6218638 -22.033936
-5.6553035 -6.5978537 -21.755266
-5.6942105 -7.5922837 -21.43104
-5.7453089 -8.6179638 -21.005224
-5.8008857 -9.6681423 -20.542086
-5.8584185 -10.740435 -20.062643
-5.9447389 -11.88948 -19.343304
-6.034904 -13.075627 -18.591927
-6.1555276 -14.362897 -17.586735
-6.3003559 -15.75089 -16.379829
-6.505815 -17.348839 -14.667674
-6.8361468 -19.369081 -11.914909
-5.5582566 18.898073 -13.300228
-5.3356366 17.074036 -15.526429
-5.1893082 15.567924 -16.989712
-5.078609 14.220102 -18.096706
-4.9864793 12.964845 -19.018005
-4.9127197 11.790527 -19.755602
-4.8496895 10.669317 -20.3859
-4.8292398 9.6584797 -20.590393
-4.8089914 8.6561832 -20.792883
-4.7888832 7.6622109 -20.993965
-4.7689567 6.6765394 -21.19323
-4.749167 5.6989994 -21.391125
-4.7295551 4.7295542 -21.587246
-4.7101045 3.7680845 -21.781754
-4.6908269 2.814496 -21.974529
-4.6717334 1.8686934 -22.165464
-4.6527677 0.93055248 -22.355118
-4.6339421 -9.5367432e-07 -22.543375
-4.6152687 -0.92305565 -22.730114
-4.6023979 -1.8409605 -22.858818
-4.6133499 -2.7680111 -22.7493
-4.626215 -3.7009726 -22.620644
-4.6443071 -4.644309 -22.43972
-4.6652455 -5.5982938 -22.230345
-4.6923995 -6.5693607 -21.958797
-4.723474 -7.557559 -21.648052
-4.7641277 -8.5754309 -21.241516
-4.8112631 -9.622529 -20.770164
-4.8607645 -10.693683 -20.27515
-4.925396 -11.82095 -19.628838
-4.9992599 -12.998075 -18.890194
-5.0945754 -14.264811 -17.937038
-5.2022099 -15.606629 -16.860699
-5.3609676 -17.155096 -15.27312
-5.6045446 -19.055452 -12.83735
-4.7249765 21.262392 -9.8205891
-4.3998113 18.699198 -13.885157
-4.2409329 16.96373 -15.871136
-4.1242213 15.465829 -17.33003
-4.0386815 14.135386 -18.399279
-3.9701383 12.902948 -19.256065
-3.9128301 11.738491 -19.972418
-3.865109 10.629047 -20.568935
-3.8380742 9.5951843 -20.906868
-3.8220637 8.5996418 -21.107002
-3.8062198 7.6124382 -21.305046
-3.7904625 6.6333103 -21.502018
-3.7748346 5.6622505 -21.697363
-3.7593462 4.6991816 -21.890968
-3.7439845 3.7439833 -22.082991
-3.7287586 2.796567 -22.273315
-3.7136772 1.8568373 -22.46183
-3.6987073 0.9246769 -22.648956
-3.683836 -9.5367432e-07 -22.834846
-3.6690736 -0.91726875 -23.019379
-3.6712286 -1.8356152 -22.992432
-3.6783307 -2.7587481 -22.903662
-3.6896958 -3.6896954 -22.761595
-3.703197 -4.6289968 -22.592829
-3.7211812 -5.5817728 -22.368032
-3.7406554 -6.5461497 -22.124603
-3.7669806 -7.5339608 -21.795534
-3.7964764 -8.5420723 -21.426842
-3.8324182 -9.5810442 -20.97757
-3.8731563 -10.65118 -20.468342
-3.9244606 -11.77338 -19.827042
-3.9771421 -12.925714 -19.168516
-4.0532165 -14.186254 -18.217598
-4.1369982 -15.513742 -17.170322
-4.2589488 -17.035795 -15.645941
-4.4325652 -18.838402 -13.47573
-3.4819398 20.891638 -10.850468
-3.2772212 18.570919 -14.262444
-3.1645923 16.877825 -16.139589
-3.0802875 15.401434 -17.544674
-3.017858 14.083336 -18.585167
-2.9674728 12.859047 -19.424919
-2.9259336 11.703732 -20.117235
-2.8913312 10.601547 -20.693945
-2.8604753 9.5349178 -21.208206
-2.8479452 8.5438328 -21.417042
-2.8362241 7.5632644 -21.612392
-2.8245578 6.5906339 -21.806831
-2.8129871 5.6259737 -21.99968
-2.8015189 4.669198 -22.190815
-2.790144 3.72019 -22.3804
-2.7788768 2.7788763 -22.568182
-2.7677083 1.8451376 -22.754326
-2.7566135 0.91886997 -22.93924
-2.7456071 -2.8610229e-06 -23.122677
-2.7444835 -0.91482925 -23.141407
-2.7493446 -1.8328972 -23.060387
-2.7534845 -2.7534838 -22.991388
-2.7613914 -3.6818552 -22.859608
-2.7721505 -4.6202507 -22.680286
-2.7860136 -5.5720258 -22.449238
-2.8002269 -6.5338655 -22.212345
-2.8168116 -7.5114985 -21.935936
-2.8387427 -8.5162296 -21.570419
-2.865263 -9.5508776 -21.12841
-2.8960493 -10.618846 -20.615313
-2.9342213 -11.736885 -19.979109
-2.97454 -12.889673 -19.307135
-3.0276906 -14.129223 -18.421284
-3.0904036 -15.452018 -17.376074
-3.1745608 -16.930988 -15.973454
-3.299227 -18.69562 -13.895678
-3.5463617 -21.278172 -9.7767677
-2.3050909 20.745815 -11.255527
-2.1757154 18.493578 -14.489913
-2.1004133 16.803305 -16.372463
-2.047893 15.359198 -17.685471
-2.0075314 14.052718 -18.69451
-1.9745463 12.834551 -19.519138
-1.9467639 11.680583 -20.213697
-1.9229816 10.576399 -20.808254
-1.9051266 9.525631 -21.254631
-1.8871185 8.4920311 -21.704836
-1.8786801 7.514719 -21.915792
-1.8710073 6.5485258 -22.107613
-1.8633916 5.5901737 -22.298008
-1.8558375 4.6395922 -22.48686
-1.8483498 3.6966982 -22.674051
-1.8409328 2.7613983 -22.859476
-1.8335803 1.8335781 -23.043289
-1.8262707 0.91313457 -23.226025
-1.8262397 -0 -23.226803
-1.8266854 -0.91334343 -23.21566
-1.8297596 -1.8297596 -23.138805
-1.8331678 -2.749754 -23.0536
-1.8386453 -3.6772919 -22.916666
-1.8463774 -4.6159439 -22.72336
-1.8545755 -5.5637293 -22.518406
-1.8640176 -6.5240636 -22.282356
-1.8755598 -7.5022411 -21.993803
-1.8903331 -8.5065002 -21.62447
-1.9071586 -9.5357933 -21.203829
-1.9286516 -10.607584 -20.666508
-1.9514681 -11.708809 -20.096092
-1.9787592 -12.861937 -19.413818
-2.0140457 -14.098318 -18.531654
-2.0529485 -15.397116 -17.559082
-2.1100671 -16.880537 -16.131119
-2.1864691 -18.584986 -14.22107
-2.3297372 -20.967634 -10.639368
-1.1473393 20.652109 -11.515824
-1.0856814 18.456581 -14.598723
-1.0486838 16.77894 -16.448605
-1.0228009 15.342014 -17.742744
-1.0026774 14.037483 -18.748924
-0.98629284 12.821805 -19.568153
-0.97267592 11.672112 -20.248999
-0.96119219 10.573112 -20.823189
-0.95202786 9.520277 -21.281403
-0.94304222 8.4873772 -21.730682
-0.93612677 7.4890141 -22.076458
-0.92994314 6.5095997 -22.385639
-0.92580193 5.5548086 -22.592697
-0.92207247 4.6103592 -22.779171
-0.91837823 3.6735115 -22.963886
-0.91534817 2.7460442 -23.115385
-0.91383034 1.8276587 -23.191284
-0.91274947 0.91274929 -23.245323
-0.91260713 -9.5367432e-07 -23.252438
-0.91302657 -0.91302681 -23.231468
-0.91420144 -1.8284025 -23.172722
-0.91597086 -2.7479134 -23.084255
-0.91890526 -3.6756229 -22.937534
-0.92250073 -4.612505 -22.757763
-0.92621768 -5.5573068 -22.571915
-0.93096805 -6.516777 -22.334393
-0.93691987 -7.4953585 -22.036804
-0.94417381 -8.4975653 -21.674107
-0.95220822 -9.5220814 -21.272387
-0.96348852 -10.598375 -20.708368
-0.97504228 -11.700507 -20.130682
-0.98849213 -12.850399 -19.458187
-1.0059998 -14.083997 -18.582806
-1.0266315 -15.399471 -17.551224
-1.0530761 -16.84922 -16.228989
-1.0920475 -18.56481 -14.280424
-1.1568042 -20.822475 -11.042587
0 20.637096 -11.557518
0 18.452412 -14.610991
0 16.777081 -16.454416
0 15.342744 -17.740311
0 14.036565 -18.752201
0 12.822986 -19.56362
0 11.674191 -20.240326
0 10.569674 -20.838827
0 9.517518 -21.2952
0 8.490365 -21.7141
0 7.490561 -22.066788
0 6.5131588 -22.360231
0 5.5526686 -22.610537
0 4.6073656 -22.809135
0 3.674612 -22.950123
0 2.7471361 -23.097157
0 1.8280487 -23.181549
0 0.91304207 -23.23056
0 -9.5367432e-07 -23.24506
0 -0.91310978 -23.22732
0 -1.8281698 -23.178566
0 -2.7484007 -23.076172
0 -3.6762629 -22.929531
0 -4.6129665 -22.753136
0 -5.5573874 -22.571249
0 -6.5190401 -22.31823
0 -7.4988742 -22.014835
0 -8.5015545 -21.651934
0 -9.5291882 -21.236862
0 -10.596345 -20.7176
0 -11.698238 -20.140133
0 -12.863911 -19.406214
0 -14.073659 -18.61973
0 -15.403106 -17.539104
0 -16.833025 -16.279596
0 -18.546556 -14.334101
0 -20.96134 -10.656854
1.1565839 20.81851 -11.053602
1.0882367 18.500019 -14.470969
1.0512186 16.819496 -16.321865
1.0246409 15.369612 -17.650753
1.0043986 14.061579 -18.662868
0.98800063 12.844006 -19.482767
0.97428662 11.69144 -20.168465
0.96242249 10.586647 -20.761673
0.95283961 9.5283947 -21.240814
0.9442957 8.498661 -21.668013
0.9374221 7.4993739 -22.011694
0.93146658 6.5202656 -22.309469
0.92630029 5.5578003 -22.567783
0.92269117 4.6134539 -22.748241
0.91983759 3.6793489 -22.890915
0.91691554 2.7507467 -23.037018
0.91495001 1.8298998 -23.135296
0.91385883 0.91385937 -23.189854
0.9135294 9.5367432e-07 -23.206329
0.91412097 -0.91412163 -23.176748
0.91522062 -1.8304405 -23.121765
0.91675878 -2.7502785 -23.044853
0.91933841 -3.6773548 -22.915876
0.92268848 -4.6134443 -22.748375
0.92709273 -5.5625577 -22.528156
0.93198717 -6.5239115 -22.283438
0.93828297 -7.5062642 -21.968651
0.94530535 -8.5077496 -21.617531
0.95376593 -9.5376606 -21.1945
0.96379155 -10.601706 -20.69322
0.97542942 -11.705153 -20.111324
0.99093318 -12.882133 -19.336136
1.0069377 -14.097129 -18.535908
1.0288633 -15.43295 -17.439632
1.0561311 -16.898098 -16.076242
1.0936395 -18.591873 -14.200818
1.1741204 -21.134169 -10.176775
2.3445797 21.101217 -10.268299
2.1905992 18.62009 -14.117819
2.1103785 16.883026 -16.123335
2.0557287 15.417965 -17.489578
2.0142283 14.0996 -18.527084
1.980598 12.873886 -19.367847
1.9526639 11.715984 -20.066196
1.9287671 10.608217 -20.66362
1.9098864 9.5494308 -21.135635
1.8926898 8.5171051 -21.56555
1.8785046 7.5140185 -21.920181
1.8659306 6.530756 -22.234535
1.8564852 5.5694551 -22.470665
1.8478564 4.6196375 -22.68639
1.8420445 3.6840868 -22.831684
1.836248 2.7543716 -22.976593
1.8329747 1.8329763 -23.05843
1.8310244 0.91551018 -23.107185
1.8302799 -0 -23.125797
1.8306755 -0.91533756 -23.115908
1.8334548 -1.833457 -23.046421
1.8370657 -2.7556 -22.956154
1.8424927 -3.6849852 -22.82048
1.8487426 -4.6218586 -22.66423
1.857664 -5.5729923 -22.441196
1.8675276 -6.5363455 -22.194607
1.8804419 -7.52177 -21.871746
1.8948518 -8.5268335 -21.511499
1.9122127 -9.5610657 -21.077475
1.9326996 -10.629849 -20.565308
1.9580637 -11.748384 -19.931204
1.985847 -12.908008 -19.236622
2.0210655 -14.14746 -18.356161
2.0638494 -15.47887 -17.28656
2.1216967 -16.973574 -15.840378
2.2043433 -18.736916 -13.774218
2.3789301 -21.41037 -9.4095449
3.6593084 21.955849 -7.894321
3.314836 18.784073 -13.635525
3.1857688 16.990767 -15.786648
3.0999691 15.499846 -17.216644
3.035239 14.164448 -18.295481
2.9831147 12.926829 -19.164219
2.9402261 11.760902 -19.879028
2.9030766 10.644611 -20.498188
2.8734922 9.5783081 -20.991257
2.8468201 8.5404587 -21.435795
2.8271797 7.5391445 -21.763134
2.8083069 6.5527143 -22.077682
2.7921288 5.5842552 -22.347317
2.7791648 4.631938 -22.563385
2.7694709 3.692626 -22.724949
2.7612333 2.7612324 -22.86224
2.7566135 1.8377428 -22.939238
2.7524796 0.91749191 -23.008137
2.7523699 -9.5367432e-07 -23.009966
2.7532332 -0.91774464 -22.995575
2.7570937 -1.8380623 -22.931236
2.7611861 -2.7611856 -22.863029
2.7703528 -3.6938057 -22.710249
2.7798929 -4.6331539 -22.551249
2.7937286 -5.5874572 -22.320652
2.8085275 -6.5532289 -22.074005
2.8285134 -7.5427032 -21.74091
2.8500807 -8.5502453 -21.381453
2.8768487 -9.5894966 -20.93532
2.9088669 -10.665846 -20.401684
2.9484689 -11.793877 -19.741648
2.9893956 -12.954048 -19.059536
3.0452912 -14.211359 -18.127943
3.1109967 -15.554984 -17.032852
3.2019873 -17.077267 -15.516345
3.3349655 -18.898138 -13.300039
4.4628687 18.967194 -13.096933
4.2871027 17.148411 -15.294007
4.1612296 15.604612 -16.867424
4.069952 14.244828 -18.008396
3.9971602 12.990771 -18.918289
3.9376292 11.812885 -19.662432
3.8884003 10.693101 -20.277792
3.8475497 9.6188745 -20.788425
3.8106139 8.5738792 -21.250124
3.7845449 7.5690894 -21.575983
3.7591488 6.5785093 -21.893436
3.7349684 5.6024513 -22.195692
3.7188377 4.6485472 -22.397327
3.7050943 3.7050934 -22.569115
3.6937299 2.7702961 -22.711176
3.6879413 1.8439703 -22.783529
3.6830771 0.92076969 -22.844334
3.6817286 -9.5367432e-07 -22.861187
3.6826661 -0.92066574 -22.84947
3.6887655 -1.8443823 -22.773226
3.6950867 -2.7713175 -22.694214
3.7072177 -3.7072182 -22.542576
3.7202671 -4.6503344 -22.379457
3.7389605 -5.6084409 -22.14579
3.7589512 -6.5781631 -21.895908
3.7858362 -7.5716739 -21.559845
3.8155835 -8.5850649 -21.187998
3.8526161 -9.6315413 -20.725094
3.8959553 -10.713877 -20.183353
3.9486806 -11.846044 -19.524286
4.0095854 -13.031152 -18.762978
4.0828218 -14.289875 -17.847527
4.1801467 -15.675553 -16.630957
4.3060036 -17.224014 -15.057755
4.503777 -19.141052 -12.585583
5.7032905 19.391186 -11.849892
5.4237418 17.355974 -14.645377
5.2506394 15.751918 -16.376404
5.1274981 14.356993 -17.607819
5.0319338 13.083025 -18.563459
4.9524856 11.885964 -19.357941
4.8883634 10.754396 -19.999165
4.8338971 9.6677933 -20.543823
4.7879 8.6182194 -21.003794
4.7507095 7.6011362 -21.375702
4.7176437 6.604701 -21.706356
4.69069 5.628828 -21.975897
4.6691031 4.6691027 -22.191761
4.6501055 3.7200832 -22.381744
4.6386309 2.7831783 -22.496485
4.6275587 1.8510208 -22.607208
4.6232243 0.92464447 -22.650551
4.6222816 9.5367432e-07 -22.659981
4.6237292 -0.92474651 -22.645502
4.6302752 -1.8521099 -22.580048
4.6376953 -2.7826195 -22.505846
4.6528215 -3.7222576 -22.35458
4.6692929 -4.6692934 -22.189865
4.6942616 -5.6331129 -21.940182
4.719872 -6.6078219 -21.684076
4.7548504 -7.6077619 -21.334291
4.7927346 -8.6269207 -20.955452
4.8405275 -9.681056 -20.47752
4.8955016 -10.770104 -19.92778
4.9582691 -11.899845 -19.300106
5.0472279 -13.122792 -18.410519
5.1409473 -14.394652 -17.473324
5.2706928 -15.81208 -16.175869
5.4498444 -17.439503 -14.384351
5.7753434 -19.636169 -11.129356
7.1190825 20.170732 -9.5571098
6.5943298 17.584877 -13.930046
6.3702559 15.925638 -15.797331
6.2095881 14.489037 -17.13623
6.0854192 13.185074 -18.170973
5.9871144 11.974228 -18.990173
5.9083052 10.83189 -19.646921
5.8390732 9.7317877 -20.223854
5.7824025 8.6736031 -20.69611
5.7328744 7.6438303 -21.108845
5.6956215 6.6448917 -21.419283
5.6632152 5.6632128 -21.689337
5.6364021 4.6970015 -21.912777
5.6123695 3.7415781 -22.11305
5.5985379 2.7992687 -22.228313
5.5861478 1.8620481 -22.331566
5.5788689 0.92980957 -22.39222
5.5745044 -1.9073486e-06 -22.428595
5.5759211 -0.92932034 -22.416788
5.5848875 -1.8616304 -22.342068
5.5959258 -2.7979641 -22.250078
5.6146379 -3.7430925 -22.094147
5.6349878 -4.6958218 -21.924564
5.6652422 -5.6652408 -21.672445
5.6973529 -6.6469135 -21.404858
5.7406464 -7.6541948 -21.044077
5.7882442 -8.6823664 -20.647427
5.8475609 -9.7459354 -20.153122
5.9179931 -10.849653 -19.566191
6.0056238 -12.011247 -18.83593
6.1075544 -13.233034 -17.986511
6.2372475 -14.553578 -16.905735
6.4023604 -16.005901 -15.529792
6.6475434 -17.726784 -13.486602
7.3499007 -20.824718 -7.633625
7.8894215 18.032963 -12.529786
7.5461073 16.170229 -14.982029
7.3327107 14.665421 -16.506294
7.1762104 13.327246 -17.624151
7.0529776 12.090818 -18.504383
6.9508934 10.922833 -19.233555
6.8627639 9.8039436 -19.863056
6.7971449 8.7391853 -20.33176
6.7358088 7.6980658 -20.769878
6.6924462 6.6924462 -21.079609
6.6528983 5.7024832 -21.362093
6.6189456 4.7278166 -21.604614
6.5932579 3.7675753 -21.788094
6.5719852 2.8165636 -21.940048
6.5583816 1.8738213 -22.037212
6.5504489 0.93577766 -22.093876
6.5433331 -0 -22.144703
6.5472507 -0.93532276 -22.116722
6.5561681 -1.8731937 -22.053028
6.5698767 -2.8156605 -21.955103
6.590982 -3.7662745 -21.804354
6.6145144 -4.7246513 -21.636267
6.6515627 -5.7013402 -21.371634
6.6912932 -6.6912932 -21.087845
6.7439957 -7.7074242 -20.711399
6.8018036 -8.7451763 -20.298485
6.8741136 -9.8201628 -19.781982
6.9660249 -10.946609 -19.125477
7.0734177 -12.125862 -18.358381
7.1897001 -13.352303 -17.527798
7.364737 -14.729475 -16.277533
7.5943899 -16.273697 -14.637152
7.9631 -18.20137 -12.003512
9.4052134 18.810423 -10.100215
8.8190041 16.535631 -13.764021
8.5118427 14.895724 -15.68378
8.3095388 13.502997 -16.948179
8.1519146 12.227871 -17.933331
8.0241947 11.033263 -18.731583
7.9283929 9.91049 -19.330338
7.8441143 8.8246288 -19.857079
7.7673688 7.7673674 -20.336742
7.7061548 6.7428865 -20.719326
7.658247 5.7436848 -21.018749
7.6144433 4.7590256 -21.292526
7.587873 3.7939358 -21.45859
7.5615988 2.835597 -21.622807
7.5437846 1.8859453 -21.734138
7.5372477 0.94215298 -21.774998
7.5319562 9.5367432e-07 -21.808069
7.5398302 -0.94247913 -21.758854
7.5532575 -1.8883123 -21.674938
7.5705147 -2.8389435 -21.567081
7.5907593 -3.7953796 -21.440552
7.6214767 -4.7634215 -21.248569
7.6664114 -5.7498078 -20.967726
7.7178669 -6.7531352 -20.64613
7.7758608 -7.7758608 -20.283663
7.8475814 -8.8285265 -19.835413
7.940546 -9.9256821 -19.254383
8.046464 -11.063889 -18.592398
8.1722527 -12.258381 -17.806217
8.34128 -13.554581 -16.749796
8.5458879 -14.955302 -15.470997
8.8429031 -16.580444 -13.614655
9.5979843 -19.195971 -8.8953934
10.229702 17.049501 -12.051123
9.7892303 15.22769 -14.498182
9.498353 13.719845 -16.114164
9.3113575 12.415144 -17.153032
9.1432858 11.175125 -18.086767
9.0189543 10.021061 -18.777491
8.9181242 8.9181232 -19.337662
8.8286905 7.8477244 -19.834515
8.7598019 6.8131776 -20.21723
8.7014847 5.8009911 -20.54121
8.6502905 4.8057156 -20.825626
8.6150675 3.8289194 -21.021313
8.5854959 2.8618317 -21.185595
8.5643492 1.9031878 -21.303078
8.556076 0.95067501 -21.349037
8.5520601 -1.9073486e-06 -21.371353
8.5549135 -0.95054626 -21.355497
8.5665779 -1.9036846 -21.290691
8.5878639 -2.8626204 -21.172445
8.6121979 -3.8276443 -21.037252
8.6534948 -4.8074965 -20.807823
8.7100153 -5.8066783 -20.49382
8.7700663 -6.8211627 -20.160202
8.8331871 -7.8517246 -19.809536
8.9268646 -8.9268665 -19.289104
9.0389385 -10.043265 -18.666475
9.154151 -11.188404 -18.026405
9.3295927 -12.43946 -17.051723
9.5285702 -13.76349 -15.946299
9.8334322 -15.296451 -14.252616
10.312121 -17.186872 -11.593233
11.172666 15.641728 -13.019471
10.784525 14.019882 -14.960174
10.516995 12.620394 -16.297817
10.317725 11.349498 -17.294167
10.16418 10.164179 -18.061899
10.030681 9.0276117 -18.729391
9.9196863 7.9357481 -19.284365
9.841424 6.8889952 -19.675676
9.7677355 5.8606415 -20.044119
9.7154837 4.8577414 -20.30538
9.6685495 3.8674192 -20.540047
9.6337891 2.8901358 -20.713852
9.6132421 1.9226475 -20.816586
9.5934982 0.95935059 -20.915306
9.5917826 -1.9073486e-06 -20.923885
9.5950136 -0.95950031 -20.907728
9.604291 -1.9208603 -20.86134
9.6394453 -2.8918352 -20.68557
9.6771545 -3.8708625 -20.497025
9.7224979 -4.8612504 -20.270306
9.7744398 -5.8646646 -20.010597
9.8481693 -6.8937187 -19.641949
9.9435921 -7.9548783 -19.164833
10.047091 -9.0423813 -18.647348
10.174912 -10.174913 -18.008234
10.342994 -11.377291 -17.167828
10.546705 -12.656047 -16.149271
10.826974 -14.075068 -14.747923
11.253183 -15.754458 -12.61688
12.974302 16.512751 -9.9086895
12.207418 14.426948 -13.394531
11.842024 12.91857 -15.055413
11.554687 11.554685 -16.361496
11.366042 10.332764 -17.218971
11.205653 9.1682606 -17.948004
11.079054 8.0574932 -18.52346
10.974846 6.9839931 -18.997135
10.879229 5.934124 -19.431759
10.816339 4.9165149 -19.717627
10.761035 3.913105 -19.969
10.715337 2.9223642 -20.17672
10.695458 1.9446287 -20.267075
10.675688 0.97051716 -20.356943
10.671954 -2.8610229e-06 -20.373913
10.684 -0.97127247 -20.31916
10.701019 -1.9456387 -20.241796
10.725433 -2.9251213 -20.130829
10.767679 -3.9155202 -19.938797
10.820041 -4.9182043 -19.700794
10.892551 -5.9413915 -19.371202
10.987414 -6.9919915 -18.940002
11.094053 -8.0684052 -18.455282
11.208776 -9.1708155 -17.933815
11.388017 -10.352744 -17.119087
11.583989 -11.583991 -16.228302
11.882688 -12.962934 -14.87058
12.285197 -14.51887 -13.040986
13.195457 -16.794218 -8.9034443
14.047166 15.217764 -10.35294
13.330791 13.330789 -13.337836
12.92203 11.84519 -15.041006
12.669457 10.55788 -16.093393
12.439817 9.3298626 -17.05022
12.286615 8.1910725 -17.688568
12.155935 7.0909615 -18.233065
12.057637 6.0288172 -18.642643
11.975121 4.9896312 -18.986462
11.909424 3.9698076 -19.260197
11.863328 2.9658327 -19.452263
11.827033 1.9711695 -19.603493
11.808011 0.98399925 -19.682751
11.802598 -2.8610229e-06 -19.705303
11.802958 -0.98357868 -19.7038
11.826453 -1.9710722 -19.605909
11.860085 -2.965024 -19.465778
11.910085 -3.9700298 -19.257442
11.989322 -4.9955535 -18.92729
12.071016 -6.0355082 -18.586893
12.166237 -7.0969725 -18.190144
12.31294 -8.2086267 -17.57888
12.477598 -9.3581982 -16.892801
12.681605 -10.568005 -16.042774
12.975345 -11.894066 -14.818861
13.362896 -13.362897 -13.204068
14.227411 -15.413032 -9.6019154
15.287102 14.11117 -10.086254
14.513027 12.280255 -13.063454
14.096454 10.843423 -14.665666
13.810239 9.5609341 -15.766489
13.60912 8.3748436 -16.540028
13.437772 7.2357216 -17.199057
13.302078 6.1394196 -17.720957
13.198718 5.0764303 -18.118496
13.099536 4.0306268 -18.499966
13.051926 3.0119824 -18.683079
13.005997 2.0009203 -18.859737
12.987303 0.99902153 -18.931629
12.990771 9.5367432e-07 -18.918289
12.994241 -0.99955845 -18.904945
13.027662 -2.0042562 -18.7764
13.073747 -3.0170178 -18.599155
13.121968 -4.0375304 -18.413687
13.2058 -5.0791554 -18.091257
13.317575 -6.1465726 -17.661352
13.455189 -7.2451029 -17.132071
13.620772 -8.3820162 -16.495209
13.829961 -9.5745897 -15.69064
14.140285 -10.877143 -14.497082
14.586549 -12.342464 -12.780685
15.503557 -14.310972 -9.2537327
17.262058 13.563046 -7.2325883
15.808128 11.291519 -12.425193
15.373855 9.8831902 -13.976171
15.053338 8.6019068 -15.120876
14.815981 7.4079876 -15.968579
14.644066 6.2760282 -16.58256
14.529689 5.1891737 -16.991051
14.417729 4.1193509 -17.390905
14.328594 3.0704107 -17.709244
14.278735 2.0398197 -17.887314
14.260341 1.0185947 -17.953003
14.262464 -2.8610229e-06 -17.945425
14.264585 -1.018899 -17.937849
14.287203 -2.0410309 -17.857071
14.34977 -3.0749536 -17.633621
14.426132 -4.1217523 -17.360901
14.539723 -5.1927567 -16.955214
14.66566 -6.2852817 -16.50544
14.842825 -7.4214125 -15.872705
15.099296 -8.628171 -14.95674
15.392711 -9.8953161 -13.908831
15.890924 -11.350661 -12.129497
17.386686 10.432012 -10.927174
16.773207 8.9457083 -12.972105
16.432682 7.6685824 -14.107191
16.172071 6.4688282 -14.975888
16.00033 5.3334427 -15.548359
15.853621 4.2276325 -16.037394
15.750119 3.1500239 -16.382399
15.691806 2.0922399 -16.576778
15.63539 1.0423584 -16.764828
15.638633 9.5367432e-07 -16.754021
15.656334 -1.0437551 -16.695017
15.696755 -2.0928993 -16.560278
15.765807 -3.1531601 -16.330105
15.842643 -4.2247066 -16.07399
16.014557 -5.3381882 -15.500942
16.217819 -6.4871297 -14.823401
16.450151 -7.6767383 -14.048955
16.84902 -8.986145 -12.719393
17.554678 -10.532807 -10.367203
18.541992 8.1121206 -10.93907
18.072393 6.7771463 -12.40657
17.748045 5.5462623 -13.420156
17.50531 4.3763247 -14.178699
17.354101 3.2538943 -14.651226
17.25761 2.1571989 -14.952766
17.179651 1.0737281 -15.196388
17.196632 -3.3378601e-06 -15.143318
17.214916 -1.0759325 -15.086187
17.277704 -2.1597114 -14.889975
17.398138 -3.2621517 -14.513619
17.548265 -4.3870673 -14.044469
17.732521 -5.5414104 -13.468673
18.113972 -6.7927418 -12.276636
18.741552 -8.1994286 -10.315449
19.85631 4.672071 -10.48188
19.508457 3.4426675 -11.504987
19.274572 2.2675972 -12.192877
19.193026 1.1289988 -12.432722
19.12232 -1.4305115e-06 -12.640677
19.20974 -1.1299849 -12.383568
19.335949 -2.2748189 -12.012358
19.516319 -3.4440594 -11.481855
19.923197 -4.6878109 -10.285163
