# .PCD v0.7 - Point Cloud Data file format
VERSION 0.7
FIELDS x y z
SIZE 4 4 4
TYPE F F F
COUNT 1 1 1
WIDTH 1075
HEIGHT 1
VIEWPOINT 0 0 0 1 0 0 0
POINTS 1075
DATA ascii
-22.230026 2.340003 -10.382732
-21.967278 1.1561713 -11.074167
-21.895853 -1.4305115e-06 -11.262129
-21.948748 -1.1551971 -11.122934
-22.318954 -2.3493643 -10.148704
-20.74641 6.9154692 -11.253872
-20.127777 5.5910492 -12.972303
-19.813438 4.4029837 -13.845467
-19.65132 3.2752194 -14.295797
-19.52389 2.1693211 -14.649767
-19.442963 1.0801654 -14.874569
-19.448772 -1.4305115e-06 -14.858429
-19.45857 -1.0810332 -14.831213
-19.52784 -2.1697612 -14.638796
-19.675549 -3.2792583 -14.228495
-19.890383 -4.4200859 -13.631731
-20.203381 -5.612051 -12.762295
-20.844879 -6.9482946 -10.98035
-19.186565 9.0289679 -12.451727
-18.734222 7.7140899 -13.782141
-18.386557 6.4893713 -14.804689
-18.142849 5.3361297 -15.521476
-17.972984 4.2289367 -16.021076
-17.835413 3.1474257 -16.425697
-17.77128 2.0907364 -16.614323
-17.721315 1.0424271 -16.76128
-17.694492 -9.5367432e-07 -16.84017
-17.715059 -1.0420628 -16.779676
-17.761185 -2.0895543 -16.644022
-17.855844 -3.1510334 -16.365606
-17.994917 -4.2340994 -15.956572
-18.159227 -5.3409505 -15.473301
-18.426126 -6.5033398 -14.688307
-18.765646 -7.7270331 -13.689723
-19.374981 -9.1176367 -11.897561
-18.263086 11.414428 -11.810652
-17.638975 9.9219208 -13.761004
-17.185614 8.592804 -15.177756
-16.934164 7.4086957 -15.963533
-16.714943 6.2681046 -16.648598
-16.556505 5.1739078 -17.143719
-16.429039 4.1072574 -17.542051
-16.341808 3.0640907 -17.814644
-16.269623 2.0337019 -18.04022
-16.230904 1.014432 -18.161221
-16.22027 -2.8610229e-06 -18.194452
-16.235664 -1.0147305 -18.146349
-16.279345 -2.0349178 -18.009842
-16.348501 -3.0653434 -17.79373
-16.430454 -4.1076131 -17.537628
-16.571852 -5.1787047 -17.095762
-16.736132 -6.2760487 -16.582388
-16.958536 -7.4193592 -15.88737
-17.264439 -8.6322174 -14.931428
-17.694921 -9.9533958 -13.586166
-18.434587 -11.521618 -11.274712
-16.8452 12.353147 -12.732132
-16.256813 10.837878 -14.693415
-15.912252 9.5473499 -15.841953
-15.632202 8.3371725 -16.775459
-15.429102 7.2002463 -17.452457
-15.260535 6.1042142 -18.014343
-15.139783 5.0465951 -18.416851
-15.048225 4.0128589 -18.722042
-14.971965 2.9943905 -18.97625
-14.940871 1.9921141 -19.079891
-14.912532 0.99416733 -19.174355
-14.89799 9.5367432e-07 -19.222832
-14.895645 -0.99304485 -19.230642
-14.934123 -1.9912167 -19.102388
-14.993122 -2.9986277 -18.905724
-15.065838 -4.0175562 -18.663336
-15.151188 -5.0503969 -18.378836
-15.296414 -6.118567 -17.894745
-15.469398 -7.2190547 -17.318138
-15.646388 -8.3447418 -16.72817
-15.948368 -9.5690231 -15.721566
-16.305025 -10.870015 -14.532716
-16.900398 -12.393627 -12.548135
-15.526435 13.308373 -13.431244
-15.061993 11.834425 -15.089961
-14.684636 10.489023 -16.437666
-14.462436 9.2972803 -17.231241
-14.26269 8.1501064 -17.944622
-14.106707 7.0533552 -18.501701
-13.981335 5.9920001 -18.949455
-13.881186 4.9575658 -19.307133
-13.796135 3.9417534 -19.610886
-13.727409 2.9415865 -19.856337
-13.689829 1.9556913 -19.990549
-13.662431 0.9758873 -20.088402
-13.663798 -1.9073486e-06 -20.083515
-13.666409 -0.97617245 -20.074192
-13.698236 -1.9568901 -19.960526
-13.73511 -2.9432392 -19.828833
-13.800275 -3.9429364 -19.596096
-13.873065 -4.9546666 -19.336136
-13.978255 -5.9906783 -18.960455
-14.101143 -7.0505729 -18.52157
-14.289514 -8.1654348 -17.84882
-14.486151 -9.3125257 -17.146545
-14.756731 -10.540523 -16.180183
-15.101573 -11.865521 -14.948606
-15.642547 -13.407898 -13.016557
-14.40177 14.40177 -13.491369
-13.904237 12.834677 -15.404964
-13.578643 11.489621 -16.657244
-13.3434 10.264154 -17.562029
-13.149891 9.1037693 -18.306293
-12.988916 7.9931798 -18.925426
-12.858337 6.9237194 -19.427654
-12.758269 5.8884311 -19.812531
-12.671442 4.8736315 -20.146481
-12.61345 3.8810587 -20.369528
-12.561227 2.8987408 -20.570385
-12.531128 1.9278622 -20.686152
-12.503078 0.96177292 -20.794033
-12.502481 -2.8610229e-06 -20.796333
-12.504984 -0.96192169 -20.786703
-12.53278 -1.9281206 -20.679798
-12.562018 -2.8989277 -20.567337
-12.615769 -3.8817744 -20.360603
-12.677547 -4.8759794 -20.122997
-12.770265 -5.893971 -19.766397
-12.871669 -6.9308982 -19.376379
-13.012712 -8.007822 -18.833908
-13.181751 -9.1258297 -18.183754
-13.361853 -10.278349 -17.491058
-13.634267 -11.536688 -16.443308
-13.96196 -12.887966 -15.182952
-14.479826 -14.479829 -13.191154
-13.378356 15.608084 -13.139645
-12.86465 13.936703 -15.280084
-12.532506 12.532507 -16.664024
-12.283098 11.259504 -17.703222
-12.095591 10.079658 -18.484501
-11.930837 8.9481258 -19.170977
-11.807759 7.8718381 -19.6838
-11.694768 6.8219466 -20.154596
-11.617162 5.8085799 -20.477957
-11.543649 4.8098545 -20.784256
-11.490242 3.83008 -21.006786
-11.449907 2.8624763 -21.17485
-11.425077 1.9041796 -21.278303
-11.4048 0.95039845 -21.362797
-11.403588 -2.8610229e-06 -21.367847
-11.404868 -0.95040607 -21.362514
-11.427918 -1.9046526 -21.266472
-11.452793 -2.8631973 -21.162823
-11.500404 -3.8334703 -20.964443
-11.552559 -4.8135662 -20.747139
-11.629055 -5.8145304 -20.428398
-11.712893 -6.8325214 -20.079079
-11.822688 -7.8817925 -19.621597
-11.949664 -8.9622488 -19.092529
-12.128868 -10.107389 -18.345846
-12.319774 -11.293127 -17.550406
-12.587733 -12.587733 -16.433908
-12.946288 -14.025147 -14.939928
-13.519041 -15.772214 -12.553459
-12.447006 16.97319 -12.305493
-11.866476 15.102787 -14.944268
-11.517282 13.611333 -16.531511
-11.2713 12.295963 -17.649612
-11.087139 11.087139 -18.486712
-10.924922 9.9317446 -19.224056
-10.788747 8.8271542 -19.843035
-10.683871 7.7700868 -20.319746
-10.595614 6.7426624 -20.720913
-10.523141 5.7398944 -21.050335
-10.465063 4.7568464 -21.314331
-10.420058 3.789113 -21.51889
-10.37979 2.8308516 -21.701927
-10.360168 1.883666 -21.791126
-10.345181 0.9404726 -21.859245
-10.343912 -9.5367432e-07 -21.865017
-10.346179 -0.94056225 -21.85471
-10.364535 -1.8844614 -21.771275
-10.387679 -2.8330059 -21.666073
-10.426995 -3.7916346 -21.487366
-10.470913 -4.7595067 -21.287735
-10.532691 -5.7451034 -21.006927
-10.603421 -6.7476335 -20.685429
-10.708594 -7.7880692 -20.207367
-10.815908 -8.8493805 -19.719578
-10.949895 -9.9544506 -19.110546
-11.106792 -11.106794 -18.397377
-11.302139 -12.329607 -17.509434
-11.562613 -13.664906 -16.32547
-11.94161 -15.198413 -14.602752
-12.596931 -17.177635 -11.624017
-11.748962 18.79834 -10.137982
-10.917548 16.376322 -14.295053
-10.5521 14.772938 -16.122299
-10.292351 13.380055 -17.421041
-10.090215 12.108254 -18.431726
-9.9334955 10.926844 -19.215321
-9.8053818 9.8053818 -19.855886
-9.6950836 8.7255764 -20.407379
-9.6150227 7.6920176 -20.807682
-9.5366135 6.6756291 -21.19973
-9.4737568 5.6842508 -21.514015
-9.4209528 4.7104759 -21.77803
-9.3832941 3.7533178 -21.966324
-9.354003 2.806201 -22.11278
-9.3343601 1.8668699 -22.210995
-9.319521 0.93195248 -22.285191
-9.3163643 -9.5367432e-07 -22.300972
-9.3189001 -0.93189049 -22.288294
-9.3336563 -1.8667307 -22.214512
-9.3550091 -2.8065023 -22.107752
-9.3884411 -3.7553768 -21.940594
-9.4288473 -4.7144251 -21.738556
-9.4815159 -5.6889091 -21.475216
-9.5445604 -6.6811943 -21.159994
-9.6287737 -7.7030206 -20.738926
-9.7219992 -8.7497997 -20.2728
-9.8175564 -9.8175564 -19.795015
-9.9630785 -10.959387 -19.067404
-10.124115 -12.148939 -18.262218
-10.337412 -13.438637 -17.195736
-10.603869 -14.845417 -15.863447
-10.995019 -16.492527 -13.907703
-10.046958 17.861256 -13.066365
-9.6115398 16.019228 -15.485357
-9.3341627 14.519809 -17.026335
-9.1322155 13.190975 -18.148268
-8.9707136 11.960951 -19.045494
-8.839468 10.803793 -19.774641
-8.733284 9.7036476 -20.364552
-8.6443272 8.6443272 -20.858757
-8.5750999 7.6223111 -21.243355
-8.5049744 6.6149812 -21.632935
-8.4528265 5.6352148 -21.922646
-8.4100723 4.6722603 -22.160173
-8.3780098 3.7235584 -22.338297
-8.3492222 2.7830725 -22.49823
-8.3337755 1.8519497 -22.584042
-8.3239803 0.92488575 -22.63846
-8.3252487 -0 -22.631416
-8.3286715 -0.92540836 -22.612398
-8.3371582 -1.8527002 -22.56525
-8.3563528 -2.7854528 -22.458614
-8.3826656 -3.7256289 -22.312433
-8.4167433 -4.675971 -22.123108
-8.4596653 -5.6397777 -21.884655
-8.5121231 -6.6205397 -21.593222
-8.5757599 -7.6229 -21.239685
-8.6596785 -8.6596775 -20.773472
-8.7547979 -9.7275524 -20.245033
-8.8650894 -10.835111 -19.632301
-8.9996748 -11.999567 -18.8846
-9.1577692 -13.227888 -18.006304
-9.3760719 -14.585003 -16.793507
-9.6761761 -16.126961 -15.126263
-10.167435 -18.075443 -12.397049
-9.4297056 20.038124 -9.9471359
-8.7129345 17.425869 -14.426954
-8.4030523 15.755721 -16.363724
-8.1892262 14.331144 -17.70013
-8.0268211 13.043585 -18.715162
-7.8942137 11.841318 -19.543961
-7.7846541 10.703901 -20.228706
-7.6950531 9.6188164 -20.788712
-7.6180034 8.5702534 -21.270273
-7.5548086 7.5548062 -21.665243
-7.5021515 6.5643806 -21.99435
-7.4596996 5.5947733 -22.259674
-7.4223657 4.638978 -22.493011
-7.3954806 3.6977386 -22.661043
-7.3725452 2.7647038 -22.804388
-7.3594584 1.8398638 -22.886181
-7.3500671 0.91875744 -22.944878
-7.3525438 -9.5367432e-07 -22.929398
-7.3555474 -0.91944695 -22.910625
-7.3586802 -1.8396721 -22.891045
-7.3751431 -2.7656803 -22.788151
-7.3963943 -3.6981993 -22.655333
-7.4293909 -4.6433697 -22.449102
-7.4654751 -5.5991058 -22.223577
-7.5148301 -6.5754766 -21.915108
-7.5698915 -7.569891 -21.570976
-7.6360106 -8.5905132 -21.157728
-7.7161784 -9.6452236 -20.656683
-7.8011422 -10.726572 -20.12566
-7.9156446 -11.873466 -19.410019
-8.0491304 -13.079838 -18.575731
-8.2263565 -14.396123 -17.468067
-8.4440889 -15.832665 -16.107243
-8.7658272 -17.531652 -14.096378
-7.873539 19.12145 -12.643234
-7.4838872 17.106028 -15.426459
-7.2551346 15.546719 -17.060404
-7.0892668 14.178533 -18.245178
-6.9606867 12.926987 -19.163605
-6.8485141 11.740308 -19.964836
-6.7700996 10.638726 -20.524942
-6.7141275 9.5916119 -20.92474
-6.6590538 8.5616417 -21.318127
-6.604876 7.5484285 -21.705111
-6.5515723 6.5515709 -22.08585
-6.4991794 5.5707245 -22.460091
-6.4557099 4.6112204 -22.770584
-6.4326487 3.6757975 -22.935303
-6.4158683 2.7496576 -23.055164
-6.4047956 1.8299427 -23.134254
-6.3942704 0.91346645 -23.209438
-6.3971386 -0 -23.188946
-6.4011374 -0.91444874 -23.160383
-6.4081483 -1.8309021 -23.110312
-6.4187379 -2.7508888 -23.03467
-6.4369869 -3.678277 -22.90432
-6.4627476 -4.61625 -22.720316
-6.4913697 -5.5640316 -22.515867
-6.535645 -6.5356469 -22.199619
-6.5834126 -7.5239005 -21.858421
-6.6323323 -8.5272865 -21.508993
-6.701385 -9.5734081 -21.015759
-6.7745991 -10.645798 -20.492804
-6.8675966 -11.773022 -19.828537
-6.9811354 -12.964968 -19.017542
-7.1186576 -14.237316 -18.035242
-7.2906599 -15.622845 -16.806654
-7.5437574 -17.242872 -14.998816
-7.9595551 -19.330349 -12.028835
-6.6090684 18.725693 -13.807225
-6.3371401 16.899042 -16.073292
-6.1560574 15.390142 -17.582317
-6.0241351 14.056314 -18.681669
-5.9196258 12.825854 -19.552582
-5.8516541 11.703306 -20.119009
-5.8029428 10.638726 -20.524942
-5.7549667 9.5916119 -20.92474
-5.7077603 8.5616417 -21.318127
-5.6613226 7.5484285 -21.705111
-5.6156335 6.5515709 -22.08585
-5.570725 5.5707245 -22.460091
-5.5265446 4.6054516 -22.828259
-5.4860039 3.6573362 -23.166096
-5.4749446 2.7374697 -23.258263
-5.4637747 1.8212595 -23.351339
-5.4563794 0.90939617 -23.412968
-5.4547453 -2.8610229e-06 -23.426582
-5.4598813 -0.90998173 -23.383785
-5.4674106 -1.8224726 -23.321045
-5.4749599 -2.7374792 -23.258129
-5.4904647 -3.6603117 -23.128922
-5.5113544 -4.5927963 -22.954844
-5.538465 -5.5384655 -22.728922
-5.5731688 -6.5020308 -22.439724
-5.6120105 -7.4826798 -22.116041
-5.6514964 -8.4772463 -21.786991
-5.7080302 -9.5133839 -21.315878
-5.774189 -10.586014 -20.764553
-5.8464279 -11.692857 -20.162563
-5.9381757 -12.866047 -19.397999
-6.0407577 -14.095102 -18.543152
-6.1830239 -15.457559 -17.357601
-6.3707604 -16.988695 -15.793127
-6.6657405 -18.886261 -13.334959
-5.8464146 21.047089 -10.418652
-5.4271989 18.452477 -14.610806
-5.23067 16.738144 -16.576097
-5.0935273 15.28058 -17.947521
-4.9877777 13.965776 -19.00502
-4.9177341 12.786108 -19.705454
-4.8764086 11.703379 -20.118713
-4.8357854 10.638726 -20.524942
-4.7958055 9.5916119 -20.92474
-4.7564669 8.5616417 -21.318127
-4.7177687 7.5484285 -21.705111
-4.6796947 6.5515709 -22.08585
-4.6422706 5.5707245 -22.460091
-4.605454 4.6054516 -22.828259
-4.5692163 3.6553717 -23.190636
-4.5419774 2.7251844 -23.463024
-4.5336084 1.8134422 -23.546715
-4.5294867 0.90589523 -23.587934
-4.527307 -9.5367432e-07 -23.609726
-4.5300727 -0.90601635 -23.582066
-4.5364075 -1.8145638 -23.518723
-4.5445299 -2.726717 -23.437496
-4.5583305 -3.6466618 -23.29949
-4.5737882 -4.5737886 -23.144918
-4.5953269 -5.5143919 -22.929527
-4.6205559 -6.4687777 -22.677237
-4.6557159 -7.4491463 -22.325638
-4.692482 -8.4464693 -21.957975
-4.735178 -9.4703569 -21.531019
-4.7870741 -10.531563 -21.012058
-4.8407755 -11.617861 -20.47504
-4.9187565 -12.788769 -19.69523
-5.0038462 -14.010768 -18.844334
-5.1184297 -15.355289 -17.6985
-5.2620573 -16.838585 -16.262222
-5.4742246 -18.612366 -14.140551
-4.5763869 20.593742 -11.677957
-4.3016291 18.281919 -15.112433
-4.1542201 16.616877 -16.955048
-4.0489073 15.183403 -18.271456
-3.9679356 13.887772 -19.283602
-3.9341755 12.78607 -19.705603
-3.9011505 11.703449 -20.118416
-3.8686168 10.638698 -20.525084
-3.8366444 9.5916119 -20.92474
-3.8051736 8.5616417 -21.318127
-3.7742147 7.5484285 -21.705111
-3.7437668 6.5515919 -22.085712
-3.7138166 5.5707245 -22.460091
-3.6843629 4.6054516 -22.828259
-3.6553731 3.6553717 -23.190636
-3.6267538 2.7200642 -23.548374
-3.6168494 1.8084221 -23.67218
-3.612566 0.90314007 -23.725719
-3.6121099 -9.5367432e-07 -23.731422
-3.6136003 -0.90340137 -23.712791
-3.617012 -1.8085079 -23.670147
-3.6246603 -2.7184982 -23.574543
-3.6351311 -3.6351318 -23.443657
-3.6497972 -4.5622463 -23.26033
-3.6674113 -5.5011168 -23.040155
-3.6855552 -6.4497218 -22.813358
-3.712435 -7.4248724 -22.477358
-3.7403946 -8.4158878 -22.127865
-3.7716937 -9.4292355 -21.736626
-3.813549 -10.487261 -21.213432
-3.8594887 -11.578468 -20.639187
-3.9169495 -12.730089 -19.920927
-3.9821496 -13.937525 -19.105928
-4.0688586 -15.258222 -18.022062
-4.1735196 -16.69408 -16.713797
-4.3259721 -18.385386 -14.808141
-4.6549087 -20.947086 -10.696442
-3.3795238 20.277142 -12.557403
-3.2035916 18.153685 -15.489605
-3.1011839 16.539646 -17.196398
-3.0261533 15.130768 -18.446903
-2.9758692 13.88739 -19.284975
-2.9506407 12.786108 -19.705454
-2.9258628 11.703449 -20.118416
-2.9014626 10.638698 -20.525084
-2.8774834 9.5916119 -20.92474
-2.8538802 8.5616417 -21.318127
-2.8306613 7.5484285 -21.705111
-2.8078251 6.5515919 -22.085712
-2.7853625 5.5707245 -22.460091
-2.7632723 4.6054516 -22.828259
-2.7415297 3.6553717 -23.190636
-2.7200654 2.7200642 -23.548374
-2.7061894 1.8041258 -23.77964
-2.7037263 0.90124035 -23.82069
-2.7033856 -9.5367432e-07 -23.82637
-2.7032344 -0.90107727 -23.828892
-2.707768 -1.8051796 -23.75333
-2.7131402 -2.7131414 -23.663794
-2.7196209 -3.6261606 -23.555782
-2.7313309 -4.5522184 -23.360613
-2.7447407 -5.4894829 -23.137115
-2.7582829 -6.4359927 -22.911411
-2.7771983 -7.4058623 -22.596161
-2.7977765 -8.3933315 -22.253189
-2.8206217 -9.4020691 -21.872435
-2.8522866 -10.458385 -21.344685
-2.8865507 -11.546204 -20.773619
-2.9278414 -12.687313 -20.08544
-2.9757593 -13.886874 -19.28681
-3.0380852 -15.190425 -18.248047
-3.1115782 -16.595085 -17.023159
-3.2226467 -18.261665 -15.17202
-3.4146762 -20.488056 -11.971528
-2.2361555 20.125399 -12.978906
-2.1294954 18.10071 -15.645409
-2.0602756 16.482204 -17.375904
-2.0114274 15.085702 -18.597111
-1.9839128 13.88739 -19.284975
-1.9670998 12.786146 -19.705305
-1.9505693 11.703413 -20.118567
-1.9343084 10.638698 -20.525084
-1.9183165 9.5915804 -20.924885
-1.9025868 8.5616417 -21.318127
-1.8871074 7.5484285 -21.705111
-1.8718834 6.5515919 -22.085712
-1.8569083 5.5707245 -22.460091
-1.8421814 4.6054516 -22.828259
-1.8276865 3.6553717 -23.190636
-1.8133769 2.7200642 -23.548374
-1.8015862 1.8015871 -23.843142
-1.8011526 0.90057468 -23.853981
-1.8008403 1.9073486e-06 -23.861792
-1.8005328 -0.90026569 -23.869474
-1.8024892 -1.8024902 -23.820566
-1.8054824 -2.7082233 -23.745735
-1.8112541 -3.6225061 -23.601444
-1.8187879 -4.5469704 -23.413094
-1.8270277 -5.4810829 -23.207104
-1.8353423 -6.4236994 -22.999239
-1.8477874 -7.3911495 -22.688112
-1.8628361 -8.382762 -22.311895
-1.8781374 -9.390687 -21.929363
-1.8985798 -10.442188 -21.418303
-1.9199702 -11.519819 -20.883543
-1.9466933 -12.653508 -20.215462
-1.9804699 -13.863289 -19.371048
-2.0210528 -15.157897 -18.35648
-2.0700691 -16.560553 -17.131073
-2.1423242 -18.209755 -15.324692
-2.2582169 -20.32395 -12.427374
-1.1135284 20.043509 -13.206379
-1.0615727 18.046738 -15.804157
-1.028758 16.460127 -17.444897
-1.0046556 15.069836 -18.650013
-0.99195641 13.88739 -19.284975
-0.98355585 12.786226 -19.705002
-0.97528464 11.703413 -20.118567
-0.9671542 10.638698 -20.525084
-0.95915824 9.5915804 -20.924885
-0.95129055 8.561615 -21.318266
-0.94355369 7.5484285 -21.705111
-0.9359417 6.5515919 -22.085712
-0.92845416 5.5707245 -22.460091
-0.92109072 4.6054516 -22.828259
-0.91384327 3.6553717 -23.190636
-0.90668845 2.7200642 -23.548374
-0.90020603 1.8004093 -23.872498
-0.8999517 0.89995003 -23.885208
-0.89969766 -1.9073486e-06 -23.897915
-0.89953172 -0.89953327 -23.906212
-0.90064186 -1.8012877 -23.850704
-0.90246528 -2.7073946 -23.759529
-0.9047156 -3.6188622 -23.647015
-0.90836221 -4.5418091 -23.464689
-0.91292554 -5.4775543 -23.236515
-0.91756916 -6.4229841 -23.004341
-0.92363387 -7.3890724 -22.701105
-0.93060464 -8.3754406 -22.352566
-0.93793017 -9.379303 -21.986286
-0.9481321 -10.429452 -21.476194
-0.95963013 -11.515563 -20.901289
-0.97298181 -12.648764 -20.233707
-0.98872602 -13.842165 -19.446495
-1.0084175 -15.126265 -18.46192
-1.0328885 -16.526215 -17.238373
-1.0681295 -18.158203 -15.476314
-1.1242058 -20.235704 -12.672504
0 20.070942 -13.130178
0 18.066936 -15.74474
0 16.464392 -17.431572
0 15.07435 -18.634954
0 13.88743 -19.284824
0 12.786226 -19.705002
0 11.703449 -20.118416
0 10.638664 -20.52523
0 9.5915804 -20.924885
0 8.561615 -21.318266
0 7.5484285 -21.705111
0 6.5516081 -22.085575
0 5.5707245 -22.460091
0 4.6054516 -22.828259
0 3.6553717 -23.190636
0 2.7200718 -23.548244
0 1.800704 -23.865192
0 0.90011597 -23.877028
0 -1.9073486e-06 -23.884705
0 -0.89980507 -23.892506
0 -1.8014059 -23.847681
0 -2.7073946 -23.759529
0 -3.6202288 -23.629969
0 -4.543746 -23.445324
0 -5.4775543 -23.236515
0 -6.4229841 -23.004341
0 -7.3890724 -22.701105
0 -8.376461 -22.346909
0 -9.3835678 -21.964958
0 -10.432711 -21.461386
0 -11.515563 -20.901289
0 -12.648764 -20.233707
0 -13.848591 -19.42355
0 -15.137741 -18.423658
0 -16.539062 -17.198225
0 -18.177509 -15.419534
0 -20.268702 -12.580855
1.121069 20.179241 -12.829348
1.0659432 18.121035 -15.585634
1.0314815 16.503704 -17.308718
1.0065882 15.098822 -18.553387
0.99195945 13.88743 -19.284824
0.98355293 12.786186 -19.705154
0.97529054 11.703485 -20.118271
0.96715128 10.638664 -20.52523
0.95915824 9.5915804 -20.924885
0.95129055 8.561615 -21.318266
0.94355369 7.5484285 -21.705111
0.93594438 6.5516081 -22.085575
0.92845416 5.5707245 -22.460091
0.92109072 4.6054516 -22.828259
0.91384327 3.6553717 -23.190636
0.90669364 2.7200813 -23.548117
0.90120679 1.802412 -23.822456
0.90083593 0.90083504 -23.841
0.90069479 -2.8610229e-06 -23.848059
0.90054101 -0.90054226 -23.855743
0.90157038 -1.8031416 -23.804279
0.90328598 -2.7098579 -23.718498
0.90597123 -3.6238861 -23.584232
0.90978217 -4.548912 -23.393686
0.9139055 -5.4834337 -23.187523
0.91820788 -6.4274549 -22.972404
0.92430764 -7.3944607 -22.667414
0.93183881 -8.386549 -22.290859
0.9394936 -9.3949375 -21.908115
0.94980538 -10.447861 -21.392527
0.96051514 -11.526183 -20.857037
0.97395641 -12.661435 -20.184977
0.99086612 -13.872126 -19.339491
1.0113393 -15.17009 -18.315832
1.0358441 -16.573502 -17.090595
1.0723042 -18.229172 -15.267586
1.1323423 -20.382164 -12.265681
2.2644455 20.380009 -12.27166
2.1404579 18.193892 -15.371351
2.0705218 16.564175 -17.119749
2.0199997 15.149999 -18.382797
1.9839251 13.887475 -19.28467
1.9670998 12.786146 -19.705305
1.9505693 11.703413 -20.118567
1.9343026 10.638664 -20.52523
1.9183165 9.5915804 -20.924885
1.9025811 8.561615 -21.318266
1.8871019 7.5484076 -21.70525
1.8718888 6.5516081 -22.085575
1.8569137 5.5707397 -22.459953
1.8421814 4.6054516 -22.828259
1.8276865 3.6553717 -23.190636
1.8133974 2.7200966 -23.547863
1.8054471 1.8054476 -23.74662
1.8031861 0.90159225 -23.803144
1.8030244 -2.8610229e-06 -23.807182
1.80355 -0.90177631 -23.794048
1.806425 -1.8064251 -23.722172
1.8100774 -2.7151175 -23.630857
1.8141283 -3.6282606 -23.529591
1.8223257 -4.5558128 -23.324657
1.8312796 -5.4938383 -23.100801
1.8403223 -6.4411273 -22.874743
1.853246 -7.4129829 -22.551649
1.8669913 -8.4014616 -22.208014
1.8813709 -9.4068546 -21.848526
1.9034871 -10.469182 -21.29562
1.9263831 -11.5583 -20.723217
1.9543597 -12.703341 -20.023804
1.9858286 -13.9008 -19.23708
2.0270231 -15.202672 -18.207224
2.0760179 -16.608143 -16.982347
2.1511309 -18.284611 -15.104525
2.2894957 -20.605465 -11.645402
3.4602385 20.761431 -11.212152
3.2365613 18.340511 -14.940108
3.1241541 16.662151 -16.813564
3.0437262 15.218632 -18.154022
2.9821563 13.916729 -19.180189
2.9506495 12.786146 -19.705305
2.9258449 11.703379 -20.118713
2.901454 10.638664 -20.52523
2.8774748 9.5915804 -20.924885
2.8538718 8.561615 -21.318266
2.8306527 7.5484076 -21.70525
2.8078332 6.5516081 -22.085575
2.7853703 5.5707397 -22.459953
2.7632723 4.6054516 -22.828259
2.7415297 3.6553717 -23.190636
2.7200501 2.7200499 -23.54863
2.7154369 1.8102903 -23.625511
2.7125151 0.90416908 -23.674213
2.7118142 -9.5367432e-07 -23.685894
2.7131402 -0.9043808 -23.663795
2.7152233 -1.8101511 -23.629078
2.721576 -2.7215776 -23.523201
2.7295859 -3.6394482 -23.389698
2.7399426 -4.5665731 -23.217087
2.752825 -5.5056496 -23.00238
2.766582 -6.4553595 -22.773094
2.7871478 -7.4323959 -22.430336
2.8091078 -8.4273224 -22.064335
2.8333859 -9.4446201 -21.659698
2.8643537 -10.502632 -21.143568
2.8976572 -11.590629 -20.588511
2.9417582 -12.74762 -19.853495
2.992481 -13.96491 -19.008114
3.0588565 -15.294283 -17.901854
3.1402395 -16.74794 -16.545475
3.2578247 -18.461008 -14.585714
3.5262723 -21.157635 -10.111591
4.3647537 18.550201 -14.323374
4.1960206 16.784081 -16.432539
4.0848947 15.318353 -17.821615
3.9986877 13.995404 -18.899202
3.9341996 12.786146 -19.705305
3.9011147 11.703342 -20.118864
3.8685937 10.638632 -20.525375
3.836633 9.5915804 -20.924885
3.8051622 8.561615 -21.318266
3.7742147 7.5484285 -21.705111
3.7437887 6.5516291 -22.085438
3.7138274 5.5707397 -22.459953
3.6843629 4.6054516 -22.828259
3.6553731 3.6553717 -23.190636
3.6393142 2.7294836 -23.391373
3.6313987 1.8156986 -23.490311
3.6277349 0.90693378 -23.536108
3.6257629 1.9073486e-06 -23.560759
3.6297193 -0.90743065 -23.511307
3.6348643 -1.8174324 -23.446991
3.6400137 -2.73001 -23.382624
3.6510186 -3.651021 -23.245064
3.6633101 -4.5791378 -23.091423
3.6817393 -5.5226097 -22.861055
3.7035489 -6.4812121 -22.588436
3.7296119 -7.4592252 -22.262646
3.7591047 -8.4579868 -21.89399
3.7943501 -9.4858761 -21.453421
3.836004 -10.549012 -20.932745
3.8810968 -11.643291 -20.369085
3.942646 -12.813599 -19.599722
4.0109849 -14.038446 -18.745489
4.1049285 -15.393481 -17.571196
4.2233601 -16.89344 -16.090792
4.4010448 -18.704439 -13.86974
5.5400963 18.836327 -13.481835
5.304574 16.974638 -15.837056
5.1495018 15.448505 -17.387774
5.0358863 14.100478 -18.523935
4.9478712 12.864466 -19.404081
4.8763785 11.703306 -20.119009
4.835742 10.638632 -20.525375
4.7957911 9.5915804 -20.924885
4.756453 8.561615 -21.318266
4.7177687 7.5484285 -21.705111
4.6797357 6.5516291 -22.085438
4.6422844 5.5707397 -22.459953
4.605454 4.6054516 -22.828259
4.5800757 3.6640606 -23.082039
4.5703583 2.7422132 -23.179214
4.5615225 1.8246098 -23.267574
4.5545888 0.91091633 -23.336906
4.5544987 -9.5367432e-07 -23.337807
4.5577626 -0.91155338 -23.305172
4.5640583 -1.8256254 -23.242214
4.5703716 -2.7422237 -23.179085
4.5837812 -3.6670227 -23.044987
4.6015687 -4.6015701 -22.867107
4.6233573 -5.548027 -22.649223
4.6532655 -6.5145717 -22.350142
4.6857591 -7.4972148 -22.025208
4.7190137 -8.4942265 -21.692657
4.7666116 -9.5332241 -21.216682
4.8219757 -10.608345 -20.66304
4.8844905 -11.722777 -20.037893
4.9613571 -12.899529 -19.269224
5.0505385 -14.14151 -18.377411
5.1722779 -15.516834 -17.160019
5.3384686 -17.083099 -15.498109
5.603003 -19.050213 -12.852765
6.8248391 19.337044 -12.00914
6.4585085 17.222685 -15.061896
6.2438025 15.609504 -16.851109
6.0971208 14.226614 -18.073456
5.9834971 12.964241 -19.020321
5.8885398 11.777079 -19.81163
5.8085809 10.649063 -20.477955
5.7549324 9.5915537 -20.925028
5.7077436 8.561615 -21.318266
5.6613226 7.5484285 -21.705111
5.6156831 6.5516291 -22.085438
5.5707407 5.5707397 -22.459953
5.5458455 4.6215391 -22.667412
5.525722 3.683814 -22.835112
5.5082726 2.7541351 -22.980526
5.4987516 1.8329153 -23.059868
5.4905901 0.91509533 -23.127882
5.4940267 -1.9073486e-06 -23.099239
5.497468 -0.91624641 -23.070564
5.5022454 -1.8340845 -23.03075
5.5127077 -2.7563553 -22.943563
5.5276046 -3.6850691 -22.819427
5.5501337 -4.6251135 -22.63168
5.5741825 -5.574183 -22.431274
5.614687 -6.550467 -22.093742
5.655817 -7.54109 -21.750986
5.7005987 -8.5508986 -21.377808
5.7601166 -9.6001949 -20.881821
5.8208904 -10.671633 -20.375376
5.904511 -11.809024 -19.678535
6.0035887 -13.007777 -18.85289
6.1270499 -14.29645 -17.824045
6.2752333 -15.688083 -16.589188
6.5025721 -17.340193 -14.694695
6.9427218 -19.671045 -11.026783
7.6813183 17.557297 -14.016237
7.394228 15.844775 -16.066881
7.1989822 14.397963 -17.461496
7.0512786 13.095228 -18.516525
6.9330101 11.88516 -19.361294
6.8327694 10.737207 -20.077301
6.7551384 9.6501989 -20.631809
6.6867452 8.5972443 -21.120331
6.6319423 7.5793629 -21.51178
6.5822778 6.5822783 -21.866528
6.5447397 5.6097765 -22.134655
6.5098276 4.6498756 -22.384027
6.487164 3.7069483 -22.545912
6.4665504 2.7713776 -22.69315
6.4547663 1.8442173 -22.777323
6.44734 0.92104816 -22.830368
6.4490566 -9.5367432e-07 -22.818108
6.4516978 -0.92167187 -22.79924
6.4545074 -1.8441467 -22.779171
6.4704695 -2.7730598 -22.665155
6.4897618 -3.708437 -22.527357
6.5177574 -4.6555405 -22.327389
6.5500112 -5.6142941 -22.097006
6.5923128 -6.5923119 -21.794847
6.6388803 -7.5872917 -21.462221
6.7001495 -8.6144762 -21.024586
6.7731533 -9.6759338 -20.503132
6.8502846 -10.764733 -19.952196
6.9535966 -11.920453 -19.214245
7.0664511 -13.123409 -18.408146
7.228271 -14.456543 -17.252289
7.4296856 -15.920754 -15.813612
7.7387629 -17.688601 -13.605923
9.0516367 18.103273 -12.310069
8.6101341 16.144001 -15.069454
8.3491783 14.611058 -16.700434
8.159071 13.258488 -17.888607
8.009243 12.013865 -18.825029
7.889811 10.84849 -19.571478
7.7921462 9.7401829 -20.181883
7.7103553 8.6741505 -20.693077
7.6483059 7.6483035 -21.080887
7.5858164 6.6375866 -21.471447
7.5363436 5.652257 -21.780651
7.4981098 4.6863165 -22.019613
7.4688315 3.7344131 -22.202599
7.4441485 2.7915525 -22.356869
7.4279118 1.8569775 -22.458347
7.4176397 0.92720318 -22.522545
7.4187727 -9.5367432e-07 -22.515469
7.4213176 -0.92766476 -22.499561
7.4314928 -1.8578749 -22.435968
7.4478312 -2.7929373 -22.333851
7.4720397 -3.7360182 -22.182549
7.5018454 -4.6886539 -21.996262
7.5402503 -5.6551886 -21.756233
7.5907593 -6.6419158 -21.440554
7.6521473 -7.6521473 -21.056875
7.725718 -8.691433 -20.597061
7.8070321 -9.758791 -20.088846
7.9111209 -10.87779 -19.438293
8.0356398 -12.053463 -18.660046
8.1878986 -13.305337 -17.708429
8.3838701 -14.671773 -16.483608
8.6717319 -16.259499 -14.684475
9.1578856 -18.315773 -11.646015
9.9366617 16.561102 -13.679123
9.5630817 14.875902 -15.754566
9.3156099 13.455879 -17.129408
9.1248503 12.166467 -18.189182
8.9874992 10.984717 -18.952246
8.8634615 9.8482885 -19.641346
8.7613916 8.7613888 -20.208397
8.6832771 7.7184658 -20.642368
8.6122494 6.6984167 -21.036966
8.5557985 5.703866 -21.350584
8.5093222 4.7274008 -21.60878
8.4717894 3.7652388 -21.817297
8.4452114 2.8150692 -21.964958
8.4285488 1.8730116 -22.057524
8.4161568 0.93512821 -22.126369
8.4132967 -0 -22.14226
8.4161081 -0.93512344 -22.126644
8.4294815 -1.8732166 -22.052343
8.4491529 -2.8163853 -21.943062
8.479454 -3.7686462 -21.774717
8.5162029 -4.7312241 -21.570559
8.5647793 -5.7098541 -21.300682
8.6207085 -6.7049971 -20.989975
8.7006226 -7.7338867 -20.546005
8.7858953 -8.7858944 -20.072269
8.8791389 -9.8657112 -19.554249
9.0089121 -11.010894 -18.833282
9.156003 -12.208002 -18.016113
9.3599529 -13.519933 -16.88306
9.6208944 -14.965835 -15.433388
10.022206 -16.703674 -13.203873
11.571078 17.356617 -11.027406
10.904268 15.265974 -14.361457
10.555907 13.722681 -16.10326
10.314023 12.376825 -17.312683
10.1362 11.14982 -18.201797
9.9863272 9.9863243 -18.951162
9.8529339 8.8676405 -19.618128
9.7583761 7.8067026 -20.090916
9.6731405 6.7711978 -20.517094
9.6084213 5.765049 -20.840693
9.5493755 4.7746868 -21.135918
9.5097008 3.8038816 -21.33429
9.4753742 2.8426123 -21.505924
9.4542198 1.8908453 -21.611698
9.4373083 0.94373131 -21.696257
9.4374733 -1.9073486e-06 -21.695423
9.4385538 -0.94385815 -21.690029
9.4568033 -1.8913612 -21.598782
9.4769087 -2.8430729 -21.498251
9.5139189 -3.8055677 -21.313206
9.5535135 -4.7767563 -21.115227
9.6157694 -5.7694626 -20.803947
9.6840563 -6.7788405 -20.462515
9.7770529 -7.8216419 -19.99753
9.8754587 -8.8879128 -19.505505
10.008439 -10.008439 -18.840599
10.154109 -11.169521 -18.112249
10.352709 -12.423251 -17.119251
10.595805 -13.774546 -15.903773
10.978516 -15.369923 -13.99022
11.88038 -17.82057 -9.4808979
12.487619 15.893334 -12.120884
11.921783 14.089379 -14.69287
11.585279 12.638485 -16.222443
11.338448 11.338447 -17.344395
11.151155 10.137413 -18.19573
11.002918 9.0023861 -18.86953
10.880632 7.9131861 -19.425375
10.77945 6.8596506 -19.885292
10.699273 5.8359647 -20.249737
10.633519 4.8334179 -20.548615
10.583355 3.8484936 -20.776634
10.540123 2.8745766 -20.973148
10.51917 1.9125757 -21.068384
10.499795 0.95452499 -21.156456
10.499422 9.5367432e-07 -21.158152
10.501508 -0.95468521 -21.148668
10.522798 -1.9132347 -21.051899
10.547126 -2.8764925 -20.941317
10.590733 -3.8511763 -20.743101
10.639751 -4.8362541 -20.520288
10.711154 -5.8424492 -20.195734
10.78809 -6.8651485 -19.846025
10.894126 -7.9230022 -19.36404
11.023786 -9.0194626 -18.774681
11.187912 -10.170832 -18.028652
11.383256 -11.383255 -17.140726
11.631145 -12.688525 -16.013956
11.999819 -14.181605 -14.338168
12.622084 -16.064468 -11.509692
13.57235 14.703374 -12.331347
13.003437 13.003437 -14.701807
12.659615 11.604644 -16.134403
12.41678 10.347317 -17.146214
12.230157 9.1726151 -17.923813
12.07698 8.0513191 -18.562044
11.947298 6.9692574 -19.102388
11.853678 5.9268374 -19.492472
11.768431 4.9035139 -19.84767
11.704019 3.9013405 -20.116051
11.655273 2.9138165 -20.31916
11.628005 1.9379997 -20.432777
11.604246 0.96701908 -20.531773
11.60341 -1.9073486e-06 -20.535259
11.603932 -0.96699715 -20.533075
11.630667 -1.9384441 -20.421684
11.659531 -2.9148846 -20.301416
11.712999 -3.9043336 -20.078632
11.772449 -4.9051867 -19.830927
11.858556 -5.9292789 -19.472147
11.954991 -6.9737444 -19.070335
12.096197 -8.0641327 -18.481976
12.25445 -9.1908398 -17.822586
12.433529 -10.361277 -17.076422
12.710571 -11.65136 -15.92208
13.078166 -13.078166 -14.390439
13.712831 -14.855564 -11.746004
14.751957 13.617188 -12.144505
14.174925 11.994165 -14.363856
13.797397 10.613379 -15.815889
13.53984 9.3737335 -16.806488
13.342165 8.2105627 -17.566772
13.196969 7.106061 -18.125221
13.068888 6.0317922 -18.617846
12.975502 4.9905748 -18.977022
12.893447 3.9672117 -19.29262
12.829081 2.9605541 -19.540178
12.793343 1.9682035 -19.677635
12.764809 0.98190784 -19.787376
12.762122 -9.5367432e-07 -19.79771
12.762901 -0.98176003 -19.794714
12.794242 -1.9683456 -19.674175
12.828923 -2.9605236 -19.540783
12.892453 -3.9669094 -19.296436
12.966454 -4.9870977 -19.011826
13.075421 -6.0348115 -18.592709
13.209553 -7.1128368 -18.076822
13.374838 -8.2306709 -17.441113
13.575868 -9.3986788 -16.667921
13.846394 -10.651072 -15.627439
14.228386 -12.039403 -14.158233
14.863007 -13.719701 -11.717386
16.125183 12.669786 -11.29286
15.388453 10.99175 -13.92404
15.037411 9.6669054 -15.177757
14.754653 8.4312286 -16.187607
14.545168 7.272584 -16.93577
14.383393 6.1643124 -17.513533
14.252988 5.0903502 -17.979267
14.16712 4.0477476 -18.285938
14.091089 3.019516 -18.557484
14.049785 2.0071115 -18.704994
14.023372 1.0016689 -18.799324
14.009637 -9.5367432e-07 -18.848381
14.000625 -1.0000439 -18.880562
14.050004 -2.0071468 -18.70421
14.108695 -3.0232921 -18.494602
14.177998 -4.0508585 -18.247089
14.249652 -5.0891647 -17.991177
14.406343 -6.1741495 -17.431574
14.575234 -7.2876186 -16.828388
14.779045 -8.4451694 -16.100491
15.080545 -9.6946354 -15.023705
15.512109 -11.080077 -13.482408
16.333109 -12.833158 -10.550267
16.885796 10.131474 -12.596811
16.382437 8.7372971 -14.274677
16.068983 7.4988585 -15.319517
15.830173 6.3320699 -16.115547
15.680847 5.2269487 -16.613308
15.542162 4.1445751 -17.075586
15.457361 3.0914693 -17.358259
15.388476 2.051795 -17.587877
15.343185 1.0228796 -17.738846
15.356362 -0 -17.694918
15.372158 -1.0248098 -17.642271
15.404533 -2.0539384 -17.534351
15.456025 -3.0912075 -17.362715
15.570889 -4.1522379 -16.979837
15.708554 -5.2361865 -16.520947
15.848624 -6.3394504 -16.054049
16.108877 -7.5174761 -15.186537
16.413797 -8.7540255 -14.170145
16.962097 -10.17726 -12.342471
18.902681 9.4513378 -9.8119183
18.038395 7.8917956 -12.512811
17.590647 6.5964918 -13.912021
17.345041 5.4203253 -14.679543
17.150925 4.2877288 -15.286158
17.021097 3.191452 -15.691868
16.924536 2.1155663 -15.993624
16.878601 1.0549126 -16.137169
16.8501 -9.5367432e-07 -16.226233
16.853411 -1.0533366 -16.215893
16.943972 -2.1179967 -15.932888
17.035568 -3.1941686 -15.646643
17.14373 -4.2859359 -15.30864
17.370377 -5.4282422 -14.600371
17.636194 -6.6135731 -13.769686
18.094685 -7.9164257 -12.336908
19.60289 5.7655578 -11.22724
19.179434 4.5128088 -12.472695
18.961538 3.3461518 -13.113561
18.828354 2.2150998 -13.505291
18.702778 1.1001639 -13.874628
18.695492 4.7683716e-07 -13.896053
18.699198 -1.0999527 -13.885153
18.794395 -2.2111063 -13.605164
18.993599 -3.3518119 -13.019278
19.197134 -4.516974 -12.420639
19.787226 -5.8197718 -10.685077
