# .PCD v0.7 - Point Cloud Data file format
VERSION 0.7
FIELDS x y z
SIZE 4 4 4
TYPE F F F
COUNT 1 1 1
WIDTH 1060
HEIGHT 1
VIEWPOINT 0 0 0 1 0 0 0
POINTS 1060
DATA ascii
-22.969553 1.2089224 -8.4366035
-22.764576 -1.4305115e-06 -8.9760151
-21.58621 7.1954055 -8.9210987
-20.684555 5.7457108 -11.425698
-20.685221 4.596715 -11.423849
-20.685072 3.4475098 -11.424263
-20.685221 2.298357 -11.42385
-20.685293 1.1491814 -11.423645
-20.685293 -0 -11.423645
-20.685293 -1.1491847 -11.423643
-20.685072 -2.2983398 -11.424262
-20.685221 -3.4475353 -11.423853
-20.685514 -4.5967827 -11.423031
-20.752953 -5.7647085 -11.23571
-21.942793 -7.3142653 -7.9305911
-19.833347 9.3333397 -10.549421
-19.151169 7.8857765 -12.555824
-18.807512 6.6379442 -13.566586
-18.807899 5.5317354 -13.565445
-18.807835 4.4253736 -13.565637
-18.807835 3.3190317 -13.565634
-18.808157 2.2127223 -13.564682
-18.807835 1.1063423 -13.565634
-18.808224 -2.3841858e-06 -13.564495
-18.808224 -1.1063657 -13.564495
-18.807964 -2.2127004 -13.565254
-18.807835 -3.3190312 -13.565634
-18.808224 -4.4254646 -13.564494
-18.808224 -5.5318308 -13.564496
-18.808157 -6.6381731 -13.564684
-19.221888 -7.914896 -12.347836
-19.97156 -9.3983803 -10.142914
-18.968693 11.855433 -9.605628
-18.031763 10.142863 -12.533539
-17.597921 8.7989588 -13.88929
-17.244259 7.5443625 -14.994484
-17.064814 6.3993053 -15.555254
-17.065435 5.3329468 -15.553308
-17.065323 4.2663302 -15.553663
-17.065662 3.1998105 -15.552605
-17.065887 2.1332316 -15.551895
-17.065096 1.0665693 -15.554371
-17.066002 -4.7683716e-07 -15.551542
-17.066002 -1.0666237 -15.551544
-17.06572 -2.133215 -15.552424
-17.065435 -3.19977 -15.553311
-17.065435 -4.2663612 -15.55331
-17.06617 -5.3331776 -15.551014
-17.06572 -6.3996458 -15.552429
-17.298018 -7.5678825 -14.826488
-17.608755 -8.8043766 -13.855438
-18.091951 -10.176722 -12.345449
-19.285624 -12.053514 -8.6152258
-17.310188 12.694135 -11.182169
-16.605652 11.070436 -13.530622
-16.211773 9.7270641 -14.843552
-15.926847 8.4943199 -15.793303
-15.69849 7.325963 -16.554495
-15.53511 6.2140427 -17.099094
-15.44386 5.1479511 -17.403259
-15.444058 4.1184149 -17.402603
-15.444355 3.0888691 -17.401615
-15.444503 2.0592675 -17.401117
-15.443762 1.0295858 -17.403589
-15.444158 -1.9073486e-06 -17.402273
-15.444602 -1.0296421 -17.400789
-15.444306 -2.0592413 -17.401775
-15.443911 -3.0887804 -17.403095
-15.444306 -4.1184845 -17.401779
-15.444058 -5.1480198 -17.402603
-15.552478 -6.2209916 -17.041206
-15.732256 -7.3417192 -16.44194
-15.954272 -8.5089474 -15.701889
-16.252874 -9.7517252 -14.706555
-16.662798 -11.108532 -13.340134
-17.479673 -12.81843 -10.61722
-15.984906 13.701349 -11.793844
-15.356354 12.065705 -14.038675
-14.987492 10.705348 -15.356044
-14.709614 9.4561787 -16.348461
-14.506019 8.2891521 -17.075588
-14.335387 7.1676931 -17.684984
-14.209789 6.08991 -18.133543
-14.107855 5.038518 -18.497601
-14.015303 4.0043726 -18.828144
-13.952197 2.9897556 -19.05352
-13.931791 1.9902554 -19.1264
-13.931275 0.99509144 -19.128242
-13.931016 9.5367432e-07 -19.129168
-13.931748 -0.99512386 -19.126554
-13.931575 -1.9902258 -19.127167
-13.95946 -2.9913144 -19.027584
-14.027215 -4.0077767 -18.785603
-14.108606 -5.0387874 -18.494915
-14.232054 -6.0994539 -18.054035
-14.356583 -7.1782899 -17.609291
-14.521399 -8.297945 -17.020653
-14.746637 -9.4799824 -16.216236
-15.032294 -10.737355 -15.196031
-15.412457 -12.109788 -13.838308
-16.081787 -13.78439 -11.447847
-14.791176 14.791174 -11.993662
-14.239621 13.144265 -14.115021
-13.84259 11.712959 -15.642063
-13.580054 10.446195 -16.651821
-13.387549 9.2683029 -17.39222
-13.220031 8.1354027 -18.036528
-13.077261 7.0416012 -18.585636
-12.969146 5.9857564 -19.001465
-12.882727 4.9548969 -19.333847
-12.818311 3.9440966 -19.5816
-12.760448 2.9447165 -19.80415
-12.732837 1.9588966 -19.910347
-12.707621 0.97750759 -20.00733
-12.7138 -1.9073486e-06 -19.98357
-12.720294 -0.97848511 -19.958591
-12.730357 -1.958518 -19.919882
-12.772057 -2.947401 -19.759502
-12.820667 -3.9448223 -19.572536
-12.895632 -4.9598589 -19.284214
-12.98428 -5.9927487 -18.943256
-13.090518 -7.0487418 -18.534647
-13.229436 -8.1411886 -18.000351
-13.401272 -9.2778006 -17.339443
-13.613016 -10.471552 -16.525036
-13.882137 -11.746424 -15.489958
-14.295039 -13.19542 -13.901882
-14.887072 -14.887072 -11.624832
-13.778388 16.074787 -11.472845
-13.143551 14.238843 -14.118004
-12.785093 12.785089 -15.611574
-12.505963 11.463799 -16.774618
-12.307798 10.256498 -17.600302
-12.147408 9.1105556 -18.268593
-12.016031 8.0106869 -18.815998
-11.900653 6.9420466 -19.296745
-11.807181 5.9035902 -19.686207
-11.728971 4.8870683 -20.012081
-11.678323 3.8927727 -20.223116
-11.630982 2.9077425 -20.420372
-11.606094 1.9343491 -20.524071
-11.586387 0.96553135 -20.606188
-11.589098 -2.8610229e-06 -20.594887
-11.595222 -0.96626759 -20.56937
-11.606862 -1.9344769 -20.52087
-11.640166 -2.9100418 -20.382099
-11.679241 -3.8930807 -20.219288
-11.743952 -4.8933139 -19.949663
-11.814731 -5.9073639 -19.654753
-11.90689 -6.9456863 -19.270756
-12.018238 -8.0121593 -18.806808
-12.155437 -9.1165791 -18.235134
-12.326853 -10.27238 -17.520912
-12.537754 -11.492941 -16.642153
-12.827773 -12.827776 -15.433741
-13.196682 -14.296409 -13.896619
-13.868291 -16.179676 -11.098249
-12.914289 17.610394 -10.181486
-12.151312 15.465304 -13.649559
-11.741087 13.875831 -15.514221
-11.477217 12.5206 -16.713627
-11.272018 11.272018 -17.646347
-11.103518 10.094106 -18.412262
-10.972226 8.9772739 -19.009041
-10.866639 7.9030085 -19.488985
-10.767483 6.8520341 -19.93969
-10.69323 5.8326678 -20.277206
-10.633615 4.8334589 -20.548183
-10.582564 3.8482046 -20.78023
-10.54854 2.876873 -20.934889
-10.524049 1.9134607 -21.046213
-10.50874 0.95534134 -21.115791
-10.504126 9.5367432e-07 -21.136768
-10.510269 -0.95547867 -21.108845
-10.530215 -1.9145851 -21.018181
-10.561632 -2.8804445 -20.87538
-10.597486 -3.853631 -20.71241
-10.645254 -4.8387499 -20.495275
-10.697301 -5.8348942 -20.258698
-10.780993 -6.8606339 -19.878283
-10.873548 -7.9080377 -19.457581
-10.986494 -8.9889498 -18.944187
-11.124208 -10.112917 -18.318214
-11.297415 -11.297417 -17.53091
-11.510168 -12.556547 -16.563854
-11.788159 -13.931462 -15.300254
-12.215212 -15.546634 -13.359108
-13.029458 -17.767443 -9.6579876
-11.193884 16.790825 -12.913376
-10.781887 15.094642 -14.97336
-10.496825 13.645872 -16.398668
-10.270181 12.324216 -17.531891
-10.10393 11.114321 -18.36314
-9.9694366 9.9694347 -19.035614
-9.8566751 8.871006 -19.599422
-9.7610989 7.8088794 -20.077299
-9.6883411 6.7818375 -20.44109
-9.6211166 5.7726693 -20.777214
-9.5719833 4.7859898 -21.022881
-9.5299768 3.8119879 -21.232914
-9.4992313 2.8497705 -21.386639
-9.4761839 1.8952351 -21.501879
-9.4672632 0.94672394 -21.546478
-9.4592218 -2.8610229e-06 -21.586689
-9.4699373 -0.94699478 -21.533108
-9.488616 -1.8977232 -21.439713
-9.5089703 -2.8526897 -21.337944
-9.5416737 -3.8166714 -21.174427
-9.5833282 -4.7916641 -20.966156
-9.6279383 -5.7767644 -20.743103
-9.6976252 -6.7883401 -20.394669
-9.773015 -7.8184147 -20.017719
-9.8698549 -8.8828688 -19.53352
-9.9872885 -9.9872875 -18.946356
-10.123764 -11.136141 -18.263973
-10.292253 -12.350701 -17.421537
-10.530313 -13.689409 -16.23123
-10.827412 -15.158378 -14.74574
-11.285265 -16.927896 -12.456475
-10.337885 18.37846 -11.450102
-9.8328657 16.388107 -14.255769
-9.5265007 14.819 -15.95779
-9.3031626 13.437902 -17.198559
-9.1295958 12.172793 -18.162819
-8.9874716 10.984687 -18.9524
-8.8787575 9.8652859 -19.556362
-8.7864017 8.7863998 -20.069454
-8.7018251 7.7349558 -20.539322
-8.6413088 6.7210174 -20.875523
-8.5845547 5.7230368 -21.190826
-8.5439367 4.7466297 -21.416481
-8.5050249 3.7800102 -21.632658
-8.4824829 2.8274927 -21.757887
-8.4626312 1.8805857 -21.868176
-8.4500408 0.93889236 -21.938126
-8.4500647 -9.5367432e-07 -21.937992
-8.4500895 -0.93890095 -21.937855
-8.4652042 -1.8811588 -21.853886
-8.4850931 -2.8283644 -21.743393
-8.5091972 -3.781867 -21.60948
-8.5490818 -4.7494917 -21.387899
-8.5918121 -5.7278748 -21.150509
-8.6486635 -6.726737 -20.834669
-8.7123213 -7.7442856 -20.481014
-8.7965956 -8.7965965 -20.012825
-8.8924694 -9.8805237 -19.480186
-9.0018845 -11.002303 -18.872326
-9.1493797 -12.199172 -18.052912
-9.3311253 -13.478293 -17.043209
-9.5561085 -14.86506 -15.793303
-9.8846083 -16.474346 -13.968303
-10.424391 -18.532251 -10.969519
-8.9142103 17.828421 -13.168982
-8.5780907 16.083918 -15.269728
-8.342145 14.598754 -16.744389
-8.1648664 13.267907 -17.852381
-8.0310278 12.046541 -18.688873
-7.9171052 10.886019 -19.400888
-7.8204069 9.775507 -20.005255
-7.7441688 8.7121878 -20.481741
-7.6769953 7.6769943 -20.901577
-7.6237783 6.6708059 -21.23418
-7.5734987 5.6801214 -21.548429
-7.5419512 4.7137184 -21.745602
-7.5153785 3.7576895 -21.911682
-7.4938097 2.8101759 -22.046484
-7.4760537 1.8690119 -22.157459
-7.4661894 0.93327236 -22.219112
-7.4658217 -0 -22.221413
-7.4672499 -0.93340778 -22.212482
-7.4783554 -1.8695869 -22.143074
-7.4960794 -2.8110313 -22.032301
-7.518517 -3.7592583 -21.892065
-7.5456419 -4.7160273 -21.722534
-7.5795407 -5.6846547 -21.510664
-7.6303983 -6.6765995 -21.192806
-7.6856122 -7.6856136 -20.847721
-7.752914 -8.7220297 -20.427086
-7.8327317 -9.7909164 -19.928228
-7.929687 -10.903322 -19.322248
-8.0461617 -12.069243 -18.594284
-8.1849566 -13.300556 -17.726812
-8.3677387 -14.643543 -16.584425
-8.6160126 -16.155025 -15.032717
-8.974617 -17.949234 -12.791441
-8.1260214 19.734621 -10.839791
-7.6558404 17.499062 -14.19822
-7.4108901 15.880479 -15.947865
-7.2168088 14.433619 -17.33416
-7.0787077 13.146172 -18.320597
-6.9652925 11.9405 -19.130707
-6.8710313 10.797334 -19.803997
-6.7948489 9.7069273 -20.348162
-6.7300735 8.6529512 -20.810841
-6.6711812 7.6242051 -21.231501
-6.6280394 6.6280389 -21.539654
-6.5894208 5.6480713 -21.815508
-6.5589161 4.6849413 -22.03339
-6.5376549 3.7358007 -22.185259
-6.5171533 2.793067 -22.331697
-6.5045643 1.8584471 -22.421616
-6.497623 0.92823124 -22.471199
-6.4943266 -9.5367432e-07 -22.494749
-6.4985418 -0.92836475 -22.464642
-6.5054665 -1.8587074 -22.415176
-6.5192471 -2.7939634 -22.316746
-6.54037 -3.7373543 -22.165871
-6.5617247 -4.6869488 -22.013332
-6.5943584 -5.652308 -21.780235
-6.6330743 -6.6330748 -21.503693
-6.6786766 -7.6327753 -21.177963
-6.7377634 -8.662838 -20.755919
-6.8049064 -9.7212944 -20.276325
-6.8822412 -10.814951 -19.723932
-6.9782815 -11.962766 -19.03793
-7.0959883 -13.178265 -18.197165
-7.2392349 -14.47847 -17.173977
-7.4382224 -15.93905 -15.752634
-7.6999331 -17.599844 -13.883277
-8.2483635 -20.031742 -9.9659119
-6.78825 19.233374 -12.31405
-6.4685469 17.249456 -14.978237
-6.2812757 15.703186 -16.538836
-6.1297541 14.302757 -17.801516
-6.0194969 13.042243 -18.720324
-5.9306068 11.861213 -19.461073
-5.8525591 10.729692 -20.111471
-5.7873244 9.6455383 -20.65509
-5.7362123 8.6043167 -21.081028
-5.6933379 7.5911155 -21.438314
-5.6560988 6.5987821 -21.74864
-5.6212082 5.6212091 -22.039392
-5.5944991 4.6620827 -22.261971
-5.5745206 3.7163458 -22.428459
-5.5546999 2.7773495 -22.59363
-5.545814 1.8486013 -22.667681
-5.5394659 0.92324352 -22.720581
-5.5343852 -9.5367432e-07 -22.762917
-5.5402446 -0.92337513 -22.714088
-5.546658 -1.8488865 -22.660645
-5.5572414 -2.7786236 -22.572449
-5.5770802 -3.7180557 -22.407124
-5.5970612 -4.6642208 -22.24062
-5.6256795 -5.6256795 -22.002136
-5.6606417 -6.604084 -21.710781
-5.6984453 -7.59793 -21.395748
-5.742063 -8.6130962 -21.03227
-5.7951751 -9.6586285 -20.589668
-5.8614774 -10.746041 -20.037153
-5.9414096 -11.882819 -19.371048
-6.0333395 -13.072238 -18.604965
-6.1465926 -14.342051 -17.661188
-6.303503 -15.758756 -16.353607
-6.501193 -17.336515 -14.706186
-6.847856 -19.402256 -11.81733
-5.5603313 18.905125 -13.279487
-5.3438759 17.100401 -15.444036
-5.1862645 15.558794 -17.020151
-5.0753093 14.210864 -18.129704
-4.9857068 12.962835 -19.02573
-4.9128995 11.790958 -19.753803
-4.8518829 10.674142 -20.363966
-4.8018022 9.6036034 -20.864775
-4.7575779 8.5636368 -21.307016
-4.7247224 7.5595536 -21.635572
-4.6932344 6.5705271 -21.950451
-4.6662736 5.5995293 -22.22006
-4.6457553 4.6457539 -22.425241
-4.628983 3.703186 -22.592964
-4.6149373 2.7689619 -22.733421
-4.6067195 1.8426876 -22.815601
-4.6013584 0.92026901 -22.869215
-4.598702 -1.9073486e-06 -22.895779
-4.6020555 -0.92041302 -22.86224
-4.6074185 -1.8429689 -22.808609
-4.6162086 -2.7697258 -22.720715
-4.6311011 -3.7048845 -22.571781
-4.648386 -4.6483889 -22.398937
-4.6689405 -5.6027298 -22.19339
-4.6969743 -6.5757632 -21.913052
-4.7289295 -7.5662894 -21.593498
-4.7624078 -8.5723324 -21.25872
-4.8081579 -9.6163158 -20.801218
-4.8584604 -10.688614 -20.298191
-4.9214945 -11.811586 -19.667854
-4.9977384 -12.994121 -18.905415
-5.0876169 -14.245329 -18.006622
-5.2016044 -15.604815 -16.866753
-5.3667068 -17.173462 -15.215725
-5.5923514 -19.013996 -12.959283
-4.7591267 21.416069 -9.393713
-4.3997364 18.698875 -13.886094
-4.2428617 16.971447 -15.847021
-4.1298709 15.487016 -17.259409
-4.0367818 14.128735 -18.423025
-3.9707139 12.904819 -19.248871
-3.9151981 11.745593 -19.94282
-3.8655849 10.630357 -20.562986
-3.8263123 9.5657787 -21.05389
-3.7930758 8.5344181 -21.469349
-3.7642052 7.5284109 -21.830235
-3.7385697 6.5424976 -22.150677
-3.7207403 5.58111 -22.373543
-3.7044225 4.6305265 -22.577515
-3.6901085 3.6901073 -22.756439
-3.6816025 2.7612 -22.862766
-3.6737223 1.8368616 -22.961266
-3.6693559 0.91733551 -23.01585
-3.6692407 -9.5367432e-07 -23.017284
-3.6699104 -0.91747856 -23.008921
-3.6747396 -1.8373709 -22.948551
-3.6826239 -2.7619696 -22.849995
-3.6918018 -3.6918039 -22.735273
-3.7065239 -4.6331539 -22.551249
-3.7228494 -5.5842772 -22.347179
-3.7417536 -6.54807 -22.110876
-3.7678959 -7.5357919 -21.7841
-3.7968235 -8.5428524 -21.422503
-3.8309813 -9.5774527 -20.995533
-3.8708038 -10.644711 -20.497751
-3.9215672 -11.764704 -19.863205
-3.9791214 -12.932144 -19.143778
-4.0463362 -14.162179 -18.303593
-4.1426024 -15.53476 -17.100264
-4.2597518 -17.039007 -15.635899
-4.4305205 -18.829714 -13.501285
-3.4807723 20.884634 -10.869923
-3.2760866 18.564489 -14.28135
-3.1620531 16.864279 -16.181915
-3.0844202 15.4221 -17.475788
-3.0206902 14.096553 -18.537954
-2.9682939 12.862605 -19.411232
-2.9261022 11.704409 -20.114428
-2.8908463 10.59977 -20.702024
-2.8633852 9.5446167 -21.15971
-2.8396025 8.5188084 -21.556084
-2.8179297 7.5144777 -21.917301
-2.7982793 6.5293159 -22.244812
-2.7841897 5.5683794 -22.479631
-2.7708142 4.618021 -22.702564
-2.759939 3.6799192 -22.883812
-2.7534845 2.7534819 -22.991386
-2.7476153 1.8317423 -23.089207
-2.7446706 0.91488647 -23.138287
-2.7446706 1.9073486e-06 -23.138285
-2.7446706 -0.91489029 -23.138287
-2.7483661 -1.8322458 -23.076694
-2.7543173 -2.7543192 -22.977509
-2.7607756 -3.6810379 -22.869873
-2.7725408 -4.6209011 -22.673782
-2.7859333 -5.5718679 -22.450577
-2.8003244 -6.5340915 -22.21072
-2.8206878 -7.5218353 -21.871334
-2.8426459 -8.5279388 -21.505363
-2.866786 -9.5559559 -21.103027
-2.8953457 -10.616268 -20.627033
-2.9307032 -11.722813 -20.037746
-2.9749339 -12.891381 -19.300564
-3.0275865 -14.128736 -18.423027
-3.0934234 -15.467118 -17.325739
-3.1745608 -16.930988 -15.973454
-3.2965796 -18.680618 -13.939802
-3.5484731 -21.290838 -9.7415791
-2.3091347 20.782213 -11.154427
-2.1764438 18.499771 -14.471702
-2.099735 16.79788 -16.389421
-2.0500193 15.375145 -17.632311
-2.0098445 14.068911 -18.636679
-1.9758373 12.842941 -19.486862
-1.9484848 11.690908 -20.170677
-1.9239472 10.581707 -20.784115
-1.9056567 9.5282822 -21.241375
-1.8898612 8.5043774 -21.636265
-1.87515 7.500597 -22.004047
-1.8638341 6.5234165 -22.286945
-1.8539613 5.5618811 -22.533764
-1.8450649 4.6126614 -22.756178
-1.8387135 3.6774273 -22.914957
-1.8342125 2.7513199 -23.027481
-1.8299416 1.8299427 -23.134254
-1.8280292 0.91401482 -23.182068
-1.8280292 -2.8610229e-06 -23.18207
-1.8280292 -0.91401577 -23.182068
-1.8304932 -1.8304958 -23.120462
-1.8347721 -2.7521582 -23.013496
-1.8395017 -3.6790037 -22.895252
-1.846224 -4.6155586 -22.7272
-1.8551315 -5.5653954 -22.504509
-1.8652059 -6.5282211 -22.252647
-1.8769872 -7.5079503 -21.958113
-1.8918833 -8.5134754 -21.585716
-1.9077183 -9.5385933 -21.189835
-1.9269367 -10.59815 -20.709381
-1.9517404 -11.710443 -20.089285
-1.9800677 -12.87044 -19.3811
-2.0144176 -14.100925 -18.522356
-2.0559847 -15.419887 -17.483177
-2.1079872 -16.863895 -16.183119
-2.18612 -18.582018 -14.229794
-2.335901 -21.023109 -10.485272
-1.1490805 20.683447 -11.428774
-1.084445 18.435564 -14.660549
-1.0498538 16.797659 -16.390106
-1.0227489 15.341232 -17.74535
-1.0035685 14.049961 -18.704367
-0.98693711 12.830183 -19.535942
-0.97390336 11.686838 -20.18763
-0.96175808 10.579338 -20.794891
-0.95221663 9.5221643 -21.271967
-0.94346243 8.4911613 -21.709673
-0.93637466 7.4909959 -22.064064
-0.93107849 6.5175495 -22.328873
-0.92590058 5.5554037 -22.587769
-0.92199588 4.6099768 -22.783003
-0.91897607 3.6759052 -22.933989
-0.91638809 2.7491636 -23.063389
-0.91470301 1.8294058 -23.147648
-0.91371876 0.91371918 -23.196857
-0.91340756 9.5367432e-07 -23.212418
-0.91384584 -0.91384602 -23.190504
-0.91483039 -1.8296604 -23.141275
-0.9166674 -2.7500057 -23.049423
-0.91936994 -3.6774797 -22.914303
-0.92239755 -4.6119909 -22.762917
-0.92652959 -5.5591793 -22.556316
-0.93176591 -6.5223632 -22.2945
-0.93706441 -7.4965162 -22.029573
-0.94458395 -8.5012579 -21.653599
-0.95335621 -9.5335636 -21.214985
-0.96328086 -10.596089 -20.718752
-0.97553003 -11.70636 -20.1063
-0.98905116 -12.857664 -19.430239
-1.0057545 -14.080564 -18.595068
-1.0262026 -15.393041 -17.572666
-1.0535312 -16.856501 -16.206238
-1.0902458 -18.534182 -14.370502
-1.1624492 -20.924089 -10.760332
0 20.61727 -11.612604
0 18.438856 -14.650863
0 16.797443 -16.390791
0 15.360806 -17.680098
0 14.052718 -18.69451
0 12.822001 -19.5674
0 11.687936 -20.18306
0 10.582594 -20.780088
0 9.5288773 -21.238413
0 8.4983358 -21.669811
0 7.4966245 -22.028889
0 6.5186434 -22.321058
0 5.5527992 -22.60947
0 4.608551 -22.797262
0 3.6743717 -22.95314
0 2.7470045 -23.099369
0 1.8290663 -23.156096
0 0.91354942 -23.205292
0 -9.5367432e-07 -23.242733
0 -0.91367912 -23.198936
0 -1.8293238 -23.149727
0 -2.7479677 -23.083342
0 -3.6759691 -22.933201
0 -4.6107607 -22.775208
0 -5.5573554 -22.571516
0 -6.5239663 -22.283031
0 -7.5027204 -21.990795
0 -8.5080719 -21.615728
0 -9.5403175 -21.181211
0 -10.599358 -20.703901
0 -11.70668 -20.104965
0 -12.844917 -19.479277
0 -14.08893 -18.565189
0 -15.404632 -17.534023
0 -16.857716 -16.202444
0 -18.566948 -14.274122
0 -20.887419 -10.862188
1.1561143 20.810057 -11.077078
1.0898101 18.52677 -14.392289
1.0503986 16.806377 -16.362864
1.0261012 15.391518 -17.577734
1.0054969 14.076954 -18.607952
0.98832518 12.848227 -19.466534
0.97469682 11.696359 -20.147957
0.96250588 10.587564 -20.757502
0.95378566 9.5378551 -21.193514
0.94532472 8.5079222 -21.616562
0.93836772 7.5069404 -21.964409
0.9325543 6.5278788 -22.255077
0.92698592 5.5619164 -22.533497
0.92336351 4.6168175 -22.714619
0.92003483 3.6801405 -22.88105
0.91685283 2.750556 -23.040155
0.91506189 1.8301249 -23.1297
0.91402757 0.91402817 -23.181419
0.9136591 -1.9073486e-06 -23.199846
0.91416252 -0.91416264 -23.174667
0.91519457 -1.83039 -23.123066
0.91725528 -2.7517662 -23.020031
0.92047173 -3.6818867 -22.859213
0.92380083 -4.6190062 -22.692753
0.92771286 -5.5662785 -22.497156
0.9332872 -6.5330095 -22.218437
0.93913174 -7.5130558 -21.926208
0.94640619 -8.5176544 -21.562489
0.95488936 -9.548893 -21.138327
0.96387523 -10.602627 -20.689039
0.97650087 -11.718011 -20.057753
0.99035078 -12.874558 -19.365257
1.0083922 -14.117494 -18.463182
1.0280843 -15.421265 -17.47858
1.0559267 -16.894827 -16.086464
1.0952325 -18.618954 -14.121172
1.1737008 -21.126614 -10.197756
2.3417137 21.075422 -10.339952
2.1900549 18.615465 -14.131423
2.1129417 16.903534 -16.059252
2.0576015 15.432011 -17.442757
2.0159063 14.111345 -18.485132
1.9828372 12.888439 -19.311867
1.9549057 11.729432 -20.010155
1.9300395 10.615219 -20.631807
1.9108502 9.5542507 -21.111538
1.8927845 8.5175285 -21.563185
1.8795029 7.518012 -21.89522
1.8681997 6.5387001 -22.177805
1.8570262 5.5710793 -22.457142
1.8500446 4.6251097 -22.631683
1.8436062 3.687211 -22.792641
1.8373226 2.7559853 -22.94973
1.8329432 1.8329439 -23.059214
1.8309151 0.91545486 -23.109917
1.8309151 -1.9073486e-06 -23.109921
1.8309151 -0.91545868 -23.109919
1.8335072 -1.8335075 -23.045118
1.8380678 -2.757103 -22.931105
1.8444411 -3.6888838 -22.771772
1.8509119 -4.6272812 -22.609999
1.8584739 -5.5754237 -22.420948
1.8696541 -6.5437899 -22.141447
1.880975 -7.5239005 -21.858421
1.8949522 -8.5272865 -21.508993
1.9134632 -9.5673189 -21.046211
1.9329027 -10.630964 -20.56023
1.9591483 -11.75489 -19.904087
1.9870179 -12.915616 -19.20735
2.0216875 -14.151814 -18.340605
2.0625467 -15.469099 -17.319128
2.1221232 -16.976986 -15.829711
2.2011468 -18.709751 -13.854122
2.3917391 -21.52565 -9.0893211
3.6270578 21.762344 -8.4318323
3.3177409 18.800529 -13.587117
3.189189 17.009007 -15.729646
3.1041152 15.520575 -17.147543
3.0373299 14.174204 -18.260632
2.9838154 12.929866 -19.152538
2.9421077 11.768427 -19.847672
2.9065113 10.657206 -20.440943
2.8764031 9.5880089 -20.942747
2.8490546 8.5471611 -21.398552
2.8275855 7.540225 -21.756371
2.8088462 6.5539732 -22.068691
2.7904422 5.5808802 -22.375425
2.7804694 4.6341171 -22.541639
2.7708061 3.6944065 -22.702698
2.7614386 2.7614384 -22.858818
2.7570229 1.8380175 -22.932415
2.7537282 0.91790771 -22.987329
2.7522993 1.9073486e-06 -23.011139
2.7541599 -0.91805458 -22.980133
2.757448 -1.8382969 -22.925331
2.76245 -2.7624502 -22.841961
2.7720551 -3.6960764 -22.681877
2.781719 -4.6362009 -22.520811
2.7927668 -5.5855327 -22.336681
2.8114388 -6.5600247 -22.025478
2.8303623 -7.547636 -21.710089
2.852531 -8.5575943 -21.340611
2.8812444 -9.6041489 -20.862055
2.9107523 -10.67276 -20.370258
2.948415 -11.793661 -19.742546
2.9902289 -12.95766 -19.04565
3.0447631 -14.208895 -18.136747
3.1124308 -15.562155 -17.008953
3.2003207 -17.068378 -15.544117
3.337121 -18.910349 -13.264113
4.4784727 19.033508 -12.901888
4.2895026 17.158009 -15.264011
4.1627097 15.610161 -16.848925
4.0767059 14.268471 -17.923971
4.0000668 13.000218 -18.881962
3.9401841 11.820552 -19.630493
3.8907387 10.699531 -20.248562
3.8489645 9.6224098 -20.770742
3.8156514 8.5852165 -21.187153
3.7851796 7.5703578 -21.568054
3.7600052 6.5800066 -21.882732
3.7381029 5.6071548 -22.156511
3.7220743 4.6525898 -22.356869
3.7078373 3.7078342 -22.534832
3.6953411 2.7715044 -22.691032
3.6902883 1.8451433 -22.754194
3.6856606 0.92141438 -22.81204
3.6820447 -9.5367432e-07 -22.857237
3.6863465 -0.92158699 -22.803467
3.6909761 -1.8454905 -22.745598
3.6965725 -2.7724304 -22.675644
3.7100065 -3.7100067 -22.507717
3.7243249 -4.655406 -22.328733
3.7400904 -5.610136 -22.131668
3.764271 -6.5874758 -21.829407
3.7902055 -7.5804124 -21.505226
3.817915 -8.5903091 -21.158859
3.8566096 -9.6415253 -20.675177
3.8963091 -10.714849 -20.178932
3.9467559 -11.840267 -19.548347
4.0103974 -13.033792 -18.752827
4.0863729 -14.302303 -17.803139
4.1758351 -15.659384 -16.684858
4.3073149 -17.229259 -15.041364
4.4997001 -19.123726 -12.636549
5.7149982 19.430992 -11.732813
5.4282427 17.370377 -14.60037
5.2503481 15.751044 -16.379313
5.1316185 14.368527 -17.566612
5.0337281 13.087689 -18.545517
4.9596138 11.903073 -19.286657
4.8919597 10.762309 -19.963202
4.8358288 9.6716576 -20.524504
4.7908936 8.6236086 -20.97386
4.7504711 7.6007514 -21.378086
4.7215476 6.6101656 -21.66732
4.6947136 5.6336536 -21.935661
4.672452 4.6724539 -22.158274
4.6558237 3.724659 -22.32456
4.6416416 2.7849836 -22.466381
4.6331816 1.8532696 -22.55098
4.6279049 0.92558002 -22.603745
4.6251116 9.5367432e-07 -22.63168
4.6283708 -0.92567539 -22.599089
4.6347165 -1.8538866 -22.535633
4.6431146 -2.7858725 -22.451649
4.6577911 -3.7262335 -22.304882
4.6768117 -4.6768131 -22.114683
4.6971116 -5.6365352 -21.911682
4.7251248 -6.6151767 -21.63155
4.7586193 -7.6137938 -21.296604
4.7926059 -8.6266937 -20.956738
4.8438063 -9.6876144 -20.444736
4.9000335 -10.780075 -19.88246
4.9676061 -11.922256 -19.206734
5.0462146 -13.120158 -18.42065
5.1449413 -14.405836 -17.43338
5.270606 -15.811818 -16.176735
5.4463763 -17.428406 -14.419033
5.7683458 -19.612375 -11.199338
7.0989814 20.113781 -9.724617
6.6142077 17.637886 -13.764401
6.3797054 15.949265 -15.718581
6.2209506 14.515553 -17.041536
6.0861483 13.186652 -18.164898
5.9956288 11.991258 -18.91922
5.9110541 10.83693 -19.62401
5.8462157 9.7436914 -20.164335
5.7883825 8.6825743 -20.646273
5.7348661 7.6464863 -21.092243
5.6971679 6.6466951 -21.406399
5.6613555 5.661355 -21.704834
5.6316681 4.6930571 -21.952232
5.6143765 3.7429171 -22.096325
5.5971913 2.7985945 -22.23954
5.5844193 1.8614702 -22.34597
5.5808525 0.93013954 -22.375698
5.5774832 -1.9073486e-06 -22.40377
5.5787883 -0.92979813 -22.392891
5.588686 -1.8628969 -22.310411
5.5988789 -2.7994404 -22.225471
5.6142135 -3.7428074 -22.097687
5.6385913 -4.6988277 -21.894535
5.6644111 -5.6644096 -21.679371
5.6999426 -6.6499343 -21.383272
5.7450528 -7.6600709 -21.007355
5.7914381 -8.6871586 -20.620813
5.8532333 -9.7553902 -20.105856
5.9213681 -10.85584 -19.538061
6.0066328 -12.013266 -18.827526
6.099586 -13.215771 -18.052908
6.2385168 -14.556541 -16.895153
6.4068427 -16.017109 -15.492439
6.6463079 -17.72349 -13.496901
7.3777862 -20.903728 -7.4012432
7.8963623 18.048826 -12.480206
7.5508881 16.180473 -14.947883
7.3433471 14.686691 -16.430317
7.1859388 13.345312 -17.554661
7.0598521 12.102601 -18.455284
6.9476347 10.917711 -19.256832
6.8733587 9.8190813 -19.787376
6.8018856 8.7452774 -20.297899
6.74335 7.7066841 -20.716011
6.6955295 6.695528 -21.057583
6.6531534 5.7027025 -21.360268
6.6184597 4.7274685 -21.608089
6.5941658 3.7680931 -21.781614
6.571908 2.8165312 -21.940594
6.5559387 1.873126 -22.054661
6.5510774 0.93586826 -22.089386
6.546699 -9.5367432e-07 -22.120663
6.548069 -0.93544006 -22.110878
6.5608649 -1.8745337 -22.019476
6.5740757 -2.8174639 -21.925117
6.5943584 -3.7682047 -21.780237
6.6248236 -4.7320156 -21.56263
6.6568894 -5.7059078 -21.333588
6.7008066 -6.7008076 -21.019886
6.7508874 -7.7152996 -20.662174
6.8092871 -8.7548008 -20.245029
6.8825145 -9.8321648 -19.721979
6.9573116 -10.932919 -19.18771
7.0746841 -12.12803 -18.349337
7.2015595 -13.374323 -17.443087
7.3637013 -14.727404 -16.284925
7.5928288 -16.27035 -14.648302
7.9485183 -18.168045 -12.107668
9.3982096 18.796417 -10.143986
8.8140221 16.526289 -13.79516
8.5232544 14.915693 -15.612455
8.314826 13.511591 -16.915134
8.1614494 12.242172 -17.873735
8.0329571 11.045315 -18.676813
7.9314709 9.9143372 -19.311104
7.8361402 8.8156567 -19.906921
7.7678375 7.7678375 -20.333813
7.7120872 6.748076 -20.682255
7.6595235 5.7446432 -21.010777
7.6241169 4.7650728 -21.232067
7.5927062 3.7963533 -21.428381
7.566287 2.8373547 -21.593498
7.5521278 1.8880291 -21.682001
7.5424371 0.94280434 -21.742561
7.5373583 -9.5367432e-07 -21.774305
7.5431218 -0.94289017 -21.738285
7.5535455 -1.8883877 -21.673138
7.5688896 -2.8383331 -21.577234
7.5964479 -3.7982216 -21.404997
7.6279573 -4.7674727 -21.208063
7.6640377 -5.7480288 -20.982563
7.7190237 -6.7541461 -20.638897
7.7750154 -7.7750182 -20.288948
7.8480597 -8.8290653 -19.832424
7.9431429 -9.9289293 -19.238152
8.0476713 -11.06555 -18.584852
8.1770802 -12.26562 -17.776043
8.335041 -13.544442 -16.788786
8.5500031 -14.962505 -15.445279
8.854003 -16.601254 -13.54528
9.5422421 -19.08448 -9.2437859
10.228292 17.047153 -12.058952
9.7790842 15.21191 -14.554551
9.5141096 13.742601 -16.026632
9.3012505 12.401668 -17.209181
9.1475878 11.180384 -18.062862
9.0256443 10.028492 -18.740332
8.9151592 8.9151573 -19.354132
8.8327827 7.8513589 -19.811779
8.7609949 6.8141046 -20.210608
8.6920319 5.7946868 -20.593727
8.6499033 4.8054991 -20.827782
8.6100225 3.8266773 -21.049341
8.5759888 2.8586626 -21.238415
8.5643244 1.9031811 -21.303219
8.5526905 0.95029831 -21.367847
8.5428276 9.5367432e-07 -21.422642
8.5541563 -0.95046043 -21.359707
8.565793 -1.9035082 -21.295055
8.5789099 -2.8596373 -21.222183
8.6150932 -3.8289309 -21.021172
8.654994 -4.8083315 -20.799496
8.7006226 -5.8004174 -20.546003
8.7696686 -6.8208513 -20.162416
8.8410597 -7.8587217 -19.765795
8.9328394 -8.9328384 -19.255913
9.0368233 -10.040914 -18.678225
9.1661434 -11.203065 -17.959776
9.3252974 -12.43373 -17.07559
9.5408421 -13.781217 -15.87812
9.8220615 -15.278762 -14.315788
10.312525 -17.187542 -11.590991
11.186102 15.660542 -12.952284
10.780586 14.014764 -14.979862
10.523151 12.627779 -16.26704
10.323087 11.355395 -17.267361
10.161067 10.161065 -18.077465
10.024151 9.0217361 -18.762039
9.9321156 7.9456887 -19.222218
9.8439827 6.8907862 -19.662884
9.7723913 5.8634338 -20.020838
9.7185936 4.8592973 -20.289829
9.6726751 3.8690691 -20.519417
9.6350298 2.8905067 -20.707651
9.6151953 1.9230356 -20.806818
9.6005955 0.96005726 -20.879822
9.5922394 -0 -20.9216
9.6023998 -0.96023846 -20.870796
9.6169767 -1.9233971 -20.797909
9.6390696 -2.8917227 -20.687447
9.6779404 -3.8711743 -20.493093
9.7232332 -4.8616185 -20.266632
9.782937 -5.8697619 -19.968109
9.8545933 -6.8982143 -19.609833
9.9350586 -7.9480505 -19.2075
10.047247 -9.0425262 -18.646563
10.172243 -10.172241 -18.021582
10.34725 -11.381973 -17.146545
10.548261 -12.657914 -16.141489
10.819112 -14.064847 -14.787236
11.251255 -15.751757 -12.62652
13.005619 16.552608 -9.7663431
12.217952 14.439396 -13.346655
11.828018 12.903289 -15.11908
11.567297 11.567297 -16.304174
11.370094 10.336449 -17.200552
11.207144 9.1694832 -17.941233
11.081655 8.0593872 -18.511637
10.965395 6.9779792 -19.040092
10.878694 5.9338331 -19.434189
10.818057 4.9172969 -19.709812
10.759171 3.9124269 -19.977474
10.724296 2.9248075 -20.135994
10.69937 1.9453402 -20.249294
10.678039 0.97072887 -20.346258
10.676332 -1.9073486e-06 -20.354017
10.684612 -0.97132874 -20.316376
10.696364 -1.9447947 -20.26296
10.729236 -2.926158 -20.113543
10.771415 -3.9168787 -19.921822
10.815413 -4.9160981 -19.721828
10.891445 -5.9407892 -19.376226
10.982369 -6.9887805 -18.962933
11.089396 -8.0650129 -18.47645
11.230324 -9.1884489 -17.835869
11.390545 -10.355042 -17.107594
11.593094 -11.593097 -16.186916
11.874397 -12.953887 -14.908263
12.281617 -14.51464 -13.057262
13.169735 -16.761478 -9.0203676
14.001685 15.168493 -10.54244
13.291928 13.291926 -13.499759
12.930857 11.853284 -15.004227
12.657872 10.548225 -16.141663
12.44511 9.3338299 -17.028175
12.296238 8.1974936 -17.64847
12.160146 7.0934157 -18.215523
12.062759 6.0313797 -18.6213
11.980618 4.9919233 -18.963551
11.904578 3.9681911 -19.28039
11.861105 2.9652758 -19.461527
11.829678 1.9716129 -19.592474
11.798452 0.98320484 -19.72258
11.800687 -9.5367432e-07 -19.713266
11.811081 -0.9842577 -19.66996
11.821529 -1.9702549 -19.626427
11.867666 -2.9669209 -19.434189
11.92071 -3.9735708 -19.213173
11.98337 -4.9930701 -18.952091
12.07362 -6.0368128 -18.576044
12.176095 -7.1027241 -18.149067
12.314314 -8.2095432 -17.573158
12.46443 -9.3483238 -16.947674
12.692149 -10.576793 -15.99884
12.976216 -11.894866 -14.815228
13.344056 -13.344058 -13.282561
14.193007 -15.375758 -9.7452679
15.309253 14.131617 -10.001052
14.519474 12.285709 -13.03866
14.081178 10.831676 -14.72442
13.819135 9.5670919 -15.732277
13.606244 8.3730717 -16.551094
13.419927 7.2261119 -17.267691
13.295778 6.1365113 -17.745186
13.195637 5.0752449 -18.130344
13.113332 4.0348706 -18.446903
13.0655 3.0151148 -18.630873
13.020163 2.0031004 -18.805248
12.994443 0.99957085 -18.904171
12.994443 1.9073486e-06 -18.904169
12.998723 -0.99990273 -18.887714
13.023769 -2.0036602 -18.791374
13.071337 -3.0164652 -18.608425
13.122051 -4.0375557 -18.413372
13.208177 -5.0800662 -18.082115
13.310626 -6.1433654 -17.688076
13.440707 -7.2373047 -17.187767
13.63129 -8.3884869 -16.454754
13.852353 -9.5900898 -15.604517
14.115574 -10.858135 -14.592126
14.581008 -12.337779 -12.801999
15.477403 -14.286834 -9.3543224
15.815397 11.296709 -12.399234
15.377738 9.8856888 -13.962304
15.018364 8.5819216 -15.245781
14.830367 7.4151816 -15.917198
14.652163 6.2794962 -16.553644
14.522196 5.1864963 -17.017813
14.419483 4.1198502 -17.384645
14.349952 3.0749893 -17.632969
14.288969 2.0412803 -17.850761
14.257904 1.0184212 -17.961706
14.257904 -1.9073486e-06 -17.961704
14.257904 -1.018425 -17.961708
14.296768 -2.0423942 -17.822908
14.357862 -3.0766873 -17.604712
14.432092 -4.123455 -17.339609
14.538784 -5.1924233 -16.958569
14.673302 -6.2885575 -16.478148
14.853885 -7.4269409 -15.833209
15.06305 -8.6074581 -15.086184
15.421319 -9.9137068 -13.80666
15.870605 -11.336148 -12.202066
17.409323 10.44559 -10.851726
16.776237 8.9473276 -12.962004
16.432066 7.6682968 -14.109243
16.184488 6.4737954 -14.934502
15.981474 5.3271551 -15.611219
15.847428 4.2259784 -16.058039
15.730924 3.1461821 -16.446386
15.682426 2.090991 -16.608044
15.6472 1.0431461 -16.725462
15.623398 -9.5367432e-07 -16.8048
15.651665 -1.0434427 -16.710585
15.686961 -2.0915933 -16.592926
15.74493 -3.1489887 -16.399693
15.864406 -4.2305088 -16.001444
16.00049 -5.3334994 -15.547831
16.2115 -6.4846005 -14.844462
16.481659 -7.6914425 -13.94393
16.802631 -8.9614048 -12.874024
17.533319 -10.519992 -10.438399
18.573561 8.1259308 -10.840422
18.075186 6.778193 -12.397844
17.715986 5.5362473 -13.520338
17.509539 4.3773856 -14.165493
17.376648 3.2581215 -14.580769
17.2693 2.1586604 -14.916229
17.229662 1.0768514 -15.040102
17.204332 -9.5367432e-07 -15.119258
17.226894 -1.0766821 -15.04875
17.294765 -2.1618443 -14.836657
17.372721 -3.2573886 -14.593044
17.533386 -4.3833461 -14.090965
17.769114 -5.5528469 -13.354319
18.104483 -6.7891808 -12.306291
18.69759 -8.1801949 -10.452829
19.894434 4.6810436 -10.369754
19.470133 3.435905 -11.6177
19.284424 2.268755 -12.163902
19.177216 1.1280708 -12.479221
19.170967 -2.3841858e-06 -12.497602
19.170967 -1.1277032 -12.497601
19.306131 -2.2713118 -12.100054
19.506508 -3.4423263 -11.510715
19.940042 -4.6917753 -10.235616
