# .PCD v0.7 - Point Cloud Data file format
VERSION 0.7
FIELDS x y z
SIZE 4 4 4
TYPE F F F
COUNT 1 1 1
WIDTH 1062
HEIGHT 1
VIEWPOINT 0 0 0 1 0 0 0
POINTS 1062
DATA ascii
-23.11281 1.2164631 -8.0596132
-22.83079 -9.5367432e-07 -8.8017731
-23.200066 -1.2210557 -7.8299928
-21.788048 7.262681 -8.3604422
-20.747005 5.7630558 -11.252223
-20.367828 4.5261822 -12.305492
-20.118969 3.3531628 -12.996769
-19.98053 2.220058 -13.381325
-19.850033 1.1027775 -13.743814
-19.85677 -3.3378601e-06 -13.725103
-19.90843 -1.1060252 -13.581606
-19.9755 -2.219501 -13.395296
-20.145908 -3.3576517 -12.921941
-20.423552 -4.5385685 -12.150706
-20.801464 -5.7781858 -11.100948
-22.178017 -7.3926721 -7.2771969
-19.895229 9.362463 -10.367412
-19.201582 7.9065313 -12.407557
-18.792332 6.6325836 -13.611237
-18.543413 5.4539433 -14.343346
-18.322395 4.3111515 -14.993402
-18.210424 3.213603 -15.322728
-18.099813 2.1293883 -15.64805
-18.03561 1.0609179 -15.83688
-18.050426 -2.3841858e-06 -15.793303
-18.065268 -1.0626645 -15.749653
-18.123976 -2.1322312 -15.576984
-18.214365 -3.2142973 -15.311136
-18.35873 -4.3197021 -14.886532
-18.565752 -5.4605165 -14.277642
-18.861717 -6.6570783 -13.407157
-19.212774 -7.9111404 -12.374637
-20.099077 -9.4583902 -9.7678642
-18.928112 11.830069 -9.7324448
-18.042315 10.148802 -12.500564
-17.59137 8.7956829 -13.90977
-17.249517 7.5466619 -14.978058
-17.030893 6.3865843 -15.661259
-16.843102 5.2634697 -16.248108
-16.728191 4.1820483 -16.607193
-16.633467 3.1187739 -16.903214
-16.552992 2.0691242 -17.154697
-16.537256 1.0335798 -17.203873
-16.529028 -9.5367432e-07 -17.229584
-16.525421 -1.0328403 -17.240852
-16.572865 -2.0716085 -17.092594
-16.65391 -3.1226106 -16.839333
-16.740374 -4.1850944 -16.569124
-16.881643 -5.2755117 -16.127659
-17.07851 -6.4044399 -15.512449
-17.293139 -7.5657506 -14.84174
-17.656816 -8.8284082 -13.705241
-18.157854 -10.213793 -12.139504
-19.305363 -12.065855 -8.5535393
-17.272223 12.666295 -11.308721
-16.611938 11.074624 -13.509669
-16.210522 9.7263117 -14.847729
-15.92564 8.4936752 -15.797332
-15.711724 7.3321381 -16.510382
-15.544114 6.2176442 -17.06908
-15.41442 5.1381388 -17.501396
-15.330079 4.0880198 -17.782536
-15.250507 3.0501013 -18.047771
-15.200422 2.0267229 -18.214725
-15.172951 1.011529 -18.306295
-15.14553 -4.7683716e-06 -18.397694
-15.160799 -1.0107203 -18.346798
-15.206264 -2.0275021 -18.195253
-15.252049 -3.0504122 -18.042631
-15.321175 -4.0856457 -17.812214
-15.445046 -5.1483517 -17.399309
-15.570939 -6.2283773 -16.979668
-15.738257 -7.3445196 -16.42194
-15.987772 -8.5268097 -15.590223
-16.275778 -9.7654686 -14.630204
-16.704775 -11.136517 -13.200212
-17.485371 -12.822603 -10.598227
-15.944573 13.666777 -11.937889
-15.366881 12.073978 -14.001078
-14.993375 10.709553 -15.335025
-14.712111 9.4577866 -16.33954
-14.511998 8.292572 -17.05423
-14.331466 7.1657333 -17.698988
-14.213377 6.0914469 -18.120737
-14.121253 5.0433044 -18.449749
-14.033462 4.0095592 -18.763287
-13.954315 2.9902096 -19.045956
-13.9336 1.9905109 -19.119936
-13.912992 0.99378395 -19.193542
-13.895999 -0 -19.25423
-13.91441 -0.99388885 -19.18848
-13.932912 -1.9904194 -19.122398
-13.973097 -2.9942331 -18.978878
-14.049302 -4.0140891 -18.706717
-14.129534 -5.0462637 -18.420176
-14.23057 -6.0988202 -18.059334
-14.380042 -7.1900234 -17.525499
-14.545308 -8.3116055 -16.935266
-14.761082 -9.4892693 -16.164648
-15.050171 -10.750122 -15.132189
-15.433151 -12.126046 -13.764399
-16.096207 -13.796748 -11.396348
-14.781352 14.781347 -12.031446
-14.212001 13.11877 -14.221255
-13.843369 11.713618 -15.639069
-13.589449 10.453422 -16.615685
-13.369538 9.2558317 -17.461494
-13.21623 8.1330624 -18.051146
-13.079388 7.0427451 -18.577463
-12.976227 5.9890256 -18.974237
-12.902513 4.9625034 -19.25775
-12.829593 3.9475646 -19.538214
-12.784039 2.95016 -19.713419
-12.750299 1.9615822 -19.843185
-12.716853 0.97821808 -19.971825
-12.71067 -1.9073486e-06 -19.995602
-12.729855 -0.97922134 -19.921822
-12.749132 -1.9614067 -19.847668
-12.779587 -2.9491367 -19.730539
-12.839278 -3.9505482 -19.500959
-12.911711 -4.9660435 -19.222372
-12.990247 -5.9954987 -18.920307
-13.107785 -7.0580406 -18.468239
-13.24921 -8.1533585 -17.924295
-13.39964 -9.2766733 -17.345716
-13.632712 -10.486703 -16.449287
-13.902205 -11.763402 -15.412783
-14.293085 -13.193618 -13.909392
-14.925309 -14.92531 -11.47776
-13.742693 16.03314 -11.621573
-13.143282 14.238554 -14.119123
-12.772662 12.772662 -15.663368
-12.511677 11.469034 -16.750814
-12.30568 10.254732 -17.609125
-12.142368 9.1067762 -18.289595
-12.003222 8.0021477 -18.869373
-11.901349 6.942452 -19.29384
-11.82077 5.9103847 -19.629589
-11.741274 4.8921962 -19.960821
-11.676275 3.8920908 -20.231647
-11.64782 2.9119549 -20.350212
-11.619538 1.9365892 -20.468052
-11.595606 0.96630001 -20.567774
-11.596788 -9.5367432e-07 -20.56284
-11.597974 -0.96649933 -20.557907
-11.61297 -1.9354992 -20.495422
-11.652951 -2.9132395 -20.328831
-11.697035 -3.899013 -20.145155
-11.744809 -4.8936687 -19.946091
-11.827105 -5.9135509 -19.603193
-11.923543 -6.9554 -19.201366
-12.026172 -8.0174475 -18.773746
-12.171912 -9.1289368 -18.166496
-12.341783 -10.284818 -17.458702
-12.553975 -11.507812 -16.574564
-12.82918 -12.829182 -15.427882
-13.216011 -14.317349 -13.816084
-13.916818 -16.23629 -10.896054
-12.85016 17.522942 -10.472981
-12.134443 15.443838 -13.726233
-11.753717 13.890756 -15.45681
-11.471527 12.514391 -16.739492
-11.280279 11.280278 -17.608799
-11.100872 10.091701 -18.42429
-10.978623 8.9825096 -18.979961
-10.859038 7.8974805 -19.523529
-10.776497 6.85777 -19.89872
-10.707817 5.8406262 -20.210901
-10.640007 4.8363657 -20.519127
-10.597739 3.8537188 -20.711256
-10.560876 2.8802357 -20.878817
-10.524267 1.9135008 -21.045216
-10.513453 0.95576763 -21.094372
-10.51642 -0 -21.080887
-10.519358 -0.95630455 -21.067532
-10.529746 -1.9144983 -21.020317
-10.562766 -2.8807535 -20.87022
-10.603199 -3.8557081 -20.68644
-10.643942 -4.8381562 -20.50124
-10.708271 -5.8408756 -20.208836
-10.793615 -6.8686643 -19.82091
-10.880365 -7.9129944 -19.42659
-10.994854 -8.9957905 -18.906189
-11.138629 -10.126027 -18.252666
-11.289381 -11.289383 -17.567427
-11.528948 -12.577035 -16.478491
-11.809552 -13.956745 -15.203016
-12.213272 -15.544166 -13.36792
-13.081601 -17.838551 -9.4209719
-11.188357 16.782537 -12.941009
-10.766917 15.073684 -15.048209
-10.486018 13.631823 -16.452705
-10.287054 12.344463 -17.447527
-10.115777 11.127356 -18.303909
-9.9818983 9.9818993 -18.973305
-9.8699465 8.8829527 -19.533066
-9.7704334 7.8163447 -20.030626
-9.6967192 6.7877026 -20.399199
-9.6261244 5.7756724 -20.752174
-9.5763988 4.7881975 -21.000805
-9.5437117 3.817481 -21.164238
-9.5114441 2.8534327 -21.325581
-9.4843378 1.8968668 -21.461105
-9.4747887 0.94747639 -21.508854
-9.4693527 -9.5367432e-07 -21.536034
-9.4719725 -0.94719791 -21.522936
-9.4909678 -1.8981962 -21.427963
-9.5129337 -2.8538818 -21.318129
-9.5399199 -3.8159676 -21.183191
-9.5853262 -4.7926621 -20.956165
-9.6427088 -5.7856236 -20.669254
-9.7008114 -6.7905707 -20.378738
-9.7806482 -7.8245182 -19.979557
-9.8835564 -8.8952007 -19.465015
-9.9962225 -9.9962234 -18.901688
-10.134189 -11.147609 -18.211853
-10.311577 -12.373892 -17.324911
-10.514729 -13.669147 -16.309155
-10.830035 -15.162049 -14.732624
-11.26232 -16.893482 -12.5712
-10.318697 18.344349 -11.556702
-9.8258934 16.376484 -14.294503
-9.5232439 14.813937 -15.975884
-9.298563 13.431256 -17.224112
-9.1357012 12.180932 -18.128902
-8.9931364 10.99161 -18.920929
-8.8877754 9.8753071 -19.506262
-8.7866411 8.7866392 -20.068123
-8.7153358 7.7469645 -20.464264
-8.6514015 6.7288651 -20.819454
-8.589035 5.7260199 -21.165936
-8.5498381 4.7499094 -21.383694
-8.5124235 3.7832985 -21.591557
-8.4820366 2.8273449 -21.760374
-8.4688425 1.8819628 -21.833672
-8.4603825 0.94004154 -21.880674
-8.4525805 -9.5367432e-07 -21.924015
-8.4523087 -0.93914318 -21.925526
-8.4725828 -1.8827972 -21.812889
-8.4929543 -2.8309851 -21.699715
-8.5133991 -3.7837343 -21.586132
-8.5521107 -4.7511744 -21.371071
-8.6030407 -5.7353621 -21.088127
-8.6545553 -6.7313218 -20.801933
-8.7175388 -7.7489243 -20.452024
-8.8051252 -8.8051262 -19.965431
-8.8946266 -9.8829212 -19.468204
-9.0120239 -11.014693 -18.816
-9.1590137 -12.212019 -17.999388
-9.3291121 -13.475386 -17.054396
-9.5634604 -14.876495 -15.75246
-9.8613882 -16.435646 -14.097307
-10.468925 -18.611422 -10.722099
-8.9212837 17.842571 -13.12477
-8.5805502 16.08853 -15.254361
-8.3485823 14.610017 -16.704157
-8.1769505 13.287543 -17.776855
-8.0340099 12.051016 -18.670233
-7.9238791 10.895331 -19.358549
-7.8295865 9.7869835 -19.94788
-7.7470589 8.7154388 -20.463682
-7.6832728 7.6832714 -20.862343
-7.6279116 6.6744232 -21.208347
-7.5840063 5.6880054 -21.482756
-7.5502448 4.7189045 -21.693764
-7.5174413 3.7587185 -21.89879
-7.4901476 2.8088055 -22.069374
-7.4762926 1.869071 -22.15597
-7.4700456 0.93375397 -22.195015
-7.46383 -2.8610229e-06 -22.23386
-7.4699368 -0.93374443 -22.19569
-7.4777908 -1.8694487 -22.146603
-7.4956427 -2.8108683 -22.03503
-7.5191755 -3.7595882 -21.887951
-7.5517511 -4.7198448 -21.684353
-7.5870905 -5.6903167 -21.463482
-7.6321855 -6.6781631 -21.181637
-7.694294 -7.6942921 -20.793459
-7.7605324 -8.7305994 -20.379471
-7.838717 -9.7983971 -19.890814
-7.9369483 -10.913303 -19.276871
-8.0549974 -12.082497 -18.539059
-8.1845407 -13.299881 -17.729416
-8.3790684 -14.663371 -16.513618
-8.6152916 -16.153671 -15.037222
-8.9872732 -17.974548 -12.712337
-8.1073627 19.68931 -10.97306
-7.649004 17.483437 -14.247052
-7.4071622 15.872488 -15.974495
-7.2229638 14.445926 -17.290199
-7.0840502 13.156094 -18.282436
-6.9708748 11.950068 -19.090836
-6.8797607 10.811051 -19.741648
-6.7967348 9.7096195 -20.334688
-6.7375617 8.6625786 -20.757359
-6.6802015 7.6345143 -21.167068
-6.6258368 6.6258349 -21.555393
-6.5929685 5.6511154 -21.790161
-6.5638275 4.688448 -21.99831
-6.5352845 3.7344456 -22.202194
-6.5197754 2.7941904 -22.312969
-6.5063496 1.8589563 -22.408871
-6.4934282 0.92763329 -22.501167
-6.4929605 -0 -22.504509
-6.4996853 -0.92852783 -22.45647
-6.5064244 -1.8589792 -22.408337
-6.5131969 -2.7913704 -22.359962
-6.5389075 -3.7365179 -22.176311
-6.5674829 -4.6910591 -21.972204
-6.5962892 -5.6539621 -21.766445
-6.6332307 -6.6332316 -21.502577
-6.6854954 -7.640564 -21.129261
-6.7398801 -8.6655598 -20.740799
-6.8051114 -9.7215881 -20.274855
-6.8917575 -10.829906 -19.655956
-6.9853787 -11.974936 -18.987236
-7.1027446 -13.190811 -18.148909
-7.2494149 -14.498828 -17.101263
-7.4246659 -15.909999 -15.849467
-7.7065444 -17.614956 -13.83605
-8.2746611 -20.095604 -9.7780724
-6.7740331 19.19309 -12.432526
-6.475771 17.268721 -14.918038
-6.2791514 15.697877 -16.556534
-6.140182 14.327091 -17.714615
-6.0210171 13.045534 -18.707655
-5.934216 11.868432 -19.430996
-5.8552032 10.73454 -20.089436
-5.7902923 9.650486 -20.630363
-5.7416363 8.6124516 -21.035828
-5.6937747 7.5917001 -21.434677
-5.656281 6.5989947 -21.747122
-5.6252861 5.6252871 -22.005415
-5.5952444 4.6627054 -22.255756
-5.5718822 3.7145872 -22.450445
-5.5611792 2.7805901 -22.539639
-5.5505004 1.8501663 -22.628624
-5.5398631 0.92330933 -22.717272
-5.5385923 -0 -22.727861
-5.5448265 -0.92413998 -22.675907
-5.5511546 -1.8503866 -22.623173
-5.5613074 -2.7806559 -22.538572
-5.5776443 -3.7184315 -22.402428
-5.6012826 -4.6677351 -22.205442
-5.6257448 -5.6257453 -22.001589
-5.6601939 -6.6035604 -21.714512
-5.7005315 -7.6007085 -21.378366
-5.7455826 -8.6183739 -21.002941
-5.8000841 -9.6668072 -20.548765
-5.8681393 -10.758257 -19.981634
-5.9388332 -11.877669 -19.392521
-6.0396991 -13.086016 -18.551971
-6.1545668 -14.360656 -17.594746
-6.3053551 -15.763389 -16.338171
-6.504456 -17.345215 -14.678997
-6.8574862 -19.429546 -11.737076
-5.5524263 18.878248 -13.358532
-5.3413749 17.092396 -15.469049
-5.1924062 15.577219 -16.958731
-5.0792341 14.221853 -18.090454
-4.9915838 12.978117 -18.966959
-4.9183207 11.803968 -19.699591
-4.8544884 10.679871 -20.337914
-4.8060613 9.6121216 -20.822186
-4.7585912 8.5654612 -21.296886
-4.7212152 7.5539455 -21.670643
-4.6945353 6.5723515 -21.937443
-4.6685209 5.6022253 -22.197586
-4.6436911 4.6436901 -22.445887
-4.6287169 3.7029724 -22.595627
-4.6151624 2.7690964 -22.731171
-4.6063371 1.8425341 -22.819422
-4.6015162 0.92030144 -22.867636
-4.6009369 -0 -22.873425
-4.6003451 -0.92006874 -22.879345
-4.6053486 -1.8421392 -22.829313
-4.6179438 -2.7707682 -22.703358
-4.6314616 -3.7051687 -22.568182
-4.6450582 -4.6450596 -22.432217
-4.6680875 -5.6017041 -22.201923
-4.6974545 -6.576436 -21.908255
-4.7271791 -7.5634851 -21.611004
-4.7637749 -8.5747967 -21.245045
-4.8124719 -9.6249447 -20.75808
-4.8648643 -10.702703 -20.23415
-4.925396 -11.82095 -19.628838
-5.0030837 -13.008019 -18.851955
-5.0905461 -14.253532 -17.977335
-5.2097554 -15.629265 -16.785246
-5.3624501 -17.159842 -15.258294
-5.5999999 -19.039999 -12.882798
-4.724803 21.261612 -9.8227577
-4.4018273 18.707764 -13.85996
-4.2379594 16.951838 -15.908306
-4.1297512 15.486564 -17.260904
-4.0376682 14.131836 -18.411945
-3.9735084 12.913904 -19.213938
-3.9141626 11.742487 -19.955763
-3.8696983 10.64167 -20.511566
-3.8314486 9.5786219 -20.989687
-3.7939925 8.5364838 -21.45789
-3.7653282 7.5306525 -21.816196
-3.7406991 6.5462217 -22.124062
-3.7196004 5.579401 -22.387789
-3.704071 4.6300907 -22.581909
-3.6923735 3.6923742 -22.728127
-3.6807392 2.7605543 -22.873556
-3.6700985 1.8350496 -23.006565
-3.6697114 0.91742706 -23.011406
-3.6696067 -9.5367432e-07 -23.012711
-3.6695127 -0.91737938 -23.013887
-3.6720352 -1.8360186 -22.982355
-3.6827927 -2.7620945 -22.847893
-3.6938462 -3.6938477 -22.709719
-3.7049663 -4.6312094 -22.570717
-3.7225263 -5.5837903 -22.351217
-3.7454226 -6.5544915 -22.065016
-3.7686021 -7.5372052 -21.775272
-3.7969019 -8.5430307 -21.421524
-3.8334227 -9.5835552 -20.965019
-3.8727951 -10.650185 -20.472858
-3.9240057 -11.772019 -19.832722
-3.9829874 -12.944709 -19.095455
-4.0516725 -14.180858 -18.236891
-4.1431227 -15.53671 -17.093763
-4.2505112 -17.002045 -15.751407
-4.4320464 -18.836197 -13.482214
-3.4825051 20.895027 -10.841047
-3.2777553 18.573944 -14.253546
-3.1637836 16.873512 -16.15307
-3.0827954 15.413976 -17.502872
-3.0212197 14.099024 -18.529133
-2.9711711 12.875076 -19.363276
-2.9267142 11.706854 -20.104229
-2.8928387 10.607073 -20.668821
-2.864192 9.5473061 -21.146261
-2.8388178 8.5164528 -21.569168
-2.8187194 7.516582 -21.904139
-2.8002107 6.5338249 -22.212616
-2.7826011 5.5652027 -22.506111
-2.7715855 4.6193066 -22.689705
-2.7631221 3.6841621 -22.830761
-2.7547021 2.7546997 -22.971092
-2.7491646 1.8327761 -23.063391
-2.7462478 0.91541576 -23.112
-2.7461696 9.5367432e-07 -23.113304
-2.7460992 -0.91536713 -23.114475
-2.7505271 -1.8336868 -23.040676
-2.7551661 -2.7551689 -22.963362
-2.7633593 -3.6844788 -22.826807
-2.7734804 -4.622467 -22.658119
-2.7868178 -5.573638 -22.435835
-2.8019254 -6.5378265 -22.184036
-2.8192134 -7.5179038 -21.895908
-2.8425035 -8.5275135 -21.507736
-2.8687112 -9.5623722 -21.070944
-2.8965096 -10.620536 -20.607634
-2.9337842 -11.735138 -19.986391
-2.9754291 -12.893524 -19.292315
-3.0267985 -14.125061 -18.43615
-3.0925119 -15.462561 -17.340929
-3.1769531 -16.943747 -15.933581
-3.2899518 -18.643063 -14.050266
-3.5318446 -21.191071 -10.018713
-2.2952843 20.657558 -11.50069
-2.1739519 18.478588 -14.534
-2.1027875 16.8223 -16.313108
-2.0466361 15.349772 -17.716888
-2.0094807 14.066361 -18.645781
-1.9748433 12.836478 -19.511719
-1.9472293 11.683374 -20.202065
-1.9241314 10.582721 -20.779512
-1.9038475 9.5192337 -21.286613
-1.8892123 8.5014534 -21.652489
-1.875855 7.503418 -21.986423
-1.8632729 6.521452 -22.300976
-1.8537583 5.5612726 -22.538837
-1.845615 4.6140366 -22.74242
-1.8384877 3.6769724 -22.920605
-1.8333818 2.7500734 -23.048248
-1.8310244 1.8310242 -23.107185
-1.828673 0.91433334 -23.16597
-1.8267736 9.5367432e-07 -23.213455
-1.8282784 -0.91413879 -23.175837
-1.831358 -1.831357 -23.09885
-1.8344426 -2.7516651 -23.021732
-1.8375797 -3.6751595 -22.943304
-1.8459592 -4.6148968 -22.733818
-1.8548267 -5.5644813 -22.512127
-1.8637747 -6.5232115 -22.288429
-1.8764291 -7.5057163 -21.972069
-1.8919611 -8.5138245 -21.583771
-1.9082613 -9.5413065 -21.176262
-1.9285417 -10.606981 -20.669254
-1.9523679 -11.714211 -20.073597
-1.9799825 -12.869887 -19.383232
-2.0138881 -14.097218 -18.535595
-2.0550854 -15.413142 -17.505663
-2.1107314 -16.885853 -16.114511
-2.1854074 -18.575968 -14.247606
-2.3367574 -21.030819 -10.463861
-1.1453998 20.617197 -11.612808
-1.0848361 18.442211 -14.640992
-1.049224 16.787584 -16.421595
-1.0237672 15.356507 -17.694431
-1.0037439 14.052412 -18.695604
-0.98597556 12.81768 -19.584019
-0.9729259 11.67511 -20.236502
-0.96153384 10.576874 -20.806099
-0.95230395 9.5230408 -21.267597
-0.94427079 8.498436 -21.669258
-0.93672359 7.4937859 -22.046619
-0.93032753 6.5122919 -22.366417
-0.9262256 5.5573521 -22.571514
-0.92222053 4.6110992 -22.771774
-0.91824722 3.6729879 -22.970438
-0.91600472 2.7480116 -23.08256
-0.91490316 1.8298063 -23.137634
-0.91380435 0.91380405 -23.192577
-0.91279352 -1.9073486e-06 -23.24312
-0.91349828 -0.91349888 -23.207884
-0.91511393 -1.8302269 -23.127098
-0.91673529 -2.750206 -23.046032
-0.91902333 -3.676095 -22.931629
-0.92259586 -4.6129818 -22.753
-0.92695397 -5.5617228 -22.535101
-0.93135333 -6.5194736 -22.315128
-0.93778801 -7.5023055 -21.993393
-0.94512206 -8.5060997 -21.62669
-0.95257449 -9.5257454 -21.25407
-0.96318287 -10.595013 -20.723654
-0.97506893 -11.70083 -20.129351
-0.98860455 -12.85186 -19.45257
-1.0062326 -14.087255 -18.571167
-1.0262419 -15.393628 -17.570702
-1.0537934 -16.860695 -16.19313
-1.091429 -18.554295 -14.311344
-1.1598811 -20.877857 -10.888743
0 20.616899 -11.613626
0 18.456959 -14.597622
0 16.77129 -16.472515
0 15.364033 -17.669344
0 14.044616 -18.723452
0 12.82389 -19.560143
0 11.677368 -20.227087
0 10.575197 -20.813711
0 9.5280018 -21.242786
0 8.5007315 -21.656513
0 7.4958167 -22.033937
0 6.5178499 -22.326717
0 5.5582151 -22.56432
0 4.6118002 -22.764771
0 3.6754951 -22.939106
0 2.7496672 -23.055038
0 1.8296604 -23.141277
0 0.91372871 -23.196213
0 -9.5367432e-07 -23.202698
0 -0.91404819 -23.180384
0 -1.8295918 -23.143099
0 -2.7492428 -23.062088
0 -3.6782379 -22.904846
0 -4.6139069 -22.743742
0 -5.5605392 -22.544975
0 -6.5240636 -22.282356
0 -7.5061755 -21.969194
0 -8.5088482 -21.611423
0 -9.5356531 -21.204536
0 -10.602598 -20.68918
0 -11.702671 -20.121668
0 -12.855493 -19.438595
0 -14.080343 -18.595856
0 -15.400061 -17.549257
0 -16.871468 -16.159464
0 -18.560463 -14.293201
0 -20.849529 -10.967436
1.1532516 20.75853 -11.220214
1.0886747 18.507467 -14.449063
1.0524046 16.838472 -16.262566
1.0260587 15.390879 -17.579865
1.0044519 14.062325 -18.660204
0.98799151 12.843889 -19.483221
0.97446072 11.693526 -20.159761
0.9630186 10.593205 -20.731867
0.95341837 9.5341816 -21.211878
0.94485843 8.5037231 -21.639874
0.93799859 7.5039864 -21.982868
0.93250024 6.527503 -22.257782
0.92706603 5.562397 -22.529493
0.92250329 4.6125154 -22.757629
0.91996384 3.6798544 -22.884604
0.91763973 2.7529202 -23.000809
0.91532737 1.8306561 -23.116428
0.9139626 0.91396236 -23.184664
0.9144119 -0 -23.162201
0.914859 -0.91486073 -23.139849
0.91538203 -1.8307638 -23.113697
0.91705662 -2.7511702 -23.029963
0.92020845 -3.6808319 -22.872374
0.92337936 -4.6168966 -22.713823
0.92657495 -5.5594487 -22.554047
0.93273544 -6.5291486 -22.246025
0.93900847 -7.5120692 -21.932377
0.94573033 -8.5115738 -21.596281
0.95496589 -9.5496597 -21.134504
0.96484905 -10.61334 -20.640347
0.97622246 -11.71467 -20.071674
0.99093622 -12.882172 -19.335987
1.0076882 -14.107635 -18.49839
1.0289488 -15.434233 -17.435356
1.0551407 -16.882254 -16.125755
1.0954897 -18.623327 -14.10831
1.1687139 -21.03685 -10.447104
2.3348501 21.013651 -10.511542
2.1878293 18.596548 -14.187068
2.1136355 16.909081 -16.041908
2.0566483 15.424862 -17.466589
2.017499 14.122489 -18.445326
1.9817383 12.881298 -19.33934
1.9537011 11.722206 -20.040268
1.9317831 10.624805 -20.588221
1.9117584 9.5587902 -21.088837
1.8928568 8.5178528 -21.561378
1.879492 7.5179644 -21.895496
1.8684925 6.5397215 -22.170483
1.8576264 5.5728788 -22.442133
1.8484772 4.621191 -22.670868
1.8430362 3.6860723 -22.806896
1.8384773 2.7577152 -22.920866
1.833946 1.8339443 -23.034149
1.8319103 0.91595459 -23.085035
1.831879 9.5367432e-07 -23.085819
1.8329277 -0.9164629 -23.059605
1.8342857 -1.8342838 -23.02565
1.8384509 -2.757678 -22.921524
1.8440657 -3.6881304 -22.781153
1.8504382 -4.6260977 -22.621841
1.8587905 -5.5763726 -22.413033
1.8697355 -6.5440764 -22.139408
1.8815907 -7.5263648 -21.843023
1.8949075 -8.5270844 -21.510107
1.9134065 -9.56703 -21.047634
1.9325718 -10.629147 -20.568501
1.9571528 -11.742918 -19.953978
1.9867237 -12.913701 -19.214708
2.020653 -14.144571 -18.366472
2.0664535 -15.498401 -17.221457
2.1201243 -16.960995 -15.87969
2.1984253 -18.686615 -13.922162
2.3774364 -21.396927 -9.4468918
3.6174226 21.704536 -8.5924177
3.3118799 18.767317 -13.684803
3.188494 17.005299 -15.741231
3.1012235 15.506117 -17.195736
3.0393953 14.183845 -18.226208
2.9850514 12.935223 -19.131937
2.9408979 11.763591 -19.867832
2.9063363 10.656565 -20.443859
2.875067 9.5835552 -20.965014
2.8500807 8.5502415 -21.381451
2.8282731 7.5420594 -21.744915
2.8092711 6.5549641 -22.061611
2.7932355 5.5864706 -22.328869
2.7822001 4.6369991 -22.512798
2.7712436 3.694993 -22.695404
2.7633197 2.7633181 -22.827467
2.7583303 1.8388853 -22.910622
2.7562671 0.91875267 -22.945009
2.754215 -3.8146973e-06 -22.979214
2.7542229 -0.91807461 -22.979082
2.7589924 -1.8393307 -22.89959
2.7652748 -2.7652731 -22.794888
2.7716014 -3.6954679 -22.689436
2.7818313 -4.636385 -22.51894
2.796731 -5.5934625 -22.270615
2.8121269 -6.5616269 -22.014015
2.8299973 -7.5466599 -21.716175
2.853585 -8.5607557 -21.323048
2.8803504 -9.6011658 -20.876957
2.9090333 -10.666456 -20.398907
2.9478567 -11.791429 -19.751848
2.9910161 -12.961069 -19.032524
3.0435343 -14.203162 -18.157223
3.1126213 -15.563108 -17.005772
3.2040699 -17.088373 -15.481633
3.3339522 -18.892399 -13.316927
4.4699507 18.997288 -13.008413
4.2824821 17.129925 -15.35177
4.1686411 15.632402 -16.774784
4.0726304 14.254203 -17.974918
4.0002408 13.00078 -18.879787
3.9425135 11.827538 -19.601379
3.8925271 10.704449 -20.226206
3.8457108 9.6142759 -20.811413
3.8152106 8.5842209 -21.192667
3.7857695 7.5715361 -21.56068
3.7567792 6.5743599 -21.923058
3.7372348 5.6058502 -22.167366
3.7225156 4.6531439 -22.351353
3.707912 3.7079134 -22.533897
3.6934221 2.7700653 -22.715017
3.6896856 1.844841 -22.76173
3.6871805 0.92179585 -22.793037
3.6846688 -1.9073486e-06 -22.824436
3.6839414 -0.92098618 -22.83353
3.6908808 -1.845438 -22.746784
3.6990895 -2.7743177 -22.644173
3.7073352 -3.7073345 -22.541105
3.7217622 -4.6522055 -22.360767
3.7404273 -5.610641 -22.127459
3.7606311 -6.5811071 -21.874905
3.786972 -7.5739455 -21.545643
3.8198748 -8.594717 -21.134361
3.8542197 -9.6355495 -20.705051
3.8984685 -10.720787 -20.151943
3.9493592 -11.848079 -19.515806
4.0088363 -13.028719 -18.772339
4.0872035 -14.305212 -17.792757
4.1737361 -15.651511 -16.711094
4.3046355 -17.218542 -15.074853
4.5078301 -19.158278 -12.534917
5.6910467 19.349556 -11.972333
5.4231753 17.35416 -14.651046
5.2535877 15.760763 -16.346918
5.130506 14.365414 -17.577736
5.0337439 13.087733 -18.545359
4.9574442 11.897865 -19.308353
4.8911867 10.760609 -19.970934
4.8389993 9.6779985 -20.492802
4.7917638 8.6251726 -20.965158
4.754612 7.607378 -21.336678
4.720758 6.6090584 -21.675217
4.6940422 5.6328516 -21.942371
4.6731715 4.673171 -22.151083
4.6547594 3.7238054 -22.335201
4.641695 2.7850161 -22.465845
4.6318612 1.8527422 -22.564182
4.6271596 0.92543221 -22.6112
4.6239948 -1.9073486e-06 -22.642847
4.6280513 -0.92561054 -22.602283
4.6330752 -1.8532324 -22.552048
4.6434231 -2.7860556 -22.448566
4.6565509 -3.7252388 -22.317284
4.6757379 -4.6757374 -22.12542
4.6990457 -5.6388559 -21.892342
4.7226839 -6.6117597 -21.655956
4.7585206 -7.613636 -21.29759
4.7983079 -8.6369534 -20.899717
4.8394942 -9.6789875 -20.487852
4.8994813 -10.778858 -19.887983
4.9624896 -11.909975 -19.257902
5.0469742 -13.122133 -18.413054
5.1471634 -14.41206 -17.411163
5.2761364 -15.82841 -16.121431
5.4458604 -17.426756 -14.424189
5.7433925 -19.527536 -11.44887
7.0736265 20.041941 -9.9359083
6.6120105 17.632027 -13.782709
6.3820252 15.955059 -15.699255
6.2138042 14.498873 -17.101099
6.0949078 13.205631 -18.091898
5.9941216 11.988243 -18.931786
5.9061184 10.827883 -19.665142
5.8455429 9.7425709 -20.169937
5.786891 8.680336 -20.658707
5.7326698 7.6435599 -21.110546
5.6988153 6.6486163 -21.39267
5.6663728 5.6663713 -21.663025
5.6342969 4.6952477 -21.930321
5.6123371 3.7415562 -22.113323
5.6003728 2.8001842 -22.213022
5.5884433 1.8628139 -22.312433
5.5765648 0.92942905 -22.411419
5.5758562 -2.8610229e-06 -22.417328
5.5817075 -0.93028641 -22.368568
5.587554 -1.8625202 -22.319845
5.5957799 -2.7978935 -22.251299
5.6181173 -3.7454119 -22.065155
5.6413918 -4.7011576 -21.871197
5.6675367 -5.6675367 -21.653324
5.7037983 -6.6544337 -21.351145
5.7457023 -7.6609378 -21.001942
5.7935758 -8.6903667 -20.603001
5.8533216 -9.755538 -20.105116
5.9240751 -10.860804 -19.515505
6.0040369 -12.008072 -18.849155
6.108057 -13.234123 -17.982325
6.2300429 -14.536768 -16.965773
6.4037409 -16.009352 -15.518293
6.6513672 -17.73698 -13.454737
7.2265058 -20.475103 -8.6619129
7.8925719 18.040165 -12.50728
7.5437827 16.165247 -14.998634
7.3422937 14.684585 -16.437841
7.1812658 13.336636 -17.588041
7.053287 12.091347 -18.502174
6.9583011 10.93447 -19.180653
6.8722262 9.8174648 -19.795464
6.8019471 8.7453623 -20.297457
6.7413921 7.7044454 -20.729996
6.6931219 6.693121 -21.07478
6.6546278 5.7039652 -21.349743
6.6165738 4.7261238 -21.621555
6.5905771 3.7660408 -21.807247
6.5739026 2.8173857 -21.926346
6.560101 1.8743153 -22.024931
6.5486212 0.93551636 -22.106934
6.5467367 -9.5367432e-07 -22.120392
6.553021 -0.93614769 -22.075502
6.5593748 -1.8741045 -22.030119
6.5730014 -2.8170042 -21.932789
6.5965786 -3.7694721 -21.764378
6.6212802 -4.7294865 -21.587938
6.6499925 -5.699995 -21.382856
6.6977391 -6.6977401 -21.041803
6.7472682 -7.711164 -20.688026
6.8057485 -8.7502489 -20.270302
6.8833132 -9.8333063 -19.71627
6.9643884 -10.944039 -19.137165
7.0760617 -12.130392 -18.339497
7.2021585 -13.375439 -17.43881
7.3697 -14.739404 -16.242079
7.5808711 -16.244724 -14.733717
7.9564066 -18.186068 -12.051325
9.3690367 18.738073 -10.326319
8.8156214 16.529289 -13.785162
8.5215902 14.912782 -15.622855
8.3153906 13.512509 -16.911608
8.1530504 12.229572 -17.926233
8.0359411 11.049419 -18.658165
7.927002 9.9087524 -19.339035
7.8369513 8.8165684 -19.90185
7.7743115 7.7743096 -20.29335
7.7126875 6.7486029 -20.678497
7.6580877 5.743566 -21.019745
7.6226268 4.764142 -21.241375
7.5937819 3.7968893 -21.421663
7.565176 2.8369398 -21.600449
7.5452218 1.8863049 -21.725159
7.5410895 0.94263649 -21.750988
7.5389032 -0 -21.764652
7.5393229 -0.94241524 -21.762028
7.5502005 -1.8875494 -21.694042
7.5722289 -2.8395863 -21.556368
7.5967617 -3.7983799 -21.403036
7.6254268 -4.7658939 -21.223881
7.6697226 -5.7522922 -20.947031
7.7217321 -6.7565179 -20.621967
7.7766361 -7.7766385 -20.278818
7.8533983 -8.8350754 -19.799057
7.9418201 -9.9272747 -19.246424
8.0430956 -11.059258 -18.613447
8.1758347 -12.263751 -17.783834
8.3396044 -13.551859 -16.760265
8.5532694 -14.968222 -15.424862
8.8598223 -16.612167 -13.508907
9.5041637 -19.008326 -9.4817753
10.221074 17.035122 -12.099055
9.7795134 15.212575 -14.552167
9.4935284 13.712875 -16.140972
9.3118963 12.415862 -17.15004
9.1444111 11.1765 -18.080513
9.0188427 10.020933 -18.778118
8.9171362 8.9171333 -19.343151
8.8325672 7.8511705 -19.812977
8.7610207 6.814126 -20.210461
8.6956339 5.7970877 -20.573723
8.6509361 4.8060741 -20.822041
8.6179638 3.8302069 -21.005219
8.5852671 2.8617544 -21.186869
8.5620451 1.9026785 -21.315874
8.5555458 0.95061684 -21.351986
8.5518074 -9.5367432e-07 -21.372755
8.5480976 -0.94979 -21.393368
8.5647297 -1.9032736 -21.300968
8.5876083 -2.8625355 -21.173859
8.612915 -3.8279648 -21.033268
8.6560287 -4.8089042 -20.793745
8.7092295 -5.8061533 -20.498186
8.7654753 -6.8175936 -20.185713
8.8420315 -7.8595839 -19.760401
8.9316273 -8.9316292 -19.262646
9.0314131 -10.034908 -18.708279
9.172472 -11.2108 -17.924618
9.3217258 -12.428971 -17.095428
9.5392704 -13.778948 -15.886847
9.8216944 -15.278194 -14.317822
10.310542 -17.184238 -11.602005
11.172666 15.641728 -13.019471
10.791576 14.029047 -14.924918
10.518715 12.622457 -16.289223
10.31981 11.351791 -17.283745
10.153564 10.153563 -18.114973
10.038283 9.0344543 -18.691376
9.9277039 7.9421601 -19.24428
9.8339052 6.8837333 -19.713268
9.7751532 5.8650894 -20.007036
9.7175369 4.858768 -20.295111
9.664978 3.8659897 -20.557909
9.6332121 2.8899632 -20.716734
9.6153393 1.923068 -20.806101
9.5975609 0.9597559 -20.894993
9.5932121 9.5367432e-07 -20.916737
9.601799 -0.96017933 -20.873804
9.6182127 -1.9236403 -20.791733
9.6418705 -2.8925619 -20.673441
9.6717749 -3.8687086 -20.523924
9.723321 -4.8616619 -20.266191
9.7802916 -5.8681765 -19.981337
9.8447952 -6.8913565 -19.658819
9.9417496 -7.953402 -19.174047
10.041917 -9.0377264 -18.67321
10.17636 -10.176361 -18.000996
10.343791 -11.378171 -17.163839
10.559128 -12.670954 -16.087154
10.819803 -14.065745 -14.783781
11.223748 -15.713246 -12.764053
12.968552 16.505428 -9.9348335
12.225546 14.448371 -13.312133
11.837471 12.913603 -15.076114
11.555516 11.555513 -16.357723
11.373236 10.339304 -17.186274
11.203526 9.1665211 -17.957678
11.07583 8.05515 -18.538113
10.971207 6.9816761 -19.013676
10.887761 5.9387765 -19.392975
10.822157 4.9191623 -19.69117
10.758027 3.9120083 -19.982674
10.721373 2.9240103 -20.149284
10.698627 1.9452057 -20.252672
10.675977 0.97054291 -20.355625
10.664849 -9.5367432e-07 -20.406212
10.680519 -0.97095966 -20.334984
10.697884 -1.9450684 -20.256054
10.721275 -2.9239855 -20.149729
10.774201 -3.9178901 -19.909153
10.827652 -4.9216609 -19.666195
10.891848 -5.9410095 -19.374397
10.989325 -6.993207 -18.93132
11.0944 -8.0686541 -18.453703
11.226264 -9.1851263 -17.854324
11.390471 -10.354977 -17.107927
11.580844 -11.580842 -16.242598
11.856977 -12.934887 -14.987446
12.282129 -14.515244 -13.054937
13.258616 -16.874603 -8.6163521
14.042568 15.212783 -10.372095
13.297788 13.297787 -13.47535
12.940518 11.862141 -14.963968
12.660486 10.550405 -16.130772
12.454461 9.3408451 -16.98921
12.279075 8.1860485 -17.719986
12.167195 7.097528 -18.18615
12.058804 6.0294008 -18.637779
11.960619 4.9835901 -19.046885
11.909644 3.9698792 -19.259281
11.863765 2.9659414 -19.450443
11.825728 1.970952 -19.608929
11.805665 0.9838047 -19.692524
11.80682 9.5367432e-07 -19.687714
11.814983 -0.98458195 -19.653698
11.826526 -1.9710875 -19.60561
11.864385 -2.9660974 -19.447863
11.918759 -3.972918 -19.221298
11.973598 -4.9889989 -18.992802
12.064832 -6.0324178 -18.612661
12.173868 -7.1014218 -18.158342
12.292872 -8.1952496 -17.662493
12.480986 -9.3607388 -16.878687
12.680106 -10.566755 -16.049017
12.947243 -11.868307 -14.93595
13.380026 -13.380023 -13.132694
14.165154 -15.345586 -9.8613167
15.31312 14.135187 -9.9861813
14.513783 12.280891 -13.060556
14.099637 10.845878 -14.653419
13.795302 9.5505943 -15.823938
13.609961 8.3753605 -16.536789
13.430999 7.2320776 -17.225105
13.299075 6.138032 -17.732508
13.200842 5.0772467 -18.110327
13.120611 4.0371108 -18.418909
13.063338 3.0146141 -18.639194
13.007855 2.0012102 -18.852581
12.991376 0.99933529 -18.915966
12.985892 -0 -18.937057
12.988513 -0.99911785 -18.926979
13.023566 -2.0036268 -18.792154
13.071869 -3.0165863 -18.60638
13.127198 -4.0391417 -18.393574
13.214685 -5.082572 -18.057085
13.321647 -6.1484532 -17.645693
13.44425 -7.2392144 -17.174143
13.630491 -8.3879967 -16.457829
13.830189 -9.5747471 -15.689758
14.145737 -10.881338 -14.476115
14.567808 -12.326605 -12.852768
15.500282 -14.307955 -9.2663221
16.814901 13.211709 -8.8295736
15.828621 11.306157 -12.352005
15.372544 9.8823452 -13.980858
15.052382 8.6013584 -15.124289
14.825537 7.412766 -15.934452
14.650972 6.2789845 -16.557899
14.523975 5.1871333 -17.011459
14.414363 4.1183882 -17.402931
14.325088 3.0696616 -17.721771
14.296722 2.0423889 -17.823071
14.270278 1.0193024 -17.917515
14.256416 -0 -17.967022
14.267929 -1.0191402 -17.925907
14.305892 -2.0436983 -17.790323
14.351643 -3.0753551 -17.626926
14.4241 -4.1211715 -17.368156
14.540426 -5.1930089 -16.952703
14.6596 -6.2826848 -16.527084
14.84801 -7.4240065 -15.854187
15.074441 -8.6139698 -15.045507
15.416885 -9.9108562 -13.822492
15.887226 -11.34802 -12.142704
17.3922 10.435318 -10.908799
16.749928 8.9332952 -13.049707
16.435255 7.6697826 -14.098616
16.181938 6.4727731 -14.943001
15.981632 5.3272119 -15.610689
15.835367 4.2227616 -16.098242
15.762204 3.152442 -16.342117
15.696856 2.0929127 -16.55994
15.642788 1.0428519 -16.74017
15.622892 -0 -16.806488
15.644258 -1.0429502 -16.735268
15.679573 -2.090611 -16.61755
15.755927 -3.1511846 -16.363037
15.869203 -4.2317886 -15.985451
15.98809 -5.3293624 -15.589167
16.208508 -6.4834032 -14.854439
16.460304 -7.6814733 -14.015114
16.870749 -8.9977341 -12.646968
17.514744 -10.508845 -10.500314
18.596367 8.13591 -10.769148
18.060476 6.7726769 -12.443808
17.699545 5.5311074 -13.57172
17.53446 4.383616 -14.087608
17.38545 3.2597718 -14.553267
17.254257 2.1567779 -14.963245
17.199276 1.0749536 -15.13506
17.202608 -1.9073486e-06 -15.124649
17.211462 -1.075717 -15.096973
17.287159 -2.1608949 -14.860426
17.39414 -3.2614031 -14.526106
17.525867 -4.3814673 -14.114463
17.772732 -5.553978 -13.34301
18.096085 -6.7860308 -12.332538
18.702412 -8.1823053 -10.437763
19.814314 4.6621881 -10.605405
19.49629 3.4405231 -11.540768
19.31547 2.2724066 -12.072594
19.177553 1.1280899 -12.47823
19.105026 -1.4305115e-06 -12.691545
19.196259 -1.1291943 -12.423212
19.2883 -2.2692132 -12.152506
19.513466 -3.443552 -11.490249
19.932995 -4.6901193 -10.256342
