# .PCD v0.7 - Point Cloud Data file format
VERSION 0.7
FIELDS x y z
SIZE 4 4 4
TYPE F F F
COUNT 1 1 1
WIDTH 1058
HEIGHT 1
VIEWPOINT 0 0 0 1 0 0 0
POINTS 1058
DATA ascii
-22.784935 -0 -8.9224434
-21.723989 7.2413292 -8.5383854
-20.717325 5.7548108 -11.334667
-20.397017 4.53267 -12.224415
-20.146048 3.3576756 -12.921555
-19.906034 2.2117805 -13.588255
-19.87537 1.104187 -13.67344
-19.846703 9.5367432e-07 -13.753069
-19.859016 -1.1032805 -13.718863
-19.994461 -2.2216105 -13.342628
-20.134356 -3.3557262 -12.954033
-20.413404 -4.5363116 -12.178894
-20.791685 -5.7754683 -11.128117
-19.961357 9.3935785 -10.172916
-19.192621 7.9028425 -12.433908
-18.797043 6.6342516 -13.597374
-18.539267 5.452723 -14.355545
-18.341436 4.3156323 -14.937397
-18.211212 3.2137399 -15.320408
-18.087425 2.1279311 -15.684485
-18.042391 1.061316 -15.816938
-18.039715 -2.8610229e-06 -15.824812
-18.03698 -1.060998 -15.832859
-18.111198 -2.1307321 -15.614569
-18.221766 -3.2156086 -15.289368
-18.345188 -4.3165174 -14.926362
-18.572245 -5.4624286 -14.258551
-18.823366 -6.6435404 -13.519958
-19.260527 -7.9308062 -12.234187
-20.060753 -9.4403553 -9.880579
-19.144583 11.965362 -9.0559769
-18.081341 10.170751 -12.378609
-17.615561 8.8077793 -13.834166
-17.263975 7.5529866 -14.932875
-17.032076 6.3870282 -15.657561
-16.869476 5.271708 -16.165682
-16.724878 4.1812191 -16.617554
-16.648094 3.1215167 -16.857504
-16.578039 2.0722523 -17.076422
-16.513285 1.0320816 -17.27878
-16.520861 1.9073486e-06 -17.255104
-16.536724 -1.0335455 -17.20553
-16.561138 -2.0701437 -17.129238
-16.641584 -3.120297 -16.877848
-16.73896 -4.1847391 -16.573547
-16.858816 -5.2683825 -16.198994
-17.05385 -6.3951945 -15.589518
-17.28124 -7.5605407 -14.878919
-17.636559 -8.8182831 -13.768555
-18.112505 -10.188284 -12.281216
-19.319704 -12.074816 -8.5087252
-17.308638 12.692999 -11.187341
-16.644241 11.096161 -13.40199
-16.23287 9.7397203 -14.773228
-15.951741 8.507596 -15.710323
-15.72918 7.3402848 -16.452194
-15.562655 6.2250595 -17.007278
-15.427475 5.1424909 -17.457882
-15.307668 4.0820456 -17.857235
-15.247232 3.0494452 -18.058689
-15.205066 2.027339 -18.199245
-15.167706 1.011179 -18.323774
-15.159466 1.9073486e-06 -18.35124
-15.173046 -1.0115356 -18.305975
-15.201714 -2.026896 -18.210417
-15.259089 -3.0518184 -18.019169
-15.338602 -4.0902934 -17.754122
-15.424073 -5.1413593 -17.469219
-15.562154 -6.2248631 -17.008949
-15.731846 -7.3415289 -16.443308
-15.958597 -8.5112505 -15.687472
-16.255226 -9.7531357 -14.698707
-16.663776 -11.109186 -13.336875
-17.408003 -12.765871 -10.856118
-16.003359 13.717164 -11.727944
-15.37863 12.08321 -13.959118
-15.001913 10.71565 -15.304537
-14.73275 9.4710541 -16.265835
-14.528095 8.3017673 -16.99674
-14.345978 7.1729856 -17.647163
-14.218984 6.0938492 -18.100712
-14.126965 5.045342 -18.429354
-14.041072 4.0117345 -18.736111
-13.967292 2.9929905 -18.999607
-13.932912 1.9904127 -19.1224
-13.901701 0.99297619 -19.233864
-13.881399 -0 -19.30637
-13.906422 -0.9933157 -19.217007
-13.931532 -1.9902191 -19.127323
-13.95734 -2.99086 -19.035151
-14.043391 -4.0123987 -18.727829
-14.131173 -5.0468483 -18.41432
-14.22693 -6.0972567 -18.07233
-14.346342 -7.1731739 -17.645861
-14.535267 -8.3058681 -16.971127
-14.73805 -9.4744625 -16.246902
-15.031743 -10.736959 -15.198002
-15.419998 -12.115712 -13.81137
-16.099831 -13.799858 -11.383403
-14.845445 14.845446 -11.784931
-14.242675 13.147083 -14.103275
-13.858456 11.726382 -15.581046
-13.598769 10.460592 -16.579836
-13.374411 9.2592049 -17.442757
-13.233704 8.1438179 -17.983936
-13.100273 7.0539927 -18.497128
-12.973731 5.9878764 -18.983831
-12.893249 4.958941 -19.293381
-12.828883 3.94735 -19.540936
-12.773149 2.9476509 -19.755299
-12.747618 1.9611692 -19.853497
-12.730899 0.97929955 -19.917797
-12.719365 1.9073486e-06 -19.962158
-12.725555 -0.97888851 -19.938351
-12.749949 -1.9615326 -19.844532
-12.78607 -2.9506321 -19.705605
-12.837859 -3.9501109 -19.506416
-12.910754 -4.9656754 -19.226049
-12.984521 -5.9928575 -18.942326
-13.09605 -7.0517206 -18.513371
-13.234584 -8.1443586 -17.980551
-13.395565 -9.2738533 -17.361391
-13.616295 -10.474076 -16.512428
-13.886331 -11.74997 -15.473834
-14.269441 -13.171792 -14.000329
-14.91084 -14.91084 -11.533415
-13.814911 16.117395 -11.320668
-13.174668 14.272553 -13.988351
-12.78192 12.781917 -15.624798
-12.525108 11.481349 -16.694847
-12.318556 10.265463 -17.555481
-12.149282 9.1119614 -18.26079
-12.012405 8.0082693 -18.831102
-11.905092 6.944634 -19.27825
-11.814044 5.9070206 -19.657616
-11.746881 4.8945327 -19.937458
-11.694307 3.8981009 -20.156515
-11.648102 2.9120235 -20.349041
-11.610456 1.9350739 -20.505898
-11.598704 0.9665556 -20.554859
-11.588785 -0 -20.596189
-11.585552 -0.96546268 -20.609663
-11.616114 -1.936018 -20.482323
-11.647223 -2.9118061 -20.352699
-11.678535 -3.8928447 -20.222233
-11.750598 -4.8960829 -19.92197
-11.830149 -5.9150743 -19.590511
-11.911848 -6.9485788 -19.250097
-12.015395 -8.0102682 -18.818645
-12.161333 -9.1210003 -18.210571
-12.326262 -10.271885 -17.523373
-12.542233 -11.497047 -16.623489
-12.806376 -12.806378 -15.522891
-13.197809 -14.297628 -13.891919
-13.882399 -16.196133 -11.039465
-12.865383 17.543703 -10.403777
-12.166304 15.484386 -13.581414
-11.758909 13.896893 -15.433209
-11.500856 12.54639 -16.606174
-11.267319 11.26732 -17.667711
-11.119038 10.108213 -18.341721
-10.975731 8.9801426 -18.993114
-10.869108 7.9048047 -19.477762
-10.785032 6.8632011 -19.859921
-10.706943 5.8401499 -20.214874
-10.634637 4.8339233 -20.543537
-10.59127 3.8513708 -20.740654
-10.555994 2.8789072 -20.901001
-10.526364 1.9138813 -21.035686
-10.519451 0.95631313 -21.067108
-10.517982 -1.9073486e-06 -21.073788
-10.520264 -0.95638943 -21.063416
-10.534665 -1.9153957 -20.997955
-10.562609 -2.8807116 -20.870937
-10.59996 -3.8545332 -20.701159
-10.64804 -4.8400173 -20.482613
-10.71592 -5.8450456 -20.174065
-10.784705 -6.8629961 -19.861412
-10.873414 -7.907939 -19.458183
-10.993181 -8.994421 -18.913792
-11.117222 -10.106565 -18.349976
-11.303294 -11.303294 -17.504187
-11.500708 -12.546227 -16.606853
-11.792086 -13.936101 -15.282407
-12.196105 -15.522316 -13.445954
-11.203469 16.805204 -12.865446
-10.776327 15.086859 -15.001159
-10.498161 13.647609 -16.391989
-10.282453 12.33894 -17.470531
-10.112567 11.123823 -18.319962
-9.9788342 9.9788332 -18.988626
-9.8694925 8.8825397 -19.535336
-9.7668753 7.813498 -20.04842
-9.6932154 6.7852511 -20.416721
-9.6301861 5.778111 -20.731869
-9.5756292 4.7878141 -21.004648
-9.5404577 3.816184 -21.180508
-9.5125399 2.8537588 -21.320097
-9.488616 1.8977232 -21.439711
-9.4714146 0.94713974 -21.525723
-9.4716654 9.5367432e-07 -21.524467
-9.4748173 -0.94748211 -21.508713
-9.4779978 -1.8956003 -21.492809
-9.5085773 -2.8525753 -21.339909
-9.5439663 -3.8175888 -21.162964
-9.5796194 -4.7898083 -20.984701
-9.6334429 -5.7800679 -20.71558
-9.7055807 -6.7939081 -20.354897
-9.7793407 -7.8234739 -19.986095
-9.8830099 -8.8947105 -19.467747
-9.996067 -9.996067 -18.902464
-10.135977 -11.149576 -18.202915
-10.309529 -12.371433 -17.335154
-10.513835 -13.667985 -16.313623
-10.808575 -15.132005 -14.839922
-11.259876 -16.889812 -12.583418
-10.357589 18.413488 -11.340636
-9.8127108 16.354519 -14.367733
-9.5347176 14.831781 -15.912143
-9.2979059 13.430309 -17.22776
-9.1434298 12.191236 -18.085964
-8.99403 10.992704 -18.915962
-8.8824339 9.8693714 -19.53594
-8.7932034 8.7932014 -20.031666
-8.7078943 7.7403517 -20.505606
-8.6481466 6.7263365 -20.837536
-8.5980349 5.7320213 -21.115934
-8.5521355 4.7511845 -21.370934
-8.5118484 3.7830439 -21.594751
-8.4888725 2.8296213 -21.722395
-8.4682484 1.8818302 -21.836975
-8.4501638 0.93890476 -21.937443
-8.4537401 -1.9073486e-06 -21.917576
-8.4617662 -0.94019699 -21.872982
-8.4710464 -1.8824568 -21.821423
-8.4898186 -2.8299379 -21.71714
-8.5201864 -3.7867489 -21.548428
-8.5522108 -4.7512317 -21.370512
-8.5964785 -5.7309837 -21.124584
-8.6589279 -6.7347226 -20.777641
-8.7231312 -7.7538948 -20.420956
-8.7980385 -8.7980404 -20.004805
-8.9002571 -9.8891754 -19.436924
-9.0059147 -11.00723 -18.849937
-9.1551352 -12.206847 -18.020937
-9.3186674 -13.460298 -17.112425
-9.554533 -14.862609 -15.80206
-9.864747 -16.441244 -14.07865
-10.438366 -18.557098 -10.891876
-8.9407396 17.881477 -13.003174
-8.578948 16.085529 -15.264366
-8.3499632 14.612433 -16.695526
-8.1727715 13.280752 -17.802975
-8.0360909 12.054136 -18.657227
-7.9247332 10.896507 -19.353216
-7.8281112 9.7851353 -19.957104
-7.7501364 8.7189026 -20.444441
-7.685842 7.6858416 -20.846287
-7.6260591 6.672801 -21.219927
-7.5835595 5.6876698 -21.48555
-7.5441828 4.7151136 -21.731651
-7.5088248 3.7544088 -21.952641
-7.4923272 2.8096237 -22.055752
-7.4799633 1.8699903 -22.133026
-7.4692216 0.93365192 -22.200161
-7.4644361 1.9073486e-06 -22.230068
-7.4714761 -0.93393421 -22.186069
-7.4814849 -1.8703709 -22.123516
-7.4921966 -2.8095732 -22.056568
-7.5159273 -3.7579641 -21.908251
-7.5513525 -4.7195959 -21.686846
-7.5871353 -5.6903534 -21.463203
-7.6344256 -6.6801233 -21.167633
-7.6898127 -7.6898146 -20.821466
-7.7550621 -8.7244453 -20.413658
-7.8408413 -9.801054 -19.877537
-7.9354796 -10.911284 -19.286047
-8.0511189 -12.07668 -18.563299
-8.1952486 -13.31728 -17.662493
-8.3754969 -14.657121 -16.53594
-8.6123524 -16.148161 -15.055594
-8.9730215 -17.946043 -12.801413
-8.1336193 19.753075 -10.785514
-7.6679578 17.526758 -14.11167
-7.3937674 15.843782 -16.070175
-7.2311249 14.46225 -17.231903
-7.0791755 13.14704 -18.317261
-6.9721909 11.952326 -19.081432
-6.8817997 10.814255 -19.727085
-6.7939262 9.7056084 -20.354748
-6.7324672 8.6560307 -20.793743
-6.6784196 7.6324768 -21.1798
-6.6262465 6.626246 -21.552467
-6.5928721 5.6510324 -21.79085
-6.564918 4.6892262 -21.990522
-6.5386992 3.7363987 -22.177803
-6.5177946 2.7933388 -22.32712
-6.5071011 1.859169 -22.403502
-6.4994044 0.92848396 -22.458481
-6.4919872 -1.9073486e-06 -22.511459
-6.4953008 -0.92790031 -22.487795
-6.5047903 -1.858511 -22.42001
-6.5178699 -2.793375 -22.32658
-6.5369153 -3.7353811 -22.190544
-6.5669084 -4.690649 -21.976307
-6.5971775 -5.6547227 -21.760098
-6.6309662 -6.6309657 -21.518753
-6.6870031 -7.6422915 -21.118486
-6.7444806 -8.6714764 -20.707939
-6.806407 -9.7234373 -20.265606
-6.8906612 -10.828186 -19.663786
-6.9820447 -11.969222 -19.011047
-7.1006851 -13.186987 -18.163618
-7.2402816 -14.480564 -17.1665
-7.434123 -15.930266 -15.781917
-7.6929383 -17.58386 -13.933236
-8.2330799 -19.994623 -10.07508
-6.7931695 19.247314 -12.27305
-6.4774222 17.273123 -14.904282
-6.2840762 15.710187 -16.515497
-6.1386003 14.323404 -17.727787
-6.0277834 13.060194 -18.651268
-5.9343801 11.868759 -19.42963
-5.8577967 10.739292 -20.067825
-5.7927589 9.6545973 -20.609806
-5.7395539 8.6093273 -21.053181
-5.6945968 7.5927963 -21.427818
-5.6554193 6.5979872 -21.754303
-5.6225343 5.6225328 -22.028347
-5.598814 4.665678 -22.226013
-5.5779023 3.7186003 -22.40028
-5.557354 2.778676 -22.571518
-5.5465784 1.8488588 -22.661308
-5.5420732 0.92367744 -22.698853
-5.539434 -3.8146973e-06 -22.720844
-5.5410872 -0.92351627 -22.707069
-5.5521607 -1.8507204 -22.614792
-5.5636787 -2.7818403 -22.518806
-5.5778213 -3.7185488 -22.400951
-5.6000319 -4.6666956 -22.215868
-5.6265316 -5.6265326 -21.995033
-5.6595798 -6.6028423 -21.719629
-5.6995721 -7.599431 -21.38636
-5.7474809 -8.6212234 -20.987122
-5.7962017 -9.6603374 -20.581116
-5.8647351 -10.752014 -20.010002
-5.944025 -11.88805 -19.349251
-6.0354514 -13.076813 -18.587366
-6.1552334 -14.362211 -17.589184
-6.3019395 -15.754848 -16.366638
-6.5039301 -17.343815 -14.683375
-6.829473 -19.350176 -11.970519
-5.5674686 18.92939 -13.208113
-5.3398862 17.087635 -15.483934
-5.1935124 15.580538 -16.947672
-5.0794907 14.222572 -18.087891
-4.9938297 12.983955 -18.944498
-4.9113102 11.787141 -19.769695
-4.8571844 10.685806 -20.310949
-4.8068223 9.6136436 -20.814575
-4.7580285 8.5644493 -21.302513
-4.7232385 7.5571823 -21.65041
-4.6935492 6.5709705 -21.9473
-4.6642447 5.5970936 -22.240349
-4.6432891 4.6432867 -22.449907
-4.6278648 3.7022905 -22.604149
-4.6143684 2.7686195 -22.739113
-4.6051111 1.8420429 -22.831684
-4.6029248 0.92058563 -22.853552
-4.6012926 -9.5367432e-07 -22.869873
-4.6015425 -0.92030907 -22.867373
-4.6074982 -1.8429995 -22.807819
-4.6180897 -2.7708549 -22.701899
-4.6297822 -3.7038288 -22.584972
-4.6429806 -4.6429834 -22.452988
-4.6695099 -5.6034112 -22.187698
-4.6968236 -6.5755539 -21.91456
-4.7244592 -7.5591345 -21.638206
-4.7644801 -8.5760641 -21.237991
-4.812026 -9.6240501 -20.762539
-4.8611317 -10.694491 -20.271481
-4.9265118 -11.82363 -19.617678
-5.0010629 -13.002763 -18.872171
-5.0919962 -14.257591 -17.962833
-5.2069063 -15.620719 -16.813734
-5.3640413 -17.16493 -15.242388
-5.6036859 -19.052534 -12.845938
-4.755312 21.398899 -9.4414034
-4.4045835 18.719479 -13.825504
-4.2385592 16.954237 -15.900805
-4.1295133 15.485673 -17.263884
-4.0420928 14.147324 -18.356636
-3.974257 12.916332 -19.204588
-3.9168303 11.75049 -19.922417
-3.8707223 10.644485 -20.49877
-3.8303998 9.5759974 -21.0028
-3.7922153 8.5324821 -21.480106
-3.7655704 7.5311389 -21.813166
-3.7424281 6.5492477 -22.102444
-3.7195683 5.5793524 -22.388189
-3.7035167 4.6293955 -22.588837
-3.6927125 3.6927137 -22.723888
-3.6825607 2.76192 -22.850788
-3.6738482 1.8369246 -22.959692
-3.6700461 0.91751099 -23.007221
-3.6695962 -9.5367432e-07 -23.012842
-3.669795 -0.917449 -23.010357
-3.6707058 -1.8353539 -22.998978
-3.6816235 -2.761219 -22.862503
-3.6931045 -3.6931019 -22.718992
-3.7055209 -4.6319036 -22.563784
-3.723743 -5.5856171 -22.336008
-3.7451935 -6.5540886 -22.067877
-3.76794 -7.5358801 -21.783546
-3.7986834 -8.5470428 -21.399252
-3.8362098 -9.5905228 -20.930172
-3.8745782 -10.655092 -20.450565
-3.9215317 -11.764597 -19.863653
-3.9813614 -12.939425 -19.11578
-4.0484362 -14.169528 -18.277348
-4.1415634 -15.530863 -17.113258
-4.2564983 -17.025993 -15.676567
-4.4261336 -18.811068 -13.556126
-3.489188 20.935127 -10.729664
-3.2746758 18.556496 -14.304867
-3.1593626 16.849932 -16.226751
-3.0852089 15.426044 -17.462646
-3.0186408 14.086989 -18.572111
-2.9708238 12.873569 -19.369064
-2.9302139 11.720856 -20.045898
-2.8923099 10.605134 -20.677631
-2.863776 9.5459175 -21.1532
-2.8397446 8.5192327 -21.55372
-2.8169594 7.5118914 -21.933472
-2.799691 6.5326128 -22.221279
-2.7850571 5.5701141 -22.465176
-2.7717128 4.6195211 -22.687584
-2.7623868 3.6831818 -22.843016
-2.7554491 2.7554464 -22.958647
-2.7489452 1.8326292 -23.067043
-2.7435319 0.91451073 -23.157265
-2.7452638 -1.9073486e-06 -23.128403
-2.7470994 -0.91569901 -23.097805
-2.7495949 -1.833066 -23.056213
-2.7557559 -2.7557564 -22.953533
-2.7643404 -3.6857882 -22.810455
-2.7742615 -4.6237688 -22.645105
-2.78476 -5.5695219 -22.470131
-2.800755 -6.5350947 -22.203545
-2.8207865 -7.5220971 -21.869686
-2.841274 -8.5238228 -21.528231
-2.8677313 -9.5591049 -21.087278
-2.8967791 -10.621525 -20.603146
-2.9317443 -11.726978 -20.020393
-2.9770255 -12.900444 -19.265707
-3.0281084 -14.131174 -18.414318
-3.0915315 -15.45766 -17.357269
-3.1746652 -16.931549 -15.971713
-3.2966132 -18.680813 -13.93924
-3.5289016 -21.173409 -10.067774
-2.2992527 20.693272 -11.40148
-2.1740839 18.479712 -14.530696
-2.1026227 16.820982 -16.317228
-2.0503001 15.37725 -17.625294
-2.0091481 14.064037 -18.654091
-1.9765109 12.847321 -19.470024
-1.9493167 11.695897 -20.149876
-1.9241601 10.582879 -20.778793
-1.9064301 9.5321484 -21.222046
-1.8902385 8.506073 -21.626831
-1.8745219 7.4980874 -22.019749
-1.8625989 6.5190935 -22.317825
-1.8536462 5.5609388 -22.541637
-1.8447791 4.6119461 -22.763315
-1.8370132 3.6740246 -22.957466
-1.8337945 2.7506905 -23.037933
-1.8306704 1.8306704 -23.116039
-1.8280965 0.91404819 -23.18038
-1.8280603 -1.9073486e-06 -23.18129
-1.829276 -0.91463852 -23.150898
-1.8313683 -1.8313694 -23.098587
-1.8336326 -2.7504501 -23.041981
-1.8394493 -3.6788988 -22.896566
-1.8462663 -4.6156654 -22.726143
-1.8533261 -5.5599785 -22.549644
-1.8640337 -6.5241179 -22.281954
-1.8773868 -7.5095487 -21.948124
-1.8909328 -8.5091991 -21.609478
-1.9063002 -9.5315037 -21.225292
-1.9267462 -10.597103 -20.71414
-1.9505752 -11.70345 -20.118418
-1.9787287 -12.861737 -19.414581
-2.0140331 -14.098232 -18.531971
-2.0525951 -15.394463 -17.567919
-2.1102748 -16.882196 -16.125931
-2.1862464 -18.583096 -14.226639
-2.3267055 -20.940346 -10.715162
-1.144524 20.601431 -11.656598
-1.0849934 18.444887 -14.633127
-1.0498606 16.797768 -16.389763
-1.0225897 15.338844 -17.753311
-1.0041729 14.058421 -18.67415
-0.9864077 12.823298 -19.562408
-0.97339964 11.680795 -20.212812
-0.96234477 10.585792 -20.76556
-0.95229548 9.522954 -21.268021
-0.9442153 8.4979382 -21.672028
-0.93679172 7.4943333 -22.043213
-0.93077689 6.5154371 -22.343952
-0.92637765 5.5582638 -22.563917
-0.92201972 4.6100979 -22.781815
-0.91859055 3.6743603 -22.95327
-0.91654468 2.7496328 -23.055561
-0.91498125 1.8299627 -23.133732
-0.9139055 0.91390514 -23.187523
-0.91297477 -9.5367432e-07 -23.234058
-0.91371089 -0.91371155 -23.19725
-0.91483814 -1.8296747 -23.140884
-0.91600472 -2.7480145 -23.082561
-0.91874528 -3.6749821 -22.945534
-0.92274928 -4.6137447 -22.745331
-0.92680711 -5.5608416 -22.54244
-0.9315232 -6.5206628 -22.306637
-0.93797934 -7.5038366 -21.983826
-0.94488901 -8.5040026 -21.638346
-0.9533534 -9.533535 -21.215126
-0.96277082 -10.590479 -20.744255
-0.97454041 -11.694485 -20.155777
-0.98802179 -12.844286 -19.481707
-1.0060784 -14.0851 -18.578875
-1.0266184 -15.399279 -17.551876
-1.0529728 -16.847565 -16.234159
-1.0895998 -18.523195 -14.402805
-1.1573491 -20.832285 -11.015339
0 20.606049 -11.643773
0 18.463499 -14.578386
0 16.806377 -16.362864
0 15.356655 -17.693939
0 14.059781 -18.669294
0 12.827312 -19.546986
0 11.686096 -20.190723
0 10.588989 -20.751022
0 9.5180254 -21.292664
0 8.4958668 -21.683521
0 7.5005331 -22.004456
0 6.5186434 -22.321058
0 5.5570822 -22.57378
0 4.6117353 -22.76543
0 3.6764898 -22.926643
0 2.748559 -23.073433
0 1.8296108 -23.142448
0 0.91376591 -23.194527
0 -2.8610229e-06 -23.244415
0 -0.91347599 -23.209051
0 -1.8303413 -23.124237
0 -2.7506208 -23.039108
0 -3.6766281 -22.924936
0 -4.6143818 -22.738979
0 -5.5630407 -22.524149
0 -6.5232668 -22.288027
0 -7.4981322 -22.019476
0 -8.5081482 -21.615307
0 -9.5382252 -21.191675
0 -10.58823 -20.754478
0 -11.69608 -20.149136
0 -12.850086 -19.4594
0 -14.077045 -18.607637
0 -15.40714 -17.525665
0 -16.838036 -16.263943
0 -18.554295 -14.311344
0 -20.847656 -10.972644
1.1522276 20.740099 -11.271413
1.0897511 18.525768 -14.395239
1.0512495 16.819992 -16.320322
1.0260324 15.390486 -17.581173
1.0045648 14.063902 -18.654562
0.98918194 12.859364 -19.423702
0.97474998 11.696998 -20.145302
0.96352607 10.598783 -20.706495
0.95336753 9.5336723 -21.21442
0.94513321 8.5061979 -21.626137
0.9385758 7.508604 -21.954006
0.93211132 6.5247793 -22.277229
0.92615372 5.556921 -22.575111
0.92295843 4.61479 -22.734879
0.9197824 3.6791306 -22.893673
0.9166283 2.7498817 -23.051384
0.91531432 1.8306284 -23.117077
0.91483039 0.91483021 -23.141277
0.91438591 -0 -23.1635
0.91446131 -0.91446114 -23.159733
0.91603601 -1.8320723 -23.080997
0.91796958 -2.7539101 -22.98432
0.92026639 -3.6810665 -22.86948
0.92300075 -4.6150036 -22.732763
0.92754167 -5.5652518 -22.505713
0.93278944 -6.5295277 -22.243324
0.93855113 -7.5084095 -21.955242
0.94637829 -8.5174046 -21.563881
0.95487797 -9.5487785 -21.138895
0.96437776 -10.608155 -20.663908
0.97600335 -11.712041 -20.082628
0.98998523 -12.869808 -19.383537
1.0067172 -14.094041 -18.54693
1.0290377 -15.435564 -17.430914
1.056242 -16.899872 -16.070696
1.0951281 -18.61718 -14.12639
1.1659744 -20.987537 -10.584079
2.3328362 20.995523 -10.561893
2.1868777 18.588459 -14.210854
2.1112714 16.890167 -16.101011
2.0592012 15.444005 -17.402769
2.014878 14.104145 -18.510849
1.9836987 12.894043 -19.290325
1.9535649 11.721388 -20.043676
1.9304736 10.617601 -20.620956
1.9120309 9.560154 -21.082024
1.8939372 8.5227184 -21.534363
1.8798983 7.5195942 -21.88534
1.8676251 6.5366859 -22.192169
1.8575568 5.572669 -22.443878
1.8495873 4.6239681 -22.643112
1.8432103 3.6864195 -22.80254
1.8378736 2.7568102 -22.935957
1.8337997 1.8337994 -23.037804
1.8328338 0.91641426 -23.061954
1.8324007 -0 -23.072779
1.8325518 -0.91627789 -23.068996
1.8338102 -1.8338118 -23.03754
1.8381463 -2.7572184 -22.929136
1.8432789 -3.6865606 -22.800823
1.849396 -4.6234894 -22.647894
1.8589891 -5.5769668 -22.408068
1.8698931 -6.5446229 -22.135471
1.8820475 -7.5281901 -21.83161
1.8954209 -8.5293932 -21.497274
1.9131392 -9.5656967 -21.054317
1.9345875 -10.64023 -20.51811
1.9565161 -11.7391 -19.969891
1.9861963 -12.910276 -19.227888
2.0221574 -14.155104 -18.328856
2.0625863 -15.469398 -17.318138
2.1215849 -16.972677 -15.843177
2.2016213 -18.713779 -13.842265
2.3793347 -21.414013 -9.3994322
3.5953708 21.572226 -8.9599504
3.3130274 18.773821 -13.66567
3.1908965 17.018118 -15.701185
3.1025491 15.512745 -17.173645
3.0383718 14.17907 -18.243263
2.9852824 12.936221 -19.12809
2.9420986 11.768393 -19.847818
2.9053566 10.652974 -20.460184
2.8769946 9.5899811 -20.932886
2.8491807 8.5475407 -21.39645
2.8255002 7.534667 -21.791122
2.8101377 6.5569878 -22.047165
2.7949336 5.5898666 -22.300571
2.779917 4.6331949 -22.550844
2.7707345 3.694313 -22.703888
2.7644196 2.7644176 -22.809139
2.7581413 1.8387575 -22.913778
2.7540185 0.91800594 -22.982487
2.7540579 -2.8610229e-06 -22.981834
2.7549145 -0.91830635 -22.967556
2.7572119 -1.8381424 -22.929268
2.7647045 -2.7647057 -22.804384
2.7735202 -3.6980295 -22.657455
2.7835877 -4.6393137 -22.48967
2.7949173 -5.5898347 -22.300838
2.8115618 -6.5603108 -22.023434
2.8305366 -7.548099 -21.707186
2.8505604 -8.5516815 -21.373459
2.8790193 -9.5967293 -20.899143
2.9115601 -10.67572 -20.356796
2.9451859 -11.780746 -19.796362
2.9917672 -12.964326 -19.020016
3.0464251 -14.216652 -18.109043
3.1106458 -15.553227 -17.0387
3.2007556 -17.070698 -15.536868
3.3299274 -18.869591 -13.384005
4.4780521 19.031719 -12.907146
4.2870173 17.148067 -15.295081
4.158823 15.595587 -16.897507
4.074306 14.260069 -17.953972
3.9962299 12.987747 -18.929924
3.9433343 11.830002 -19.591116
3.892174 10.703476 -20.230618
3.849494 9.6237354 -20.764122
3.8148036 8.5833073 -21.197752
3.7843559 7.5687103 -21.578346
3.7606094 6.5810661 -21.875181
3.7396557 5.6094828 -22.137096
3.7189345 4.6486692 -22.396116
3.7062466 3.7062445 -22.554716
3.6980059 2.7735023 -22.657722
3.6898017 1.8448973 -22.760275
3.6834354 0.92086029 -22.839851
3.6850276 -9.5367432e-07 -22.819952
3.687614 -0.92190552 -22.787622
3.6917701 -1.8458853 -22.735672
3.6977508 -2.7733126 -22.660912
3.7095788 -3.7095785 -22.513065
3.7241957 -4.6552458 -22.330353
3.7389822 -5.6084738 -22.145519
3.7603457 -6.5806046 -21.878475
3.7893577 -7.5787163 -21.515827
3.8196251 -8.5941572 -21.137478
3.8535039 -9.6337595 -20.713995
3.8969815 -10.716702 -20.170528
3.9504499 -11.851349 -19.502171
4.0077252 -13.025108 -18.786228
4.0842595 -14.294908 -17.829552
4.1815186 -15.680696 -16.613817
4.3050385 -17.220156 -15.069815
4.498096 -19.116905 -12.656597
5.6944098 19.360991 -11.938699
5.416585 17.333069 -14.716949
5.2571235 15.771369 -16.311562
5.1326332 14.37137 -17.556465
5.035902 13.093347 -18.523773
4.9585443 11.900504 -19.297359
4.8925395 10.763587 -19.957399
4.8335342 9.6670685 -20.547455
4.7936769 8.6286154 -20.94603
4.7552161 7.6083446 -21.330635
4.7188478 6.6063862 -21.694317
4.6929336 5.6315212 -21.953463
4.6734428 4.6734409 -22.148369
4.6541133 3.7232895 -22.341663
4.6420565 2.7852316 -22.462233
4.6322479 1.8528976 -22.560318
4.6274128 0.9254818 -22.608675
4.6243801 -1.9073486e-06 -22.638992
4.6277719 -0.92555618 -22.605076
4.6342225 -1.8536911 -22.540573
4.6406913 -2.7844143 -22.475885
4.6531715 -3.7225399 -22.351084
4.6753707 -4.6753731 -22.129086
4.6977696 -5.6373243 -21.905098
4.724112 -6.6137567 -21.641674
4.7591681 -7.6146712 -21.291117
4.7992239 -8.6386013 -20.890556
4.8420281 -9.6840582 -20.462517
4.8980646 -10.775744 -19.902149
4.9690485 -11.925716 -19.192316
5.0431781 -13.112264 -18.451017
5.1453032 -14.406849 -17.42976
5.2709169 -15.812753 -16.173626
5.447022 -17.430471 -14.412576
5.7513986 -19.554756 -11.368811
7.0755444 20.047377 -9.9199257
6.6156802 17.641811 -13.752126
6.3804436 15.951107 -15.712432
6.2082701 14.485961 -17.147215
6.0940232 13.203716 -18.09927
5.9872632 11.974525 -18.988935
5.912303 10.839222 -19.613604
5.8450651 9.7417736 -20.173922
5.787446 8.6811666 -20.654081
5.7395368 7.6527147 -21.05332
5.6942778 6.6433239 -21.430481
5.6634474 5.6634455 -21.687401
5.638937 4.6991138 -21.891655
5.6152744 3.743516 -22.08884
5.5941262 2.7970638 -22.265076
5.5867944 1.8622627 -22.326176
5.5809326 0.9301548 -22.375019
5.5750837 9.5367432e-07 -22.423763
5.5772738 -0.92954826 -22.405518
5.5888638 -1.8629541 -22.308929
5.6004863 -2.8002453 -22.212074
5.6160097 -3.7440052 -22.082718
5.641573 -4.7013092 -21.869686
5.6703496 -5.6703496 -21.629881
5.7028718 -6.6533508 -21.358864
5.7382069 -7.6509428 -21.064409
5.7934017 -8.6901054 -20.60445
5.8527541 -9.7545891 -20.109844
5.9205694 -10.854378 -19.544716
6.003253 -12.006506 -18.85569
6.1120005 -13.242667 -17.949459
6.2295809 -14.535686 -16.969622
6.4075017 -16.018753 -15.486947
6.6510463 -17.736124 -13.457412
7.2778749 -20.620644 -8.2338419
7.8846717 18.022104 -12.563711
7.5441365 16.166008 -14.996107
7.3451667 14.690334 -16.417318
7.1844721 13.34259 -17.56514
7.0568666 12.097484 -18.476608
6.9565601 10.931736 -19.193079
6.8745966 9.8208513 -19.778538
6.7959757 8.7376833 -20.340107
6.7409887 7.7039881 -20.732876
6.6955886 6.69559 -21.057159
6.6507773 5.7006636 -21.377247
6.6202874 4.728775 -21.595028
6.5915804 3.7666159 -21.800079
6.5706239 2.8159819 -21.949768
6.5585728 1.8738766 -22.035849
6.5522203 0.93602943 -22.081223
6.5470033 -9.5367432e-07 -22.118488
6.5489063 -0.93556023 -22.104895
6.5618396 -1.874814 -22.012512
6.5771275 -2.8187704 -21.903316
6.596405 -3.7693739 -21.765615
6.618576 -4.7275534 -21.607256
6.6550207 -5.7043066 -21.346931
6.6992326 -6.6992345 -21.031132
6.748096 -7.7121081 -20.682108
6.8106871 -8.7565975 -20.235031
6.8839865 -9.8342686 -19.711464
6.9652066 -10.945324 -19.131321
7.0688901 -12.118099 -18.390726
7.204669 -13.380098 -17.420876
7.3698926 -14.739787 -16.240702
7.5746775 -16.231453 -14.777962
7.9466672 -18.163811 -12.120888
9.3644361 18.728872 -10.355069
8.8164673 16.530876 -13.779876
8.5245533 14.917967 -15.60434
8.3129196 13.508492 -16.927048
8.1598978 12.239847 -17.883434
8.0301256 11.04142 -18.69451
7.9281979 9.9102459 -19.331558
7.8422027 8.8224754 -19.869026
7.7695727 7.7695713 -20.322969
7.7149758 6.7506046 -20.664196
7.6611185 5.7458382 -21.000803
7.6141057 4.7588129 -21.294636
7.5916767 3.7958364 -21.434816
7.5695128 2.8385677 -21.573338
7.5474787 1.8868685 -21.71106
7.5384173 0.9423027 -21.767685
7.5392122 -1.9073486e-06 -21.76272
7.541399 -0.94267559 -21.749054
7.5472794 -1.8868208 -21.712303
7.5678444 -2.837945 -21.583767
7.5936246 -3.796814 -21.422642
7.6238461 -4.7649045 -21.233757
7.6686716 -5.751503 -20.953596
7.7209911 -6.7558684 -20.6266
7.7819958 -7.7819958 -20.245327
7.8450947 -8.8257332 -19.850956
7.9402766 -9.9253464 -19.256067
8.0491304 -11.067556 -18.575731
8.1754189 -12.26313 -17.78643
8.3359861 -13.54598 -16.782883
8.5574198 -14.975486 -15.398921
8.8630857 -16.618286 -13.488512
9.5874052 -19.17481 -8.9615154
10.224069 17.040113 -12.082417
9.7712984 15.199796 -14.597806
9.5098305 13.736419 -16.050406
9.301609 12.402144 -17.20719
9.1499577 11.183281 -18.0497
9.0146046 10.016226 -18.801661
8.9206514 8.9206495 -19.323624
8.8307629 7.8495655 -19.823
8.7574711 6.8113627 -20.230179
8.6990547 5.7993684 -20.554714
8.6513758 4.8063202 -20.819597
8.6157074 3.8292027 -21.017754
8.5889845 2.8629932 -21.166222
8.5624247 1.9027605 -21.313765
8.5486021 0.94984341 -21.390562
8.5523376 -0 -21.369808
8.556076 -0.95067501 -21.349039
8.5641718 -1.9031515 -21.304062
8.589468 -2.8631582 -21.163532
8.6220427 -3.8320179 -20.982559
8.661025 -4.8116803 -20.765991
8.7027922 -5.8018622 -20.533947
8.7636452 -6.8161688 -20.195881
8.8417072 -7.8592949 -19.762197
8.929451 -8.9294538 -19.274729
9.0348501 -10.038723 -18.689186
9.1667242 -11.203774 -17.956551
9.3293228 -12.439098 -17.053226
9.5317993 -13.768155 -15.928354
9.8338995 -15.297176 -14.250019
10.32116 -17.201935 -11.543013
11.167045 15.633862 -13.047575
10.782935 14.017813 -14.968122
10.527144 12.632572 -16.247072
10.321365 11.353502 -17.275967
10.165174 10.165173 -18.056921
10.034653 9.0311871 -18.709532
9.9284697 7.9427729 -19.24045
9.8334551 6.8834176 -19.715519
9.7728958 5.8637362 -20.018312
9.7178888 4.8589425 -20.29335
9.6643105 3.8657227 -20.561245
9.6309929 2.8892965 -20.727833
9.6151094 1.9230213 -20.807247
9.5997648 0.95997429 -20.883972
9.5936413 -0 -20.914589
9.5997362 -0.95997429 -20.884113
9.6176662 -1.9235315 -20.794462
9.635664 -2.8907013 -20.704475
9.6718616 -3.8687444 -20.523485
9.7193861 -4.8596935 -20.285868
9.7770233 -5.8662128 -19.997683
9.8494358 -6.8946066 -19.635618
9.9439306 -7.9551463 -19.163145
10.051828 -9.046648 -18.623653
10.170089 -10.170092 -18.032351
10.34439 -11.378826 -17.160849
10.55293 -12.663518 -16.118145
10.826901 -14.074971 -14.748291
11.229506 -15.721308 -12.735271
12.948725 16.480196 -10.02496
12.218711 14.440293 -13.343203
11.821067 12.895707 -15.150675
11.54956 11.549562 -16.384796
11.366261 10.332966 -17.217972
11.194209 9.1588984 -18.000029
11.076419 8.0555763 -18.535435
10.976853 6.9852715 -18.988008
10.883777 5.9366026 -19.411083
10.819743 4.918066 -19.702147
10.761951 3.9134359 -19.964836
10.719359 2.92346 -20.158432
10.700373 1.9455233 -20.244736
10.681454 0.97104073 -20.330738
10.662601 -1.9073486e-06 -20.416428
10.678682 -0.97079086 -20.34333
10.701505 -1.9457293 -20.239594
10.724459 -2.9248533 -20.135262
10.765846 -3.9148531 -19.947132
10.83017 -4.9228039 -19.654751
10.901507 -5.9462767 -19.330488
10.981791 -6.9884133 -18.965567
11.080545 -8.0585804 -18.516684
11.229825 -9.1880417 -17.838135
11.394835 -10.358944 -17.088093
11.579063 -11.579063 -16.250692
11.878142 -12.957974 -14.891238
12.282299 -14.515448 -13.054162
13.22375 -16.830229 -8.7748394
14.027164 15.196096 -10.436276
13.318193 13.31819 -13.390323
12.904586 11.829205 -15.113688
12.652065 10.543386 -16.165855
12.460609 9.3454571 -16.963593
12.286536 8.1910238 -17.688894
12.166275 7.0969911 -18.189983
12.050563 6.0252805 -18.672113
11.967031 4.9862618 -19.020168
11.913833 3.9712753 -19.241829
11.86249 2.9656229 -19.455757
11.821349 1.9702225 -19.627178
11.806964 0.98391247 -19.687111
11.806063 -2.8610229e-06 -19.690868
11.805197 -0.98376942 -19.694479
11.828843 -1.9714737 -19.595949
11.869744 -2.9674368 -19.425526
11.915854 -3.9719505 -19.233404
11.97048 -4.9877014 -19.005791
12.070262 -6.0351329 -18.590038
12.178861 -7.1043353 -18.137545
12.310741 -8.2071629 -17.588039
12.467608 -9.3507061 -16.934429
12.696531 -10.580444 -15.980584
12.977962 -11.896464 -14.80796
13.364745 -13.364746 -13.196361
14.200888 -15.384297 -9.7124367
15.281908 14.106377 -10.106226
14.496433 12.266213 -13.127281
14.104011 10.849235 -14.636606
13.804543 9.5569925 -15.788397
13.601644 8.3702421 -16.568785
13.418421 7.2253046 -17.273485
13.308002 6.1421533 -17.698175
13.201841 5.077631 -18.106482
13.119829 4.036871 -18.421917
13.058526 3.0135064 -18.657696
13.017084 2.0026283 -18.817089
12.996622 0.99973869 -18.895786
12.99412 1.9073486e-06 -18.905413
12.991619 -0.99935627 -18.915035
13.013642 -2.0020981 -18.830322
13.070847 -3.0163512 -18.610306
13.128557 -4.0395551 -18.38835
13.212264 -5.0816402 -18.066393
13.313931 -6.1448941 -17.675371
13.451166 -7.2429366 -17.147543
13.625607 -8.3849907 -16.47661
13.844102 -9.5843801 -15.636252
14.121958 -10.863049 -14.567573
14.577757 -12.335027 -12.814501
15.467505 -14.277697 -9.3923969
17.100235 13.4359 -7.8105278
15.795714 11.282653 -12.469529
15.370393 9.8809681 -13.988531
15.046904 8.5982285 -15.143858
14.835152 7.4175763 -15.900108
14.647875 6.2776604 -16.568954
14.52023 5.1857967 -17.024832
14.411919 4.117691 -17.411661
14.345932 3.0741305 -17.647327
14.298901 2.0426984 -17.815296
14.254387 1.0181704 -17.974272
14.244472 1.9073486e-06 -18.009684
14.272042 -1.0194321 -17.911221
14.299762 -2.0428224 -17.812216
14.333745 -3.0715189 -17.690849
14.42858 -4.1224546 -17.352156
14.538081 -5.192174 -16.961077
14.67096 -6.2875547 -16.486509
14.851143 -7.4255714 -15.843002
15.083776 -8.6192999 -15.012165
15.417624 -9.9113312 -13.819855
15.863285 -11.330919 -12.228204
17.393953 10.436369 -10.90295
16.815157 8.9680815 -12.832277
16.431843 7.6681919 -14.109989
16.189373 6.4757476 -14.918219
15.98629 5.3287644 -15.595165
15.861538 4.2297406 -16.011003
15.74226 3.1484523 -16.408596
15.674839 2.0899763 -16.633335
15.65608 1.0437388 -16.695866
15.637316 -0 -16.758413
15.647099 -1.0431385 -16.725805
15.696142 -2.0928187 -16.562325
15.770906 -3.1541853 -16.313108
15.852112 -4.2272301 -16.042427
16.005371 -5.335124 -15.531564
16.209923 -6.4839687 -14.849723
16.473787 -7.6877685 -13.970176
16.802046 -8.9610939 -12.875976
17.502298 -10.50138 -10.541804
18.622059 8.14715 -10.688866
18.038143 6.7643023 -12.513598
17.75692 5.5490375 -13.392426
17.496864 4.3742142 -14.205092
17.376883 3.2581625 -14.580038
17.273994 2.1592469 -14.901565
17.209105 1.0755672 -15.104346
17.205023 -2.3841858e-06 -15.117105
17.228279 -1.0767679 -15.044429
17.277357 -2.1596718 -14.891062
17.386915 -3.2600489 -14.548683
17.551914 -4.3879771 -14.033068
17.723059 -5.538455 -13.498234
18.116392 -6.7936478 -12.269067
18.730234 -8.1944771 -10.350814
19.89798 4.6818771 -10.359327
19.526211 3.4458003 -11.452766
19.303951 2.2710519 -12.106466
19.193161 1.1290097 -12.432323
19.101891 -1.4305115e-06 -12.700766
19.196461 -1.1292057 -12.422617
19.322155 -2.2731948 -12.052928
19.498514 -3.4409142 -11.534227
19.921745 -4.6874695 -10.289429
