# .PCD v0.7 - Point Cloud Data file format
VERSION 0.7
FIELDS x y z
SIZE 4 4 4
TYPE F F F
COUNT 1 1 1
WIDTH 1070
HEIGHT 1
VIEWPOINT 0 0 0 1 0 0 0
POINTS 1070
DATA ascii
-20.646589 6.8821926 -11.53116
-20.143806 5.5955009 -12.92778
-19.808086 4.4017982 -13.86033
-19.613396 3.268898 -14.401143
-19.483637 2.1648502 -14.761581
-19.40616 1.0781188 -14.976794
-19.400118 -0 -14.993582
-19.419367 -1.0788536 -14.940107
-19.494783 -2.1660876 -14.730619
-19.626884 -3.2711468 -14.36367
-19.849966 -4.4111056 -13.744001
-20.203522 -5.6120882 -12.7619
-20.746338 -6.9154449 -11.254079
-19.222563 9.0459108 -12.345852
-18.720888 7.7086 -13.821359
-18.353743 6.4777904 -14.901204
-18.109818 5.3264141 -15.618627
-17.947338 4.2229018 -16.096508
-17.812128 3.1433163 -16.494186
-17.740221 2.0870867 -16.705677
-17.686712 1.0403929 -16.863052
-17.677454 9.5367432e-07 -16.890284
-17.695694 -1.0409217 -16.836637
-17.751734 -2.0884404 -16.671818
-17.844604 -3.1490502 -16.398666
-17.959768 -4.2258301 -16.059946
-18.144171 -5.336524 -15.517584
-18.392984 -6.491642 -14.785781
-18.739805 -7.716393 -13.765723
-19.30797 -9.0861034 -12.094643
-18.280916 11.42557 -11.754932
-17.604361 9.9024515 -13.869173
-17.207954 8.6039762 -15.107941
-16.898209 7.3929644 -16.075893
-16.694405 6.2604003 -16.712786
-16.526907 5.1646581 -17.236214
-16.407417 4.1018543 -17.609615
-16.316072 3.0592642 -17.895069
-16.256628 2.0320759 -18.080833
-16.222517 1.0139084 -18.187428
-16.211538 -2.8610229e-06 -18.221741
-16.228041 -1.0142527 -18.170174
-16.28089 -2.035111 -18.005018
-16.337711 -3.0633235 -17.827446
-16.43932 -4.1098313 -17.509922
-16.557676 -5.1742744 -17.140059
-16.720751 -6.2702832 -16.630451
-16.933607 -7.4084558 -15.965274
-17.239931 -8.6199646 -15.008018
-17.666996 -9.937685 -13.673433
-18.411386 -11.507117 -11.34722
-16.793045 12.314897 -12.905981
-16.244068 10.829379 -14.735901
-15.874108 9.5244646 -15.969101
-15.626636 8.3342056 -16.79401
-15.418704 7.1953945 -17.487118
-15.264058 6.1056209 -18.002604
-15.135368 5.0451217 -18.431566
-15.053246 4.0141978 -18.705307
-14.988607 2.9977217 -18.920773
-14.937311 1.991642 -19.091759
-14.906133 0.99374199 -19.195686
-14.903877 -2.8610229e-06 -19.203209
-14.908986 -0.99393368 -19.186172
-14.943878 -1.9925156 -19.06987
-14.995217 -2.9990439 -18.898739
-15.062829 -4.0167556 -18.673368
-15.149286 -5.0497622 -18.385178
-15.283774 -6.1135111 -17.93688
-15.438872 -7.2048082 -17.419891
-15.655979 -8.3498545 -16.696203
-15.915454 -9.5492735 -15.831284
-16.295282 -10.863522 -14.565189
-16.881721 -12.379929 -12.610389
-15.552965 13.331111 -13.336491
-15.031391 11.810379 -15.199255
-14.701647 10.501172 -16.376917
-14.435376 9.2798824 -17.327885
-14.250104 8.1429186 -17.989569
-14.084349 7.0421734 -18.581551
-13.968203 5.9863706 -18.996363
-13.862991 4.9510684 -19.372114
-13.798712 3.9424868 -19.601685
-13.735948 2.9434156 -19.825846
-13.698029 1.9568596 -19.961266
-13.677901 0.97699356 -20.033146
-13.663715 -1.9073486e-06 -20.083813
-13.680518 -0.97717953 -20.023804
-13.700611 -1.9572306 -19.952044
-13.743993 -2.9451427 -19.797112
-13.806872 -3.9448223 -19.572536
-13.87268 -4.9545307 -19.337507
-13.983071 -5.9927487 -18.943256
-14.10132 -7.050662 -18.520939
-14.273714 -8.1564083 -17.905245
-14.459698 -9.2955208 -17.241022
-14.738773 -10.527696 -16.24432
-15.089233 -11.855825 -14.99268
-15.654721 -13.418329 -12.973079
-14.438899 14.438895 -13.348571
-13.90872 12.838818 -15.387718
-13.578115 11.489172 -16.659279
-13.33889 10.260687 -17.579372
-13.133957 9.0927391 -18.36758
-12.993677 7.9961085 -18.90712
-12.875352 6.9328799 -19.362209
-12.769016 5.8933916 -19.771193
-12.685274 4.8789506 -20.093285
-12.624526 3.884469 -20.326927
-12.56885 2.9005041 -20.541067
-12.539879 1.9292107 -20.652489
-12.521227 0.96317005 -20.724232
-12.510818 -0 -20.764263
-12.523664 -0.96335793 -20.714863
-12.542323 -1.9295883 -20.643093
-12.57376 -2.901638 -20.522181
-12.632112 -3.8868022 -20.297752
-12.694665 -4.882566 -20.057159
-12.782633 -5.8996782 -19.718826
-12.889235 -6.9403582 -19.308815
-13.011538 -8.0070992 -18.838421
-13.15568 -9.1077776 -18.284029
-13.369111 -10.283932 -17.463139
-13.616605 -11.521744 -16.511236
-13.961213 -12.887277 -15.18582
-14.526381 -14.526381 -13.012095
-13.413205 15.64874 -12.99444
-12.867823 13.940141 -15.266868
-12.529456 12.529454 -16.676731
-12.279817 11.256498 -17.716892
-12.09275 10.077291 -18.496336
-11.929547 8.9471588 -19.176348
-11.816104 7.8774028 -19.649029
-11.709377 6.8304706 -20.093725
-11.623316 5.8116565 -20.452316
-11.557849 4.8157701 -20.725094
-11.498555 3.8328485 -20.972149
-11.462515 2.8656292 -21.122314
-11.431639 1.9052725 -21.250965
-11.413092 0.95108795 -21.328247
-11.413092 -0 -21.328247
-11.414711 -0.95122719 -21.321501
-11.435634 -1.9059391 -21.234322
-11.466497 -2.8666258 -21.105722
-11.505339 -3.8351145 -20.94389
-11.56626 -4.8192739 -20.690046
-11.631787 -5.8158956 -20.417015
-11.722991 -6.8384137 -20.037003
-11.830004 -7.8866692 -19.591114
-11.949627 -8.9622211 -19.092684
-12.114182 -10.095154 -18.407038
-12.311292 -11.285349 -17.585754
-12.562387 -12.562387 -16.539515
-12.918269 -13.994789 -15.056674
-13.502025 -15.752363 -12.624355
-12.45787 16.988005 -12.256117
-11.872366 15.110282 -14.917497
-11.525044 13.620506 -16.496233
-11.268861 12.2933 -17.660702
-11.076696 11.076694 -18.534176
-10.919161 9.9265099 -19.250248
-10.79806 8.8347759 -19.800703
-10.695911 7.7788424 -20.265015
-10.597771 6.7440333 -20.711111
-10.532472 5.7449832 -21.007927
-10.47209 4.7600422 -21.282387
-10.420672 3.7893353 -21.516106
-10.39204 2.8341913 -21.646252
-10.363594 1.8842897 -21.775547
-10.348962 0.94081497 -21.842062
-10.348962 9.5367432e-07 -21.842064
-10.348962 -0.94081497 -21.842064
-10.367237 -1.8849545 -21.758993
-10.395733 -2.8351984 -21.629467
-10.425306 -3.7910233 -21.495041
-10.479809 -4.7635503 -21.247301
-10.540279 -5.7492418 -20.972435
-10.60984 -6.7517185 -20.656248
-10.708756 -7.788188 -20.206629
-10.812208 -8.8463526 -19.736395
-10.936972 -9.9427013 -19.169285
-11.100453 -11.100456 -18.426189
-11.292009 -12.318559 -17.555477
-11.563405 -13.665843 -16.321863
-11.931427 -15.185452 -14.649036
-12.596886 -17.177574 -11.624221
-11.807414 18.891859 -9.8457308
-10.935095 16.402643 -14.207322
-10.553484 14.774878 -16.115377
-10.294228 13.382495 -17.411659
-10.092809 12.111371 -18.418751
-9.9353657 10.928901 -19.205965
-9.8092375 9.8092346 -19.836609
-9.710412 8.7393703 -20.330734
-9.6177244 7.6941781 -20.794174
-9.5445604 6.6811919 -21.159996
-9.4832201 5.6899328 -21.466694
-9.4293442 4.7146721 -21.736073
-9.3931808 3.7572718 -21.916889
-9.3635559 2.8090668 -22.065014
-9.3405104 1.8681011 -22.180244
-9.3289757 0.93289757 -22.237919
-9.3268127 -9.5367432e-07 -22.24873
-9.3304911 -0.93304825 -22.230341
-9.3420019 -1.8683987 -22.172787
-9.3668261 -2.810051 -22.048664
-9.3977623 -3.7591038 -21.893988
-9.4362564 -4.7181292 -21.701513
-9.4901838 -5.6941104 -21.431879
-9.5527201 -6.6869054 -21.119198
-9.6291485 -7.7033181 -20.737053
-9.7229977 -8.7506981 -20.267809
-9.8239689 -9.8239708 -19.762947
-9.9542036 -10.949624 -19.111778
-10.114474 -12.137371 -18.310427
-10.322326 -13.419026 -17.271166
-10.59556 -14.833786 -15.904992
-11.006676 -16.510014 -13.849421
-10.060148 17.88471 -12.993078
-9.6277695 16.04628 -15.395187
-9.3425627 14.532872 -16.979671
-9.1424484 13.205757 -18.091415
-8.9790297 11.972038 -18.999298
-8.8456774 10.81138 -19.740149
-8.7362604 9.706953 -20.348017
-8.6462107 8.6462078 -20.848293
-8.5672121 7.6152983 -21.287174
-8.5107975 6.6195097 -21.600586
-8.455122 5.6367464 -21.909901
-8.4150076 4.675005 -22.132755
-8.3833208 3.7259197 -22.308796
-8.3531237 2.7843742 -22.476553
-8.3395596 1.8532362 -22.551914
-8.3293428 0.9254818 -22.608675
-8.3222103 -9.5367432e-07 -22.648294
-8.3306599 -0.92563152 -22.601355
-8.3408794 -1.853528 -22.544579
-8.356039 -2.785347 -22.460354
-8.3873987 -3.7277327 -22.286137
-8.419117 -4.6772881 -22.109926
-8.4622612 -5.6415052 -21.870235
-8.5180311 -6.6251369 -21.560402
-8.5745153 -7.6217937 -21.246595
-8.657711 -8.6577129 -20.784401
-8.7480021 -9.720006 -20.282784
-8.8626204 -10.832094 -19.646015
-8.9964876 -11.995316 -18.902306
-9.1676817 -13.242206 -17.951231
-9.376709 -14.585994 -16.789965
-9.6675529 -16.112591 -15.17417
-10.160158 -18.062504 -12.437471
-9.4307413 20.040325 -9.9406605
-8.7175665 17.435133 -14.398007
-8.4153013 15.778689 -16.287163
-8.1989288 14.348122 -17.6395
-8.0357904 13.058158 -18.659107
-7.9059949 11.858989 -19.470329
-7.7943873 10.717281 -20.167875
-7.7069159 9.6336441 -20.714569
-7.6291776 8.5828266 -21.200436
-7.5645757 7.5645728 -21.604202
-7.513339 6.5741692 -21.924431
-7.4639602 5.5979719 -22.233047
-7.4313855 4.6446142 -22.436638
-7.402689 3.7013426 -22.615992
-7.3749743 2.7656116 -22.789209
-7.3600893 1.8400211 -22.882235
-7.3509903 0.91887283 -22.939106
-7.3474445 9.5367432e-07 -22.961266
-7.3521867 -0.91902351 -22.931629
-7.361289 -1.8403225 -22.874741
-7.3784828 -2.7669325 -22.767281
-7.4063735 -3.703187 -22.592962
-7.4350977 -4.6469374 -22.413435
-7.4701533 -5.6026154 -22.194338
-7.5199003 -6.5799117 -21.883419
-7.5712271 -7.5712261 -21.562626
-7.6387525 -8.5935974 -21.140596
-7.717196 -9.6464958 -20.650322
-7.8084054 -10.736557 -20.080263
-7.9212465 -11.881872 -19.375008
-8.0561829 -13.091299 -18.531654
-8.2217855 -14.388125 -17.496637
-8.4464436 -15.837083 -16.092527
-8.7670803 -17.534164 -14.088539
-7.8902225 19.161966 -12.524063
-7.4954658 17.132494 -15.343752
-7.2640247 15.565765 -16.996908
-7.0942674 14.188534 -18.209459
-6.9559584 12.918205 -19.197376
-6.8576665 11.756 -19.899466
-6.7630877 10.627708 -20.575024
-6.6943955 9.5634193 -21.065689
-6.6297565 8.5239716 -21.527397
-6.5771275 7.5167146 -21.903316
-6.5341287 6.5341272 -22.210449
-6.4923615 5.5648804 -22.508787
-6.4660311 4.6185923 -22.696865
-6.4419751 3.6811275 -22.868687
-6.4187741 2.7509041 -23.034405
-6.4026117 1.8293161 -23.149857
-6.3952322 0.91360378 -23.202568
-6.3952322 -1.9073486e-06 -23.202568
-6.3952498 -0.9136095 -23.202438
-6.4047413 -1.8299265 -23.134647
-6.421464 -2.7520571 -23.015196
-6.4450164 -3.6828699 -22.84697
-6.469243 -4.6208887 -22.67392
-6.4976978 -5.5694561 -22.470669
-6.5395532 -6.5395527 -22.171703
-6.5828929 -7.5233068 -21.862129
-6.6380191 -8.5345955 -21.468372
-6.7028203 -9.5754576 -21.005508
-6.7751293 -10.646629 -20.489017
-6.8700681 -11.77726 -19.810883
-6.9730973 -12.95004 -19.074961
-7.1134429 -14.226888 -18.072491
-7.2927127 -15.627245 -16.79199
-7.5375986 -17.228796 -15.042807
-7.9758711 -19.369972 -11.912287
-6.6204667 18.757988 -13.71224
-6.3495598 16.932159 -15.969799
-6.1685061 15.421261 -17.47858
-6.0344706 14.080433 -18.595539
-5.9234576 12.834156 -19.520653
-5.8376613 11.675321 -20.23562
-5.7594466 10.558985 -20.887405
-5.7014909 9.5024834 -21.370373
-5.64469 8.4670334 -21.84371
-5.6033955 7.4711938 -22.187832
-5.5675445 6.4954691 -22.486591
-5.5326409 5.5326405 -22.777454
-5.512188 4.5934906 -22.947893
-5.4920735 3.6613827 -23.115517
-5.4727411 2.7363701 -23.276619
-5.4638829 1.8212929 -23.350435
-5.457243 0.90953922 -23.405771
-5.4539905 -0 -23.432873
-5.4581223 -0.90968895 -23.398441
-5.4647641 -1.8215876 -23.34309
-5.4746962 -2.7373486 -23.260332
-5.494668 -3.6631136 -23.093897
-5.5147858 -4.5956545 -22.926249
-5.5366864 -5.5366888 -22.743744
-5.5721397 -6.5008287 -22.448299
-5.6080337 -7.4773779 -22.149185
-5.6520591 -8.4780884 -21.782303
-5.7092791 -9.5154686 -21.30547
-5.767756 -10.574219 -20.818163
-5.8495626 -11.699128 -20.13644
-5.9360948 -12.861538 -19.415342
-6.0522308 -14.121875 -18.447536
-6.1881752 -15.470439 -17.314667
-6.3733888 -16.995705 -15.771224
-6.6539798 -18.852943 -13.432963
-5.895401 21.223444 -9.9287834
-5.4276748 18.454094 -14.606045
-5.2301426 16.736454 -16.581367
-5.100421 15.301266 -17.878582
-4.9933963 13.981509 -18.948833
-4.908793 12.762861 -19.794865
-4.8380537 11.61133 -20.502258
-4.779211 10.514263 -21.090683
-4.7309179 9.4618349 -21.573618
-4.6871238 8.4368229 -22.011555
-4.652472 7.4439521 -22.358078
-4.6217375 6.4704304 -22.665424
-4.594408 5.5132856 -22.938715
-4.5763373 4.5763369 -23.119423
-4.5591054 3.6472836 -23.29174
-4.5441065 2.7264624 -23.441729
-4.5384288 1.8153696 -23.498507
-4.5328422 0.90656757 -23.554379
-4.528645 -9.5367432e-07 -23.596348
-4.5336723 -0.90673542 -23.546076
-4.5392609 -1.8157082 -23.490185
-4.5458398 -2.7275057 -23.4244
-4.5616517 -3.6493206 -23.266281
-4.5789156 -4.5789185 -23.093637
-4.5973616 -5.5168333 -22.90918
-4.6264811 -6.4770737 -22.617987
-4.6573868 -7.4518189 -22.308929
-4.691524 -8.4447441 -21.967556
-4.7388315 -9.477663 -21.494482
-4.7873588 -10.532187 -21.009209
-4.8495436 -11.638907 -20.387363
-4.9204412 -12.793148 -19.678385
-5.0085964 -14.024069 -18.796831
-5.1118765 -15.335629 -17.764029
-5.2559047 -16.818895 -16.323751
-5.4708562 -18.60091 -14.174234
-4.5638614 20.537376 -11.834526
-4.3110647 18.322025 -14.994485
-4.1595759 16.638302 -16.888102
-4.0535607 15.200851 -18.213289
-3.9725888 13.90406 -19.225435
-3.9056599 12.693392 -20.062048
-3.8545079 11.563524 -20.701447
-3.8078299 10.471531 -21.284924
-3.7695732 9.4239292 -21.763136
-3.7376254 8.4096546 -22.162479
-3.7089696 7.4179392 -22.520679
-3.6859455 6.4504032 -22.808475
-3.6656985 5.4985476 -23.061562
-3.6500459 4.5625553 -23.257225
-3.6372778 3.6372776 -23.416821
-3.6266212 2.7199659 -23.550034
-3.6206946 1.8103456 -23.624111
-3.6167173 0.90417862 -23.673828
-3.6146352 -0 -23.699852
-3.6170526 -0.90426254 -23.66964
-3.6217234 -1.8108616 -23.611252
-3.6280315 -2.7210236 -23.532402
-3.6387789 -3.6387787 -23.398056
-3.6528108 -4.5660133 -23.222656
-3.6681428 -5.5022163 -23.03101
-3.6890931 -6.455915 -22.769131
-3.7141595 -7.4283204 -22.455801
-3.7400467 -8.4151058 -22.132214
-3.7760971 -9.4402447 -21.681583
-3.8147132 -10.490463 -21.198883
-3.8601947 -11.580584 -20.630363
-3.9159846 -12.72695 -19.932991
-3.9801548 -13.930545 -19.130859
-4.0658898 -15.247089 -18.05917
-4.1778946 -16.71158 -16.659111
-4.3326845 -18.41391 -14.724238
-4.6377025 -20.869661 -10.911518
-3.3841317 20.304789 -12.480601
-3.2103236 18.191833 -15.3774
-3.1071823 16.571638 -17.096428
-3.028213 15.141063 -18.412579
-2.9718297 13.868538 -19.352303
-2.9205699 12.6558 -20.206631
-2.882509 11.530036 -20.840981
-2.8461487 10.435876 -21.446987
-2.8186042 9.3953457 -21.906059
-2.7942138 8.3826408 -22.312565
-2.7723176 7.3928452 -22.677502
-2.7570465 6.4331083 -22.932024
-2.7419503 5.483901 -23.183624
-2.7294624 4.5491028 -23.391758
-2.7214608 3.6286135 -23.525112
-2.7134986 2.7134991 -23.657822
-2.7080262 1.8053503 -23.749027
-2.7063563 0.90211868 -23.776859
-2.704802 -1.9073486e-06 -23.802765
-2.7054083 -0.90180397 -23.792658
-2.7098656 -1.8065767 -23.718369
-2.714582 -2.7145824 -23.639767
-2.7212231 -3.6282988 -23.529079
-2.7324054 -4.5540085 -23.342707
-2.7438438 -5.4876871 -23.152067
-2.7578733 -6.4350381 -22.918242
-2.7769027 -7.4050751 -22.601088
-2.7961962 -8.3885899 -22.279526
-2.8218007 -9.4060049 -21.852785
-2.8519411 -10.457119 -21.350439
-2.8850069 -11.540027 -20.799349
-2.9285073 -12.690199 -20.074343
-2.9769151 -13.892271 -19.26754
-3.0388787 -15.194396 -18.234818
-3.1170228 -16.624123 -16.932413
-3.2262545 -18.282106 -15.111891
-3.4171298 -20.502779 -11.930635
-2.2430835 20.18775 -12.805708
-2.1286995 18.093948 -15.665304
-2.0631881 16.505501 -17.303097
-2.0141842 15.10638 -18.528187
-1.9762621 13.833835 -19.476246
-1.9446112 12.639971 -20.267515
-1.9187568 11.512541 -20.913876
-1.8952144 10.423679 -21.502436
-1.8773868 9.3869362 -21.948122
-1.8608865 8.3739862 -22.360636
-1.8467005 7.3867998 -22.715282
-1.8358815 6.4255819 -22.98576
-1.8254523 5.4763584 -23.246487
-1.8172628 4.5431566 -23.451225
-1.8117435 3.6234865 -23.589207
-1.8062526 2.7093773 -23.726479
-1.802555 1.8025532 -23.818924
-1.8014804 0.90073776 -23.845787
-1.8004018 -9.5367432e-07 -23.872749
-1.8005328 -0.90026569 -23.869474
-1.8037722 -1.8037729 -23.788488
-1.8070284 -2.7105427 -23.707085
-1.8112847 -3.6225672 -23.600681
-1.8189524 -4.5473824 -23.408981
-1.8268617 -5.480588 -23.211254
-1.8362638 -6.4269233 -22.976202
-1.8490986 -7.3963957 -22.655331
-1.8624749 -8.3811359 -22.320925
-1.8791409 -9.3957043 -21.904274
-1.8988878 -10.443884 -21.410599
-1.9212596 -11.52756 -20.851307
-1.9482371 -12.663542 -20.176868
-1.9805187 -13.863632 -19.369829
-2.0189354 -15.142016 -18.409414
-2.0702822 -16.562258 -17.125746
-2.1404862 -18.194134 -15.37064
-2.2629249 -20.366325 -12.309672
-1.1151103 20.071985 -13.127281
-1.0627295 18.066399 -15.746324
-1.030616 16.489857 -17.35199
-1.0057137 15.085702 -18.597111
-0.98582757 13.801584 -19.591419
-0.97108811 12.624145 -20.328388
-0.95797902 11.495749 -20.983841
-0.9470467 10.417513 -21.53046
-0.93803138 9.380312 -21.981228
-0.92961812 8.3665609 -22.401894
-0.92318344 7.3854666 -22.723625
-0.91746187 6.4222326 -23.009705
-0.91225278 5.4735165 -23.270157
-0.90865451 4.543272 -23.450071
-0.90558624 3.622344 -23.603481
-0.90284252 2.7085276 -23.740669
-0.90137082 1.8027391 -23.814253
-0.90052336 0.90052319 -23.856627
-0.89998698 -0 -23.883446
-0.90042263 -0.900424 -23.861666
-0.901636 -1.8032742 -23.800995
-0.90326065 -2.7097826 -23.719761
-0.905729 -3.6229134 -23.596346
-0.90907294 -4.5453625 -23.429153
-0.91302401 -5.4781466 -23.231596
-0.91801935 -6.4261379 -22.981831
-0.92386979 -7.3909583 -22.689304
-0.93052661 -8.3747396 -22.356466
-0.93910706 -9.3910713 -21.927444
-0.948241 -10.430651 -21.470747
-0.9595958 -11.515148 -20.903006
-0.97276413 -12.645935 -20.244589
-0.98822206 -13.835108 -19.471695
-1.0083133 -15.124701 -18.467133
-1.0342661 -16.548258 -17.169491
-1.068832 -18.170143 -15.441198
-1.1257749 -20.263952 -12.594048
0 20.067673 -13.139258
0 18.073744 -15.724727
0 16.493816 -17.339611
0 15.102792 -18.540159
0 13.812246 -19.553339
0 12.630589 -20.303617
0 11.492702 -20.996531
0 10.41448 -21.544252
0 9.3748207 -22.008692
0 8.3603096 -22.436638
0 7.3841314 -22.731966
0 6.4202909 -23.023561
0 5.4721184 -23.281796
0 4.543541 -23.447374
0 3.6216707 -23.611889
0 2.7077913 -23.752949
0 1.8030539 -23.806423
0 0.9004612 -23.85965
0 -9.5367432e-07 -23.894142
0 -0.9005909 -23.853222
0 -1.8033123 -23.799984
0 -2.7090282 -23.732307
0 -3.6232662 -23.59201
0 -4.5455446 -23.427355
0 -5.4756918 -23.25205
0 -6.4253483 -22.987461
0 -7.3900237 -22.695141
0 -8.3683529 -22.391953
0 -9.3864393 -21.950588
0 -10.428225 -21.481781
0 -11.513641 -20.909298
0 -12.653009 -20.217377
0 -13.848843 -19.422638
0 -15.13855 -18.420965
0 -16.552355 -17.156691
0 -18.175156 -15.42646
0 -20.296894 -12.502539
1.122414 20.203449 -12.762098
1.0661057 18.123796 -15.577514
1.0311114 16.497782 -17.327227
1.0083797 15.125693 -18.463814
0.98836166 13.837062 -19.46471
0.97319949 12.651592 -20.222822
0.95928401 11.51141 -20.918594
0.94860154 10.434616 -21.452717
0.93910706 9.3910694 -21.927444
0.93053734 8.374835 -22.355927
0.92414314 7.3931446 -22.675644
0.91803235 6.4262266 -22.981176
0.91280389 5.4768229 -23.242603
0.90934002 4.5466986 -23.415794
0.90590239 3.6236076 -23.587679
0.90305275 2.7091579 -23.730154
0.90194178 1.8038826 -23.785709
0.90083092 0.90082836 -23.841251
0.89987373 -9.5367432e-07 -23.889109
0.90097713 -0.90097713 -23.833935
0.90208334 -1.8041687 -23.778629
0.90319473 -2.7095852 -23.723061
0.90633607 -3.6253452 -23.56599
0.90977186 -4.5488605 -23.394199
0.9132365 -5.4794207 -23.220974
0.91878456 -6.4314947 -22.943567
0.92490005 -7.3992019 -22.637796
0.93142074 -8.3827858 -22.31176
0.94024569 -9.4024601 -21.87051
0.94976056 -10.447367 -21.39477
0.96130127 -11.535614 -20.817732
0.9747529 -12.671789 -20.145151
0.9911682 -13.876354 -19.324387
1.0101647 -15.152472 -18.374559
1.0359807 -16.575691 -17.083761
1.072247 -18.228199 -15.270443
1.133467 -20.402405 -12.20945
2.260112 20.341005 -12.379995
2.1455379 18.237072 -15.244349
2.0721214 16.576971 -17.079758
2.0224245 15.16818 -18.322189
1.9807868 13.865508 -19.363125
1.9503386 12.677202 -20.124329
1.9225911 11.535545 -20.81802
1.9016368 10.459001 -21.341877
1.8818053 9.4090252 -21.837662
1.8657465 8.3958597 -22.23913
1.8521634 7.4086523 -22.578709
1.8398857 6.4395971 -22.885656
1.8303319 5.4909954 -23.124495
1.8226558 4.5566378 -23.316397
1.8157506 3.6314983 -23.489033
1.8107802 2.7161703 -23.613289
1.8078811 1.8078823 -23.685768
1.8056546 0.90282536 -23.74143
1.8045611 -9.5367432e-07 -23.768766
1.8059231 -0.90296268 -23.734715
1.8081452 -1.8081474 -23.679165
1.8109484 -2.716423 -23.609089
1.8165755 -3.633152 -23.468405
1.8234562 -4.5586414 -23.296391
1.8309411 -5.4928226 -23.109266
1.8416333 -6.4457173 -22.841959
1.8535662 -7.4142652 -22.54364
1.8675114 -8.4038029 -22.195013
1.884439 -9.4221954 -21.771826
1.9030144 -10.466579 -21.307436
1.9270751 -11.562452 -20.705917
1.9524685 -12.691047 -20.071081
1.9862759 -13.903932 -19.225895
2.0257981 -15.193487 -18.237844
2.0819271 -16.655416 -16.83462
2.1557779 -18.324112 -14.98835
2.2847981 -20.563187 -11.762837
3.4601641 20.760986 -11.21339
3.2388411 18.353436 -14.902105
3.1272504 16.678667 -16.761959
3.0501206 15.250604 -18.047451
2.9867876 13.93834 -19.103004
2.937042 12.72718 -19.932098
2.8930986 11.572393 -20.664486
2.8596113 10.485239 -21.22261
2.8282399 9.4274673 -21.745464
2.8056548 8.4169636 -22.121887
2.7850571 7.4268174 -22.465178
2.7655914 6.4530458 -22.789604
2.752676 5.5053501 -23.004864
2.7405026 4.5675049 -23.207752
2.7295704 3.6394272 -23.389957
2.7234182 2.7234163 -23.492489
2.7183959 1.8122625 -23.576199
2.7144902 0.90483093 -23.641289
2.7141011 1.9073486e-06 -23.647778
2.7157578 -0.90525341 -23.620171
2.7182121 -1.8121433 -23.579262
2.7236719 -2.7236719 -23.488266
2.7321579 -3.6428776 -23.34683
2.7410784 -4.5684633 -23.198156
2.7535944 -5.5071898 -22.989555
2.769717 -6.4626727 -22.720844
2.7860296 -7.4294128 -22.448967
2.8083069 -8.424922 -22.077681
2.8338351 -9.4461193 -21.65221
2.8606026 -10.488876 -21.206091
2.9000421 -11.600168 -20.548765
2.940629 -12.742727 -19.872311
2.9945321 -13.974483 -18.973927
3.0576553 -15.288278 -17.921873
3.1393611 -16.743261 -16.56011
3.2545521 -18.442463 -14.640261
3.52249 -21.134939 -10.174633
4.3699398 18.572245 -14.258548
4.1983466 16.793388 -16.40346
4.0898781 15.337042 -17.759319
4.0058174 14.020358 -18.810081
3.9366658 12.794161 -19.674473
3.8791435 11.637428 -20.393501
3.8323271 10.5389 -20.978708
3.7882426 9.4706059 -21.529766
3.7563844 8.4518642 -21.927992
3.7272041 7.4544063 -22.292747
3.699568 6.4742441 -22.638197
3.6817918 5.522686 -22.860397
3.664645 4.5808058 -23.074738
3.6479979 3.6479969 -23.282825
3.6409402 2.7307034 -23.371042
3.634218 1.8171091 -23.45507
3.6275101 0.90687561 -23.538919
3.6285326 -1.9073486e-06 -23.526138
3.6307533 -0.90768909 -23.498375
3.6329768 -1.8164883 -23.470583
3.6412802 -2.7309599 -23.366795
3.6531739 -3.6531754 -23.218124
3.6651769 -4.5814734 -23.068085
3.6830456 -5.5245686 -22.844727
3.7057557 -6.4850721 -22.560852
3.7287369 -7.4574728 -22.273584
3.7598622 -8.4596939 -21.884514
3.7959726 -9.4899311 -21.43314
3.8360498 -10.549137 -20.932171
3.8862991 -11.658895 -20.304058
3.9433343 -12.815837 -19.591116
4.0144119 -14.050445 -18.702648
4.1027694 -15.385386 -17.598177
4.214994 -16.859978 -16.195374
4.4013305 -18.705656 -13.866164
5.5546494 18.885807 -13.336301
5.3149114 17.007715 -15.733683
5.1577053 15.473116 -17.30574
5.0401449 14.112404 -18.481346
4.9478102 12.864305 -19.404694
4.8766003 11.70384 -20.116793
4.8154674 10.594028 -20.728123
4.7612519 9.5225019 -21.270277
4.7203565 8.4966393 -21.679232
4.6823368 7.491735 -22.059433
4.6496353 6.50949 -22.386444
4.6249256 5.5499105 -22.633545
4.6032801 4.603281 -22.849995
4.5844598 3.6675663 -23.038193
4.573307 2.7439833 -23.149727
4.564395 1.825758 -23.238848
4.5563817 0.91127491 -23.318981
4.5568204 -1.9073486e-06 -23.314594
4.5597644 -0.91195297 -23.285149
4.5626993 -1.8250809 -23.255804
4.5738397 -2.7443056 -23.144398
4.5886302 -3.6709042 -22.996492
4.6037803 -4.6037807 -22.844994
4.6274524 -5.5529432 -22.608271
4.6549211 -6.5168881 -22.333586
4.6847086 -7.4955354 -22.035713
4.725069 -8.5051231 -21.632105
4.7686176 -9.5372343 -21.196623
4.8227558 -10.610065 -20.655237
4.8842831 -11.722281 -20.039968
4.9589567 -12.893288 -19.293228
5.0528064 -14.14786 -18.354731
5.1762543 -15.528765 -17.120251
5.3390179 -17.084856 -15.492617
5.595171 -19.023579 -12.931088
6.8433175 19.3894 -11.855147
6.4640217 17.237389 -15.01595
6.2554932 15.638733 -16.753683
6.1065884 14.248705 -17.994558
5.9891386 12.976467 -18.973305
5.8941479 11.788296 -19.764898
5.8146677 10.660223 -20.427231
5.7455144 9.5758562 -21.00351
5.6958904 8.5438328 -21.417042
5.6471167 7.5294867 -21.82349
5.6101027 6.5451193 -22.131939
5.5797882 5.5797873 -22.384565
5.5511708 4.6259737 -22.623037
5.5310402 3.6873589 -22.790794
5.5166764 2.758337 -22.910494
5.5040178 1.8346739 -23.01598
5.4970765 0.91617966 -23.073822
5.4970765 -9.5367432e-07 -23.073826
5.4983444 -0.91639328 -23.063259
5.5040336 -1.8346777 -23.01585
5.5183477 -2.7591734 -22.896568
5.5332117 -3.6888103 -22.772697
5.5534062 -4.6278381 -22.604414
5.5834827 -5.5834827 -22.353775
5.6138706 -6.5495148 -22.100544
5.6531348 -7.5375147 -21.773342
5.7021141 -8.5531693 -21.365181
5.7519493 -9.5865841 -20.949883
5.8248062 -10.678813 -20.342745
5.9045653 -11.809132 -19.678083
6.0040183 -13.008707 -18.849316
6.1246595 -14.290872 -17.843964
6.2782321 -15.69558 -16.564194
6.4936061 -17.316284 -14.769406
6.934021 -19.646391 -11.099289
7.6975913 17.594494 -13.900001
7.3932333 15.84264 -16.073986
7.2054291 14.41086 -17.415442
7.0577946 13.107332 -18.469975
6.9403362 11.897718 -19.308966
6.8436046 10.754233 -19.999907
6.7611794 9.6588287 -20.588654
6.6958284 8.6089211 -21.055454
6.6345201 7.5823088 -21.493368
6.5876093 6.5876093 -21.828442
6.549706 5.6140299 -22.099182
6.5122361 4.6515942 -22.366821
6.48879 3.70788 -22.534302
6.4709525 2.7732639 -22.661705
6.4541006 1.8440275 -22.782078
6.4479303 0.92113209 -22.826147
6.4479303 -1.9073486e-06 -22.826149
6.4479303 -0.921134 -22.826147
6.4562645 -1.8446465 -22.766619
6.4732213 -2.7742386 -22.645504
6.4911079 -3.7092047 -22.517742
6.5170407 -4.6550274 -22.332506
6.5545659 -5.6182022 -22.064472
6.592525 -6.5925245 -21.793331
6.6423445 -7.5912519 -21.437473
6.7037978 -8.6191692 -20.998522
6.7712188 -9.673172 -20.516947
6.8556418 -10.773153 -19.913925
6.9552717 -11.923325 -19.202286
7.0732408 -13.13602 -18.35965
7.2278309 -14.455664 -17.255432
7.425302 -15.911363 -15.844923
7.7537322 -17.722816 -13.498998
9.0810404 18.162083 -12.126289
8.628458 16.178358 -14.954934
8.3646669 14.638167 -16.603624
8.1622 13.263574 -17.869043
8.013979 12.020967 -18.795427
7.8931246 10.853048 -19.550768
7.8013783 9.7517214 -20.12418
7.7167335 8.681324 -20.65321
7.6497598 7.6497598 -21.071796
7.5916986 6.6427364 -21.434675
7.5455976 5.6591978 -21.722809
7.5053883 4.6908684 -21.974119
7.4741874 3.737093 -22.169128
7.4534149 2.7950287 -22.29895
7.4342608 1.8585663 -22.418667
7.4250197 0.92812729 -22.476421
7.4250197 -9.5367432e-07 -22.476419
7.4251914 -0.92814827 -22.475349
7.4355917 -1.858901 -22.410349
7.4560704 -2.7960272 -22.282356
7.4772043 -3.7386036 -22.150269
7.5095916 -4.6934986 -21.947849
7.5512414 -5.6634293 -21.687536
7.5991163 -6.6492276 -21.388321
7.6573138 -7.6573148 -21.024588
7.725996 -8.6917458 -20.595322
7.8130741 -9.7663412 -20.051085
7.9050965 -10.869509 -19.475941
8.0314035 -12.047106 -18.686523
8.1819916 -13.295736 -17.745348
8.3916035 -14.685306 -16.435276
8.6587534 -16.235167 -14.765588
9.1561584 -18.312317 -11.656801
9.9689121 16.614853 -13.499948
9.5766459 14.897005 -15.679207
9.3280907 13.473907 -17.060074
9.1477327 12.196976 -18.062061
8.9873037 10.984484 -18.953327
8.873209 9.8591213 -19.587189
8.7619486 8.7619457 -20.205305
8.6851254 7.7201104 -20.632099
8.6185789 6.7033381 -21.001802
8.5576696 5.7051144 -21.340187
8.5182819 4.7323771 -21.559008
8.4812422 3.7694397 -21.76479
8.4514704 2.8171558 -21.930183
8.4361105 1.874692 -22.015518
8.4241858 0.93601894 -22.081766
8.4187746 9.5367432e-07 -22.111828
8.4257298 -0.93619251 -22.073187
8.4376335 -1.8750296 -22.007051
8.454505 -2.8181686 -21.913326
8.4859877 -3.7715492 -21.73842
8.5230694 -4.7350392 -21.532412
8.5641212 -5.709414 -21.304342
8.6271019 -6.70997 -20.954454
8.6937542 -7.7277818 -20.584162
8.775939 -8.775938 -20.127579
8.8872032 -9.874671 -19.509443
9.0075397 -11.009216 -18.84091
9.1674204 -12.223229 -17.952682
9.3604069 -13.520589 -16.880539
9.617156 -14.960023 -15.45415
10.029563 -16.715937 -13.163002
11.625627 17.438437 -10.754665
10.924033 15.293647 -14.262629
10.571233 13.742601 -16.026632
10.322127 12.386553 -17.272158
10.137893 11.15168 -18.193335
9.9925909 9.992588 -18.919842
9.8706121 8.8835516 -19.529737
9.7685947 7.8148746 -20.039822
9.6872921 6.7811046 -20.446337
9.6110897 5.7666497 -20.827351
9.5622854 4.7811403 -21.071373
9.5173788 3.8069515 -21.2959
9.4759884 2.8427954 -21.502853
9.4615574 1.8923082 -21.57501
9.4471703 0.9447155 -21.646946
9.4347076 -9.5367432e-07 -21.709259
9.449029 -0.94490337 -21.637653
9.4633932 -1.8926792 -21.565826
9.4798403 -2.8439522 -21.483597
9.5228701 -3.8091516 -21.268442
9.5677433 -4.7838702 -21.044079
9.6187305 -5.7712369 -20.789146
9.6967783 -6.7877469 -20.398903
9.780262 -7.824213 -19.981485
9.8800669 -8.8920612 -19.482464
10.008813 -10.008813 -18.838732
10.158981 -11.174878 -18.087891
10.347816 -12.417381 -17.143717
10.600272 -13.780354 -15.881435
10.982862 -15.376007 -13.968488
11.833985 -17.750978 -9.7128677
12.532314 15.950216 -11.91773
11.940402 14.111381 -14.608244
11.594802 12.648875 -16.17915
11.357691 11.357689 -17.256927
11.155055 10.140959 -18.178001
11.011578 9.0094748 -18.83017
10.882505 7.9145503 -19.416859
10.794801 6.8694196 -19.815521
10.711543 5.842658 -20.193962
10.645671 4.8389416 -20.493385
10.597581 3.8536654 -20.711975
10.55442 2.8784781 -20.908157
10.530059 1.9145555 -21.018892
10.515358 0.95594215 -21.085712
10.507025 2.8610229e-06 -21.123589
10.515764 -0.95597839 -21.083866
10.533662 -1.9152117 -21.002512
10.559049 -2.8797417 -20.887121
10.6005 -3.8547268 -20.698708
10.655989 -4.8436337 -20.446484
10.718646 -5.8465371 -20.161678
10.800168 -6.8728347 -19.791122
10.906915 -7.9323049 -19.305912
11.016272 -9.0133162 -18.80883
11.185614 -10.168742 -18.039097
11.378463 -11.378464 -17.162508
11.640936 -12.699204 -15.969449
11.984584 -14.163601 -14.407415
12.655881 -16.107487 -11.356063
13.595571 14.72853 -12.234589
13.014961 13.014963 -14.653786
12.671868 11.615877 -16.083344
12.42317 10.352642 -17.119587
12.239614 9.1797104 -17.884403
12.078114 8.0520744 -18.557323
11.957434 6.9751697 -19.060154
11.85477 5.9273825 -19.487923
11.76309 4.9012852 -19.869926
11.709873 3.9032907 -20.091656
11.661256 2.9153137 -20.294231
11.625416 1.9375687 -20.443565
11.616043 0.96800423 -20.482616
11.606723 -0 -20.52145
11.609095 -0.96742535 -20.511564
11.637361 -1.9395609 -20.393795
11.665765 -2.9164438 -20.275446
11.708277 -3.90276 -20.098309
11.783944 -4.909977 -19.783031
11.860559 -5.9302807 -19.463802
11.968366 -6.9815459 -19.014606
12.100783 -8.0671902 -18.462866
12.253673 -9.1902542 -17.825827
12.452855 -10.377381 -16.995903
12.703799 -11.645148 -15.950303
13.073606 -13.073606 -14.409443
13.669825 -14.808977 -11.925195
14.702395 13.571441 -12.33512
14.166477 11.98702 -14.396346
13.816579 10.628137 -15.742108
13.534322 9.3699141 -16.827713
13.352386 8.2168503 -17.52747
13.190479 7.1025639 -18.150187
13.079428 6.0366588 -18.577303
12.975462 4.9905605 -18.977177
12.903786 3.9703941 -19.252853
12.847439 2.9647932 -19.46957
12.799057 1.9690847 -19.655655
12.786344 0.98356533 -19.704552
12.777323 -1.9073486e-06 -19.739248
12.778572 -0.98296928 -19.734446
12.813011 -1.9712343 -19.601986
12.852965 -2.9660664 -19.448317
12.904542 -3.9706278 -19.249943
12.989401 -4.995923 -18.923565
13.091584 -6.0422697 -18.53055
13.207718 -7.1118517 -18.083879
13.374454 -8.2304344 -17.442589
13.560598 -9.3881092 -16.726648
13.855931 -10.658408 -15.590752
14.227177 -12.038382 -14.162888
14.884157 -13.739223 -11.636036
16.1376 12.679543 -11.248506
15.402708 11.001932 -13.873125
15.035355 9.6655846 -15.185102
14.766258 8.4378605 -16.146158
14.549583 7.2747908 -16.919998
14.390055 6.1671662 -17.489742
14.25813 5.0921874 -17.960901
14.148479 4.0424228 -18.352512
14.089679 3.0192146 -18.562519
14.035648 2.0050917 -18.755484
14.008897 1.0006332 -18.851027
14.008897 1.9073486e-06 -18.851025
14.008897 -1.000638 -18.851025
14.042471 -2.0060663 -18.73111
14.096644 -3.0207095 -18.537642
14.156304 -4.0446577 -18.32457
14.274393 -5.0979996 -17.902824
14.406112 -6.1740508 -17.432394
14.568024 -7.2840099 -16.854139
14.792341 -8.4527664 -16.053009
15.068743 -9.6870489 -15.065856
15.503461 -11.073903 -13.513289
16.310404 -12.815317 -10.631352
16.871101 10.122662 -12.645787
16.398853 8.7460537 -14.219953
16.079473 7.5037546 -15.28455
15.825244 6.3300958 -16.131981
15.686758 5.228919 -16.593605
15.554181 4.1477799 -17.035524
15.466771 3.0933533 -17.326895
15.408712 2.0544934 -17.520424
15.360322 1.0240211 -17.681728
15.360322 -3.8146973e-06 -17.681725
15.373823 -1.0249214 -17.636719
15.406353 -2.0541797 -17.528288
15.47917 -3.0958343 -17.285564
15.570386 -4.1521044 -16.98151
15.691602 -5.2305355 -16.577457
15.872022 -6.3488088 -15.976061
16.091747 -7.5094852 -15.243634
16.470751 -8.7844009 -13.980293
16.967939 -10.180767 -12.322996
18.836712 9.418355 -10.018071
18.048006 7.8960004 -12.482778
17.590527 6.5964456 -13.912399
17.348957 5.4215446 -14.667309
17.151896 4.2879763 -15.28312
17.017666 3.1908131 -15.702595
16.934219 2.116775 -15.963358
16.864614 1.0540385 -16.180874
16.86268 -1.9073486e-06 -16.186918
16.885298 -1.0553308 -16.116241
16.930824 -2.1163568 -15.973972
17.042053 -3.1953874 -15.626381
17.164761 -4.2911921 -15.242918
17.384628 -5.4326982 -14.555836
17.624907 -6.6093411 -13.804962
18.129087 -7.9314775 -12.229401
19.702711 5.7949166 -10.933646
19.225803 4.5237164 -12.336311
18.988983 3.3509946 -13.032848
18.821877 2.2143388 -13.524339
18.684637 1.0990944 -13.927979
18.659466 -2.8610229e-06 -14.002013
18.694853 -1.0996985 -13.897934
18.842684 -2.2167854 -13.463139
19.011154 -3.3549109 -12.96764
19.27335 -4.5349064 -12.19647
19.803913 -5.8246813 -10.635994
