# .PCD v0.7 - Point Cloud Data file format
VERSION 0.7
FIELDS x y z
SIZE 4 4 4
TYPE F F F
COUNT 1 1 1
WIDTH 1060
HEIGHT 1
VIEWPOINT 0 0 0 1 0 0 0
POINTS 1060
DATA ascii
-22.971193 1.2090073 -8.4322891
-22.764746 -1.9073486e-06 -8.9755716
-21.592407 7.1974697 -8.9038906
-20.685663 5.746017 -11.422617
-20.685442 4.5967646 -11.423237
-20.685293 3.4475479 -11.423645
-20.685221 2.298357 -11.42385
-20.685368 1.1491852 -11.423442
-20.685368 -4.2915344e-06 -11.42344
-20.685368 -1.149189 -11.423439
-20.685221 -2.2983589 -11.423853
-20.685221 -3.4475353 -11.423853
-20.685368 -4.5967474 -11.423439
-20.751614 -5.7643375 -11.239426
-22.247433 -7.4158101 -7.0843706
-19.836512 9.3348312 -10.540112
-19.15184 7.8860521 -12.553855
-18.808933 6.6384459 -13.562405
-18.808224 5.5318303 -13.564494
-18.808481 4.4255257 -13.563732
-18.808094 3.3190737 -13.564874
-18.808094 2.212718 -13.564875
-18.808289 1.1063714 -13.564304
-18.808289 -2.8610229e-06 -13.564304
-18.80777 -1.1063409 -13.565826
-18.808157 -2.2127237 -13.564684
-18.807835 -3.3190312 -13.565634
-18.807899 -4.4253874 -13.565443
-18.807964 -5.5317564 -13.565256
-18.807188 -6.6378307 -13.567534
-19.2202 -7.9142008 -12.352799
-20.04723 -9.4339886 -9.9203587
-18.998438 11.874022 -9.5126772
-18.048702 10.152395 -12.480603
-17.559155 8.7795753 -14.010435
-17.24501 7.5446916 -14.992138
-17.065945 6.3997273 -15.551719
-17.066284 5.3332129 -15.550661
-17.065435 4.2663589 -15.553308
-17.065378 3.199759 -15.553488
-17.065832 2.1332288 -15.552073
-17.066057 1.0666289 -15.551365
-17.066002 -4.7683716e-07 -15.551542
-17.065096 -1.0665693 -15.554371
-17.065945 -2.133245 -15.551718
-17.06572 -3.1998239 -15.552428
-17.065378 -4.2663455 -15.553485
-17.065491 -5.3329682 -15.553129
-17.064928 -6.3993473 -15.554899
-17.302902 -7.5700202 -14.811232
-17.627621 -8.8138113 -13.796475
-18.110594 -10.187211 -12.287189
-19.351288 -12.094555 -8.4100266
-17.319441 12.700922 -11.151322
-16.616913 11.077942 -13.493089
-16.213188 9.7279129 -14.838833
-15.927794 8.4948235 -15.790151
-15.699204 7.3262949 -16.552111
-15.536209 6.2144828 -17.09543
-15.444058 5.1480184 -17.402603
-15.444405 4.1185031 -17.401449
-15.444009 3.0888023 -17.402767
-15.444405 2.0592523 -17.401451
-15.444652 1.0296431 -17.400625
-15.444058 9.5367432e-07 -17.402601
-15.444009 -1.0296049 -17.402767
-15.444551 -2.0592747 -17.400955
-15.444355 -3.088871 -17.401611
-15.444058 -4.1184158 -17.402605
-15.443811 -5.1479373 -17.403425
-15.552226 -6.2208929 -17.042042
-15.731642 -7.3414326 -16.443991
-15.953376 -8.5084667 -15.704878
-16.256157 -9.7536945 -14.695604
-16.678343 -11.118893 -13.288323
-17.464243 -12.807112 -10.668653
-15.956715 13.677182 -11.894534
-15.368139 12.074968 -13.996586
-14.975585 10.696846 -15.398563
-14.71562 9.4600391 -16.327015
-14.506859 8.2896318 -17.072586
-14.336757 7.168376 -17.680098
-14.210597 6.0902557 -18.130663
-14.108429 5.038722 -18.495548
-14.015607 4.0044599 -18.827057
-13.952499 2.9898224 -19.052439
-13.931663 1.9902372 -19.126858
-13.931705 0.995121 -19.126709
-13.930929 -9.5367432e-07 -19.129478
-13.93149 -0.99510765 -19.127476
-13.931834 -1.9902601 -19.126244
-13.959287 -2.9912772 -19.0282
-14.026996 -4.0077167 -18.786385
-14.108385 -5.0387082 -18.495705
-14.232233 -6.0995278 -18.053391
-14.356445 -7.1782212 -17.609777
-14.520932 -8.2976761 -17.022322
-14.746202 -9.4797039 -16.217789
-15.028934 -10.734955 -15.208029
-15.428025 -12.122021 -13.782705
-16.088619 -13.790248 -11.423441
-14.77989 14.779885 -12.037072
-14.239767 13.144398 -14.114465
-13.853821 11.722461 -15.598875
-13.582919 10.448399 -16.6408
-13.37548 9.2599468 -17.438644
-13.211306 8.1300335 -18.070084
-13.077752 7.0418639 -18.583752
-12.969508 5.9859262 -19.000074
-12.883084 4.9550328 -19.332474
-12.818584 3.9441805 -19.580544
-12.760643 2.9447632 -19.803398
-12.733029 1.9589272 -19.909603
-12.707736 0.97751808 -20.006886
-12.713761 -9.5367432e-07 -19.983715
-12.720603 -0.97851086 -19.957401
-12.730977 -1.9586143 -19.9175
-12.772329 -2.9474621 -19.75845
-12.82055 -3.9447837 -19.572989
-12.895433 -4.9597864 -19.284977
-12.984118 -5.9926701 -18.943878
-13.090847 -7.0489182 -18.533386
-13.240698 -8.1481218 -17.957035
-13.41386 -9.2865191 -17.291025
-13.619975 -10.476901 -16.498278
-13.89297 -11.75559 -15.448297
-14.296504 -13.196774 -13.896244
-14.932128 -14.932129 -11.451536
-13.775882 16.071861 -11.48329
-13.14525 14.240687 -14.110918
-12.76882 12.768819 -15.679379
-12.509851 11.467363 -16.758411
-12.300859 10.250717 -17.629211
-12.136797 9.1025963 -18.312809
-12.005385 8.0035877 -18.860355
-11.893799 6.9380469 -19.325302
-11.807325 5.9036636 -19.685606
-11.728615 4.8869205 -20.013565
-11.67857 3.8928576 -20.222088
-11.631262 2.9078159 -20.419205
-11.606269 1.9343758 -20.523342
-11.586525 0.96554184 -20.60561
-11.589203 -1.9073486e-06 -20.594456
-11.595606 -0.96630192 -20.567776
-11.607211 -1.934535 -20.519421
-11.640272 -2.9100685 -20.381662
-11.679065 -3.8930206 -20.220026
-11.743667 -4.8931971 -19.950853
-11.815236 -5.9076195 -19.652645
-11.906376 -6.9453888 -19.272898
-12.03018 -8.0201225 -18.757046
-12.167118 -9.1253405 -18.186468
-12.327167 -10.272639 -17.5196
-12.538732 -11.493838 -16.638083
-12.805782 -12.805781 -15.525371
-13.205166 -14.305596 -13.861272
-13.889289 -16.20417 -11.010759
-12.867301 17.54632 -10.395061
-12.158991 15.47508 -13.614654
-11.7593 13.897354 -15.431431
-11.479971 12.523602 -16.701111
-11.272413 11.272412 -17.644556
-11.107245 10.097494 -18.395315
-10.970186 8.9756069 -19.018314
-10.859904 7.8981099 -19.519594
-10.766009 6.8510971 -19.946388
-10.695395 5.833849 -20.267368
-10.628539 4.8311539 -20.571255
-10.589022 3.8505516 -20.750881
-10.553855 2.8783226 -20.910728
-10.524705 1.913579 -21.043226
-10.506246 0.95511341 -21.127132
-10.504094 -2.8610229e-06 -21.136913
-10.510363 -0.95548916 -21.108418
-10.526552 -1.9139194 -21.034828
-10.552376 -2.877923 -20.91745
-10.59051 -3.8510971 -20.744112
-10.63665 -4.8348427 -20.534384
-10.702799 -5.8378925 -20.233711
-10.778991 -6.8593574 -19.887384
-10.871677 -7.906673 -19.46608
-10.986289 -8.9887829 -18.945116
-11.124138 -10.112855 -18.318533
-11.293343 -11.293344 -17.549425
-11.509457 -12.555771 -16.567083
-11.801009 -13.946648 -15.241847
-12.217109 -15.54905 -13.350487
-13.130169 -17.904778 -9.2002058
-11.204758 16.807135 -12.859011
-10.783152 15.096411 -14.967041
-10.486599 13.632578 -16.4498
-10.27523 12.330276 -17.506643
-10.106438 11.117081 -18.350607
-9.9682627 9.9682636 -19.041479
-9.8573093 8.8715782 -19.596249
-9.7663422 7.8130736 -20.051086
-9.6820459 6.7774315 -20.472569
-9.6252031 5.7751207 -20.756783
-9.5693645 4.7846832 -21.035969
-9.5375462 3.8150196 -21.195065
-9.5069199 2.8520775 -21.348196
-9.4780807 1.8956165 -21.492388
-9.4652863 0.94652939 -21.556362
-9.4632826 -0 -21.566387
-9.4642563 -0.94642735 -21.561514
-9.4818516 -1.8963709 -21.473537
-9.5018959 -2.8505697 -21.37332
-9.533534 -3.8134155 -21.215126
-9.5761423 -4.7880712 -21.002087
-9.6317997 -5.7790809 -20.723797
-9.6903248 -6.7832289 -20.431168
-9.7766075 -7.8212872 -19.99976
-9.8704309 -8.8833876 -19.530647
-9.9818363 -9.9818344 -18.973618
-10.125389 -11.137928 -18.255852
-10.299038 -12.358848 -17.387611
-10.5193 -13.675088 -16.286299
-10.821694 -15.150373 -14.77432
-11.273405 -16.910109 -12.515771
-10.355183 18.40921 -11.354009
-9.8201294 16.36688 -14.326519
-9.5263443 14.818756 -15.95866
-9.293581 13.424061 -17.251793
-9.1270933 12.169457 -18.176722
-8.9938622 10.992495 -18.916895
-8.8790569 9.8656178 -19.554699
-8.7814465 8.7814465 -20.096981
-8.7079992 7.7404432 -20.50502
-8.638629 6.7189307 -20.890415
-8.5868959 5.7245979 -21.177818
-8.5404348 4.7446833 -21.435936
-8.509222 3.7818747 -21.609337
-8.4798508 2.8266153 -21.772512
-8.462409 1.8805342 -21.869411
-8.4530983 0.93923283 -21.921139
-8.4453096 9.5367432e-07 -21.964409
-8.4542084 -0.9393568 -21.91497
-8.4635468 -1.8807888 -21.863092
-8.4834023 -2.8277998 -21.752781
-8.5127983 -3.7834692 -21.589468
-8.5458775 -4.7477131 -21.405699
-8.593112 -5.7287416 -21.143286
-8.6468039 -6.7252936 -20.844997
-8.7163067 -7.7478271 -20.458874
-8.7921629 -8.7921619 -20.037447
-8.8912954 -9.8792191 -19.48671
-9.0092764 -11.01134 -18.831261
-9.1464901 -12.195321 -18.068962
-9.3167486 -13.457527 -17.123083
-9.5583477 -14.868542 -15.780865
-9.8739605 -16.456602 -14.027457
-10.457284 -18.590731 -10.786772
-8.9300718 17.860142 -13.069846
-8.5873899 16.101357 -15.211607
-8.3428745 14.600033 -16.73983
-8.1695557 13.275528 -17.823072
-8.0264206 12.039631 -18.717665
-7.9161315 10.884677 -19.406975
-7.8241858 9.7802315 -19.981634
-7.7434473 8.7113781 -20.486252
-7.6775446 7.6775451 -20.89814
-7.6210251 6.6683969 -21.251389
-7.5784702 5.6838531 -21.517359
-7.5382409 4.7113991 -21.768789
-7.5106215 3.7553101 -21.941418
-7.4915862 2.8093424 -22.060385
-7.4770308 1.8692579 -22.151356
-7.4682684 0.93353271 -22.20612
-7.4636569 9.5367432e-07 -22.234941
-7.4693079 -0.93366432 -22.199619
-7.4780946 -1.8695269 -22.144703
-7.493505 -2.8100653 -22.048389
-7.5129881 -3.7564955 -21.92662
-7.5430117 -4.7143803 -21.738972
-7.5833812 -5.6875362 -21.486664
-7.6276855 -6.6742258 -21.209763
-7.6850843 -7.6850863 -20.851017
-7.7530074 -8.7221355 -20.426502
-7.8341851 -9.7927322 -19.919138
-7.9286618 -10.901911 -19.328661
-8.0431452 -12.064721 -18.613136
-8.1873779 -13.304489 -17.711687
-8.3654823 -14.639596 -16.598532
-8.6230249 -16.168173 -14.988889
-8.9812231 -17.962448 -12.750154
-8.1444407 19.779354 -10.708221
-7.64955 17.484684 -14.243155
-7.4056768 15.869306 -15.985103
-7.2259293 14.451858 -17.269016
-7.0785522 13.145879 -18.321711
-6.9650774 11.940131 -19.132242
-6.8727922 10.800101 -19.791422
-6.7938452 9.705492 -20.355335
-6.7286663 8.651144 -20.82089
-6.6753521 7.6289744 -21.201708
-6.6268897 6.6268873 -21.547871
-6.5886497 5.6474152 -21.821012
-6.5585155 4.6846542 -22.036257
-6.5335217 3.7334394 -22.214783
-6.518681 2.7937202 -22.320789
-6.5047526 1.8585005 -22.420277
-6.4961057 0.9280138 -22.482042
-6.49575 9.5367432e-07 -22.484583
-6.4970427 -0.92814827 -22.475349
-6.506443 -1.858984 -22.408203
-6.5203414 -2.7944336 -22.308929
-6.535531 -3.7345877 -22.200428
-6.5621071 -4.6872196 -22.010605
-6.5923128 -5.6505556 -21.794847
-6.6326447 -6.6326432 -21.50676
-6.6812911 -7.6357651 -21.159285
-6.7364135 -8.6611042 -20.765558
-6.8024607 -9.7178001 -20.293793
-6.8838391 -10.817463 -19.712517
-6.9775033 -11.961433 -19.043488
-7.0927038 -13.172166 -18.220625
-7.2470598 -14.494119 -17.118088
-7.434516 -15.931107 -15.779112
-7.6835713 -17.562449 -14.000142
-8.2350969 -19.999523 -10.060677
-6.7856259 19.225941 -12.335913
-6.4765525 17.270807 -14.911525
-6.283524 15.708809 -16.520098
-6.1370792 14.31985 -17.740471
-6.0223317 13.048387 -18.696699
-5.9260569 11.852112 -19.498991
-5.8539958 10.732325 -20.099495
-5.7903094 9.6505146 -20.630217
-5.7346621 8.6019936 -21.093946
-5.6891441 7.585526 -21.473259
-5.6528039 6.5949373 -21.776098
-5.6227961 5.6227932 -22.026165
-5.5956502 4.6630411 -22.252377
-5.5712395 3.7141609 -22.455801
-5.5581379 2.779068 -22.564983
-5.5450974 1.8483658 -22.673649
-5.5381312 0.92302227 -22.731701
-5.5381474 -1.9073486e-06 -22.731567
-5.5381474 -0.92302704 -22.731571
-5.546658 -1.8488865 -22.660645
-5.55969 -2.7798443 -22.552048
-5.5731525 -3.7154369 -22.439856
-5.5988464 -4.6657028 -22.225742
-5.6260891 -5.6260915 -21.99872
-5.6569438 -6.5997691 -21.741598
-5.6936064 -7.5914769 -21.436075
-5.7413287 -8.6119938 -21.038391
-5.7971239 -9.6618729 -20.573429
-5.8625808 -10.748063 -20.027958
-5.9359488 -11.871898 -19.416557
-6.034452 -13.074648 -18.595695
-6.1544681 -14.360427 -17.59556
-6.3017545 -15.754385 -16.368179
-6.5078316 -17.354216 -14.650866
-6.8324213 -19.358526 -11.945953
-5.5599661 18.903885 -13.283135
-5.3411975 17.091833 -15.470819
-5.1891074 15.567322 -16.991722
-5.0754533 14.211267 -18.128262
-4.9870663 12.966372 -19.012131
-4.913065 11.791353 -19.752148
-4.8532877 10.677234 -20.349916
-4.7997108 9.5994205 -20.885689
-4.7580562 8.5644989 -21.302235
-4.721271 7.5540323 -21.670088
-4.6933303 6.5706615 -21.949493
-4.667532 5.6010389 -22.207474
-4.6450715 4.645071 -22.432079
-4.6285572 3.7028446 -22.597225
-4.6163673 2.7698183 -22.719122
-4.6055593 1.8422222 -22.827206
-4.6002665 0.92005348 -22.880135
-4.6002665 -0 -22.880131
-4.6007924 -0.92016029 -22.874872
-4.6068778 -1.8427525 -22.814018
-4.6176524 -2.7705917 -22.706272
-4.6303415 -3.7042732 -22.579378
-4.6477418 -4.6477432 -22.405384
-4.6702685 -5.6043234 -22.180107
-4.6965356 -6.57515 -21.917439
-4.7249579 -7.5599322 -21.633215
-4.7630563 -8.5735006 -21.252235
-4.8048129 -9.6096258 -20.834667
-4.8604417 -10.692973 -20.278381
-4.9212236 -11.810939 -19.670561
-4.996264 -12.990286 -18.920153
-5.0881157 -14.246725 -18.001638
-5.205441 -15.616323 -16.828388
-5.3647923 -17.167334 -15.234871
-5.5965328 -19.028212 -12.917468
-4.7579656 21.410845 -9.4082241
-4.3979774 18.691401 -13.908081
-4.2411146 16.964457 -15.868861
-4.1268787 15.475793 -17.296814
-4.0408239 14.142883 -18.372496
-3.9711795 12.906332 -19.243053
-3.911653 11.734957 -19.987135
-3.8680587 10.637159 -20.532063
-3.8294199 9.5735474 -21.015049
-3.7942834 8.5371361 -21.454258
-3.7619829 7.5239663 -21.858009
-3.7408946 6.5465622 -22.121614
-3.720052 5.5800781 -22.382145
-3.7037511 4.6296873 -22.585905
-3.6917381 3.6917362 -22.736071
-3.6808338 2.760623 -22.872372
-3.6741943 1.8370962 -22.955368
-3.6702869 0.91757202 -23.00421
-3.6686342 -9.5367432e-07 -23.024868
-3.6707578 -0.91769028 -22.998322
-3.6746664 -1.8373356 -22.949467
-3.6818657 -2.7613983 -22.859474
-3.6931682 -3.6931667 -22.718195
-3.7052011 -4.6315012 -22.567783
-3.7225585 -5.5838389 -22.350811
-3.7434402 -6.5510216 -22.089794
-3.7646565 -7.529314 -21.824591
-3.7985041 -8.5466337 -21.401495
-3.8337195 -9.5843 -20.961302
-3.8732846 -10.651532 -20.466742
-3.9183087 -11.754927 -19.903936
-3.9786174 -12.930505 -19.150082
-4.0501046 -14.175368 -18.256489
-4.1399784 -15.524917 -17.13307
-4.2559633 -17.023857 -15.683251
-4.4227576 -18.796719 -13.598328
-3.4798939 20.879364 -10.884562
-3.279882 18.585997 -14.218095
-3.1632655 16.870747 -16.161709
-3.0831895 15.415947 -17.496307
-3.0208132 14.097129 -18.535908
-2.968467 12.863356 -19.408344
-2.9266608 11.706644 -20.105114
-2.893723 10.610315 -20.654081
-2.8653653 9.5512171 -21.126711
-2.8390515 8.5171518 -21.565271
-2.8174691 7.5132499 -21.92498
-2.7998292 6.5329332 -22.218977
-2.7826571 5.5653152 -22.505177
-2.771013 4.6183538 -22.699247
-2.761194 3.6815929 -22.862896
-2.7516246 2.7516241 -23.022385
-2.7482646 1.8321772 -23.078388
-2.7453496 0.91511822 -23.126968
-2.7428381 -0 -23.168827
-2.7456932 -0.9152317 -23.121244
-2.7486165 -1.8324127 -23.072521
-2.7526915 -2.7526922 -23.004602
-2.7623789 -3.6831732 -22.843151
-2.7722063 -4.6203451 -22.679358
-2.7847278 -5.5694561 -22.470669
-2.8019254 -6.5378265 -22.184036
-2.819839 -7.5195704 -21.885477
-2.8421941 -8.5265799 -21.512897
-2.8687708 -9.5625687 -21.06995
-2.8971877 -10.623023 -20.596333
-2.9316285 -11.726513 -20.022322
-2.9738986 -12.886894 -19.317822
-3.0282321 -14.131752 -18.412262
-3.0911553 -15.455777 -17.363537
-3.1737051 -16.926428 -15.987711
-3.2980435 -18.688915 -13.915403
-3.5542209 -21.325327 -9.6457825
-2.307173 20.764555 -11.203472
-2.1767602 18.502462 -14.463786
-2.1024029 16.819221 -16.322721
-2.0492165 15.369121 -17.652386
-2.0097067 14.067944 -18.640131
-1.9768752 12.849686 -19.460918
-1.9475003 11.684999 -20.19529
-1.9247816 10.586298 -20.763256
-1.9059671 9.5298347 -21.233618
-1.8890514 8.5007315 -21.656513
-1.8759533 7.5038128 -21.983963
-1.8638178 6.5233612 -22.28735
-1.8535289 5.5605888 -22.544575
-1.8456097 4.6140242 -22.74255
-1.8390708 3.6781425 -22.906025
-1.8335803 2.7503691 -23.043289
-1.8305819 1.8305826 -23.118252
-1.8284601 0.91422939 -23.171291
-1.8272713 9.5367432e-07 -23.201012
-1.8287146 -0.91435814 -23.16493
-1.830837 -1.8308382 -23.111874
-1.834061 -2.75109 -23.031271
-1.8398594 -3.679719 -22.886311
-1.846404 -4.6160097 -22.7227
-1.8545328 -5.5635986 -22.519476
-1.8652166 -6.5282617 -22.252378
-1.8775347 -7.5101385 -21.944427
-1.8906494 -8.5079231 -21.61656
-1.9082217 -9.5411081 -21.177252
-1.9270866 -10.598978 -20.705627
-1.9510068 -11.70604 -20.107628
-1.9804883 -12.873174 -19.370592
-2.014405 -14.100836 -18.522673
-2.0542262 -15.406697 -17.527138
-2.1102955 -16.882364 -16.12541
-2.1864691 -18.584986 -14.22107
-2.3403089 -21.062782 -10.375072
-1.1484326 20.671785 -11.46117
-1.0846167 18.438482 -14.651961
-1.0501449 16.802317 -16.375549
-1.0235752 15.353628 -17.704035
-1.0029556 14.041378 -18.735018
-0.98752761 12.837856 -19.506416
-0.97343504 11.681217 -20.211046
-0.96234477 10.585792 -20.76556
-0.95186734 9.5186739 -21.289425
-0.94346243 8.4911613 -21.709673
-0.93680263 7.4944186 -22.042667
-0.93054813 6.5138378 -22.355389
-0.92619097 5.5571461 -22.573246
-0.92209893 4.6104927 -22.777851
-0.91867703 3.6747074 -22.948944
-0.91654211 2.7496233 -23.055691
-0.9146536 1.8293037 -23.15012
-0.91359681 0.91359711 -23.202955
-0.9134931 -9.5367432e-07 -23.208141
-0.91372395 -0.9137249 -23.196598
-0.91480178 -1.8296051 -23.142708
-0.91678226 -2.75035 -23.04368
-0.9190706 -3.6762829 -22.929266
-0.92259324 -4.6129665 -22.753136
-0.92669231 -5.5601549 -22.54818
-0.93124551 -6.5187187 -22.320518
-0.93759131 -7.5007319 -22.003231
-0.94434553 -8.4991112 -21.665516
-0.9531219 -9.5312195 -21.226702
-0.96362698 -10.599898 -20.701445
-0.97511911 -11.701429 -20.126841
-0.98925489 -12.860313 -19.420053
-1.0052927 -14.074099 -18.61816
-1.0262845 -15.394267 -17.568575
-1.0536554 -16.858484 -16.200031
-1.0900834 -18.531416 -14.378632
-1.1597766 -20.875978 -10.893967
0 20.672449 -11.459325
0 18.438295 -14.652511
0 16.800674 -16.380688
0 15.371274 -17.645206
0 14.040459 -18.7383
0 12.834076 -19.520958
0 11.679239 -20.21929
0 10.588799 -20.751886
0 9.5254049 -21.255762
0 8.5003071 -21.658867
0 7.4979353 -22.020706
0 6.5146275 -22.349739
0 5.5566959 -22.576979
0 4.6080904 -22.801882
0 3.6731329 -22.968603
0 2.7488909 -23.067955
0 1.8286314 -23.167007
0 0.91334629 -23.215401
0 -9.5367432e-07 -23.215401
0 -0.91334724 -23.215401
0 -1.8291111 -23.155056
0 -2.7496109 -23.05595
0 -3.6741104 -22.956413
0 -4.6108131 -22.774681
0 -5.5600114 -22.549379
0 -6.5185299 -22.321865
0 -7.5049281 -21.976992
0 -8.5082722 -21.614616
0 -9.5374908 -21.195349
0 -10.602372 -20.690193
0 -11.69803 -20.141018
0 -12.856558 -19.434494
0 -14.072736 -18.623028
0 -15.409255 -17.518616
0 -16.854015 -16.213997
0 -18.570732 -14.263002
0 -20.915854 -10.783207
1.1572326 20.830185 -11.021163
1.0890099 18.51317 -14.4323
1.050498 16.807968 -16.357895
1.0263826 15.395738 -17.563665
1.0055377 14.077526 -18.605911
0.98907542 12.857979 -19.429022
0.97402418 11.68829 -20.181587
0.96336162 10.596977 -20.714716
0.95326865 9.5326843 -21.219364
0.94549972 8.5094948 -21.607809
0.93849635 7.5079689 -21.957979
0.93216807 6.5251732 -22.274395
0.92760849 5.5656519 -22.502369
0.92317814 4.6158886 -22.723892
0.91982448 3.6792955 -22.891571
0.91763455 2.752902 -23.00107
0.91547316 1.8309469 -23.109138
0.91388738 0.91388512 -23.188427
0.91383809 -1.9073486e-06 -23.190891
0.91404825 -0.91404819 -23.180384
0.91572583 -1.8314514 -23.096504
0.91789883 -2.7536974 -22.987854
0.92008746 -3.6803513 -22.878426
0.92370003 -4.6185017 -22.697792
0.92815965 -5.5689592 -22.474815
0.93272454 -6.5290723 -22.246569
0.93933737 -7.5147014 -21.91593
0.94638669 -8.5174809 -21.563461
0.95447874 -9.5447874 -21.158859
0.9645974 -10.610573 -20.652922
0.97537917 -11.70455 -20.113836
0.99083555 -12.880864 -19.341017
1.0079027 -14.110639 -18.487658
1.0282815 -15.424222 -17.468721
1.0559127 -16.894608 -16.087156
1.0959859 -18.63176 -14.083503
1.1752524 -21.154545 -10.120176
2.3415434 21.073889 -10.344212
2.1869073 18.588713 -14.210111
2.1131499 16.905195 -16.05405
2.0577068 15.432801 -17.440125
2.016418 14.114924 -18.472345
1.9837172 12.894159 -19.289867
1.9550601 11.73036 -20.00629
1.9317946 10.62487 -20.587929
1.9090819 9.5454102 -21.155745
1.8936754 8.5215359 -21.540911
1.8796731 7.5186906 -21.890968
1.8673595 6.5357571 -22.198807
1.8584311 5.5752926 -22.42202
1.8497149 4.6242876 -22.639923
1.8431944 3.686388 -22.802935
1.8388449 2.7582684 -22.911674
1.8346413 1.8346395 -23.016766
1.8314881 0.91574192 -23.095594
1.8295933 -1.9073486e-06 -23.142967
1.8318113 -0.91590786 -23.087513
1.8351487 -1.8351507 -23.00408
1.8393545 -2.7590313 -22.898933
1.8437225 -3.6874466 -22.789738
1.850768 -4.6269188 -22.613598
1.859494 -5.5784831 -22.395443
1.8684709 -6.5396481 -22.171024
1.8813598 -7.5254393 -21.848801
1.8953874 -8.5292435 -21.498112
1.9116334 -9.5581684 -21.091957
1.9341166 -10.637641 -20.529881
1.9578017 -11.746809 -19.937757
1.9863557 -12.911314 -19.223904
2.0212495 -14.148747 -18.351559
2.0624938 -15.468705 -17.320454
2.1227882 -16.982307 -15.813087
2.1996877 -18.697346 -13.890606
2.3916857 -21.525169 -9.0906553
3.6740692 22.044413 -7.6483092
3.3136301 18.777237 -13.655625
3.1884415 17.005018 -15.742107
3.1038258 15.519128 -17.152369
3.0373492 14.174294 -18.260311
2.9842765 12.931866 -19.144852
2.9431839 11.772735 -19.829731
2.9080784 10.662952 -20.414822
2.8753922 9.5846386 -20.959595
2.8510737 8.5532217 -21.364901
2.8275607 7.5401611 -21.756786
2.807915 6.5518007 -22.084213
2.7932677 5.5865326 -22.328331
2.779629 4.6327124 -22.555649
2.7702098 3.6936111 -22.712633
2.76385 2.7638474 -22.818632
2.7575269 1.8383493 -22.924017
2.7531233 0.91770744 -22.997404
2.7531233 9.5367432e-07 -22.997406
2.7533197 -0.91777515 -22.994137
2.7582908 -1.8388615 -22.91128
2.7646253 -2.7646275 -22.805706
2.7709808 -3.6946421 -22.699778
2.7812142 -4.6353579 -22.529224
2.7949903 -5.5899816 -22.299625
2.8095653 -6.555654 -22.056705
2.8299725 -7.5465937 -21.716589
2.8532982 -8.5598955 -21.327826
2.8793969 -9.5979919 -20.892845
2.9105768 -10.672117 -20.37318
2.9474339 -11.789736 -19.758904
2.9898307 -12.955934 -19.052284
3.0448303 -14.209208 -18.135628
3.1141272 -15.570638 -16.980671
3.2017322 -17.075907 -15.520592
3.3350115 -18.898399 -13.299271
4.4780054 19.031521 -12.907732
4.2860465 17.144186 -15.307211
4.1672106 15.62704 -16.792664
4.0755315 14.264359 -17.938652
4.0003653 13.001184 -18.878231
3.9403167 11.82095 -19.628836
3.891433 10.701441 -20.239883
3.849966 9.624917 -20.758221
3.8170207 8.5882969 -21.17004
3.7852464 7.5704937 -21.567219
3.7606752 6.5811806 -21.874359
3.7403185 5.6104774 -22.128815
3.7208371 4.6510458 -22.372334
3.7075489 3.70755 -22.538435
3.6981335 2.7735977 -22.656128
3.6887655 1.8443804 -22.773228
3.6849115 0.92122459 -22.821404
3.6849115 -1.9073486e-06 -22.821402
3.6849115 -0.92122841 -22.8214
3.6897385 -1.8448715 -22.761068
3.6990793 -2.7743082 -22.644306
3.708478 -3.708478 -22.526821
3.7228923 -4.653616 -22.346643
3.742069 -5.6131048 -22.106932
3.762049 -6.5835872 -21.857185
3.7888558 -7.5777106 -21.522102
3.8188775 -8.592474 -21.146828
3.8555124 -9.6387825 -20.688892
3.8957548 -10.713327 -20.18586
3.9466591 -11.839978 -19.549559
4.0107346 -13.03489 -18.748611
4.084765 -14.296677 -17.823235
4.1798892 -15.674582 -16.634184
4.3081508 -17.232603 -15.030915
4.498929 -19.120453 -12.646178
5.7122793 19.421749 -11.76
5.4269977 17.366392 -14.612819
5.256505 15.769514 -16.317745
5.1272202 14.356216 -17.610596
5.0375733 13.097691 -18.507065
4.958972 11.901533 -19.293076
4.8917365 10.761818 -19.965431
4.8359165 9.6718321 -20.523632
4.7912359 8.6242237 -20.970436
4.7506671 7.6010685 -21.376122
4.7223101 6.6112328 -21.659698
4.6956587 5.6347895 -21.926208
4.6709599 4.6709595 -22.173193
4.6565242 3.7252188 -22.317551
4.6431284 2.7858772 -22.451513
4.6313148 1.8525238 -22.569649
4.6280513 0.92560768 -22.602283
4.6265607 -9.5367432e-07 -22.617188
4.6265607 -0.925313 -22.617188
4.6342621 -1.8537045 -22.540173
4.6439457 -2.7863674 -22.44334
4.6558237 -3.7246599 -22.32456
4.6760507 -4.6760492 -22.122295
4.6970019 -5.6364017 -21.912777
4.724237 -6.6139321 -21.640425
4.7580562 -7.6128922 -21.302235
4.7923489 -8.6262302 -20.959307
4.8437772 -9.6875525 -20.445026
4.9002872 -10.780633 -19.879925
4.9664564 -11.919495 -19.218233
5.0491915 -13.127898 -18.390884
5.1385832 -14.388034 -17.496964
5.2754965 -15.826488 -16.127832
5.4490876 -17.437078 -14.391918
5.7642341 -19.598396 -11.240457
7.0961118 20.105648 -9.7485313
6.6139131 17.637098 -13.766856
6.3800006 15.950002 -15.716123
6.2151442 14.502003 -17.089928
6.0908895 13.196926 -18.125383
5.9916291 11.983258 -18.952555
5.9146938 10.843604 -19.593685
5.8444815 9.7408028 -20.178785
5.7880878 8.6821308 -20.648731
5.735105 7.6468039 -21.090256
5.6972179 6.6467557 -21.405979
5.6614881 5.6614876 -21.703728
5.6318321 4.6931915 -21.950861
5.6146216 3.7430811 -22.094284
5.5975156 2.7987585 -22.236832
5.5843225 1.8614378 -22.346779
5.5809326 0.9301548 -22.375019
5.5775638 9.5367432e-07 -22.403097
5.5783372 -0.92972565 -22.396652
5.5885081 -1.8628368 -22.311893
5.5987329 -2.799367 -22.226688
5.6139359 -3.7426243 -22.099997
5.638443 -4.6987047 -21.895771
5.6643281 -5.6643262 -21.680061
5.6999254 -6.6499152 -21.383413
5.7452064 -7.6602774 -21.006077
5.7929673 -8.6894512 -20.60807
5.8536944 -9.7561579 -20.102009
5.9246569 -10.861872 -19.510658
6.0004172 -12.000835 -18.87932
6.105835 -13.229311 -18.000834
6.2341862 -14.546438 -16.93124
6.4075866 -16.018967 -15.486239
6.6476121 -17.726967 -13.486032
7.8824372 18.017 -12.579672
7.5509129 16.180527 -14.947701
7.3425331 14.685063 -16.436132
7.1864433 13.346252 -17.55106
7.0544353 12.093315 -18.493973
6.9542193 10.928059 -19.209799
6.8675337 9.8107605 -19.828983
6.8034263 8.747261 -20.286894
6.7434907 7.7068453 -20.715
6.6951513 6.6951489 -21.060287
6.6532321 5.7027712 -21.359707
6.6164956 4.7260675 -21.62211
6.5941272 3.7680712 -21.781891
6.5718894 2.8165216 -21.940731
6.5554996 1.8729992 -22.057795
6.5510964 0.93587017 -22.089251
6.5467176 -0 -22.120529
6.5477452 -0.93539429 -22.11319
6.5609221 -1.8745527 -22.019066
6.574152 -2.8174963 -21.924564
6.5932002 -3.7675447 -21.788506
6.6249986 -4.7321434 -21.561375
6.6584439 -5.7072368 -21.322485
6.6980777 -6.6980777 -21.039385
6.7516761 -7.7162023 -20.656534
6.8113256 -8.7574186 -20.230473
6.8779964 -9.8257084 -19.75425
6.9655724 -10.945901 -19.128708
7.0689344 -12.118176 -18.390406
7.2060051 -13.382582 -17.411327
7.3642077 -14.728416 -16.281317
7.5935969 -16.271992 -14.642819
7.9425206 -18.154335 -12.150505
9.381566 18.763132 -10.248008
8.8173122 16.532461 -13.774591
8.522521 14.914412 -15.617038
8.3149872 13.51185 -16.914129
8.1588125 12.238218 -17.890221
8.0359659 11.049452 -18.658007
7.9250011 9.9062471 -19.35154
7.8415341 8.8217258 -19.873205
7.7678375 7.7678375 -20.333813
7.7078619 6.7443781 -20.70866
7.6644483 5.7483363 -20.979992
7.6214986 4.7634344 -21.24843
7.5917659 3.7958813 -21.434256
7.5695128 2.8385677 -21.573338
7.549005 1.887249 -21.701511
7.5424371 0.94280434 -21.742561
7.5400076 -9.5367432e-07 -21.757753
7.5400076 -0.94250107 -21.757751
7.5537891 -1.8884459 -21.671612
7.5722513 -2.8395939 -21.556227
7.5928407 -3.7964211 -21.42754
7.6274371 -4.7671494 -21.211315
7.6699972 -5.7524996 -20.945314
7.7133579 -6.7491879 -20.674309
7.7762837 -7.7762837 -20.281025
7.8512187 -8.8326216 -19.812679
7.9358468 -9.9198093 -19.283752
8.0515966 -11.070946 -18.560314
8.177886 -12.266829 -17.771011
8.3347988 -13.544048 -16.790302
8.5523605 -14.966631 -15.430544
8.8655577 -16.622917 -13.473063
9.5197306 -19.039461 -9.3844757
10.229521 17.0492 -12.052127
9.7832127 15.218329 -14.531616
9.5106726 13.737638 -16.045719
9.301549 12.402064 -17.207523
9.1474724 11.180244 -18.063503
9.024828 10.027585 -18.744864
8.9204311 8.9204302 -19.324844
8.8315973 7.8503075 -19.818365
8.7559357 6.8101726 -20.238708
8.7008057 5.8005371 -20.544987
8.6463652 4.8035364 -20.847431
8.6076937 3.8256407 -21.062277
8.5841475 2.8613834 -21.193089
8.5607042 1.9023762 -21.323328
8.550621 0.95006561 -21.379349
8.550621 -2.8610229e-06 -21.379349
8.550621 -0.95006752 -21.379349
8.56359 -1.9030237 -21.307299
8.586998 -2.8623314 -21.177254
8.6105852 -3.8269272 -21.046213
8.6530561 -4.8072543 -20.810265
8.7077379 -5.8051586 -20.506475
8.7649174 -6.8171582 -20.188805
8.8430576 -7.8604937 -19.7547
8.9340239 -8.9340258 -19.249332
9.0343428 -10.03816 -18.692003
9.1662025 -11.203136 -17.95945
9.3251171 -12.433491 -17.076591
9.5428848 -13.784168 -15.866767
9.8197641 -15.27519 -14.328554
10.300789 -17.167982 -11.656193
11.190576 15.666806 -12.929917
10.773189 14.005144 -15.016852
10.52649 12.631786 -16.250345
10.320935 11.353028 -17.278122
10.161195 10.161194 -18.07682
10.024307 9.0218735 -18.761261
9.9319315 7.9455447 -19.223137
9.8412428 6.8888702 -19.676582
9.7749147 5.8649473 -20.008223
9.7178888 4.8589425 -20.29335
9.6694202 3.8677683 -20.535694
9.6398497 2.8919516 -20.683552
9.6126394 1.9225283 -20.819599
9.59799 0.95979691 -20.892849
9.59799 -1.9073486e-06 -20.892849
9.5997648 -0.95997715 -20.88397
9.6142473 -1.9228487 -20.811558
9.6437197 -2.893115 -20.664196
9.67698 -3.8707933 -20.497896
9.721529 -4.860764 -20.275148
9.7836819 -5.8702092 -19.964386
9.8551064 -6.8985744 -19.607265
9.9370842 -7.9496665 -19.197378
10.047059 -9.0423546 -18.647503
10.172211 -10.172215 -18.021742
10.348248 -11.383073 -17.141554
10.555318 -12.666381 -16.106205
10.815222 -14.059788 -14.806687
11.258458 -15.761843 -12.590507
13.000365 16.545919 -9.7902231
12.210703 14.430832 -13.379599
11.835096 12.911014 -15.086904
11.559894 11.559891 -16.33783
11.369693 10.336081 -17.202377
11.205725 9.1683197 -17.947683
11.081204 8.0590572 -18.513687
10.965464 6.9780202 -19.039785
10.878894 5.9339409 -19.433277
10.818123 4.9173293 -19.709511
10.758027 3.9120083 -19.982674
10.724263 2.9247999 -20.136145
10.699306 1.9453259 -20.249588
10.675012 0.97045422 -20.360018
10.676395 -0 -20.353722
10.684677 -0.9713335 -20.316082
10.693489 -1.9442739 -20.276031
10.729366 -2.9261913 -20.112949
10.77148 -3.916904 -19.921522
10.814091 -4.9154992 -19.727837
10.891177 -5.9406424 -19.377445
10.982267 -6.9887161 -18.963396
11.086514 -8.0629177 -18.489553
11.231393 -9.1893215 -17.831011
11.391424 -10.355844 -17.103596
11.589868 -11.589869 -16.20158
11.871769 -12.951018 -14.92021
12.263026 -14.492667 -13.14177
13.163662 -16.753748 -9.0479679
13.999908 15.166568 -10.549843
13.305851 13.305848 -13.441752
12.930597 11.853046 -15.005311
12.657913 10.548262 -16.141493
12.448519 9.3363895 -17.013968
12.288648 8.1924295 -17.680096
12.167886 7.0979323 -18.183275
12.056659 6.0283294 -18.646719
11.979912 4.9916296 -18.966496
11.908138 3.9693785 -19.265554
11.861069 2.9652643 -19.461679
11.829678 1.9716129 -19.592474
11.800075 0.98333836 -19.715824
11.800723 -0 -19.713116
11.811117 -0.98426056 -19.669811
11.824208 -1.9707012 -19.615265
11.867811 -2.9669514 -19.433582
11.920967 -3.9736543 -19.212103
11.982514 -4.9927139 -18.955654
12.07445 -6.0372243 -18.572586
12.183471 -7.1070237 -18.118336
12.30184 -8.2012272 -17.62513
12.470829 -9.3531218 -16.921007
12.68473 -10.57061 -16.029758
12.970551 -11.889674 -14.838835
13.372057 -13.372056 -13.165895
14.186697 -15.368924 -9.7715549
15.302254 14.125155 -10.027975
14.505582 12.273952 -13.092099
14.093795 10.84138 -14.675894
13.814799 9.5640907 -15.748949
13.599035 8.3686352 -16.578815
13.435658 7.2345848 -17.207191
13.286406 6.1321864 -17.781239
13.195221 5.0750842 -18.131945
13.122216 4.0376015 -18.412739
13.054858 3.01266 -18.671803
13.022999 2.0035362 -18.794338
12.999409 0.99995232 -18.885067
12.987183 -2.8610229e-06 -18.932098
13.002521 -1.0001965 -18.873104
13.026082 -2.0040112 -18.782486
13.06354 -3.0146632 -18.638405
13.131483 -4.0404544 -18.377092
13.204384 -5.0786104 -18.09671
13.302754 -6.1397347 -17.718357
13.45415 -7.2445445 -17.136065
13.623834 -8.3838978 -16.483438
13.844285 -9.5845051 -15.635545
14.133025 -10.87156 -14.525005
14.569482 -12.328023 -12.846331
15.53349 -14.338608 -9.138607
16.829599 13.223257 -8.7770863
15.815842 11.297029 -12.397647
15.361589 9.8753052 -14.019979
15.049214 8.5995483 -15.135599
14.815639 7.4078212 -15.969797
14.658312 6.2821307 -16.531683
14.521354 5.1861939 -17.020821
14.425161 4.1214767 -17.364363
14.340954 3.0730596 -17.665104
14.294727 2.0421009 -17.830204
14.26445 1.0188875 -17.938328
14.244067 -2.8610229e-06 -18.011131
14.2682 -1.0191584 -17.92494
14.298402 -2.0426288 -17.81708
14.348673 -3.0747166 -17.637539
14.43644 -4.1246972 -17.324087
14.537752 -5.1920543 -16.962254
14.675022 -6.2892966 -16.472002
14.84043 -7.4202175 -15.881264
15.084383 -8.6196489 -15.009999
15.413457 -9.9086514 -13.834733
15.869488 -11.335349 -12.206056
17.41774 10.45064 -10.823667
16.777754 8.9481344 -12.956952
16.421055 7.6631584 -14.145948
16.181776 6.4727087 -14.943545
15.992857 5.3309493 -15.573275
15.824363 4.2198277 -16.134924
15.749144 3.149827 -16.385654
15.677436 2.0903254 -16.62468
15.637923 1.0425258 -16.756382
15.637975 -2.8610229e-06 -16.756214
15.638024 -1.0425339 -16.756048
15.686147 -2.0914855 -16.595644
15.757832 -3.1515679 -16.356691
15.834846 -4.2226262 -16.09997
16.016521 -5.338841 -15.494389
16.205187 -6.4820771 -14.865503
16.482391 -7.6917839 -13.941488
16.801168 -8.9606247 -12.878896
17.518684 -10.511212 -10.487179
18.547401 8.1144857 -10.922165
18.072901 6.7773371 -12.404982
17.716597 5.536438 -13.518433
17.509836 4.3774581 -14.164562
17.376532 3.2580972 -14.581136
17.265654 2.1582069 -14.927628
17.228334 1.0767694 -15.044243
17.206516 -4.7683716e-07 -15.112431
17.216238 -1.0760179 -15.082047
17.294127 -2.161768 -14.838652
17.376825 -3.2581573 -14.580217
17.533028 -4.3832603 -14.092087
17.769236 -5.5528889 -13.353935
18.130043 -6.798768 -12.226413
18.607454 -8.1407614 -10.734495
19.897762 4.6818261 -10.359964
19.443493 3.4312048 -11.696053
19.281364 2.2683954 -12.172897
19.19673 1.1292191 -12.421827
19.138577 -2.8610229e-06 -12.592873
19.206501 -1.1297951 -12.393087
19.29129 -2.2695637 -12.143703
19.496428 -3.4405465 -11.540359
19.959318 -4.6963105 -10.178916
