# .PCD v0.7 - Point Cloud Data file format
VERSION 0.7
FIELDS x y z
SIZE 4 4 4
TYPE F F F
COUNT 1 1 1
WIDTH 1058
HEIGHT 1
VIEWPOINT 0 0 0 1 0 0 0
POINTS 1058
DATA ascii
-23.033236 -0 -8.2690191
-21.858423 7.2861414 -8.1649551
-20.778782 5.771884 -11.163955
-20.377644 4.5283651 -12.278229
-20.093708 3.3489504 -13.066942
-19.981632 2.2201805 -13.378258
-19.876665 1.1042571 -13.669838
-19.878984 -4.7683716e-07 -13.663395
-19.910345 -1.1061282 -13.576283
-19.973022 -2.219224 -13.402181
-20.161051 -3.3601756 -12.879873
-20.387829 -4.5306282 -12.249942
-20.864925 -5.7958136 -10.924666
-19.828604 9.3311081 -10.563371
-19.216688 7.9127541 -12.363125
-18.780203 6.6283069 -13.646906
-18.533424 5.4510074 -14.372722
-18.301126 4.3061461 -15.055954
-18.203335 3.2123499 -15.343579
-18.114077 2.1310654 -15.606102
-18.059961 1.0623488 -15.765265
-18.053108 -1.4305115e-06 -15.785418
-18.06336 -1.0625491 -15.755264
-18.125898 -2.1324582 -15.571331
-18.229477 -3.2169681 -15.266691
-18.33873 -4.3149967 -14.945354
-18.559643 -5.4587202 -14.295612
-18.871738 -6.6606164 -13.377687
-19.207514 -7.9089785 -12.39011
-20.092213 -9.4551592 -9.7880545
-19.00012 11.875073 -9.5074215
-18.035046 10.144715 -12.523273
-17.553829 8.7769117 -14.027086
-17.261372 7.5518484 -14.941011
-17.052267 6.3946013 -15.59446
-16.86351 5.269845 -16.18433
-16.733629 4.1834049 -16.590204
-16.640184 3.1200314 -16.882221
-16.556559 2.0695686 -17.143551
-16.532743 1.0332928 -17.217974
-16.526217 -0 -17.238369
-16.523989 -1.0327482 -17.245331
-16.579214 -2.0724025 -17.07275
-16.639809 -3.1199641 -16.883394
-16.721348 -4.1803374 -16.628586
-16.897987 -5.2806196 -16.076586
-17.083044 -6.4061451 -15.498286
-17.291977 -7.5652399 -14.845369
-17.669662 -8.8348312 -13.665101
-18.136684 -10.201886 -12.205658
-17.321989 12.70279 -11.142831
-16.622921 11.081947 -13.473061
-16.214931 9.7289553 -14.833026
-15.929109 8.4955215 -15.78577
-15.709832 7.331254 -16.516687
-15.53826 6.2153034 -17.088594
-15.419688 5.1398969 -17.483833
-15.326087 4.0869575 -17.795837
-15.233615 3.0467224 -18.104076
-15.18622 2.0248289 -18.262064
-15.164419 1.0109596 -18.334734
-15.14268 9.5367432e-07 -18.407196
-15.160752 -1.0107174 -18.346958
-15.207605 -2.027679 -18.190783
-15.257303 -3.0514607 -18.02512
-15.338163 -4.0901785 -17.755583
-15.451276 -5.150424 -17.378546
-15.571943 -6.2287774 -16.97632
-15.738617 -7.3446894 -16.42074
-15.996618 -8.5315294 -15.560733
-16.273748 -9.7642479 -14.636971
-16.716228 -11.144153 -13.162038
-17.452372 -12.798408 -10.708221
-15.984452 13.70096 -11.795464
-15.354522 12.064266 -14.045217
-14.982855 10.702039 -15.372598
-14.719754 9.4626961 -16.312248
-14.499669 8.2855263 -17.098261
-14.343511 7.1717544 -17.655972
-14.199624 6.0855508 -18.169853
-14.115855 5.0413747 -18.469028
-14.039584 4.0113101 -18.741425
-13.969414 2.9934464 -18.992031
-13.936187 1.9908829 -19.110699
-13.910457 0.9936018 -19.202595
-13.895527 -1.9073486e-06 -19.255917
-13.916816 -0.99406242 -19.17988
-13.943173 -1.9918823 -19.085747
-13.971018 -2.9937906 -18.986309
-14.03989 -4.0113974 -18.740332
-14.127008 -5.045361 -18.429197
-14.230526 -6.0987973 -18.059494
-14.381833 -7.1909161 -17.519106
-14.55419 -8.3166809 -16.903549
-14.735351 -9.4727249 -16.256544
-15.056959 -10.754971 -15.107941
-15.451888 -12.140768 -13.697483
-16.134653 -13.829704 -11.259034
-14.797401 14.797399 -11.969714
-14.209732 13.116673 -14.22998
-13.854463 11.723007 -15.596398
-13.575251 10.442498 -16.670292
-13.382154 9.2645683 -17.412975
-13.208094 8.1280575 -18.082436
-13.081718 7.0440011 -18.568495
-12.98428 5.9927464 -18.943256
-12.900483 4.9617214 -19.265554
-12.81776 3.9439278 -19.583717
-12.772369 2.9474678 -19.758301
-12.743852 1.9605923 -19.867981
-12.715461 0.97811127 -19.977177
-12.708896 1.9073486e-06 -20.00243
-12.725478 -0.97888279 -19.938648
-12.744706 -1.9607229 -19.864697
-12.78357 -2.9500561 -19.715221
-12.84602 -3.9526215 -19.475031
-12.913584 -4.966764 -19.215166
-12.990005 -5.9953895 -18.921238
-13.104664 -7.0563583 -18.48024
-13.244219 -8.1502895 -17.943495
-13.411195 -9.2846737 -17.301279
-13.628893 -10.483765 -16.463978
-13.906224 -11.766807 -15.39732
-14.29968 -13.199704 -13.884027
-14.927706 -14.927707 -11.468542
-13.741618 16.031885 -11.626057
-13.138363 14.233227 -14.139614
-12.779129 12.779127 -15.636428
-12.511231 11.468626 -16.752668
-12.305367 10.254473 -17.610434
-12.141031 9.105773 -18.295164
-12.010875 8.0072498 -18.837488
-11.890393 6.9360628 -19.339493
-11.818237 5.9091187 -19.640141
-11.747632 4.8948436 -19.93433
-11.685885 3.8952942 -20.191605
-11.647364 2.9118395 -20.352112
-11.616777 1.9361286 -20.479553
-11.595292 0.96627426 -20.569077
-11.598217 -9.5367432e-07 -20.556889
-11.605083 -0.96709251 -20.528282
-11.613318 -1.9355545 -20.493969
-11.647961 -2.9119921 -20.349627
-11.691192 -3.8970637 -20.169498
-11.745667 -4.8940287 -19.94252
-11.827938 -5.9139719 -19.59972
-11.927042 -6.9574418 -19.186792
-12.034041 -8.0226974 -18.740959
-12.160223 -9.1201649 -18.215202
-12.340756 -10.283966 -17.462975
-12.536981 -11.492233 -16.645378
-12.842618 -12.84262 -15.371883
-13.219132 -14.320728 -13.803078
-13.940377 -16.263773 -10.797889
-12.849833 17.522499 -10.474464
-12.122601 15.428764 -13.780066
-11.743112 13.878222 -15.505018
-11.483397 12.527343 -16.685535
-11.265777 11.265776 -17.674719
-11.112579 10.102345 -18.371069
-10.986972 8.989337 -18.94202
-10.869942 7.9054122 -19.473969
-10.779811 6.8598785 -19.883656
-10.703382 5.8382087 -20.23106
-10.630295 4.8319511 -20.563276
-10.590764 3.8511868 -20.742958
-10.556278 2.8789864 -20.899715
-10.522673 1.9132128 -21.052467
-10.511798 0.95561695 -21.101892
-10.51439 9.5367432e-07 -21.090115
-10.51742 -0.95612907 -21.07634
-10.533819 -1.9152393 -21.001802
-10.567338 -2.8820028 -20.849443
-10.604342 -3.8561268 -20.681242
-10.64343 -4.837923 -20.503567
-10.711381 -5.8425708 -20.194702
-10.785427 -6.8634572 -19.858126
-10.876822 -7.910418 -19.442699
-11.000594 -9.0004883 -18.880095
-11.135966 -10.123608 -18.264771
-11.302934 -11.302936 -17.505825
-11.518444 -12.565577 -16.526232
-11.810931 -13.958372 -15.19675
-12.223351 -15.556992 -13.322109
-13.139429 -17.9174 -9.158123
-11.180545 16.770815 -12.980074
-10.759322 15.063046 -15.086186
-10.483217 13.628181 -16.466709
-10.277856 12.333426 -17.493521
-10.104217 11.114635 -18.361713
-9.9757404 9.9757404 -19.004093
-9.8643789 8.8779392 -19.560902
-9.7665195 7.8132148 -20.050196
-9.6988239 6.7891736 -20.388678
-9.6332121 5.7799244 -20.716736
-9.5778236 4.7889109 -20.993677
-9.5386486 3.8154593 -21.189554
-9.5089703 2.8526897 -21.337944
-9.484086 1.8968182 -21.462364
-9.4759884 0.94759846 -21.502855
-9.4720831 -1.9073486e-06 -21.522381
-9.4681549 -0.94681549 -21.542023
-9.4841423 -1.8968267 -21.462086
-9.5099535 -2.8529873 -21.333027
-9.5401182 -3.8160477 -21.182205
-9.5853548 -4.7926803 -20.956024
-9.644413 -5.7866492 -20.660732
-9.7080975 -6.795671 -20.342308
-9.7780924 -7.8224735 -19.992334
-9.8797626 -8.8917885 -19.48398
-9.9933662 -9.9933662 -18.915964
-10.123255 -11.135582 -18.266521
-10.315511 -12.378613 -17.305244
-10.515244 -13.669818 -16.306581
-10.835066 -15.169092 -14.707467
-11.271312 -16.906971 -12.526232
-10.321823 18.349905 -11.539336
-9.8165026 16.360836 -14.346672
-9.5075827 14.789571 -16.062893
-9.3050756 13.440663 -17.187931
-9.1397657 12.186354 -18.106319
-8.9970465 10.996391 -18.899202
-8.8890848 9.8767586 -19.498989
-8.7885075 8.7885065 -20.057755
-8.7128191 7.7447252 -20.478249
-8.645359 6.7241688 -20.853024
-8.5874557 5.724968 -21.174709
-8.5504179 4.7502317 -21.38047
-8.514575 3.784255 -21.579597
-8.4810925 2.8270311 -21.765615
-8.4691648 1.8820381 -21.831882
-8.4617167 0.94018841 -21.873257
-8.456356 -1.9073486e-06 -21.90304
-8.4595175 -0.93994617 -21.885475
-8.4745665 -1.8832388 -21.801874
-8.4936523 -2.8312168 -21.695843
-8.5130234 -3.7835646 -21.588219
-8.5514784 -4.7508216 -21.37458
-8.5991831 -5.7327886 -21.109554
-8.6528482 -6.7299948 -20.811415
-8.7233152 -7.7540565 -20.419933
-8.8042154 -8.8042164 -19.970486
-8.8993826 -9.8882027 -19.441788
-9.0168209 -11.020561 -18.789347
-9.1536303 -12.20484 -18.029297
-9.3282108 -13.474082 -17.059402
-9.5572128 -14.866776 -15.787169
-9.8734226 -16.455704 -14.030451
-10.471765 -18.61647 -10.706327
-8.9130383 17.826075 -13.176312
-8.5723505 16.073156 -15.305607
-8.3378763 14.591282 -16.77107
-8.1759119 13.285854 -17.783348
-8.0292997 12.043949 -18.699675
-7.9243426 10.895971 -19.355656
-7.8273973 9.7842455 -19.961565
-7.7493439 8.7180099 -20.4494
-7.6874251 7.6874228 -20.836391
-7.6274147 6.6739874 -21.211456
-7.5783138 5.6837349 -21.518333
-7.54635 4.7164698 -21.718109
-7.5157514 3.7578764 -21.909349
-7.4901042 2.8087883 -22.069647
-7.4775739 1.8693914 -22.147963
-7.4666004 0.93332195 -22.216545
-7.456912 -1.9073486e-06 -22.277096
-7.4679003 -0.9334898 -22.208422
-7.4810939 -1.8702726 -22.125961
-7.4958606 -2.8109493 -22.033665
-7.5191317 -3.7595663 -21.888222
-7.5526152 -4.7203856 -21.678955
-7.5902448 -5.6926856 -21.443768
-7.6284089 -6.6748586 -21.20524
-7.6904788 -7.6904793 -20.817303
-7.7591524 -8.7290468 -20.388094
-7.8294683 -9.7868338 -19.948624
-7.9386368 -10.915627 -19.266315
-8.05583 -12.083746 -18.533861
-8.1825123 -13.296582 -17.742096
-8.3826151 -14.669575 -16.491455
-8.5975409 -16.120392 -15.148162
-8.9869595 -17.973921 -12.714295
-8.1089382 19.693136 -10.961805
-7.6520438 17.490385 -14.225336
-7.4090381 15.876509 -15.961097
-7.2241683 14.448337 -17.281593
-7.0863676 13.160397 -18.265886
-6.9688473 11.946594 -19.105312
-6.8792777 10.810293 -19.7451
-6.7935376 9.7050505 -20.357531
-6.7326484 8.6562605 -20.79245
-6.6804004 7.6347408 -21.165655
-6.6303415 6.6303391 -21.523214
-6.595459 5.6532488 -21.772377
-6.5613618 4.6866865 -22.015926
-6.5349245 3.7342434 -22.204763
-6.5200777 2.7943182 -22.310814
-6.5076466 1.8593283 -22.399609
-6.498148 0.92830658 -22.467451
-6.4939337 9.5367432e-07 -22.497557
-6.4991045 -0.92844582 -22.460621
-6.5059552 -1.8588467 -22.41169
-6.5128202 -2.7912083 -22.362652
-6.5391164 -3.7366419 -22.17482
-6.5680571 -4.6914711 -21.9681
-6.5988588 -5.656167 -21.748089
-6.6381173 -6.6381164 -21.46767
-6.6859317 -7.6410675 -21.126143
-6.743329 -8.6699982 -20.716158
-6.8082581 -9.7260838 -20.25238
-6.8879223 -10.823876 -19.683353
-6.9855518 -11.975233 -18.985996
-7.1028566 -13.19102 -18.148106
-7.2435412 -14.487082 -17.143217
-7.4347367 -15.931578 -15.777534
-7.7077045 -17.617607 -13.827766
-8.258069 -20.055313 -9.8965845
-6.7695684 19.180443 -12.469728
-6.4721465 17.259052 -14.948246
-6.27456 15.6864 -16.594795
-6.140553 14.327956 -17.711523
-6.0216365 13.046879 -18.702488
-5.9359307 11.871861 -19.416708
-5.8574591 10.738674 -20.070637
-5.7944274 9.6573772 -20.595901
-5.741158 8.6117382 -21.039814
-5.6888595 7.5851455 -21.475636
-5.6526713 6.5947809 -21.777203
-5.6233201 5.6233206 -22.021797
-5.5945153 4.6620932 -22.261837
-5.5714002 3.7142658 -22.454462
-5.5599942 2.7799959 -22.549515
-5.5490494 1.8496809 -22.64072
-5.5400381 0.92333889 -22.715809
-5.5423594 -2.8610229e-06 -22.696465
-5.5454478 -0.92424297 -22.670731
-5.5512667 -1.850421 -22.622238
-5.5612588 -2.780632 -22.538971
-5.5794172 -3.7196112 -22.387653
-5.5993495 -4.6661253 -22.22155
-5.620194 -5.6201959 -22.047846
-5.6587343 -6.6018591 -21.726677
-5.6992865 -7.59905 -21.388744
-5.741158 -8.6117373 -21.03981
-5.8019838 -9.6699715 -20.532934
-5.8694773 -10.76071 -19.970488
-5.9385591 -11.877119 -19.3948
-6.0406623 -13.088104 -18.543938
-6.1561952 -14.364457 -17.581173
-6.301137 -15.752842 -16.373322
-6.5044994 -17.345337 -14.678628
-6.8463988 -19.398132 -11.829473
-5.5537868 18.882872 -13.344928
-5.3426166 17.096369 -15.456635
-5.190547 15.571641 -16.977325
-5.0803409 14.224953 -18.079388
-4.9883342 12.969666 -18.999456
-4.9167876 11.80029 -19.714918
-4.8504205 10.670925 -20.378593
-4.8060613 9.6121216 -20.822186
-4.7625484 8.5725861 -21.257311
-4.7222819 7.5556488 -21.659973
-4.6916199 6.5682678 -21.966599
-4.667397 5.6008739 -22.208826
-4.6435838 4.6435833 -22.44696
-4.6289034 3.7031202 -22.593765
-4.6167645 2.7700586 -22.715149
-4.605032 1.8420134 -22.832476
-4.5980577 0.91961002 -22.902218
-4.5989256 -9.5367432e-07 -22.893543
-4.6013975 -0.92027855 -22.86882
-4.6051903 -1.8420773 -22.830894
-4.6180897 -2.7708549 -22.701899
-4.6320348 -3.7056274 -22.562449
-4.6484933 -4.6484947 -22.397863
-4.6685071 -5.6022081 -22.197725
-4.6963167 -6.5748448 -21.91963
-4.7290964 -7.5665569 -21.591831
-4.7631831 -8.5737324 -21.250969
-4.8092785 -9.6185589 -20.790009
-4.8653059 -10.703674 -20.229736
-4.9252005 -11.820482 -19.630795
-5.0005183 -13.00135 -18.877613
-5.0927377 -14.259666 -17.955421
-5.2107673 -15.632304 -16.77512
-5.3620214 -17.158468 -15.262581
-5.6073179 -19.06488 -12.809616
-4.7269368 21.271215 -9.7960825
-4.3978424 18.690828 -13.909769
-4.2350731 16.940292 -15.944382
-4.1298838 15.487066 -17.259241
-4.04071 14.142481 -18.373926
-3.9745755 12.917368 -19.2006
-3.9169731 11.75092 -19.920628
-3.8698263 10.64202 -20.509968
-3.8281786 9.5704451 -21.030563
-3.7933776 8.5351009 -21.465576
-3.7665951 7.5331888 -21.800358
-3.7421997 6.5488472 -22.105301
-3.7190742 5.5786095 -22.394371
-3.7040818 4.6301022 -22.581778
-3.6926172 3.6926174 -22.725082
-3.6821077 2.7615795 -22.856449
-3.6730096 1.8365059 -22.970175
-3.6706636 0.91766453 -22.999504
-3.669879 -9.5367432e-07 -23.00931
-3.669523 -0.91738224 -23.013754
-3.6722238 -1.836113 -22.979996
-3.6815288 -2.7611475 -22.863688
-3.6926064 -3.6926069 -22.725214
-3.7048066 -4.631011 -22.572718
-3.7242384 -5.5863595 -22.329815
-3.7448883 -6.553555 -22.071692
-3.7688115 -7.5376244 -21.772652
-3.7997375 -8.5494108 -21.38608
-3.835387 -9.5884657 -20.940462
-3.8720379 -10.648106 -20.482321
-3.9242091 -11.772628 -19.830181
-3.9839611 -12.947874 -19.083282
-4.045764 -14.160174 -18.310745
-4.1440964 -15.54036 -17.081591
-4.2497816 -16.999126 -15.760529
-4.4258447 -18.809837 -13.559738
-3.4783773 20.870262 -10.909843
-3.2766984 18.567955 -14.271156
-3.1619806 16.863897 -16.183121
-3.0825396 15.412695 -17.507139
-3.0193679 14.090383 -18.559998
-2.9701293 12.87056 -19.380642
-2.9273353 11.709341 -20.093874
-2.8955629 10.617064 -20.623415
-2.8645492 9.5484962 -21.14031
-2.8366992 8.5100975 -21.604475
-2.8178639 7.5143037 -21.918396
-2.7998128 6.5328979 -22.219248
-2.7825449 5.5650902 -22.50705
-2.7715061 4.619175 -22.691029
-2.7616284 3.6821709 -22.855656
-2.7531626 2.7531624 -22.99675
-2.7492428 1.8328266 -23.062084
-2.7474902 0.91582966 -23.091291
-2.7462788 -0 -23.111481
-2.7460134 -0.91533756 -23.115908
-2.7505977 -1.8337336 -23.039501
-2.7564719 -2.7564735 -22.941599
-2.7628293 -3.6837721 -22.83564
-2.771132 -4.618556 -22.69726
-2.7861102 -5.5722213 -22.44763
-2.8012507 -6.5362506 -22.195286
-2.8165567 -7.510819 -21.940182
-2.8421185 -8.5263557 -21.514153
-2.8690095 -9.5633659 -21.065968
-2.8964229 -10.620214 -20.609083
-2.932626 -11.730505 -20.005699
-2.9773927 -12.902035 -19.259586
-3.028137 -14.131309 -18.413843
-3.0918088 -15.459044 -17.35265
-3.1760123 -16.938732 -15.949258
-3.295162 -18.672583 -13.963429
-3.5475214 -21.28513 -9.7574387
-2.3000414 20.700373 -11.381759
-2.1704991 18.449236 -14.620325
-2.102767 16.82213 -16.313623
-2.0488772 15.36658 -17.660864
-2.0092673 14.064871 -18.65111
-1.9755948 12.841367 -19.492924
-1.947571 11.685425 -20.193521
-1.9261755 10.593964 -20.728409
-1.905623 9.5281124 -21.242224
-1.8898447 8.5042992 -21.636681
-1.8751335 7.5005331 -22.004456
-1.8631488 6.5210209 -22.304073
-1.8537691 5.561307 -22.53857
-1.8459592 4.6148968 -22.733818
-1.8391234 3.6782446 -22.904713
-1.8328389 2.749259 -23.061825
-1.830129 1.8301277 -23.129574
-1.8280083 0.91400433 -23.18259
-1.8268461 -9.5367432e-07 -23.211641
-1.8282888 -0.91414642 -23.175577
-1.831483 -1.8314819 -23.095722
-1.8349603 -2.7524405 -23.008789
-1.8391864 -3.6783714 -22.903139
-1.8464146 -4.6160383 -22.722435
-1.8549016 -5.5647078 -22.510256
-1.8649682 -6.5273867 -22.258595
-1.8769543 -7.5078192 -21.958937
-1.8912162 -8.5104742 -21.602394
-1.9083236 -9.5416183 -21.174707
-1.9285533 -10.607043 -20.668966
-1.9526936 -11.716163 -20.065456
-1.9780476 -12.857307 -19.431606
-2.0146508 -14.102556 -18.516525
-2.0550985 -15.41324 -17.505331
-2.1098459 -16.878767 -16.136652
-2.1832283 -18.557442 -14.302093
-2.3239584 -20.915627 -10.783838
-1.1431214 20.576183 -11.726726
-1.0852752 18.449677 -14.61904
-1.0494807 16.791687 -16.408766
-1.0234548 15.351822 -17.710058
-1.0033214 14.046496 -18.716726
-0.98654675 12.825109 -19.555454
-0.97268766 11.672251 -20.248413
-0.96129268 10.574219 -20.818163
-0.95191807 9.5191793 -21.286896
-0.94428188 8.4985352 -21.668705
-0.9367699 7.4941587 -22.044302
-0.93031949 6.5122375 -22.366821
-0.92625493 5.5575304 -22.570049
-0.92222309 4.6111145 -22.771641
-0.91871643 3.6748657 -22.946976
-0.91654468 2.7496328 -23.055561
-0.91496819 1.8299351 -23.134384
-0.91382772 0.91382885 -23.19141
-0.91278058 -9.5367432e-07 -23.243767
-0.91354495 -0.91354561 -23.205551
-0.91461718 -1.8292351 -23.151936
-0.91621339 -2.748641 -23.072128
-0.91893679 -3.6757488 -22.935959
-0.92273343 -4.6136703 -22.746126
-0.92656165 -5.559371 -22.554716
-0.93122131 -6.5185509 -22.321732
-0.93815988 -7.5052814 -21.974804
-0.94528586 -8.507575 -21.618504
-0.95254076 -9.5254078 -21.255762
-0.96338761 -10.597264 -20.713417
-0.97557139 -11.706859 -20.104225
-0.98851341 -12.850676 -19.457123
-1.0058677 -14.082148 -18.589411
-1.0261502 -15.392256 -17.575283
-1.0535691 -16.857105 -16.20434
-1.0907668 -18.543037 -14.344453
-1.1572701 -20.830864 -11.019291
0 20.620567 -11.603434
0 18.468922 -14.562438
0 16.788841 -16.417662
0 15.360956 -17.679607
0 14.045754 -18.719385
0 12.82837 -19.542902
0 11.673556 -20.242973
0 10.579969 -20.792023
0 9.5226746 -21.269428
0 8.5001812 -21.659559
0 7.4956865 -22.034756
0 6.5178862 -22.326447
0 5.5582485 -22.564049
0 4.6085129 -22.797657
0 3.6734705 -22.964411
0 2.7500076 -23.049294
0 1.829957 -23.133865
0 0.91372871 -23.196213
0 -1.9073486e-06 -23.202309
0 -0.91415596 -23.174931
0 -1.8303642 -23.123714
0 -2.7486248 -23.072392
0 -3.6764631 -22.927034
0 -4.6142635 -22.740173
0 -5.5597363 -22.551647
0 -6.5189633 -22.318764
0 -7.5056529 -21.972477
0 -8.5090723 -21.610172
0 -9.535511 -21.20524
0 -10.59866 -20.707075
0 -11.701855 -20.125067
0 -12.864624 -19.403473
0 -14.084967 -18.579346
0 -15.395448 -17.564648
0 -16.851866 -16.22072
0 -18.569405 -14.266895
0 -20.872292 -10.904207
1.1510985 20.719769 -11.327875
1.0892937 18.51799 -14.41811
1.0518061 16.828896 -16.29249
1.0254898 15.382344 -17.608309
1.0053618 14.075064 -18.614704
0.9891789 12.859324 -19.423855
0.97400653 11.688078 -20.182468
0.96347123 10.598183 -20.709236
0.95389026 9.5389004 -21.188284
0.94475859 8.5028248 -21.644867
0.93800402 7.5040312 -21.982594
0.93251652 6.5276155 -22.256973
0.92749357 5.5649595 -22.50812
0.92281014 4.6140499 -22.742287
0.91969836 3.678791 -22.897879
0.91741222 2.7522354 -23.01219
0.91513473 1.8302708 -23.126057
0.91395223 0.91395187 -23.185184
0.91444051 -1.9073486e-06 -23.160774
0.91492659 -0.91492844 -23.136467
0.91579616 -1.8315897 -23.092985
0.9176659 -2.7529964 -22.9995
0.92031372 -3.6812572 -22.867107
0.92367887 -4.6183929 -22.698853
0.92747223 -5.5648336 -22.509188
0.93311399 -6.5318003 -22.227097
0.93882489 -7.5106006 -21.941551
0.94571918 -8.5114708 -21.596836
0.95502251 -9.5502243 -21.131672
0.9650169 -10.615188 -20.631952
0.97531414 -11.703773 -20.117086
0.9909485 -12.882332 -19.335373
1.007666 -14.107324 -18.499495
1.0286331 -15.429496 -17.451143
1.0554072 -16.886517 -16.112436
1.0938699 -18.595791 -14.189295
1.1666168 -20.999102 -10.55196
2.3339357 21.005421 -10.534405
2.1849921 18.572432 -14.257995
2.1126158 16.900927 -16.0674
2.0573516 15.430137 -17.449005
2.0163865 14.114706 -18.473133
1.9837599 12.894439 -19.288797
1.9534463 11.720676 -20.04664
1.9311109 10.621107 -20.605026
1.9118096 9.5590458 -21.087561
1.8928902 8.5180054 -21.560541
1.8792779 7.5171103 -21.900846
1.8678256 6.5373869 -22.187157
1.8572298 5.5716858 -22.452053
1.8494492 4.6236248 -22.646564
1.8435482 3.6870947 -22.794094
1.838514 2.7577705 -22.919947
1.833946 1.8339443 -23.034149
1.8319312 0.91596413 -23.084515
1.8317852 -1.9073486e-06 -23.088165
1.8316444 -0.91582298 -23.091682
1.8331051 -1.833106 -23.055168
1.8383878 -2.7575817 -22.9231
1.8437012 -3.6874056 -22.790264
1.8490455 -4.6226139 -22.65666
1.8585867 -5.5757594 -22.418131
1.8699148 -6.5447035 -22.134926
1.8816404 -7.5265613 -21.841785
1.8949188 -8.5271358 -21.509829
1.9138446 -9.5692234 -21.036682
1.9342213 -10.638216 -20.527267
1.9580934 -11.748558 -19.93046
1.9858899 -12.908284 -19.235546
2.0202851 -14.141995 -18.375668
2.0645514 -15.484138 -17.269014
2.1216686 -16.973351 -15.841077
2.1999056 -18.699198 -13.885155
2.3764267 -21.387844 -9.472126
3.6001568 21.600939 -8.8801842
3.3149157 18.784521 -13.634199
3.1891677 17.008896 -15.729995
3.1030376 15.515189 -17.165503
3.0391273 14.182595 -18.230671
2.9837785 12.929708 -19.153154
2.9432108 11.772842 -19.829281
2.906354 10.65663 -20.443567
2.8750842 9.5836134 -20.964731
2.8500891 8.5502663 -21.381313
2.8287537 7.5433421 -21.736904
2.809778 6.5561495 -22.053162
2.7913942 5.5827885 -22.359558
2.7805734 4.6342888 -22.539904
2.7716889 3.6955843 -22.687979
2.7633355 2.7633343 -22.827204
2.7583303 1.8388853 -22.910622
2.7563381 0.91877747 -22.943832
2.7553785 -9.5367432e-07 -22.959824
2.7551739 -0.91839504 -22.963232
2.7582278 -1.8388224 -22.912331
2.7650371 -2.7650356 -22.798843
2.772891 -3.6971865 -22.667946
2.7814305 -4.6357174 -22.525618
2.794796 -5.5895925 -22.302864
2.8122578 -6.5619373 -22.011831
2.829931 -7.546484 -21.717278
2.8536861 -8.56106 -21.321363
2.8788388 -9.5961304 -20.902149
2.9078331 -10.662054 -20.418913
2.948487 -11.793949 -19.741344
2.9910161 -12.961069 -19.032524
3.0445518 -14.207909 -18.140266
3.1114278 -15.557139 -17.025669
3.2005751 -17.069735 -15.539873
3.3274486 -18.855543 -13.425318
4.4790025 19.035755 -12.895269
4.2857327 17.142929 -15.311139
4.1642985 15.616119 -16.82906
4.0760474 14.266168 -17.932201
3.9990108 12.996782 -18.895166
3.9429357 11.828804 -19.596098
3.892998 10.705744 -20.220322
3.8457108 9.6142759 -20.811413
3.814826 8.5833588 -21.19747
3.7855358 7.5710692 -21.563602
3.7594011 6.5789518 -21.890282
3.7391016 5.6086512 -22.144028
3.7225692 4.6532116 -22.350679
3.7079437 3.7079411 -22.533497
3.6934435 2.7700806 -22.714754
3.6891146 1.8445568 -22.768864
3.6864309 0.92160797 -22.802408
3.6841731 -9.5367432e-07 -22.830627
3.6857238 -0.92143154 -22.811249
3.691865 -1.845932 -22.734478
3.6981013 -2.7735758 -22.656528
3.7086382 -3.7086372 -22.524815
3.7242603 -4.655324 -22.329544
3.7420907 -5.6131358 -22.106665
3.760093 -6.5801659 -21.881634
3.7868941 -7.5737886 -21.546618
3.8204076 -8.5959187 -21.127703
3.8549929 -9.6374836 -20.695389
3.8961203 -10.714332 -20.181288
3.9494438 -11.848332 -19.514746
4.0083742 -13.02722 -18.778116
4.0845838 -14.296045 -17.825502
4.1791291 -15.671735 -16.643681
4.3074446 -17.229778 -15.039741
4.4988976 -19.120316 -12.646575
5.6919322 19.352568 -11.963475
5.4170952 17.334705 -14.711842
5.2584462 15.775339 -16.298334
5.1252604 14.350726 -17.630196
5.0379357 13.098633 -18.503435
4.9565892 11.895813 -19.316906
4.8914986 10.761295 -19.967812
4.8389559 9.6779099 -20.49324
4.793848 8.6289234 -20.944315
4.7517757 7.6028409 -21.36504
4.7182388 6.6055326 -21.700409
4.6956172 5.6347399 -21.926619
4.6732121 4.6732111 -22.150675
4.6547732 3.7238178 -22.335064
4.6417084 2.7850237 -22.46571
4.6333284 1.8533325 -22.549511
4.6269736 0.92539406 -22.613064
4.6206226 -0 -22.676571
4.625617 -0.92512512 -22.626629
4.6330352 -1.8532143 -22.552446
4.6405301 -2.7843208 -22.477493
4.6529293 -3.7223454 -22.353504
4.6759009 -4.6759014 -22.123789
4.6990867 -5.6389041 -21.89193
4.722518 -6.6115265 -21.657619
4.7571278 -7.6114039 -21.311518
4.7984657 -8.6372366 -20.89814
4.8430772 -9.6861544 -20.452023
4.9022875 -10.785036 -19.859917
4.9629641 -11.911116 -19.253157
5.0447435 -13.116334 -18.435362
5.1413083 -14.395665 -17.469709
5.2730589 -15.819177 -16.152206
5.4498076 -17.439383 -14.384722
5.7537017 -19.562588 -11.345776
7.0655251 20.018984 -10.003425
6.6169724 17.645262 -13.741356
6.3763561 15.940887 -15.746497
6.2173657 14.507187 -17.071417
6.0953884 13.206675 -18.087889
5.995368 11.990734 -18.921394
5.9060464 10.827751 -19.665745
5.8454366 9.7423935 -20.170822
5.7878971 8.6818457 -20.65032
5.7367916 7.649055 -21.0762
5.6972685 6.646811 -21.405558
5.6647768 5.6647758 -21.676319
5.6339355 4.6949463 -21.933334
5.612288 3.7415237 -22.113729
5.6003728 2.8001842 -22.213022
5.5885081 1.8628349 -22.311893
5.5807228 0.93012238 -22.37677
5.5783529 9.5367432e-07 -22.396517
5.5807395 -0.93012333 -22.376635
5.5897374 -1.863246 -22.301651
5.5987654 -2.7993822 -22.226419
5.6178231 -3.7452183 -22.067604
5.639349 -4.6994572 -21.888224
5.6674705 -5.6674709 -21.653879
5.7037811 -6.6544142 -21.351284
5.745976 -7.6613016 -20.999666
5.7888165 -8.6832256 -20.64266
5.8506618 -9.7511034 -20.127281
5.9244204 -10.861437 -19.512625
6.0035515 -12.007104 -18.853201
6.1096601 -13.2376 -17.96896
6.2343879 -14.546906 -16.929564
6.4037828 -16.009457 -15.517939
6.6514359 -17.737162 -13.454165
7.2663722 -20.588057 -8.3296957
7.9000173 18.057184 -12.454099
7.5517483 16.182318 -14.941734
7.345861 14.691719 -16.412361
7.1853428 13.344207 -17.558918
7.0538607 12.092333 -18.498074
6.9583011 10.93447 -19.180653
6.8739247 9.8198929 -19.783329
6.7957506 8.7373905 -20.341721
6.7415943 7.7046781 -20.728554
6.6959476 6.6959476 -21.0546
6.6546082 5.703949 -21.34988
6.6166124 4.7261515 -21.621277
6.5912328 3.7664175 -21.802563
6.5723491 2.8167219 -21.937443
6.5555577 1.8730164 -22.057386
6.5463943 0.93519688 -22.122837
6.5490012 -1.9073486e-06 -22.104212
6.5516295 -0.93594742 -22.08544
6.5568547 -1.8733873 -22.04812
6.574728 -2.8177414 -21.920452
6.5980663 -3.7703257 -21.75375
6.6215906 -4.7297068 -21.585716
6.64958 -5.6996398 -21.385798
6.7002292 -6.7002301 -21.024017
6.7516356 -7.7161531 -20.656826
6.8087726 -8.754137 -20.248707
6.8821149 -9.8315954 -19.724834
6.9645391 -10.944274 -19.136089
7.0741067 -12.127042 -18.353464
7.1958084 -13.363645 -17.484165
7.3695555 -14.739114 -16.243116
7.5891714 -16.262508 -14.674433
7.9392734 -18.146912 -12.173698
9.3979349 18.795868 -10.145704
8.8027821 16.505213 -13.865413
8.5277433 14.923549 -15.584398
8.3175116 13.515954 -16.898348
8.1536961 12.230542 -17.922197
8.0337343 11.046384 -18.671957
7.9300294 9.9125338 -19.320114
7.8410087 8.8211327 -19.87649
7.7713075 7.771307 -20.312122
7.7095242 6.7458344 -20.698271
7.6582022 5.7436514 -21.019035
7.6226268 4.764142 -21.241375
7.593647 3.7968225 -21.422503
7.5693569 2.8385086 -21.57431
7.5475883 1.8868971 -21.710369
7.5378881 0.94223404 -21.770996
7.5391464 9.5367432e-07 -21.763132
7.5413766 -0.94267273 -21.749195
7.547102 -1.8867779 -21.713409
7.5685782 -2.8382177 -21.57918
7.5968509 -3.7984266 -21.402477
7.6253138 -4.7658229 -21.224586
7.6696544 -5.7522411 -20.947456
7.7167563 -6.7521644 -20.653069
7.7744527 -7.7744555 -20.292469
7.8552189 -8.837122 -19.787678
7.9421139 -9.9276428 -19.244583
8.0426683 -11.058669 -18.616119
8.1790285 -12.268543 -17.763868
8.3373089 -13.548126 -16.774616
8.5463991 -14.956197 -15.467806
8.8643064 -16.620575 -13.480881
9.5414639 -19.082926 -9.2486496
10.230062 17.050106 -12.049114
9.7855921 15.222031 -14.518396
9.494648 13.714493 -16.134748
9.3112679 12.415022 -17.153532
9.1531096 11.187132 -18.032188
9.0097532 10.010834 -18.828613
8.9180145 8.9180145 -19.338272
8.8338604 7.8523183 -19.805796
8.7611008 6.8141894 -20.210014
8.6958942 5.7972612 -20.572269
8.6508846 4.8060474 -20.822325
8.6134014 3.8281775 -21.030563
8.5818844 2.8606262 -21.205666
8.5658188 1.9035149 -21.294918
8.5569859 0.95077419 -21.343983
8.5500145 -0 -21.382713
8.5525389 -0.95028305 -21.36869
8.5709124 -1.9046488 -21.266613
8.5904608 -2.8634892 -21.15801
8.6124029 -3.827733 -21.036112
8.6559515 -4.8088608 -20.794174
8.7099371 -5.8066244 -20.494259
8.7661915 -6.8181491 -20.181732
8.8370953 -7.8551946 -19.787828
8.9300575 -8.9300585 -19.271366
9.0313559 -10.034843 -18.70859
9.1704102 -11.208279 -17.936071
9.3231363 -12.430848 -17.087595
9.5448666 -13.78703 -15.855761
9.8281937 -15.288302 -14.281717
10.303866 -17.173113 -11.63909
11.176545 15.647166 -13.000065
10.791324 14.028719 -14.926182
10.526146 12.631374 -16.252066
10.311974 11.343172 -17.322929
10.16418 10.164179 -18.061899
10.037438 9.0336914 -18.695606
9.9254379 7.9403477 -19.25561
9.8343868 6.8840694 -19.710867
9.7750635 5.8650389 -20.007481
9.7178602 4.8589301 -20.293497
9.6713381 3.8685341 -20.5261
9.6305885 2.8891745 -20.729849
9.6120939 1.9224176 -20.822327
9.6002808 0.96002865 -20.881393
9.5884962 -1.9073486e-06 -20.940319
9.5946426 -0.95946693 -20.909586
9.6182127 -1.9236403 -20.791733
9.6418991 -2.8925714 -20.673296
9.671833 -3.8687301 -20.523632
9.7192392 -4.859621 -20.2866
9.7804108 -5.8682475 -19.980747
9.8512745 -6.8958921 -19.626423
9.9454365 -7.9563522 -19.155615
10.041917 -9.0377264 -18.67321
10.177583 -10.177584 -17.994879
10.339804 -11.373785 -17.183783
10.541558 -12.64987 -16.175005
10.80121 -14.041574 -14.876743
11.238996 -15.734593 -12.687819
12.968267 16.505066 -9.9361286
12.220861 14.442837 -13.333426
11.823751 12.898636 -15.138474
11.566504 11.566503 -16.307781
11.364254 10.331137 -17.227097
11.207428 9.1697121 -17.939945
11.076246 8.0554533 -18.536222
10.97124 6.9816971 -19.013523
10.887627 5.9387045 -19.393585
10.81419 4.9155383 -19.727386
10.756915 3.9116049 -19.987728
10.727025 2.9255524 -20.123589
10.697268 1.9449568 -20.258846
10.679552 0.97086811 -20.339375
10.675463 -1.9073486e-06 -20.357967
10.684742 -0.97134209 -20.315788
10.694554 -1.9444647 -20.271187
10.721373 -2.9240103 -20.149284
10.774332 -3.9179368 -19.908558
10.827817 -4.9217381 -19.665443
10.884379 -5.9369354 -19.408344
10.98329 -6.9893694 -18.958752
11.0944 -8.0686541 -18.453703
11.225979 -9.1848907 -17.855616
11.391315 -10.35574 -17.104094
11.58653 -11.586531 -16.216755
11.8594 -12.937529 -14.976435
12.27225 -14.503569 -13.099836
13.217529 -16.822311 -8.8031158
14.001534 15.168325 -10.543076
13.30333 13.303329 -13.452255
12.929125 11.851698 -15.011442
12.663516 10.552929 -16.118147
12.4543 9.340723 -16.98988
12.279974 8.1866474 -17.71624
12.165585 7.0965896 -18.192856
12.060009 6.0300031 -18.632757
11.971148 4.9879761 -19.00301
11.906119 3.9687047 -19.273966
11.86402 2.9660025 -19.449383
11.826779 1.9711323 -19.604549
11.794812 0.98290062 -19.737743
11.802779 -3.8146973e-06 -19.704552
11.814767 -0.98456383 -19.6546
11.826816 -1.9711351 -19.604399
11.863218 -2.965807 -19.452724
11.918355 -3.9727855 -19.222984
11.981733 -4.9923902 -18.958904
12.074338 -6.0371704 -18.573055
12.177554 -7.1035743 -18.142986
12.293655 -8.1957722 -17.659233
12.477799 -9.3583488 -16.891966
12.670247 -10.55854 -16.090099
12.956757 -11.877028 -14.896311
13.377383 -13.377382 -13.1437
14.198329 -15.381527 -9.723094
15.282467 14.106891 -10.104081
14.502363 12.271233 -13.104476
14.100017 10.846168 -14.651957
13.793484 9.5493317 -15.830936
13.607968 8.374136 -16.544453
13.440923 7.2374182 -17.186937
13.293329 6.1353812 -17.754606
13.190146 5.0731316 -18.151466
13.122338 4.0376449 -18.412262
13.055265 3.0127511 -18.670235
13.012023 2.0018511 -18.836552
13.000944 1.0000715 -18.879166
12.989923 -9.5367432e-07 -18.921549
12.988754 -0.99913502 -18.926048
13.023648 -2.0036392 -18.791842
13.071419 -3.0164828 -18.608112
13.122338 -4.0376434 -18.412258
13.200801 -5.0772305 -18.110485
13.321519 -6.1483951 -17.646187
13.444551 -7.2393732 -17.172979
13.632312 -8.3891144 -16.450829
13.835129 -9.578166 -15.670762
14.117718 -10.859784 -14.583882
14.565323 -12.324503 -12.862327
15.462703 -14.273263 -9.4108629
16.821745 13.217085 -8.8051348
15.830012 11.307153 -12.347038
15.366881 9.8787079 -14.001078
15.064058 8.6080322 -15.082589
14.810088 7.405045 -15.989625
14.650972 6.2789845 -16.557899
14.527065 5.1882358 -17.00042
14.422483 4.1207085 -17.373928
14.338216 3.072473 -17.674881
14.291508 2.0416441 -17.841698
14.267838 1.0191336 -17.926231
14.256642 -1.9073486e-06 -17.966219
14.267929 -1.0191402 -17.925907
14.297947 -2.0425634 -17.818697
14.348901 -3.0747657 -17.636721
14.431584 -4.1233101 -17.341427
14.540896 -5.1931763 -16.951023
14.66022 -6.2829499 -16.52487
14.859371 -7.4296851 -15.813616
15.080343 -8.617342 -15.024425
15.424856 -9.9159765 -13.794026
15.907419 -11.362442 -12.070584
17.420692 10.452414 -10.81382
16.784286 8.9516201 -12.935169
16.41452 7.66011 -14.167723
16.184921 6.473969 -14.933054
15.996302 5.3320985 -15.561791
15.83916 4.2237754 -16.085598
15.747652 3.1495299 -16.390617
15.695326 2.0927095 -16.565041
15.643345 1.0428882 -16.73831
15.619606 -2.8610229e-06 -16.81744
15.657248 -1.0438175 -16.691971
15.695888 -2.0927863 -16.563171
15.765345 -3.1530714 -16.331648
15.867743 -4.2314005 -15.99032
15.988726 -5.3295727 -15.587046
16.203283 -6.4813147 -14.871849
16.433186 -7.668817 -14.105514
16.843847 -8.9833841 -12.736643
17.543196 -10.525918 -10.405478
18.6049 8.1396437 -10.742482
18.026649 6.7599907 -12.549515
17.735758 5.5424232 -13.458556
17.512873 4.3782196 -14.155071
17.383511 3.2594066 -14.55932
17.256048 2.1570067 -14.957644
17.20715 1.0754461 -15.110455
17.211809 -9.5367432e-07 -15.095895
17.216528 -1.0760355 -15.08115
17.273821 -2.1592269 -14.902107
17.386681 -3.2600031 -14.549417
17.526463 -4.3816175 -14.112599
17.783594 -5.557373 -13.309059
18.069983 -6.7762437 -12.4141
18.661133 -8.1642456 -10.566754
19.819481 4.6634064 -10.590206
19.498514 3.4409127 -11.534226
19.303408 2.2709889 -12.108069
19.197672 1.1292739 -12.419054
19.147015 -2.3841858e-06 -12.568048
19.209198 -1.129952 -12.385153
19.285105 -2.2688375 -12.161903
19.516808 -3.4441433 -11.480424
19.888721 -4.6797032 -10.386558
