# .PCD v0.7 - Point Cloud Data file format
VERSION 0.7
FIELDS x y z
SIZE 4 4 4
TYPE F F F
COUNT 1 1 1
WIDTH 1076
HEIGHT 1
VIEWPOINT 0 0 0 1 0 0 0
POINTS 1076
DATA ascii
-22.235765 2.3406062 -10.367628
-21.985762 1.157145 -11.025535
-21.895226 -1.4305115e-06 -11.263782
-22.006254 -1.1582217 -10.971601
-22.295355 -2.3468788 -10.21081
-20.728224 6.9094076 -11.304396
-20.168774 5.602438 -12.858427
-19.870529 4.4156718 -13.686884
-19.618576 3.269762 -14.386753
-19.509819 2.1677585 -14.688856
-19.448641 1.0804806 -14.858793
-19.403496 -1.4305115e-06 -14.984194
-19.455173 -1.0808463 -14.840649
-19.516655 -2.1685171 -14.669867
-19.641859 -3.2736464 -14.322077
-19.902685 -4.4228215 -13.597565
-20.231888 -5.6199708 -12.683105
-20.802662 -6.9342217 -11.09763
-19.273825 9.070035 -12.195074
-18.735186 7.7144871 -13.77931
-18.400532 6.4943042 -14.763586
-18.155251 5.3397784 -15.485002
-17.968557 4.2278972 -16.034096
-17.824837 3.1455584 -16.456806
-17.751905 2.0884585 -16.67131
-17.689972 1.0405869 -16.853468
-17.688658 -0 -16.857338
-17.708639 -1.0416856 -16.798569
-17.732803 -2.0862122 -16.727493
-17.853746 -3.1506629 -16.371777
-17.979424 -4.2304544 -16.00214
-18.170988 -5.344409 -15.438711
-18.42712 -6.5036898 -14.685386
-18.770151 -7.7288885 -13.676468
-19.383493 -9.121645 -11.872524
-18.3232 11.452001 -11.622793
-17.660753 9.9341726 -13.692942
-17.188423 8.5942087 -15.168972
-16.936113 7.4095483 -15.957441
-16.712555 6.2672091 -16.656059
-16.561352 5.1754222 -17.128574
-16.437115 4.1092772 -17.516813
-16.332478 3.0623398 -17.843803
-16.280426 2.0350523 -18.006466
-16.245447 1.015336 -18.115774
-16.224308 -9.5367432e-07 -18.181837
-16.249805 -1.0156145 -18.102154
-16.2847 -2.0355878 -17.993111
-16.3498 -3.065588 -17.789675
-16.451714 -4.1129293 -17.471189
-16.563429 -5.1760712 -17.122082
-16.750721 -6.2815232 -16.536793
-16.947262 -7.4144268 -15.922606
-17.254776 -8.627388 -14.961619
-17.696077 -9.9540434 -13.582555
-18.44066 -11.525414 -11.255732
-16.849079 12.35599 -12.719199
-16.27342 10.848944 -14.638067
-15.919547 9.5517263 -15.81764
-15.638177 8.3403587 -16.755541
-15.440946 7.2057748 -17.412975
-15.261789 6.1047139 -18.010164
-15.150093 5.0500298 -18.382484
-15.061184 4.0163126 -18.678852
-14.980095 2.9960175 -18.949146
-14.942629 1.9923496 -19.074036
-14.914467 0.99429607 -19.167904
-14.896242 -0 -19.228655
-14.918155 -0.99454498 -19.155611
-14.946283 -1.9928379 -19.061852
-14.98428 -2.9968567 -18.9352
-15.072187 -4.0192509 -18.64217
-15.161085 -5.0536947 -18.345846
-15.281114 -6.1124477 -17.945749
-15.463947 -7.2165103 -17.336309
-15.668175 -8.3563585 -16.65555
-15.960443 -9.5762663 -15.681318
-16.329016 -10.886012 -14.452745
-16.909456 -12.400267 -12.517943
-15.570164 13.345857 -13.275065
-15.063503 11.835611 -15.084566
-14.699295 10.499496 -16.385311
-14.461135 9.2964449 -17.235882
-14.260523 8.1488695 -17.952356
-14.112671 7.0563345 -18.4804
-13.984763 5.9934707 -18.93721
-13.880116 4.9571838 -19.310951
-13.807211 3.9449167 -19.571329
-13.744452 2.94524 -19.795465
-13.698903 1.9569855 -19.958145
-13.683884 0.9774189 -20.011784
-13.671801 1.9073486e-06 -20.054935
-13.67732 -0.97695065 -20.035225
-13.712119 -1.9588747 -19.910942
-13.74894 -2.9462004 -19.779436
-13.810935 -3.9459825 -19.558029
-13.898186 -4.9636374 -19.24642
-13.989758 -5.9956102 -18.91938
-14.131927 -7.0659633 -18.411629
-14.285165 -8.1629496 -17.864353
-14.490669 -9.3154287 -17.130407
-14.731882 -10.522773 -16.268932
-15.120629 -11.880494 -14.880552
-15.664028 -13.426309 -12.939838
-14.449121 14.449121 -13.309253
-13.931506 12.859852 -15.300076
-13.604032 11.511102 -16.559597
-13.355071 10.273129 -17.517143
-13.162218 9.1123037 -18.258881
-12.985369 7.990994 -18.939072
-12.86771 6.9287667 -19.391607
-12.764536 5.8913221 -19.788425
-12.676856 4.8757129 -20.125658
-12.624488 3.8844566 -20.327072
-12.572552 2.9013548 -20.526833
-12.53477 1.9284248 -20.672142
-12.524714 0.96343803 -20.710823
-12.514709 -0 -20.749296
-12.517032 -0.96284771 -20.740368
-12.547363 -1.9303675 -20.623703
-12.577806 -2.9025717 -20.506618
-12.622051 -3.883707 -20.336449
-12.696321 -4.883203 -20.050791
-12.771472 -5.8945265 -19.761749
-12.876859 -6.9336939 -19.356419
-13.018785 -8.0115604 -18.810543
-13.173036 -9.1197958 -18.217274
-13.389133 -10.299337 -17.386127
-13.637288 -11.539247 -16.431686
-13.974458 -12.899501 -15.134883
-14.538598 -14.538597 -12.965112
-13.369326 15.597544 -13.177276
-12.889038 13.963125 -15.178471
-12.54317 12.543168 -16.619589
-12.290368 11.266171 -17.672928
-12.096083 10.080066 -18.482452
-11.948703 8.9615269 -19.096535
-11.815417 7.8769441 -19.65189
-11.717015 6.8349237 -20.061901
-11.630807 5.815402 -20.421101
-11.555842 4.8149338 -20.733452
-11.505476 3.8351583 -20.943317
-11.466361 2.8665915 -21.106291
-11.430895 1.9051485 -21.25407
-11.417646 0.95147038 -21.309265
-11.41606 -9.5367432e-07 -21.315876
-11.41606 -0.95133877 -21.315876
-11.437699 -1.9062834 -21.225716
-11.471061 -2.8677664 -21.086706
-11.506812 -3.8356018 -20.937744
-11.569274 -4.8205314 -20.677488
-11.640868 -5.8204346 -20.379177
-11.722421 -6.8380795 -20.039377
-11.837873 -7.8919148 -19.558327
-11.958249 -8.9686852 -19.056759
-12.122663 -10.102219 -18.371706
-12.313568 -11.287437 -17.576267
-12.590032 -12.590031 -16.424334
-12.937311 -14.015421 -14.977334
-13.45072 -15.692507 -12.838131
-12.486915 17.027611 -12.124088
-11.880335 15.120425 -14.881276
-11.527897 13.623875 -16.483267
-11.287149 12.313252 -17.577572
-11.091307 11.091307 -18.467766
-10.930286 9.9366226 -19.199677
-10.804717 8.8402214 -19.770447
-10.693359 7.776988 -20.276617
-10.601007 6.7460961 -20.696396
-10.533098 5.7453246 -21.005081
-10.466022 4.7572832 -21.309971
-10.421347 3.7895794 -21.513035
-10.391399 2.8340149 -21.649164
-10.361623 1.8839283 -21.784512
-10.349657 0.94087696 -21.838902
-10.349657 9.5367432e-07 -21.838898
-10.349657 -0.94087887 -21.838898
-10.365203 -1.8845825 -21.768238
-10.395 -2.8349991 -21.632797
-10.424969 -3.7909002 -21.496574
-10.474166 -4.7609854 -21.272953
-10.541409 -5.7498631 -20.967299
-10.609554 -6.7515364 -20.657551
-10.707493 -7.7872677 -20.21237
-10.819478 -8.8523006 -19.703348
-10.950674 -9.9551592 -19.107004
-11.115127 -11.115129 -18.359491
-11.312036 -12.340402 -17.464457
-11.56197 -13.664146 -16.328384
-11.953021 -15.212935 -14.550883
-12.588644 -17.166334 -11.661686
-11.805855 18.889366 -9.8535213
-10.938106 16.407156 -14.192272
-10.568109 14.79535 -16.042253
-10.308241 13.400713 -17.341589
-10.10095 12.12114 -18.378044
-9.9444532 10.938898 -19.16053
-9.8003054 9.8003044 -19.881268
-9.7064295 8.7357826 -20.350651
-9.6143045 7.691442 -20.811272
-9.5406837 6.6784778 -21.179375
-9.4840584 5.6904354 -21.462502
-9.4305334 4.7152653 -21.730133
-9.391345 3.7565374 -21.926071
-9.3645916 2.8093748 -22.059839
-9.3416491 1.8683281 -22.174549
-9.3286791 0.93286991 -22.239401
-9.3275967 -9.5367432e-07 -22.244808
-9.3302202 -0.93302059 -22.231693
-9.343195 -1.868639 -22.166821
-9.3677807 -2.8103333 -22.043896
-9.3952379 -3.7580967 -21.906607
-9.4353991 -4.7177 -21.705803
-9.4908829 -5.6945333 -21.428379
-9.5475626 -6.6832948 -21.144985
-9.6253757 -7.7003026 -20.755917
-9.7176838 -8.7459154 -20.294376
-9.8133059 -9.8133049 -19.816273
-9.963479 -10.959829 -19.065399
-10.118895 -12.142674 -18.288324
-10.339637 -13.441528 -17.18461
-10.60782 -14.850949 -15.843699
-10.980538 -16.47081 -13.980104
-10.060009 17.884459 -12.993858
-9.631547 16.052578 -15.374199
-9.340785 14.530111 -16.989542
-9.137517 13.198633 -18.118816
-8.9782782 11.971037 -19.003475
-8.8529491 10.820271 -19.699741
-8.7433538 9.714839 -20.308605
-8.6544781 8.6544743 -20.802368
-8.5781221 7.6249943 -21.226564
-8.5144749 6.6223669 -21.580156
-8.4599867 5.6399899 -21.88287
-8.4201937 4.6778851 -22.103941
-8.3847036 3.726532 -22.301109
-8.355485 2.7851601 -22.463436
-8.3419847 1.853775 -22.538437
-8.330492 0.92560768 -22.602283
-8.3230238 9.5367432e-07 -22.643776
-8.3318348 -0.92576122 -22.594828
-8.3433542 -1.8540783 -22.530827
-8.3582582 -2.7860861 -22.448032
-8.3889294 -3.7284136 -22.277634
-8.4244795 -4.6802664 -22.080128
-8.4660206 -5.6440153 -21.84935
-8.5221415 -6.6283321 -21.537569
-8.5859032 -7.6319132 -21.183334
-8.6644192 -8.6644211 -20.747135
-8.7553272 -9.7281437 -20.24209
-8.8678026 -10.838425 -19.617224
-8.9936113 -11.991484 -18.918293
-9.1598244 -13.230859 -17.994881
-9.3676119 -14.571839 -16.840511
-9.6749802 -16.124968 -15.132906
-10.131195 -18.011013 -12.598383
-9.3969059 19.968422 -10.152135
-8.7268152 17.453629 -14.340203
-8.4113703 15.771317 -16.311733
-8.1979628 14.346434 -17.645531
-8.0349379 13.056773 -18.664434
-7.903616 11.855423 -19.485195
-7.7933736 10.715888 -20.174213
-7.7056246 9.6320305 -20.722645
-7.6219273 8.574666 -21.24575
-7.5628867 7.5628867 -21.614754
-7.5072265 6.5688238 -21.962629
-7.4594188 5.5945644 -22.261429
-7.4297128 4.6435699 -22.447094
-7.4002423 3.7001209 -22.631283
-7.3753123 2.7657423 -22.787096
-7.3651009 1.8412733 -22.850918
-7.3555474 0.91944408 -22.910624
-7.3487244 -9.5367432e-07 -22.953268
-7.3567243 -0.91959286 -22.903269
-7.3662601 -1.8415651 -22.843674
-7.3762841 -2.7661076 -22.781021
-7.4038601 -3.70193 -22.608673
-7.4333591 -4.645853 -22.424301
-7.4630723 -5.5973048 -22.238588
-7.5139093 -6.5746703 -21.920864
-7.5696907 -7.5696902 -21.572227
-7.6306019 -8.5844278 -21.191534
-7.7160397 -9.6450491 -20.657551
-7.804997 -10.731871 -20.101564
-7.9189067 -11.878362 -19.389626
-8.0543432 -13.088306 -18.543152
-8.2181635 -14.381788 -17.519272
-8.4411821 -15.827217 -16.125414
-8.7857494 -17.571499 -13.971864
-7.8864107 19.152712 -12.551291
-7.4953904 17.132318 -15.344291
-7.2700958 15.578776 -16.953539
-7.0983133 14.196627 -18.180555
-6.9649696 12.934942 -19.133011
-6.8532853 11.748488 -19.930756
-6.7644482 10.629848 -20.565308
-6.6932812 9.5618286 -21.073643
-6.6266551 8.5199852 -21.549543
-6.577723 7.5173955 -21.899061
-6.5322332 6.5322323 -22.223986
-6.4944768 5.5666933 -22.493679
-6.4655294 4.6182356 -22.700439
-6.4400234 3.6800127 -22.882629
-6.4219766 2.7522736 -23.011532
-6.4097891 1.8313675 -23.098587
-6.4015198 0.91450119 -23.157654
-6.3989015 -9.5367432e-07 -23.176357
-6.4030299 -0.91472054 -23.146868
-6.4108653 -1.8316755 -23.0909
-6.422709 -2.7525911 -23.006302
-6.4439464 -3.6822567 -22.854603
-6.4690385 -4.6207418 -22.675379
-6.497117 -5.5689592 -22.474815
-6.5381489 -6.5381489 -22.181736
-6.5836625 -7.5241852 -21.856636
-6.633954 -8.5293694 -21.497414
-6.702003 -9.5742893 -21.011349
-6.7730718 -10.643398 -20.503716
-6.8663197 -11.770834 -19.837656
-6.9786916 -12.960428 -19.034994
-7.1181626 -14.236327 -18.038776
-7.2955232 -15.633267 -16.771915
-7.5320039 -17.216011 -15.082767
-7.985682 -19.393797 -11.842211
-6.6177664 18.75034 -13.734741
-6.3509383 16.935837 -15.958311
-6.1647639 15.411909 -17.509762
-6.0288186 14.067244 -18.642641
-5.9264388 12.840616 -19.495804
-5.8380318 11.676063 -20.232533
-5.7661023 10.571186 -20.831942
-5.7044892 9.5074806 -21.345387
-5.6518769 8.4778147 -21.783821
-5.6079197 7.4772239 -22.150133
-5.5682511 6.496294 -22.480701
-5.5395455 5.5395451 -22.719917
-5.5136518 4.5947075 -22.935698
-5.4901843 3.6601238 -23.131264
-5.47788 2.7389402 -23.233799
-5.4672399 1.8224125 -23.32246
-5.457675 0.90961266 -23.402172
-5.458261 -0 -23.397285
-5.4617653 -0.91029644 -23.368082
-5.4656773 -1.8218908 -23.335487
-5.4784083 -2.7392054 -23.229397
-5.4964194 -3.6642818 -23.0793
-5.5150852 -4.5959053 -22.923756
-5.541533 -5.5415335 -22.703358
-5.5757761 -6.5050731 -22.417995
-5.6122389 -7.4829841 -22.114141
-5.6575737 -8.4863586 -21.736349
-5.7125559 -9.5209255 -21.278164
-5.7727909 -10.583449 -20.776207
-5.8491373 -11.698277 -20.139986
-5.9377379 -12.865099 -19.401648
-6.0445013 -14.103835 -18.511953
-6.1822119 -15.455529 -17.364363
-6.3772831 -17.006088 -15.738776
-6.6610041 -18.872843 -13.374431
-5.8850732 21.186264 -10.032063
-5.4383144 18.490267 -14.499657
-5.2375312 16.760098 -16.507484
-5.100421 15.301266 -17.878582
-4.9932723 13.98116 -18.950075
-4.9103813 12.766989 -19.778988
-4.8370647 11.608954 -20.51215
-4.7810574 10.518325 -21.072224
-4.7268734 9.4537449 -21.614059
-4.686687 8.4360361 -22.015924
-4.6504283 7.4406824 -22.378519
-4.6159172 6.4622822 -22.723625
-4.5953398 5.5144053 -22.929398
-4.574945 4.5749445 -23.133347
-4.5556979 3.644556 -23.325817
-4.5465975 2.7279577 -23.416821
-4.5381985 1.815279 -23.500811
-4.5298433 0.90596581 -23.584362
-4.5310807 -9.5367432e-07 -23.571987
-4.5338635 -0.90677357 -23.544159
-4.5366373 -1.8146582 -23.516418
-4.5470343 -2.7282219 -23.412457
-4.5612249 -3.6489792 -23.270546
-4.5755048 -4.5755053 -23.12775
-4.5967708 -5.5161276 -22.915091
-4.6236496 -6.4731116 -22.646299
-4.6521893 -7.4435048 -22.360903
-4.6910043 -8.4438095 -21.972752
-4.7360835 -9.472168 -21.521959
-4.7837009 -10.524143 -21.045786
-4.8489151 -11.637398 -20.393646
-4.919508 -12.79072 -19.687712
-5.0083628 -14.023417 -18.79917
-5.114574 -15.343722 -17.737059
-5.2573128 -16.823399 -16.309671
-5.4733496 -18.609388 -14.149301
-4.581387 20.61624 -11.615457
-4.3058882 18.300026 -15.059191
-4.1628175 16.651266 -16.84758
-4.0579052 15.217142 -18.158983
-3.9736066 13.907621 -19.212713
-3.9084463 12.702452 -20.027214
-3.8509798 11.552936 -20.745552
-3.8088665 10.474382 -21.271965
-3.7676644 9.419158 -21.786991
-3.7372348 8.4087763 -22.167362
-3.7097924 7.4195809 -22.510391
-3.6848903 6.4485588 -22.821667
-3.6665132 5.4997702 -23.05138
-3.6502838 4.5628538 -23.25425
-3.6365998 3.6365995 -23.425301
-3.6275306 2.7206497 -23.538666
-3.6208472 1.8104239 -23.622204
-3.6157014 0.9039259 -23.686529
-3.6157014 -1.9073486e-06 -23.686529
-3.617378 -0.90434456 -23.665573
-3.6197579 -1.8098803 -23.63582
-3.6287985 -2.7216015 -23.522816
-3.6393447 -3.6393452 -23.390987
-3.6506979 -4.5633726 -23.249075
-3.66854 -5.5028124 -23.026047
-3.6894422 -6.4565244 -22.764767
-3.7110865 -7.422174 -22.494213
-3.7409055 -8.417038 -22.121477
-3.7748015 -9.437006 -21.697779
-3.8103321 -10.478415 -21.253643
-3.8595004 -11.578502 -20.639042
-3.9132583 -12.718089 -19.967066
-3.9852684 -13.948441 -19.06694
-4.067162 -15.251855 -18.043274
-4.1798759 -16.719501 -16.634354
-4.3311396 -18.407345 -14.743553
-4.6389227 -20.875151 -10.896267
-3.3864462 20.318678 -12.442025
-3.2085419 18.181738 -15.407097
-3.1019709 16.543844 -17.183281
-3.0282607 15.1413 -18.411785
-2.968869 13.854719 -19.401649
-2.9230988 12.666761 -20.16448
-2.8825262 11.530101 -20.840694
-2.8497021 10.448908 -21.38776
-2.819839 9.3994637 -21.885477
-2.7965608 8.3896809 -22.273449
-2.7752023 7.4005375 -22.629421
-2.7578576 6.4350014 -22.918503
-2.7436333 5.4872646 -23.155575
-2.7304966 4.550827 -23.374519
-2.7214992 3.6286659 -23.524479
-2.7147346 2.7147331 -23.63722
-2.708391 1.8055916 -23.742947
-2.7057798 0.90192604 -23.786469
-2.7057722 -9.5367432e-07 -23.786592
-2.7057948 -0.90193176 -23.786213
-2.7088544 -1.8059034 -23.735224
-2.715605 -2.7156057 -23.622711
-2.7223816 -3.6298447 -23.509769
-2.7313929 -4.5523224 -23.359585
-2.7455058 -5.4910135 -23.124367
-2.7600019 -6.4400053 -22.882761
-2.7767189 -7.4045839 -22.604145
-2.799691 -8.3990746 -22.221279
-2.8242357 -9.4141169 -21.812202
-2.8526576 -10.459745 -21.338507
-2.888278 -11.553111 -20.744831
-2.9262619 -12.680469 -20.111767
-2.9772365 -13.893772 -19.262184
-3.032655 -15.163276 -18.338543
-3.1169021 -16.62348 -16.934429
-3.2285628 -18.295189 -15.073415
-3.4211133 -20.526678 -11.864244
-2.239922 20.159296 -12.884747
-2.1276724 18.085213 -15.69099
-2.0618663 16.494928 -17.336142
-2.0153511 15.115129 -18.499022
-1.976432 13.835022 -19.472
-1.9445057 12.639284 -20.270159
-1.9184537 11.510723 -20.921452
-1.8954879 10.425181 -21.4956
-1.8762376 9.3811874 -21.976854
-1.8607842 8.3735256 -22.363192
-1.845578 7.3823099 -22.743347
-1.8347145 6.4215002 -23.014931
-1.8252764 5.4758301 -23.250887
-1.8162577 4.5406437 -23.476349
-1.8109331 3.6218662 -23.60947
-1.8066175 2.7099266 -23.717354
-1.8023276 1.8023272 -23.824604
-1.8008351 0.90041542 -23.861919
-1.8008301 -9.5367432e-07 -23.862041
-1.8008251 -0.90041447 -23.862171
-1.8028427 -1.8028421 -23.811728
-1.8071401 -2.7107105 -23.704296
-1.811458 -3.6229134 -23.596346
-1.8173501 -4.543376 -23.449047
-1.8264158 -5.479249 -23.222399
-1.8358815 -6.4255843 -22.98576
-1.847448 -7.3897905 -22.696598
-1.8627067 -8.3821821 -22.315128
-1.878269 -9.3913441 -21.926071
-1.8983893 -10.441145 -21.423061
-1.9214431 -11.52866 -20.846718
-1.9474119 -12.658178 -20.1975
-1.981293 -13.86905 -19.350471
-2.0191252 -15.143442 -18.404661
-2.0709281 -16.567425 -17.109591
-2.1400948 -18.190804 -15.380427
-2.2650113 -20.385099 -12.257515
-1.1128892 20.032005 -13.238337
-1.0632457 18.075178 -15.720512
-1.0304116 16.486582 -17.362219
-1.0059369 15.08905 -18.585953
-0.98700064 13.818007 -19.532764
-0.97037077 12.614818 -20.364262
-0.95768261 11.492189 -20.998667
-0.94675696 10.414324 -21.54495
-0.93724459 9.3724432 -22.020565
-0.92985713 8.3687134 -22.389938
-0.92258531 7.3806829 -22.753532
-0.91713762 6.4199638 -23.025915
-0.9126097 5.4756575 -23.25231
-0.90812635 4.5406303 -23.476479
-0.90536463 3.6214571 -23.614563
-0.90316945 2.7095079 -23.724325
-0.90102512 1.8020506 -23.831539
-0.90038735 0.90038586 -23.86343
-0.9002412 -9.5367432e-07 -23.870733
-0.90023869 -0.90023899 -23.870859
-0.9015072 -1.8030157 -23.807434
-0.90345079 -2.7103539 -23.710255
-0.90560925 -3.6224375 -23.602333
-0.90889323 -4.5444679 -23.438135
-0.91319752 -5.4791842 -23.222918
-0.91772866 -6.4241004 -22.996363
-0.92353839 -7.388308 -22.705877
-0.93078762 -8.3770895 -22.34341
-0.93817902 -9.3817921 -21.973845
-0.94808179 -10.4289 -21.478708
-0.95899528 -11.507946 -20.933027
-0.97235268 -12.640585 -20.265163
-0.98914236 -13.847994 -19.425676
-1.0088443 -15.132663 -18.440582
-1.0342894 -16.54863 -17.168327
-1.0692617 -18.17745 -15.419711
-1.1254638 -20.258352 -12.6096
0 20.100052 -13.049317
0 18.091913 -15.671288
0 16.478247 -17.388269
0 15.083443 -18.604654
0 13.818645 -19.530493
0 12.626202 -20.320478
0 11.500881 -20.962444
0 10.422083 -21.509689
0 9.3806133 -21.979725
0 8.3710604 -22.376904
0 7.3828831 -22.739777
0 6.4231682 -23.003033
0 5.4756422 -23.252438
0 4.542182 -23.46097
0 3.6227112 -23.598896
0 2.7090893 -23.731295
0 1.8022861 -23.825611
0 0.9006052 -23.85247
0 -0 -23.879295
0 -0.9001255 -23.876652
0 -1.8034878 -23.795692
0 -2.7101097 -23.714314
0 -3.6219578 -23.608322
0 -4.5462751 -23.420033
0 -5.4794016 -23.221104
0 -6.4243569 -22.99453
0 -7.3933358 -22.674448
0 -8.3800468 -22.326984
0 -9.3878918 -21.943331
0 -10.437972 -21.437473
0 -11.518068 -20.890844
0 -12.65167 -20.222528
0 -13.846715 -19.430239
0 -15.124936 -18.466343
0 -16.529879 -17.226927
0 -18.180651 -15.410294
0 -20.291632 -12.517154
1.1214831 20.186695 -12.808642
1.0655092 18.113655 -15.607338
1.0321432 16.514288 -17.275637
1.0083259 15.124889 -18.466499
0.98886883 13.844162 -19.439356
0.97271419 12.645284 -20.247089
0.95984763 11.518171 -20.890413
0.94817114 10.42988 -21.474241
0.9389838 9.3898335 -21.933609
0.93073922 8.3766518 -22.345837
0.92339796 7.3871832 -22.712898
0.9181267 6.4268875 -22.97646
0.91291779 5.4775066 -23.236906
0.90874946 4.5437489 -23.445322
0.90598911 3.6239548 -23.583344
0.90324545 2.7097349 -23.720526
0.90136331 1.8027239 -23.814632
0.900841 0.90083981 -23.840748
0.9003219 -3.8146973e-06 -23.866707
0.90038985 -0.90039253 -23.863304
0.90197712 -1.8039541 -23.783939
0.90360558 -2.7108154 -23.702515
0.90569586 -3.6227856 -23.598001
0.90961504 -4.5480757 -23.402042
0.91356826 -5.48141 -23.204384
0.91818953 -6.4273291 -22.97332
0.92479366 -7.3983512 -22.643112
0.93149358 -8.3834438 -22.308119
0.93986952 -9.398695 -21.889324
0.94993716 -10.449307 -21.385941
0.96068716 -11.528248 -20.848434
0.97503054 -12.675397 -20.131271
0.99073488 -13.870288 -19.346052
1.0113488 -15.170231 -18.315353
1.035544 -16.568703 -17.105595
1.0698909 -18.188145 -15.388252
1.1335667 -20.404203 -12.204458
2.2609377 20.348438 -12.359352
2.1439869 18.223888 -15.283123
2.0735099 16.588079 -17.045044
2.0222147 15.166609 -18.327429
1.9830326 13.881228 -19.306982
1.9483669 12.664385 -20.173624
1.922838 11.537027 -20.811848
1.8992633 10.445948 -21.401213
1.8811839 9.4059181 -21.853199
1.8653409 8.3940363 -22.249271
1.8503104 7.4012403 -22.625034
1.8401538 6.4405365 -22.87895
1.8301029 5.4903078 -23.130224
1.821454 4.5536337 -23.346443
1.8161091 3.6322174 -23.480066
1.8108464 2.7162676 -23.611633
1.8068712 1.8068695 -23.711018
1.805832 0.90291882 -23.736996
1.8048143 -0 -23.76244
1.8049306 -0.90246773 -23.759533
1.8080741 -1.8080778 -23.680943
1.8112236 -2.716836 -23.602207
1.8155816 -3.6311626 -23.493258
1.8231721 -4.5579309 -23.303492
1.8308213 -5.492466 -23.112263
1.8403853 -6.4413495 -22.873161
1.853134 -7.4125371 -22.554451
1.8660657 -8.3972969 -22.231152
1.8831488 -9.4157419 -21.804077
1.9025081 -10.463797 -21.320095
1.9246204 -11.547723 -20.767286
1.9538791 -12.700214 -20.03582
1.9860003 -13.902 -19.232792
2.0288565 -15.216425 -18.161377
2.082237 -16.657898 -16.826874
2.1545439 -18.313625 -15.019197
2.291501 -20.623507 -11.595275
3.4602263 20.761356 -11.21236
3.240624 18.363533 -14.872396
3.1242249 16.662529 -16.812386
3.0457716 15.228858 -18.119938
2.9862056 13.935625 -19.112701
2.9360325 12.722809 -19.948919
2.8965011 11.586003 -20.60778
2.8615775 10.492447 -21.189838
2.8317323 9.4391069 -21.687258
2.8078251 8.4234734 -22.085711
2.7847919 7.4261112 -22.469597
2.7681446 6.4590015 -22.747051
2.7534609 5.5069218 -22.991781
2.7393517 4.5655832 -23.226934
2.7309291 3.6412363 -23.36731
2.7238486 2.7238474 -23.485317
2.7171335 1.8114214 -23.59724
2.7150018 0.90499973 -23.632771
2.7146049 -1.9073486e-06 -23.639385
2.7146049 -0.90487099 -23.639385
2.7183881 -1.8122625 -23.576328
2.7244098 -2.724412 -23.475967
2.7311609 -3.6415491 -23.363445
2.7416153 -4.5693598 -23.189205
2.7545686 -5.5091381 -22.97332
2.7688036 -6.4605427 -22.736071
2.7878397 -7.4342399 -22.418802
2.8094265 -8.4282808 -22.059021
2.8349333 -9.4497776 -21.633907
2.8641837 -10.502005 -21.146404
2.8996327 -11.598531 -20.555586
2.9418478 -12.748008 -19.852001
2.9919708 -13.962531 -19.016615
3.0532169 -15.266086 -17.995842
3.1402495 -16.747999 -16.545303
3.2629447 -18.490019 -14.500389
3.5085368 -21.051222 -10.407183
4.362195 18.539326 -14.35536
4.2033777 16.813515 -16.34057
4.0936499 15.351186 -17.712173
4.0058427 14.020448 -18.809767
3.9373641 12.796431 -19.665745
3.8795998 11.638799 -20.387802
3.8325207 10.539431 -20.976284
3.7890229 9.4725571 -21.520006
3.7572725 8.4538631 -21.916889
3.7263408 7.4526801 -22.303535
3.7016532 6.4778929 -22.612129
3.6825292 5.5237932 -22.851181
3.6636019 4.5795002 -23.087776
3.6509979 3.6509991 -23.245319
3.6419499 2.7314615 -23.358425
3.632946 1.8164711 -23.47097
3.6293716 0.90734196 -23.515652
3.6293716 -9.5367432e-07 -23.515652
3.6293716 -0.90734291 -23.515654
3.6339512 -1.8169765 -23.458408
3.6429698 -2.7322292 -23.345673
3.6520233 -3.6520243 -23.232502
3.6656883 -4.5821085 -23.061691
3.6845951 -5.5268946 -22.825356
3.7036979 -6.4814696 -22.586573
3.7295146 -7.4590316 -22.263863
3.7603786 -8.4608536 -21.878063
3.7936234 -9.4840593 -21.462502
3.8368273 -10.551275 -20.922457
3.8844461 -11.653339 -20.327221
3.9434795 -12.81631 -19.589306
4.0151882 -14.053157 -18.692942
4.1026521 -15.384945 -17.599649
4.2192216 -16.876884 -16.14253
4.3929048 -18.669844 -13.971491
5.5593319 18.90173 -13.289476
5.3168607 17.013954 -15.71419
5.1609974 15.482992 -17.272823
5.0387564 14.108517 -18.495232
4.9514341 12.873726 -19.36846
4.8717136 11.69211 -20.165663
4.8126159 10.587753 -20.756638
4.7571421 9.5142822 -21.311377
4.7176995 8.4918604 -21.705803
4.6802258 7.488359 -22.080544
4.6478758 6.5070257 -22.404037
4.6245131 5.5494165 -22.637665
4.6015029 4.6015024 -22.867767
4.584878 3.667901 -23.034016
4.5738006 2.7442789 -23.144787
4.5628548 1.8251429 -23.25425
4.5548725 0.91097546 -23.334068
4.5533776 9.5367432e-07 -23.34902
4.5554399 -0.91108894 -23.328396
4.5641489 -1.8256607 -23.241308
4.5751143 -2.7450686 -23.131653
4.5862765 -3.6690226 -23.020035
4.6042676 -4.604269 -22.840117
4.627306 -5.5527678 -22.609737
4.6508312 -6.5111632 -22.374483
4.6847358 -7.4955788 -22.035437
4.7222819 -8.5001078 -21.659973
4.7637892 -9.5275803 -21.244904
4.8194337 -10.602757 -20.688457
4.8786998 -11.708878 -20.095798
4.9612498 -12.899252 -19.270292
5.0517755 -14.144972 -18.365042
5.1755552 -15.526668 -17.127245
5.3388758 -17.084402 -15.494037
5.5999417 -19.039803 -12.883381
6.8463511 19.397991 -11.829876
6.4683518 17.248936 -14.979864
6.2492375 15.623095 -16.805811
6.1030369 14.240418 -18.024155
5.9908299 12.980131 -18.959215
5.8927627 11.785525 -19.776438
5.8191013 10.66835 -20.390287
5.7515211 9.5858669 -20.953455
5.6983781 8.5475655 -21.396313
5.6520262 7.5360341 -21.782578
5.6105919 6.5456886 -22.127865
5.5811262 5.5811253 -22.373411
5.5529108 4.6274233 -22.608538
5.531579 3.6877184 -22.786304
5.5175905 2.7587938 -22.902872
5.5041747 1.8347254 -23.014673
5.4943395 0.91572285 -23.096636
5.4896688 -9.5367432e-07 -23.135555
5.4950428 -0.91584015 -23.090771
5.5057602 -1.8352547 -23.001461
5.519278 -2.7596388 -22.888811
5.5332751 -3.6888542 -22.772171
5.5562663 -4.6302204 -22.580578
5.5846615 -5.5846624 -22.343952
5.6141644 -6.5498595 -22.098095
5.6575074 -7.543344 -21.736904
5.7041855 -8.5562801 -21.347916
5.7596188 -9.5993633 -20.885975
5.8273902 -10.68355 -20.321209
5.9044752 -11.80895 -19.678837
6.0029354 -13.006359 -18.858335
6.1203699 -14.280865 -17.879717
6.2683887 -15.670971 -16.646223
6.4976931 -17.327181 -14.735357
6.9356899 -19.651123 -11.085381
7.6928596 17.583679 -13.933798
7.4052629 15.86842 -15.98806
7.2115188 14.423038 -17.371948
7.0614233 13.114071 -18.444061
6.9402938 11.897644 -19.309271
6.8449144 10.756294 -19.990549
6.7609568 9.6585102 -20.590248
6.6938982 8.6064377 -21.069239
6.6375303 7.5857491 -21.471867
6.5848174 6.5848169 -21.848389
6.5500298 5.6143093 -22.096867
6.5156078 4.6540051 -22.342739
6.488584 3.7077589 -22.535769
6.4720864 2.7737522 -22.653606
6.4556727 1.8444786 -22.770847
6.4464545 0.92092228 -22.836693
6.4464545 -1.9073486e-06 -22.836693
6.4464359 -0.92092133 -22.836826
6.4576344 -1.8450394 -22.756838
6.4740582 -2.7745991 -22.639523
6.4905658 -3.7088947 -22.52161
6.5197372 -4.6569548 -22.31324
6.554203 -5.6178899 -22.067059
6.5896902 -6.5896921 -21.81358
6.6442847 -7.5934701 -21.423618
6.7007875 -8.6152973 -21.020031
6.7705679 -9.6722374 -20.521599
6.8552876 -10.772597 -19.916456
6.9542193 -11.92152 -19.209801
7.076818 -13.142662 -18.334099
7.2322626 -14.464527 -17.22378
7.4365525 -15.935472 -15.764562
7.745388 -17.703747 -13.558596
9.0799198 18.15984 -12.133297
8.6278801 16.177273 -14.958548
8.3599949 14.629987 -16.632828
8.158967 13.258323 -17.88925
8.0135298 12.020296 -18.798233
7.8917694 10.851181 -19.559235
7.7972202 9.7465239 -20.150171
7.7119489 8.6759396 -20.683119
7.6487603 7.6487579 -21.078045
7.587873 6.6393886 -21.45859
7.5437627 5.6578217 -21.734276
7.5051255 4.6906996 -21.975761
7.4716496 3.7358255 -22.184988
7.4523792 2.7946415 -22.305426
7.4339385 1.8584814 -22.420681
7.4239707 0.92799664 -22.482979
7.4239707 -9.5367432e-07 -22.482979
7.4244204 -0.92805481 -22.480171
7.4361291 -1.8590345 -22.406994
7.4546018 -2.7954769 -22.291534
7.4753804 -3.7376909 -22.161667
7.5097666 -4.6936064 -21.946754
7.5484519 -5.6613369 -21.704971
7.5945878 -6.6452656 -21.416622
7.6563573 -7.6563597 -21.030563
7.7196717 -8.6846313 -20.634848
7.8085475 -9.7606859 -20.079372
7.9033737 -10.867142 -19.486712
8.0308523 -12.046279 -18.689968
8.1769247 -13.287505 -17.777018
8.3864374 -14.676265 -16.467566
8.6693087 -16.254951 -14.699621
9.1696272 -18.339254 -11.572628
9.9278412 16.546402 -13.728125
9.566967 14.881946 -15.732982
9.3171082 13.458042 -17.121084
9.1300564 12.173409 -18.160259
8.9883919 10.98581 -18.947289
8.8761454 9.8623838 -19.570873
8.7736263 8.7736263 -20.140427
8.6908321 7.7251854 -20.600391
8.6231718 6.7069097 -20.976286
8.5617418 5.7078266 -21.317564
8.5181065 4.7322798 -21.559986
8.4826069 3.7700481 -21.757196
8.4525557 2.8175182 -21.924152
8.4352751 1.8745041 -22.020157
8.4238911 0.93598652 -22.083401
8.4186029 -9.5367432e-07 -22.11278
8.4252396 -0.93613625 -22.075909
8.4366264 -1.8748064 -22.01265
8.4550972 -2.8183651 -21.910034
8.4868574 -3.7719383 -21.733585
8.5228186 -4.7348986 -21.533806
8.5675154 -5.711679 -21.285484
8.6308804 -6.7129064 -20.93346
8.6995516 -7.7329345 -20.551956
8.7856827 -8.7856808 -20.073454
8.8891945 -9.8768845 -19.498383
9.0037317 -11.004562 -18.862068
9.150218 -12.200293 -18.048254
9.3455477 -13.499125 -16.963089
9.6087017 -14.946872 -15.50112
10.00386 -16.673103 -13.305795
11.607637 17.411457 -10.844605
10.932606 15.305648 -14.219769
10.5575 13.724746 -16.095299
10.315807 12.378967 -17.303759
10.129691 11.14266 -18.234339
9.9809999 9.980999 -18.977795
9.8656197 8.8790569 -19.554701
9.7539396 7.8031511 -20.113098
9.6797447 6.7758198 -20.48407
9.6080198 5.7648082 -20.842701
9.5524368 4.7762184 -21.120613
9.5131025 3.8052406 -21.317284
9.4743423 2.8423023 -21.511082
9.4573307 1.8914652 -21.59614
9.4447861 0.94447899 -21.658867
9.4337673 -1.9073486e-06 -21.713964
9.4462557 -0.94462872 -21.65152
9.4588041 -1.8917608 -21.588772
9.479003 -2.8437033 -21.487782
9.5178013 -3.8071232 -21.293789
9.5573158 -4.7786593 -21.096218
9.6166611 -5.7699966 -20.799492
9.6885166 -6.7819624 -20.440212
9.7672014 -7.8137636 -20.046787
9.8793383 -8.8914042 -19.486105
9.9958496 -9.9958487 -18.903549
10.150074 -11.165083 -18.132425
10.341497 -12.409799 -17.17531
10.596712 -13.775725 -15.899236
10.985111 -15.379157 -13.957242
11.813309 -17.719963 -9.8162546
12.523271 15.938707 -11.95884
11.922226 14.089905 -14.69086
11.588691 12.642207 -16.206928
11.338339 11.338337 -17.344891
11.151013 10.137284 -18.196369
11.002064 9.0016861 -18.873415
10.879329 7.9122362 -19.431301
10.79072 6.8668213 -19.834068
10.712224 5.8430314 -20.190868
10.642886 4.8376751 -20.506042
10.594916 3.8526945 -20.724087
10.555113 2.878664 -20.905008
10.526364 1.9138813 -21.035686
10.512236 0.95565605 -21.099905
10.507648 9.5367432e-07 -21.120756
10.513922 -0.9558115 -21.092243
10.528054 -1.9141922 -21.028004
10.558986 -2.8797207 -20.887405
10.600246 -3.8546371 -20.69986
10.65102 -4.8413725 -20.46907
10.721665 -5.8481822 -20.147955
10.800334 -6.8729391 -19.790371
10.891412 -7.9210277 -19.376379
11.019873 -9.0162601 -18.792465
11.173364 -10.157603 -18.094782
11.364619 -11.364621 -17.225435
11.62305 -12.679691 -16.050755
11.978947 -14.156938 -14.433035
12.63411 -16.079779 -11.455021
13.587773 14.720083 -12.267079
12.999848 12.999847 -14.716764
12.652438 11.598068 -16.164301
12.405373 10.33781 -17.193747
12.219939 9.1649542 -17.966383
12.065926 8.0439482 -18.608109
11.943456 6.9670157 -19.118397
11.85095 5.9254756 -19.503838
11.775212 4.9063373 -19.819412
11.704054 3.9013481 -20.115908
11.665553 2.9163866 -20.276323
11.630036 1.9383383 -20.424311
11.608886 0.96740723 -20.51244
11.608886 -1.9073486e-06 -20.51244
11.608886 -0.96740723 -20.512436
11.634311 -1.9390526 -20.406502
11.669853 -2.9174652 -20.258404
11.710052 -3.9033508 -20.090918
11.784339 -4.9101439 -19.781385
11.860194 -5.9301009 -19.465322
11.956656 -6.9747176 -19.063393
12.081136 -8.0540915 -18.544725
12.239964 -9.1799726 -17.88295
12.434731 -10.362279 -17.071415
12.683563 -11.6266 -16.034616
13.046884 -13.046887 -14.52078
13.695323 -14.836602 -11.818947
14.717757 13.585621 -12.27604
14.129875 11.956049 -14.537119
13.789756 10.607506 -15.845274
13.53616 9.3711872 -16.820641
13.336849 8.2072926 -17.587223
13.182291 7.0981565 -18.181679
13.059954 6.0276713 -18.65221
12.960107 4.9846549 -19.036234
12.885782 3.9648542 -19.322098
12.841761 2.9634819 -19.491409
12.803091 1.9697056 -19.640139
12.777909 0.98291492 -19.736996
12.775293 -3.8146973e-06 -19.747051
12.780484 -0.9831152 -19.727089
12.807755 -1.9704247 -19.622204
12.846493 -2.9645739 -19.473209
12.891539 -3.9666281 -19.299953
12.970554 -4.9886732 -18.996052
13.072357 -6.0333977 -18.604496
13.198969 -7.1071396 -18.117535
13.357202 -8.2198172 -17.508942
13.562269 -9.389267 -16.720224
13.829505 -10.638079 -15.692398
14.188769 -12.005879 -14.310608
14.855355 -13.712633 -11.746818
16.073353 12.629064 -11.477966
15.405396 11.00385 -13.86353
15.00631 9.6469135 -15.288836
14.73617 8.4206676 -16.253616
14.528893 7.2644472 -16.993895
14.372062 6.1594567 -17.554007
14.243617 5.0870037 -18.012737
14.152524 4.0435796 -18.338066
14.078408 3.0168009 -18.602768
14.03626 2.0051794 -18.753296
14.0126 1.0008974 -18.837797
13.993797 -9.5367432e-07 -18.904947
14.015477 -1.0011072 -18.827522
14.039146 -2.0055943 -18.742989
14.087343 -3.0187178 -18.570854
14.161554 -4.0461578 -18.305817
14.257229 -5.0918655 -17.964125
14.388492 -6.1664987 -17.495325
14.551181 -7.2755885 -16.914293
14.763307 -8.4361763 -16.1567
15.044491 -9.6714592 -15.152471
15.461379 -11.043844 -13.663584
16.181067 -12.713696 -11.09327
16.839088 10.10345 -12.752506
16.363388 8.7271404 -14.338169
16.054554 7.4921236 -15.367618
15.83277 6.333107 -16.106895
15.653847 5.2179489 -16.703308
15.546918 4.1458454 -17.059738
15.463898 3.0927787 -17.336472
15.386808 2.0515728 -17.593439
15.342307 1.0228195 -17.741772
15.336604 -0 -17.76078
15.33792 -1.0225267 -17.756397
15.390046 -2.0520058 -17.582644
15.442478 -3.0884933 -17.407871
15.549472 -4.1465263 -17.051228
15.669445 -5.2231498 -16.651314
15.858725 -6.3434896 -16.020384
16.081135 -7.5045323 -15.279015
16.446173 -8.7712955 -14.06222
16.960608 -10.176364 -12.347436
18.844641 9.4223204 -9.9932985
17.963198 7.8588991 -12.747804
17.570898 6.5890851 -13.973738
17.312849 5.4102659 -14.780141
17.117743 4.2794352 -15.389851
16.987181 3.1850948 -15.797858
16.900595 2.1125717 -16.068439
16.848005 1.0530009 -16.232782
16.85214 9.5367432e-07 -16.219856
16.869587 -1.0543518 -16.165337
16.908974 -2.1136217 -16.042253
17.000416 -3.1875772 -15.756495
17.142704 -4.2856779 -15.31185
17.330446 -5.4157658 -14.725151
17.618515 -6.6069427 -13.824938
18.054333 -7.8987718 -12.463005
19.144226 -9.572113 -9.0570869
20.61808 6.0641403 -8.2413816
20.622824 4.8524265 -8.227438
20.616217 3.6381562 -8.2468643
20.632309 2.4273295 -8.1995306
20.638536 1.214031 -8.1812172
20.638615 -1.9073486e-06 -8.1809864
20.623365 -1.2131388 -8.2258377
20.625154 -2.4264903 -8.2205782
20.619015 -3.6386492 -8.238637
20.624844 -4.8529058 -8.2214918
20.617226 -6.0638895 -8.2438946
