# .PCD v0.7 - Point Cloud Data file format
VERSION 0.7
FIELDS x y z
SIZE 4 4 4
TYPE F F F
COUNT 1 1 1
WIDTH 1061
HEIGHT 1
VIEWPOINT 0 0 0 1 0 0 0
POINTS 1061
DATA ascii
-23.205965 1.2213659 -7.8144684
-22.971884 1.9073486e-06 -8.4304714
-23.231358 -1.2227054 -7.7476478
-21.803959 7.2679849 -8.316246
-20.782434 5.7728977 -11.153811
-20.360598 4.5245757 -12.325581
-20.133373 3.3555641 -12.956755
-19.911646 2.2124047 -13.57267
-19.89291 1.1051621 -13.624713
-19.876802 -3.3378601e-06 -13.669459
-19.894207 -1.1052346 -13.621109
-19.999361 -2.2221508 -13.329012
-20.1189 -3.3531494 -12.996963
-20.427874 -4.5395308 -12.1387
-20.848854 -5.7913494 -10.969309
-22.167152 -7.3890514 -7.3073716
-19.985712 9.4050398 -10.10129
-19.194777 7.9037313 -12.42757
-18.813461 6.6400452 -13.549083
-18.51862 5.4466534 -14.416265
-18.324297 4.3115969 -14.987805
-18.207817 3.2131424 -15.330393
-18.092751 2.1285601 -15.668825
-18.047926 1.0616422 -15.800659
-18.055552 -9.5367432e-07 -15.778234
-18.063181 -1.0625401 -15.755791
-18.127821 -2.1326852 -15.56568
-18.217215 -3.2148046 -15.302753
-18.331049 -4.31319 -14.967942
-18.566004 -5.4605927 -14.276902
-18.819027 -6.6420093 -13.532716
-19.281908 -7.93961 -12.171299
-19.994331 -9.4090977 -10.075937
-19.117785 11.948616 -9.1397152
-18.074106 10.166683 -12.401213
-17.606768 8.8033829 -13.861647
-17.267853 7.5546846 -14.920752
-17.044365 6.3916364 -15.619154
-16.871908 5.2724705 -16.158083
-16.70735 4.176837 -16.672327
-16.637444 3.1195211 -16.890789
-16.574678 2.0718331 -17.086929
-16.515511 1.0322199 -17.27183
-16.514502 -9.5367432e-07 -17.274973
-16.537521 -1.0335951 -17.203041
-16.568598 -2.0710764 -17.105927
-16.652292 -3.1223059 -16.844381
-16.747835 -4.1869602 -16.545815
-16.888287 -5.2775898 -16.106897
-17.076925 -6.4038472 -15.517405
-17.296682 -7.5672989 -14.830665
-17.613272 -8.8066359 -13.841322
-18.112377 -10.188214 -12.281613
-19.575966 -12.234978 -7.7079048
-17.346016 12.720408 -11.062747
-16.647972 11.098646 -13.389553
-16.237892 9.7427349 -14.756486
-15.952111 8.5077934 -15.709093
-15.72959 7.3404751 -16.450827
-15.56075 6.224299 -17.01363
-15.43068 5.1435604 -17.447195
-15.324677 4.0865793 -17.800545
-15.249352 3.0498672 -18.051626
-15.198747 2.0264997 -18.220306
-15.167611 1.0111732 -18.324093
-15.161751 9.5367432e-07 -18.343622
-15.176766 -1.0117855 -18.293575
-15.191812 -2.0255747 -18.243425
-15.246221 -3.0492463 -18.062061
-15.338847 -4.0903587 -17.753311
-15.432604 -5.1442022 -17.440783
-15.555485 -6.2221951 -17.031183
-15.737283 -7.3440676 -16.425186
-15.958122 -8.5109987 -15.689055
-16.255501 -9.7532997 -14.697794
-16.688951 -11.125965 -13.252958
-17.40361 -12.762648 -10.870759
-15.983602 13.700228 -11.798505
-15.397391 12.097952 -13.89211
-15.017464 10.726759 -15.248997
-14.713649 9.4587727 -16.334053
-14.527347 8.3013382 -16.999416
-14.346617 7.1733055 -17.64488
-14.219073 6.0938883 -18.100391
-14.123288 5.0440288 -18.442478
-14.028743 4.0082097 -18.780144
-13.968115 2.9931679 -18.996668
-13.937135 1.9910183 -19.107315
-13.906292 0.99330616 -19.217464
-13.882468 -3.8146973e-06 -19.302551
-13.912433 -0.9937439 -19.195536
-13.943476 -1.9919262 -19.084671
-13.974656 -2.9945698 -18.973307
-14.050047 -4.014298 -18.704056
-14.126432 -5.045156 -18.431248
-14.217322 -6.0931368 -18.106644
-14.363081 -7.1815414 -17.586075
-14.52098 -8.2977018 -17.02216
-14.75103 -9.4828033 -16.200546
-15.025727 -10.732663 -15.219487
-15.411771 -12.10925 -13.840756
-16.056799 -13.76297 -11.537088
-14.837337 14.837334 -11.816119
-14.22979 13.135192 -14.152835
-13.872839 11.738555 -15.525723
-13.602572 10.463515 -16.565212
-13.38575 9.2670574 -17.399141
-13.223373 8.1374607 -18.02367
-13.0981 7.0528226 -18.505489
-12.975139 5.988524 -18.978415
-12.89607 4.9600258 -19.282528
-12.835851 3.9494915 -19.514141
-12.776191 2.94835 -19.743599
-12.740397 1.9600592 -19.881268
-12.727995 0.97907543 -19.92897
-12.71925 -1.9073486e-06 -19.962605
-12.727646 -0.97904968 -19.930313
-12.752552 -1.9619341 -19.834517
-12.777596 -2.948678 -19.738195
-12.828767 -3.9473133 -19.541388
-12.911671 -4.9660292 -19.222525
-12.995695 -5.998013 -18.899355
-13.09646 -7.0519419 -18.511793
-13.230691 -8.141963 -17.995525
-13.406167 -9.2811909 -17.320618
-13.609607 -10.468929 -16.538153
-13.892233 -11.754966 -15.451134
-14.26769 -13.170178 -14.007068
-14.895392 -14.895392 -11.592823
-13.80301 16.103512 -11.370249
-13.171163 14.26876 -14.002949
-12.798822 12.79882 -15.55437
-12.512771 11.470039 -16.74625
-12.318713 10.265593 -17.554827
-12.14275 9.1070633 -18.288008
-12.019397 8.012928 -18.801975
-11.909204 6.9470339 -19.26112
-11.814116 5.9070563 -19.657314
-11.746703 4.8944602 -19.938202
-11.6919 3.8972998 -20.166546
-11.64115 2.9102869 -20.37801
-11.612586 1.9354324 -20.497021
-11.602504 0.96687508 -20.539032
-11.592438 -9.5367432e-07 -20.580973
-11.586247 -0.96552181 -20.606766
-11.620587 -1.9367676 -20.463682
-11.656082 -2.9140215 -20.315792
-11.69183 -3.8972759 -20.166843
-11.757181 -4.8988252 -19.894545
-11.827974 -5.9139891 -19.599571
-11.901973 -6.9428172 -19.291245
-12.027895 -8.0185966 -18.766569
-12.158462 -9.1188478 -18.22254
-12.331024 -10.275857 -17.503527
-12.537958 -11.493128 -16.641306
-12.818322 -12.818322 -15.473125
-13.195736 -14.29538 -13.900565
-13.886093 -16.200439 -11.024076
-12.877833 17.56068 -10.347191
-12.162167 15.47912 -13.600224
-11.758089 13.895922 -15.436936
-11.492828 12.537631 -16.642664
-11.283012 11.283012 -17.59638
-11.118339 10.107579 -18.344891
-10.985097 8.9878054 -18.950542
-10.864637 7.9015541 -19.498079
-10.781026 6.8606544 -19.878132
-10.706101 5.8396921 -20.2187
-10.635372 4.8342581 -20.540195
-10.593712 3.8522577 -20.729565
-10.561757 2.8804779 -20.874807
-10.530027 1.9145498 -21.019033
-10.515951 0.95599556 -21.083015
-10.51514 -0 -21.086706
-10.520108 -0.95637608 -21.064125
-10.536484 -1.9157257 -20.989689
-10.567149 -2.8819523 -20.850304
-10.598024 -3.8538313 -20.709955
-10.638952 -4.8358889 -20.523924
-10.713585 -5.8437743 -20.184681
-10.790161 -6.8664699 -19.836609
-10.88525 -7.9165444 -19.404387
-11.003295 -9.0026932 -18.867819
-11.130188 -10.118352 -18.291031
-11.287545 -11.287546 -17.575773
-11.5132 -12.559855 -16.550072
-11.787021 -13.930118 -15.305428
-12.194551 -15.520339 -13.453018
-11.198675 16.798014 -12.889421
-10.779468 15.091255 -14.985456
-10.498093 13.647518 -16.392334
-10.288139 12.345764 -17.442099
-10.100886 11.110975 -18.378361
-9.9799786 9.9799767 -18.982904
-9.8666172 8.8799543 -19.549709
-9.7674093 7.8139277 -20.045752
-9.6988535 6.789196 -20.388531
-9.6323481 5.779407 -20.721062
-9.5759144 4.7879581 -21.003225
-9.5400906 3.8160372 -21.182346
-9.510685 2.8532047 -21.329372
-9.4814329 1.896287 -21.475636
-9.4688511 0.94688511 -21.53854
-9.4716377 -9.5367432e-07 -21.524609
-9.4744263 -0.94744492 -21.510666
-9.4784164 -1.8956842 -21.490711
-9.5089989 -2.8527002 -21.337799
-9.5464296 -3.818572 -21.15065
-9.5841846 -4.7920928 -20.961876
-9.6419573 -5.7851763 -20.67301
-9.7076588 -6.7953606 -20.3445
-9.7758656 -7.8206906 -20.003469
-9.8788538 -8.8909683 -19.488531
-9.9905434 -9.9905462 -18.93008
-10.126345 -11.138981 -18.251074
-10.300751 -12.360901 -17.37904
-10.516309 -13.671203 -16.301254
-10.79987 -15.119818 -14.883449
-11.260152 -16.89023 -12.582034
-10.363073 18.423241 -11.310164
-9.8317966 16.38633 -14.261703
-9.5319567 14.827487 -15.927484
-9.2985935 13.431299 -17.223944
-9.1412363 12.188316 -18.098146
-9.0004015 11.000489 -18.880566
-8.887639 9.8751526 -19.507021
-8.7946987 8.7946978 -20.023357
-8.7138672 7.7456579 -20.472422
-8.6453333 6.7241454 -20.85317
-8.5955343 5.7303553 -21.129829
-8.5517569 4.7509756 -21.373035
-8.5121231 3.7831659 -21.593224
-8.4860868 2.8286953 -21.737869
-8.4719639 1.8826561 -21.816334
-8.4579363 0.9397707 -21.89426
-8.4565039 -2.8610229e-06 -21.902218
-8.4589739 -0.93988705 -21.888496
-8.4709234 -1.8824272 -21.822113
-8.4911613 -2.8303871 -21.709673
-8.5241232 -3.7884998 -21.526558
-8.5574417 -4.7541342 -21.341455
-8.5951262 -5.7300849 -21.132095
-8.6531582 -6.7302365 -20.809692
-8.7220545 -7.7529373 -20.426941
-8.801487 -8.801487 -19.985645
-8.9023638 -9.8915138 -19.425224
-9.0116873 -11.014283 -18.817867
-9.1598825 -12.213178 -17.994558
-9.3270998 -13.472478 -17.065578
-9.5408421 -14.841311 -15.878118
-9.8824511 -16.470751 -13.980293
-10.439569 -18.559233 -10.885189
-8.9360228 17.872044 -13.032655
-8.5670443 16.06321 -15.338767
-8.3540545 14.619593 -16.669956
-8.1737309 13.282312 -17.796974
-8.0377722 12.05666 -18.646721
-7.9235373 10.894864 -19.360685
-7.8210959 9.77637 -20.000946
-7.7510233 8.7199001 -20.4389
-7.6824245 7.6824241 -20.867645
-7.6238461 6.6708646 -21.233761
-7.5847435 5.6885557 -21.478151
-7.5460401 4.7162733 -21.720047
-7.5088687 3.7544327 -21.95237
-7.4921093 2.8095407 -22.057116
-7.4789634 1.8697376 -22.139275
-7.4660811 0.93325901 -22.219791
-7.4581871 -1.9073486e-06 -22.269129
-7.4695683 -0.9336977 -22.197994
-7.4809852 -1.8702478 -22.12664
-7.4924364 -2.8096647 -22.055073
-7.5181437 -3.7590733 -21.894396
-7.5474563 -4.7171621 -21.711195
-7.5842743 -5.6882048 -21.481079
-7.6351728 -6.6807771 -21.162966
-7.6955132 -7.6955128 -20.785841
-7.757586 -8.7272854 -20.397882
-7.8397198 -9.7996483 -19.88455
-7.937119 -10.91354 -19.275803
-8.0467405 -12.070113 -18.590666
-8.1948566 -13.316641 -17.664942
-8.3661623 -14.640782 -16.594284
-8.6032009 -16.131001 -15.112791
-8.974617 -17.949234 -12.791441
-8.1521626 19.798107 -10.653065
-7.665688 17.52157 -14.127882
-7.4063096 15.870663 -15.980583
-7.2276449 14.455289 -17.25676
-7.0786858 13.14613 -18.320757
-6.9718676 11.951771 -19.083744
-6.8797393 10.811018 -19.741796
-6.7987452 9.7124949 -20.320332
-6.7362518 8.6608925 -20.76671
-6.6802416 7.6345611 -21.166786
-6.6325278 6.6325269 -21.507599
-6.5944934 5.6524229 -21.779272
-6.5620689 4.6871891 -22.010876
-6.5384526 3.7362576 -22.179567
-6.5179644 2.7934132 -22.325909
-6.5065937 1.859025 -22.407125
-6.4965739 0.92808151 -22.478699
-6.4936342 -0 -22.499699
-6.499198 -0.92845535 -22.459953
-6.5081539 -1.8594742 -22.395985
-6.5171347 -2.7930574 -22.331837
-6.5375791 -3.7357616 -22.185802
-6.5691299 -4.6922359 -21.960442
-6.60145 -5.6583862 -21.72958
-6.6356339 -6.6356344 -21.485409
-6.6872215 -7.6425405 -21.116928
-6.7395978 -8.6651955 -20.742813
-6.8044329 -9.7206211 -20.279701
-6.89043 -10.827821 -19.66544
-6.9814386 -11.968182 -19.015379
-7.102879 -13.191062 -18.147943
-7.2427492 -14.485498 -17.148874
-7.4350314 -15.932213 -15.77543
-7.6906538 -17.578636 -13.949559
-8.2319679 -19.991917 -10.083033
-6.7879877 19.23263 -12.316235
-6.4760318 17.269415 -14.915868
-6.2759876 15.689969 -16.582899
-6.1409235 14.328821 -17.708429
-6.0272379 13.059015 -18.655813
-5.9344163 11.868832 -19.429325
-5.859663 10.742716 -20.052273
-5.7934189 9.6556969 -20.604301
-5.7354965 8.6032429 -21.086992
-5.6944628 7.5926156 -21.428942
-5.6540117 6.5963435 -21.766029
-5.6176434 5.6176443 -22.069101
-5.5974507 4.6645422 -22.237373
-5.5774026 3.7182684 -22.404442
-5.557498 2.7787485 -22.570316
-5.5468493 1.8489513 -22.65905
-5.5443492 0.92405987 -22.67989
-5.5418506 -9.5367432e-07 -22.700708
-5.5411987 -0.92353249 -22.706139
-5.5488739 -1.8496275 -22.642181
-5.5633259 -2.781662 -22.521748
-5.5778537 -3.7185707 -22.400684
-5.6011038 -4.6675882 -22.20693
-5.6288772 -5.6288762 -21.975489
-5.6572919 -6.600174 -21.738697
-5.6955714 -7.5940952 -21.419701
-5.7479601 -8.6219406 -20.98313
-5.8013215 -9.6688709 -20.538452
-5.8667841 -10.755772 -19.992926
-5.9464965 -11.892992 -19.328661
-6.0356402 -13.07722 -18.585794
-6.1563911 -14.364912 -17.579538
-6.2965345 -15.741338 -16.411674
-6.4983268 -17.328871 -14.730074
-6.8258758 -19.339983 -12.000496
-5.5690293 18.934696 -13.192507
-5.3395138 17.086443 -15.487658
-5.1943173 15.582949 -16.939627
-5.0806293 14.22576 -18.076504
-4.9928226 12.981339 -18.954569
-4.91155 11.78772 -19.767296
-4.8558068 10.682775 -20.32473
-4.8042817 9.6085644 -20.839979
-4.7583799 8.5650826 -21.298998
-4.7252216 7.5603566 -21.630577
-4.692523 6.5695324 -21.957567
-4.6655297 5.5986357 -22.227501
-4.6463189 4.6463175 -22.419607
-4.6293826 3.7035074 -22.588968
-4.613945 2.7683649 -22.743347
-4.6052036 1.842082 -22.830761
-4.6026611 0.92052937 -22.856184
-4.6001086 1.9073486e-06 -22.88171
-4.5979395 -0.91958904 -22.903399
-4.6064162 -1.8425665 -22.81863
-4.6178246 -2.7706995 -22.704552
-4.6295824 -3.7036686 -22.586969
-4.6431818 -4.6431799 -22.450979
-4.6691031 -5.6029243 -22.191763
-4.6969056 -6.5756698 -21.913736
-4.726346 -7.5621538 -21.619335
-4.7680521 -8.5824947 -21.202274
-4.8116231 -9.6232471 -20.766565
-4.8566566 -10.684647 -20.316227
-4.9256372 -11.821533 -19.626425
-4.9975367 -12.993596 -18.907429
-5.0937366 -14.262464 -17.945425
-5.2062664 -15.618796 -16.820135
-5.3641663 -17.165337 -15.241129
-5.5927596 -19.015383 -12.955202
-4.7462821 21.358269 -9.5542688
-4.4020228 18.708593 -13.857512
-4.2389364 16.955744 -15.896093
-4.1302686 15.488503 -17.254446
-4.0380988 14.133342 -18.406565
-3.9753735 12.919965 -19.190624
-3.916723 11.750166 -19.923759
-3.8705595 10.644037 -20.500807
-3.8302972 9.5757408 -21.004082
-3.7953124 8.5394497 -21.441391
-3.7657688 7.5315371 -21.810688
-3.7424934 6.5493612 -22.101629
-3.7218804 5.5828218 -22.359291
-3.7032716 4.6290874 -22.5919
-3.6907961 3.690794 -22.747843
-3.6823292 2.7617455 -22.853683
-3.6739006 1.8369513 -22.959036
-3.6699836 0.91749573 -23.008003
-3.6682789 -2.8610229e-06 -23.02931
-3.6708522 -0.91771221 -22.997145
-3.674016 -1.8370104 -22.957598
-3.6830981 -2.7623253 -22.84407
-3.6922145 -3.6922188 -22.730114
-3.7054999 -4.631876 -22.564049
-3.7241738 -5.5862589 -22.33062
-3.7463055 -6.5560369 -22.053978
-3.7701359 -7.5402741 -21.756098
-3.7977085 -8.5448456 -21.41144
-3.8333082 -9.583272 -20.966442
-3.8751032 -10.656534 -20.444006
-3.924042 -11.772125 -19.832272
-3.9828396 -12.944229 -19.097307
-4.0507545 -14.177641 -18.248367
-4.1424294 -15.534109 -17.102428
-4.2518029 -17.00721 -15.735264
-4.4200549 -18.785234 -13.632111
-3.486454 20.918722 -10.775234
-3.2788682 18.580252 -14.23499
-3.1594558 16.85043 -16.225199
-3.0846276 15.423134 -17.47234
-3.0208039 14.097085 -18.536064
-2.9714546 12.876303 -19.358551
-2.9299827 11.719931 -20.049749
-2.8924224 10.605548 -20.675753
-2.8643792 9.5479288 -21.143147
-2.8382919 8.5148735 -21.577932
-2.814775 7.5060663 -21.969879
-2.7994964 6.5321579 -22.224525
-2.7843745 5.5687485 -22.476555
-2.769733 4.6162195 -22.720577
-2.7619917 3.6826553 -22.849598
-2.7554255 2.7554264 -22.959038
-2.7488983 1.8325958 -23.067825
-2.7436955 0.91456413 -23.154535
-2.745615 -1.9073486e-06 -23.122547
-2.7475371 -0.91584492 -23.090509
-2.7494619 -1.8329744 -23.058432
-2.7539952 -2.7539959 -22.98288
-2.7637708 -3.68503 -22.819954
-2.7741897 -4.6236506 -22.646299
-2.7848403 -5.5696826 -22.468792
-2.8016734 -6.5372376 -22.188242
-2.8194439 -7.5185175 -21.892065
-2.8395944 -8.5187855 -21.556225
-2.8683958 -9.5613203 -21.076199
-2.8995457 -10.631668 -20.557037
-2.9314239 -11.725698 -20.025734
-2.9763005 -12.897302 -19.27779
-3.0258782 -14.120767 -18.45149
-3.0921655 -15.460826 -17.346708
-3.1737466 -16.926651 -15.987017
-3.293678 -18.664173 -13.988159
-3.5315349 -21.189209 -10.023885
-2.3008554 20.707699 -11.36141
-2.171026 18.453722 -14.607143
-2.1034129 16.827305 -16.29747
-2.0500519 15.375391 -17.631495
-2.0095811 14.067066 -18.643269
-1.9748493 12.836519 -19.511566
-1.9485968 11.69158 -20.167875
-1.9242177 10.583197 -20.777355
-1.9063735 9.5318661 -21.223457
-1.8899611 8.5048227 -21.633766
-1.8752265 7.5009041 -22.002136
-1.8638016 6.523304 -22.287754
-1.8537476 5.5612431 -22.539104
-1.8455409 4.6138515 -22.74427
-1.8386978 3.6773949 -22.915352
-1.8343379 2.7515049 -23.024347
-1.8300925 1.8300915 -23.130484
-1.8281069 0.91405201 -23.180122
-1.8280499 9.5367432e-07 -23.181549
-1.8291616 -0.9145813 -23.153755
-1.8302695 -1.8302679 -23.126059
-1.8332931 -2.749939 -23.050468
-1.8399382 -3.6798773 -22.884342
-1.846711 -4.6167793 -22.715019
-1.8535342 -5.5606022 -22.544441
-1.864158 -6.5245523 -22.278849
-1.8776718 -7.5106874 -21.941006
-1.8918608 -8.5133762 -21.586271
-1.9081594 -9.5407953 -21.17881
-1.9287961 -10.608379 -20.662893
-1.9504746 -11.702849 -20.120928
-1.9797634 -12.86846 -19.388714
-2.0135605 -14.094925 -18.543781
-2.0545146 -15.408862 -17.519926
-2.1106415 -16.885132 -16.11676
-2.1819255 -18.54637 -14.334655
-2.3255033 -20.929531 -10.745213
-1.1454691 20.618443 -11.609344
-1.0851251 18.447124 -14.626543
-1.0503951 16.806322 -16.363033
-1.0225183 15.33777 -17.756884
-1.0037251 14.052151 -18.696543
-0.98658007 12.82554 -19.553791
-0.97394758 11.687368 -20.185417
-0.96231019 10.58541 -20.767288
-0.95231807 9.5231781 -21.266895
-0.94426793 8.4984093 -21.669395
-0.93725002 7.4979992 -22.020292
-0.93063694 6.5144596 -22.350948
-0.92612433 5.5567465 -22.57658
-0.92229712 4.6114855 -22.767941
-0.918504 3.6740141 -22.9576
-0.9158718 2.747613 -23.089209
-0.91487718 1.829751 -23.138935
-0.91388482 0.91388321 -23.188557
-0.91299808 -9.5367432e-07 -23.232895
-0.91355008 -0.91355228 -23.205288
-0.91502029 -1.8300419 -23.131783
-0.91675103 -2.7502556 -23.045246
-0.9191494 -3.6765995 -22.925329
-0.92252976 -4.6126499 -22.756308
-0.9267965 -5.5607796 -22.542976
-0.93153673 -6.5207572 -22.305965
-0.93806416 -7.5045123 -21.979588
-0.94533312 -8.5079975 -21.616142
-0.95290458 -9.529047 -21.237568
-0.96267867 -10.589462 -20.748865
-0.97408313 -11.688997 -20.178637
-0.98838294 -12.848977 -19.463652
-1.0057734 -14.08083 -18.594124
-1.0260422 -15.390635 -17.580681
-1.0535657 -16.857048 -16.204514
-1.0906633 -18.541277 -14.349629
-1.1577446 -20.839405 -10.995563
0 20.648058 -11.527075
0 18.473974 -14.547581
0 16.792566 -16.406027
0 15.358952 -17.686287
0 14.057499 -18.677437
0 12.838331 -19.504597
0 11.683161 -20.20295
0 10.587627 -20.757214
0 9.5184174 -21.290695
0 8.4950943 -21.687813
0 7.4967756 -22.027939
0 6.514101 -22.353506
0 5.5570984 -22.573648
0 4.6120796 -22.761993
0 3.6747179 -22.948811
0 2.7482882 -23.077995
0 1.8300457 -23.131653
0 0.91395187 -23.185184
0 -1.9073486e-06 -23.23859
0 -0.9134798 -23.20879
0 -1.8302851 -23.125668
0 -2.7505741 -23.039894
0 -3.6743851 -22.953007
0 -4.6122379 -22.760406
0 -5.5628629 -22.52562
0 -6.5232115 -22.288429
0 -7.4983506 -22.01811
0 -8.5056238 -21.629328
0 -9.5356531 -21.204536
0 -10.59441 -20.726395
0 -11.69243 -20.164333
0 -12.851583 -19.453632
0 -14.081094 -18.593182
0 -15.401141 -17.545656
0 -16.847178 -16.235365
0 -18.562225 -14.288016
0 -20.872971 -10.902323
1.1522813 20.741064 -11.268733
1.0886563 18.507156 -14.449981
1.0521431 16.834293 -16.275639
1.0264579 15.396868 -17.5599
1.0047842 14.066976 -18.643583
0.98854685 12.851108 -19.455454
0.97405368 11.688644 -20.180111
0.96359527 10.599545 -20.703037
0.95335907 9.5335884 -21.214848
0.94514984 8.5063477 -21.625303
0.93851006 7.5080805 -21.957294
0.93237329 6.5266104 -22.26413
0.92700738 5.5620451 -22.532429
0.92323369 4.616168 -22.721107
0.92000592 3.6800213 -22.8825
0.91736245 2.7520857 -23.014675
0.91566592 1.8313322 -23.099499
0.91459376 0.91459179 -23.153107
0.91437298 -9.5367432e-07 -23.16415
0.914482 -0.91448402 -23.158695
0.91602552 -1.8320522 -23.081518
0.91769475 -2.7530842 -22.998062
0.92003226 -3.680131 -22.881184
0.92340064 -4.6170063 -22.712765
0.92806596 -5.5683947 -22.4795
0.93277866 -6.5294509 -22.243866
0.93854839 -7.508388 -21.955379
0.94638395 -8.5174561 -21.563602
0.95505369 -9.5505352 -21.130112
0.96466398 -10.611307 -20.649597
0.97575474 -11.709057 -20.095058
0.99110723 -12.884391 -19.32744
1.0074201 -14.10388 -18.511795
1.0286988 -15.430481 -17.447855
1.0552999 -16.8848 -16.117798
1.0950313 -18.615532 -14.131233
1.1685102 -21.033184 -10.457283
2.3359094 21.023184 -10.485059
2.1895633 18.611284 -14.143716
2.1127269 16.901812 -16.064629
2.0579963 15.43497 -17.432892
2.0149662 14.104763 -18.50864
1.9834787 12.892612 -19.295826
1.9547158 11.728294 -20.0149
1.931609 10.623848 -20.592567
1.9119003 9.5595007 -21.085287
1.8939987 8.5229931 -21.532831
1.8798543 7.5194168 -21.886436
1.8683352 6.5391731 -22.174416
1.8571602 5.5714798 -22.453793
1.8484136 4.6210327 -22.672459
1.8430783 3.6861553 -22.80584
1.837779 2.756669 -22.938318
1.8326197 1.8326178 -23.067307
1.8321086 0.91605473 -23.080084
1.8323276 -1.9073486e-06 -23.074608
1.8325466 -0.91627407 -23.06913
1.8338206 -1.8338213 -23.037281
1.8383565 -2.7575369 -22.923889
1.8442559 -3.6885099 -22.776396
1.8501881 -4.6254711 -22.628094
1.8583881 -5.5751657 -22.423094
1.8694422 -6.5430493 -22.146738
1.8820255 -7.5281005 -21.832159
1.8953986 -8.5292959 -21.497831
1.9133724 -9.5668621 -21.048485
1.9333149 -10.633232 -20.549923
1.9564745 -11.738849 -19.970932
1.9876378 -12.919643 -19.191854
2.0205452 -14.143817 -18.369165
2.0640216 -15.480162 -17.282257
2.121417 -16.971336 -15.847373
2.1971495 -18.675772 -13.954057
2.3756199 -21.380579 -9.4922962
3.6207054 21.724232 -8.5377045
3.3085091 18.748217 -13.740981
3.1874835 16.999907 -15.758077
3.1038058 15.519028 -17.152702
3.0394912 14.18429 -18.224611
2.9852176 12.935942 -19.129168
2.943166 11.772665 -19.830029
2.904072 10.648262 -20.481598
2.8756835 9.5856075 -20.954739
2.8486931 8.5460796 -21.404577
2.8255002 7.534667 -21.791122
2.8095653 6.5556517 -22.056707
2.7938013 5.5876017 -22.319439
2.7798369 4.6330614 -22.552181
2.7719595 3.6959457 -22.68347
2.7641187 2.7641182 -22.81415
2.7577078 1.8384714 -22.920998
2.755213 0.91840267 -22.962574
2.7553313 -0 -22.960609
2.7554491 -0.91848373 -22.958645
2.7572198 -1.8381453 -22.929134
2.7646887 -2.7646894 -22.804649
2.7734644 -3.6979523 -22.658386
2.7822883 -4.6371489 -22.511322
2.7933407 -5.5866809 -22.327122
2.8120859 -6.5615349 -22.014698
2.8310845 -7.5495572 -21.698055
2.8503499 -8.5510473 -21.376965
2.8788474 -9.596159 -20.902006
2.9112175 -10.674463 -20.362505
2.9476407 -11.790565 -19.755449
2.9896734 -12.95525 -19.054909
3.046771 -14.218266 -18.103275
3.1113374 -15.556688 -17.027172
3.2029963 -17.082649 -15.499525
3.3352077 -18.899511 -13.296003
4.4709907 19.001707 -12.995413
4.2904034 17.161613 -15.252753
4.1640563 15.615211 -16.832092
4.0758929 14.265623 -17.934135
3.9964283 12.988391 -18.927441
3.9423804 11.82714 -19.603041
3.8902333 10.698141 -20.254879
3.8505878 9.6264687 -20.750448
3.8157871 8.5855198 -21.185459
3.7844117 7.5688219 -21.577652
3.7605762 6.5810089 -21.875589
3.7396665 5.609499 -22.136965
3.7220204 4.652523 -22.357542
3.7073991 3.7073984 -22.540304
3.6973259 2.772994 -22.666218
3.6911666 1.845582 -22.743216
3.6850276 0.92125607 -22.819954
3.6841838 -9.5367432e-07 -22.830498
3.686547 -0.92163944 -22.800957
3.6917381 -1.8458691 -22.736069
3.6977825 -2.7733393 -22.660511
3.7095466 -3.709547 -22.51346
3.7235167 -4.654397 -22.338835
3.741286 -5.6119323 -22.116722
3.7624998 -6.5843749 -21.851551
3.7880197 -7.5760393 -21.532549
3.8196366 -8.5941811 -21.137339
3.8534696 -9.6336784 -20.714428
3.8975477 -10.718257 -20.16345
3.9475787 -11.842738 -19.538061
4.0068521 -13.022272 -18.797142
4.0864377 -14.302534 -17.802326
4.1781526 -15.668075 -16.655888
4.3044343 -17.217735 -15.077374
4.5074358 -19.156601 -12.539852
5.6942487 19.360443 -11.940311
5.4191933 17.341421 -14.690861
5.2538624 15.761587 -16.344173
5.1302276 14.364637 -17.580517
5.0372577 13.09687 -18.510218
4.958498 11.900394 -19.297813
4.8945041 10.767907 -19.937756
4.8367009 9.673399 -20.515785
4.793191 8.6277428 -20.950884
4.7550898 7.6081414 -21.331902
4.7189722 6.6065588 -21.693077
4.6944256 5.6333075 -21.938538
4.6721811 4.6721811 -22.160986
4.6501589 3.7201262 -22.381207
4.6396337 2.7837791 -22.486458
4.6321812 1.8528748 -22.560982
4.6247787 0.92495441 -22.635002
4.6214981 -9.5367432e-07 -22.667812
4.6277452 -0.92554855 -22.605347
4.6341424 -1.8536558 -22.541374
4.6407042 -2.7844238 -22.475752
4.6537633 -3.7230101 -22.345165
4.6759686 -4.675971 -22.123108
4.6984005 -5.6380806 -21.898788
4.721035 -6.6094499 -21.672443
4.7573671 -7.6117859 -21.309128
4.7993526 -8.6388359 -20.889269
4.8424215 -9.684845 -20.458582
4.897737 -10.775023 -19.905428
4.9678211 -11.922771 -19.204586
5.0474648 -13.123409 -18.408146
5.138895 -14.388907 -17.493847
5.2762752 -15.828826 -16.120049
5.4439259 -17.420563 -14.443539
5.7398486 -19.515486 -11.484312
7.0589643 20.000397 -10.058097
6.6127806 17.634079 -13.776293
6.381772 15.95443 -15.701363
6.2143846 14.500229 -17.096262
6.0978718 13.212056 -18.067196
5.9876528 11.975304 -18.985687
5.9119592 10.838592 -19.61647
5.8406806 9.7344666 -20.210457
5.7824545 8.6736813 -20.695675
5.7382579 7.65101 -21.06398
5.6947312 6.6438527 -21.426701
5.6634645 5.6634645 -21.68726
5.6387725 4.6989746 -21.893028
5.6153069 3.743536 -22.088572
5.5976777 2.7988386 -22.235481
5.588686 1.8628931 -22.310411
5.5803523 0.93005943 -22.37986
5.5781436 -9.5367432e-07 -22.398266
5.5816908 -0.93028164 -22.368704
5.5892844 -1.8630962 -22.305424
5.599772 -2.7998886 -22.218031
5.6160097 -3.7440052 -22.082718
5.641573 -4.7013092 -21.869686
5.6687512 -5.6687522 -21.6432
5.7020297 -6.6523676 -21.365883
5.7430367 -7.657383 -21.024158
5.7944622 -8.6916933 -20.59561
5.8523107 -9.7538509 -20.113539
5.9205694 -10.854378 -19.544716
6.003346 -12.006691 -18.854912
6.1075354 -13.232992 -17.986671
6.2340055 -14.546013 -16.932749
6.3993897 -15.998474 -15.554546
6.6509776 -17.735939 -13.457985
7.2427149 -20.521025 -8.5268383
7.8704305 17.989555 -12.665436
7.5522289 16.183346 -14.938304
7.3458376 14.691672 -16.412531
7.1801209 13.334511 -17.596214
7.0583258 12.099985 -18.466183
6.9564743 10.931602 -19.193695
6.8739462 9.8199205 -19.783182
6.7996683 8.7424297 -20.313736
6.7450056 7.7085776 -20.704189
6.6954894 6.6954885 -21.057873
6.6509933 5.7008495 -21.375702
6.6202874 4.728775 -21.595028
6.5950146 3.7685785 -21.775547
6.5718126 2.8164921 -21.94128
6.5555954 1.8730249 -22.057117
6.5513253 0.93590355 -22.087616
6.548697 -0 -22.106392
6.5460901 -0.93515682 -22.125008
6.5581145 -1.8737478 -22.03912
6.5772042 -2.8188028 -21.902769
6.5964246 -3.7693863 -21.765478
6.6185174 -4.7275147 -21.607672
6.6567907 -5.7058239 -21.33429
6.7017636 -6.7017651 -21.013056
6.7473488 -7.7112565 -20.68745
6.8053169 -8.7496948 -20.273384
6.884407 -9.8348656 -19.708462
6.9666281 -10.947558 -19.121168
7.0684686 -12.117378 -18.393734
7.2020893 -13.375307 -17.439304
7.3637013 -14.727404 -16.284925
7.5869474 -16.257744 -14.690314
7.9582896 -18.190378 -12.037868
9.3497791 18.699556 -10.446674
8.8183088 16.534328 -13.768363
8.5200958 14.910166 -15.632197
8.3128662 13.508408 -16.927382
8.1632872 12.24493 -17.862249
8.030652 11.042146 -18.691219
7.9289303 9.9111624 -19.326982
7.8443537 8.8248949 -19.855587
7.7670174 7.7670164 -20.338938
7.712503 6.7484398 -20.679651
7.6608682 5.7456508 -21.002369
7.6149836 4.7593641 -21.289145
7.5892601 3.7946291 -21.449924
7.5658207 2.837182 -21.596418
7.5449347 1.8862324 -21.726955
7.5410452 0.94262981 -21.751263
7.538837 -1.9073486e-06 -21.765064
7.5387707 -0.94234562 -21.765478
7.5502892 -1.8875732 -21.693491
7.5722289 -2.8395863 -21.556368
7.5943193 -3.7971611 -21.418301
7.6237783 -4.7648621 -21.234182
7.6686716 -5.751503 -20.953596
7.7213154 -6.7561531 -20.624577
7.7772002 -7.7772012 -20.275295
7.8500462 -8.8313026 -19.820009
7.9418201 -9.9272747 -19.246424
8.0488033 -11.067105 -18.577774
8.1757565 -12.263634 -17.784323
8.333827 -13.542472 -16.796371
8.5528717 -14.967526 -15.427349
8.8460016 -16.586252 -13.595285
9.5534658 -19.106934 -9.1736307
10.206882 17.011467 -12.177896
9.7842369 15.219924 -14.525924
9.5167351 13.746397 -16.012041
9.3039694 12.405293 -17.194075
9.1471548 11.179855 -18.065269
9.0144634 10.016069 -18.802443
8.9191408 8.919138 -19.332016
8.8267803 7.8460264 -19.845129
8.7591925 6.8127031 -20.220613
8.7029753 5.8019824 -20.532932
8.65166 4.8064766 -20.81802
8.6159382 3.8293047 -21.016472
8.5890856 2.8630285 -21.165653
8.5684786 1.9041061 -21.280136
8.5521603 0.95023632 -21.370792
8.5496368 -9.5367432e-07 -21.384817
8.558074 -0.95089817 -21.337944
8.567009 -1.9037819 -21.2883
8.585165 -2.8617229 -21.187433
8.6200151 -3.8311186 -20.99382
8.6611538 -4.8117547 -20.765272
8.7026873 -5.8017921 -20.534527
8.7625847 -6.8153458 -20.201771
8.8447857 -7.862031 -19.745098
8.9285707 -8.9285727 -19.279623
9.0269098 -10.029898 -18.733299
9.1721811 -11.210443 -17.926231
9.3263187 -12.435093 -17.069916
9.5317364 -13.768064 -15.928705
9.8278599 -15.287783 -14.283574
10.302291 -17.170485 -11.647846
11.182565 15.655591 -12.969971
10.766702 13.996714 -15.04929
10.511328 12.613593 -16.326155
10.320505 11.352552 -17.280272
10.165945 10.165943 -18.053072
10.034653 9.0311871 -18.709532
9.9334335 7.9467454 -19.215628
9.8395281 6.88767 -19.685154
9.7723627 5.8634133 -20.020988
9.7180357 4.8590159 -20.292618
9.6646004 3.865839 -20.559795
9.6337891 2.8901358 -20.713852
9.611577 1.9223146 -20.824907
9.5911245 0.95910931 -20.92717
9.5897818 9.5367432e-07 -20.933887
9.6016836 -0.96016884 -20.874378
9.613616 -1.9227247 -20.814718
9.6340199 -2.8902063 -20.712696
9.6775036 -3.8710022 -20.495277
9.7244081 -4.862205 -20.260756
9.775568 -5.8653388 -20.004955
9.8492851 -6.8945003 -19.636372
9.9442987 -7.9554415 -19.161297
10.048313 -9.0434837 -18.641232
10.181157 -10.181156 -17.977011
10.333495 -11.366845 -17.215321
10.557638 -12.669168 -16.094603
10.828213 -14.076678 -14.741732
11.2279 -15.719057 -12.7433
12.941766 16.47134 -10.056588
12.217445 14.438796 -13.348955
11.817594 12.891921 -15.166458
11.559289 11.559287 -16.340572
11.369875 10.336251 -17.201546
11.19251 9.157505 -18.00775
11.074132 8.053915 -18.545828
10.969506 6.9805961 -19.021404
10.876888 5.9328485 -19.44239
10.820172 4.9182606 -19.700193
10.764045 3.9141951 -19.955318
10.719522 2.9235039 -20.157696
10.700664 1.9455757 -20.243416
10.683678 0.971241 -20.320625
10.674143 -0 -20.363964
10.681034 -0.97100449 -20.332642
10.700891 -1.9456177 -20.242384
10.730829 -2.9265919 -20.106297
10.763096 -3.9138565 -19.959631
10.823812 -4.9199157 -19.683655
10.902279 -5.9466977 -19.326981
10.981894 -6.9884796 -18.965101
11.0811 -8.0589819 -18.51416
11.23093 -9.188941 -17.833117
11.385489 -10.350447 -17.130573
11.594574 -11.594574 -16.180183
11.86409 -12.942642 -14.955114
12.274379 -14.506083 -13.090164
13.233835 -16.843063 -8.729002
14.032364 15.201725 -10.414617
13.311355 13.311353 -13.418821
12.917924 11.841429 -15.058116
12.643658 10.536379 -16.200891
12.460046 9.3450336 -16.965939
12.286263 8.1908379 -17.690033
12.166045 7.0968595 -18.190939
12.061252 6.0306239 -18.627579
11.973487 4.9889526 -18.993267
11.914053 3.9713502 -19.24091
11.86249 2.9656229 -19.455757
11.82124 1.9702063 -19.627632
11.807614 0.98396778 -19.684402
11.796938 -1.9073486e-06 -19.728889
11.795605 -0.98296928 -19.734446
11.8312 -1.9718695 -19.586132
11.868796 -2.9671998 -19.429478
11.913942 -3.9713159 -19.241369
11.982663 -4.9927783 -18.955032
12.072148 -6.0360737 -18.582178
12.178783 -7.1042924 -18.137869
12.310781 -8.2071886 -17.587875
12.466402 -9.3497992 -16.939457
12.699037 -10.58253 -15.970143
12.962801 -11.882568 -14.871125
13.353839 -13.353838 -13.241803
14.212541 -15.396921 -9.6638718
15.292074 14.11576 -10.067123
14.497589 12.267188 -13.122837
14.074594 10.826612 -14.749746
13.808326 9.5596075 -15.773855
13.598636 8.3683901 -16.580347
13.417819 7.2249761 -17.275803
13.30305 6.1398678 -17.717218
13.190229 5.073164 -18.151148
13.115593 4.0355663 -18.43821
13.064276 3.014833 -18.635582
13.016922 2.0025997 -18.817715
12.996461 0.99972725 -18.896408
12.994805 -9.5367432e-07 -18.902771
13.002762 -1.0002127 -18.872173
13.015909 -2.0024509 -18.821606
13.063787 -3.0147185 -18.637466
13.131029 -4.040318 -18.378839
13.198926 -5.07651 -18.117697
13.312406 -6.1441855 -17.681238
13.461509 -7.2485027 -17.107759
13.618733 -8.3807602 -16.503054
13.843552 -9.5839996 -15.638364
14.12544 -10.865722 -14.554187
14.571713 -12.329913 -12.837741
15.545668 -14.349849 -9.0917645
17.001957 13.358679 -8.1615171
15.822951 11.302107 -12.372256
15.378105 9.8859253 -13.960993
15.050722 8.6004114 -15.130213
14.832125 7.41606 -15.910922
14.648304 6.277844 -16.567425
14.52819 5.1886401 -16.996405
14.417869 4.1193914 -17.390411
14.341639 3.0732079 -17.662659
14.297132 2.0424466 -17.821613
14.254161 1.0181541 -17.975079
14.24123 -0 -18.021259
14.268334 -1.0191689 -17.924458
14.298265 -2.0426092 -17.817564
14.348216 -3.0746179 -17.639172
14.432554 -4.1235871 -17.337959
14.541928 -5.1935453 -16.947338
14.666376 -6.2855892 -16.502882
14.841896 -7.4209461 -15.876024
15.098991 -8.6279974 -14.957824
15.421213 -9.9136391 -13.807036
15.856363 -11.325974 -12.252931
17.414724 10.448833 -10.83372
16.788082 8.9536419 -12.922525
16.404816 7.6555815 -14.200077
16.18313 6.4732509 -14.939025
15.986448 5.3288159 -15.594636
15.862842 4.2300892 -16.006659
15.752843 3.1505651 -16.373322
15.691653 2.0922184 -16.57729
15.6574 1.0438256 -16.691462
15.63686 -0 -16.75993
15.646895 -1.0431266 -16.72648
15.69252 -2.0923328 -16.574396
15.754642 -3.1509314 -16.367321
15.857162 -4.2285786 -16.025591
16.015831 -5.3386116 -15.496693
16.212427 -6.484971 -14.841377
16.446005 -7.6748009 -14.06278
16.841791 -8.9822903 -12.743497
17.553465 -10.532077 -10.371244
18.570747 8.1246977 -10.849214
18.016054 6.7560205 -12.582627
17.732948 5.5415435 -13.467336
17.495201 4.3737993 -14.210297
17.378759 3.2585173 -14.574173
17.265192 2.1581459 -14.929077
17.216814 1.0760512 -15.080248
17.214283 -0 -15.088161
17.228106 -1.0767579 -15.044966
17.276371 -2.1595454 -14.894137
17.383278 -3.2593656 -14.560055
17.545933 -4.3864846 -14.051758
17.764269 -5.5513353 -13.369453
18.078611 -6.7794809 -12.387136
18.696569 -8.1797495 -10.45601
19.833563 4.6667228 -10.548786
19.505674 3.4421773 -11.513168
19.306131 2.2713075 -12.100056
19.20495 1.1297021 -12.397646
19.135229 -0 -12.602715
19.207378 -1.129847 -12.390509
19.314514 -2.2722969 -12.075402
19.493788 -3.440083 -11.54812
19.92276 -4.6877108 -10.286444
