# .PCD v0.7 - Point Cloud Data file format
VERSION 0.7
FIELDS x y z
SIZE 4 4 4
TYPE F F F
COUNT 1 1 1
WIDTH 1071
HEIGHT 1
VIEWPOINT 0 0 0 1 0 0 0
POINTS 1071
DATA ascii
-20.648355 6.8827829 -11.526255
-20.145136 5.5958695 -12.924083
-19.809103 4.4020228 -13.857512
-19.614126 3.2690167 -14.399115
-19.483835 2.1648703 -14.761039
-19.406292 1.0781298 -14.976431
-19.400053 -0 -14.993763
-19.419302 -1.0788507 -14.940292
-19.494654 -2.1660748 -14.730984
-19.628082 -3.2713485 -14.360348
-19.851191 -4.4113746 -13.740601
-20.201832 -5.611618 -12.766599
-20.744703 -6.9149051 -11.258622
-19.207176 9.0386677 -12.391104
-18.695492 7.6981411 -13.896058
-18.355036 6.4782467 -14.897401
-18.113596 5.327528 -15.607515
-17.949282 4.2233577 -16.090794
-17.817871 3.1443295 -16.477295
-17.742292 2.0873294 -16.699585
-17.68774 1.0404544 -16.860027
-17.677113 -9.5367432e-07 -16.891289
-17.695351 -1.0409012 -16.837646
-17.744019 -2.0875344 -16.694511
-17.835819 -3.1474967 -16.424503
-17.958296 -4.2254806 -16.064283
-18.142609 -5.3360605 -15.522185
-18.392675 -6.4915352 -14.78669
-18.753874 -7.7221823 -13.724345
-19.332056 -9.0974398 -12.023811
-18.244255 11.402658 -11.869497
-17.588425 9.8934879 -13.918968
-17.183607 8.5918045 -15.184027
-16.911251 7.3986702 -16.035139
-16.691483 6.259306 -16.721912
-16.531523 5.1661019 -17.22179
-16.420185 4.1050467 -17.569719
-16.334396 3.0627003 -17.837811
-16.253292 2.0316601 -18.091255
-16.222416 1.0138998 -18.187748
-16.210976 -0 -18.223495
-16.224615 -1.01404 -18.180878
-16.26284 -2.0328565 -18.061419
-16.327766 -3.0614591 -17.85853
-16.418194 -4.1045504 -17.575937
-16.549906 -5.1718454 -17.164337
-16.711363 -6.2667623 -16.659788
-16.942577 -7.4123764 -15.937239
-17.237793 -8.6189003 -15.01469
-17.64254 -9.9239292 -13.74986
-18.376165 -11.485106 -11.457276
-16.779619 12.305053 -12.950733
-16.242865 10.828575 -14.739914
-15.889731 9.5338364 -15.917025
-15.619455 8.3303757 -16.817947
-15.423532 7.1976466 -17.471024
-15.260921 6.1043673 -18.01306
-15.14135 5.0471172 -18.411629
-15.041333 4.011024 -18.745018
-14.9807 2.9961405 -18.947132
-14.936202 1.9914932 -19.095455
-14.911198 0.99407864 -19.178806
-14.897621 -9.5367432e-07 -19.22406
-14.914237 -0.99428368 -19.168671
-14.939576 -1.9919443 -19.084208
-14.987444 -2.9974899 -18.92465
-15.050853 -4.0135617 -18.713287
-15.155754 -5.051918 -18.363619
-15.275553 -6.1102228 -17.964287
-15.446975 -7.2085881 -17.392885
-15.643498 -8.3431988 -16.737804
-15.92669 -9.556015 -15.793831
-16.301445 -10.867631 -14.544644
-16.885206 -12.382484 -12.598777
-15.538054 13.318329 -13.389749
-15.036458 11.814362 -15.181156
-14.685641 10.48974 -16.434078
-14.448708 9.2884521 -17.280272
-14.241726 8.1381283 -18.019491
-14.094219 7.0471077 -18.546301
-13.961061 5.9833117 -19.021866
-13.86952 4.9533997 -19.348793
-13.784486 3.9384232 -19.652493
-13.740304 2.9443502 -19.810284
-13.699153 1.9570198 -19.957253
-13.671635 0.97654629 -20.055531
-13.671635 -0 -20.055531
-13.671635 -0.97654533 -20.055531
-13.704152 -1.9577379 -19.939392
-13.745333 -2.9454308 -19.792318
-13.792587 -3.9407387 -19.623558
-13.880202 -4.9572144 -19.310644
-13.974223 -5.988956 -18.974855
-14.11192 -7.0559626 -18.48308
-14.259755 -8.1484318 -17.955099
-14.476469 -9.3063011 -17.181126
-14.723265 -10.516618 -16.299707
-15.080647 -11.849081 -15.023343
-15.619284 -13.387959 -13.099644
-14.403257 14.403259 -13.485648
-13.918993 12.848299 -15.34821
-13.588081 11.497606 -16.620945
-13.326442 10.251106 -17.627254
-13.147576 9.1021671 -18.315193
-12.981782 7.9887872 -18.952864
-12.866641 6.9281902 -19.395714
-12.770108 5.8938956 -19.766996
-12.688929 4.8803549 -20.079224
-12.619652 3.882967 -20.345673
-12.575877 2.9021244 -20.514038
-12.537775 1.9288874 -20.660583
-12.516507 0.9628067 -20.742384
-12.516507 -9.5367432e-07 -20.742382
-12.518155 -0.96293354 -20.736046
-12.542398 -1.9296007 -20.642805
-12.580527 -2.9032011 -20.496151
-12.62605 -3.8849397 -20.321066
-12.69871 -4.8841205 -20.041599
-12.781266 -5.8990455 -19.724085
-12.87999 -6.9353786 -19.344376
-12.998035 -7.9987917 -18.89035
-13.168971 -9.1169815 -18.232903
-13.354773 -10.272903 -17.518288
-13.620861 -11.525344 -16.494865
-13.968952 -12.894418 -15.156057
-14.49347 -14.493471 -13.138678
-13.398082 15.631093 -13.057455
-12.862379 13.934243 -15.289547
-12.532993 12.532993 -16.661989
-12.28685 11.262943 -17.687592
-12.085219 10.071012 -18.527714
-11.936479 8.9523554 -19.147469
-11.802598 7.8683977 -19.705303
-11.710726 6.8312545 -20.088104
-11.625975 5.8129849 -20.441235
-11.551902 4.8132915 -20.74987
-11.504311 3.8347712 -20.948172
-11.459114 2.8647776 -21.136486
-11.432486 1.9054117 -21.247444
-11.417208 0.95143318 -21.311092
-11.40908 -2.8610229e-06 -21.344967
-11.419031 -0.95158672 -21.303501
-11.434313 -1.9057207 -21.239826
-11.463264 -2.8658171 -21.119198
-11.510036 -3.8366795 -20.924314
-11.558575 -4.8160725 -20.722067
-11.636168 -5.8180838 -20.398758
-11.721105 -6.8373137 -20.044861
-11.818671 -7.8791156 -19.638332
-11.952882 -8.9646606 -19.079121
-12.109282 -10.091067 -18.427454
-12.311723 -11.285746 -17.583952
-12.570033 -12.570035 -16.507656
-12.919566 -13.996195 -15.051272
-13.498203 -15.7479 -12.640287
-12.477014 17.014109 -12.169097
-11.896384 15.14085 -14.808324
-11.510729 13.603587 -16.5613
-11.273598 12.29847 -17.639168
-11.076696 11.076694 -18.534176
-10.929813 9.9361916 -19.201824
-10.803497 8.8392248 -19.77599
-10.688871 7.7737222 -20.29702
-10.606853 6.749814 -20.669834
-10.528556 5.7428455 -21.025726
-10.471223 4.7596464 -21.286331
-10.427302 3.7917452 -21.48597
-10.384023 2.8320036 -21.682692
-10.366296 1.884779 -21.763271
-10.3522 0.94110966 -21.827343
-10.340981 -0 -21.878338
-10.353865 -0.94126034 -21.819777
-10.367966 -1.8850851 -21.75568
-10.38899 -2.8333607 -21.660114
-10.432588 -3.7936697 -21.461945
-10.476553 -4.7620735 -21.262102
-10.537958 -5.7479777 -20.982988
-10.616426 -6.7559061 -20.62631
-10.699695 -7.7815957 -20.247822
-10.818454 -8.8514633 -19.708008
-10.946001 -9.9509115 -19.128242
-11.095757 -11.095756 -18.447538
-11.301526 -12.328939 -17.512222
-11.553141 -13.653712 -16.368521
-11.949752 -15.208776 -14.565741
-12.571836 -17.14341 -11.738091
-11.819078 18.910526 -9.7874012
-10.937361 16.406044 -14.195987
-10.549644 14.769501 -16.134575
-10.287351 13.373552 -17.446045
-10.09569 12.114827 -18.404345
-9.9385567 10.932411 -19.190014
-9.8186045 9.8186016 -19.789772
-9.7052584 8.7347317 -20.356504
-9.6204271 7.696341 -20.780663
-9.5448999 6.681428 -21.158295
-9.4816275 5.6889753 -21.474659
-9.4327993 4.7163992 -21.7188
-9.3928518 3.7571392 -21.918533
-9.3629837 2.8088913 -22.067877
-9.3419743 1.868392 -22.172922
-9.3294086 0.93294048 -22.235754
-9.3261108 -0 -22.252243
-9.3308973 -0.93309116 -22.228313
-9.3434668 -1.8686943 -22.165462
-9.3657904 -2.8097401 -22.053844
-9.3975697 -3.7590303 -21.894947
-9.4386644 -4.7193317 -21.689476
-9.4875536 -5.692533 -21.445028
-9.5534 -6.6873798 -21.115793
-9.6300421 -7.7040353 -20.732588
-9.7185354 -8.7466812 -20.290121
-9.8329744 -9.8329735 -19.717922
-9.9550657 -10.950571 -19.10747
-10.117176 -12.140615 -18.296915
-10.317627 -13.412918 -17.294662
-10.58246 -14.815445 -15.97049
-10.990587 -16.48588 -13.929856
-10.078106 17.91663 -12.893321
-9.631547 16.052578 -15.374199
-9.3524876 14.548312 -16.924532
-9.1411209 13.20384 -18.098791
-8.9788342 11.971777 -19.000383
-8.8470545 10.813067 -19.732491
-8.7371826 9.7079782 -20.342892
-8.6436815 8.6436806 -20.862343
-8.5730696 7.6205082 -21.254631
-8.5042257 6.6143951 -21.6371
-8.4589491 5.6392994 -21.888634
-8.4157648 4.6754217 -22.128544
-8.3791971 3.7240868 -22.331699
-8.3584747 2.7861567 -22.446827
-8.3378544 1.8528557 -22.561384
-8.3272591 0.92524815 -22.620247
-8.3272352 -2.8610229e-06 -22.62038
-8.3272352 -0.92525101 -22.620378
-8.3403273 -1.853405 -22.547646
-8.36096 -2.7869873 -22.433016
-8.3816948 -3.7251997 -22.317822
-8.420928 -4.6782932 -22.099863
-8.4641895 -5.6427941 -21.859522
-8.5119734 -6.6204238 -21.594055
-8.5815277 -7.6280236 -21.207642
-8.6525908 -8.6525927 -20.812851
-8.7503548 -9.7226181 -20.269718
-8.8605595 -10.829573 -19.657463
-8.9981928 -11.997593 -18.892836
-9.1611862 -13.232825 -17.987314
-9.3819027 -14.594073 -16.76111
-9.672718 -16.121201 -15.145472
-10.149051 -18.042759 -12.499182
-9.4219065 20.021547 -9.9958849
-8.7055693 17.411137 -14.47299
-8.4057398 15.760763 -16.346918
-8.2022715 14.353975 -17.618597
-8.0374212 13.060807 -18.648916
-7.9035673 11.855352 -19.485497
-7.7981882 10.722507 -20.144119
-7.7049093 9.6311359 -20.727112
-7.630466 8.5842762 -21.192381
-7.5663543 7.5663509 -21.593082
-7.5086713 6.5700855 -21.953602
-7.4690914 5.6018171 -22.200974
-7.4300556 4.6437845 -22.44495
-7.4004335 3.7002182 -22.630085
-7.3816557 2.7681208 -22.747444
-7.3630786 1.8407688 -22.863558
-7.3495007 0.91868782 -22.94842
-7.3493748 -2.8610229e-06 -22.949205
-7.3508434 -0.91885567 -22.940025
-7.3652272 -1.8413076 -22.850128
-7.3839211 -2.7689734 -22.733288
-7.4027104 -3.701354 -22.615854
-7.4346466 -4.646657 -22.416252
-7.4738612 -5.6053958 -22.17116
-7.5134926 -6.5743079 -21.92347
-7.5740557 -7.5740561 -21.544949
-7.6382985 -8.5930862 -21.143425
-7.7158084 -9.6447601 -20.658997
-7.8099689 -10.73871 -20.07049
-7.9193702 -11.879057 -19.386734
-8.0548468 -13.089127 -18.540005
-8.2257519 -14.395065 -17.471848
-8.4405727 -15.826075 -16.129217
-8.7536077 -17.507215 -14.17275
-7.894979 19.173517 -12.490091
-7.5069556 17.158752 -15.261688
-7.2661099 15.570231 -16.982014
-7.0872149 14.174428 -18.259832
-6.9642806 12.933662 -19.137934
-6.8514509 11.745344 -19.943859
-6.7696319 10.637993 -20.528284
-6.6912341 9.5589056 -21.088266
-6.6311998 8.5258284 -21.517078
-6.5783372 7.5181007 -21.894672
-6.5311351 6.5311356 -22.231831
-6.4971733 5.569005 -22.474411
-6.4647317 4.6176662 -22.706142
-6.440465 3.6802645 -22.879475
-6.4243388 2.7532873 -22.994658
-6.4089136 1.8311167 -23.104841
-6.3973389 0.91390514 -23.187523
-6.3903699 -2.8610229e-06 -23.237297
-6.39852 -0.91407394 -23.179081
-6.4107561 -1.831645 -23.091682
-6.426208 -2.7540874 -22.981308
-6.4424357 -3.6813936 -22.865398
-6.4686484 -4.6204634 -22.678164
-6.501111 -5.5723801 -22.446289
-6.5353031 -6.5353022 -22.202057
-6.5846825 -7.5253534 -21.849348
-6.6378436 -8.5343695 -21.469629
-6.7006273 -9.5723276 -21.021166
-6.7792473 -10.653105 -20.4596
-6.8642488 -11.767281 -19.852451
-6.978303 -12.959707 -19.037775
-7.1083026 -14.216605 -18.109205
-7.287735 -15.616578 -16.827545
-7.5404496 -17.235315 -15.022444
-7.9739518 -19.365313 -11.926
-6.6222835 18.763136 -13.697102
-6.3518367 16.938231 -15.950825
-6.1724491 15.431125 -17.445717
-6.0322838 14.075327 -18.613762
-5.9280038 12.844006 -19.482767
-5.83602 11.67204 -20.249294
-5.7650008 10.569168 -20.841122
-5.6961427 9.4935684 -21.414942
-5.6486368 8.4729548 -21.810823
-5.602973 7.4706302 -22.191357
-5.5654907 6.4930696 -22.503708
-5.5377183 5.5377178 -22.735144
-5.510222 4.5918522 -22.964279
-5.4909492 3.6606321 -23.124889
-5.4778018 2.7388992 -23.234444
-5.4647179 1.8215752 -23.343479
-5.4561481 0.90935707 -23.414894
-5.4561481 -9.5367432e-07 -23.414896
-5.4561481 -0.90935898 -23.414896
-5.4662647 -1.8220882 -23.330585
-5.479372 -2.739686 -23.221359
-5.4925423 -3.6616945 -23.11161
-5.5135417 -4.5946169 -22.936615
-5.5410714 -5.5410709 -22.707199
-5.5688772 -6.497026 -22.475481
-5.6083593 -7.4778142 -22.146467
-5.6542273 -8.4813414 -21.76424
-5.7035961 -9.5059948 -21.352829
-5.7727566 -10.583387 -20.776491
-5.8439331 -11.687866 -20.183353
-5.9390893 -12.868026 -19.390388
-6.0473032 -14.110373 -18.488605
-6.1892867 -15.473214 -17.305412
-6.3731785 -16.99514 -15.772978
-6.6550579 -18.856001 -13.423979
-5.8908472 21.207047 -9.9743252
-5.4290485 18.458759 -14.592316
-5.2310948 16.7395 -16.571848
-5.1016989 15.305096 -17.865807
-4.9956126 13.987716 -18.926668
-4.9110403 12.768703 -19.772392
-4.8412123 11.618909 -20.470673
-4.7826061 10.521732 -21.056732
-4.7299862 9.4599695 -21.582935
-4.6902385 8.4424286 -21.980408
-4.6516781 7.4426851 -22.366014
-4.62187 6.4706154 -22.664097
-4.5978737 5.5174475 -22.904055
-4.5742688 4.5742674 -23.140108
-4.5589633 3.6471701 -23.293159
-4.5476642 2.7285967 -23.406155
-4.5364332 1.8145714 -23.518467
-4.5320635 0.90641022 -23.562164
-4.5320635 9.5367432e-07 -23.562164
-4.5320635 -0.90641308 -23.562164
-4.5375714 -1.8150282 -23.50708
-4.5488081 -2.7292852 -23.394718
-4.560113 -3.6480885 -23.281662
-4.5766106 -4.5766125 -23.116688
-4.6001873 -5.5202255 -22.88092
-4.6240082 -6.4736156 -22.642714
-4.6552043 -7.448328 -22.330755
-4.6936727 -8.4486122 -21.946072
-4.7355957 -9.4711924 -21.526836
-4.7873163 -10.532096 -21.009634
-4.8469725 -11.632734 -20.413073
-4.9177494 -12.78615 -19.705305
-5.0068045 -14.019051 -18.814753
-5.1108375 -15.332513 -17.774422
-5.2551322 -16.816423 -16.331474
-5.4711723 -18.601988 -14.171071
-4.5787959 20.604582 -11.647845
-4.3084536 18.310926 -15.02713
-4.1586351 16.634541 -16.899855
-4.053637 15.201138 -18.212328
-3.9728832 13.90509 -19.22176
-3.9062762 12.695396 -20.054344
-3.8554776 11.566431 -20.689325
-3.8090804 10.474968 -21.269291
-3.7706552 9.4266338 -21.749609
-3.7388301 8.4123678 -22.147415
-3.7080934 7.4161849 -22.53163
-3.6868954 6.4520683 -22.796602
-3.6670771 5.5006123 -23.044334
-3.6485765 4.5607185 -23.275589
-3.6378534 3.6378536 -23.409626
-3.6280007 2.7209988 -23.532785
-3.6190662 1.8095331 -23.64447
-3.6168694 0.90421677 -23.671926
-3.6157825 -1.9073486e-06 -23.685516
-3.6157825 -0.90394497 -23.685513
-3.6213667 -1.8106823 -23.615711
-3.6286552 -2.7214918 -23.524605
-3.6376376 -3.637639 -23.412327
-3.6520545 -4.5650682 -23.232113
-3.6683311 -5.5024977 -23.028658
-3.6874449 -6.4530301 -22.789734
-3.7130456 -7.4260893 -22.46973
-3.7405033 -8.416132 -22.126507
-3.7748015 -9.437006 -21.697779
-3.8136845 -10.487633 -21.211737
-3.8593729 -11.578117 -20.640633
-3.9154603 -12.725247 -19.939541
-3.9798596 -13.929511 -19.13455
-4.0659156 -15.247186 -18.058849
-4.1785321 -16.71413 -16.651142
-4.3349314 -18.42346 -14.696152
-4.6337795 -20.852005 -10.960554
-3.3742793 20.245678 -12.644803
-3.2068367 18.172071 -15.435518
-3.1050634 16.560335 -17.131739
-3.03019 15.150948 -18.379631
-2.9715643 13.867298 -19.356724
-2.9208968 12.657217 -20.201183
-2.8824916 11.529965 -20.841267
-2.8461988 10.436063 -21.446144
-2.8186784 9.3955917 -21.904825
-2.7943592 8.3830776 -22.310141
-2.7724769 7.3932705 -22.674847
-2.7572668 6.4336224 -22.928347
-2.7422307 5.4844599 -23.178951
-2.7296398 4.5493994 -23.388802
-2.7216372 3.628849 -23.522179
-2.7136891 2.7136879 -23.654644
-2.7079654 1.8053102 -23.750038
-2.7064092 0.90213585 -23.775972
-2.704855 -0 -23.80188
-2.7050595 -0.90168858 -23.798471
-2.709759 -1.8065062 -23.720142
-2.7144752 -2.7144756 -23.641548
-2.7208319 -3.6277781 -23.535595
-2.7321889 -4.5536489 -23.346313
-2.743649 -5.487298 -23.155317
-2.7575741 -6.4343376 -22.923229
-2.7766631 -7.4044328 -22.60508
-2.7960181 -8.3880558 -22.282492
-2.8216355 -9.4054546 -21.855534
-2.8518822 -10.456902 -21.351425
-2.8848431 -11.539375 -20.80208
-2.9286673 -12.690893 -20.071674
-2.9754748 -13.885549 -19.29155
-3.0397398 -15.198699 -18.220465
-3.117063 -16.624336 -16.931744
-3.2203033 -18.248388 -15.211073
-3.4234545 -20.540728 -11.825222
-2.2390492 20.151443 -12.906564
-2.1296997 18.102448 -15.640302
-2.0611465 16.48917 -17.354137
-2.0145752 15.109311 -18.518417
-1.9759891 13.831923 -19.483068
-1.9443234 12.6381 -20.274708
-1.9185222 11.511132 -20.919739
-1.8958117 10.426963 -21.487503
-1.8772774 9.3863869 -21.950859
-1.8608003 8.3736 -22.362785
-1.8463932 7.3855715 -22.722965
-1.8358554 6.4254932 -22.986412
-1.825442 5.476326 -23.246744
-1.8172628 4.5431566 -23.451225
-1.8117435 3.6234865 -23.589207
-1.8062577 2.7093859 -23.726357
-1.802565 1.8025627 -23.818672
-1.8014854 0.90073967 -23.845663
-1.8004121 -1.9073486e-06 -23.872498
-1.8005379 -0.90026951 -23.869347
-1.8037775 -1.8037786 -23.788363
-1.8070337 -2.7105532 -23.706959
-1.8111268 -3.6222553 -23.604628
-1.8189628 -4.5474062 -23.40873
-1.8268669 -5.4806013 -23.211124
-1.8359181 -6.4257131 -22.98484
-1.8491198 -7.3964815 -22.6548
-1.8626473 -8.3819141 -22.31661
-1.878927 -9.3946362 -21.909622
-1.8990446 -10.444749 -21.406677
-1.920738 -11.524429 -20.864347
-1.9486322 -12.666109 -20.16699
-1.980208 -13.861453 -19.377598
-2.020431 -15.153233 -18.372021
-2.0670443 -16.536354 -17.206694
-2.1393764 -18.1847 -15.398386
-2.2588747 -20.329876 -12.410925
-1.1150948 20.071709 -13.128054
-1.0638608 18.08563 -15.68976
-1.0300851 16.481361 -17.378542
-1.0053964 15.080944 -18.612978
-0.9864803 13.810721 -19.558784
-0.97069848 12.619079 -20.34787
-0.9581359 11.497631 -20.975998
-0.9471972 10.419168 -21.522934
-0.93771702 9.3771696 -21.996946
-0.93002105 8.3701897 -22.381741
-0.9227466 7.3819723 -22.745464
-0.91739649 6.4217749 -23.012972
-0.91260713 5.4756422 -23.252438
-0.90831858 4.5415916 -23.466869
-0.90556079 3.622242 -23.604755
-0.90308321 2.7092505 -23.728634
-0.90106302 1.802124 -23.829649
-0.90052336 0.90052319 -23.856627
-0.90013045 -9.5367432e-07 -23.87627
-0.90013045 -0.90012932 -23.876274
-0.90165621 -1.8033123 -23.799984
-0.90337729 -2.7101326 -23.713932
-0.90553534 -3.6221418 -23.606031
-0.90911913 -4.5455952 -23.426842
-0.91322088 -5.4793253 -23.22175
-0.91775227 -6.4242659 -22.995182
-0.92393076 -7.3914461 -22.686256
-0.93099231 -8.3789291 -22.333179
-0.93838686 -9.3838701 -21.963451
-0.9485988 -10.434587 -21.452858
-0.95952427 -11.514292 -20.906584
-0.97259653 -12.643755 -20.252972
-0.98841935 -13.837873 -19.46183
-1.0083954 -15.12593 -18.463026
-1.0335586 -16.536938 -17.204865
-1.069379 -18.179443 -15.413847
-1.1260427 -20.26877 -12.58066
0 20.065378 -13.145632
0 18.070698 -15.733683
0 16.489698 -17.352488
0 15.098822 -18.553387
0 13.824369 -19.510048
0 12.622164 -20.33601
0 11.498657 -20.971718
0 10.414387 -21.544672
0 9.3714619 -22.025478
0 8.3678417 -22.394775
0 7.3799219 -22.758289
0 6.41998 -23.025784
0 5.4756708 -23.25218
0 4.5406437 -23.476349
0 3.6215096 -23.613926
0 2.7096663 -23.721664
0 1.8021498 -23.829016
0 0.90030575 -23.867458
0 -9.5367432e-07 -23.867458
0 -0.90030384 -23.867584
0 -1.8028421 -23.811728
0 -2.7104893 -23.707972
0 -3.6226215 -23.600042
0 -4.543787 -23.444937
0 -5.4791079 -23.223566
0 -6.4239931 -22.997143
0 -7.3871217 -22.713295
0 -8.3759747 -22.349606
0 -9.3805351 -21.980137
0 -10.429546 -21.475773
0 -11.5157 -20.900717
0 -12.64716 -20.239883
0 -13.855318 -19.399519
0 -15.136697 -18.427137
0 -16.55571 -17.146212
0 -18.1763 -15.423087
0 -20.303722 -12.48357
1.1232641 20.218752 -12.719594
1.0659573 18.121275 -15.584926
1.0311279 16.498047 -17.326399
1.0083292 15.124935 -18.466343
0.98867136 13.841396 -19.44923
0.9730435 12.649563 -20.230619
0.95983046 11.517966 -20.89127
0.94846177 10.433077 -21.459707
0.93880302 9.3880291 -21.942646
0.93106508 8.3795862 -22.329544
0.92358607 7.388689 -22.703491
0.91807956 6.4265566 -22.978821
0.91335046 5.4801025 -23.215269
0.90867251 4.5433598 -23.449173
0.90593302 3.6237326 -23.586147
0.9036842 2.711051 -23.698586
0.90144408 1.8028889 -23.810593
0.90067965 0.90067768 -23.848816
0.90067965 -9.5367432e-07 -23.848816
0.90067714 -0.90067863 -23.84894
0.90171432 -1.8034296 -23.797083
0.90395582 -2.7118683 -23.685005
0.90621102 -3.6248426 -23.572247
0.90925014 -4.5462523 -23.420292
0.91394186 -5.4836512 -23.185701
0.91868228 -6.4307756 -22.948683
0.92441642 -7.3953328 -22.661972
0.93205738 -8.3885155 -22.27993
0.93998754 -9.3998775 -21.883419
0.94982779 -10.448105 -21.391407
0.96143907 -11.537268 -20.810843
0.97421294 -12.664768 -20.172152
0.99130863 -13.878322 -19.317364
1.009832 -15.14748 -18.391197
1.0359074 -16.574518 -17.087427
1.07234 -18.22978 -15.265799
1.1354424 -20.437963 -12.110676
2.264334 20.379005 -12.274447
2.1435158 18.219883 -15.294905
2.0729959 16.583963 -17.057903
2.0224371 15.168278 -18.321869
1.9808843 13.866191 -19.360685
1.9503269 12.677124 -20.124624
1.9228956 11.537373 -20.81041
1.9015357 10.458444 -21.344404
1.8812664 9.4063311 -21.851137
1.8657249 8.3957615 -22.239674
1.8519183 7.4076738 -22.584837
1.8400223 6.4400787 -22.882238
1.8305246 5.4915743 -23.119682
1.8221295 4.5553236 -23.329556
1.8158172 3.6316338 -23.487368
1.8113 2.7169485 -23.600296
1.8074039 1.8074026 -23.697699
1.8053508 0.90267277 -23.749027
1.8053458 -1.9073486e-06 -23.749151
1.8056698 -0.9028368 -23.741051
1.8073938 -1.807394 -23.697952
1.8118966 -2.7178459 -23.585384
1.816673 -3.6333447 -23.465971
1.8223875 -4.5559683 -23.323109
1.8318113 -5.4954338 -23.087515
1.841765 -6.4461775 -22.838667
1.8525525 -7.410212 -22.568981
1.8678744 -8.4054365 -22.185934
1.8845383 -9.4226894 -21.769344
1.9030424 -10.466732 -21.306736
1.9271039 -11.562626 -20.705196
1.9524685 -12.691047 -20.071081
1.9861534 -13.903074 -19.22896
2.0260019 -15.195017 -18.232744
2.0822706 -16.658167 -16.826029
2.1570134 -18.334612 -14.957464
2.2899437 -20.609495 -11.634202
3.462137 20.77282 -11.180513
3.2379615 18.34845 -14.916773
3.1297338 16.691912 -16.720564
3.0493212 15.246604 -18.060776
2.9859655 13.934505 -19.116703
2.9368989 12.726559 -19.934481
2.89309 11.572358 -20.664631
2.8596959 10.485553 -21.221197
2.8283062 9.4276867 -21.74436
2.8056548 8.4169636 -22.121887
2.785033 7.4267554 -22.465576
2.7658529 6.4536562 -22.78525
2.7526209 5.5052414 -23.005779
2.7404246 4.5673742 -23.209051
2.729686 3.6395788 -23.388027
2.7233799 2.7233801 -23.493132
2.7183652 1.8122416 -23.57671
2.7140324 0.90467739 -23.648922
2.7141011 1.9073486e-06 -23.647778
2.7157578 -0.90525341 -23.620171
2.7174242 -1.8116188 -23.592396
2.7238564 -2.7238598 -23.485191
2.7322121 -3.6429501 -23.345928
2.7407515 -4.5679197 -23.203606
2.7536652 -5.5073299 -22.988379
2.7697411 -6.4627323 -22.720448
2.7860055 -7.429348 -22.449373
2.808217 -8.4246521 -22.079178
2.8336854 -9.4456196 -21.654709
2.8603058 -10.487791 -21.211031
2.8999548 -11.599821 -20.550217
2.9410861 -12.744706 -19.8647
2.9949596 -13.976478 -18.966806
3.0572391 -15.286195 -17.928814
3.1421809 -16.758297 -16.513111
3.2562754 -18.452225 -14.611541
3.5284629 -21.17078 -10.075079
4.3733988 18.586943 -14.215315
4.2038307 16.815323 -16.334908
4.0899172 15.337187 -17.758833
4.0038118 14.01334 -18.835152
3.9362807 12.79291 -19.679291
3.8777764 11.633327 -20.410591
3.8320303 10.538083 -20.982416
3.789525 9.4738102 -21.513737
3.7562969 8.4516678 -21.929087
3.7271717 7.4543428 -22.293152
3.6994405 6.4740191 -22.639791
3.681813 5.5227184 -22.860134
3.664645 4.5808058 -23.074738
3.6479564 3.6479549 -23.283342
3.6409402 2.7307034 -23.371042
3.634218 1.8171091 -23.45507
3.6275206 0.90688038 -23.538792
3.6285224 1.9073486e-06 -23.526266
3.6307433 -0.90768909 -23.498508
3.6329668 -1.8164835 -23.470715
3.6412389 -2.7309294 -23.36731
3.6531429 -3.6531439 -23.218513
3.6651666 -4.5814571 -23.068218
3.6830137 -5.5245218 -22.845123
3.705713 -6.4849977 -22.561384
3.7287369 -7.4574728 -22.273584
3.7598734 -8.4597139 -21.884382
3.7960734 -9.4901848 -21.431879
3.8350215 -10.54631 -20.945028
3.8866863 -11.66006 -20.299219
3.9441681 -12.81855 -19.580694
4.0147872 -14.051758 -18.697956
4.100914 -15.378427 -17.621374
4.2211308 -16.884523 -16.118664
4.401722 -18.707319 -13.861272
5.5440283 18.849691 -13.442516
5.3153152 17.009007 -15.729646
5.1568294 15.470488 -17.314503
5.038835 14.108736 -18.494446
4.9497738 12.86941 -19.385059
4.8757582 11.701818 -20.125216
4.8143725 10.591619 -20.739069
4.7638879 9.5277748 -21.243916
4.7186542 8.493576 -21.696259
4.6820779 7.491322 -22.062019
4.6497965 6.509716 -22.38483
4.6247525 5.5497026 -22.635269
4.6030827 4.6030827 -22.851971
4.5844469 3.6675558 -23.038324
4.5732031 2.7439222 -23.150768
4.5643172 1.8257236 -23.239624
4.5572076 0.91144085 -23.310719
4.5568075 -1.9073486e-06 -23.314722
4.5597515 -0.91195202 -23.285282
4.5638771 -1.825552 -23.244026
4.5736837 -2.7442093 -23.145956
4.5887485 -3.6709967 -22.995316
4.6051903 -4.6051922 -22.830893
4.6264811 -5.5517788 -22.617987
4.6551366 -6.5171928 -22.331429
4.6864958 -7.4983931 -22.017839
4.7235713 -8.5024319 -21.647081
4.7704411 -9.5408821 -21.178387
4.8208342 -10.605837 -20.674454
4.8847871 -11.72349 -20.034929
4.9589415 -12.893248 -19.293383
5.0528221 -14.147903 -18.354572
5.1714969 -15.514489 -17.167828
5.3374591 -17.07987 -15.508201
5.5858479 -18.991888 -13.024316
6.8490949 19.405766 -11.807009
6.4571691 17.219116 -15.073055
6.2601781 15.650444 -16.714645
6.10711 14.24992 -17.990213
5.9905696 12.979567 -18.961384
5.8941836 11.788368 -19.764597
5.813705 10.658459 -20.435255
5.7494144 9.5823574 -20.971008
5.6906033 8.535903 -21.461103
5.6498594 7.5331459 -21.800632
5.6106896 6.545805 -22.127048
5.5769353 5.5769358 -22.408333
5.5532465 4.6277056 -22.605743
5.5312939 3.6875267 -22.788681
5.5146122 2.7573051 -22.927692
5.5052104 1.8350697 -23.006042
5.4980941 0.91634655 -23.065346
5.4947772 1.9073486e-06 -23.092983
5.499002 -0.91650009 -23.057779
5.5061212 -1.8353739 -22.998455
5.5152898 -2.7576456 -22.922047
5.5341792 -3.6894522 -22.764635
5.556138 -4.6301174 -22.581644
5.5793042 -5.5793042 -22.388592
5.6156335 -6.5515757 -22.085846
5.6548066 -7.5397449 -21.759407
5.6970668 -8.5456028 -21.407236
5.7566824 -9.5944691 -20.910444
5.8214869 -10.672728 -20.370401
5.9054685 -11.810939 -19.670561
6.0024319 -13.00527 -18.862534
6.1242518 -14.289921 -17.847363
6.2821746 -15.705437 -16.531343
6.4916196 -17.310987 -14.785962
6.9419732 -19.668926 -11.03302
7.7027497 17.606283 -13.863155
7.4061399 15.870295 -15.981804
7.2028489 14.405695 -17.433876
7.0590329 13.109632 -18.46113
6.9395881 11.896437 -19.314308
6.8433342 10.753811 -20.001837
6.7640424 9.6629162 -20.568207
6.6923275 8.6044188 -21.080462
6.637804 7.586061 -21.469906
6.5888038 6.5888052 -21.819912
6.5443215 5.609417 -22.137644
6.5167575 4.6548281 -22.334526
6.4894252 3.7082434 -22.529758
6.4659939 2.7711382 -22.697128
6.4575601 1.8450155 -22.757364
6.4491673 0.92130947 -22.817314
6.4419198 -9.5367432e-07 -22.869087
6.4501648 -0.92145348 -22.810192
6.45856 -1.8453045 -22.750225
6.4669771 -2.7715635 -22.690102
6.492661 -3.7100945 -22.506649
6.5200582 -4.6571836 -22.310951
6.5483732 -5.6128922 -22.1087
6.5946865 -6.5946879 -21.777893
6.6437945 -7.5929084 -21.42712
6.6999698 -8.6142483 -21.025867
6.7732348 -9.6760502 -20.502548
6.854641 -10.77158 -19.921076
6.952867 -11.9192 -19.21946
7.076129 -13.141381 -18.33902
7.2206721 -14.441344 -17.30657
7.436872 -15.936155 -15.762282
7.7576032 -17.731663 -13.471343
9.0799513 18.159901 -12.133099
8.6263762 16.174452 -14.967945
8.359127 14.628471 -16.638252
8.1672497 13.271778 -17.837488
8.0108366 12.016256 -18.815063
7.8985977 10.860571 -19.516563
7.7970076 9.7462597 -20.151497
7.7198105 8.6847878 -20.63398
7.6485558 7.6485538 -21.079325
7.5916314 6.6426764 -21.435097
7.5450897 5.6588173 -21.725986
7.5069418 4.6918354 -21.964409
7.4752069 3.7376003 -22.162754
7.4511719 2.7941904 -22.312969
7.4368377 1.8592062 -22.402561
7.4265404 0.92831707 -22.466915
7.4220452 -9.5367432e-07 -22.495014
7.4277616 -0.92847252 -22.459284
7.4380403 -1.8595104 -22.395041
7.4536743 -2.7951279 -22.297333
7.4789634 -3.7394838 -22.139271
7.5107741 -4.6942329 -21.940456
7.5504661 -5.6628504 -21.692383
7.5984883 -6.6486783 -21.392246
7.6557198 -7.6557207 -21.034546
7.7287092 -8.6947975 -20.578362
7.8077426 -9.7596798 -20.084406
7.911972 -10.878961 -19.432976
8.0246449 -12.036968 -18.728765
8.1901903 -13.309061 -17.694107
8.3850718 -14.673875 -16.476099
8.6615791 -16.240461 -14.74793
9.1633282 -18.326656 -11.611996
9.9664078 16.61068 -13.513861
9.5768356 14.897298 -15.678153
9.3318176 13.47929 -17.039368
9.1443539 12.192471 -18.080832
8.9963484 10.995536 -18.903084
8.8641396 9.8490419 -19.637577
8.7699337 8.7699337 -20.160942
8.6831732 7.7183738 -20.642948
8.6156816 6.7010846 -21.017895
8.564374 5.7095833 -21.302937
8.5136995 4.7298317 -21.584467
8.4799252 3.768856 -21.772099
8.4556894 2.8185625 -21.906746
8.4323034 1.8738461 -22.036663
8.4220791 0.93578815 -22.093468
8.4220791 -0 -22.093468
8.4220791 -0.9357872 -22.093468
8.4344893 -1.8743315 -22.024525
8.4586039 -2.8195372 -21.890556
8.4828558 -3.7701597 -21.755817
8.5198107 -4.7332296 -21.550518
8.5705585 -5.7137055 -21.268585
8.6219397 -6.7059541 -20.983131
8.6932068 -7.7272973 -20.587204
8.7810736 -8.7810764 -20.099052
8.8788395 -9.8653793 -19.555908
9.0143509 -11.017541 -18.803066
9.1613607 -12.215151 -17.986349
9.3616476 -13.522381 -16.873648
9.6166458 -14.959228 -15.456988
10.034567 -16.724277 -13.135203
11.577656 17.366482 -10.994518
10.925629 15.29588 -14.254655
10.57092 13.742197 -16.028194
10.322392 12.386867 -17.270838
10.13719 11.150906 -18.19685
9.989954 9.989954 -18.933025
9.869916 8.8829203 -19.533218
9.767705 7.8141646 -20.04427
9.6835899 6.7785144 -20.464846
9.6190176 5.7714081 -20.787708
9.5574865 4.7787428 -21.095366
9.5147905 3.8059187 -21.308846
9.4855118 2.8456516 -21.455235
9.4563866 1.8912754 -21.600868
9.4445086 0.94444942 -21.660254
9.4445086 9.5367432e-07 -21.660254
9.4445086 -0.94445229 -21.660252
9.4599724 -1.8919983 -21.582935
9.4891481 -2.8467436 -21.437056
9.5184765 -3.8073902 -21.290413
9.5651836 -4.7825928 -21.056873
9.626873 -5.7761226 -20.748432
9.6893921 -6.7825766 -20.435837
9.7816591 -7.8253274 -19.974503
9.8839808 -8.8955851 -19.462891
10.009809 -10.00981 -18.83375
10.159367 -11.175303 -18.085964
10.347349 -12.416821 -17.146046
10.600691 -13.780899 -15.879341
10.987699 -15.38278 -13.944304
11.881739 -17.822609 -9.4741001
12.51955 15.933972 -11.975754
11.935973 14.10615 -14.628373
11.604418 12.659365 -16.135443
11.35678 11.356779 -17.261068
11.155336 10.141213 -18.176725
11.011886 9.0097218 -18.82877
10.883275 7.9151077 -19.413364
10.794504 6.8692298 -19.816868
10.711089 5.8424106 -20.196026
10.641223 4.8369198 -20.513603
10.597105 3.8534937 -20.71414
10.557443 2.879303 -20.894421
10.524643 1.9135695 -21.04351
10.51517 0.95592213 -21.086567
10.510707 -2.8610229e-06 -21.106857
10.510707 -0.95552158 -21.106857
10.533819 -1.9152393 -21.001802
10.561947 -2.8805342 -20.873947
10.595012 -3.8527327 -20.723656
10.65647 -4.8438511 -20.444294
10.720139 -5.8473501 -20.154892
10.800136 -6.8728161 -19.791269
10.907049 -7.9323988 -19.305302
11.016067 -9.0131435 -18.809765
11.185331 -10.168482 -18.040382
11.374916 -11.374916 -17.178629
11.644153 -12.702713 -15.95483
11.993273 -14.17387 -14.367919
12.672462 -16.12859 -11.280692
13.589925 14.722414 -12.258112
13.005626 13.005625 -14.692686
12.665426 11.609974 -16.110188
12.428248 10.356873 -17.098427
12.237868 9.178401 -17.891676
12.073771 8.049181 -18.575415
11.957175 6.975019 -19.061234
11.85477 5.9273825 -19.487923
11.763304 4.9013753 -19.869026
11.710122 3.9033699 -20.090622
11.661396 2.9153481 -20.29364
11.62545 1.9375725 -20.44342
11.616078 0.96800423 -20.482468
11.606757 -9.5367432e-07 -20.521309
11.60906 -0.96742249 -20.511713
11.63729 -1.9395485 -20.394087
11.665694 -2.9164238 -20.275738
11.707992 -3.9026642 -20.099495
11.783835 -4.9099326 -19.783482
11.860631 -5.9303155 -19.463497
11.968662 -6.9817233 -19.013369
12.101503 -8.0676699 -18.459867
12.256278 -9.1922092 -17.81497
12.455344 -10.379454 -16.985529
12.704301 -11.645611 -15.948212
13.053851 -13.053852 -14.49175
13.661168 -14.799601 -11.961258
14.70746 13.576118 -12.315637
14.174636 11.993919 -14.364965
13.804042 10.618494 -15.790323
13.543741 9.3764362 -16.791483
13.341059 8.2098827 -17.571028
13.201716 7.1086168 -18.106962
13.073338 6.0338492 -18.600725
12.978157 4.9915972 -18.966805
12.903388 3.9702735 -19.254379
12.844323 2.9640741 -19.481556
12.805638 1.9700985 -19.630341
12.786344 0.98356533 -19.704552
12.774982 9.5367432e-07 -19.748249
12.785172 -0.98347378 -19.709063
12.813403 -1.9712973 -19.600475
12.847992 -2.96492 -19.467445
12.912706 -3.9731402 -19.218536
12.990691 -4.9964209 -18.918602
13.082741 -6.038188 -18.564564
13.219194 -7.1180282 -18.039745
13.359463 -8.2212086 -17.500248
13.574855 -9.3979797 -16.671818
13.835311 -10.64255 -15.670059
14.232114 -12.042555 -14.1439
14.871566 -13.727599 -11.684467
16.155539 12.693636 -11.184445
15.407502 11.005357 -13.856004
15.033999 9.664712 -15.189941
14.7591 8.4337711 -16.171726
14.555787 7.2778935 -16.897842
14.382383 6.163878 -17.517143
14.256101 5.0914626 -17.968151
14.161732 4.0462093 -18.305183
14.07278 3.0155926 -18.622871
14.041596 2.0059404 -18.734238
14.014954 1.0010681 -18.829393
13.991972 -1.9073486e-06 -18.911465
14.018267 -1.0013056 -18.817558
14.044879 -2.0064135 -18.722513
14.082808 -3.0177436 -18.587051
14.173182 -4.0494809 -18.26429
14.267929 -5.0956912 -17.925907
14.404363 -6.1732984 -17.438646
14.578959 -7.2894797 -16.815083
14.79438 -8.4539328 -16.045725
15.067937 -9.6865339 -15.068734
15.492746 -11.066246 -13.551558
16.251398 -12.768951 -10.842094
16.892355 10.135413 -12.574942
16.390612 8.7416573 -14.247423
16.083652 7.5057034 -15.27062
15.827164 6.3308659 -16.125584
15.686554 5.2288494 -16.594286
15.555284 4.1480746 -17.031849
15.461519 3.0923014 -17.344397
15.408566 2.0544748 -17.520912
15.368781 1.0245838 -17.653524
15.3569 -1.9073486e-06 -17.693127
15.373969 -1.0249338 -17.63623
15.406302 -2.0541754 -17.528454
15.479766 -3.0959558 -17.283581
15.570787 -4.1522112 -16.980167
15.691857 -5.230617 -16.576607
15.871655 -6.34866 -15.977278
16.088209 -7.5078316 -15.255434
16.453571 -8.7752409 -14.037554
16.948221 -10.168935 -12.388722
18.889713 9.4448528 -9.8524437
18.012272 7.8803701 -12.594443
17.612909 6.6048398 -13.842453
17.340309 5.4188457 -14.694328
17.164131 4.2910309 -15.244884
17.007322 3.1888709 -15.734911
16.936783 2.1170974 -15.955353
16.872185 1.0545115 -16.157221
16.861744 9.5367432e-07 -16.189852
16.884302 -1.0552721 -16.119356
16.926147 -2.1157675 -15.988583
17.037148 -3.1944642 -15.641713
17.177759 -4.2944427 -15.202301
17.36042 -5.4251318 -14.631482
17.649313 -6.6184931 -13.728695
18.075502 -7.9080334 -12.396851
19.559753 -9.7798777 -7.7585645
19.6789 5.7879133 -11.003678
19.249344 4.5292554 -12.267076
18.979233 3.3492756 -13.06152
18.768349 2.2080398 -13.68177
18.679598 1.0987983 -13.942803
18.655903 4.7683716e-07 -14.012496
18.68783 -1.0992861 -13.918594
18.789167 -2.2104907 -13.620538
19.010296 -3.3547602 -12.970163
19.283607 -4.5373201 -12.1663
19.823143 -5.830337 -10.579435
