# .PCD v0.7 - Point Cloud Data file format
VERSION 0.7
FIELDS x y z
SIZE 4 4 4
TYPE F F F
COUNT 1 1 1
WIDTH 1059
HEIGHT 1
VIEWPOINT 0 0 0 1 0 0 0
POINTS 1059
DATA ascii
-23.223946 1.2223122 -7.7671528
-21.647596 7.2158647 -8.7505779
-20.768057 5.7689037 -11.193755
-20.344082 4.5209055 -12.371462
-20.146608 3.357769 -12.919998
-19.982115 2.2202363 -13.376921
-19.892159 1.1051202 -13.626799
-19.874208 -4.7683716e-07 -13.676657
-19.856293 -1.1031265 -13.726427
-19.979427 -2.2199364 -13.384385
-20.147099 -3.3578515 -12.918633
-20.398884 -4.5330849 -12.219229
-20.883354 -5.8009324 -10.873479
-19.924574 9.3762684 -10.281109
-19.203199 7.9071999 -12.402802
-18.796528 6.634068 -13.598894
-18.538198 5.4524107 -14.358682
-18.331541 4.3133016 -14.966499
-18.216789 3.214726 -15.304003
-18.116175 2.1313138 -15.599928
-18.061691 1.0624504 -15.760178
-18.05019 -2.8610229e-06 -15.794003
-18.041618 -1.0612698 -15.819213
-18.114494 -2.1311188 -15.604869
-18.215759 -3.2145457 -15.307032
-18.32798 -4.3124681 -14.976974
-18.57382 -5.4628887 -14.253916
-18.84963 -6.6528101 -13.442707
-19.269617 -7.9345489 -12.207454
-20.084171 -9.451375 -9.8117037
-19.041504 11.900941 -9.3780956
-18.057753 10.157486 -12.452316
-17.613392 8.806694 -13.840948
-17.259577 7.5510659 -14.946619
-17.034836 6.3880644 -15.648932
-16.862074 5.2693977 -16.188816
-16.721186 4.1802974 -16.629091
-16.640669 3.1201272 -16.880707
-16.560925 2.0701137 -17.129908
-16.521816 1.0326128 -17.252121
-16.525686 -0 -17.240028
-16.535025 -1.0334377 -17.210842
-16.583326 -2.0729179 -17.059906
-16.65337 -3.122509 -16.841013
-16.74032 -4.1850796 -16.569294
-16.897377 -5.2804337 -16.078495
-17.079077 -6.4046564 -15.51068
-17.313839 -7.5748038 -14.77705
-17.65258 -8.8262911 -13.718485
-18.154589 -10.211957 -12.149704
-19.38706 -12.116911 -8.2982321
-17.267588 12.662897 -11.324169
-16.655153 11.103435 -13.365622
-16.233088 9.7398539 -14.772502
-15.957595 8.5107145 -15.690817
-15.721037 7.3364816 -16.479343
-15.563308 6.2253232 -17.005104
-15.428954 5.1429839 -17.45295
-15.316459 4.0843873 -17.827932
-15.254362 3.0508704 -18.034924
-15.19688 2.0262518 -18.226528
-15.165038 1.0110016 -18.33267
-15.157658 -0 -18.357269
-15.164657 -1.0109758 -18.333939
-15.200039 -2.0266743 -18.216
-15.263961 -3.0527921 -18.002926
-15.329446 -4.0878515 -17.784645
-15.440501 -5.146831 -17.414457
-15.580789 -6.2323174 -16.946835
-15.735487 -7.3432283 -16.431175
-15.975286 -8.520153 -15.631845
-16.263002 -9.757803 -14.672788
-16.716692 -11.144462 -13.160491
-17.41535 -12.771258 -10.831623
-15.944291 13.666531 -11.938902
-15.372177 12.078137 -13.982165
-15.008159 10.720113 -15.282228
-14.721581 9.4638748 -16.305721
-14.523646 8.2992258 -17.01263
-14.345886 7.1729436 -17.64749
-14.228952 6.0981236 -18.065109
-14.117226 5.0418653 -18.46413
-14.035385 4.0101089 -18.75642
-13.980727 2.9958696 -18.951624
-13.929768 1.9899673 -19.133629
-13.905777 0.99326897 -19.219307
-13.899815 9.5367432e-07 -19.240601
-13.905519 -0.9932518 -19.220226
-13.936358 -1.9909096 -19.110085
-13.984591 -2.9967008 -18.937832
-14.035472 -4.0101357 -18.756107
-14.129579 -5.0462775 -18.420017
-14.239385 -6.1025968 -18.027849
-14.363218 -7.1816101 -17.585587
-14.555176 -8.3172436 -16.900024
-14.765968 -9.4924068 -16.147198
-15.050019 -10.750017 -15.132727
-15.446537 -12.136567 -13.716591
-16.062351 -13.767731 -11.517256
-14.800856 14.800856 -11.956424
-14.245197 13.149409 -14.093578
-13.865989 11.732759 -15.552071
-13.601555 10.462733 -16.569122
-13.395393 9.2737312 -17.362053
-13.23136 8.142374 -17.99295
-13.084909 7.0457182 -18.556221
-12.987665 5.9943061 -18.930233
-12.896188 4.960073 -19.28207
-12.825423 3.9462857 -19.554245
-12.78396 2.9501419 -19.71372
-12.743424 1.9605265 -19.869625
-12.722575 0.97865868 -19.949812
-12.717587 -0 -19.969
-12.722575 -0.97866154 -19.949814
-12.746375 -1.9609814 -19.858276
-12.790762 -2.9517145 -19.687561
-12.837071 -3.9498687 -19.509445
-12.908443 -4.9647851 -19.234934
-13.002317 -6.00107 -18.873882
-13.099618 -7.0536423 -18.499649
-13.246694 -8.1518097 -17.933975
-13.410765 -9.2843761 -17.302931
-13.623699 -10.479771 -16.483952
-13.909414 -11.769504 -15.385052
-14.274895 -13.176825 -13.97936
-14.877594 -14.877594 -11.661282
-13.785372 16.082933 -11.443745
-13.174038 14.271873 -13.990973
-12.778537 12.778538 -15.638892
-12.529619 11.485482 -16.676052
-12.301762 10.251467 -17.625458
-12.151882 9.1139107 -18.249958
-12.015582 8.0103874 -18.817869
-11.903586 6.9437571 -19.284517
-11.821602 5.910799 -19.626122
-11.742845 4.8928504 -19.954277
-11.688185 3.89606 -20.182028
-11.649014 2.9122524 -20.345234
-11.611119 1.9351845 -20.50313
-11.594839 0.96623707 -20.570965
-11.594596 -0 -20.57198
-11.599053 -0.96658897 -20.55341
-11.619923 -1.9366541 -20.466446
-11.654428 -2.9136086 -20.322678
-11.69144 -3.8971486 -20.168465
-11.753531 -4.897305 -19.909752
-11.830801 -5.9154 -19.587793
-11.913465 -6.9495215 -19.243359
-12.036667 -8.0244465 -18.730017
-12.172987 -9.1297417 -18.162022
-12.341467 -10.284556 -17.460016
-12.550957 -11.50504 -16.587149
-12.834979 -12.834976 -15.403721
-13.210361 -14.311226 -13.839626
-13.925047 -16.245888 -10.861765
-12.886271 17.572186 -10.308842
-12.143808 15.455755 -13.683662
-11.774084 13.914825 -15.364233
-11.483808 12.527789 -16.683674
-11.286465 11.286466 -17.580683
-11.113801 10.103456 -18.365519
-10.98571 8.988306 -18.94775
-10.873447 7.9079609 -19.458035
-10.777645 6.858501 -19.893501
-10.707947 5.8406959 -20.210312
-10.642374 4.8374405 -20.508368
-10.594853 3.8526764 -20.724373
-10.562766 2.8807526 -20.870222
-10.533286 1.9151421 -21.004223
-10.519076 0.95627975 -21.068811
-10.515265 9.5367432e-07 -21.086138
-10.512423 -0.95567513 -21.099056
-10.530184 -1.9145803 -21.018322
-10.563396 -2.880929 -20.867359
-10.596851 -3.8534021 -20.715294
-10.645767 -4.8389835 -20.492947
-10.714622 -5.8443408 -20.179964
-10.784343 -6.8627667 -19.863056
-10.881937 -7.9141374 -19.419447
-10.997108 -8.9976339 -18.895939
-11.123264 -10.112059 -18.322504
-11.312107 -11.31211 -17.464127
-11.512488 -12.559078 -16.553305
-11.810734 -13.958141 -15.197644
-12.21559 -15.547117 -13.357386
-13.133189 -17.908895 -9.1864805
-11.203899 16.805847 -12.8633
-10.772864 15.082007 -15.018476
-10.494362 13.642668 -16.410988
-10.278544 12.334253 -17.490072
-10.117145 11.128859 -18.297075
-9.964035 9.9640312 -19.062622
-9.8649836 8.8784847 -19.557875
-9.7679129 7.8143282 -20.04323
-9.690938 6.7836537 -20.428106
-9.6315403 5.7789226 -20.725096
-9.5728664 4.7864332 -21.018463
-9.5345783 3.8138313 -21.209902
-9.5059938 2.851799 -21.352827
-9.4775791 1.8955164 -21.494902
-9.4687948 0.94687843 -21.538818
-9.4720831 -1.9073486e-06 -21.522381
-9.4753466 -0.94753551 -21.506063
-9.4899874 -1.8979979 -21.432859
-9.515296 -2.8545914 -21.306314
-9.5447025 -3.8178816 -21.159286
-9.5872965 -4.7936497 -20.946316
-9.6433449 -5.7860065 -20.666073
-9.7044096 -6.793088 -20.36075
-9.7870436 -7.8296375 -19.947578
-9.8834648 -8.8951168 -19.465473
-9.9916601 -9.9916582 -18.924496
-10.136391 -11.150032 -18.200838
-10.301015 -12.361218 -17.37772
-10.534485 -13.694828 -16.210377
-10.804946 -15.126924 -14.858068
-11.26934 -16.904011 -12.536101
-10.369047 18.433859 -11.276982
-9.8299618 16.38327 -14.271896
-9.5166416 14.803663 -16.012568
-9.313633 13.453022 -17.140392
-9.1354418 12.180587 -18.130342
-9.0007658 11.000933 -18.878544
-8.883769 9.8708525 -19.528526
-8.7963009 8.796299 -20.014458
-8.714838 7.7465229 -20.467031
-8.6497221 6.7275581 -20.828787
-8.5972948 5.7315283 -21.120049
-8.5496111 4.7497826 -21.384956
-8.5169039 3.7852917 -21.566662
-8.49156 2.8305187 -21.707462
-8.4691887 1.88204 -21.831749
-8.4591961 0.93991089 -21.887262
-8.4563808 -0 -21.902905
-8.4557877 -0.93953133 -21.906195
-8.4684706 -1.8818836 -21.835737
-8.4908876 -2.8302965 -21.711197
-8.5133991 -3.7837343 -21.586132
-8.5484505 -4.7491384 -21.391403
-8.5979586 -5.7319746 -21.116358
-8.6480436 -6.7262559 -20.838112
-8.7171459 -7.7485738 -20.45421
-8.800765 -8.8007669 -19.989658
-8.8868494 -9.8742781 -19.511414
-9.0155306 -11.018984 -18.796516
-9.1507092 -12.200944 -18.045523
-9.3309755 -13.478078 -17.044044
-9.5510988 -14.857265 -15.82114
-9.8834286 -16.472378 -13.974862
-10.452152 -18.581604 -10.815285
-8.9311247 17.862251 -13.063263
-8.5873613 16.101303 -15.211786
-8.3504238 14.613243 -16.692646
-8.1722527 13.27991 -17.806217
-8.0326815 12.049021 -18.678537
-7.9232454 10.894461 -19.362514
-7.823544 9.7794285 -19.985647
-7.7512798 8.72019 -20.437296
-7.6812329 7.6812315 -20.87509
-7.6263299 6.6730375 -21.218231
-7.5841179 5.6880894 -21.482056
-7.5423708 4.7139816 -21.742979
-7.5145888 3.7572937 -21.916615
-7.4954243 2.8107834 -22.036392
-7.4763575 1.8690872 -22.15556
-7.4677486 0.933465 -22.209368
-7.4652801 -9.5367432e-07 -22.224796
-7.4669471 -0.93336868 -22.214375
-7.4773564 -1.8693399 -22.149319
-7.4980659 -2.8117752 -22.019884
-7.5195708 -3.7597837 -21.885479
-7.5490494 -4.7181549 -21.701239
-7.5911841 -5.6933861 -21.437893
-7.6357388 -6.6812739 -21.159426
-7.6924324 -7.6924324 -20.805096
-7.7628727 -8.7332306 -20.364843
-7.8364267 -9.795536 -19.905132
-7.9360671 -10.912094 -19.282379
-8.0523529 -12.07853 -18.555593
-8.19979 -13.324658 -17.634109
-8.3658905 -14.640308 -16.595984
-8.6156673 -16.154377 -15.034878
-8.9969463 -17.993895 -12.65188
-8.1062546 19.686615 -10.980983
-7.6614127 17.511801 -14.158418
-7.4061155 15.870243 -15.981976
-7.2222462 14.444491 -17.295322
-7.0871038 13.161761 -18.26063
-6.9732485 11.954139 -19.073879
-6.8765268 10.805969 -19.764748
-6.797801 9.7111454 -20.327072
-6.7364736 8.6611786 -20.765129
-6.6770339 7.6308956 -21.189697
-6.6326647 6.6326623 -21.506622
-6.5953627 5.6531668 -21.773067
-6.5591264 4.6850872 -22.031895
-6.5366497 3.7352285 -22.19244
-6.518549 2.7936621 -22.321732
-6.500567 1.8573046 -22.450176
-6.4942331 0.92774868 -22.495419
-6.4963117 -2.8610229e-06 -22.480572
-6.4983921 -0.92834091 -22.46571
-6.5072708 -1.8592215 -22.402294
-6.5233812 -2.7957354 -22.287214
-6.5409017 -3.7376585 -22.162071
-6.5659709 -4.6899796 -21.983006
-6.6010828 -5.658071 -21.732204
-6.6375303 -6.6375327 -21.471865
-6.6855745 -7.6406579 -21.128693
-6.7442579 -8.6711922 -20.709524
-6.8060575 -9.7229404 -20.268101
-6.8903241 -10.827653 -19.666193
-6.9802489 -11.966143 -19.023876
-7.1004615 -13.186572 -18.165216
-7.2459407 -14.491884 -17.126078
-7.4384193 -15.939469 -15.751234
-7.7025132 -17.605743 -13.864847
-8.2547407 -20.047226 -9.9203625
-6.7648482 19.167068 -12.509058
-6.4681354 17.24836 -14.981668
-6.2847714 15.711926 -16.509703
-6.1412368 14.329549 -17.705828
-6.0242105 13.052455 -18.681042
-5.9323564 11.864712 -19.446493
-5.8589873 10.741474 -20.057903
-5.7934189 9.6556969 -20.604301
-5.7421484 8.6132202 -21.031559
-5.6937747 7.5917001 -21.434677
-5.6566949 6.5994749 -21.743671
-5.6258106 5.6258097 -22.001045
-5.5966883 4.6639042 -22.243729
-5.5778699 3.7185793 -22.400549
-5.5625567 2.7812786 -22.528156
-5.549129 1.8497114 -22.640057
-5.5432668 0.92387581 -22.68891
-5.5415483 -3.8146973e-06 -22.703224
-5.5401974 -0.92336559 -22.714485
-5.5476303 -1.8492136 -22.652546
-5.5612912 -2.7806454 -22.538706
-5.5750194 -3.7166767 -22.424301
-5.5952125 -4.6626806 -22.256027
-5.6258268 -5.6258283 -22.000908
-5.6567945 -6.5995936 -21.742844
-5.6954875 -7.5939846 -21.420403
-5.7454286 -8.6181431 -21.004223
-5.7962537 -9.6604233 -20.580685
-5.8660893 -10.754497 -19.99872
-5.9455442 -11.891088 -19.336597
-6.0399637 -13.086587 -18.549767
-6.1502733 -14.350636 -17.63052
-6.3037291 -15.759325 -16.351719
-6.5051789 -17.347143 -14.672974
-6.8320107 -19.357363 -11.949375
-5.5574503 18.89533 -13.308291
-5.3371406 17.07885 -15.511391
-5.1929927 15.578977 -16.952869
-5.0783367 14.219339 -18.09943
-4.9895868 12.972924 -18.986927
-4.9179597 11.803101 -19.703201
-4.8544006 10.67968 -20.338791
-4.8010426 9.6020832 -20.872372
-4.7604632 8.5688343 -21.278164
-4.7205644 7.5529017 -21.677153
-4.691278 6.5677862 -21.970016
-4.6669636 5.6003561 -22.213161
-4.6429138 4.642911 -22.453659
-4.6279182 3.7023344 -22.603615
-4.6167779 2.7700653 -22.715017
-4.6056781 1.8422709 -22.826015
-4.6008844 0.92017555 -22.873951
-4.5994644 -0 -22.888153
-4.600687 -0.92013836 -22.875923
-4.6066008 -1.8426418 -22.816788
-4.6185136 -2.7711067 -22.697659
-4.6309681 -3.7047749 -22.573116
-4.6474061 -4.6474075 -22.408737
-4.6715431 -5.605854 -22.167364
-4.6971526 -6.576014 -21.911268
-4.728374 -7.5654016 -21.599056
-4.7681651 -8.5826969 -21.201145
-4.8101702 -9.6203403 -20.781096
-4.8643794 -10.701635 -20.239
-4.9252605 -11.820626 -19.630192
-5.0016532 -13.004301 -18.866262
-5.0943336 -14.264133 -17.939461
-5.2022772 -15.606832 -16.860025
-5.3559532 -17.13905 -15.323263
-5.583096 -18.982525 -13.05184
-4.7272496 21.272625 -9.7921772
-4.3954549 18.680679 -13.939615
-4.2343488 16.937393 -15.953438
-4.1236401 15.463648 -17.337299
-4.0439973 14.153991 -18.332829
-3.9741218 12.915895 -19.206276
-3.9180226 11.754066 -19.907516
-3.8695004 10.641125 -20.514038
-3.8291693 9.5729227 -21.018179
-3.796454 8.5420227 -21.42712
-3.7649755 7.5299501 -21.820599
-3.7420471 6.548583 -22.107204
-3.7220097 5.5830126 -22.357677
-3.7025583 4.6281986 -22.600819
-3.6909022 3.6909018 -22.746521
-3.6811602 2.7608709 -22.868294
-3.6714697 1.8357344 -22.989426
-3.6683099 0.91707611 -23.028919
-3.6694188 -9.5367432e-07 -23.015064
-3.6705382 -0.91763401 -23.001072
-3.6752119 -1.8376045 -22.94265
-3.6839414 -2.7629547 -22.83353
-3.6932952 -3.6932974 -22.716606
-3.7062252 -4.6327839 -22.554983
-3.7250793 -5.5876207 -22.319307
-3.744355 -6.5526214 -22.078365
-3.768878 -7.5377574 -21.771824
-3.8001077 -8.5502453 -21.381453
-3.8322356 -9.5805883 -20.979851
-3.8747652 -10.655603 -20.448231
-3.9224277 -11.767281 -19.852451
-3.9794781 -12.933305 -19.13932
-4.0524888 -14.183711 -18.22669
-4.1358151 -15.50931 -17.185106
-4.2536011 -17.014404 -15.712786
-4.4233203 -18.79911 -13.591294
-3.479054 20.874323 -10.898562
-3.2724447 18.543854 -14.342049
-3.1612351 16.859919 -16.195543
-3.0806215 15.403107 -17.539103
-3.0217683 14.101583 -18.519995
-2.9678195 12.860552 -19.41914
-2.9285164 11.714066 -20.07419
-2.8940613 10.611555 -20.648443
-2.8642006 9.5473347 -21.146118
-2.8403041 8.5209122 -21.544392
-2.8173623 7.5129647 -21.926758
-2.8003731 6.5342026 -22.209909
-2.7857563 5.5715122 -22.453526
-2.7718163 4.6196928 -22.685856
-2.7631614 3.6842146 -22.830101
-2.7558894 2.755888 -22.951303
-2.7493992 1.8329306 -23.059473
-2.746654 0.91555023 -23.105232
-2.7458336 9.5367432e-07 -23.1189
-2.7454355 -0.91514683 -23.12554
-2.7488904 -1.8325958 -23.067953
-2.7554021 -2.7554035 -22.959431
-2.7619522 -3.6826038 -22.850258
-2.7709572 -4.6182623 -22.700178
-2.7855554 -5.5711136 -22.456875
-2.8003731 -6.5342031 -22.209909
-2.8182342 -7.5152884 -21.91223
-2.8420351 -8.526104 -21.515547
-2.8662329 -9.5541105 -21.112247
-2.8973441 -10.623597 -20.593727
-2.9344354 -11.737742 -19.975542
-2.9766858 -12.898973 -19.271364
-3.0278237 -14.129845 -18.419067
-3.0889697 -15.444851 -17.399965
-3.1695166 -16.904091 -16.057518
-3.2892685 -18.639187 -14.061659
-3.526736 -21.160418 -10.103865
-2.2979147 20.681231 -11.434928
-2.1722205 18.463871 -14.577289
-2.099427 16.795412 -16.397127
-2.0474241 15.355678 -17.697197
-2.0091107 14.063774 -18.655029
-1.9756979 12.842035 -19.490347
-1.9491279 11.694767 -20.154598
-1.9247988 10.586394 -20.762825
-1.9047149 9.5235767 -21.264921
-1.8892399 8.5015764 -21.651798
-1.8740199 7.4960794 -22.032299
-1.8631002 6.5208483 -22.305286
-1.853753 5.5612593 -22.538971
-1.8444937 4.6112328 -22.770454
-1.8388397 3.6776781 -22.911808
-1.8345157 2.7517748 -23.019899
-1.8302122 1.8302107 -23.127487
-1.8283978 0.91419888 -23.172852
-1.8278527 -0 -23.186481
-1.8280654 -0.91403389 -23.18116
-1.8303372 -1.8303385 -23.124367
-1.8350073 -2.7525129 -23.007612
-1.8398067 -3.6796112 -22.887629
-1.846028 -4.6150703 -22.7321
-1.8554257 -5.5662785 -22.497156
-1.8652871 -6.5285039 -22.250622
-1.8770639 -7.5082574 -21.956198
-1.8923337 -8.515502 -21.574451
-1.9084309 -9.5421543 -21.17202
-1.9287785 -10.608282 -20.66333
-1.9515333 -11.7092 -20.094467
-1.9792033 -12.864821 -19.402716
-2.0144868 -14.101409 -18.520622
-2.0538526 -15.403895 -17.536482
-2.1082425 -16.86594 -16.176735
-2.1835687 -18.560335 -14.293574
-2.3324556 -20.992102 -10.571404
-1.1445036 20.601065 -11.657616
-1.0834118 18.417999 -14.712208
-1.0485779 16.777246 -16.453899
-1.0229018 15.343525 -17.737709
-1.0038596 14.054036 -18.689812
-0.98690987 12.829828 -19.537302
-0.97368532 11.684224 -20.19853
-0.96210021 10.583102 -20.777786
-0.95238006 9.5237999 -21.263794
-0.94440103 8.499608 -21.662746
-0.93669623 7.4935684 -22.047985
-0.93116468 6.5181513 -22.324558
-0.92626023 5.5575619 -22.56978
-0.9214626 4.6073103 -22.809664
-0.918643 3.674571 -22.950649
-0.9162603 2.7487793 -23.069784
-0.91388738 1.8277731 -23.188431
-0.91324687 0.91324711 -23.220455
-0.91352159 1.9073486e-06 -23.206715
-0.91379398 -0.91379738 -23.1931
-0.91492915 -1.8298578 -23.136333
-0.91708016 -2.7512398 -23.02879
-0.91939616 -3.6775846 -22.912987
-0.92249805 -4.6124897 -22.757896
-0.92711151 -5.5626688 -22.527222
-0.93183064 -6.5228148 -22.291264
-0.93769246 -7.5015407 -21.998177
-0.94527477 -8.507473 -21.619057
-0.95302308 -9.5302315 -21.231642
-0.96313381 -10.594476 -20.726103
-0.97490942 -11.698915 -20.137325
-0.98859543 -12.851742 -19.453026
-1.0053996 -14.075593 -18.612822
-1.0255846 -15.383768 -17.603571
-1.0518371 -16.829393 -16.290943
-1.0891205 -18.515049 -14.426775
-1.1603495 -20.886292 -10.865324
0 20.627033 -11.585484
0 18.433264 -14.667311
0 16.779703 -16.446215
0 15.342844 -17.739985
0 14.053419 -18.692005
0 12.821296 -19.570118
0 11.682774 -20.204569
0 10.584651 -20.770739
0 9.5251513 -21.25703
0 8.5021515 -21.648609
0 7.4969077 -22.027119
0 6.5209818 -22.304348
0 5.5603962 -22.546177
0 4.6105585 -22.777191
0 3.6771231 -22.918766
0 2.7506838 -23.038063
0 1.8293915 -23.148037
0 0.91378498 -23.193489
0 9.5367432e-07 -23.207367
0 -0.91355228 -23.205162
0 -1.8293762 -23.148428
0 -2.7505112 -23.040936
0 -3.6759872 -22.932941
0 -4.6099014 -22.783794
0 -5.5595307 -22.553383
0 -6.5201707 -22.310143
0 -7.4988966 -22.014696
0 -8.5072002 -21.620584
0 -9.5326023 -21.219784
0 -10.597453 -20.712555
0 -11.706646 -20.105112
0 -12.860708 -19.418533
0 -14.08576 -18.576517
0 -15.38588 -17.59654
0 -16.839907 -16.258091
0 -18.521004 -14.409258
0 -20.901512 -10.823039
1.1517658 20.731781 -11.294508
1.0874791 18.487144 -14.50884
1.0514281 16.822849 -16.311388
1.0254179 15.381269 -17.6119
1.0054184 14.075854 -18.611879
0.98860759 12.851898 -19.452417
0.97521961 11.702633 -20.121819
0.96299547 10.592951 -20.733019
0.95280576 9.5280571 -21.242508
0.94510823 8.5059738 -21.627384
0.93753397 7.5002708 -22.006094
0.93206275 6.5244379 -22.279659
0.92738932 5.5643358 -22.51333
0.92276251 4.6138124 -22.744671
0.91991913 3.6796741 -22.886841
0.91773134 2.7531919 -22.996231
0.91556436 1.8311281 -23.10458
0.9146536 0.91465282 -23.150118
0.91437817 -9.5367432e-07 -23.163893
0.91430277 -0.91430378 -23.167658
0.91545755 -1.8309174 -23.109921
0.91783607 -2.7535076 -22.990995
0.92023742 -3.6809521 -22.870924
0.92336887 -4.6168442 -22.714354
0.92813283 -5.5687976 -22.476154
0.93307346 -6.5315156 -22.229126
0.93899745 -7.5119815 -21.932922
0.94669014 -8.5202122 -21.54829
0.95472795 -9.5472794 -21.1464
0.96495318 -10.614487 -20.635134
0.97638822 -11.71666 -20.063383
0.98999733 -12.869968 -19.382927
1.0078585 -14.110022 -18.489868
1.0275854 -15.41378 -17.503529
1.0550992 -16.881588 -16.127834
1.0933534 -18.587008 -14.215127
1.1708952 -21.076118 -10.338034
2.3395009 21.055504 -10.395275
2.1868777 18.588459 -14.210854
2.1126714 16.901369 -16.066015
2.0588982 15.441735 -17.410341
2.0171826 14.120279 -18.45323
1.9819397 12.882604 -19.334305
1.9548523 11.729115 -20.011488
1.9313599 10.622478 -20.598799
1.9112645 9.5563202 -21.101187
1.8950303 8.5276356 -21.50704
1.8792616 7.5170445 -21.901257
1.8678418 6.5374451 -22.186749
1.8578464 5.5735378 -22.436642
1.8479836 4.6199579 -22.683205
1.8421763 3.684351 -22.82839
1.8373383 2.7560053 -22.949339
1.8328755 1.8328733 -23.060909
1.8314881 0.91574192 -23.095594
1.8320407 -1.9073486e-06 -23.081776
1.8325884 -0.91629505 -23.068085
1.8349237 -1.8349257 -23.009705
1.8393178 -2.7589779 -22.899853
1.8440657 -3.6881304 -22.781153
1.8503903 -4.6259775 -22.623041
1.8597734 -5.5793223 -22.388462
1.8693935 -6.5428762 -22.147961
1.8813488 -7.5253978 -21.849072
1.8967279 -8.5352783 -21.464596
1.9124058 -9.5620298 -21.072649
1.9330071 -10.63154 -20.557613
1.9576348 -11.745809 -19.941925
1.9861045 -12.909681 -19.230186
2.0205579 -14.143908 -18.368849
2.0633399 -15.475052 -17.299295
2.1170282 -16.936226 -15.957093
2.1991313 -18.692617 -13.904512
2.3664489 -21.298042 -9.721571
3.5990162 21.594093 -8.8991928
3.3090079 18.751043 -13.732663
3.1839306 16.980965 -15.817287
3.1013432 15.506713 -17.193745
3.0366995 14.171264 -18.271137
2.9834375 12.928228 -19.15884
2.9411218 11.764485 -19.864101
2.9060302 10.655443 -20.448963
2.8754437 9.5848093 -20.958735
2.8512843 8.5538511 -21.361393
2.8278422 7.5409107 -21.75209
2.8104241 6.5576563 -22.042395
2.7954516 5.5908995 -22.291939
2.7811263 4.6352081 -22.530695
2.7722461 3.6963272 -22.678696
2.7649422 2.7649393 -22.80043
2.7580152 1.8386774 -22.915874
2.7551425 0.91837978 -22.963757
2.7543015 -0 -22.97777
2.7548909 -0.91830063 -22.967949
2.7584248 -1.8389502 -22.909046
2.7650449 -2.765048 -22.798714
2.7716889 -3.6955872 -22.687979
2.7810862 -4.6351461 -22.531361
2.7952168 -5.5904374 -22.295849
2.8097453 -6.5560746 -22.053707
2.8285463 -7.5427909 -21.740356
2.8530874 -8.5592632 -21.331339
2.8780665 -9.5935555 -20.91502
2.9105241 -10.671924 -20.37406
2.9479828 -11.791931 -19.749748
2.9915538 -12.963402 -19.023567
3.0455987 -14.212793 -18.12282
3.1137657 -15.568829 -16.986698
3.1991117 -17.06193 -15.564264
3.3312488 -18.877075 -13.361981
4.4712701 19.002899 -12.991916
4.2846913 17.138762 -15.324157
4.1671834 15.626938 -16.792999
4.0742025 14.259709 -17.955261
4.0016956 13.00551 -18.861599
3.9430447 11.829134 -19.594738
3.8914449 10.701471 -20.23974
3.8472967 9.6182413 -20.791586
3.8139217 8.5813236 -21.208773
3.7824545 7.5649099 -21.602114
3.7591047 6.578434 -21.893986
3.7396665 5.609499 -22.136965
3.720439 4.6505489 -22.377308
3.7083817 3.7083797 -22.528021
3.6991427 2.7743559 -22.643511
3.6900871 1.8450441 -22.756702
3.6861885 0.92154503 -22.805443
3.6850593 -2.8610229e-06 -22.819557
3.6842997 -0.92107773 -22.829048
3.6893473 -1.8446741 -22.765955
3.6992385 -2.7744303 -22.642311
3.7091725 -3.7091722 -22.518143
3.72258 -4.6532259 -22.350548
3.7426238 -5.6139359 -22.1
3.7632148 -6.5856256 -21.842613
3.7886775 -7.5773563 -21.524328
3.8209858 -8.5972185 -21.120472
3.8545773 -9.6364422 -20.700581
3.8987873 -10.721667 -20.147957
3.9471433 -11.841429 -19.543507
4.0075259 -13.024462 -18.788723
4.0834174 -14.291963 -17.840076
4.1790476 -15.67143 -16.644701
4.3003216 -17.201284 -15.128778
4.4981589 -19.117178 -12.655807
5.6948128 19.362364 -11.934668
5.415473 17.329515 -14.728065
5.2546172 15.763849 -16.336628
5.1317005 14.368762 -17.565792
5.0326891 13.084991 -18.555904
4.9568334 11.896399 -19.314461
4.8941765 10.767185 -19.941032
4.8382282 9.6764545 -20.500515
4.7949767 8.6309566 -20.933029
4.7528706 7.6045928 -21.354092
4.7213397 6.6098738 -21.669399
4.6948504 5.6338196 -21.934294
4.6686563 4.6686554 -22.196232
4.6525927 3.7220736 -22.356867
4.6400356 2.7840185 -22.482443
4.628624 1.8514481 -22.596558
4.6244469 0.92488861 -22.638325
4.6259089 -0 -22.623703
4.6273727 -0.92547512 -22.60907
4.6337419 -1.8534966 -22.545376
4.6454473 -2.7872667 -22.428326
4.6579261 -3.7263403 -22.303535
4.6751127 -4.6751156 -22.131666
4.6999102 -5.6398916 -21.883696
4.7253189 -6.6154456 -21.629606
4.7579017 -7.6126442 -21.30378
4.7985368 -8.6373692 -20.897423
4.8398581 -9.6797161 -20.484217
4.8990936 -10.778008 -19.891859
4.9665022 -11.919607 -19.217773
5.0474019 -13.123245 -18.408779
5.1428695 -14.400033 -17.454102
5.2744241 -15.823274 -16.138554
5.4498444 -17.439503 -14.384351
5.7616129 -19.589481 -11.26667
7.1027155 20.124359 -9.6935015
6.612577 17.633535 -13.77799
6.3810554 15.952638 -15.707335
6.2130046 14.497011 -17.107759
6.0938115 13.203259 -18.101034
5.9928565 11.985711 -18.942327
5.910367 10.83567 -19.629742
5.8412285 9.7353802 -20.205894
5.7893543 8.6840305 -20.638174
5.7387524 7.65167 -21.05986
5.699707 6.6496582 -21.385239
5.6677032 5.6677017 -21.651936
5.6368465 4.6973715 -21.909077
5.6169729 3.7446489 -22.074684
5.6013961 2.8006954 -22.204494
5.5864711 1.862154 -22.328869
5.58003 0.93000507 -22.382549
5.578208 9.5367432e-07 -22.397726
5.5794973 -0.92991638 -22.386982
5.5872955 -1.8624334 -22.322002
5.6014776 -2.8007412 -22.203819
5.6157479 -3.7438345 -22.084896
5.6366324 -4.697196 -21.910858
5.6666718 -5.6666737 -21.660528
5.699152 -6.6490116 -21.389864
5.7417898 -7.6557207 -21.034546
5.7950535 -8.6925821 -20.590683
5.8493323 -9.748888 -20.138361
5.9239478 -10.860573 -19.516563
6.0050077 -12.010015 -18.841066
6.1065111 -13.230774 -17.995203
6.2337441 -14.545403 -16.934929
6.4057159 -16.01429 -15.501827
6.6475892 -17.726904 -13.486223
7.2638302 -20.580854 -8.3508797
7.888123 18.029993 -12.539062
7.5591221 16.198118 -14.889067
7.3405719 14.681142 -16.450142
7.1828003 13.339485 -17.577082
7.0593433 12.101727 -18.45892
6.9585581 10.934879 -19.178806
6.8679109 9.8113012 -19.82629
6.8012695 8.7444897 -20.302296
6.7369165 7.6993313 -20.761961
6.6903596 6.6903586 -21.094515
6.6535273 5.703023 -21.357601
6.6170788 4.7264843 -21.617947
6.5931039 3.7674856 -21.789196
6.5756297 2.8181248 -21.914009
6.5583816 1.8738213 -22.037212
6.5506206 0.93580151 -22.092655
6.5484681 -9.5367432e-07 -22.108023
6.5477071 -0.93538666 -22.113459
6.5576758 -1.8736219 -22.042255
6.5765128 -2.8185081 -21.907703
6.595459 -3.7688332 -21.772375
6.6225257 -4.7303767 -21.579042
6.6607862 -5.7092452 -21.305752
6.6999698 -6.6999712 -21.025867
6.7514334 -7.7159238 -20.658272
6.813447 -8.7601471 -20.215315
6.8777022 -9.8252888 -19.756351
6.96805 -10.949795 -19.111008
7.067205 -12.115208 -18.402763
7.2020893 -13.375307 -17.439304
7.3555751 -14.71115 -16.342974
7.5881996 -16.260427 -14.681371
7.9544954 -18.181705 -12.064968
9.3775339 18.755066 -10.273213
8.8087149 16.516338 -13.828327
8.5075674 14.888241 -15.710501
8.3160887 13.51364 -16.907246
8.149231 12.223846 -17.950102
8.0341606 11.04697 -18.669294
7.9256353 9.9070435 -19.347572
7.8480115 8.8290119 -19.832722
7.7726216 7.7726192 -20.303913
7.7122488 6.7482157 -20.68124
7.6651559 5.7488651 -20.975573
7.6187248 4.7617006 -21.265766
7.5882759 3.794137 -21.456074
7.5656204 2.8371067 -21.597668
7.5431004 1.8857737 -21.738419
7.5362997 0.94203472 -21.780926
7.538837 -1.9073486e-06 -21.765064
7.5413766 -0.94267273 -21.749195
7.5531468 -1.8882914 -21.675631
7.5738778 -2.8402071 -21.546062
7.5955963 -3.7977972 -21.41032
7.6277304 -4.7673335 -21.209478
7.6716194 -5.7537141 -20.935173
7.7162476 -6.7517185 -20.656248
7.7773643 -7.7773671 -20.274267
7.8493757 -8.8305473 -19.824198
7.9313488 -9.9141865 -19.311869
8.0506411 -11.06963 -18.566296
8.1747437 -12.262119 -17.790648
8.3396854 -13.551991 -16.75976
8.5459166 -14.955357 -15.47082
8.8574142 -16.607651 -13.523958
9.5391312 -19.078262 -9.2632275
10.191511 16.985849 -12.263292
9.7738371 15.203743 -14.583704
9.5085812 13.734617 -16.057344
9.3044176 12.405888 -17.191586
9.1533117 11.18738 -18.031067
9.0073709 10.008188 -18.841845
8.9164495 8.9164467 -19.346966
8.8302784 7.8491344 -19.825697
8.7590075 6.8125596 -20.221645
8.7055387 5.8036914 -20.518692
8.6532621 4.8073683 -20.809116
8.6172457 3.8298855 -21.009209
8.5912762 2.863759 -21.153481
8.566452 1.9036541 -21.291401
8.5548382 0.95053577 -21.355915
8.5518074 -9.5367432e-07 -21.372755
8.550621 -0.95006752 -21.379349
8.5643492 -1.9031897 -21.303076
8.5880413 -2.8626833 -21.171455
8.611865 -3.8274975 -21.039101
8.6518669 -4.8065925 -20.816872
8.7077379 -5.8051586 -20.506475
8.7643347 -6.8167057 -20.192047
8.8433008 -7.8607121 -19.753353
8.9348783 -8.9348783 -19.244585
9.0340042 -10.037783 -18.693884
9.1699171 -11.207678 -17.938814
9.3124657 -12.416619 -17.146881
9.5380774 -13.777222 -15.893478
9.8223276 -15.279178 -14.314308
10.290944 -17.151573 -11.710884
11.185597 15.659833 -12.954811
10.786729 14.022747 -14.949149
10.499291 12.59915 -16.386341
10.324545 11.356997 -17.260073
10.159623 10.159621 -18.084684
10.040257 9.0362301 -18.681511
9.9297867 7.9438267 -19.233864
9.8366413 6.8856483 -19.699594
9.7690105 5.8614058 -20.037746
9.7078352 4.8539181 -20.343622
9.6661396 3.8664532 -20.552101
9.6379433 2.8913832 -20.693073
9.6099415 1.9219866 -20.83309
9.5963869 0.9596386 -20.90086
9.5942698 -2.8610229e-06 -20.911444
9.5979042 -0.95979214 -20.893274
9.6154251 -1.9230852 -20.80567
9.6455116 -2.8936558 -20.655235
9.6762238 -3.8704929 -20.501677
9.724349 -4.8621759 -20.261047
9.7869539 -5.8721747 -19.948025
9.8513041 -6.8959122 -19.62627
9.9440536 -7.9552431 -19.162527
10.047529 -9.042778 -18.645151
10.169607 -10.169609 -18.034758
10.349978 -11.384977 -17.1329
10.546429 -12.655714 -16.150654
10.831492 -14.080939 -14.725333
11.248581 -15.748013 -12.639893
12.976158 16.51511 -9.9002609
12.210787 14.430929 -13.379218
11.828216 12.903506 -15.118179
11.577511 11.577507 -16.257748
11.354449 10.322226 -17.271664
11.205725 9.1683197 -17.947683
11.081481 8.0592556 -18.512426
10.971818 6.9820642 -19.010897
10.895334 5.9429083 -19.358551
10.820537 4.9184265 -19.698536
10.765944 3.9148893 -19.946686
10.729594 2.9262533 -20.111916
10.693683 1.9443073 -20.27515
10.67617 0.97056103 -20.35475
10.675365 9.5367432e-07 -20.358408
10.679487 -0.97086334 -20.339672
10.699661 -1.9453955 -20.247972
10.732912 -2.9271612 -20.09683
10.766534 -3.9151044 -19.94401
10.822488 -4.9193158 -19.689669
10.892954 -5.9416122 -19.369373
10.97243 -6.9824591 -19.008114
11.095931 -8.069767 -18.446747
11.230075 -9.1882439 -17.837004
11.391571 -10.355976 -17.102926
11.595637 -11.595638 -16.17535
11.869301 -12.948329 -14.931423
12.269613 -14.500455 -13.111823
13.131192 -16.712425 -9.1955605
13.966443 15.130312 -10.689286
13.320123 13.320125 -13.382278
12.919047 11.842461 -15.053433
12.663267 10.552722 -16.119183
12.461172 9.3458786 -16.961246
12.29714 8.1980906 -17.644718
12.147448 7.0860076 -18.268433
12.054739 6.0273671 -18.654716
11.970963 4.9879031 -19.003784
11.907294 3.9690976 -19.26907
11.867337 2.9668312 -19.435556
11.827866 1.9713097 -19.600023
11.807542 0.98396111 -19.684704
11.802707 -9.5367432e-07 -19.704853
11.802057 -0.9835043 -19.707556
11.828337 -1.9713888 -19.598059
11.871423 -2.9678569 -19.418533
11.914788 -3.9715972 -19.237846
11.988688 -4.9952898 -18.929926
12.079095 -6.039547 -18.553228
12.171222 -7.0998793 -18.169373
12.316357 -8.2109051 -17.564646
12.467286 -9.3504667 -16.935768
12.692902 -10.577418 -15.99571
12.977962 -11.896464 -14.80796
13.375298 -13.375298 -13.152386
14.192694 -15.375419 -9.7465725
15.286878 14.110965 -10.087111
14.483586 12.25534 -13.176698
14.110527 10.85425 -14.611539
13.800628 9.5542774 -15.803461
13.603854 8.3716011 -16.560278
13.426344 7.2295694 -17.24301
13.314821 6.1452999 -17.671949
13.205425 5.07901 -18.092697
13.119006 4.0366192 -18.425079
13.066969 3.0154533 -18.625225
13.015343 2.0023594 -18.823784
12.987948 0.99907112 -18.92915
12.990287 -0 -18.920155
12.995896 -0.99968433 -18.898579
13.026325 -2.0040503 -18.781551
13.073584 -3.0169792 -18.599783
13.121557 -4.0374031 -18.415268
13.207927 -5.0799732 -18.083076
13.309864 -6.1430173 -17.691013
13.438032 -7.2358623 -17.198061
13.637423 -8.3922586 -16.431171
13.842819 -9.5834904 -15.641182
14.131497 -10.870383 -14.530883
14.560355 -12.320299 -12.881431
15.437029 -14.249566 -9.5096111
16.962849 13.32795 -8.301199
15.844987 11.317846 -12.293559
15.33649 9.8591709 -14.109617
15.072525 8.6128702 -15.052351
14.819392 7.4096932 -15.956398
14.654975 6.280704 -16.543602
14.511391 5.1826396 -17.056398
14.409429 4.1169782 -17.420549
14.351505 3.0753212 -17.627419
14.294093 2.0420113 -17.832468
14.262012 1.018713 -17.947041
14.254973 -9.5367432e-07 -17.972179
14.258265 -1.0184488 -17.960417
14.300262 -2.0428939 -17.810431
14.363173 -3.077827 -17.585751
14.42687 -4.1219621 -17.358259
14.548033 -5.1957288 -16.925537
14.683296 -6.2928438 -16.442455
14.841114 -7.4205565 -15.878814
15.08797 -8.6216984 -14.997192
15.394762 -9.8966351 -13.901506
15.885154 -11.346541 -12.150105
17.393829 10.436295 -10.90337
16.817442 8.9693022 -12.824658
16.4172 7.6613603 -14.158792
16.173046 6.4692187 -14.972638
16.001446 5.3338132 -15.544647
15.850965 4.2269239 -16.046244
15.770906 3.1541796 -16.313108
15.692417 2.09232 -16.574738
15.646286 1.0430861 -16.72851
15.636758 9.5367432e-07 -16.760267
15.638431 -1.0425611 -16.754696
15.687624 -2.0916858 -16.590715
15.758706 -3.1517415 -16.353779
15.837289 -4.2232785 -16.091833
16.019499 -5.3398337 -15.484468
16.214497 -6.4858007 -14.834479
16.471256 -7.6865869 -13.978606
16.845257 -8.9841366 -12.731938
17.509726 -10.505837 -10.517048
18.635201 8.1528988 -10.647797
18.028416 6.7606564 -12.543993
17.75692 5.5490375 -13.392426
17.508167 4.3770409 -14.169769
17.387093 3.2600808 -14.548133
17.270693 2.1588354 -14.911886
17.198355 1.0748978 -15.137935
17.205481 -2.8610229e-06 -15.115664
17.217564 -1.076098 -15.077912
17.291571 -2.1614447 -14.84664
17.394024 -3.2613783 -14.526475
17.505074 -4.3762679 -14.179444
17.781446 -5.5567045 -13.315777
18.11187 -6.7919512 -12.283207
18.725809 -8.192544 -10.36465
19.805777 4.660183 -10.630508
19.531229 3.4466872 -11.438004
19.314924 2.2723436 -12.074196
19.174662 1.1279206 -12.486731
19.154253 -1.4305115e-06 -12.546757
19.174326 -1.1279006 -12.48772
19.305519 -2.2712383 -12.10186
19.516598 -3.4441063 -11.481034
19.952185 -4.6946335 -10.199897
