# .PCD v0.7 - Point Cloud Data file format
VERSION 0.7
FIELDS x y z
SIZE 4 4 4
TYPE F F F
COUNT 1 1 1
WIDTH 1052
HEIGHT 1
VIEWPOINT 0 0 0 1 0 0 0
POINTS 1052
DATA ascii
-22.938534 -0 -8.5182333
-20.81245 5.7812362 -11.07043
-20.34358 4.5207949 -12.372852
-20.124071 3.3540125 -12.982594
-19.9671 2.2185659 -13.418628
-19.896873 1.1053791 -13.613706
-19.882053 -3.8146973e-06 -13.654867
-19.872232 -1.1040149 -13.682149
-19.984804 -2.2205358 -13.369453
-20.134565 -3.3557615 -12.953449
-20.38546 -4.5301037 -12.256516
-20.840454 -5.7890172 -10.992644
-19.875715 9.3532763 -10.424812
-19.196461 7.9044247 -12.422618
-18.820969 6.6426954 -13.527003
-18.519749 5.4469833 -14.412949
-18.338608 4.3149643 -14.945713
-18.201881 3.2120962 -15.347849
-18.109699 2.1305528 -15.618977
-18.072906 1.0631132 -15.727188
-18.042093 -1.4305115e-06 -15.817814
-18.062704 -1.0625124 -15.757196
-18.124697 -2.1323171 -15.574865
-18.187721 -3.2095985 -15.389498
-18.35602 -4.3190637 -14.894499
-18.574451 -5.4630737 -14.252058
-18.834835 -6.6475887 -13.486225
-19.267309 -7.9335976 -12.21424
-20.104174 -9.4607887 -9.7528744
-19.114237 11.946396 -9.1508045
-18.0506 10.15346 -12.474674
-17.598162 8.7990799 -13.888536
-17.293139 7.5657458 -14.84174
-17.050913 6.3940916 -15.598696
-16.870415 5.2720027 -16.162748
-16.734228 4.1835561 -16.588337
-16.60568 3.113564 -16.990047
-16.56476 2.0705948 -17.117918
-16.525261 1.0328293 -17.241354
-16.497044 -1.9073486e-06 -17.329536
-16.529877 -1.0331182 -17.226933
-16.571318 -2.0714126 -17.097431
-16.634916 -3.1190486 -16.89868
-16.758791 -4.1896977 -16.511576
-16.894548 -5.2795472 -16.08733
-17.055544 -6.3958302 -15.584223
-17.314772 -7.5752134 -14.774137
-17.635712 -8.8178549 -13.771195
-18.136684 -10.201886 -12.205658
-19.307968 -12.06748 -8.5453968
-17.33082 12.709268 -11.113394
-16.627846 11.08523 -13.456646
-16.239697 9.7438154 -14.750476
-15.927163 8.4944859 -15.792253
-15.72544 7.3385406 -16.464661
-15.53526 6.2141051 -17.098595
-15.425798 5.1419315 -17.46347
-15.325649 4.0868387 -17.797298
-15.250363 3.0500736 -18.048252
-15.206216 2.0274944 -18.195412
-15.167278 1.0111523 -18.325203
-15.162133 -9.5367432e-07 -18.342356
-15.179439 -1.0119638 -18.284666
-15.204682 -2.0272894 -18.20052
-15.260488 -3.0520964 -18.014503
-15.343721 -4.0916586 -17.737059
-15.433492 -5.144496 -17.437824
-15.564362 -6.2257462 -17.001587
-15.753922 -7.3518295 -16.369722
-15.968309 -8.5164318 -15.655094
-16.286486 -9.7718925 -14.594513
-16.729378 -11.15292 -13.118201
-17.453005 -12.798871 -10.70612
-15.937353 13.66059 -11.963674
-15.390081 12.092206 -13.918219
-15.022571 10.730409 -15.230758
-14.736267 9.4733124 -16.253273
-14.531048 8.3034525 -16.986198
-14.36061 7.1803041 -17.594906
-14.222619 6.0954065 -18.08773
-14.117137 5.0418339 -18.464447
-14.024115 4.0068879 -18.796675
-13.973964 2.9944229 -18.975782
-13.935152 1.990737 -19.114395
-13.896599 0.99261475 -19.252087
-13.899858 -0 -19.240448
-13.909813 -0.99356174 -19.204895
-13.91974 -1.9885349 -19.169441
-13.97353 -2.9943304 -18.977333
-14.044003 -4.0125766 -18.725639
-14.118995 -5.0424995 -18.457811
-14.240645 -6.1031327 -18.02335
-14.373573 -7.1867867 -17.548603
-14.539019 -8.308012 -16.957729
-14.760648 -9.488987 -16.166201
-15.05852 -10.756087 -15.102367
-15.419155 -12.115049 -13.814385
-16.094482 -13.795271 -11.4025
-14.827713 14.827712 -11.853127
-14.244663 13.148917 -14.095632
-13.845339 11.715287 -15.631491
-13.594925 10.457633 -16.594625
-13.378943 9.2623444 -17.42532
-13.226968 8.1396713 -18.009842
-13.079511 7.0428147 -18.576988
-12.981218 5.9913306 -18.955034
-12.900483 4.9617214 -19.265554
-12.826917 3.9467425 -19.548498
-12.786617 2.9507561 -19.703499
-12.747735 1.9611912 -19.853046
-12.721609 0.97858429 -19.953533
-12.724975 -0 -19.940584
-12.730434 -0.97926426 -19.919586
-12.745638 -1.9608679 -19.861111
-12.792012 -2.9520006 -19.682747
-12.843258 -3.9517722 -19.485649
-12.900324 -4.9616637 -19.266165
-12.996905 -5.9985747 -18.894697
-13.108318 -7.0583248 -18.466185
-13.229143 -8.1410141 -18.00148
-13.420487 -9.2911053 -17.265539
-13.625652 -10.48127 -16.476439
-13.904883 -11.76567 -15.402477
-14.29924 -13.1993 -13.885717
-14.90659 -14.906591 -11.549756
-13.741667 16.031944 -11.625851
-13.14525 14.240687 -14.110918
-12.798059 12.798056 -15.557554
-12.53218 11.487829 -16.665382
-12.321976 10.268311 -17.541233
-12.15628 9.1172104 -18.231628
-12.023813 8.0158749 -18.783573
-11.904247 6.9441428 -19.281765
-11.820118 5.910059 -19.632305
-11.73717 4.8904881 -19.977919
-11.681502 3.8938322 -20.209867
-11.645924 2.911479 -20.358114
-11.610596 1.9350986 -20.505314
-11.592125 0.96600914 -20.582275
-11.592368 -1.9073486e-06 -20.581264
-11.592612 -0.96605206 -20.580244
-11.607386 -1.9345675 -20.518692
-11.648628 -2.9121561 -20.346844
-11.690626 -3.8968763 -20.171858
-11.748203 -4.8950834 -19.931948
-11.829713 -5.9148579 -19.592321
-11.915597 -6.9507656 -19.234476
-12.031192 -8.0207949 -18.752827
-12.173217 -9.1299133 -18.161058
-12.332758 -10.277299 -17.496311
-12.540196 -11.495181 -16.631977
-12.821343 -12.821345 -15.460535
-13.217414 -14.318864 -13.810243
-13.923742 -16.244366 -10.867203
-12.884582 17.569885 -10.316512
-12.160662 15.477207 -13.607058
-11.768565 13.908307 -15.389318
-11.477701 12.521127 -16.71143
-11.281682 11.281681 -17.602425
-11.099305 10.090276 -18.43141
-10.977329 8.9814539 -18.985842
-10.862104 7.8997121 -19.509594
-10.771709 6.8547239 -19.920483
-10.706198 5.839745 -20.218258
-10.641511 4.8370504 -20.512295
-10.598215 3.8538961 -20.709091
-10.563869 2.881053 -20.865208
-10.532158 1.914938 -21.00935
-10.521483 0.95649815 -21.057869
-10.519201 -1.9073486e-06 -21.068245
-10.519421 -0.95631218 -21.067249
-10.537143 -1.9158487 -20.986694
-10.566896 -2.8818817 -20.851446
-10.598881 -3.8541393 -20.706062
-10.645607 -4.8389111 -20.493675
-10.714137 -5.8440747 -20.182178
-10.785822 -6.8637052 -19.856335
-10.875384 -7.9093723 -19.449228
-11.00138 -9.0011311 -18.876526
-11.131833 -10.119849 -18.28355
-11.29792 -11.297921 -17.528616
-11.508334 -12.554547 -16.572187
-11.786315 -13.929282 -15.30864
-12.222212 -15.555541 -13.327288
-13.10116 -17.865219 -9.3320732
-11.182604 16.773903 -12.969776
-10.767673 15.074741 -15.044428
-10.502272 13.652952 -16.371433
-10.283209 12.339849 -17.466755
-10.121377 11.133514 -18.275913
-9.9779682 9.9779663 -18.992958
-9.8732471 8.8859224 -19.516563
-9.7728672 7.8182917 -20.018461
-9.6973915 6.7881742 -20.395836
-9.6310787 5.7786465 -20.727402
-9.5695362 4.7847652 -21.035118
-9.5374041 3.8149614 -21.19577
-9.5063028 2.8518887 -21.351284
-9.4759321 1.8951864 -21.503132
-9.4722233 0.94722176 -21.521681
-9.4695749 -2.8610229e-06 -21.53492
-9.4676809 -0.94676781 -21.544392
-9.4884768 -1.8976955 -21.440411
-9.5136652 -2.8540993 -21.314468
-9.5406561 -3.8162622 -21.179516
-9.586668 -4.793334 -20.949459
-9.6404552 -5.7842746 -20.680519
-9.7018642 -6.7913041 -20.373474
-9.7857933 -7.8286352 -19.953827
-9.8790655 -8.89116 -19.487467
-9.9841585 -9.9841614 -18.962002
-10.120963 -11.133059 -18.277985
-10.295512 -12.354614 -17.405237
-10.514247 -13.66852 -16.311562
-10.806687 -15.129365 -14.84936
-11.256529 -16.884794 -12.600155
-10.34165 18.385153 -11.429188
-9.8354692 16.392447 -14.2413
-9.5259056 14.818076 -15.961096
-9.3109083 13.449088 -17.155529
-9.1377478 12.183662 -18.117535
-9.0006256 11.000761 -18.879322
-8.8846684 9.8718529 -19.523531
-8.7949657 8.7949657 -20.021877
-8.7071619 7.7396994 -20.509678
-8.6469584 6.7254105 -20.844135
-8.5938005 5.7291975 -21.139462
-8.5463066 4.7479458 -21.403318
-8.5176048 3.7856016 -21.562767
-8.4903402 2.8301125 -21.714237
-8.4662676 1.8813915 -21.847977
-8.461297 0.94014263 -21.875591
-8.4576149 -0 -21.896044
-8.4539614 -0.93933201 -21.916344
-8.4719381 -1.8826561 -21.816469
-8.4913111 -2.8304358 -21.708845
-8.5107727 -3.782567 -21.600727
-8.5519838 -4.7511039 -21.371771
-8.5988007 -5.7325344 -21.111683
-8.6461582 -6.7247915 -20.848577
-8.7211609 -7.7521424 -20.4319
-8.8053398 -8.8053389 -19.964241
-8.8924961 -9.8805513 -19.480038
-9.0095568 -11.011683 -18.8297
-9.1471834 -12.196246 -18.065109
-9.3206463 -13.463155 -17.101429
-9.5462198 -14.849677 -15.848245
-9.860918 -16.434868 -14.099917
-10.42743 -18.537653 -10.952631
-8.9305677 17.861134 -13.066749
-8.5805502 16.08853 -15.254361
-8.3477707 14.608597 -16.70923
-8.1698923 13.276075 -17.820967
-8.0385246 12.057785 -18.642014
-7.9207339 10.891008 -19.378206
-7.829658 9.7870712 -19.947432
-7.75072 8.7195587 -20.440796
-7.6785064 7.6785054 -20.89213
-7.6285896 6.6750135 -21.204111
-7.5832915 5.6874676 -21.487225
-7.545156 4.7157202 -21.725574
-7.5194392 3.759717 -21.886299
-7.4945736 2.810462 -22.041712
-7.476727 1.8691816 -22.153254
-7.47191 0.93398762 -22.183361
-7.4676838 -0 -22.209774
-7.4672723 -0.93341255 -22.212347
-7.4825068 -1.8706274 -22.11713
-7.4985685 -2.811965 -22.016747
-7.5157514 -3.7578773 -21.909349
-7.5513082 -4.7195683 -21.687122
-7.5902448 -5.6926856 -21.443768
-7.6317329 -6.6777673 -21.184465
-7.6927996 -7.6927996 -20.802795
-7.7565813 -8.7261562 -20.404163
-7.8341851 -9.7927322 -19.919138
-7.9238791 -10.895335 -19.358551
-8.0440502 -12.066075 -18.607483
-8.187664 -13.304955 -17.709896
-8.3680925 -14.644161 -16.582218
-8.6073141 -16.138714 -15.087085
-8.9671774 -17.934355 -12.837938
-8.14886 19.790087 -10.676656
-7.6588602 17.505964 -14.176655
-7.4095984 15.87771 -15.95709
-7.231566 14.463131 -17.228752
-7.0820017 13.152287 -18.297073
-6.9770279 11.960619 -19.046883
-6.8776813 10.807785 -19.7565
-6.8042688 9.7203846 -20.280876
-6.7372794 8.6622143 -20.759373
-6.6788945 7.6330209 -21.176405
-6.6339927 6.6339903 -21.497139
-6.5896902 5.6483049 -21.81358
-6.5575037 4.6839304 -22.043484
-6.5353031 3.734458 -22.202057
-6.5132532 2.7913933 -22.359562
-6.499929 1.8571224 -22.454731
-6.4957685 0.92796707 -22.484451
-6.4916134 -0 -22.514133
-6.4929605 -0.92756557 -22.504509
-6.5061235 -1.8588943 -22.41048
-6.5193224 -2.7939978 -22.316208
-6.5356827 -3.7346725 -22.199348
-6.5663915 -4.6902809 -21.98
-6.5974097 -5.654922 -21.758442
-6.6332307 -6.6332316 -21.502577
-6.6861496 -7.6413145 -21.124584
-6.7414327 -8.6675549 -20.729708
-6.8047209 -9.7210293 -20.277647
-6.8861113 -10.821033 -19.696285
-6.9800973 -11.965882 -19.02496
-7.0915875 -13.17009 -18.228601
-7.23491 -14.469821 -17.204865
-7.4199462 -15.899884 -15.883183
-7.6866131 -17.569403 -13.978418
-8.2129097 -19.945642 -10.219151
-6.7820034 19.215675 -12.366102
-6.4701729 17.253794 -14.964688
-6.2757435 15.689357 -16.584934
-6.139616 14.325768 -17.719332
-6.0206232 13.044681 -18.710939
-5.9343252 11.86865 -19.430086
-5.8515482 10.727836 -20.119896
-5.7939057 9.6565056 -20.600248
-5.7376609 8.606493 -21.068954
-5.6910725 7.5880942 -21.457191
-5.6558671 6.5985107 -21.750572
-5.622272 5.6222696 -22.030529
-5.5980186 4.6650143 -22.232639
-5.5789013 3.7192659 -22.391953
-5.5601859 2.7800922 -22.547911
-5.5498147 1.8499365 -22.63434
-5.5453043 0.92421532 -22.671926
-5.5411668 -0 -22.706402
-5.5426459 -0.92377472 -22.69408
-5.5521922 -1.8507309 -22.614525
-5.5621724 -2.781086 -22.531364
-5.5755987 -3.7170658 -22.419472
-5.6006327 -4.6671963 -22.210855
-5.6268759 -5.6268787 -21.992165
-5.656281 -6.5989943 -21.747124
-5.6983948 -7.5978608 -21.39617
-5.7457876 -8.618681 -21.001232
-5.8010774 -9.6684618 -20.540485
-5.8679256 -10.757866 -19.983419
-5.9364963 -11.872993 -19.411993
-6.0344138 -13.074565 -18.596014
-6.1502147 -14.350502 -17.631006
-6.2974381 -15.743598 -16.404144
-6.5037112 -17.343229 -14.685204
-6.824646 -19.336496 -12.010752
-5.5614262 18.90885 -13.268534
-5.344089 17.10108 -15.441908
-5.1894093 15.568226 -16.988708
-5.0829563 14.232277 -18.05323
-4.9910727 12.97679 -18.972069
-4.9197192 11.807325 -19.685608
-4.8546057 10.68013 -20.336742
-4.8064775 9.6129532 -20.81802
-4.7594633 8.5670357 -21.288158
-4.7226424 7.5562267 -21.656372
-4.6930704 6.5702963 -21.952095
-4.6653132 5.5983753 -22.229666
-4.646708 4.6467075 -22.415716
-4.6304617 3.7043676 -22.578178
-4.6148314 2.768898 -22.734482
-4.6076035 1.8430405 -22.806759
-4.6034646 0.92069149 -22.848152
-4.5998063 -9.5367432e-07 -22.884735
-4.6022663 -0.92045307 -22.860134
-4.6097684 -1.8439054 -22.785114
-4.617785 -2.7706728 -22.704947
-4.6300087 -3.7040062 -22.582706
-4.649353 -4.6493549 -22.389267
-4.6703229 -5.6043863 -22.179565
-4.6956859 -6.5739617 -21.925934
-4.7290683 -7.5665116 -21.592112
-4.7629294 -8.5732746 -21.253504
-4.8086033 -9.6172066 -20.796762
-4.8651295 -10.703284 -20.231504
-4.9232111 -11.815705 -19.650688
-5.0018396 -13.004784 -18.864399
-5.0861373 -14.241186 -18.02142
-5.1995368 -15.59861 -16.887426
-5.3580575 -17.145786 -15.302218
-5.5871277 -18.996237 -13.011517
-4.7576137 21.409262 -9.4126225
-4.4031372 18.713329 -13.843582
-4.2431135 16.972452 -15.843877
-4.1288905 15.483336 -17.271664
-4.0454593 14.159105 -18.314558
-3.9756193 12.920761 -19.187555
-3.9195375 11.75861 -19.888577
-3.8698494 10.642085 -20.509678
-3.8317795 9.5794477 -20.985554
-3.7949769 8.5386953 -21.445587
-3.7668595 7.5337172 -21.79705
-3.7415905 6.5477839 -22.112915
-3.7166688 5.5750027 -22.424437
-3.7028351 4.6285439 -22.597357
-3.6899393 3.6899405 -22.758554
-3.6771224 2.7578411 -22.918766
-3.6724017 1.8361998 -22.97777
-3.6691046 0.91727448 -23.018988
-3.6658239 -9.5367432e-07 -23.059996
-3.6686342 -0.91716003 -23.024868
-3.6745927 -1.8372974 -22.950386
-3.6805708 -2.7604284 -22.87566
-3.6910501 -3.6910524 -22.744667
-3.7064173 -4.6330204 -22.552582
-3.7219021 -5.5828543 -22.35902
-3.742352 -6.5491147 -22.103397
-3.7700367 -7.5400748 -21.757338
-3.7985377 -8.5467091 -21.401073
-3.8336394 -9.5840988 -20.962301
-3.8739138 -10.653264 -20.458874
-3.9206238 -11.761871 -19.874998
-3.9833694 -12.94595 -19.090681
-4.0493021 -14.172556 -18.26652
-4.1377025 -15.516385 -17.161512
-4.2569628 -17.027853 -15.670761
-4.4216185 -18.791878 -13.612564
-3.4887846 20.932707 -10.736387
-3.2761424 18.564806 -14.280425
-3.1631613 16.870195 -16.163433
-3.0803363 15.401682 -17.543854
-3.018754 14.087519 -18.570225
-2.9692159 12.8666 -19.395866
-2.927717 11.710868 -20.087513
-2.8922145 10.604788 -20.679218
-2.8642602 9.547533 -21.145126
-2.8368492 8.5105457 -21.601974
-2.8168609 7.5116272 -21.935116
-2.7998779 6.5330477 -22.218168
-2.7831464 5.5662928 -22.497021
-2.7730901 4.6218138 -22.664627
-2.7633672 3.6844902 -22.826675
-2.7537203 2.7537174 -22.987461
-2.7502763 1.8335161 -23.044853
-2.7475841 0.91585922 -23.089729
-2.7449124 -9.5367432e-07 -23.134258
-2.7469821 -0.91566277 -23.099762
-2.7510209 -1.8340149 -23.032448
-2.755111 -2.7551117 -22.964277
-2.7627821 -3.6837111 -22.836428
-2.7742138 -4.6236906 -22.645903
-2.785877 -5.571754 -22.451515
-2.8008039 -6.5352097 -22.202732
-2.8197649 -7.5193715 -21.886715
-2.8410232 -8.5230713 -21.532412
-2.8678079 -9.5593605 -21.085999
-2.8980746 -10.626276 -20.581551
-2.9317443 -11.726978 -20.020393
-2.9759977 -12.895992 -19.282835
-3.0253947 -14.11851 -18.459547
-3.0870042 -15.435022 -17.432726
-3.1720262 -16.917475 -16.015692
-3.2874541 -18.628906 -14.091899
-2.3056111 20.7505 -11.242519
-2.1758626 18.494831 -14.486233
-2.1038322 16.83066 -16.286987
-2.0508161 15.381121 -17.612391
-2.0096376 14.067463 -18.641857
-1.9770997 12.851147 -19.455303
-1.9491044 11.694625 -20.155186
-1.9258125 10.591964 -20.737488
-1.9067971 9.5339842 -21.212868
-1.8882424 8.4970894 -21.676739
-1.8750515 7.5002069 -22.006508
-1.8636991 6.5229454 -22.290318
-1.8529259 5.5587759 -22.559652
-1.8462291 4.615571 -22.727068
-1.839607 3.6792116 -22.892624
-1.8332043 2.7498055 -23.052689
-1.831238 1.8312368 -23.101845
-1.8292863 0.91464329 -23.150639
-1.82751 -0 -23.195045
-1.8292085 -0.91460323 -23.152586
-1.8317436 -1.8317442 -23.089211
-1.8344479 -2.7516756 -23.021603
-1.8398697 -3.67974 -22.886051
-1.8470026 -4.6175079 -22.707729
-1.8546772 -5.5640316 -22.515867
-1.8649033 -6.5271606 -22.260214
-1.8772062 -7.5088267 -21.952641
-1.8897114 -8.5037012 -21.640011
-1.9078145 -9.539072 -21.187437
-1.9286516 -10.607584 -20.666508
-1.9514563 -11.708741 -20.096386
-1.9802383 -12.871548 -19.376835
-2.011553 -14.080871 -18.593969
-2.0542328 -15.406745 -17.526978
-2.1071935 -16.857548 -16.202961
-2.1833615 -18.558573 -14.298761
-1.1482563 20.668615 -11.469977
-1.0844084 18.434944 -14.662375
-1.0499668 16.799469 -16.384453
-1.0240409 15.360611 -17.68075
-1.0036249 14.050749 -18.70155
-0.98769128 12.839985 -19.498232
-0.97382671 11.685918 -20.191462
-0.96239942 10.586394 -20.762825
-0.95294404 9.5294399 -21.235594
-0.94372255 8.4934998 -21.696671
-0.93726641 7.4981313 -22.019474
-0.93089807 6.5162859 -22.337893
-0.92521107 5.5512648 -22.622242
-0.92187178 4.6093569 -22.789211
-0.91855645 3.6742239 -22.954975
-0.91546541 2.7463932 -23.109528
-0.91448462 1.828969 -23.158562
-0.91350609 0.9135046 -23.207497
-0.91254246 -9.5367432e-07 -23.255672
-0.91355008 -0.91355228 -23.205288
-0.91481215 -1.8296261 -23.142187
-0.91608298 -2.748251 -23.078648
-0.91894197 -3.6757679 -22.935696
-0.92250073 -4.612505 -22.757763
-0.92608708 -5.5565233 -22.578445
-0.93136412 -6.5195498 -22.314592
-0.93800944 -7.5040755 -21.982323
-0.94474751 -8.5027256 -21.64542
-0.95356804 -9.5356817 -21.204393
-0.96308488 -10.593934 -20.728552
-0.97429252 -11.691509 -20.168171
-0.98926705 -12.860474 -19.419447
-1.0054749 -14.076647 -18.609049
-1.0264056 -15.396082 -17.562519
-1.0522361 -16.835775 -16.270996
-1.0889326 -18.511854 -14.43617
0 20.693203 -11.40168
0 18.456707 -14.598358
0 16.803196 -16.372805
0 15.356704 -17.693779
0 14.039319 -18.742365
0 12.830222 -19.535789
0 11.677191 -20.227827
0 10.581266 -20.786127
0 9.5252934 -21.256325
0 8.4911356 -21.709812
0 7.4964714 -22.029846
0 6.5190001 -22.318495
0 5.5561228 -22.581776
0 4.6129398 -22.753399
0 3.6768475 -22.92218
0 2.7483969 -23.076172
0 1.8301277 -23.129574
0 0.91402912 -23.18129
0 -9.5367432e-07 -23.232895
0 -0.914011 -23.182331
0 -1.8304329 -23.122028
0 -2.7492647 -23.061691
0 -3.6772699 -22.916927
0 -4.6147127 -22.735672
0 -5.5595927 -22.552849
0 -6.5225339 -22.293285
0 -7.5032239 -21.987656
0 -8.5017796 -21.650688
0 -9.5360765 -21.202415
0 -10.599741 -20.702166
0 -11.701042 -20.128464
0 -12.857664 -19.430239
0 -14.07243 -18.624126
0 -15.404928 -17.533041
0 -16.833189 -16.279081
0 -18.52853 -14.387119
1.1557657 20.803778 -11.094516
1.0889841 18.512732 -14.433588
1.053152 16.85043 -16.225199
1.0265365 15.398046 -17.555969
1.005478 14.076691 -18.608894
0.98935217 12.861578 -19.415188
0.97506297 11.700756 -20.129646
0.9635635 10.599197 -20.70462
0.95384222 9.5384216 -21.190687
0.94454789 8.5009308 -21.655399
0.93807513 7.5045986 -21.979042
0.93228954 6.5260258 -22.268318
0.92707676 5.5624599 -22.528957
0.92362058 4.6181021 -22.701767
0.92020845 3.6808319 -22.872372
0.91720039 2.7516003 -23.022778
0.91611683 1.8322334 -23.076954
0.9150489 0.91504574 -23.130352
0.91401458 -2.8610229e-06 -23.18207
0.91510355 -0.91510391 -23.127623
0.91627592 -1.8325529 -23.068996
0.91748804 -2.7524633 -23.008396
0.92047429 -3.6819 -22.859081
0.92398381 -4.6199198 -22.683605
0.9276486 -5.5658932 -22.500366
0.93295443 -6.5306802 -22.235077
0.93895084 -7.5116072 -21.935249
0.94533026 -8.5079746 -21.61628
0.95452118 -9.5452137 -21.156738
0.96468711 -10.61156 -20.648443
0.97636163 -11.716339 -20.064716
0.99063736 -12.878285 -19.350927
1.0073066 -14.102293 -18.517471
1.0281041 -15.421564 -17.477594
1.0549297 -16.878878 -16.136307
1.0940224 -18.598379 -14.181674
2.3426769 21.084089 -10.315876
2.1884615 18.601921 -14.171259
2.1124632 16.899704 -16.071215
2.0586414 15.439808 -17.416761
2.016336 14.11435 -18.4744
1.9837722 12.894519 -19.28849
1.9550959 11.730574 -20.0054
1.9319106 10.625507 -20.585032
1.9124058 9.5620279 -21.072651
1.8937311 8.5217896 -21.539516
1.8803815 7.5215259 -21.873257
1.8672187 6.5352621 -22.202328
1.856271 5.5688114 -22.476017
1.8493429 4.6233568 -22.649225
1.8424662 3.6849337 -22.82114
1.8365415 2.7548103 -22.969257
1.8343642 1.8343639 -23.023693
1.8321972 0.9161005 -23.077866
1.8300925 -1.9073486e-06 -23.130482
1.8324162 -0.91621017 -23.07239
1.8347511 -1.8347521 -23.014015
1.8371077 -2.7556629 -22.955105
1.8432841 -3.6865673 -22.80069
1.8503104 -4.6257763 -22.625032
1.857396 -5.5721893 -22.447897
1.8686446 -6.540257 -22.166685
1.8819209 -7.5276856 -21.834774
1.8953931 -8.5292692 -21.497971
1.9137934 -9.5689688 -21.037962
1.9328446 -10.630644 -20.56168
1.9565697 -11.739418 -19.968555
1.986607 -12.912946 -19.217621
2.0206213 -14.144351 -18.367262
2.0640216 -15.480162 -17.282257
2.1170211 -16.936171 -15.957268
2.20245 -18.720825 -13.821549
3.6839106 22.103462 -7.4842892
3.315485 18.787746 -13.624713
3.1917825 17.02284 -15.686418
3.1035063 15.517529 -17.157692
3.0363173 14.169481 -18.277504
2.9843965 12.932384 -19.142857
2.9401364 11.760548 -19.88052
2.9051206 10.652108 -20.464117
2.8757606 9.5858669 -20.953455
2.8475757 8.5427246 -21.423203
2.8274779 7.5399423 -21.758163
2.809402 6.5552702 -22.059433
2.7932436 5.5864868 -22.328735
2.7824886 4.6374798 -22.507984
2.7718244 3.6957674 -22.685722
2.7625923 2.7625914 -22.839592
2.7591815 1.8394537 -22.896437
2.7557795 0.9185915 -22.953138
2.7525189 -0 -23.007481
2.7560468 -0.9186821 -22.948681
2.7595761 -1.8397188 -22.889862
2.7631221 -2.7631235 -22.830761
2.7728271 -3.6971025 -22.669006
2.7837162 -4.6395264 -22.487526
2.794699 -5.5893998 -22.30448
2.8114145 -6.5599675 -22.02589
2.8299146 -7.5464396 -21.717556
2.8502152 -8.5506458 -21.37921
2.8789678 -9.5965595 -20.900002
2.9103401 -10.671247 -20.377129
2.9472899 -11.78916 -19.761299
2.9904974 -12.958825 -19.04117
3.0433714 -14.202399 -18.159941
3.1110766 -15.555386 -17.031513
3.197078 -17.051079 -15.598166
3.3255575 -18.84483 -13.456836
4.4778495 19.030861 -12.909677
4.2912331 17.16493 -15.242384
4.1672783 15.627292 -16.791819
4.0763059 14.267069 -17.928974
4.0039859 13.012954 -18.832973
3.9430325 11.829096 -19.594889
3.8926685 10.704837 -20.224442
3.851579 9.6289454 -20.738064
3.8118103 8.5765724 -21.23517
3.784467 7.5689321 -21.576956
3.76017 6.5802956 -21.880672
3.7382441 5.6073656 -22.154747
3.7238076 4.6547585 -22.335201
3.7094612 3.7094603 -22.514534
3.6969545 2.7727156 -22.670864
3.6923735 1.8461847 -22.728128
3.687804 0.92195225 -22.785248
3.6834247 9.5367432e-07 -22.839985
3.688163 -0.92204189 -22.780758
3.6929138 -1.8464584 -22.721378
3.6976657 -2.7732506 -22.661972
3.7108192 -3.710824 -22.497557
3.7254565 -4.6568213 -22.31459
3.7402101 -5.6103168 -22.130171
3.7628846 -6.5850487 -21.846739
3.7875626 -7.5751247 -21.538263
3.8156629 -8.5852413 -21.187012
3.8548656 -9.6371641 -20.696972
3.8963325 -10.714915 -20.178638
3.9465744 -11.839724 -19.550617
4.0100851 -13.032777 -18.756731
4.0842724 -14.294956 -17.82939
4.1763229 -15.661212 -16.678761
4.2966614 -17.186647 -15.174528
4.4970274 -19.112368 -12.669953
5.6970105 19.369833 -11.912692
5.4246011 17.358723 -14.636785
5.2471638 15.741488 -16.411163
5.1307678 14.366148 -17.575119
5.0364695 13.09482 -18.518101
4.9591861 11.902046 -19.290936
4.8938341 10.766433 -19.944454
4.8416929 9.6833858 -20.465866
4.7908649 8.6235561 -20.974148
4.7550898 7.6081414 -21.331902
4.7202044 6.6082845 -21.680756
4.6903343 5.6283989 -21.97945
4.6721401 4.6721392 -22.161394
4.6540728 3.7232599 -22.342064
4.638176 2.7829037 -22.501036
4.6324215 1.8529654 -22.558582
4.6266675 0.92533302 -22.616123
4.6211534 -0 -22.671265
4.6271195 -0.92542458 -22.611599
4.6331015 -1.853241 -22.551783
4.6390991 -2.7834606 -22.49181
4.6558099 -3.7246504 -22.324696
4.6742435 -4.674243 -22.140358
4.6928239 -5.6313887 -21.954559
4.7240567 -6.6136799 -21.642229
4.7592101 -7.6147366 -21.290695
4.795434 -8.6317816 -20.928455
4.8449731 -9.6899452 -20.433065
4.8978562 -10.775284 -19.904236
4.9659042 -11.918171 -19.223751
5.0440316 -13.114484 -18.442478
5.1429682 -14.40031 -17.453114
5.2693291 -15.807987 -16.189505
5.4421034 -17.414734 -14.461763
5.7444792 -19.531229 -11.438004
7.092072 20.094202 -9.7821951
6.6118522 17.631605 -13.784027
6.3752613 15.938151 -15.755619
6.2215123 14.516861 -17.036861
6.0924082 13.200217 -18.11273
5.9925027 11.985005 -18.945271
5.9065881 10.828744 -19.66123
5.8432965 9.7388268 -20.18866
5.7813988 8.6720934 -20.704477
5.7372007 7.6495986 -21.072792
5.698462 6.6482062 -21.395611
5.662169 5.6621675 -21.698057
5.6391511 4.6992922 -21.88987
5.6163197 3.7442122 -22.080132
5.5958123 2.797904 -22.25103
5.5886374 1.8628769 -22.310816
5.5814652 0.93024254 -22.370586
5.5745206 -0 -22.428459
5.582159 -0.93035889 -22.364803
5.5898671 -1.8632889 -22.300571
5.5977588 -2.7988777 -22.234804
5.6187057 -3.7458057 -22.060251
5.6419353 -4.7016106 -21.866665
5.66609 -5.6660891 -21.66538
5.7032423 -6.6537824 -21.35578
5.7432075 -7.6576095 -21.022738
5.7859025 -8.678854 -20.666943
5.8523993 -9.7540007 -20.112801
5.9211869 -10.855508 -19.539576
6.004765 -12.009529 -18.84309
6.1067815 -13.23136 -17.99295
6.2359586 -14.55057 -16.916477
6.3940501 -15.985126 -15.599045
6.6372151 -17.69924 -13.572672
7.2272091 -20.477093 -8.6560555
7.8824921 18.017124 -12.57928
7.5466132 16.171312 -14.978415
7.3471551 14.69431 -16.403118
7.1841059 13.341909 -17.567757
7.0640583 12.109812 -18.42524
6.9560013 10.93086 -19.197071
6.8765483 9.823637 -19.764599
6.7994633 8.7421665 -20.315201
6.7417555 7.7048602 -20.727402
6.6940575 6.6940551 -21.068104
6.6497755 5.6998072 -21.384396
6.6225648 4.7304039 -21.578764
6.5958643 3.7690659 -21.76948
6.5706048 2.8159742 -21.949902
6.5621262 1.8748932 -22.010468
6.5539169 0.93627262 -22.069101
6.545805 -9.5367432e-07 -22.127048
6.5541458 -0.93630695 -22.067465
6.5634451 -1.8752718 -22.001043
6.572906 -2.8169613 -21.93347
6.5972748 -3.7698717 -21.759407
6.6256227 -4.7325878 -21.556921
6.65451 -5.7038665 -21.350584
6.6983962 -6.6983972 -21.037109
6.7493701 -7.7135649 -20.673012
6.8063455 -8.7510147 -20.266045
6.8833766 -9.833395 -19.715818
6.9621925 -10.940588 -19.152845
7.0712199 -12.122092 -18.374081
7.1990972 -13.369752 -17.460672
7.35781 -14.715618 -16.327015
7.575212 -16.232599 -14.77414
7.948658 -18.168365 -12.106667
9.3965969 18.793194 -10.154063
8.821723 16.540731 -13.747024
8.5261898 14.920832 -15.59411
8.300993 13.489113 -17.001591
8.1590443 12.238567 -17.888769
8.026371 11.036259 -18.717978
7.9333773 9.9167213 -19.299189
7.8429918 8.8233643 -19.8641
7.7725511 7.7725487 -20.304352
7.7114863 6.747551 -20.686003
7.6513743 5.7385278 -21.061707
7.6194463 4.7621546 -21.261257
7.5885439 3.7942696 -21.454395
7.5580688 2.8342743 -21.644863
7.5485625 1.8871393 -21.704281
7.5391684 0.94239521 -21.762993
7.5297976 1.9073486e-06 -21.821562
7.5388813 -0.94236183 -21.76479
7.5497804 -1.8874474 -21.696674
7.5607328 -2.8352747 -21.628218
7.5900202 -3.7950096 -21.445168
7.6247945 -4.7654948 -21.227833
7.6599565 -5.7449675 -21.008072
7.7164793 -6.7519231 -20.654802
7.7799263 -7.7799244 -20.258259
7.8462424 -8.8270206 -19.843784
7.9403009 -9.9253788 -19.255911
8.0460358 -11.063299 -18.595066
8.1765089 -12.264765 -17.779613
8.3369312 -13.547513 -16.776976
8.5404444 -14.945778 -15.505014
8.8477955 -16.589617 -13.584073
9.5049353 -19.009872 -9.4769516
10.214297 17.023825 -12.136703
9.7809334 15.214786 -14.544278
9.5092678 13.735611 -16.053526
9.3138723 12.418497 -17.139061
9.1435738 11.175477 -18.085163
9.0224104 10.024901 -18.758293
8.9114017 8.9114017 -19.375006
8.825489 7.8448792 -19.852301
8.7611799 6.8142519 -20.209576
8.6978016 5.7985334 -20.561684
8.6559772 4.8088751 -20.794031
8.6185789 3.8304787 -21.001801
8.5824938 2.8608303 -21.202274
8.5691881 1.9042616 -21.276194
8.5582762 0.9509201 -21.336819
8.5480976 -0 -21.393368
8.5581999 -0.95091152 -21.33724
8.5722322 -1.9049416 -21.259285
8.5872269 -2.8624096 -21.175983
8.620965 -3.831542 -20.988548
8.6611805 -4.8117676 -20.765129
8.7049103 -5.8032746 -20.522179
8.7685795 -6.8200078 -20.168465
8.8381195 -7.8561063 -19.782135
8.9223824 -8.9223795 -19.314007
9.0388536 -10.043171 -18.666945
9.1583767 -11.193571 -18.002928
9.3290215 -12.438696 -17.054897
9.5312662 -13.767386 -15.931318
9.8047056 -15.251766 -14.412209
10.281958 -17.136597 -11.760808
11.179108 15.650751 -12.987256
10.783404 14.018424 -14.965774
10.520399 12.624479 -16.280796
10.321399 11.353539 -17.275801
10.168129 10.168129 -18.04215
10.039599 9.0356369 -18.684803
9.9283466 7.9426761 -19.241062
9.8433208 6.8903217 -19.666195
9.7663422 5.8598056 -20.051086
9.7150726 4.8575354 -20.30743
9.6738968 3.8695583 -20.513309
9.6330976 2.8899298 -20.71731
9.6147938 1.9229574 -20.80883
9.6033459 0.96033382 -20.86607
9.5920401 -0 -20.922596
9.6011105 -0.96011257 -20.877243
9.6181269 -1.923625 -20.792164
9.6353464 -2.8906021 -20.706062
9.6726465 -3.86906 -20.519566
9.7217054 -4.8608561 -20.274269
9.771265 -5.8627596 -20.026474
9.8492241 -6.8944588 -19.636675
9.9430399 -7.9544339 -19.167599
10.040288 -9.0362587 -18.681355
10.17842 -10.178422 -17.990696
10.342196 -11.376415 -17.171818
10.546567 -12.655881 -16.14996
10.814277 -14.058559 -14.811413
11.217255 -15.704159 -12.796523
12.988107 16.530317 -9.8459435
12.221157 14.443183 -13.332082
11.832367 12.908033 -15.099312
11.572553 11.572554 -16.280283
11.356744 10.324313 -17.261234
11.201789 9.1650982 -17.965574
11.06534 8.0475187 -18.585796
10.971274 6.9817171 -19.013369
10.884246 5.9368596 -19.408951
10.8169 4.9167714 -19.715073
10.767123 3.9153156 -19.941332
10.717932 2.9230728 -20.164925
10.693423 1.9442606 -20.276323
10.680777 0.97097874 -20.333813
10.668223 -1.9073486e-06 -20.390873
10.679133 -0.97083092 -20.341282
10.701797 -1.9457827 -20.238266
10.725238 -2.9250631 -20.131714
10.770858 -3.916676 -19.924353
10.829573 -4.922534 -19.657461
10.89426 -5.9423237 -19.36343
10.985949 -6.9910598 -18.946667
11.089465 -8.0650682 -18.476133
11.21364 -9.1747942 -17.911703
11.393551 -10.357773 -17.093929
11.58145 -11.581453 -16.239843
11.854516 -12.932199 -14.998637
12.254197 -14.482234 -13.1819
13.152071 -16.738998 -9.1006536
13.996307 15.162665 -10.564851
13.306997 13.306996 -13.436975
12.934841 11.856936 -14.987622
12.65277 10.543977 -16.162918
12.465194 9.3488932 -16.94449
12.288843 8.1925621 -17.679283
12.163171 7.0951824 -18.202915
12.056622 6.0283093 -18.646873
11.972299 4.9884562 -18.998219
11.917104 3.9723673 -19.228193
11.863765 2.9659414 -19.450443
11.82917 1.9715261 -19.594591
11.815562 0.98463058 -19.651287
11.803825 -9.5367432e-07 -19.700191
11.810683 -0.98422432 -19.671616
11.837219 -1.9728699 -19.561049
11.865405 -2.966351 -19.443607
11.912657 -3.9708862 -19.246727
11.985786 -4.9940767 -18.942017
12.061027 -6.0305171 -18.628519
12.169994 -7.099164 -18.174488
12.313253 -8.2088375 -17.57757
12.459967 -9.3449745 -16.966274
12.674947 -10.562456 -16.070522
12.94937 -11.870257 -14.927087
13.350883 -13.350884 -13.254116
14.139846 -15.318165 -9.9667749
15.28995 14.1138 -10.075293
14.505781 12.274123 -13.091326
14.10111 10.847005 -14.647757
13.81033 9.560998 -15.766142
13.588611 8.3622217 -16.61891
13.426819 7.2298236 -17.241188
13.303136 6.1399055 -17.716892
13.187319 5.0720453 -18.16234
13.121104 4.0372615 -18.417007
13.055552 3.0128179 -18.669138
13.006158 2.0009451 -18.859112
12.993918 0.99953079 -18.906189
12.981662 -1.9073486e-06 -18.953331
12.987787 -0.99906158 -18.92977
13.026243 -2.0040417 -18.78186
13.065173 -3.015039 -18.632132
13.126086 -4.0387964 -18.397852
13.21623 -5.0831642 -18.051144
13.318084 -6.1468105 -17.659397
13.452161 -7.243475 -17.143719
13.623168 -8.3834877 -16.485994
13.836411 -9.5790529 -15.665833
14.121768 -10.862897 -14.568308
14.536981 -12.300522 -12.971332
15.47809 -14.287466 -9.3516808
17.225893 13.534626 -7.3617535
15.835297 11.310925 -12.328165
15.34422 9.8641396 -14.08201
15.06693 8.6096745 -15.072332
14.823195 7.4115968 -15.942814
14.657884 6.2819505 -16.533215
14.51242 5.1830072 -17.052727
14.423083 4.1208801 -17.371784
14.353655 3.0757842 -17.619743
14.285616 2.040801 -17.862736
14.27186 1.0194197 -17.911865
14.262238 -0 -17.946234
14.259349 -1.0185261 -17.956547
14.303986 -2.043427 -17.797138
14.35274 -3.0755892 -17.623011
14.412518 -4.1178608 -17.409517
14.530064 -5.1893101 -16.989712
14.663608 -6.2844067 -16.51277
14.849087 -7.4245443 -15.850344
15.089687 -8.6226768 -14.991056
15.403708 -9.9023848 -13.86955
15.863173 -11.330837 -12.228606
17.384182 10.430508 -10.935525
16.809361 8.9649925 -12.851599
16.431227 7.6679039 -14.112043
16.169039 6.4676142 -14.986001
15.996778 5.3322592 -15.560201
15.854609 4.2278972 -16.034096
15.76591 3.1531801 -16.32976
15.681561 2.0908732 -16.610929
15.651714 1.0434442 -16.710415
15.643904 -2.8610229e-06 -16.736454
15.642332 -1.0428205 -16.741688
15.702626 -2.0936861 -16.540707
15.776112 -3.1552196 -16.295755
15.85586 -4.2282295 -16.029934
16.010042 -5.3366823 -15.515991
16.196978 -6.4787931 -14.892868
16.447853 -7.6756659 -14.056617
16.848139 -8.9856768 -12.722336
17.491961 -10.495177 -10.576262
18.637089 8.1537247 -10.641897
18.007359 6.7527609 -12.609798
17.742113 5.5444093 -13.438696
17.505013 4.3762527 -14.179629
17.372368 3.2573185 -14.594143
17.261543 2.157692 -14.94047
17.187794 1.0742335 -15.170942
17.197723 -4.7683716e-07 -15.139906
17.207724 -1.0754838 -15.108658
17.278748 -2.1598439 -14.886711
17.40184 -3.2628446 -14.502043
17.543182 -4.3857975 -14.060352
17.75251 -5.5476584 -13.406197
18.11187 -6.7919512 -12.283207
18.676023 -8.170764 -10.520223
19.865396 4.6742096 -10.455163
19.471865 3.4362087 -11.612606
19.315538 2.2724161 -12.07239
19.164318 1.1273103 -12.517155
19.155462 -3.8146973e-06 -12.543203
19.213314 -1.1301942 -12.373048
19.299595 -2.2705393 -12.119287
19.539391 -3.4481285 -11.414
19.960121 -4.6965008 -10.17656
