# .PCD v0.7 - Point Cloud Data file format
VERSION 0.7
FIELDS x y z
SIZE 4 4 4
TYPE F F F
COUNT 1 1 1
WIDTH 1049
HEIGHT 1
VIEWPOINT 0 0 0 1 0 0 0
POINTS 1049
DATA ascii
-22.915838 -0 -8.5779591
-21.943293 7.3144312 -7.9292068
-20.792431 5.7756729 -11.126045
-20.343081 4.5206861 -12.374241
-20.1492 3.3581986 -12.912796
-19.988527 2.2209477 -13.359108
-19.860922 1.103385 -13.713564
-19.868824 4.7683716e-07 -13.691616
-19.888538 -1.1049185 -13.636854
-19.967583 -2.2186222 -13.417291
-20.153896 -3.3589826 -12.899746
-20.373919 -4.5275364 -12.288584
-20.823599 -5.7843332 -11.039466
-19.9359 9.3816004 -10.247795
-19.195383 7.9039798 -12.42579
-18.785814 6.6302853 -13.630405
-18.534618 5.4513569 -14.369213
-18.342175 4.3158031 -14.935226
-18.205576 3.212749 -15.336985
-18.124578 2.1323013 -15.575215
-18.059126 1.0622997 -15.767715
-18.033113 -1.4305115e-06 -15.844227
-18.071056 -1.063004 -15.732633
-18.110477 -2.1306438 -15.616686
-18.212667 -3.2140026 -15.316132
-18.359594 -4.3199048 -14.883993
-18.544357 -5.4542246 -14.340575
-18.844696 -6.6510677 -13.457218
-19.231346 -7.9187899 -12.32001
-20.064579 -9.4421558 -9.8693275
-19.171169 11.98198 -8.9728928
-18.03511 10.14475 -12.523075
-17.610561 8.8052788 -13.849794
-17.285707 7.5624962 -14.86496
-17.024923 6.3843465 -15.679911
-16.85512 5.2672234 -16.210548
-16.73526 4.1838136 -16.585106
-16.626431 3.117455 -16.925201
-16.580494 2.0725617 -17.068748
-16.542675 1.0339146 -17.186935
-16.513762 -9.5367432e-07 -17.27729
-16.546024 -1.0341272 -17.17647
-16.587652 -2.0734596 -17.046383
-16.642714 -3.1205101 -16.874317
-16.755028 -4.1887589 -16.523333
-16.868813 -5.2715049 -16.167755
-17.059782 -6.3974166 -15.570979
-17.30802 -7.572258 -14.795238
-17.658876 -8.8294392 -13.698811
-18.155485 -10.212461 -12.146906
-17.307457 12.692135 -11.191272
-16.655613 11.103743 -13.364088
-16.225451 9.7352695 -14.797964
-15.947526 8.5053482 -15.724377
-15.730769 7.3410263 -16.446899
-15.55794 6.2231765 -17.022991
-15.425108 5.1417017 -17.465771
-15.328082 4.0874867 -17.789192
-15.235682 3.0471339 -18.097187
-15.184978 2.024662 -18.266203
-15.167039 1.0111351 -18.325998
-15.149143 9.5367432e-07 -18.385653
-15.16561 -1.0110445 -18.330765
-15.205354 -2.0273814 -18.198284
-15.245932 -3.0491834 -18.063023
-15.327742 -4.0873981 -17.790321
-15.445491 -5.1484985 -17.397827
-15.571892 -6.2287574 -16.976488
-15.765345 -7.3571615 -16.331646
-15.977136 -8.5211372 -15.625676
-16.297318 -9.7783918 -14.558402
-16.68722 -11.124813 -13.258729
-17.445246 -12.79318 -10.731979
-16.003813 13.717552 -11.726319
-15.375954 12.081104 -13.968678
-15.00666 10.719039 -15.287586
-14.7394 9.4753275 -16.242079
-14.500323 8.2858963 -17.09593
-14.356719 7.17836 -17.608797
-14.215888 6.0925217 -18.111769
-14.111744 5.039907 -18.483715
-14.043303 4.0123715 -18.728142
-13.979817 2.9956751 -18.954876
-13.930326 1.9900446 -19.13163
-13.914538 0.99389267 -19.188019
-13.905391 -1.9073486e-06 -19.220686
-13.905263 -0.99323273 -19.221146
-13.942785 -1.9918289 -19.087133
-13.985284 -2.9968481 -18.935352
-14.04186 -4.0119586 -18.733297
-14.130996 -5.0467858 -18.414955
-14.22711 -6.0973334 -18.07169
-14.370548 -7.1852765 -17.559408
-14.542726 -8.3101282 -16.944487
-14.749581 -9.4818773 -16.205719
-15.04208 -10.744346 -15.161079
-15.458091 -12.145642 -13.67533
-16.099657 -13.799709 -11.384019
-14.766847 14.766848 -12.087231
-14.240881 13.14543 -14.110176
-13.864931 11.731861 -15.556138
-13.59899 10.46076 -16.578989
-13.395994 9.2741489 -17.359743
-13.219235 8.1349134 -18.039581
-13.089945 7.0484314 -18.536852
-12.986739 5.9938788 -18.9338
-12.885584 4.9559903 -19.322861
-12.828097 3.9471064 -19.543961
-12.774046 2.9478569 -19.75185
-12.728769 1.958271 -19.925991
-12.722537 0.97865486 -19.949959
-12.718284 -9.5367432e-07 -19.966324
-12.715771 -0.97813702 -19.975986
-12.748978 -1.96138 -19.84827
-12.786383 -2.9507036 -19.704403
-12.82566 -3.9463582 -19.553337
-12.905498 -4.9636507 -19.246267
-12.999004 -5.9995394 -18.88662
-13.107498 -7.0578861 -18.469345
-13.253869 -8.1562281 -17.906378
-13.410378 -9.2841101 -17.30442
-13.64089 -10.492992 -16.417831
-13.899201 -11.760863 -15.424329
-14.298605 -13.198714 -13.888163
-14.928185 -14.928186 -11.466698
-13.777453 16.073696 -11.476736
-13.132153 14.226496 -14.165494
-12.798568 12.798563 -15.555432
-12.511757 11.46911 -16.750473
-12.316357 10.263626 -17.564648
-12.15452 9.1158895 -18.238962
-12.006506 8.0043392 -18.85569
-11.907294 6.9459205 -19.269072
-11.818419 5.9092073 -19.639385
-11.739347 4.8913927 -19.968849
-11.691582 3.897192 -20.167873
-11.651018 2.9127522 -20.336889
-11.615066 1.9358435 -20.486691
-11.602119 0.96684265 -20.540632
-11.599819 -1.9073486e-06 -20.550213
-11.600204 -0.9666853 -20.548615
-11.621496 -1.9369173 -20.459892
-11.656786 -2.914197 -20.312853
-11.694307 -3.8981037 -20.156515
-11.754818 -4.8978434 -19.904385
-11.827286 -5.9136448 -19.602436
-11.904688 -6.9444027 -19.27993
-12.030443 -8.0202923 -18.755951
-12.163056 -9.1222944 -18.203394
-12.332953 -10.277462 -17.495491
-12.543659 -11.498356 -16.61755
-12.833827 -12.833829 -15.408522
-13.212484 -14.313527 -13.830779
-13.907396 -16.225294 -10.935312
-12.886037 17.571865 -10.309902
-12.143018 15.454748 -13.687263
-11.748958 13.88513 -15.478441
-11.480195 12.523847 -16.700094
-11.271982 11.271982 -17.646513
-11.107977 10.09816 -18.391991
-10.984892 8.9876404 -18.951468
-10.870776 7.9060202 -19.470177
-10.776628 6.8578515 -19.898125
-10.705873 5.8395677 -20.219734
-10.639688 4.8362207 -20.520582
-10.591239 3.8513613 -20.740797
-10.558828 2.8796778 -20.888123
-10.526614 1.9139271 -21.03455
-10.50977 0.95543289 -21.111115
-10.510114 -1.9073486e-06 -21.109554
-10.511955 -0.95563507 -21.101183
-10.526082 -1.9138346 -21.036968
-10.558986 -2.8797207 -20.887405
-10.592127 -3.8516808 -20.736767
-10.640103 -4.836412 -20.51869
-10.714104 -5.8440585 -20.182323
-10.789142 -6.8658171 -19.841242
-10.888597 -7.9189792 -19.389172
-11.004526 -9.0037041 -18.862223
-11.137507 -10.125008 -18.257763
-11.31652 -11.316523 -17.444071
-11.522531 -12.570035 -16.507656
-11.808291 -13.955254 -15.208746
-12.219681 -15.552323 -13.338794
-13.079813 -17.836111 -9.429101
-11.186569 16.779852 -12.949953
-10.766017 15.072423 -15.05271
-10.485267 13.630844 -16.456467
-10.270836 12.325005 -17.528616
-10.107231 11.117954 -18.346642
-9.9746895 9.9746876 -19.00935
-9.8697042 8.8827324 -19.534277
-9.7669048 7.8135233 -20.048269
-9.6912003 6.7838387 -20.426796
-9.6328945 5.779736 -20.718319
-9.5753155 4.7876587 -21.006214
-9.5361328 3.8144503 -21.202133
-9.5113029 2.8533888 -21.326283
-9.4872742 1.8974552 -21.446426
-9.4725304 0.94725418 -21.520147
-9.4746485 -2.8610229e-06 -21.509552
-9.477747 -0.94777393 -21.494062
-9.486743 -1.8973494 -21.449085
-9.5161686 -2.8548527 -21.301952
-9.5467129 -3.8186874 -21.149235
-9.5832996 -4.7916503 -20.966297
-9.6410618 -5.7846384 -20.677485
-9.6994963 -6.7896476 -20.385319
-9.778182 -7.8225465 -19.991886
-9.8792171 -8.8912983 -19.486712
-9.9829197 -9.9829197 -18.968197
-10.135753 -11.149331 -18.204033
-10.298016 -12.357617 -17.392719
-10.532794 -13.692633 -16.218822
-10.825007 -15.155008 -14.757759
-11.283089 -16.924631 -12.467358
-10.324914 18.3554 -11.522165
-9.818532 16.364218 -14.335398
-9.5156412 14.802105 -16.018126
-9.2976084 13.429877 -17.229416
-9.127841 12.170454 -18.172569
-8.9881124 10.985471 -18.948835
-8.877696 9.864109 -19.56226
-8.7909613 8.7909603 -20.044121
-8.7150211 7.746685 -20.466011
-8.6463652 6.7249489 -20.847435
-8.5947943 5.7298613 -21.133936
-8.550848 4.7504702 -21.378086
-8.5129986 3.783556 -21.588356
-8.4913864 2.8304634 -21.708429
-8.4717894 1.8826199 -21.817295
-8.4549494 0.93943691 -21.910856
-8.4575167 9.5367432e-07 -21.896595
-8.4615679 -0.94017696 -21.874083
-8.4656 -1.8812447 -21.851685
-8.4919081 -2.8306389 -21.705526
-8.5203362 -3.7868156 -21.547596
-8.548955 -4.7494211 -21.388599
-8.5990047 -5.7326698 -21.110548
-8.6557703 -6.7322683 -20.795181
-8.7193241 -7.7505107 -20.442108
-8.807375 -8.8073769 -19.952938
-8.8988352 -9.8875961 -19.444822
-9.0183926 -11.02248 -18.780609
-9.1572189 -12.209625 -18.009359
-9.3344936 -13.483159 -17.024498
-9.5473833 -14.851488 -15.841778
-9.8752737 -16.45879 -14.020164
-10.451851 -18.581066 -10.816961
-8.9129143 17.825827 -13.177082
-8.569212 16.06727 -15.325222
-8.3401184 14.595208 -16.757059
-8.1667833 13.271023 -17.840403
-8.0292749 12.043912 -18.699829
-7.9201012 10.890136 -19.382166
-7.8235197 9.779398 -19.985798
-7.751677 8.7206345 -20.434816
-7.6831121 7.6831107 -20.863346
-7.6195364 6.6670933 -21.260693
-7.5807233 5.6855412 -21.503273
-7.5423265 4.713954 -21.743256
-7.5064602 3.753232 -21.967419
-7.4906049 2.8089733 -22.066517
-7.475533 1.8688841 -22.160715
-7.4608889 0.93261051 -22.252241
-7.4646525 9.5367432e-07 -22.228718
-7.4691787 -0.93364811 -22.200428
-7.4740572 -1.868515 -22.169941
-7.4949884 -2.8106232 -22.03912
-7.5197468 -3.7598734 -21.88438
-7.5449123 -4.7155724 -21.727093
-7.5856147 -5.6892133 -21.472702
-7.6364412 -6.6818881 -21.155041
-7.688458 -7.6884594 -20.829933
-7.7634344 -8.7338648 -20.361332
-7.8415818 -9.8019791 -19.87291
-7.938343 -10.915222 -19.26815
-8.0562077 -12.084311 -18.531496
-8.1977005 -13.321264 -17.647163
-8.3787413 -14.662795 -16.515669
-8.6222172 -16.166655 -14.993944
-8.9959087 -17.991819 -12.658362
-8.1080923 19.69108 -10.967851
-7.6530843 17.49276 -14.217914
-7.3992796 15.855597 -16.030802
-7.2195153 14.439027 -17.314835
-7.0793977 13.147452 -18.315672
-6.9669509 11.943347 -19.118858
-6.8812528 10.813396 -19.730991
-6.798007 9.7114391 -20.325607
-6.7337952 8.6577358 -20.784256
-6.6786966 7.6327982 -21.177818
-6.6291127 6.6291118 -21.531996
-6.5958447 5.6535788 -21.769619
-6.5630631 4.6879015 -22.003775
-6.5341287 3.7337866 -22.210451
-6.5208507 2.7946491 -22.30529
-6.507966 1.8594189 -22.397324
-6.4962182 0.92802906 -22.481239
-6.497417 9.5367432e-07 -22.472672
-6.501524 -0.92878819 -22.44334
-6.5066504 -1.859045 -22.406723
-6.522418 -2.7953234 -22.294094
-6.5439415 -3.7393951 -22.14036
-6.5666595 -4.6904745 -21.978085
-6.5993228 -5.6565642 -21.744778
-6.6387825 -6.6387839 -21.462921
-6.6787167 -7.6328182 -21.177677
-6.7390933 -8.6645489 -20.746416
-6.806674 -9.7238197 -20.263695
-6.8825984 -10.815513 -19.721378
-6.9832129 -11.971221 -19.002701
-7.0913196 -13.169594 -18.230515
-7.2419577 -14.483914 -17.15453
-7.4301515 -15.92175 -15.810287
-7.6934643 -17.58506 -13.929482
-8.2422676 -20.016937 -10.009456
-6.7704463 19.18293 -12.462409
-6.4644547 17.238544 -15.012342
-6.2725625 15.681402 -16.611441
-6.1312523 14.306255 -17.789024
-6.0194969 13.042243 -18.720324
-5.9325018 11.865 -19.445282
-5.8591118 10.741703 -20.056866
-5.7879834 9.6466379 -20.649601
-5.7378144 8.60672 -21.067673
-5.6948318 7.5931072 -21.425859
-5.6524892 6.5945706 -21.778719
-5.623107 5.623106 -22.023571
-5.5983272 4.6652718 -22.230072
-5.5737801 3.7158518 -22.434628
-5.5609546 2.7804756 -22.541504
-5.5509477 1.8503151 -22.624905
-5.5409918 0.92350006 -22.707863
-5.5403085 -2.8610229e-06 -22.71356
-5.5446515 -0.92411137 -22.677368
-5.548985 -1.8496628 -22.641254
-5.5603781 -2.7801933 -22.54631
-5.5794973 -3.7196655 -22.386982
-5.5987492 -4.6656237 -22.226557
-5.6242862 -5.6242867 -22.013744
-5.6601439 -6.6035028 -21.71493
-5.6984963 -7.5979972 -21.395329
-5.7474637 -8.6211958 -20.987265
-5.8044252 -9.6740437 -20.512585
-5.8650556 -10.752602 -20.00733
-5.948988 -11.897975 -19.307896
-6.0366969 -13.079512 -18.576988
-6.1599069 -14.373115 -17.550241
-6.3033586 -15.758396 -16.354809
-6.5037985 -17.343462 -14.684474
-6.8381076 -19.37464 -11.898567
-5.5558004 18.889721 -13.324794
-5.3376012 17.080322 -15.506787
-5.1882544 15.564761 -17.000254
-5.0767341 14.214855 -18.115452
-4.9866648 12.965328 -19.01615
-4.9115353 11.787683 -19.767447
-4.8567595 10.684869 -20.315201
-4.8042679 9.6085377 -20.840118
-4.7612944 8.5703297 -21.269854
-4.7240429 7.5584674 -21.642368
-4.6878338 6.5629654 -22.004457
-4.6650019 5.5980034 -22.232777
-4.644495 4.644495 -22.437845
-4.6241674 3.6993332 -22.641117
-4.6138659 2.7683191 -22.744139
-4.6064162 1.8425665 -22.818634
-4.598978 0.91979504 -22.893017
-4.5983734 -2.8610229e-06 -22.899063
-4.6023846 -0.92047691 -22.858952
-4.6064034 -1.8425617 -22.818768
-4.6153212 -2.7691956 -22.72958
-4.6311812 -3.7049484 -22.57098
-4.647151 -4.6471519 -22.411285
-4.6672344 -5.6006823 -22.210449
-4.6961246 -6.5745769 -21.921551
-4.7278042 -7.564487 -21.604753
-4.7663574 -8.5794468 -21.219219
-4.8127599 -9.6255217 -20.755198
-4.8606324 -10.693393 -20.276472
-4.9283228 -11.827974 -19.599571
-4.9995399 -12.998803 -18.8874
-5.0957856 -14.268203 -17.924942
-5.2050705 -15.615211 -16.832092
-5.3616643 -17.15733 -15.266155
-5.6012673 -19.04431 -12.870125
-4.3935194 18.672455 -13.963804
-4.2356443 16.942579 -15.937239
-4.1212239 15.45459 -17.367495
-4.0384789 14.134676 -18.40181
-3.973901 12.915178 -19.209034
-3.9148648 11.744595 -19.946985
-3.8707922 10.644676 -20.497896
-3.8282926 9.5707302 -21.02914
-3.7932658 8.5348454 -21.466972
-3.7664518 7.5329032 -21.802147
-3.7409599 6.5466776 -22.120796
-3.7220633 5.5830936 -22.357006
-3.705745 4.6321783 -22.560982
-3.6908174 3.6908159 -22.747581
-3.6819606 2.7614679 -22.858292
-3.6760197 1.8380117 -22.932547
-3.6704962 0.91762447 -23.001595
-3.6692305 -0 -23.017418
-3.6724229 -0.91810894 -22.97751
-3.6759882 -1.8379955 -22.932941
-3.6822553 -2.761693 -22.854603
-3.6948745 -3.6948757 -22.696859
-3.707912 -4.6348915 -22.533897
-3.7230644 -5.5845957 -22.344488
-3.7453678 -6.5543942 -22.065697
-3.767951 -7.5359035 -21.783403
-3.7961295 -8.5412912 -21.431179
-3.8336279 -9.5840721 -20.962446
-3.8718865 -10.647688 -20.484213
-3.9237189 -11.771155 -19.836311
-3.9803641 -12.936185 -19.128244
-4.0530758 -14.185767 -18.219349
-4.137104 -15.514143 -17.168991
-4.2584558 -17.033823 -15.652104
-4.4289203 -18.82291 -13.521291
-3.2733986 18.549259 -14.326148
-3.1627469 16.867981 -16.170347
-3.0806315 15.403155 -17.538939
-3.0182824 14.085318 -18.578091
-2.9712992 12.875629 -19.361143
-2.9269004 11.7076 -20.101122
-2.8937144 10.610285 -20.654226
-2.8630881 9.5436249 -21.164665
-2.8380418 8.514123 -21.5821
-2.8177898 7.5141044 -21.91963
-2.798774 6.5304718 -22.236563
-2.7841334 5.5682659 -22.480572
-2.7728593 4.6214294 -22.668476
-2.7618337 3.6824465 -22.852236
-2.7546551 2.7546549 -22.971878
-2.7504802 1.8336525 -23.041458
-2.7463961 0.9154644 -23.109528
-2.7448578 -0 -23.135164
-2.7474747 -0.91582298 -23.091553
-2.750206 -1.8334732 -23.04603
-2.7542307 -2.7542295 -22.978951
-2.76385 -3.6851349 -22.818632
-2.7736795 -4.6227999 -22.654804
-2.7843022 -5.5686054 -22.477758
-2.8012993 -6.5363665 -22.194473
-2.8203416 -7.5209126 -21.877102
-2.8417087 -8.5251293 -21.520985
-2.8694615 -9.5648746 -21.058437
-2.8980401 -10.626147 -20.582132
-2.9354343 -11.741738 -19.958889
-2.9775486 -12.902711 -19.256983
-3.0300093 -14.140041 -18.382641
-3.0923734 -15.461867 -17.343243
-3.1779358 -16.94899 -15.917199
-3.2968273 -18.682024 -13.935673
-3.5459318 -21.275589 -9.7839336
-2.1701331 18.446131 -14.629469
-2.0996118 16.796896 -16.392502
-2.0470464 15.352847 -17.706638
-2.0077755 14.05443 -18.688402
-1.976359 12.846334 -19.473818
-1.9466933 11.680159 -20.215464
-1.9256971 10.591331 -20.740368
-1.9063227 9.5316133 -21.224728
-1.8893287 8.501976 -21.64958
-1.8756145 7.5024552 -21.992435
-1.8621463 6.5175104 -22.32914
-1.8526965 5.5580893 -22.565384
-1.8452183 4.6130447 -22.75234
-1.8377948 3.6755886 -22.937927
-1.8329016 2.7493525 -23.060257
-1.8303632 1.8303633 -23.123714
-1.8278317 0.91391563 -23.187
-1.826732 -2.8610229e-06 -23.214497
-1.8286626 -0.91433239 -23.166227
-1.8306026 -1.8306026 -23.117729
-1.8331259 -2.7496881 -23.054646
-1.8396858 -3.6793728 -22.890652
-1.8462927 -4.6157331 -22.725479
-1.8531499 -5.5594487 -22.554047
-1.8645304 -6.5258579 -22.269535
-1.8771843 -7.5087357 -21.95319
-1.8909494 -8.5092716 -21.60906
-1.9093199 -9.5465984 -21.149799
-1.9281199 -10.60466 -20.679798
-1.9522909 -11.713744 -20.075525
-1.9799705 -12.869808 -19.383537
-2.0137055 -14.095938 -18.540159
-2.0546982 -15.410238 -17.515337
-2.1095829 -16.876665 -16.143221
-2.1867292 -18.587198 -14.214566
-2.3293579 -20.964222 -10.648851
-1.083835 18.425194 -14.691045
-1.0483969 16.774349 -16.462954
-1.0229245 15.343868 -17.736568
-1.0019345 14.027082 -18.78607
-0.987261 12.834394 -19.519743
-0.97323191 11.678781 -20.221203
-0.96228713 10.585159 -20.768436
-0.95208699 9.5208683 -21.278446
-0.94331861 8.4898663 -21.716866
-0.93710268 7.4968185 -22.027662
-0.93108392 6.5175867 -22.328602
-0.92623365 5.5574017 -22.571114
-0.92249274 4.6124592 -22.75816
-0.91891837 3.6756754 -22.936878
-0.91640902 2.7492266 -23.062346
-0.91513997 1.8302794 -23.125799
-0.91391331 0.91391277 -23.18713
-0.91326499 -9.5367432e-07 -23.219547
-0.91423261 -0.91423321 -23.171165
-0.91523099 -1.8304634 -23.121246
-0.91640121 -2.7492056 -23.06274
-0.91967994 -3.6787205 -22.898802
-0.9230113 -4.6150589 -22.732231
-0.9264096 -5.5584579 -22.562319
-0.93199527 -6.5239663 -22.283031
-0.93770611 -7.5016503 -21.997494
-0.94390798 -8.4951725 -21.687399
-0.95331669 -9.5331669 -21.216965
-0.96291196 -10.592033 -20.737198
-0.97491527 -11.698984 -20.137032
-0.98902076 -12.857271 -19.431757
-1.0057609 -14.080651 -18.594753
-1.0266052 -15.399079 -17.552534
-1.0542008 -16.867212 -16.172762
-1.0914772 -18.555113 -14.308941
-1.1614634 -20.90634 -10.809629
0 18.428423 -14.681553
0 16.78031 -16.444332
0 15.357727 -17.690361
0 14.045318 -18.720949
0 12.838449 -19.504141
0 11.677441 -20.226793
0 10.581869 -20.783394
0 9.5241365 -21.262104
0 8.4946232 -21.690445
0 7.4974747 -22.023567
0 6.517664 -22.328064
0 5.5566959 -22.576979
0 4.6125565 -22.757229
0 3.6760178 -22.932549
0 2.7491112 -23.064301
0 1.8302708 -23.126057
0 0.91393566 -23.185963
0 9.5367432e-07 -23.224472
0 -0.91415596 -23.174931
0 -1.83039 -23.123066
0 -2.7487183 -23.070824
0 -3.6781521 -22.905897
0 -4.6145678 -22.737127
0 -5.5578661 -22.567249
0 -6.5224366 -22.293961
0 -7.5048399 -21.977539
0 -8.503727 -21.639872
0 -9.5423527 -21.17103
0 -10.602345 -20.690334
0 -11.709128 -20.094765
0 -12.867949 -19.390692
0 -14.090735 -18.558739
0 -15.40906 -17.51927
0 -16.873238 -16.153934
0 -18.553349 -14.314126
0 -20.896465 -10.83707
1.0883654 18.502211 -14.464522
1.0507108 16.811371 -16.347261
1.0259246 15.388865 -17.586571
1.0045459 14.063643 -18.6555
0.98859543 12.851741 -19.453024
0.97446662 11.693598 -20.159466
0.96319443 10.595139 -20.723074
0.95367259 9.536726 -21.199165
0.94496107 8.5046511 -21.634737
0.93828297 7.5062633 -21.968651
0.93169844 6.5218849 -22.297873
0.92662567 5.5597544 -22.551514
0.923006 4.6150293 -22.732494
0.9194119 3.6776485 -22.912199
0.91664922 2.7499447 -23.050339
0.91547316 1.8309469 -23.109138
0.91430014 0.91429806 -23.167788
0.91346192 -9.5367432e-07 -23.209698
0.91454703 -0.91454792 -23.155445
0.91563463 -1.8312721 -23.101065
0.91673273 -2.7502003 -23.046158
0.92006379 -3.6802559 -22.879606
0.92351723 -4.6175852 -22.706938
0.92700201 -5.5620112 -22.532696
0.93263537 -6.52845 -22.251026
0.93911254 -7.5129008 -21.92717
0.94581372 -8.5123253 -21.59211
0.95520395 -9.5520411 -21.122601
0.96478832 -10.612673 -20.643379
0.97663718 -11.719646 -20.050936
0.99069834 -12.879078 -19.347879
1.0072119 -14.100969 -18.522198
1.0279858 -15.419786 -17.483505
1.0559578 -16.895327 -16.084902
1.0947183 -18.610212 -14.146879
1.171087 -21.079567 -10.328447
2.1879556 18.597622 -14.183904
2.1102955 16.882362 -16.125408
2.0578055 15.433539 -17.437658
2.0151241 14.105865 -18.5047
1.9823548 12.885303 -19.323929
1.9542766 11.725657 -20.025883
1.9313136 10.622223 -20.599958
1.9108616 9.5543041 -21.111258
1.8921556 8.514698 -21.578905
1.8799642 7.5198541 -21.883694
1.867945 6.5378056 -22.184174
1.8577014 5.573102 -22.44026
1.8504275 4.6260672 -22.622108
1.8432789 3.6865559 -22.800823
1.8376741 2.7565107 -22.940943
1.8353108 1.8353081 -23.000027
1.8329693 0.91648674 -23.058559
1.8312329 -1.9073486e-06 -23.101974
1.8334132 -0.91670895 -23.047466
1.8356092 -1.8356104 -22.992569
1.8378474 -2.756773 -22.936615
1.8444885 -3.6889791 -22.770586
1.8514334 -4.6285849 -22.596958
1.8584793 -5.5754361 -22.420816
1.8696214 -6.5436754 -22.142262
1.8814368 -7.5257487 -21.846876
1.8936477 -8.5214138 -21.541607
1.9131163 -9.5655832 -21.054888
1.9329956 -10.631477 -20.557909
1.9575516 -11.745309 -19.944008
1.9868401 -12.914462 -19.211794
2.0215416 -14.150793 -18.344257
2.0650482 -15.487863 -17.256596
2.1234887 -16.987909 -15.795579
2.2036414 -18.730953 -13.791764
2.3723013 -21.350712 -9.575263
3.3127434 18.772211 -13.670405
3.1829019 16.975475 -15.834434
3.1023598 15.511799 -17.1768
3.0369 14.172197 -18.267796
2.9859564 12.939144 -19.116856
2.940038 11.760151 -19.882164
2.9049022 10.651304 -20.467762
2.8758719 9.5862389 -20.951599
2.8484914 8.5454741 -21.40794
2.8279748 7.5412645 -21.749884
2.8089361 6.5541821 -22.067194
2.7932596 5.5865192 -22.328466
2.7824166 4.6373615 -22.50919
2.7717526 3.6956682 -22.686918
2.7631063 2.7631063 -22.831028
2.7595761 1.839716 -22.889862
2.756094 0.91869831 -22.947895
2.7533433 -2.8610229e-06 -22.993744
2.756645 -0.91888428 -22.938717
2.7600019 -1.8400021 -22.882761
2.7633753 -2.7633743 -22.826542
2.7733133 -3.6977501 -22.66091
2.7838526 -4.6397552 -22.485252
2.7944725 -5.588943 -22.308254
2.8112507 -6.5595875 -22.028616
2.8307359 -7.5486307 -21.703865
2.8517728 -8.5553198 -21.353251
2.8812101 -9.6040344 -20.862629
2.9112616 -10.674624 -20.361774
2.9489372 -11.79575 -19.733843
2.9932604 -12.970797 -18.995123
3.0466845 -14.21786 -18.104721
3.1125712 -15.562854 -17.006611
3.2026775 -17.080948 -15.504836
3.33636 -18.906042 -13.276796
4.4647264 18.975086 -13.073715
4.2830949 17.132376 -15.344114
4.1653228 15.619958 -16.816261
4.0708275 14.247892 -17.997456
4.0006762 13.002194 -18.874346
3.941282 11.823843 -19.616772
3.8916445 10.702021 -20.237238
3.8498971 9.6247406 -20.759085
3.8127584 8.5787048 -21.223316
3.7851906 7.5703788 -21.567917
3.7580295 6.5765495 -21.907429
3.7360089 5.6040106 -22.182682
3.7211275 4.6514091 -22.368704
3.7063637 3.7063646 -22.553249
3.6941853 2.7706385 -22.705481
3.6893575 1.8446779 -22.765825
3.6845319 0.92113209 -22.826147
3.6805813 -9.5367432e-07 -22.87553
3.6852279 -0.92130756 -22.817448
3.6898863 -1.8449459 -22.759216
3.6945565 -2.7709169 -22.700836
3.7083709 -3.7083721 -22.528158
3.7229891 -4.653739 -22.345428
3.7377229 -5.606586 -22.161259
3.7617414 -6.5830483 -21.861032
3.7889113 -7.5778232 -21.521402
3.8175526 -8.5894938 -21.163391
3.8571181 -9.6427975 -20.668819
3.8975124 -10.718161 -20.163893
3.9488626 -11.846589 -19.522015
4.0084991 -13.027625 -18.776554
4.0815921 -14.285574 -17.862896
4.1757808 -15.659178 -16.685537
4.3096647 -17.238659 -15.011984
4.5067415 -19.153652 -12.54853
5.6849542 19.328842 -12.033253
5.4089375 17.308599 -14.79342
5.2493887 15.748162 -16.388908
5.1312256 14.367433 -17.570536
5.0358233 13.093141 -18.524563
4.955719 11.893724 -19.325605
4.8923168 10.763094 -19.959631
4.837821 9.675642 -20.504585
4.7869172 8.6164503 -21.013624
4.753727 7.6059628 -21.345524
4.7219496 6.6107273 -21.6633
4.6940012 5.6328001 -21.942785
4.674787 4.6747885 -22.134926
4.6561332 3.724906 -22.321465
4.6407981 2.7844753 -22.474815
4.6345696 1.8538284 -22.537102
4.6284904 0.92569733 -22.597893
4.6237426 9.5367432e-07 -22.645369
4.6295028 -0.92590141 -22.587769
4.6353836 -1.8541536 -22.528957
4.6412797 -2.78477 -22.469997
4.659059 -3.7272482 -22.292208
4.6774912 -4.6774921 -22.107885
4.6960974 -5.6353149 -21.921825
4.7263045 -6.6168275 -21.619751
4.757606 -7.6121712 -21.306736
4.7923775 -8.6262808 -20.959021
4.8444767 -9.6889553 -20.438025
4.897737 -10.775023 -19.905428
4.9676218 -11.922294 -19.206581
5.0471802 -13.122668 -18.410995
5.1492882 -14.418009 -17.389917
5.2700539 -15.810163 -16.182257
5.450675 -17.44216 -14.376045
5.7529612 -19.560068 -11.353186
7.0573645 19.995863 -10.071426
6.6099057 17.626415 -13.800248
6.3713903 15.928477 -15.78787
6.2111459 14.492674 -17.123249
6.0924854 13.200383 -18.112087
5.9923358 11.984671 -18.946665
5.9084859 10.832224 -19.645414
5.8450475 9.741745 -20.174068
5.7839961 8.6759939 -20.682827
5.739264 7.6523514 -21.055595
5.6959243 6.6452446 -21.416759
5.6618867 5.6618834 -21.700407
5.6385913 4.6988249 -21.894535
5.6154704 3.7436457 -22.087208
5.5969315 2.7984667 -22.241699
5.5893817 1.8631287 -22.304615
5.5818524 0.93030643 -22.367361
5.5763879 -1.9073486e-06 -22.412899
5.5833697 -0.93056297 -22.354717
5.5903687 -1.8634577 -22.296389
5.5974989 -2.7987509 -22.236969
5.6195726 -3.7463808 -22.053028
5.64182 -4.701519 -21.867628
5.6643448 -5.6643438 -21.679926
5.7016931 -6.6519775 -21.368689
5.7447963 -7.65973 -21.009495
5.7929502 -8.6894226 -20.608215
5.8563929 -9.7606564 -20.079521
5.9217677 -10.856575 -19.534733
6.0099607 -12.019923 -18.799791
6.1074772 -13.232868 -17.987152
6.2374892 -14.554142 -16.903719
6.3912778 -15.978195 -15.622149
6.6412101 -17.709894 -13.53938
7.2801523 -20.6271 -8.21486
7.8901677 18.034664 -12.524462
7.5447173 16.167252 -14.991957
7.3343821 14.668763 -16.494354
7.1824565 13.338844 -17.579538
7.0578833 12.099228 -18.469343
6.9569468 10.932344 -19.190319
6.8717651 9.8168068 -19.798759
6.7949305 8.7363396 -20.347572
6.7420177 7.7051616 -20.725525
6.6924067 6.6924038 -21.079895
6.648716 5.6988974 -21.391964
6.6195869 4.7282734 -21.600033
6.5911365 3.7663612 -21.803249
6.5678849 2.8148088 -21.969334
6.5581145 1.8737459 -22.039122
6.5483923 0.93548298 -22.108566
6.5414515 -0 -22.158138
6.5498772 -0.93569851 -22.097958
6.5583243 -1.873807 -22.037621
6.5675783 -2.8146763 -21.971521
6.5948024 -3.7684603 -21.777065
6.6223311 -4.730237 -21.580433
6.6512485 -5.7010698 -21.373877
6.6979585 -6.6979604 -21.040237
6.749269 -7.7134514 -20.673731
6.808279 -8.7535028 -20.252234
6.883944 -9.8342075 -19.711763
6.9614401 -10.939406 -19.158226
7.0699992 -12.119997 -18.382799
7.1927757 -13.358013 -17.505827
7.3704958 -14.74099 -16.236397
7.5935454 -16.271883 -14.643185
7.9440889 -18.157919 -12.139302
9.3408918 18.681782 -10.502224
8.7930107 16.486895 -13.926478
8.509676 14.891931 -15.69732
8.3158464 13.513247 -16.908758
8.1558132 12.233723 -17.908958
8.0273972 11.037667 -18.711565
7.9307132 9.9133892 -19.315838
7.8375235 8.8172159 -19.898272
7.7694082 7.7694063 -20.323996
7.7120872 6.748076 -20.682255
7.6616888 5.7462654 -20.997242
7.626194 4.7663717 -21.219082
7.5925498 3.7962742 -21.429359
7.5663543 2.8373823 -21.593082
7.5544324 1.888608 -21.667597
7.5430779 0.94288445 -21.73856
7.5363216 -9.5367432e-07 -21.780788
7.5454655 -0.9431839 -21.723637
7.5552082 -1.8888035 -21.662748
7.5678 -2.8379288 -21.584049
7.5989141 -3.7994576 -21.389582
7.6307149 -4.769197 -21.190826
7.6665707 -5.7499304 -20.966728
7.7204356 -6.755383 -20.630072
7.7750626 -7.7750649 -20.288656
7.8507166 -8.832058 -19.815823
7.9439025 -9.9298773 -19.233406
8.042819 -11.058875 -18.615177
8.1833963 -12.275094 -17.736572
8.3368225 -13.54734 -16.777651
8.5555716 -14.972249 -15.410474
8.85711 -16.60708 -13.525861
9.5263891 -19.052776 -9.3428688
10.190543 16.984236 -12.26867
9.7685299 15.195488 -14.613186
9.497201 13.71818 -16.120564
9.3066006 12.4088 -17.179461
9.1495819 11.182821 -18.051786
9.0189543 10.021061 -18.777491
8.9106073 8.9106064 -19.379423
8.8323784 7.8510017 -19.814026
8.7555122 6.8098392 -20.241062
8.6916676 5.7944436 -20.595757
8.6510401 4.8061314 -20.821465
8.6107903 3.8270149 -21.045074
8.5809937 2.8603296 -21.210609
8.567338 1.9038515 -21.28647
8.5537519 0.95041561 -21.361954
8.5473909 -9.5367432e-07 -21.397293
8.5578461 -0.95087337 -21.339207
8.5683022 -1.904067 -21.28112
8.5846567 -2.8615522 -21.19026
8.6202459 -3.8312216 -20.992538
8.6561327 -4.8089623 -20.793165
8.6994724 -5.7996488 -20.552395
8.7686853 -6.8200922 -20.167873
8.8410597 -7.8587217 -19.765795
8.9335833 -8.9335842 -19.25178
9.0419569 -10.046618 -18.6497
9.1653023 -11.202036 -17.964445
9.3301334 -12.440181 -17.048717
9.5288839 -13.763943 -15.944558
9.8210955 -15.27726 -14.321153
10.297895 -17.163162 -11.672262
11.155819 15.618143 -13.103704
10.771998 14.003597 -15.022802
10.506524 12.607826 -16.35018
10.313395 11.344732 -17.315826
10.165625 10.165625 -18.054676
10.0249 9.0224085 -18.758291
9.9281321 7.9425049 -19.242134
9.8437109 6.890595 -19.66424
9.7710571 5.8626323 -20.027512
9.7185059 4.8592544 -20.29027
9.6703501 3.8681393 -20.531044
9.6345968 2.890379 -20.709812
9.6161718 1.923234 -20.801935
9.5984764 0.95984745 -20.890411
9.5912962 -0 -20.926315
9.6028013 -0.96028042 -20.86879
9.614707 -1.9229431 -20.809259
9.6364145 -2.8909254 -20.700726
9.6788721 -3.8715491 -20.488436
9.7221756 -4.8610916 -20.271919
9.7788649 -5.8673186 -19.98847
9.853446 -6.8974147 -19.615562
9.930583 -7.9444675 -19.229881
10.042952 -9.0386562 -18.668039
10.176071 -10.176073 -18.002441
10.344589 -11.379051 -17.159847
10.554626 -12.665553 -16.109665
10.837365 -14.088576 -14.695971
11.230249 -15.722347 -12.731548
12.926927 16.45245 -10.124043
12.188128 14.40415 -13.482219
11.818186 12.892565 -15.163768
11.570208 11.570208 -16.290945
11.363488 10.330442 -17.230577
11.197289 9.1614161 -17.986029
11.07999 8.0581741 -18.519203
10.965158 6.9778285 -19.041172
10.881034 5.9351087 -19.42355
10.820272 4.9183059 -19.699743
10.761035 3.913105 -19.969
10.723387 2.9245567 -20.140133
10.701538 1.9457331 -20.239445
10.680713 0.97097301 -20.334106
10.676235 -9.5367432e-07 -20.354458
10.688 -0.97163773 -20.300978
10.700729 -1.9455881 -20.243122
10.729951 -2.9263487 -20.110291
10.776759 -3.9188218 -19.897526
10.824705 -4.92032 -19.679592
10.894463 -5.9424362 -19.362514
10.985744 -6.9909291 -18.947596
11.08634 -8.0627947 -18.490339
11.233816 -9.1913061 -17.819992
11.389189 -10.353807 -17.113756
11.603772 -11.603773 -16.138378
11.848842 -12.92601 -15.024428
12.2849 -14.518518 -13.042342
13.116985 -16.694347 -9.2601376
13.981764 15.146907 -10.625448
13.288956 13.288956 -13.512149
12.911835 11.835848 -15.083485
12.664305 10.553585 -16.114859
12.446834 9.335125 -17.020988
12.290291 8.1935263 -17.673252
12.16252 7.0948029 -18.205629
12.057261 6.0286307 -18.644211
11.978649 4.9911032 -18.97176
11.906413 3.9688053 -19.272743
11.858592 2.9646454 -19.471996
11.829206 1.9715328 -19.594437
11.79993 0.98332596 -19.716421
11.795641 -4.7683716e-06 -19.734293
11.808409 -0.98403549 -19.681095
11.821204 -1.9702034 -19.627779
11.861105 -2.9652748 -19.461525
11.918024 -3.9726763 -19.224365
11.975454 -4.9897733 -18.985069
12.068377 -6.0341887 -18.597897
12.173447 -7.1011786 -18.160105
12.299253 -8.1995029 -17.635902
12.471192 -9.3533955 -16.919497
12.674696 -10.56225 -16.071562
12.981843 -11.900023 -14.79178
13.383363 -13.383366 -13.118782
14.225053 -15.410471 -9.611742
15.225627 14.054423 -10.322697
14.474667 12.24779 -13.211005
14.074735 10.826719 -14.7492
13.791483 9.5479488 -15.838631
13.604032 8.3717098 -16.559603
13.421606 7.2270179 -17.261234
13.294301 6.1358299 -17.750872
13.20005 5.0769429 -18.113369
13.110537 4.034009 -18.457653
13.062766 3.0144863 -18.641384
13.026325 2.0040483 -18.781548
12.992949 0.99945736 -18.909912
12.994604 1.9073486e-06 -18.903549
13.005713 -1.0004406 -18.860823
13.020041 -2.0030832 -18.805714
13.073911 -3.0170593 -18.598526
13.135029 -4.0415483 -18.363459
13.203216 -5.0781608 -18.101192
13.316346 -6.1460075 -17.666082
13.452723 -7.2437744 -17.141556
13.633022 -8.3895512 -16.448093
13.853086 -9.590601 -15.601693
14.138662 -10.875893 -14.50333
14.547192 -12.309163 -12.932057
15.384747 -14.201305 -9.7106924
15.790788 11.279135 -12.487126
15.343907 9.8639374 -14.083131
15.060736 8.6061335 -15.09446
14.81603 7.4080133 -15.968405
14.659361 6.2825823 -16.527935
14.526175 5.1879182 -17.003597
14.411919 4.117691 -17.411661
14.349312 3.0748525 -17.635254
14.29831 2.0426149 -17.8174
14.24767 1.0176888 -17.998259
14.255289 -0 -17.971052
14.265625 -1.0189753 -17.934135
14.281858 -2.0402637 -17.87616
14.355988 -3.076283 -17.611414
14.432278 -4.1235089 -17.338947
14.533719 -5.1906157 -16.976656
14.675309 -6.2894177 -16.470982
14.820074 -7.4100361 -15.95396
15.093782 -8.6250172 -14.976432
15.396656 -9.89785 -13.894739
15.909385 -11.363846 -12.063564
17.412022 10.447213 -10.842722
16.798071 8.9589691 -12.889228
16.412624 7.6592245 -14.174049
16.18042 6.4721675 -14.948061
15.994393 5.3314614 -15.568153
15.830122 4.221364 -16.115723
15.745187 3.1490369 -16.398838
15.680082 2.0906758 -16.615852
15.637265 1.0424852 -16.758579
15.643193 -1.9073486e-06 -16.738817
15.649584 -1.0433078 -16.717516
15.689868 -2.0919828 -16.583239
15.769103 -3.1538205 -16.319115
15.849404 -4.2265091 -16.051449
16.008024 -5.3360114 -15.522717
16.206984 -6.4827938 -14.85952
16.464067 -7.6832318 -14.002577
16.82987 -8.9759331 -12.783224
17.564644 -10.538786 -10.333985
18.544596 8.1132603 -10.930932
18.067764 6.7754107 -12.421034
17.734474 5.5420232 -13.462564
17.492882 4.3732181 -14.217541
17.375065 3.2578225 -14.585716
17.268085 2.1585102 -14.92003
17.225685 1.0766044 -15.052534
17.214802 -2.3841858e-06 -15.086548
17.216238 -1.0760179 -15.082047
17.297438 -2.1621804 -14.828304
17.394199 -3.2614117 -14.525923
17.530462 -4.382616 -14.100104
17.780157 -5.5562973 -13.319807
18.094938 -6.7856026 -12.336111
18.691481 -8.1775255 -10.47192
19.910072 4.684721 -10.323757
19.495457 3.4403734 -11.543219
19.255171 2.2653131 -12.249941
19.202524 1.1295595 -12.404783
19.156132 -2.3841858e-06 -12.541233
19.201378 -1.1294918 -12.408152
19.322975 -2.273293 -12.05052
19.465284 -3.4350507 -11.631964
19.928349 -4.689024 -10.27001
