# .PCD v0.7 - Point Cloud Data file format
VERSION 0.7
FIELDS x y z
SIZE 4 4 4
TYPE F F F
COUNT 1 1 1
WIDTH 1077
HEIGHT 1
VIEWPOINT 0 0 0 1 0 0 0
POINTS 1077
DATA ascii
-22.238514 2.3408923 -10.360394
-21.886841 1.1519361 -11.285849
-21.931509 4.7683716e-07 -11.168305
-21.976437 -1.1566544 -11.050072
-22.286497 -2.3459466 -10.23412
-20.70903 6.9030094 -11.357709
-20.184164 5.6067114 -12.815675
-19.843506 4.409667 -13.761949
-19.675549 3.2792559 -14.228491
-19.534359 2.1704841 -14.620687
-19.452103 1.0806732 -14.84918
-19.43507 -9.5367432e-07 -14.89649
-19.422102 -1.0790071 -14.932514
-19.518364 -2.1687102 -14.665115
-19.663326 -3.2772212 -14.262442
-19.856634 -4.4125881 -13.725481
-20.258421 -5.6273394 -12.609404
-20.769768 -6.9232564 -11.188995
-19.292244 9.0787029 -12.140903
-18.712309 7.7050676 -13.846597
-18.382912 6.4880843 -14.81541
-18.14971 5.338151 -15.501297
-17.966373 4.2273812 -16.040516
-17.861032 3.1519442 -16.350348
-17.7677 2.0903163 -16.624847
-17.716953 1.042171 -16.774109
-17.706175 -1.9073486e-06 -16.805813
-17.695465 -1.0409098 -16.837313
-17.76055 -2.0894766 -16.645887
-17.858292 -3.1514659 -16.358406
-17.962303 -4.2264247 -16.052488
-18.184093 -5.3482647 -15.400167
-18.431776 -6.505331 -14.67169
-18.782524 -7.733983 -13.640079
-19.351269 -9.1064777 -11.967297
-18.340952 11.463095 -11.567319
-17.61062 9.9059753 -13.849607
-17.236294 8.618145 -15.019377
-16.913252 7.3995485 -16.028889
-16.709572 6.2660894 -16.66538
-16.542624 5.169569 -17.187103
-16.414898 4.1037221 -17.586243
-16.33963 3.0636787 -17.821453
-16.264999 2.0331249 -18.054676
-16.228653 1.0142899 -18.168253
-16.232491 -1.9073486e-06 -18.156261
-16.241655 -1.0151024 -18.127623
-16.28743 -2.0359287 -17.984577
-16.35598 -3.0667453 -17.770363
-16.437954 -4.1094899 -17.514187
-16.581509 -5.1817226 -17.065577
-16.751921 -6.2819719 -16.533045
-16.956806 -7.4186001 -15.89278
-17.262066 -8.6310329 -14.938844
-17.673603 -9.9414043 -13.652782
-18.495371 -11.559609 -11.084759
-16.808481 12.326222 -12.854521
-16.266893 10.844593 -14.659819
-15.904232 9.5425406 -15.868689
-15.652729 8.3481197 -16.707031
-15.433246 7.202179 -17.438646
-15.288131 6.1152525 -17.922359
-15.159942 5.0533113 -18.349655
-15.057191 4.0152488 -18.692162
-14.995684 2.999135 -18.897186
-14.939022 1.991869 -19.086056
-14.909032 0.99393368 -19.186024
-14.901945 -9.5367432e-07 -19.209648
-14.907053 -0.99380493 -19.192623
-14.940548 -1.992075 -19.080971
-15.001369 -3.0002761 -18.878233
-15.062922 -4.016778 -18.673056
-15.166849 -5.0556178 -18.326633
-15.297482 -6.1189942 -17.891193
-15.433936 -7.2025018 -17.436342
-15.676772 -8.3609438 -16.626884
-15.944312 -9.5665894 -15.735089
-16.328739 -10.885825 -14.453667
-16.891705 -12.38725 -12.577111
-15.568765 13.344655 -13.280064
-15.053539 11.827777 -15.120159
-14.716389 10.511705 -16.324268
-14.456542 9.2934885 -17.252291
-14.254793 8.1455936 -17.972824
-14.092147 7.046073 -18.553701
-13.982942 5.9926896 -18.943722
-13.876013 4.9557195 -19.325607
-13.800445 3.9429846 -19.595493
-13.748773 2.946166 -19.780037
-13.69911 1.9570141 -19.957399
-13.676531 0.97689342 -20.038044
-13.673045 -0 -20.050491
-13.679189 -0.97708321 -20.028551
-13.708364 -1.9583397 -19.924353
-13.755488 -2.9476032 -19.75605
-13.806237 -3.9446392 -19.574802
-13.893599 -4.961998 -19.262798
-14.000233 -6.000102 -18.881964
-14.117846 -7.0589218 -18.461922
-14.294636 -8.1683645 -17.830528
-14.493046 -9.3169594 -17.121916
-14.742005 -10.530004 -16.23278
-15.104104 -11.867513 -14.939567
-15.676726 -13.437193 -12.894487
-14.442339 14.442336 -13.335341
-13.920151 12.849366 -15.343756
-13.607793 11.514284 -16.545134
-13.346848 10.266804 -17.548767
-13.163917 9.1134815 -18.252346
-13.005591 8.0034409 -18.861288
-12.872025 6.9310894 -19.375008
-12.776698 5.8969369 -19.741648
-12.68762 4.8798518 -20.084257
-12.622278 3.8837776 -20.335571
-12.57996 2.9030685 -20.498331
-12.539918 1.9292164 -20.652348
-12.520328 0.96310043 -20.727688
-12.515234 -9.5367432e-07 -20.74728
-12.517444 -0.96288109 -20.738781
-12.540105 -1.9292459 -20.651627
-12.583063 -2.9037867 -20.486399
-12.626583 -3.8851013 -20.319012
-12.692817 -4.8818531 -20.064274
-12.783881 -5.9002519 -19.71402
-12.876224 -6.9333544 -19.358858
-13.012306 -8.0075741 -18.835461
-13.17262 -9.1195068 -18.218874
-13.374411 -10.288008 -17.442755
-13.635556 -11.537779 -16.438353
-13.989177 -12.913085 -15.078271
-14.509455 -14.509455 -13.077204
-13.41423 15.649935 -12.99017
-12.889984 13.964146 -15.174528
-12.529943 12.529943 -16.6747
-12.299489 11.274529 -17.634926
-12.088207 10.073505 -18.515263
-11.941905 8.9564276 -19.124859
-11.809709 7.8731389 -19.675676
-11.705189 6.8280272 -20.111176
-11.627166 5.8135815 -20.436277
-11.550347 4.812644 -20.756351
-11.499993 3.8333302 -20.966156
-11.462822 2.8657045 -21.121038
-11.42589 1.9043121 -21.274923
-11.410428 0.9508667 -21.339348
-11.413429 9.5367432e-07 -21.326841
-11.41785 -0.95148849 -21.308422
-11.437734 -1.906291 -21.225574
-11.471777 -2.8679476 -21.083729
-11.509007 -3.836338 -20.9286
-11.566571 -4.8194051 -20.688749
-11.642062 -5.8210311 -20.374203
-11.723702 -6.8388247 -20.034039
-11.837219 -7.8914766 -19.56105
-11.969776 -8.9773312 -19.008732
-12.119961 -10.099966 -18.382957
-12.329528 -11.30207 -17.509762
-12.572366 -12.572367 -16.497938
-12.940258 -14.018615 -14.965054
-13.489951 -15.738277 -12.674664
-12.448319 16.974979 -12.299525
-11.879658 15.119562 -14.884355
-11.530787 13.627293 -16.470123
-11.28125 12.306817 -17.604385
-11.088771 11.088772 -18.479294
-10.924451 9.9313173 -19.226202
-10.807521 8.8425159 -19.757702
-10.696849 7.7795248 -20.260757
-10.608441 6.7508254 -20.662609
-10.539495 5.7488127 -20.976002
-10.475498 4.7615891 -21.266895
-10.431727 3.7933578 -21.465855
-10.399336 2.8361835 -21.613087
-10.369909 1.885437 -21.746845
-10.35644 0.94149399 -21.808069
-10.352805 1.9073486e-06 -21.824589
-10.349143 -0.94083023 -21.841236
-10.364262 -1.8844137 -21.772514
-10.395793 -2.8352165 -21.62919
-10.427486 -3.7918129 -21.48513
-10.47398 -4.7608991 -21.273798
-10.539746 -5.7489552 -20.974859
-10.606312 -6.7494726 -20.672283
-10.699888 -7.7817369 -20.246943
-10.814454 -8.8481884 -19.726185
-10.937039 -9.9427652 -19.16898
-11.111987 -11.111987 -18.373768
-11.298893 -12.326067 -17.524193
-11.580579 -13.68614 -16.243803
-11.925238 -15.177575 -14.67717
-12.564249 -17.13307 -11.772569
-11.773462 18.837538 -10.015488
-10.94912 16.423679 -14.137196
-10.551027 14.771437 -16.127659
-10.306755 13.39878 -17.349016
-10.096133 12.115361 -18.402128
-9.9466352 10.9413 -19.149618
-9.8086395 9.8086395 -19.839598
-9.7086248 8.7377605 -20.33967
-9.6122093 7.6897664 -20.821751
-9.5378284 6.6764774 -21.193653
-9.480176 5.6881027 -21.481918
-9.4232426 4.7116213 -21.766582
-9.3873177 3.7549238 -21.946209
-9.3609409 2.8082819 -22.078087
-9.3346853 1.8669367 -22.20937
-9.3234634 0.93234348 -22.265484
-9.3267326 9.5367432e-07 -22.249134
-9.3299761 -0.93300056 -22.23291
-9.3440628 -1.8688107 -22.162479
-9.369935 -2.8109818 -22.033119
-9.3982553 -3.7593012 -21.891518
-9.4377232 -4.7188606 -21.69418
-9.4932909 -5.6959763 -21.416342
-9.5527201 -6.6869054 -21.119198
-9.6292925 -7.7034345 -20.736336
-9.724144 -8.75173 -20.262079
-9.8230104 -9.8230114 -19.767746
-9.9641581 -10.960575 -19.062008
-10.123987 -12.148783 -18.262861
-10.327791 -13.426129 -17.243839
-10.594061 -14.831686 -15.912491
-10.989649 -16.484474 -13.934546
-10.05027 17.867146 -13.047962
-9.6107101 16.017849 -15.489964
-9.3474178 14.540425 -16.952702
-9.1388426 13.20055 -18.111446
-8.9818697 11.975823 -18.983521
-8.8497581 10.816371 -19.717474
-8.7387648 9.7097378 -20.334105
-8.6552534 8.6552544 -20.798056
-8.5747194 7.6219711 -21.245464
-8.5147257 6.6225643 -21.578766
-8.4644871 5.642992 -21.85787
-8.4165974 4.6758871 -22.123922
-8.3864031 3.7272902 -22.291668
-8.3621435 2.7873802 -22.426449
-8.3392944 1.8531752 -22.553383
-8.3298216 0.92553329 -22.60601
-8.3270674 -0 -22.621309
-8.3294144 -0.92549133 -22.608273
-8.3416491 -1.8537025 -22.540306
-8.3640499 -2.7880192 -22.415848
-8.3865967 -3.7273788 -22.290588
-8.420537 -4.6780739 -22.102037
-8.4691391 -5.6460929 -21.832022
-8.5184565 -6.6254663 -21.558039
-8.5842743 -7.6304679 -21.192381
-8.6655855 -8.6655855 -20.740658
-8.7508831 -9.7232046 -20.266777
-8.8679934 -10.83866 -19.616163
-8.9960413 -11.994723 -18.904791
-9.1686974 -13.243675 -17.945587
-9.3676414 -14.571886 -16.840342
-9.6548233 -16.091372 -15.244885
-10.139068 -18.025007 -12.554643
-9.3371992 19.841549 -10.525302
-8.7142029 17.428402 -14.419033
-8.4045887 15.758602 -16.354122
-8.1968136 14.344423 -17.65271
-8.0353642 13.057467 -18.661772
-7.9027429 11.854113 -19.490654
-7.7964411 10.720105 -20.155041
-7.7042174 9.6302719 -20.731434
-7.6323662 8.5864134 -21.180506
-7.5638871 7.5638852 -21.608505
-7.5126152 6.5735359 -21.928947
-7.4703708 5.6027784 -22.192982
-7.4292412 4.6432743 -22.450043
-7.4033914 3.7016945 -22.611599
-7.3835821 2.7688427 -22.735405
-7.3645525 1.841136 -22.854342
-7.3563886 0.91954708 -22.905373
-7.3539715 -1.9073486e-06 -22.920471
-7.3528585 -0.91910839 -22.927429
-7.3629098 -1.8407269 -22.864607
-7.3833914 -2.7687721 -22.736601
-7.4039664 -3.7019835 -22.608006
-7.4313426 -4.6445923 -22.436907
-7.4732542 -5.6049438 -22.174957
-7.5159707 -6.5764756 -21.907978
-7.5684223 -7.5684237 -21.580154
-7.6375742 -8.5922709 -21.147959
-7.7080235 -9.6350298 -20.707649
-7.8054228 -10.732458 -20.098904
-7.9161558 -11.874235 -19.40682
-8.0474701 -13.077139 -18.586109
-8.2226257 -14.389598 -17.491385
-8.4305401 -15.807263 -16.191923
-8.7610245 -17.522049 -14.126392
-7.8766217 19.128939 -12.621212
-7.4836135 17.105404 -15.428411
-7.2594833 15.556033 -17.029345
-7.1004834 14.200966 -18.165058
-6.9579134 12.92184 -19.183411
-6.8549953 11.751419 -19.918543
-6.7640424 10.62921 -20.568207
-6.6874394 9.5534859 -21.115366
-6.627357 8.5208855 -21.544533
-6.5690341 7.5074644 -21.961126
-6.5278239 6.5278234 -22.255484
-6.4919314 5.5645113 -22.51186
-6.4564309 4.6117353 -22.76543
-6.4355707 3.6774693 -22.914433
-6.4188294 2.7509251 -23.034016
-6.4023752 1.8292494 -23.151546
-6.3973207 0.91390514 -23.187649
-6.3993559 -2.8610229e-06 -23.173111
-6.4013739 -0.91448402 -23.158695
-6.4098806 -1.831398 -23.097939
-6.4260254 -2.7540121 -22.982618
-6.4437442 -3.6821384 -22.856054
-6.4670329 -4.6193104 -22.689703
-6.5017304 -5.5729117 -22.441868
-6.5383005 -6.538301 -22.180651
-6.5828352 -7.5232396 -21.862543
-6.6404066 -8.5376644 -21.451321
-6.7012453 -9.5732079 -21.016756
-6.7796144 -10.65368 -20.45698
-6.8710108 -11.778875 -19.80415
-6.9814386 -12.96553 -19.015377
-7.1139817 -14.227963 -18.068642
-7.2851186 -15.61097 -16.846231
-7.5296125 -17.210546 -15.09985
-7.9430809 -19.290342 -12.146503
-6.6041183 18.711668 -13.848476
-6.3412189 16.909914 -16.039303
-6.1588454 15.397113 -17.559082
-6.0319452 14.074539 -18.616589
-5.9246569 12.836755 -19.510656
-5.8399386 11.679877 -20.21664
-5.7644157 10.568093 -20.846001
-5.7033772 9.5056267 -21.354656
-5.6532836 8.4799252 -21.772099
-5.6053314 7.4737725 -22.171703
-5.5711269 6.4996462 -22.456741
-5.5406265 5.5406265 -22.710911
-5.5116377 4.593029 -22.952484
-5.4943705 3.6629105 -23.096375
-5.4796677 2.7398338 -23.218901
-5.4657855 1.821928 -23.334583
-5.4602213 0.91003513 -23.380951
-5.458539 -1.9073486e-06 -23.394974
-5.4594183 -0.90990353 -23.387642
-5.4665589 -1.8221874 -23.328138
-5.4802585 -2.7401314 -23.213978
-5.4940267 -3.6626844 -23.099239
-5.513164 -4.5943041 -22.939762
-5.5425825 -5.5425816 -22.694609
-5.5723166 -6.5010347 -22.446825
-5.6089621 -7.4786153 -22.141445
-5.6576233 -8.4864359 -21.735935
-5.707305 -9.5121765 -21.321922
-5.7724285 -10.582785 -20.779226
-5.84618 -11.692358 -20.164631
-5.9336505 -12.856243 -19.435709
-6.049614 -14.115767 -18.469343
-6.1787901 -15.446972 -17.392883
-6.3590951 -16.957586 -15.890338
-6.6567092 -18.86068 -13.410213
-5.8435907 21.036926 -10.44689
-5.4268146 18.451168 -14.61465
-5.2320137 16.742445 -16.56266
-5.0980458 15.294136 -17.90234
-4.9952097 13.986586 -18.930702
-4.905561 12.754456 -19.82719
-4.838912 11.613388 -20.493675
-4.7797794 10.515512 -21.085003
-4.7301111 9.4602203 -21.581686
-4.6897602 8.4415703 -21.985193
-4.6504951 7.4407921 -22.377842
-4.6226668 6.4717312 -22.656134
-4.5984783 5.5181742 -22.89801
-4.574646 4.5746441 -23.136337
-4.5605917 3.6484718 -23.276882
-4.5491552 2.7294912 -23.391243
-4.5380068 1.8152027 -23.502731
-4.5334678 0.90669346 -23.548119
-4.5320764 -1.9073486e-06 -23.562035
-4.5313487 -0.90626907 -23.569307
-4.5370598 -1.8148251 -23.512199
-4.5489368 -2.7293634 -23.393429
-4.5608759 -3.6487036 -23.274036
-4.576077 -4.5760765 -23.122025
-4.6003323 -5.5204 -22.879475
-4.6250982 -6.4751353 -22.631817
-4.6540728 -7.4465184 -22.342068
-4.6936588 -8.4485874 -21.946209
-4.7342167 -9.4684324 -21.54063
-4.7853799 -10.527834 -21.028999
-4.8478045 -11.634731 -20.404747
-4.9171481 -12.784589 -19.711313
-5.0038619 -14.010815 -18.844177
-5.1084847 -15.325457 -17.797945
-5.2539482 -16.812634 -16.343315
-5.4594412 -18.562099 -14.288389
-4.5639911 20.537958 -11.832908
-4.3016148 18.28186 -15.112611
-4.1616874 16.646746 -16.86171
-4.0545564 15.204587 -18.200836
-3.9747968 13.911786 -19.19784
-3.905719 12.693584 -20.061308
-3.8547041 11.564112 -20.698996
-3.8063209 10.467381 -21.303783
-3.7677307 9.4193268 -21.786163
-3.7360413 8.4060917 -22.182278
-3.7048814 7.4097605 -22.571781
-3.6836884 6.446456 -22.836693
-3.6642902 5.4964333 -23.07917
-3.6451361 4.5564213 -23.318592
-3.6348028 3.6348028 -23.447758
-3.6259058 2.71943 -23.558971
-3.6170628 1.8085299 -23.669514
-3.6141887 0.90354729 -23.705433
-3.6152749 -1.9073486e-06 -23.69186
-3.6163719 -0.90409374 -23.67815
-3.6208677 -1.8104334 -23.621952
-3.6296477 -2.7222366 -23.512196
-3.6391182 -3.6391211 -23.393816
-3.6511121 -4.5638933 -23.243896
-3.669837 -5.504755 -23.009834
-3.6893153 -6.456305 -22.766354
-3.7121248 -7.4242511 -22.481239
-3.7428851 -8.4214916 -22.096735
-3.7749455 -9.4373646 -21.69598
-3.8148715 -10.490897 -21.196903
-3.8615496 -11.584647 -20.613428
-3.9158056 -12.726368 -19.935223
-3.9841707 -13.9446 -19.080662
-4.0652995 -15.244875 -18.066555
-4.1701403 -16.680559 -16.756046
-4.3225298 -18.370754 -14.851171
-4.6262527 -20.818138 -11.054639
-3.3757305 20.254383 -12.620619
-3.2024438 18.147181 -15.508732
-3.1044245 16.556929 -17.142387
-3.0253093 15.126548 -18.46097
-2.970906 13.864227 -19.367693
-2.921109 12.658139 -20.197645
-2.8833957 11.533583 -20.8262
-2.848567 10.444745 -21.406679
-2.8205972 9.401988 -21.872849
-2.7969174 8.3907509 -22.267506
-2.774142 7.3977118 -22.647099
-2.7584405 6.4363623 -22.908783
-2.7439375 5.4878759 -23.150505
-2.7300179 4.5500298 -23.382496
-2.72209 3.6294498 -23.514629
-2.7150934 2.7150908 -23.631241
-2.7083681 1.8055792 -23.743328
-2.7057645 0.90191936 -23.78672
-2.7049611 -2.8610229e-06 -23.800114
-2.7057798 -0.90192699 -23.786465
-2.7091129 -1.806077 -23.730915
-2.7156661 -2.7156687 -23.621695
-2.7222512 -3.6296701 -23.511944
-2.7310529 -4.551754 -23.365248
-2.7450218 -5.4900436 -23.132433
-2.7591345 -6.4379816 -22.897221
-2.7758009 -7.4021344 -22.61945
-2.7987335 -8.3962002 -22.237238
-2.8220398 -9.4067984 -21.848799
-2.8513937 -10.455111 -21.35957
-2.8859122 -11.543649 -20.784258
-2.9242322 -12.671674 -20.145597
-2.9777417 -13.896129 -19.253769
-3.0375688 -15.187843 -18.256649
-3.1152527 -16.614681 -16.961918
-3.2229908 -18.263617 -15.166281
-3.4130466 -20.478281 -11.998686
-2.2333932 20.10054 -13.047965
-2.1292489 18.098616 -15.651571
-2.0631683 16.505342 -17.303595
-2.0133653 15.100237 -18.548668
-1.9761347 13.832941 -19.479429
-1.9419827 12.622888 -20.333223
-1.9180421 11.508251 -20.931744
-1.8954097 10.424751 -21.497551
-1.876949 9.3847427 -21.959074
-1.8615378 8.3769169 -22.344357
-1.8464515 7.3858042 -22.721508
-1.8360857 6.4262991 -22.980656
-1.8267372 5.4802122 -23.214365
-1.8175349 4.5438366 -23.444426
-1.8122842 3.624567 -23.575689
-1.8078101 2.7117138 -23.687544
-1.8034691 1.8034687 -23.79607
-1.8017374 0.90086842 -23.839359
-1.8011979 -1.9073486e-06 -23.852848
-1.8006587 -0.90032959 -23.866327
-1.8027972 -1.8027992 -23.812868
-1.8073888 -2.7110844 -23.698078
-1.8120036 -3.6240072 -23.582706
-1.8177658 -4.5444164 -23.438648
-1.827204 -5.4816141 -23.202698
-1.8367826 -6.4287381 -22.963232
-1.8477396 -7.3909583 -22.689304
-1.8630302 -8.3836384 -22.307043
-1.8786747 -9.3933735 -21.915932
-1.8978409 -10.438126 -21.436777
-1.9215292 -11.529177 -20.844564
-1.9471644 -12.65657 -20.203684
-1.9800192 -13.860135 -19.382318
-2.0176697 -15.132523 -18.441057
-2.0705485 -16.564386 -17.119085
-2.1415973 -18.203579 -15.342864
-2.2539783 -20.285805 -12.533338
-1.1140332 20.052599 -13.18113
-1.0636603 18.082222 -15.699781
-1.0306095 16.489752 -17.352322
-1.0049349 15.07402 -18.636051
-0.98663449 13.812883 -19.551071
-0.97035021 12.614552 -20.365286
-0.95819014 11.49828 -20.973288
-0.94641447 10.410559 -21.562071
-0.93717355 9.3717375 -22.024113
-0.92938721 8.3644857 -22.413433
-0.921745 7.3739586 -22.795544
-0.91675878 6.4173117 -23.044853
-0.91212094 5.4727259 -23.276751
-0.90752971 4.5376453 -23.506315
-0.90502346 3.6200943 -23.63162
-0.90284759 2.7085419 -23.740417
-0.90068221 1.801363 -23.848686
-0.89982092 0.89981747 -23.89175
-0.90004987 -9.5367432e-07 -23.880302
-0.9003194 -0.90032101 -23.866829
-0.90141875 -1.8028374 -23.811852
-0.90361059 -2.7108326 -23.702265
-0.90591514 -3.623661 -23.58704
-0.90879565 -4.5439806 -23.443012
-0.91339976 -5.480402 -23.212807
-0.91816598 -6.4271617 -22.974497
-0.92363644 -7.3890944 -22.700974
-0.93115932 -8.3804359 -22.324829
-0.93893439 -9.3893433 -21.936073
-0.94849813 -10.43348 -21.457891
-0.95980471 -11.51766 -20.892561
-0.97250837 -12.64261 -20.257378
-0.9891302 -13.847824 -19.426285
-1.0083702 -15.125552 -18.464289
-1.0331705 -16.530725 -17.224276
-1.0682396 -18.16007 -15.470821
-1.123829 -20.228924 -12.691347
0 20.045174 -13.201755
0 18.084438 -15.693274
0 16.480408 -17.381514
0 15.079438 -18.618002
0 13.821018 -19.522015
0 12.621898 -20.337036
0 11.504549 -20.947172
0 10.419935 -21.519449
0 9.3808308 -21.978634
0 8.3725586 -22.368568
0 7.3817587 -22.746786
0 6.4230738 -23.003689
0 5.4768229 -23.242603
0 4.5407581 -23.475199
0 3.6222229 -23.605011
0 2.7097654 -23.720016
0 1.8020058 -23.832676
0 0.90013599 -23.876022
0 -9.5367432e-07 -23.878033
0 -0.90036583 -23.864563
0 -1.8029261 -23.809711
0 -2.710907 -23.700996
0 -3.6233253 -23.591246
0 -4.5435543 -23.447248
0 -5.4798861 -23.217085
0 -6.4257331 -22.984715
0 -7.3872256 -22.712633
0 -8.3782759 -22.336815
0 -9.3856201 -21.954695
0 -10.428837 -21.478987
0 -11.512473 -20.914164
0 -12.636957 -20.279114
0 -13.850675 -19.416101
0 -15.129012 -18.452753
0 -16.548737 -17.167995
0 -18.171534 -15.437113
0 -20.249004 -12.635567
1.1211002 20.1798 -12.827785
1.0667028 18.133947 -15.547652
1.032756 16.524094 -17.244999
1.0074736 15.112103 -18.509117
0.98875636 13.842587 -19.444977
0.97148091 12.629251 -20.30875
0.95957869 11.514943 -20.903862
0.94822979 10.430528 -21.471304
0.93899745 9.3899746 -21.932924
0.93128598 8.3815746 -22.318497
0.923724 7.3897915 -22.696598
0.91855115 6.4298553 -22.955236
0.91384327 5.483058 -23.190632
0.90921158 4.5460577 -23.422218
0.9065991 3.6263943 -23.552845
0.90433431 2.7130022 -23.666079
0.90214151 1.8042793 -23.775723
0.90126985 0.90126991 -23.819302
0.90099984 -1.9073486e-06 -23.832802
0.90073007 -0.90073204 -23.846294
0.90160316 -1.8032055 -23.802635
0.90390253 -2.7117062 -23.687672
0.90621358 -3.624855 -23.572119
0.90912682 -4.5456362 -23.426456
0.91389519 -5.4833708 -23.188038
0.91871643 -6.4310164 -22.946978
0.92425448 -7.3940358 -22.670071
0.93197638 -8.3877888 -22.283974
0.93984759 -9.3984766 -21.890419
0.94958121 -10.445396 -21.403736
0.96141899 -11.537029 -20.811844
0.97426897 -12.665496 -20.16935
0.99080509 -13.871272 -19.342543
1.0097179 -15.145768 -18.396904
1.0357974 -16.572758 -17.092928
1.0721507 -18.226562 -15.275267
1.1322109 -20.379795 -12.272255
2.265115 20.386032 -12.254922
2.1446228 18.229292 -15.267225
2.0732763 16.586206 -17.050892
2.0194166 15.145624 -18.397377
1.9826173 13.878321 -19.317366
1.9490926 12.669102 -20.155481
1.9238726 11.543233 -20.785982
1.899835 10.449093 -21.386921
1.8806232 9.4031153 -21.867214
1.8646493 8.3909206 -22.266563
1.8494598 7.3978367 -22.646301
1.8392127 6.4372425 -22.902479
1.8298324 5.4894962 -23.136986
1.8205475 4.5513678 -23.369114
1.8153818 3.6307631 -23.498249
1.8109636 2.7164431 -23.608707
1.8065618 1.8065615 -23.718746
1.8048091 0.90240479 -23.762566
1.8048295 9.5367432e-07 -23.762062
1.8053812 -0.90269375 -23.748268
1.8076526 -1.8076544 -23.691481
1.8121721 -2.7182608 -23.578497
1.8168166 -3.6336336 -23.462381
1.8227178 -4.5567932 -23.31485
1.832119 -5.4963541 -23.079823
1.8418072 -6.4463263 -22.837616
1.8530325 -7.4121323 -22.55698
1.8683895 -8.407753 -22.173058
1.884174 -9.4208708 -21.778442
1.9038924 -10.471407 -21.285486
1.9270462 -11.562277 -20.706642
1.9529543 -12.694204 -20.058939
1.9875886 -13.913119 -19.193081
2.0278852 -15.209139 -18.185669
2.0797813 -16.638252 -16.888268
2.1541834 -18.31056 -15.02821
2.2821412 -20.539272 -11.829265
3.4423003 20.653803 -11.511123
3.240211 18.361197 -14.879278
3.1258733 16.671322 -16.784908
3.0470405 15.235202 -18.098789
2.9862335 13.935755 -19.112242
2.9352739 12.719519 -19.961563
2.8966575 11.586628 -20.605171
2.8609753 10.490242 -21.199871
2.8317487 9.4391632 -21.686983
2.8075964 8.4227867 -22.089521
2.7840211 7.4240565 -22.482445
2.7677639 6.4581137 -22.753399
2.7530055 5.5060081 -22.999371
2.7385046 4.5641727 -23.241049
2.7303345 3.6404457 -23.377224
2.7232647 2.7232628 -23.49505
2.7162545 1.8108358 -23.611889
2.7135139 0.90450287 -23.657566
2.7140095 -0 -23.649302
2.7148337 -0.90494442 -23.635567
2.718281 -1.8121881 -23.57811
2.7250173 -2.7250175 -23.465841
2.7318487 -3.6424665 -23.351982
2.7408137 -4.5680237 -23.20257
2.754993 -5.5099869 -22.966246
2.7693198 -6.4617481 -22.727465
2.7863674 -7.4303145 -22.443338
2.8095164 -8.4285507 -22.057524
2.8330534 -9.4435101 -21.665239
2.8629606 -10.497524 -21.166784
2.8990405 -11.596165 -20.565451
2.9399934 -12.739971 -19.882908
2.9929171 -13.966946 -19.000845
3.0546176 -15.273088 -17.972502
3.1389122 -16.740866 -16.567593
3.2596726 -18.471479 -14.554919
3.5005739 -21.003443 -10.539901
4.8112245 21.650511 -8.742487
4.3712902 18.57798 -14.241672
4.2039685 16.815876 -16.333191
4.0885658 15.332123 -17.775717
4.0048828 14.017088 -18.82176
3.9300437 12.772642 -19.757248
3.8776829 11.633049 -20.411757
3.8299668 10.532408 -21.008209
3.7901833 9.4754553 -21.505505
3.7579744 8.4554434 -21.908115
3.7263622 7.4527245 -22.303267
3.7042203 6.4823837 -22.580044
3.6845529 5.5268269 -22.825886
3.6652186 4.581522 -23.067562
3.6540656 3.6540632 -23.206976
3.6446307 2.7334738 -23.324913
3.6354392 1.8177185 -23.439804
3.6317058 0.90792465 -23.486473
3.6305792 -1.9073486e-06 -23.500557
3.6294634 -0.90736389 -23.514503
3.6334894 -1.8167458 -23.464174
3.6425166 -2.7318888 -23.351341
3.6517851 -3.6517859 -23.235479
3.6643734 -4.5804691 -23.078127
3.6843314 -5.5264997 -22.828653
3.7045186 -6.4829068 -22.576313
3.7285104 -7.4570222 -22.276419
3.7610378 -8.4623356 -21.869827
3.7941601 -9.4854012 -21.455795
3.8367815 -10.551151 -20.923027
3.8866041 -11.659814 -20.300247
3.9428391 -12.814229 -19.597305
4.0131354 -14.045974 -18.718603
4.1028218 -15.385584 -17.597525
4.2138762 -16.855507 -16.209339
4.3906274 -18.660164 -13.999957
5.5427675 18.845409 -13.455119
5.3027039 16.968653 -15.855759
5.1555076 15.466521 -17.327721
5.0415821 14.116428 -18.466976
4.9500022 12.870003 -19.382776
4.8784337 11.708238 -20.098461
4.8138685 10.590509 -20.744112
4.7598438 9.5196867 -21.284359
4.7169523 8.4905128 -21.71327
4.6760092 7.481616 -22.1227
4.6479831 6.5071764 -22.402966
4.6233573 5.5480261 -22.649227
4.5990043 4.5990047 -22.892754
4.5848517 3.6678801 -23.034275
4.573216 2.7439289 -23.150637
4.5616388 1.8246546 -23.266409
4.556859 0.91137218 -23.314201
4.5562782 -9.5367432e-07 -23.320011
4.557724 -0.91154766 -23.305557
4.5639157 -1.8255672 -23.243641
4.5759082 -2.7455463 -23.123718
4.5881071 -3.6704845 -23.001724
4.6042418 -4.6042414 -22.840382
4.6292362 -5.5550847 -22.590431
4.6547327 -6.5166283 -22.335468
4.6855817 -7.4969292 -22.026981
4.7264986 -8.5076971 -21.617809
4.7683067 -9.5366154 -21.19973
4.8230886 -10.610794 -20.651913
4.8853059 -11.724734 -20.029739
4.9574594 -12.889397 -19.308203
5.0560131 -14.156837 -18.322662
5.1734424 -15.520327 -17.148375
5.3313408 -17.060291 -15.569389
5.5901365 -19.006464 -12.981431
6.8380346 19.374434 -11.899172
6.4622693 17.232716 -15.030556
6.2575412 15.643852 -16.736622
6.108192 14.252448 -17.981197
5.986762 12.971319 -18.993113
5.8974242 11.794847 -19.737595
5.8192592 10.668639 -20.388969
5.7520866 9.5868111 -20.948742
5.6998754 8.5498123 -21.383835
5.6488018 7.5317326 -21.80945
5.6119618 6.5472889 -22.116447
5.5802879 5.5802889 -22.380398
5.5490332 4.6241932 -22.640854
5.530581 3.6870537 -22.794621
5.5155101 2.7577543 -22.92021
5.5005374 1.8335133 -23.044987
5.4943237 0.91571903 -23.096767
5.4956999 -0 -23.0853
5.4974523 -0.91624355 -23.070694
5.5050693 -1.8350229 -23.007217
5.5194678 -2.7597351 -22.887236
5.5340681 -3.6893787 -22.76556
5.553997 -4.6283302 -22.599491
5.5842738 -5.5842772 -22.347179
5.6148825 -6.5506988 -22.092106
5.6529522 -7.5372705 -21.774857
5.7025852 -8.5538807 -21.361252
5.7530975 -9.5884972 -20.940315
5.8240156 -10.677362 -20.349333
5.9057574 -11.811516 -19.668152
6.0026183 -13.005671 -18.860979
6.119885 -14.27973 -17.883757
6.2791104 -15.697777 -16.556875
6.4910965 -17.309591 -14.790329
6.9312334 -19.638496 -11.122518
7.6901288 17.577436 -13.953306
7.4040947 15.86592 -15.996403
7.2032175 14.406433 -17.431244
7.0564241 13.104787 -18.479765
6.93681 11.891673 -19.334152
6.8397188 10.748129 -20.02766
6.7584004 9.6548557 -20.608503
6.6969028 8.6103039 -21.047775
6.6365137 7.5845857 -21.47913
6.5918503 6.5918469 -21.798155
6.5545077 5.6181469 -22.06488
6.5176435 4.6554594 -22.328197
6.495244 3.7115669 -22.488197
6.4774828 2.776063 -22.615063
6.4599304 1.8456945 -22.740437
6.4524188 0.92177486 -22.794092
6.4502754 -1.9073486e-06 -22.809401
6.4481521 -0.92116642 -22.824568
6.4560432 -1.8445835 -22.768204
6.4730163 -2.7741537 -22.646965
6.4910893 -3.709197 -22.517872
6.5164938 -4.6546383 -22.336411
6.5546989 -5.6183138 -22.063517
6.5933738 -6.5933743 -21.787268
6.6424232 -7.5913415 -21.436913
6.7053542 -8.621172 -20.987408
6.7695098 -9.6707306 -20.529152
6.8583555 -10.777416 -19.894545
6.9554648 -11.923655 -19.200905
7.074173 -13.137749 -18.352987
7.2283869 -14.456774 -17.251459
7.4327011 -15.927214 -15.792077
7.7469859 -17.707397 -13.547182
9.0784149 18.156828 -12.142704
8.6208887 16.164165 -15.002242
8.3572006 14.625099 -16.650295
8.1674309 13.272072 -17.836357
8.0214691 12.032204 -18.748611
7.9027915 10.866339 -19.490349
7.7965117 9.7456379 -20.154596
7.7189078 8.6837711 -20.639622
7.6429701 7.6429677 -21.114235
7.5856376 6.6374321 -21.472561
7.54215 5.6566114 -21.744362
7.4994416 4.68715 -22.011284
7.4729075 3.736454 -22.177126
7.452466 2.7946758 -22.304884
7.432157 1.8580408 -22.431812
7.4232435 0.92790508 -22.487526
7.4233499 -2.8610229e-06 -22.486858
7.4258766 -0.92823315 -22.471067
7.4374175 -1.859354 -22.398933
7.4585543 -2.796958 -22.266834
7.4798112 -3.7399063 -22.13398
7.5101824 -4.6938658 -21.944153
7.5546093 -5.6659555 -21.666489
7.5995421 -6.649601 -21.385658
7.6582241 -7.6582265 -21.018892
7.7314248 -8.697855 -20.561392
7.8060379 -9.7575474 -20.095058
7.9122148 -10.879297 -19.431456
8.0265465 -12.039822 -18.716885
8.186883 -13.303685 -17.714777
8.3714933 -14.650115 -16.560961
8.6621332 -16.241499 -14.744466
9.1636553 -18.327311 -11.609955
9.9529152 16.588188 -13.588828
9.5600519 14.87119 -15.771399
9.3288717 13.475037 -17.055731
9.1326761 12.176903 -18.145706
8.9950628 10.993964 -18.910223
8.8680744 9.8534145 -19.615715
8.7784929 8.778492 -20.113392
8.6910677 7.7253919 -20.599091
8.6227875 6.7066102 -20.978424
8.5691385 5.7127581 -21.276474
8.5162535 4.7312508 -21.570278
8.4821606 3.7698469 -21.759684
8.4569731 2.8189888 -21.899612
8.4319353 1.8737621 -22.038712
8.4207325 0.93563557 -22.100948
8.4201937 -9.5367432e-07 -22.103943
8.4230833 -0.93589783 -22.087891
8.436553 -1.8747921 -22.013062
8.4607038 -2.8202343 -21.878887
8.484993 -3.7711067 -21.743946
8.5207624 -4.733757 -21.545227
8.5715981 -5.7143979 -21.262808
8.623044 -6.7068114 -20.977001
8.6920843 -7.7262988 -20.593439
8.7824326 -8.7824345 -20.091507
8.8768263 -9.8631382 -19.567097
9.0153618 -11.018776 -18.797455
9.1617661 -12.215691 -17.984097
9.3566275 -13.515131 -16.901535
9.611763 -14.951631 -15.484114
10.023697 -16.706161 -13.195591
11.543106 17.314657 -11.167268
10.914216 15.2799 -14.311717
10.568664 13.73926 -16.039478
10.323882 12.388655 -17.263386
10.144347 11.158781 -18.161058
9.9763279 9.976326 -19.001156
9.8624449 8.8761978 -19.570572
9.7621355 7.8097062 -20.072119
9.6818705 6.777307 -20.473442
9.6209154 5.7725482 -20.778217
9.5607796 4.7803888 -21.078899
9.5207291 3.8082905 -21.27915
9.4917517 2.8475237 -21.42404
9.4632826 1.8926582 -21.566383
9.4501667 0.94501686 -21.631964
9.4467821 -0 -21.648884
9.4434557 -0.94434547 -21.66552
9.4603052 -1.892065 -21.581264
9.4898758 -2.8469629 -21.433414
9.5196314 -3.8078556 -21.284641
9.5655537 -4.7827768 -21.055027
9.6285143 -5.7771068 -20.740223
9.6926889 -6.784883 -20.419352
9.782402 -7.825922 -19.970783
9.8877764 -8.8990002 -19.443913
10.001006 -10.001007 -18.877766
10.162575 -11.178835 -18.069923
10.331903 -12.398287 -17.223282
10.608798 -13.791439 -15.838803
10.97844 -15.369818 -13.990594
11.79037 -17.685555 -9.9309444
12.51893 15.933182 -11.978568
11.937865 14.108388 -14.619774
11.574408 12.626624 -16.271858
11.356708 11.356707 -17.261398
11.159801 10.145276 -18.156424
11.021966 9.0179691 -18.782953
10.895569 7.9240479 -19.357483
10.789635 6.8661289 -19.839003
10.713262 5.8435946 -20.186155
10.638409 4.835639 -20.526394
10.586773 3.8497353 -20.761101
10.551275 2.8776197 -20.922453
10.515983 1.9119968 -21.082874
10.504718 0.95497417 -21.134075
10.508802 -0 -21.115511
10.512922 -0.9557209 -21.096786
10.532503 -1.914999 -21.007782
10.56595 -2.8816252 -20.855749
10.600278 -3.8546495 -20.699717
10.654033 -4.8427405 -20.455376
10.725563 -5.8503065 -20.130238
10.798423 -6.8717227 -19.799059
10.90379 -7.9300308 -19.32011
11.023991 -9.0196285 -18.773748
11.178726 -10.162477 -18.070404
11.387797 -11.387795 -17.120085
11.630342 -12.687648 -16.017603
11.996809 -14.178045 -14.351846
12.654977 -16.106333 -11.360175
13.542935 14.671512 -12.453903
13.005276 13.005276 -14.694143
12.681273 11.624498 -16.044163
12.418617 10.348846 -17.138561
12.223886 9.1679125 -17.94994
12.07683 8.0512199 -18.562674
11.951698 6.9718218 -19.084055
11.864385 5.9321928 -19.447861
11.77945 4.9081054 -19.801752
11.718366 3.9061222 -20.056271
11.677547 2.919385 -20.226357
11.637958 1.9396591 -20.391304
11.618385 0.96819973 -20.472858
11.613633 9.5367432e-07 -20.492657
11.60892 -0.96741199 -20.512295
11.631332 -1.9385557 -20.418911
11.669466 -2.9173679 -20.260021
11.709483 -3.9031634 -20.093281
11.77981 -4.9082537 -19.800257
11.87011 -5.9350548 -19.424004
11.962805 -6.9783058 -19.037777
12.104083 -8.0693893 -18.449118
12.259391 -9.1945457 -17.802
12.4486 -10.373831 -17.013634
12.699537 -11.641245 -15.968057
13.072807 -13.072807 -14.412762
13.662136 -14.800649 -11.957231
14.75919 13.623865 -12.116683
14.162641 11.98377 -14.411101
13.800582 10.615831 -15.803635
13.555547 9.3846054 -16.746082
13.362962 8.2233582 -17.48679
13.18948 7.1020246 -18.154026
13.076077 6.0351119 -18.590197
12.966212 4.9870028 -19.012753
12.884154 3.964354 -19.328354
12.83841 2.9627113 -19.504292
12.793108 1.9681702 -19.678537
12.770576 0.9823513 -19.765198
12.776387 -1.9073486e-06 -19.742851
12.782164 -0.9832449 -19.720627
12.811481 -1.9709959 -19.60787
12.858535 -2.9673576 -19.426893
12.908125 -3.9717345 -19.23616
12.991579 -4.9967618 -18.915188
13.094657 -6.0436888 -18.518734
13.200342 -7.1078777 -18.112249
13.369068 -8.2271204 -17.463305
13.572608 -9.3964224 -16.680454
13.855747 -10.658267 -15.591458
14.217893 -12.030527 -14.19859
14.884105 -13.739173 -11.63624
16.115149 12.661899 -11.328699
15.434103 11.024357 -13.761003
15.03415 9.6648121 -15.189404
14.759149 8.4337988 -16.171555
14.523646 7.2618217 -17.01263
14.393732 6.1687422 -17.476608
14.267025 5.0953636 -17.929138
14.167922 4.0479779 -18.283073
14.107721 3.0230823 -18.498074
14.05088 2.0072689 -18.701082
14.020449 1.0014582 -18.809769
14.013472 -9.5367432e-07 -18.834682
14.006501 -1.0004673 -18.859581
14.040284 -2.0057564 -18.738926
14.097482 -3.0208888 -18.534649
14.159907 -4.0456891 -18.311699
14.276474 -5.0987411 -17.895393
14.412242 -6.1766739 -17.410507
14.566187 -7.2830939 -16.860697
14.799969 -8.4571266 -16.025764
15.048411 -9.6739779 -15.138473
15.506077 -11.075767 -13.503952
16.263128 -12.778173 -10.800193
16.866268 10.119762 -12.661898
16.386551 8.7394934 -14.260959
16.073746 7.5010786 -15.303648
15.867743 6.3470979 -15.99032
15.69252 5.2308397 -16.574398
15.546367 4.1456957 -17.061573
15.467069 3.0934143 -17.325905
15.390193 2.0520253 -17.582155
15.34943 1.0232944 -17.718033
15.357634 -9.5367432e-07 -17.690685
15.365846 -1.0243912 -17.663311
15.412698 -2.0550256 -17.507137
15.485525 -3.0971074 -17.264378
15.561 -4.1496 -17.012798
15.703086 -5.234364 -16.539173
15.863363 -6.3453455 -16.004923
16.109953 -7.5179811 -15.182952
16.466537 -8.7821522 -13.994341
16.921608 -10.152965 -12.477443
18.927208 9.463603 -9.7352715
18.015549 7.8818016 -12.584202
17.628044 6.6105161 -13.795158
17.348488 5.4214039 -14.66877
17.107336 4.2768331 -15.422375
17.012043 3.1897564 -15.720163
16.917864 2.1147323 -16.014473
16.864504 1.0540318 -16.181221
16.861853 -0 -16.189508
16.873955 -1.0546222 -16.151688
16.944977 -2.1181197 -15.929749
17.046961 -3.1963058 -15.611042
17.157782 -4.2894454 -15.264725
17.382103 -5.4319067 -14.563725
17.625994 -6.6097484 -13.801568
18.127426 -7.9307494 -12.234589
19.312096 -9.6560478 -8.5325003
19.755074 5.810317 -10.779639
19.200436 4.5177479 -12.41093
18.948339 3.343823 -13.152388
18.784975 2.21 -13.632871
18.693384 1.0996094 -13.902254
18.693001 -9.5367432e-07 -13.903383
18.713589 -1.1008 -13.842831
18.838596 -2.2163057 -13.475161
19.016439 -3.3558397 -12.952092
19.246231 -4.5285273 -12.276237
19.888359 -5.8495188 -10.387624
