# .PCD v0.7 - Point Cloud Data file format
VERSION 0.7
FIELDS x y z
SIZE 4 4 4
TYPE F F F
COUNT 1 1 1
WIDTH 1060
HEIGHT 1
VIEWPOINT 0 0 0 1 0 0 0
POINTS 1060
DATA ascii
-23.054598 1.2133977 -8.212801
-23.292683 -1.4305115e-06 -7.5862608
-23.537367 -1.238811 -6.9423566
-21.703642 7.2345457 -8.5949068
-20.824648 5.7846222 -11.036555
-20.328159 4.517365 -12.415683
-20.10989 3.3516474 -13.021989
-19.966963 2.2185516 -13.419013
-19.876051 1.1042256 -13.671543
-19.862352 1.4305115e-06 -13.709595
-19.882805 -1.1046004 -13.652784
-20.009102 -2.2232337 -13.301958
-20.178679 -3.3631134 -12.830911
-20.393211 -4.531827 -12.234986
-20.867783 -5.7966056 -10.916738
-19.944185 9.3854971 -10.223428
-19.190737 7.9020672 -12.439451
-18.819351 6.6421232 -13.531764
-18.54599 5.4547019 -14.335764
-18.299963 4.3058724 -15.059375
-18.198551 3.2115088 -15.357645
-18.105444 2.1300516 -15.631493
-18.049177 1.0617151 -15.796978
-18.045366 9.5367432e-07 -15.808189
-18.057936 -1.0622306 -15.771223
-18.132866 -2.1332779 -15.550835
-18.237803 -3.2184381 -15.242207
-18.346848 -4.3169065 -14.921476
-18.572496 -5.4624991 -14.257809
-18.811457 -6.639339 -13.554982
-19.295238 -7.9450989 -12.132096
-20.073635 -9.4464188 -9.8426943
-19.122826 11.951765 -9.1239662
-18.065483 10.161832 -12.428169
-17.607731 8.8038635 -13.858639
-17.267565 7.5545592 -14.921659
-17.059048 6.3971419 -15.573274
-16.880648 5.2752028 -16.130774
-16.72765 4.1819124 -16.608889
-16.644543 3.1208506 -16.868603
-16.562628 2.0703278 -17.12458
-16.516727 1.0322962 -17.268021
-16.525475 -1.9073486e-06 -17.24069
-16.534176 -1.0333891 -17.213493
-16.585089 -2.0731373 -17.054396
-16.659458 -3.1236496 -16.821991
-16.73439 -4.1835985 -16.587828
-16.882086 -5.2756524 -16.126274
-17.062214 -6.3983278 -15.563381
-17.316576 -7.5760021 -14.768498
-17.666632 -8.8333168 -13.674575
-18.138729 -10.203036 -12.19927
-19.556042 -12.222527 -7.7701702
-17.299395 12.686222 -11.218149
-16.634205 11.089468 -13.43545
-16.237566 9.7425385 -14.757577
-15.962132 8.5131359 -15.675689
-15.697317 7.3254128 -16.558409
-15.559145 6.2236567 -17.018982
-15.429892 5.1432962 -17.449829
-15.324287 4.0864754 -17.801842
-15.262803 3.0525579 -18.006788
-15.202192 2.0269575 -18.20882
-15.16885 1.0112553 -18.319962
-15.161466 -1.9073486e-06 -18.344578
-15.15404 -1.0102711 -18.369326
-15.188848 -2.0251822 -18.253302
-15.255182 -3.0510402 -18.032188
-15.322049 -4.0858798 -17.809298
-15.44732 -5.149107 -17.391731
-15.590096 -6.236042 -16.915804
-15.750428 -7.3502007 -16.381371
-15.987878 -8.5268679 -15.58987
-16.25238 -9.7514305 -14.708195
-16.73251 -11.155008 -13.107764
-17.466202 -12.80855 -10.662127
-15.989444 13.705237 -11.777636
-15.395761 12.096668 -13.897935
-15.006459 10.7189 -15.288298
-14.730822 9.4698133 -16.272715
-14.534845 8.3056259 -16.972635
-14.350135 7.1750646 -17.632315
-14.231829 6.0993547 -18.054836
-14.115457 5.041235 -18.470451
-14.025511 4.007288 -18.791683
-13.970238 2.9936209 -18.989094
-13.919997 1.9885702 -19.168518
-13.897799 0.99269867 -19.247801
-13.903804 -1.9073486e-06 -19.226357
-13.90977 -0.99355793 -19.205048
-13.941707 -1.9916725 -19.090986
-13.992017 -2.9982886 -18.91131
-14.043653 -4.0124731 -18.726892
-14.134054 -5.0478792 -18.40403
-14.241365 -6.1034436 -18.020779
-14.352375 -7.1761885 -17.624315
-14.548643 -8.3135128 -16.923357
-14.765678 -9.4922228 -16.148233
-15.062246 -10.758747 -15.089065
-15.423747 -12.118656 -13.797987
-16.110941 -13.809381 -11.34372
-14.810287 14.810286 -11.920152
-14.22766 13.133226 -14.161025
-13.874817 11.740229 -15.518113
-13.604517 10.465013 -16.557728
-13.394449 9.2730808 -17.365683
-13.219487 8.135067 -18.038616
-13.081187 7.043715 -18.570541
-12.990005 5.9953861 -18.921238
-12.900206 4.9616175 -19.266624
-12.832936 3.9485941 -19.525349
-12.789431 2.9514074 -19.692673
-12.747113 1.9610958 -19.855438
-12.725594 0.97888947 -19.938202
-12.72041 9.5367432e-07 -19.958145
-12.715229 -0.97809505 -19.978069
-12.737411 -1.9596033 -19.892756
-12.782828 -2.9498835 -19.718075
-12.829238 -3.9474583 -19.539574
-12.907209 -4.9643145 -19.239683
-13.004298 -6.0019832 -18.866262
-13.102859 -7.055387 -18.487185
-13.255675 -8.1573429 -17.899431
-13.41713 -9.2887831 -17.27845
-13.619176 -10.476292 -16.501348
-13.915752 -11.774869 -15.360673
-14.292206 -13.192806 -13.912774
-14.870773 -14.870774 -11.687515
-13.786455 16.084194 -11.439239
-13.166493 14.263698 -14.022412
-12.787676 12.787675 -15.600811
-12.526042 11.482204 -16.690956
-12.307918 10.256597 -17.599812
-12.157429 9.1180706 -18.226843
-12.023364 8.0155735 -18.785448
-11.906743 6.9455981 -19.271366
-11.824172 5.9120879 -19.615414
-11.742881 4.8928652 -19.954128
-11.684825 3.8949404 -20.196026
-11.645573 2.9113913 -20.359577
-11.606548 1.9344244 -20.522181
-11.59129 0.96593952 -20.585758
-11.59571 -1.9073486e-06 -20.567337
-11.600168 -0.96668243 -20.548763
-11.621812 -1.9369707 -20.45858
-11.65777 -2.9144421 -20.308752
-11.694768 -3.8982582 -20.154598
-11.754533 -4.8977237 -19.905577
-11.830765 -5.9153829 -19.587944
-11.908065 -6.946372 -19.265858
-12.027445 -8.0182991 -18.768438
-12.171912 -9.1289368 -18.166496
-12.342137 -10.285113 -17.457222
-12.561692 -11.514885 -16.542412
-12.815683 -12.815685 -15.484112
-13.208372 -14.309069 -13.847912
-13.919126 -16.238979 -10.886443
-12.89026 17.577627 -10.290709
-12.14435 15.456446 -13.681201
-11.764967 13.904047 -15.405676
-11.478929 12.522466 -16.705845
-11.291902 11.2919 -17.555973
-11.112545 10.102314 -18.371227
-10.985165 8.9878597 -18.950232
-10.864938 7.9017715 -19.496716
-10.770103 6.8537025 -19.927776
-10.704644 5.8388953 -20.225323
-10.639976 4.8363514 -20.519276
-10.5946 3.852582 -20.725525
-10.563491 2.8809509 -20.866928
-10.53291 1.9150724 -21.005932
-10.518264 0.95620441 -21.072506
-10.514515 -9.5367432e-07 -21.089546
-10.512735 -0.95570374 -21.097637
-10.531782 -1.9148684 -21.011059
-10.565067 -2.8813839 -20.859762
-10.598564 -3.8540249 -20.707506
-10.650411 -4.8410959 -20.47184
-10.71923 -5.8468513 -20.159025
-10.789437 -6.8660088 -19.839897
-10.889368 -7.9195399 -19.385668
-11.002132 -9.0017433 -18.873106
-11.128264 -10.116607 -18.299774
-11.308639 -11.30864 -17.479893
-11.516983 -12.563981 -16.532875
-11.806007 -13.952554 -15.219129
-12.212177 -15.54277 -13.372901
-13.136893 -17.91395 -9.1696453
-11.20421 16.806316 -12.86174
-10.771747 15.080441 -15.024068
-10.498812 13.648454 -16.388739
-10.280844 12.33701 -17.47858
-10.114792 11.12627 -18.308838
-9.9678307 9.9678288 -19.043644
-9.8703699 8.8833313 -19.530949
-9.7753305 7.8202624 -20.006145
-9.697567 6.7882943 -20.394962
-9.6379728 5.7827806 -20.692934
-9.5802755 4.7901363 -20.981419
-9.5410233 3.8164091 -21.177677
-9.5123434 2.8537025 -21.321079
-9.4843655 1.8968735 -21.460964
-9.471693 0.9471693 -21.524326
-9.4696035 -9.5367432e-07 -21.534779
-9.4728088 -0.94727993 -21.518753
-9.4878616 -1.8975744 -21.443489
-9.5140305 -2.8542089 -21.312641
-9.5403452 -3.8161392 -21.181072
-9.5814734 -4.7907376 -20.97543
-9.6368761 -5.7821274 -20.698416
-9.6963987 -6.787477 -20.400805
-9.7826405 -7.8261123 -19.969595
-9.883647 -8.8952818 -19.464561
-9.9910707 -9.9910717 -18.927443
-10.140672 -11.154739 -18.17944
-10.296434 -12.355722 -17.400623
-10.528006 -13.686408 -16.242771
-10.805817 -15.128144 -14.853713
-11.264565 -16.896851 -12.559965
-10.360849 18.419285 -11.322521
-9.8283272 16.380545 -14.280977
-9.5139847 14.799531 -16.027327
-9.3056431 13.441483 -17.184778
-9.1315536 12.175403 -18.151945
-9.0038157 11.004662 -18.861601
-8.8838234 9.8709145 -19.528221
-8.7971296 8.7971268 -20.009853
-8.712347 7.7443061 -20.480869
-8.645668 6.7244072 -20.851305
-8.5930347 5.7286873 -21.143711
-8.5410643 4.7450352 -21.432438
-8.510148 3.7822876 -21.6042
-8.4877033 2.8292351 -21.728888
-8.4653521 1.8811865 -21.853062
-8.4551954 0.93946552 -21.909485
-8.4565039 -2.8610229e-06 -21.902218
-8.4593449 -0.93992901 -21.88644
-8.4724092 -1.88276 -21.813854
-8.4958944 -2.8319664 -21.683386
-8.5204868 -3.7868824 -21.546755
-8.5561275 -4.7534046 -21.348755
-8.6052132 -5.7368078 -21.076057
-8.6557188 -6.7322278 -20.795469
-8.7234993 -7.7542224 -20.418913
-8.8040285 -8.8040276 -19.971527
-8.8863039 -9.8736696 -19.514444
-9.0165968 -11.020285 -18.790592
-9.1549616 -12.206614 -18.021904
-9.334734 -13.483506 -17.023159
-9.5517912 -14.858342 -15.817288
-9.8831921 -16.471989 -13.976173
-10.450455 -18.578585 -10.824713
-8.9300718 17.860142 -13.069846
-8.5848417 16.096575 -15.227539
-8.3491507 14.611015 -16.7006
-8.1772881 13.288094 -17.774744
-8.0386257 12.057936 -18.641388
-7.9241962 10.895769 -19.356567
-7.8206921 9.7758617 -20.003471
-7.7493901 8.7180624 -20.449108
-7.6813927 7.6813922 -20.87409
-7.6282959 6.674757 -21.205948
-7.5862856 5.6897135 -21.46851
-7.5448461 4.7155294 -21.727505
-7.5177922 3.7588959 -21.896595
-7.497345 2.8115025 -22.024387
-7.477726 1.8694305 -22.147011
-7.4689612 0.93362045 -22.201786
-7.4665141 -1.9073486e-06 -22.217083
-7.4640679 -0.93300915 -22.232368
-7.4732327 -1.8683081 -22.175091
-7.4946389 -2.8104897 -22.041302
-7.5161681 -3.7580862 -21.906746
-7.5466375 -4.7166481 -21.716309
-7.5906248 -5.6929717 -21.441391
-7.6351728 -6.6807771 -21.162966
-7.6931448 -7.6931443 -20.800642
-7.7641368 -8.7346554 -20.356941
-7.8371902 -9.7964878 -19.90036
-7.9390283 -10.916165 -19.263868
-8.0459356 -12.068905 -18.595697
-8.1926413 -13.313041 -17.678795
-8.3644228 -14.637739 -16.605156
-8.6151772 -16.153458 -15.037943
-8.9950924 -17.990187 -12.663471
-8.1406736 19.770206 -10.735129
-7.6588082 17.505846 -14.177026
-7.4057007 15.86936 -15.984927
-7.2203016 14.440599 -17.309214
-7.0823131 13.152866 -18.294847
-6.9674468 11.944191 -19.11532
-6.8790255 10.809896 -19.746899
-6.7992582 9.7132244 -20.316668
-6.7384686 8.663743 -20.750881
-6.6797071 7.6339498 -21.170607
-6.6346765 6.634676 -21.492247
-6.5973134 5.6548386 -21.759132
-6.5611706 4.6865482 -22.017292
-6.5382624 3.7361479 -22.180923
-6.5201716 2.7943573 -22.310143
-6.5023685 1.8578196 -22.437309
-6.4949446 0.92784691 -22.490337
-6.4956565 9.5367432e-07 -22.485252
-6.4977174 -0.92824745 -22.470531
-6.5067439 -1.8590698 -22.406052
-6.5232487 -2.7956791 -22.288158
-6.540009 -3.7371483 -22.168447
-6.5644403 -4.6888866 -21.99394
-6.5993614 -5.6565962 -21.744499
-6.6346569 -6.6346593 -21.49239
-6.6804986 -7.6348567 -21.164946
-6.7414327 -8.6675549 -20.729708
-6.8043718 -9.7205334 -20.280144
-6.8907037 -10.82825 -19.663486
-6.9859633 -11.97594 -18.983055
-7.1018715 -13.189188 -18.155146
-7.2452884 -14.490575 -17.130741
-7.4370193 -15.936471 -15.76123
-7.7017493 -17.604 -13.870301
-8.251627 -20.039669 -9.9426031
-6.7693782 19.179903 -12.47131
-6.4710832 17.256222 -14.957103
-6.283401 15.708504 -16.521118
-6.1404357 14.327682 -17.7125
-6.0250564 13.054286 -18.673994
-5.9354925 11.870985 -19.420355
-5.8591118 10.741703 -20.056866
-5.7927237 9.6545382 -20.6101
-5.7410555 8.6115837 -21.040667
-5.6903181 7.5870905 -21.463478
-5.6529198 6.5950708 -21.775135
-5.621274 5.6212721 -22.038847
-5.5922308 4.6601906 -22.280872
-5.5745044 3.7163353 -22.428596
-5.5607786 2.7803917 -22.542973
-5.5471201 1.84904 -22.656796
-5.5412145 0.92353535 -22.706009
-5.5411668 -0 -22.706402
-5.5429168 -0.92381859 -22.691826
-5.5505004 -1.8501682 -22.628624
-5.5648332 -2.7824163 -22.509186
-5.5798364 -3.7198925 -22.384161
-5.6002593 -4.6668863 -22.21397
-5.6299109 -5.6299109 -21.966873
-5.6607747 -6.604238 -21.709675
-5.699522 -7.5993619 -21.386782
-5.7481141 -8.6221743 -20.981846
-5.7980638 -9.6634407 -20.565599
-5.8652697 -10.752995 -20.00555
-5.9430189 -11.886042 -19.357637
-6.0387735 -13.084009 -18.559685
-6.1509786 -14.352281 -17.624643
-6.303297 -15.758244 -16.35532
-6.5033603 -17.342293 -14.688124
-6.8496537 -19.407352 -11.802353
-5.5598507 18.90349 -13.28429
-5.3358488 17.074717 -15.524306
-5.1927915 15.578375 -16.95488
-5.08002 14.224053 -18.082598
-4.9909334 12.976426 -18.973461
-4.9183955 11.804148 -19.698837
-4.854166 10.679165 -20.341133
-4.8015728 9.6031446 -20.867071
-4.7616749 8.5710125 -21.26605
-4.7224345 7.5558939 -21.658453
-4.6931114 6.5703554 -21.951683
-4.6687651 5.6025162 -22.195148
-4.6447768 4.6447754 -22.435028
-4.6298223 3.7038555 -22.584574
-4.6179175 2.77075 -22.703621
-4.6066275 1.8426495 -22.816525
-4.601779 0.92035484 -22.865002
-4.6003714 -1.9073486e-06 -22.879082
-4.5989647 -0.91979504 -22.89315
-4.6037669 -1.8415079 -22.845123
-4.6160893 -2.7696552 -22.721903
-4.6284771 -3.7027845 -22.598026
-4.6450715 -4.645072 -22.432079
-4.6704316 -5.6045189 -22.178482
-4.6960831 -6.5745163 -21.921959
-4.7276235 -7.5641975 -21.606564
-4.7683067 -8.5829544 -21.19973
-4.8101559 -9.6203136 -20.781239
-4.8649826 -10.702959 -20.232973
-4.925396 -11.82095 -19.628838
-4.9991512 -12.997795 -18.891283
-5.0936403 -14.262191 -17.946394
-5.2099237 -15.629773 -16.783556
-5.3589854 -17.148756 -15.292937
-5.5884862 -19.000854 -12.997932
-4.7332983 21.299843 -9.716568
-4.3957248 18.681831 -13.936235
-4.2377501 16.951 -15.910919
-4.1280298 15.480114 -17.282419
-4.0434513 14.152079 -18.339657
-3.9706404 12.904581 -19.24979
-3.9168782 11.750633 -19.92182
-3.8702104 10.643078 -20.505169
-3.8296478 9.5741196 -21.012199
-3.7971597 8.5436077 -21.418301
-3.7659671 7.5319328 -21.808208
-3.7428958 6.550066 -22.0966
-3.7228274 5.58424 -22.34745
-3.7035809 4.6294765 -22.588036
-3.6918337 3.6918316 -22.734879
-3.6821077 2.7615795 -22.856449
-3.6726012 1.8363008 -22.975283
-3.6688015 0.91719913 -23.022778
-3.6690736 -0 -23.019379
-3.6701822 -0.91754723 -23.00552
-3.674876 -1.8374376 -22.946844
-3.6836884 -2.7627649 -22.836693
-3.6926279 -3.692626 -22.724951
-3.7053611 -4.6316996 -22.565784
-3.7241738 -5.5862589 -22.33062
-3.7431681 -6.5505452 -22.093195
-3.7669146 -7.5338311 -21.79636
-3.7978318 -8.5451241 -21.409899
-3.8310268 -9.5775681 -20.994961
-3.8747885 -10.655667 -20.447941
-3.9248674 -11.774603 -19.821955
-3.9825315 -12.943228 -19.101156
-4.0523868 -14.183352 -18.227962
-4.1422696 -15.533512 -17.104429
-4.2531796 -17.012718 -15.718057
-4.4250231 -18.806347 -13.570011
-3.4887969 20.932779 -10.736179
-3.2717905 18.540148 -14.352954
-3.1634414 16.871685 -16.158773
-3.0837996 15.418996 -17.486135
-3.0217021 14.101274 -18.521099
-2.970248 12.871075 -19.378662
-2.929796 11.719183 -20.052864
-2.8936796 10.610159 -20.6548
-2.863708 9.5456924 -21.154331
-2.8394105 8.5182295 -21.559288
-2.8155549 7.508142 -21.956882
-2.7985225 6.5298843 -22.240757
-2.7835717 5.5671415 -22.489935
-2.7695026 4.6158371 -22.724419
-2.7613757 3.6818352 -22.859871
-2.7548358 2.7548351 -22.968866
-2.7483349 1.832222 -23.077217
-2.7455838 0.91519451 -23.123064
-2.7458181 -1.9073486e-06 -23.119162
-2.7466462 -0.91554737 -23.105362
-2.7501276 -1.8334188 -23.047337
-2.7568574 -2.7568579 -22.935169
-2.7640715 -3.6854315 -22.814941
-2.7735283 -4.6225481 -22.657326
-2.7875741 -5.5751486 -22.423227
-2.8022668 -6.5386233 -22.178345
-2.8201356 -7.5203643 -21.880535
-2.8431733 -8.5295219 -21.496576
-2.8669477 -9.5564919 -21.10033
-2.8977616 -10.625126 -20.586771
-2.9321451 -11.728579 -20.013716
-2.97454 -12.889673 -19.307135
-3.0268364 -14.125237 -18.43552
-3.089395 -15.446972 -17.392883
-3.1701934 -16.907696 -16.046244
-3.2896943 -18.641602 -14.054558
-3.5341589 -21.204952 -9.9801455
-2.2948751 20.653875 -11.510916
-2.1725724 18.466862 -14.568491
-2.099735 16.79788 -16.389421
-2.0478277 15.358707 -17.687103
-2.0090041 14.063027 -18.657696
-1.9754432 12.840382 -19.496716
-1.9487916 11.69275 -20.163004
-1.9246608 10.585632 -20.766279
-1.9052844 9.5264225 -21.250685
-1.8898945 8.5045223 -21.635433
-1.8747512 7.4990053 -22.014015
-1.8636397 6.5227385 -22.291801
-1.854287 5.5628614 -22.525621
-1.845033 4.6125822 -22.756969
-1.8393599 3.6787195 -22.8988
-1.8348033 2.7522049 -23.012712
-1.8304777 1.8304749 -23.120853
-1.8286523 0.9143219 -23.166489
-1.8281018 -9.5367432e-07 -23.180252
-1.8275516 -0.91377544 -23.194006
-1.8295723 -1.8295736 -23.143486
-1.8343379 -2.7515087 -23.024345
-1.8391339 -3.6782694 -22.904449
-1.8453716 -4.613431 -22.748507
-1.8550674 -5.5651999 -22.506115
-1.8649303 -6.5272546 -22.259541
-1.8767354 -7.5069418 -21.964407
-1.8922948 -8.5153255 -21.575428
-1.9083575 -9.5417862 -21.173859
-1.928744 -10.608093 -20.664198
-1.9519179 -11.711508 -20.084848
-1.9794285 -12.866286 -19.397083
-2.0144176 -14.100925 -18.522356
-2.0537741 -15.403304 -17.538446
-2.1082425 -16.86594 -16.176735
-2.1837761 -18.562099 -14.288389
-2.3344777 -21.0103 -10.520857
-1.1454037 20.61727 -11.612604
-1.0834337 18.418371 -14.711112
-1.0486735 16.778772 -16.44912
-1.0228726 15.343088 -17.73917
-1.0038315 14.053638 -18.691223
-0.98632312 12.822197 -19.566643
-0.97351158 11.682137 -20.207218
-0.96218932 10.58408 -20.773329
-0.95246464 9.5246449 -21.259565
-0.94452298 8.5007076 -21.656649
-0.93695801 7.4956627 -22.034893
-0.93141806 6.5199232 -22.311895
-0.92651093 5.559063 -22.557251
-0.92186654 4.6093292 -22.789474
-0.91904175 3.6761665 -22.930712
-0.91665697 2.7499695 -23.049948
-0.91436768 1.8287344 -23.16441
-0.91345936 0.91345787 -23.209827
-0.91337121 -0 -23.214237
-0.91364348 -0.91364384 -23.200623
-0.91477841 -1.8295565 -23.143879
-0.91692859 -2.7507858 -23.036366
-0.91908896 -3.6763582 -22.928349
-0.9221729 -4.6108665 -22.774151
-0.92678308 -5.560698 -22.54364
-0.93143964 -6.5200768 -22.310818
-0.93716812 -7.497345 -22.024391
-0.94474196 -8.5026798 -21.645699
-0.95270991 -9.5271006 -21.247301
-0.96316552 -10.594823 -20.724518
-0.97531414 -11.703773 -20.117086
-0.98902684 -12.857351 -19.431454
-1.0057797 -14.080916 -18.593813
-1.025506 -15.382592 -17.607492
-1.0515209 -16.824333 -16.306751
-1.0894043 -18.519875 -14.412579
-1.1585282 -20.853512 -10.956385
0 20.598061 -11.665959
0 18.435188 -14.661646
0 16.776316 -16.456806
0 15.343772 -17.736895
0 14.055263 -18.685429
0 12.834394 -19.519743
0 11.688181 -20.18203
0 10.582498 -20.780519
0 9.5232906 -21.266333
0 8.4991617 -21.665239
0 7.4923229 -22.055752
0 6.5170946 -22.332102
0 5.5566673 -22.577246
0 4.6062937 -22.81982
0 3.6742554 -22.954582
0 2.749218 -23.062473
0 1.8285151 -23.169865
0 0.91335297 -23.215014
0 -1.9073486e-06 -23.202309
0 -0.91388226 -23.188688
0 -1.8300352 -23.131912
0 -2.751564 -23.02343
0 -3.6783428 -22.903532
0 -4.6134567 -22.748241
0 -5.563839 -22.517471
0 -6.5249496 -22.276014
0 -7.5040545 -21.982462
0 -8.5103474 -21.603088
0 -9.5346909 -21.209337
0 -10.599646 -20.702599
0 -11.69955 -20.134668
0 -12.848387 -19.465927
0 -14.085274 -18.578247
0 -15.385092 -17.599155
0 -16.842993 -16.248451
0 -18.530037 -14.382692
0 -20.925827 -10.755503
1.1528013 20.750423 -11.242726
1.0871228 18.481087 -14.526657
1.0507416 16.811865 -16.345718
1.0244777 15.367166 -17.658905
1.0049318 14.069041 -18.636211
0.98820078 12.846611 -19.472755
0.97489464 11.698734 -20.138063
0.96301281 10.593139 -20.732157
0.95317262 9.5317268 -21.224163
0.94542468 8.5088196 -21.611561
0.93779904 7.5023913 -21.992847
0.93219769 6.5253839 -22.272909
0.92751497 5.5650902 -22.50705
0.9228816 4.6144085 -22.738716
0.92001384 3.6800528 -22.882103
0.91777056 2.7533102 -22.99427
0.91561645 1.8312321 -23.101978
0.91470557 0.91470528 -23.147518
0.9144327 -1.9073486e-06 -23.16116
0.91415733 -0.91415596 -23.174931
0.91530657 -1.8306141 -23.117474
0.91769475 -2.7530842 -22.998062
0.92009538 -3.6803799 -22.878027
0.92320728 -4.6160383 -22.722435
0.92801511 -5.5680904 -22.482042
0.93294901 -6.5306416 -22.235348
0.93884677 -7.5107775 -21.940454
0.94660938 -8.5194836 -21.55233
0.95466274 -9.546628 -21.149658
0.96486068 -10.61347 -20.639765
0.9766134 -11.719359 -20.052124
0.99058545 -12.877611 -19.353523
1.0079376 -14.111124 -18.48592
1.0276575 -15.414864 -17.49992
1.0549781 -16.879654 -16.133884
1.0928744 -18.578865 -14.239073
1.1689856 -21.04174 -10.433517
2.3324134 20.991718 -10.572462
2.1864841 18.585115 -14.220695
2.1111121 16.888893 -16.104996
2.0567598 15.425698 -17.463799
2.0173154 14.121207 -18.449909
1.9816163 12.880504 -19.34239
1.9544072 11.726443 -20.022615
1.9313831 10.622606 -20.598219
1.9113836 9.5569181 -21.098206
1.8951474 8.5281639 -21.504108
1.8798324 7.5193257 -21.886988
1.8684546 6.5395918 -22.171429
1.8584579 5.5753727 -22.42135
1.8491516 4.6228771 -22.654007
1.843358 3.6867151 -22.798843
1.8385035 2.7577543 -22.92021
1.8339511 1.8339481 -23.034016
1.832119 0.91605854 -23.079819
1.8315977 -9.5367432e-07 -23.092857
1.8321553 -0.91607952 -23.078911
1.8344687 -1.8344727 -23.02108
1.8388186 -2.7582283 -22.912334
1.8431944 -3.6863909 -22.802938
1.849481 -4.623703 -22.645771
1.8588657 -5.5765991 -22.411152
1.8683462 -6.5392146 -22.174141
1.8801509 -7.5206032 -21.879026
1.8956889 -8.5306015 -21.490574
1.9117243 -9.5586214 -21.089689
1.9333556 -10.633453 -20.548906
1.9581352 -11.748814 -19.929417
1.9864353 -12.911829 -19.22191
2.020596 -14.144175 -18.367899
2.062593 -15.469447 -17.317972
2.1172578 -16.938063 -15.951349
2.1986732 -18.688721 -13.915966
2.373929 -21.365358 -9.5345755
3.6077714 21.646627 -8.7532768
3.3067865 18.738455 -13.769687
3.1836259 16.979336 -15.822364
3.100347 15.501737 -17.21034
3.0379894 14.177283 -18.249638
2.9855132 12.937222 -19.124245
2.9431031 11.772413 -19.831078
2.9051645 10.652267 -20.463388
2.8747587 9.5825272 -20.970152
2.8501816 8.5505447 -21.379766
2.8261206 7.5363207 -21.78079
2.8088543 6.5539913 -22.068558
2.7938013 5.5876017 -22.319439
2.7789006 4.6314993 -22.567781
2.7700589 3.6934109 -22.715149
2.7630982 2.7630987 -22.831158
2.7564797 1.8376532 -22.941467
2.7540343 0.91801262 -22.982224
2.7548752 -9.5367432e-07 -22.968212
2.7557166 -0.91857529 -22.954189
2.7592368 -1.8394928 -22.895515
2.7657974 -2.7657957 -22.786171
2.7731936 -3.6975937 -22.662899
2.782954 -4.638258 -22.500235
2.7971199 -5.5942416 -22.26413
2.8120203 -6.5613809 -22.015793
2.8305366 -7.548099 -21.707186
2.8540237 -8.5620699 -21.315737
2.878633 -9.5954428 -20.905581
2.9107699 -10.672825 -20.369965
2.9461746 -11.784698 -19.779884
2.98984 -12.955973 -19.052132
3.0458002 -14.213737 -18.119457
3.1088128 -15.544065 -17.069248
3.1988997 -17.060799 -15.5678
3.3292959 -18.866009 -13.394532
4.4687247 18.992083 -13.023732
4.2850766 17.140305 -15.31934
4.1676154 15.628555 -16.787603
4.0744224 14.260474 -17.952522
3.9982901 12.994442 -18.904169
3.9405339 11.821601 -19.626122
3.8915269 10.7017 -20.238708
3.8485386 9.6213455 -20.776062
3.8157423 8.5854187 -21.18602
3.7836995 7.5673981 -21.58655
3.7594342 6.5790091 -21.88987
3.7399166 5.6098738 -22.133841
3.7206113 4.6507645 -22.375156
3.7082534 3.7082539 -22.529625
3.6990151 2.7742615 -22.645103
3.6901085 1.8450537 -22.756439
3.6862516 0.92156315 -22.804653
3.6851015 -1.9073486e-06 -22.819031
3.6843207 -0.92107964 -22.828785
3.6891885 -1.844593 -22.767941
3.699111 -2.774332 -22.643909
3.7090979 -3.7090988 -22.519073
3.7223215 -4.6529016 -22.353775
3.7422211 -5.6133313 -22.10503
3.762764 -6.584836 -21.848249
3.7879081 -7.5758162 -21.533943
3.8204188 -8.5959415 -21.12756
3.8541272 -9.6353168 -20.706207
3.8978193 -10.719002 -20.160057
3.9489837 -11.846951 -19.520502
4.0107846 -13.03505 -18.747986
4.084156 -14.294546 -17.830849
4.1760921 -15.660346 -16.681641
4.2986269 -17.194508 -15.149958
4.4988508 -19.120113 -12.647165
5.6916099 19.351475 -11.966693
5.4109569 17.315062 -14.773229
5.2553549 15.766064 -16.329247
5.132617 14.371325 -17.556627
5.0358706 13.093261 -18.524092
4.9564977 11.895596 -19.317822
4.8934026 10.765484 -19.948771
4.8381991 9.6763954 -20.500805
4.7947192 8.6304932 -20.935602
4.7539797 7.6063671 -21.342999
4.7227674 6.6118741 -21.655123
4.6963029 5.635561 -21.919769
4.6718283 4.6718283 -22.164516
4.6560121 3.7248096 -22.322674
4.6431551 2.7858896 -22.451248
4.6313014 1.852519 -22.569778
4.6263614 0.92527008 -22.619183
4.6249256 -0 -22.633541
4.626122 -0.92522526 -22.621574
4.6323814 -1.8529549 -22.558983
4.6438112 -2.7862873 -22.444679
4.6552982 -3.7242403 -22.329815
4.6725473 -4.6725473 -22.157326
4.6974273 -5.6369123 -21.908529
4.7225871 -6.6116238 -21.656925
4.7554131 -7.6086597 -21.328671
4.7969775 -8.6345596 -20.913019
4.8392615 -9.6785221 -20.490185
4.8992133 -10.778268 -19.890667
4.9657207 -11.917732 -19.22559
5.0452652 -13.117689 -18.430141
5.1430831 -14.400633 -17.451963
5.275064 -15.825191 -16.132158
5.4504166 -17.441334 -14.378632
5.750412 -19.551399 -11.378676
7.0959029 20.105059 -9.750267
6.6135731 17.636194 -13.769685
6.3819408 15.95485 -15.699957
6.2128644 14.496685 -17.108925
6.0938115 13.203259 -18.101034
5.9947729 11.989545 -18.926357
5.9113803 10.837528 -19.621296
5.8392677 9.73211 -20.222233
5.7864747 8.6797123 -20.662174
5.7346277 7.6461697 -21.094227
5.6958737 6.6451874 -21.417179
5.6637797 5.6637793 -21.684631
5.6320457 4.6933708 -21.949081
5.6122551 3.7415037 -22.114004
5.5974345 2.7987156 -22.237511
5.5832567 1.8610849 -22.355658
5.5777411 0.92962265 -22.401623
5.5795302 -9.5367432e-07 -22.386715
5.5813203 -0.93021965 -22.371796
5.5890098 -1.8630047 -22.307718
5.6028752 -2.8014383 -22.192165
5.6188855 -3.745924 -22.058746
5.6406174 -4.7005148 -21.877651
5.6708326 -5.6708355 -21.62586
5.7033262 -6.6538835 -21.355072
5.7450013 -7.6600027 -21.007784
5.7955403 -8.6933126 -20.586626
5.8500237 -9.750041 -20.132601
5.9231849 -10.859173 -19.522923
6.0016108 -12.003223 -18.869375
6.1089263 -13.236007 -17.975077
6.2345085 -14.547188 -16.928558
6.4058437 -16.01461 -15.500765
6.6445694 -17.718855 -13.511382
7.2470913 -20.533422 -8.4903698
7.8898358 18.033907 -12.526827
7.5599089 16.199802 -14.883451
7.342031 14.68406 -16.43972
7.1846552 13.342929 -17.563829
7.0534191 12.091575 -18.501228
6.9580855 10.934134 -19.182184
6.8694601 9.8135138 -19.81522
6.8040638 8.7480803 -20.282345
6.7423811 7.7055769 -20.722931
6.6929836 6.6929832 -21.075775
6.6550207 5.7043018 -21.34693
6.6182842 4.7273445 -21.609337
6.5934315 3.7676764 -21.786852
6.5755148 2.8180752 -21.914833
6.5587449 1.8739262 -22.034622
6.551116 0.93587399 -22.089113
6.548944 -9.5367432e-07 -22.104622
6.5468888 -0.93527222 -22.119305
6.5565686 -1.8733072 -22.050163
6.5753613 -2.8180132 -21.91593
6.5942621 -3.7681484 -21.780926
6.620326 -4.7288036 -21.594749
6.6586604 -5.7074203 -21.32094
6.6978192 -6.6978197 -21.041237
6.7480154 -7.7120199 -20.682682
6.8114076 -8.7575264 -20.229885
6.8761487 -9.8230705 -19.767445
6.9685674 -10.950605 -19.107317
7.0724187 -12.124147 -18.36552
7.2037706 -13.378431 -17.427294
7.3548307 -14.709663 -16.348289
7.5892477 -16.262674 -14.673883
7.9575019 -18.188578 -12.043495
9.3667183 18.733437 -10.340799
8.812664 16.523746 -13.803641
8.5077076 14.888485 -15.709623
8.3205223 13.52085 -16.879526
8.1585016 12.237749 -17.892159
8.031353 11.04311 -18.686838
7.9244642 9.9055786 -19.354893
7.8461699 8.8269405 -19.844231
7.7713075 7.771307 -20.312122
7.7125726 6.7484999 -20.679218
7.665544 5.7491565 -20.973148
7.6213636 4.7633524 -21.249275
7.5919003 3.795949 -21.433418
7.5692234 2.838459 -21.57515
7.5477881 1.8869457 -21.709122
7.5387926 0.94234943 -21.765341
7.5375352 -1.9073486e-06 -21.773205
7.5401397 -0.94251728 -21.75692
7.5515738 -1.8878946 -21.685459
7.5716052 -2.8393536 -21.560263
7.5920348 -3.7960176 -21.432579
7.6251779 -4.7657394 -21.225435
7.6694942 -5.7521224 -20.948458
7.7145596 -6.7502418 -20.6668
7.7787743 -7.7787738 -20.265457
7.8536854 -8.8353958 -19.79726
7.9342818 -9.9178514 -19.293535
8.0483503 -11.066482 -18.580606
8.1657476 -12.248623 -17.846878
8.3432798 -13.557832 -16.737297
8.5458593 -14.955255 -15.471174
8.855464 -16.603998 -13.536144
9.5308323 -19.061663 -9.3150969
10.191188 16.985312 -12.265085
9.7756519 15.206568 -14.573622
9.514204 13.742738 -16.026112
9.2946844 12.39291 -17.245661
9.1505356 11.183989 -18.046486
9.0117712 10.013079 -18.817402
8.9168072 8.9168053 -19.344984
8.8265114 7.845787 -19.846624
8.7526283 6.807601 -20.257082
8.6990814 5.799386 -20.554569
8.6461849 4.8034344 -20.848436
8.6104574 3.8268681 -21.046923
8.5865135 2.8621712 -21.179943
8.5627031 1.9028215 -21.31222
8.5514288 0.95015621 -21.374861
8.5521603 -1.9073486e-06 -21.370794
8.5551414 -0.95057201 -21.354231
8.5685043 -1.9041147 -21.279991
8.5929842 -2.8643293 -21.143995
8.6200409 -3.831131 -20.993679
8.6589794 -4.8105454 -20.777355
8.7110109 -5.8073416 -20.488293
8.7673321 -6.8190351 -20.175394
8.84303 -7.8604741 -19.754852
8.93328 -8.933279 -19.253464
9.0328217 -10.036467 -18.700457
9.1676235 -11.204874 -17.951555
9.3245468 -12.43273 -17.079756
9.540308 -13.780445 -15.881086
9.8212957 -15.277571 -14.320043
10.290651 -17.151089 -11.712507
11.18793 15.6631 -12.943145
10.786368 14.022279 -14.950956
10.515175 12.618208 -16.306923
10.32024 11.352262 -17.281593
10.158436 10.158436 -18.090614
10.03891 9.0350189 -18.688246
9.9321461 7.9457169 -19.222065
9.8431692 6.8902183 -19.666948
9.7762814 5.8657675 -20.001392
9.7161579 4.8580775 -20.302006
9.6720943 3.8688374 -20.522327
9.6400518 2.8920164 -20.682541
9.6130419 1.9226084 -20.817589
9.5999079 0.95998955 -20.883255
9.5964155 9.5367432e-07 -20.900715
9.592926 -0.95929241 -20.918167
9.6087933 -1.9217606 -20.838825
9.6370783 -2.8911247 -20.697405
9.6672134 -3.8668838 -20.54673
9.7148676 -4.8574352 -20.308458
9.777915 -5.8667498 -19.993223
9.841815 -6.8892722 -19.673721
9.9356422 -7.9485135 -19.204586
10.045271 -9.0407467 -18.656443
10.173176 -10.173176 -18.016918
10.343991 -11.378389 -17.162842
10.532312 -12.638776 -16.221235
10.836744 -14.087768 -14.699075
11.248464 -15.747849 -12.640478
12.987917 16.530075 -9.8468122
12.218711 14.440293 -13.343203
11.821896 12.896612 -15.146905
11.569225 11.569224 -16.295412
11.358201 10.325636 -17.254612
11.201364 9.164753 -17.967508
11.071673 8.0521259 -18.557007
10.962747 6.9762936 -19.05213
10.886857 5.9382863 -19.397083
10.812043 4.9145632 -19.737144
10.759596 3.9125805 -19.97554
10.723387 2.9245567 -20.140133
10.687387 1.943161 -20.303762
10.673595 0.97032642 -20.366451
10.677749 -2.8610229e-06 -20.347576
10.681872 -0.97107983 -20.328827
10.701376 -1.9457045 -20.240177
10.73327 -2.9272547 -20.095205
10.771054 -3.9167471 -19.92346
10.829275 -4.922399 -19.658817
10.900836 -5.9459114 -19.333538
10.98145 -6.9881959 -18.967113
11.097183 -8.0706758 -18.441055
11.228722 -9.1871367 -17.843153
11.387797 -10.352544 -17.120087
11.600616 -11.600616 -16.152727
11.876389 -12.956062 -14.899212
12.253688 -14.481633 -13.184216
13.159651 -16.748646 -9.066206
13.975539 15.140167 -10.651381
13.305897 13.305895 -13.441561
12.936271 11.85825 -14.981666
12.65613 10.546773 -16.148926
12.45884 9.3441277 -16.970961
12.298431 8.1989555 -17.639332
12.159266 7.0929012 -18.219189
12.062532 6.0312672 -18.622238
11.977015 4.9904222 -18.978569
11.909938 3.9699788 -19.258057
11.866609 2.9666519 -19.438595
11.828808 1.971467 -19.596098
11.809059 0.98408794 -19.678387
11.804042 9.5367432e-07 -19.699291
11.799172 -0.98326588 -19.719578
11.823991 -1.9706659 -19.616169
11.866863 -2.9667172 -19.437532
11.910048 -3.9700203 -19.257597
11.979949 -4.9916458 -18.966339
12.069469 -6.0347357 -18.593338
12.1603 -7.0935063 -18.21488
12.304897 -8.2032661 -17.612392
12.468656 -9.351491 -16.930067
12.6924 -10.577003 -15.997798
12.960627 -11.880573 -14.880187
13.345856 -13.345855 -13.275066
14.196241 -15.379263 -9.7317934
15.317325 14.139069 -9.9700108
14.497036 12.266722 -13.124964
14.103963 10.849199 -14.636787
13.805819 9.5578718 -15.783492
13.599211 8.3687439 -16.578138
13.412012 7.2218513 -17.298136
13.301951 6.1393609 -17.721445
13.193682 5.074492 -18.137867
13.112386 4.0345788 -18.450542
13.061012 3.0140805 -18.648129
13.010041 2.0015459 -18.844177
12.985892 0.99891472 -18.937057
12.99182 -1.9073486e-06 -18.914257
12.997713 -0.99982166 -18.89159
13.027095 -2.0041685 -18.778587
13.07248 -3.0167294 -18.604025
13.126539 -4.0389361 -18.396111
13.216563 -5.0832939 -18.049858
13.322876 -6.1490197 -17.640966
13.448269 -7.241375 -17.158686
13.631424 -8.3885708 -16.454245
13.838653 -9.5806055 -15.657209
14.141768 -10.878283 -14.491384
14.539912 -12.303004 -12.96006
15.44609 -14.257929 -9.4747601
15.835018 11.310726 -12.329158
15.325953 9.852396 -14.147253
15.060684 8.6061039 -15.094635
14.821635 7.4108152 -15.948388
14.663846 6.2845054 -16.511915
14.528282 5.1886716 -16.996069
14.419436 4.1198363 -17.384809
14.351232 3.0752625 -17.628397
14.296722 2.0423889 -17.823071
14.26603 1.0189991 -17.932686
14.258944 -9.5367432e-07 -17.958002
14.251906 -1.0179939 -17.98313
14.288697 -2.0412459 -17.851732
14.350226 -3.0750494 -17.631987
14.412242 -4.1177821 -17.410507
14.52819 -5.188642 -16.996407
14.666233 -6.2855301 -16.503391
14.840234 -7.4201202 -15.881957
15.096109 -8.6263485 -14.968123
15.397076 -9.898119 -13.893237
15.919953 -11.371397 -12.025822
17.409323 10.44559 -10.851726
16.803743 8.9619942 -12.870319
16.433577 7.6690011 -14.104208
16.176407 6.470562 -14.961438
15.994658 5.3315511 -15.567268
15.832355 4.2219601 -16.10828
15.754591 3.1509161 -16.367493
15.679319 2.0905743 -16.618401
15.634834 1.0423212 -16.76668
15.64071 -0 -16.747097
15.649685 -1.043314 -16.71718
15.696652 -2.0928884 -16.560621
15.774617 -3.1549249 -16.300739
15.860548 -4.2294798 -16.014301
16.01716 -5.3390541 -15.492265
16.204916 -6.4819674 -14.866409
16.447687 -7.6755848 -14.057177
16.853903 -8.9887495 -12.703119
17.486383 -10.491832 -10.594849
18.595493 8.1355286 -10.771876
18.059147 6.7721806 -12.447963
17.740583 5.5439301 -13.443472
17.480055 4.3700161 -14.257625
17.369204 3.2567244 -14.604034
17.25975 2.1574664 -14.946074
17.198586 1.0749125 -15.137217
17.208357 -1.9073486e-06 -15.106682
17.221249 -1.0763292 -15.066397
17.293428 -2.1616778 -14.840831
17.398077 -3.2621412 -14.5138
17.535416 -4.3838563 -14.08462
17.783104 -5.5572214 -13.310595
18.086994 -6.7826223 -12.360943
18.736437 -8.1971912 -10.331431
19.866333 4.6744308 -10.452407
19.500042 3.4411821 -11.529733
19.282928 2.2685761 -12.168303
19.14963 1.1264482 -12.56036
19.171167 -2.8610229e-06 -12.497006
19.192825 -1.1289916 -12.433312
19.323248 -2.2733259 -12.049716
19.549025 -3.4498284 -11.385663
19.867342 -4.6746697 -10.449437
