# .PCD v0.7 - Point Cloud Data file format
VERSION 0.7
FIELDS x y z
SIZE 4 4 4
TYPE F F F
COUNT 1 1 1
WIDTH 1050
HEIGHT 1
VIEWPOINT 0 0 0 1 0 0 0
POINTS 1050
DATA ascii
-23.509403 1.2373364 -7.0159435
-21.860897 7.286963 -8.1580811
-20.739801 5.7610545 -11.272237
-20.370049 4.5266752 -12.299328
-20.145067 3.3575077 -12.924277
-19.954651 2.2171803 -13.453209
-19.900564 1.105587 -13.603456
-19.870461 9.5367432e-07 -13.687073
-19.871006 -1.1039481 -13.685557
-20.006062 -2.2228985 -13.310404
-20.148851 -3.3581424 -12.913768
-20.426722 -4.5392733 -12.141906
-20.839479 -5.7887449 -10.995353
-19.940115 9.3835802 -10.235402
-19.193766 7.9033151 -12.430543
-18.801823 6.6359353 -13.583315
-18.518307 5.446559 -14.417187
-18.335781 4.3143001 -14.954028
-18.218733 3.2150707 -15.298294
-18.115995 2.1312928 -15.60046
-18.058231 1.0622506 -15.770348
-18.055729 -1.4305115e-06 -15.777709
-18.057219 -1.0621891 -15.773331
-18.123676 -2.1321955 -15.577866
-18.231785 -3.2173738 -15.259898
-18.35091 -4.3178616 -14.909533
-18.569281 -5.4615564 -14.267263
-18.823429 -6.6435628 -13.519768
-19.298027 -7.9462466 -12.12389
-20.018475 -9.4204578 -10.004934
-19.020544 11.88784 -9.4435968
-18.079563 10.169752 -12.384166
-17.603277 8.8016357 -13.872559
-17.265596 7.5536971 -14.927809
-17.03681 6.3888035 -15.642769
-16.859699 5.2686572 -16.196234
-16.71299 4.1782484 -16.654701
-16.644218 3.1207929 -16.86961
-16.577559 2.0721927 -17.077923
-16.528498 1.0330286 -17.231243
-16.534708 -9.5367432e-07 -17.211838
-16.544748 -1.0340471 -17.180458
-16.578255 -2.0722837 -17.075752
-16.661184 -3.1239738 -16.816597
-16.749142 -4.1872854 -16.541729
-16.886127 -5.2769151 -16.113647
-17.07398 -6.4027429 -15.526611
-17.317331 -7.5763326 -14.766132
-17.665903 -8.8329544 -13.676847
-18.128767 -10.197433 -12.230399
-17.311926 12.69541 -11.176377
-16.618744 11.079163 -13.486982
-16.236801 9.7420769 -14.760126
-15.943733 8.5033226 -15.737019
-15.72662 7.3390884 -16.460735
-15.558092 6.2232337 -17.022491
-15.430385 5.1434598 -17.448181
-15.310047 4.0826778 -17.849306
-15.243236 3.0486493 -18.07201
-15.189517 2.0252686 -18.251072
-15.147146 1.0098076 -18.392307
-15.15485 -0 -18.366631
-15.167563 -1.0111713 -18.324251
-15.181493 -2.0242014 -18.277822
-15.25258 -3.0505157 -18.040865
-15.324579 -4.0865569 -17.800867
-15.420576 -5.1401925 -17.480877
-15.580034 -6.2320132 -16.949348
-15.743134 -7.3467951 -16.405685
-15.980309 -8.5228329 -15.615098
-16.258018 -9.7548103 -14.689402
-16.733727 -11.155818 -13.103704
-17.440079 -12.789391 -10.749205
-15.956205 13.676746 -11.896349
-15.357872 12.066898 -14.033256
-14.993925 10.709946 -15.333066
-14.724179 9.4655418 -16.296444
-14.527534 8.3014488 -16.998747
-14.34479 7.1723933 -17.651403
-14.22208 6.0951777 -18.089655
-14.121961 5.0435581 -18.447224
-14.032588 4.0093107 -18.766415
-13.97947 2.9955997 -18.95612
-13.941707 1.9916716 -19.090988
-13.906851 0.99334717 -19.215473
-13.905562 -1.9073486e-06 -19.220074
-13.919137 -0.9942255 -19.171593
-13.934377 -1.9906263 -19.117167
-13.987586 -2.9973402 -18.927134
-14.054036 -4.0154414 -18.689814
-14.122537 -5.0437627 -18.445168
-14.24168 -6.1035786 -18.01965
-14.366699 -7.1833501 -17.573158
-14.547845 -8.3130569 -16.92621
-14.775362 -9.4984503 -16.113647
-15.057061 -10.755047 -15.107578
-15.442091 -12.133072 -13.732474
-16.128473 -13.824409 -11.281107
-14.791751 14.79175 -11.991447
-14.216975 13.123361 -14.202121
-13.858043 11.726033 -15.582634
-13.606951 10.466884 -16.548368
-13.373556 9.2586145 -17.446045
-13.227679 8.140111 -18.007109
-13.091092 7.0490489 -18.532442
-12.977031 5.9893985 -18.971142
-12.898216 4.9608507 -19.274271
-12.820865 3.9448814 -19.571781
-12.769134 2.946722 -19.770746
-12.741252 1.9601946 -19.877983
-12.715191 0.97808838 -19.978216
-12.712099 -1.9073486e-06 -19.990105
-12.726214 -0.97894192 -19.935822
-12.740358 -1.9600573 -19.881416
-12.778728 -2.9489355 -19.733841
-12.834907 -3.9492006 -19.517776
-12.891539 -4.9582829 -19.299953
-12.991659 -5.99615 -18.914879
-13.110373 -7.0594306 -18.458288
-13.239944 -8.1476564 -17.959936
-13.421046 -9.2914963 -17.263388
-13.60943 -10.468792 -16.538836
-13.910432 -11.770366 -15.38114
-14.297774 -13.197946 -13.89136
-14.884952 -14.884954 -11.632977
-13.744014 16.034681 -11.616071
-13.143326 14.238601 -14.118938
-12.773846 12.773847 -15.65844
-12.524011 11.480345 -16.699417
-12.316159 10.263466 -17.565464
-12.145041 9.1087799 -18.278461
-12.018574 8.0123835 -18.805405
-11.902853 6.9433317 -19.287575
-11.815454 5.9077253 -19.651739
-11.749741 4.8957248 -19.925545
-11.688361 3.896121 -20.18129
-11.646591 2.9116488 -20.355335
-11.623001 1.9371681 -20.453627
-11.601249 0.96676922 -20.544262
-11.594944 -0 -20.570528
-11.607699 -0.96731091 -20.517384
-11.622196 -1.9370337 -20.45698
-11.651861 -2.9129648 -20.33337
-11.702422 -3.9008069 -20.122704
-11.755069 -4.8979449 -19.903339
-11.828083 -5.914041 -19.599117
-11.919017 -6.9527583 -19.220226
-12.023214 -8.0154743 -18.786072
-12.177938 -9.1334553 -18.141386
-12.343243 -10.286036 -17.452621
-12.564716 -11.517656 -16.52981
-12.827091 -12.827093 -15.436581
-13.214789 -14.316026 -13.821172
-13.934544 -16.256968 -10.8222
-12.856133 17.53109 -10.445827
-12.12933 15.437324 -13.749482
-11.748997 13.885177 -15.478265
-11.481236 12.524982 -16.695354
-11.281969 11.281969 -17.601118
-11.119491 10.108629 -18.339655
-10.965021 8.9713821 -19.04179
-10.870976 7.9061632 -19.469267
-10.778991 6.8593554 -19.887386
-10.699177 5.8359132 -20.250175
-10.644262 4.8382969 -20.499786
-10.591746 3.8515434 -20.738495
-10.551809 2.8777657 -20.920025
-10.53244 1.9149876 -21.00807
-10.513141 0.95574093 -21.095791
-10.504282 -0 -21.136063
-10.517233 -0.95611286 -21.077196
-10.530215 -1.9145851 -21.018181
-10.552313 -2.8779039 -20.917738
-10.599135 -3.8542328 -20.704908
-10.646343 -4.8392467 -20.490328
-10.706004 -5.8396387 -20.219145
-10.789471 -6.8660302 -19.839748
-10.879128 -7.9120936 -19.432213
-10.998372 -8.9986687 -18.890198
-11.133549 -10.121407 -18.275757
-11.297451 -11.297451 -17.530746
-11.523844 -12.571466 -16.501688
-11.816214 -13.964616 -15.172735
-12.20422 -15.532644 -13.409066
-13.158427 -17.943312 -9.071763
-11.190653 16.78598 -12.929529
-10.764396 15.07015 -15.060817
-10.487795 13.63413 -16.443823
-10.285378 12.342453 -17.455908
-10.112885 11.124171 -18.318373
-9.9793596 9.9793587 -18.985996
-9.8615084 8.8753567 -19.575258
-9.7752714 7.8202162 -20.006437
-9.6905003 6.7833471 -20.430294
-9.6271315 5.776279 -20.747135
-9.5822716 4.7911367 -20.971434
-9.5380259 3.8152103 -21.192665
-9.5056009 2.8516798 -21.354797
-9.4905472 1.8981085 -21.430058
-9.475709 0.94756985 -21.504251
-9.4682102 -1.9073486e-06 -21.541746
-9.4797287 -0.94797325 -21.484156
-9.4914713 -1.8982954 -21.425438
-9.5088301 -2.8526497 -21.338644
-9.5481291 -3.8192539 -21.142155
-9.5877819 -4.7938933 -20.943888
-9.6348276 -5.7808971 -20.708656
-9.7039995 -6.792799 -20.362797
-9.7838001 -7.8270416 -19.963795
-9.8835859 -8.8952265 -19.464865
-10.00228 -10.002281 -18.871395
-10.134476 -11.147924 -18.210413
-10.314651 -12.377581 -17.309544
-10.52033 -13.67643 -16.281145
-10.813732 -15.139226 -14.814137
-11.291283 -16.936924 -12.426382
-10.344901 18.390932 -11.411129
-9.8178663 16.36311 -14.339092
-9.5164537 14.803373 -16.013607
-9.3096819 13.447317 -17.162344
-9.1313801 12.175172 -18.152905
-8.9971313 10.99649 -18.898739
-8.8867941 9.8742142 -19.511717
-8.7826719 8.7826691 -20.090178
-8.7131596 7.745029 -20.476353
-8.6491022 6.7270794 -20.832228
-8.5926275 5.7284155 -21.145977
-8.553196 4.7517757 -21.36504
-8.5162535 3.7850018 -21.570282
-8.4866343 2.8288794 -21.734829
-8.4735003 1.8829994 -21.807798
-8.4608765 0.94009876 -21.877926
-8.4527779 -9.5367432e-07 -21.922924
-8.4632006 -0.94035721 -21.865013
-8.4741945 -1.8831511 -21.80394
-8.4874792 -2.8291626 -21.730133
-8.5223675 -3.7877197 -21.536308
-8.5581245 -4.7545133 -21.337662
-8.5972691 -5.7315135 -21.120186
-8.6574783 -6.7335939 -20.785694
-8.7185364 -7.7498112 -20.446482
-8.7945652 -8.7945662 -20.024101
-8.8985338 -9.8872623 -19.446497
-9.0054111 -11.006616 -18.852734
-9.1616507 -12.215534 -17.984739
-9.326108 -13.471045 -17.071081
-9.5684204 -14.884209 -15.724903
-9.8830242 -16.471708 -13.977111
-10.478621 -18.62866 -10.668234
-8.9326744 17.865345 -13.053583
-8.5681849 16.065346 -15.331637
-8.3405504 14.595961 -16.75436
-8.1716309 13.278897 -17.810108
-8.0373459 12.056017 -18.649384
-7.9230499 10.894194 -19.363735
-7.8277535 9.7846918 -19.959335
-7.7454271 8.713604 -20.473879
-7.6852679 7.6852684 -20.849869
-7.6260591 6.672801 -21.219927
-7.57546 5.6815948 -21.536175
-7.5428567 4.7142849 -21.739941
-7.511344 3.7556696 -21.936893
-7.4860969 2.8072834 -22.094696
-7.475945 1.8689861 -22.158138
-7.4658432 0.93322754 -22.221279
-7.4585972 -0 -22.266562
-7.4679866 -0.93349838 -22.20788
-7.4773779 -1.8693466 -22.149185
-7.4872508 -2.8077192 -22.087482
-7.5168705 -3.7584381 -21.902355
-7.5467482 -4.7167177 -21.71562
-7.5774221 -5.6830649 -21.523911
-7.6348786 -6.6805182 -21.164804
-7.6932135 -7.6932144 -20.800209
-7.7594333 -8.7293625 -20.386337
-7.8451662 -9.8064604 -19.850506
-7.9332304 -10.908193 -19.300106
-8.054822 -12.082234 -18.540161
-8.1862583 -13.30267 -17.718681
-8.3754969 -14.657121 -16.53594
-8.6180315 -16.15881 -15.020099
-8.9892502 -17.9785 -12.699983
-8.1313887 19.747654 -10.801455
-7.6565952 17.500788 -14.19283
-7.3995953 15.856276 -16.028542
-7.2221069 14.444215 -17.296314
-7.0861444 13.15998 -18.267477
-6.9681578 11.945415 -19.110239
-6.8749318 10.803463 -19.776138
-6.8012905 9.7161274 -20.302153
-6.7305565 8.653573 -20.807394
-6.6786375 7.6327286 -21.178244
-6.6322546 6.6322517 -21.509552
-6.5927563 5.6509352 -21.791677
-6.5656834 4.6897755 -21.985058
-6.5390406 3.7365932 -22.175362
-6.5174742 2.7932014 -22.329411
-6.5086989 1.8596277 -22.392088
-6.5000234 0.92857552 -22.45406
-6.4935403 -2.8610229e-06 -22.500366
-6.5016556 -0.92880821 -22.442402
-6.5098467 -1.8599567 -22.383892
-6.5181532 -2.7934961 -22.324562
-6.543561 -3.7391768 -22.143072
-6.5694366 -4.6924572 -21.958252
-6.5956521 -5.6534162 -21.770996
-6.6387429 -6.6387424 -21.463202
-6.6848006 -7.6397705 -21.134222
-6.7399397 -8.665637 -20.740366
-6.8135505 -9.7336435 -20.214579
-6.8891649 -10.82583 -19.674475
-6.9901471 -11.983108 -18.953175
-7.103013 -13.191309 -18.146988
-7.251235 -14.502473 -17.088263
-7.4252777 -15.911308 -15.845099
-7.690444 -17.578156 -13.951056
-8.2620373 -20.064947 -9.8682461
-6.7730589 19.190331 -12.44064
-6.4657965 17.242123 -15.001163
-6.2779465 15.694867 -16.566574
-6.1378789 14.321714 -17.733807
-6.0246243 13.053353 -18.677597
-5.9337053 11.867411 -19.435253
-5.8582406 10.740108 -20.064125
-5.7931409 9.6552315 -20.606621
-5.7330618 8.5995893 -21.107285
-5.6933041 7.5910711 -21.438593
-5.6553202 6.5978737 -21.755127
-5.6219611 5.6219606 -22.033117
-5.5991874 4.6659889 -22.2229
-5.5769033 3.7179346 -22.408604
-5.5585375 2.7792683 -22.561649
-5.5511546 1.8503847 -22.623173
-5.5438871 0.92397976 -22.683735
-5.5380993 -9.5367432e-07 -22.731968
-5.5450335 -0.92417431 -22.674185
-5.5520649 -1.8506889 -22.615589
-5.5591135 -2.7795582 -22.55685
-5.5801911 -3.720129 -22.381207
-5.6022577 -4.6685486 -22.197315
-5.6244998 -5.6244984 -22.011969
-5.6603265 -6.6037164 -21.713408
-5.6977563 -7.5970073 -21.401493
-5.7406464 -8.6109705 -21.044077
-5.800293 -9.6671562 -20.54702
-5.8612103 -10.745551 -20.039375
-5.943037 -11.886076 -19.357487
-6.0378485 -13.082006 -18.567394
-6.1577067 -14.367984 -17.568575
-6.3012815 -15.753205 -16.37212
-6.511826 -17.36487 -14.617577
-6.8454528 -19.395452 -11.837358
-5.5530777 18.880466 -13.352016
-5.3335142 17.067242 -15.547654
-5.1930766 15.579229 -16.95203
-5.0764303 14.214005 -18.118496
-4.9902682 12.974692 -18.980118
-4.9157662 11.797836 -19.725134
-4.8542395 10.679326 -20.340401
-4.8051286 9.6102533 -20.831512
-4.7589989 8.5661974 -21.292807
-4.7246389 7.5594196 -21.636404
-4.6907721 6.5670795 -21.975075
-4.6625147 5.5950165 -22.257648
-4.6445489 4.6445465 -22.437309
-4.6267338 3.7013845 -22.615458
-4.6120801 2.7672482 -22.761993
-4.606245 1.8424959 -22.820347
-4.6004243 0.92008591 -22.878555
-4.5956941 -0 -22.925854
-4.6012793 -0.92025471 -22.870003
-4.6068912 -1.8427582 -22.813887
-4.6125298 -2.767518 -22.7575
-4.6291428 -3.7033148 -22.591366
-4.6467619 -4.6467628 -22.415178
-4.664515 -5.5974197 -22.237646
-4.6954122 -6.573576 -21.928677
-4.7292771 -7.5668445 -21.590027
-4.764791 -8.5766249 -21.234888
-4.8141131 -9.6282272 -20.741663
-4.8644528 -10.701799 -20.238268
-4.9280663 -11.827361 -19.602135
-5.0023837 -13.006198 -18.858955
-5.0928826 -14.260074 -17.953974
-5.2033706 -15.610111 -16.849094
-5.3645239 -17.166479 -15.237555
-5.6025343 -19.048618 -12.857447
-4.4014964 18.706356 -13.864097
-4.2346969 16.938787 -15.949082
-4.1271958 15.476983 -17.292843
-4.0420671 14.147234 -18.356956
-3.9747231 12.917847 -19.198761
-3.9152579 11.745772 -19.942072
-3.8688025 10.639207 -20.522762
-3.8287592 9.5718975 -21.023306
-3.7924724 8.533062 -21.476891
-3.765846 7.5316877 -21.809723
-3.7417316 6.5480289 -22.111149
-3.7209876 5.581481 -22.370453
-3.7064383 4.6330471 -22.552315
-3.6922462 3.6922436 -22.729717
-3.6808443 2.7606335 -22.872238
-3.6761041 1.8380518 -22.931499
-3.6714697 0.91786671 -22.989424
-3.6678712 -9.5367432e-07 -23.034407
-3.672245 -0.91806221 -22.979736
-3.6767025 -1.8383512 -22.924019
-3.6811919 -2.7608948 -22.867897
-3.6944504 -3.6944494 -22.702166
-3.708446 -4.6355591 -22.52722
-3.72258 -5.5838699 -22.350544
-3.7449212 -6.5536137 -22.071281
-3.768878 -7.5377574 -21.771824
-3.7967005 -8.5425758 -21.424046
-3.8358326 -9.5895824 -20.934889
-3.8757799 -10.658395 -20.435549
-3.9255736 -11.77672 -19.813126
-3.9844666 -12.949514 -19.076962
-4.0550294 -14.192602 -18.194935
-4.1425762 -15.534662 -17.100592
-4.2613873 -17.045551 -15.615451
-4.43014 -18.828094 -13.506048
-3.273288 18.54863 -14.327997
-3.1591251 16.848667 -16.230713
-3.0833566 15.416785 -17.493519
-3.0173864 14.081137 -18.593023
-2.9704309 12.871862 -19.37562
-2.9284008 11.7136 -20.076117
-2.8941913 10.612033 -20.646271
-2.8635721 9.5452394 -21.156595
-2.8369741 8.5109215 -21.599892
-2.8172884 7.5127697 -21.92799
-2.7993014 6.531702 -22.227776
-2.7840452 5.5680885 -22.48204
-2.7731538 4.6219206 -22.663567
-2.7623711 3.6831627 -22.843281
-2.75405 2.7540483 -22.981962
-2.7505114 1.8336725 -23.040939
-2.7469821 0.91566086 -23.099762
-2.7444208 -1.9073486e-06 -23.142448
-2.7476857 -0.91589451 -23.088032
-2.7509661 -1.8339767 -23.033363
-2.7543015 -2.7543049 -22.977772
-2.764277 -3.6857061 -22.81151
-2.774668 -4.6244488 -22.638327
-2.7852018 -5.5704031 -22.462767
-2.8018849 -6.5377326 -22.184715
-2.8195755 -7.5188689 -21.889868
-2.8392353 -8.5177069 -21.56221
-2.8674417 -9.5581417 -21.0921
-2.8962057 -10.619423 -20.612703
-2.9316196 -11.726479 -20.022469
-2.9754014 -12.893408 -19.29277
-3.0269504 -14.125771 -18.433622
-3.0919771 -15.459885 -17.349846
-3.1786158 -16.952621 -15.905862
-3.2974355 -18.685467 -13.925538
-3.5356474 -21.213886 -9.9553394
-2.1734674 18.47447 -14.546114
-2.0991805 16.793442 -16.403286
-2.0496211 15.372159 -17.642269
-2.0081077 14.056751 -18.680103
-1.9764198 12.846727 -19.472298
-1.9469347 11.681606 -20.209427
-1.9252825 10.589052 -20.750734
-1.9063962 9.5319815 -21.222893
-1.8890847 8.5008802 -21.655678
-1.8757401 7.5029597 -21.989292
-1.8625827 6.5190372 -22.31823
-1.8522007 5.5566025 -22.57778
-1.8451337 4.6128321 -22.754456
-1.8381149 3.6762295 -22.929924
-1.8327031 2.7490549 -23.065216
-1.8303007 1.8302994 -23.125277
-1.8279045 0.91395187 -23.185184
-1.8262086 -2.8610229e-06 -23.227581
-1.8282681 -0.91413403 -23.176098
-1.8303423 -1.8303413 -23.124237
-1.8324214 -2.7486315 -23.072258
-1.8389553 -3.6779108 -22.908916
-1.8456998 -4.6142502 -22.740305
-1.8524992 -5.5574989 -22.570316
-1.8645304 -6.5258579 -22.269535
-1.8774691 -7.5098777 -21.94607
-1.8909106 -8.509099 -21.610033
-1.9096767 -9.5483837 -21.140879
-1.9288712 -10.60879 -20.661018
-1.9526166 -11.715698 -20.067383
-1.9807198 -12.874677 -19.364799
-2.0138755 -14.097129 -18.535908
-2.0554004 -15.415505 -17.497784
-2.1097903 -16.878325 -16.138031
-2.186172 -18.58246 -14.228497
-2.3333097 -20.999788 -10.550053
-1.0830946 18.412605 -14.72807
-1.0482773 16.772436 -16.468931
-1.0233572 15.350355 -17.714939
-1.0027493 14.038487 -18.745331
-0.98719144 12.833487 -19.523228
-0.97316122 11.677935 -20.224735
-0.96210021 10.583102 -20.777786
-0.9519406 9.5194073 -21.285765
-0.94342929 8.4908609 -21.711334
-0.9371081 7.4968634 -22.02739
-0.93109196 6.5176449 -22.328197
-0.92616165 5.5569687 -22.574715
-0.92247951 4.6123962 -22.75882
-0.91897088 3.6758823 -22.934254
-0.91638553 2.749155 -23.063519
-0.91512692 1.8302536 -23.126451
-0.91392893 0.91392803 -23.186352
-0.9132027 -2.8610229e-06 -23.22266
-0.91417295 -0.91417313 -23.174149
-0.91520762 -1.8304167 -23.122414
-0.9162994 -2.7488966 -23.067823
-0.9195801 -3.6783209 -22.903791
-0.92294776 -4.6147404 -22.735409
-0.92634827 -5.5580907 -22.565384
-0.93186033 -6.5230227 -22.289782
-0.93772793 -7.5018215 -21.996401
-0.94450355 -8.5005302 -21.657619
-0.95389026 -9.5389032 -21.188286
-0.96349722 -10.598469 -20.707939
-0.9754324 -11.705191 -20.111176
-0.98953468 -12.863955 -19.406059
-1.0062106 -14.086948 -18.572271
-1.0270214 -15.405321 -17.531727
-1.0543838 -16.870142 -16.163609
-1.0914105 -18.553978 -14.312273
-1.1594673 -20.870409 -10.90943
0 18.43277 -14.668769
0 16.778393 -16.450314
0 15.339965 -17.749571
0 14.035689 -18.755327
0 12.834981 -19.517475
0 11.679313 -20.218996
0 10.586394 -20.762825
0 9.5241108 -21.262243
0 8.4943991 -21.691689
0 7.4967756 -22.027939
0 6.5175495 -22.328873
0 5.5576563 -22.568985
0 4.6126862 -22.755913
0 3.6755447 -22.938454
0 2.7492714 -23.061563
0 1.8303099 -23.125019
0 0.91390514 -23.187523
0 -0 -23.217602
0 -0.91426849 -23.169346
0 -1.8304958 -23.120462
0 -2.7493868 -23.059738
0 -3.6789618 -22.895777
0 -4.615243 -22.730377
0 -5.5586824 -22.560448
0 -6.5245523 -22.278849
0 -7.5023055 -21.993393
0 -8.4993858 -21.66399
0 -9.5354271 -21.205666
0 -10.591749 -20.738495
0 -11.696293 -20.148249
0 -12.853284 -19.4471
0 -14.077311 -18.606693
0 -15.395349 -17.564976
0 -16.86594 -16.176735
0 -18.555801 -14.306908
0 -20.928019 -10.749413
1.0866493 18.473036 -14.550334
1.051356 16.821693 -16.314995
1.0247779 15.37167 -17.643898
1.0047121 14.065969 -18.64719
0.98898131 12.856754 -19.433735
0.9737972 11.685567 -20.192932
0.96330684 10.596375 -20.717455
0.95361042 9.5361042 -21.202276
0.94516933 8.5065222 -21.624336
0.93830752 7.5064592 -21.967419
0.93154204 6.5207939 -22.305693
0.92667097 5.5600252 -22.549244
0.92297423 4.614872 -22.734081
0.91930956 3.6772375 -22.917322
0.91683984 2.7505169 -23.040806
0.91547835 1.8309555 -23.108879
0.91412359 0.91412258 -23.176619
0.9135164 -9.5367432e-07 -23.206974
0.91441965 -0.91441917 -23.16181
0.91533774 -1.830677 -23.115908
0.916623 -2.7498684 -23.051643
0.91990334 -3.6796112 -22.887629
0.92320728 -4.6160383 -22.722435
0.92665499 -5.5599318 -22.550045
0.93282735 -6.5297933 -22.24143
0.93916184 -7.5132971 -21.924702
0.94613349 -8.5152044 -21.576122
0.95533437 -9.5533447 -21.116077
0.96479118 -10.612701 -20.643236
0.97701967 -11.724237 -20.031815
0.99091488 -12.881893 -19.337053
1.0080322 -14.112452 -18.481186
1.0286232 -15.429348 -17.451632
1.0564674 -16.903481 -16.059427
1.095035 -18.615597 -14.131047
1.1664646 -20.996363 -10.559566
2.1876805 18.595282 -14.190784
2.111985 16.895876 -16.083174
2.0563066 15.422297 -17.475132
2.0138505 14.09695 -18.536539
1.9831426 12.890423 -19.304232
1.9534758 11.720856 -20.045898
1.9314817 10.623146 -20.595757
1.9100224 9.5501099 -21.132236
1.8931631 8.5192327 -21.55372
1.8802881 7.5211511 -21.875595
1.8675817 6.5365343 -22.193254
1.8579428 5.5738268 -22.434225
1.8501563 4.625391 -22.628887
1.8427881 3.6855726 -22.813095
1.838136 2.7572031 -22.929398
1.8352742 1.8352718 -23.000942
1.8325466 0.91627312 -23.069128
1.8316654 -9.5367432e-07 -23.091164
1.83334 -0.9166708 -23.049294
1.8351643 -1.8351669 -23.003687
1.8380152 -2.7570219 -22.932419
1.8443669 -3.688736 -22.773621
1.8509277 -4.6273184 -22.609604
1.8581949 -5.574585 -22.427923
1.8693066 -6.5425754 -22.150131
1.8813709 -7.5254846 -21.848526
1.8957949 -8.5310783 -21.487923
1.9144139 -9.5720692 -21.022449
1.9334892 -10.634191 -20.545568
1.9587309 -11.75239 -19.91452
1.9869627 -12.915258 -19.208727
2.0223799 -14.156661 -18.323299
2.064187 -15.481403 -17.27812
2.1225922 -16.98074 -15.817989
2.2032943 -18.728003 -13.800437
2.3955579 -21.560019 -8.9938545
3.3068204 18.738649 -13.769119
3.1842875 16.982864 -15.81134
3.0985463 15.492727 -17.24036
3.0352769 14.164627 -18.294846
2.9842489 12.931742 -19.145317
2.9397607 11.759042 -19.886787
2.9068 10.658265 -20.436131
2.8754609 9.5848675 -20.958452
2.8493743 8.5481205 -21.393227
2.827486 7.5399604 -21.758028
2.8083315 6.5527716 -22.077274
2.794343 5.5886831 -22.310413
2.7820718 4.6367846 -22.514935
2.770472 3.6939602 -22.708263
2.7640316 2.7640324 -22.815598
2.7595761 1.839716 -22.889862
2.7553077 0.91843414 -22.961002
2.7545843 1.9073486e-06 -22.973057
2.7569833 -0.91899586 -22.933073
2.7595444 -1.8396978 -22.890388
2.7644987 -2.7644997 -22.807817
2.7739825 -3.6986446 -22.649754
2.783668 -4.6394472 -22.488329
2.7953057 -5.5906129 -22.294365
2.8120778 -6.5615158 -22.014835
2.8290436 -7.5441184 -21.732067
2.8511832 -8.5535498 -21.363075
2.8788559 -9.5961876 -20.901861
2.9070714 -10.659264 -20.431608
2.9462645 -11.785057 -19.778391
2.9884517 -12.949958 -19.075268
3.0437934 -14.20437 -18.152905
3.107002 -15.535012 -17.099428
3.1998434 -17.065834 -15.552072
3.3362331 -18.905321 -13.278912
4.4664769 18.982523 -13.051837
4.2848196 17.139278 -15.322547
4.1622119 15.608294 -16.855145
4.0700421 14.245148 -18.007271
3.9961677 12.987545 -18.9307
3.9388578 11.816572 -19.647072
3.891233 10.700889 -20.242386
3.8491142 9.6227827 -20.768867
3.8149843 8.5837126 -21.195492
3.7850902 7.5701804 -21.569164
3.7562089 6.5733671 -21.930183
3.7374191 5.6061249 -22.165058
3.7209983 4.6512489 -22.370319
3.7047319 3.704731 -22.57365
3.6959672 2.7719746 -22.683205
3.6893473 1.8446732 -22.765957
3.6827397 0.92068291 -22.848545
3.682266 -1.9073486e-06 -22.854475
3.6854813 -0.92137241 -22.814281
3.6887023 -1.8443518 -22.774017
3.6960204 -2.7720175 -22.682541
3.7087345 -3.7087374 -22.523617
3.7215364 -4.6519194 -22.363594
3.7379944 -5.6069913 -22.157867
3.7630825 -6.5853977 -21.844265
3.7885101 -7.5770211 -21.526417
3.8200221 -8.5950518 -21.132519
3.8572798 -9.6431999 -20.6668
3.8960261 -10.714073 -20.182467
3.9512868 -11.853861 -19.491716
4.0089111 -13.028963 -18.771408
4.0876575 -14.306802 -17.787081
4.178288 -15.668582 -16.654194
4.306551 -17.226202 -15.050914
4.500864 -19.12867 -12.621998
5.6923952 19.354145 -11.958839
5.4125404 17.320126 -14.757395
5.245966 15.737897 -16.423134
5.1250319 14.350086 -17.632479
5.0313358 13.081472 -18.569439
4.9559479 11.894274 -19.323317
4.8944888 10.767875 -19.937908
4.8347249 9.6694489 -20.535547
4.7909222 8.6236572 -20.973576
4.7549629 7.6079412 -21.333164
4.7195396 6.6073537 -21.687399
4.6953983 5.6344767 -21.928816
4.6737275 4.673727 -22.145519
4.6531982 3.722559 -22.350813
4.6429405 2.7857637 -22.45339
4.6343021 1.8537207 -22.539776
4.6259623 0.92519379 -22.623173
4.625896 -0 -22.623837
4.6292896 -0.9258585 -22.589901
4.632915 -1.8531666 -22.553646
4.6430745 -2.7858467 -22.452053
4.658803 -3.7270403 -22.294769
4.6749091 -4.6749115 -22.133707
4.6969471 -5.6363358 -21.913326
4.7249446 -6.614924 -21.633352
4.75665 -7.6106391 -21.316299
4.7983656 -8.6370573 -20.899143
4.8463302 -9.6926613 -20.419495
4.898169 -10.775972 -19.901104
4.9688945 -11.92535 -19.193846
5.042593 -13.110743 -18.456863
5.1479044 -14.414133 -17.403755
5.2709346 -15.812801 -16.173454
5.4423976 -17.415674 -14.458819
5.7678294 -19.610622 -11.204507
7.0726161 20.039076 -9.944334
6.5995135 17.598705 -13.886847
6.3720217 15.930054 -15.782616
6.211246 14.492907 -17.122414
6.0864549 13.187319 -18.162338
5.9873376 11.974674 -18.988319
5.9138241 10.842009 -19.600929
5.8420939 9.7368221 -20.198681
5.7874804 8.681221 -20.653791
5.7365189 7.6486921 -21.078472
5.6937408 6.6426992 -21.434956
5.6651258 5.665123 -21.673416
5.6367807 4.6973171 -21.909624
5.6112766 3.7408514 -22.122158
5.599999 2.7999964 -22.216135
5.5887833 1.8629255 -22.309603
5.5784659 0.92974281 -22.395578
5.5801587 9.5367432e-07 -22.381474
5.5835309 -0.93059158 -22.353373
5.5877481 -1.8625822 -22.31823
5.6020789 -2.8010397 -22.198805
5.6205049 -3.7470045 -22.045254
5.6398101 -4.6998434 -21.884378
5.6687512 -5.6687522 -21.6432
5.7027369 -6.653194 -21.359985
5.7393155 -7.6524196 -21.055172
5.7928281 -8.6892414 -20.60923
5.8503604 -9.7506008 -20.129795
5.9178658 -10.849421 -19.567247
6.0050821 -12.010166 -18.840441
6.1029606 -13.223081 -18.024796
6.2354345 -14.549347 -16.920841
6.4050784 -16.012695 -15.507139
6.6494665 -17.731911 -13.470579
7.2676578 -20.5917 -8.3189802
7.8775306 18.005785 -12.614717
7.5428481 16.163244 -15.005312
7.3327107 14.665421 -16.506294
7.1743364 13.323767 -17.637535
7.0531106 12.091046 -18.503437
6.9523735 10.925157 -19.222984
6.8636003 9.8051414 -19.857079
6.801434 8.7447014 -20.301125
6.7429662 7.7062449 -20.718752
6.6886511 6.6886516 -21.106716
6.6524076 5.7020636 -21.365601
6.6186147 4.7275801 -21.606976
6.5878792 3.7645025 -21.826517
6.5722342 2.8166704 -21.938267
6.5571413 1.8734703 -22.046074
6.5423255 0.93461704 -22.151896
6.5452719 -9.5367432e-07 -22.130852
6.5484495 -0.93549442 -22.108154
6.5524116 -1.872117 -22.079859
6.5716019 -2.8163996 -21.942785
6.5933547 -3.7676315 -21.787403
6.6152329 -4.7251673 -21.631136
6.6555123 -5.7047276 -21.343418
6.7006874 -6.7006874 -21.020741
6.7471066 -7.7109799 -20.689178
6.8140035 -8.7608614 -20.211344
6.8837342 -9.8339081 -19.713268
6.9714355 -10.955112 -19.086828
7.0764174 -12.131002 -18.336956
7.2051067 -13.380914 -17.417749
7.3664951 -14.73299 -16.264975
7.5943136 -16.273529 -14.637699
7.9471717 -18.164967 -12.11728
9.3536177 18.707233 -10.422688
8.7994118 16.498896 -13.886473
8.5087481 14.89031 -15.703117
8.3056793 13.496726 -16.972301
8.1496954 12.224543 -17.947201
8.0224943 11.030929 -18.742208
7.9242206 9.9052734 -19.356419
7.8413911 8.8215628 -19.874104
7.771143 7.771142 -20.313148
7.7107472 6.7469039 -20.690624
7.6646314 5.7484736 -20.978851
7.6228976 4.7643108 -21.239683
7.5901775 3.7950888 -21.444187
7.5705147 2.8389406 -21.567081
7.5526371 1.8881569 -21.678818
7.538837 0.94235516 -21.765064
7.5405149 -2.8610229e-06 -21.754578
7.5440726 -0.94301033 -21.732342
7.5487618 -1.8871927 -21.703035
7.5720282 -2.83951 -21.557617
7.5974121 -3.7987089 -21.398973
7.6237102 -4.7648201 -21.234606
7.6694026 -5.7520528 -20.949026
7.7158318 -6.7513547 -20.658852
7.7744288 -7.7744298 -20.292614
7.8542366 -8.8360176 -19.793818
7.9360671 -9.920085 -19.282377
8.0471678 -11.064857 -18.587996
8.1715269 -12.25729 -17.810757
8.3366604 -13.547074 -16.778664
8.5352354 -14.936664 -15.537575
8.8456974 -16.585688 -13.597183
9.5156851 -19.031372 -9.4097652
10.199082 16.998474 -12.221221
9.763525 15.187704 -14.640993
9.4933414 13.712602 -16.14201
9.2965641 12.39542 -17.23522
9.1411209 11.172479 -18.098789
9.0151091 10.016787 -18.798859
8.9198542 8.9198532 -19.328049
8.8265648 7.8458328 -19.846327
8.751729 6.8068991 -20.262079
8.6980095 5.7986727 -20.560518
8.6458492 4.8032484 -20.850302
8.6088705 3.8261652 -21.055737
8.5863867 2.8621292 -21.180647
8.5640202 1.9031153 -21.304905
8.551959 0.95021725 -21.371914
8.5538788 9.5367432e-07 -21.361248
8.5559254 -0.95065975 -21.349882
8.5657167 -1.903491 -21.295479
8.5923729 -2.8641243 -21.147396
8.6192455 -3.8307762 -20.998096
8.6541929 -4.807888 -20.803944
8.7065334 -5.8043585 -20.513168
8.7654753 -6.8175936 -20.185713
8.8407354 -7.8584323 -19.767597
8.9325085 -8.9325113 -19.257748
9.0302019 -10.033559 -18.715008
9.1723852 -11.210694 -17.925102
9.3224764 -12.429968 -17.091263
9.5449924 -13.787213 -15.855061
9.8286943 -15.28908 -14.27894
10.303097 -17.171829 -11.643366
11.185557 15.659779 -12.955007
10.777085 14.010206 -14.997374
10.513457 12.616146 -16.315514
10.309166 11.340081 -17.336969
10.159591 10.159591 -18.084839
10.032964 9.0296669 -18.717979
9.9282551 7.9426017 -19.241522
9.8437414 6.8906178 -19.664089
9.7742319 5.8645368 -20.011635
9.7135191 4.8567567 -20.315201
9.6710472 3.8684187 -20.527557
9.6399937 2.8919983 -20.682827
9.6104574 1.9220896 -20.830507
9.5960436 0.95960522 -20.902576
9.5963011 -9.5367432e-07 -20.901287
9.5965872 -0.95965862 -20.899857
9.6099701 -1.9219933 -20.832947
9.6405706 -2.8921747 -20.679943
9.6713676 -3.8685508 -20.525959
9.716012 -4.8580074 -20.30274
9.7813025 -5.8687811 -19.976284
9.8500986 -6.8950696 -19.632301
9.9447298 -7.9557862 -19.159145
10.053116 -9.0478048 -18.61722
10.180706 -10.180708 -17.979265
10.347916 -11.382709 -17.143217
10.546601 -12.65592 -16.14979
10.813877 -14.058042 -14.813412
11.241744 -15.738443 -12.674073
12.990585 16.533472 -9.8346786
12.201276 14.419687 -13.422452
11.839806 12.916154 -15.065492
11.565483 11.565483 -16.31242
11.360206 10.327461 -17.245495
11.209948 9.1717739 -17.928493
11.063611 8.0462608 -18.593653
10.967841 6.9795341 -19.028973
10.885551 5.9375715 -19.403021
10.80729 4.9124041 -19.758749
10.765322 3.9146624 -19.949514
10.727546 2.9256935 -20.121225
10.693069 1.9441948 -20.277939
10.683645 0.97123909 -20.32077
10.6801 -1.9073486e-06 -20.336887
10.68039 -0.97094536 -20.335569
10.703123 -1.9460211 -20.232237
10.734442 -2.9275761 -20.089878
10.769154 -3.9160576 -19.932098
10.828513 -4.9220519 -19.662281
10.895602 -5.9430542 -19.357334
10.970764 -6.9813957 -19.015688
11.091933 -8.0668602 -18.46492
11.215807 -9.176569 -17.901854
11.390141 -10.354672 -17.109428
11.592525 -11.592525 -16.189505
11.883765 -12.964107 -14.865684
12.277444 -14.509707 -13.076235
13.276319 -16.897131 -8.5358944
14.003614 15.170584 -10.534399
13.323983 13.323984 -13.366196
12.910711 11.834818 -15.088163
12.665136 10.554279 -16.111397
12.44892 9.336688 -17.012297
12.285051 8.1900349 -17.69508
12.164781 7.0961227 -18.196207
12.060122 6.0300603 -18.632288
11.969108 4.9871268 -19.011513
11.912951 3.9709816 -19.245502
11.862416 2.965601 -19.456059
11.814044 1.9690075 -19.657616
11.804799 0.98373222 -19.696133
11.797118 -0 -19.728138
11.790024 -0.98250198 -19.7577
11.824497 -1.9707518 -19.614056
11.860158 -2.9650416 -19.465471
11.898599 -3.9661994 -19.305302
11.984336 -4.9934726 -18.948061
12.071695 -6.0358481 -18.584064
12.179321 -7.1046062 -18.135628
12.319223 -8.2128162 -17.5527
12.472642 -9.3544807 -16.913456
12.698703 -10.582253 -15.971538
12.960236 -11.880213 -14.881819
13.35661 -13.356609 -13.230257
14.177218 -15.358654 -9.8110495
15.269414 14.094843 -10.154278
14.467159 12.241441 -13.239878
14.09978 10.845985 -14.652873
13.819043 9.56703 -15.732632
13.591214 8.3638248 -16.608891
13.435097 7.234283 -17.209349
13.293878 6.1356363 -17.752499
13.187485 5.0721087 -18.161699
13.12312 4.0378809 -18.409256
13.060728 3.0140128 -18.649229
13.018785 2.0028887 -18.810547
13.003571 1.0002737 -18.869061
12.992628 -0 -18.911156
12.997874 -0.99983883 -18.890974
13.031559 -2.0048542 -18.761419
13.070479 -3.0162659 -18.611721
13.129752 -4.0399265 -18.383751
13.213683 -5.0821886 -18.060938
13.299625 -6.138289 -17.730391
13.449825 -7.2422132 -17.152697
13.61634 -8.3792877 -16.512255
13.846484 -9.5860291 -15.627086
14.139092 -10.876226 -14.501672
14.585837 -12.341866 -12.783423
15.480954 -14.290114 -9.3406649
16.940016 13.310008 -8.3827429
15.837133 11.312238 -12.321605
15.36337 9.8764515 -14.013617
15.041227 8.594986 -15.164129
14.830563 7.4152799 -15.916502
14.646066 6.2768841 -16.575418
14.526598 5.1880684 -17.002094
14.428996 4.1225696 -17.35067
14.341274 3.0731297 -17.66396
14.290374 2.041481 -17.845745
14.265715 1.01898 -17.933813
14.241096 -0 -18.021744
14.25786 -1.0184212 -17.961868
14.296405 -2.042345 -17.824207
14.335204 -3.0718298 -17.685633
14.427564 -4.1221604 -17.355785
14.539816 -5.1927929 -16.95488
14.671821 -6.2879238 -16.48344
14.863341 -7.4316711 -15.799432
15.074139 -8.6137953 -15.046591
15.407396 -9.9047585 -13.856382
15.908205 -11.363004 -12.067779
17.369921 10.421949 -10.983065
16.791761 8.9556017 -12.910265
16.422674 7.6639142 -14.140549
16.168171 6.4672656 -14.98889
15.997892 5.3326297 -15.55649
15.8506 4.2268271 -16.047461
15.728003 3.1456017 -16.456123
15.688083 2.091742 -16.589188
15.648417 1.0432291 -16.721409
15.626737 -0 -16.793676
15.65994 -1.0439963 -16.682999
15.694357 -2.0925808 -16.568277
15.758603 -3.1517191 -16.354122
15.867116 -4.2312307 -15.992407
16.002346 -5.3341141 -15.541641
16.217981 -6.4871917 -14.822859
16.470526 -7.6862459 -13.981042
16.86727 -8.9958773 -12.658562
17.483282 -10.489972 -10.605195
18.571619 8.1250811 -10.846491
18.064405 6.7741518 -12.431532
17.753061 5.5478287 -13.404478
17.488605 4.3721495 -14.230907
17.368853 3.256659 -14.605133
17.284605 2.1605754 -14.868404
17.215778 1.0759835 -15.083489
17.210428 -0 -15.100208
17.235601 -1.0772247 -15.021544
17.273645 -2.1592054 -14.902649
17.395433 -3.2616463 -14.522066
17.524376 -4.3810945 -14.119123
17.769604 -5.5530009 -13.352785
18.113335 -6.7925005 -12.278628
18.731121 -8.1948643 -10.348045
19.895157 4.6812143 -10.367628
19.506786 3.4423747 -11.509898
19.267513 2.2667651 -12.213642
19.188515 1.1287365 -12.445989
19.175804 -3.3378601e-06 -12.483372
19.185352 -1.1285501 -12.455288
19.32004 -2.2729445 -12.059149
19.529139 -3.4463217 -11.444157
19.976154 -4.7002735 -10.1294
