# .PCD v0.7 - Point Cloud Data file format
VERSION 0.7
FIELDS x y z
SIZE 4 4 4
TYPE F F F
COUNT 1 1 1
WIDTH 1053
HEIGHT 1
VIEWPOINT 0 0 0 1 0 0 0
POINTS 1053
DATA ascii
-22.990021 -2.8610229e-06 -8.3827391
-21.964592 7.3215284 -7.8700438
-20.756224 5.7656145 -11.226619
-20.35652 4.5236702 -12.336906
-20.104795 3.3507991 -13.036146
-19.987217 2.2207994 -13.362749
-19.870937 1.1039414 -13.685748
-19.874004 -1.9073486e-06 -13.677225
-19.903162 -1.1057324 -13.596233
-19.952246 -2.2169161 -13.459891
-20.150183 -3.3583665 -12.910068
-20.42845 -4.5396566 -12.137101
-20.788774 -5.7746596 -11.136202
-19.918264 9.3732977 -10.299673
-19.191477 7.9023724 -12.437277
-18.794783 6.633451 -13.604025
-18.534492 5.4513202 -14.36958
-18.307005 4.3075323 -15.038662
-18.208179 3.2132096 -15.329321
-18.112577 2.1308918 -15.610513
-18.056147 1.0621262 -15.776484
-18.054478 -3.3378601e-06 -15.781391
-18.055729 -1.0621057 -15.777711
-18.111977 -2.1308198 -15.612276
-18.206242 -3.2128663 -15.335025
-18.338608 -4.3149652 -14.945713
-18.567831 -5.4611263 -14.271529
-18.857101 -6.655448 -13.420731
-19.203873 -7.9074788 -12.400822
-20.019501 -9.4209404 -10.001913
-19.043476 11.902172 -9.371933
-18.089725 10.175472 -12.352402
-17.606407 8.8032026 -13.862781
-17.246511 7.5453477 -14.987444
-17.039572 6.3898368 -15.634137
-16.860197 5.2688098 -16.194681
-16.726074 4.1815152 -16.613817
-16.633467 3.1187739 -16.903214
-16.542196 2.0677724 -17.188429
-16.520807 1.0325499 -17.255272
-16.512703 -9.5367432e-07 -17.280602
-16.505398 -1.0315886 -17.303431
-16.57724 -2.072156 -17.078922
-16.651054 -3.1220732 -16.848251
-16.737164 -4.1842937 -16.579157
-16.892221 -5.27882 -16.094604
-17.075565 -6.4033375 -15.521654
-17.293894 -7.5660791 -14.83938
-17.65827 -8.8291349 -13.7007
-18.142181 -10.204976 -12.188486
-19.386696 -12.116687 -8.2993727
-17.344706 12.719453 -11.067107
-16.652222 11.10148 -13.375387
-16.245216 9.7471275 -14.732077
-15.961129 8.5126009 -15.679031
-15.721292 7.3366022 -16.478485
-15.561803 6.2247195 -17.01012
-15.421315 5.1404376 -17.478415
-15.334218 4.0891242 -17.768738
-15.258461 3.051692 -18.021263
-15.192529 2.0256691 -18.241034
-15.178056 1.0118685 -18.289276
-15.165563 -9.5367432e-07 -18.330925
-15.167087 -1.0111389 -18.325842
-15.212493 -2.0283308 -18.174486
-15.262996 -3.0526013 -18.006144
-15.329446 -4.0878515 -17.784645
-15.444551 -5.1481848 -17.400955
-15.57124 -6.2284942 -16.978664
-15.737129 -7.3439941 -16.425697
-15.985178 -8.5254288 -15.598871
-16.253639 -9.7521839 -14.703997
-16.670567 -11.113711 -13.314242
-17.407312 -12.765364 -10.85842
-16.006371 13.719747 -11.717179
-15.395445 12.096418 -13.899065
-14.983404 10.702429 -15.370642
-14.736652 9.4735594 -16.251894
-14.519902 8.2970886 -17.026001
-14.357497 7.1787467 -17.606022
-14.219432 6.0940404 -18.099112
-14.096467 5.0344529 -18.538269
-14.032499 4.0092835 -18.766724
-13.969111 2.9933805 -18.993114
-13.92275 1.9889622 -19.158688
-13.908783 0.99348545 -19.208576
-13.894842 -0 -19.258362
-13.899385 -0.99281311 -19.242134
-13.932738 -1.9903936 -19.123011
-13.969198 -2.9933996 -18.992804
-14.034729 -4.0099239 -18.758764
-14.13042 -5.0465803 -18.417011
-14.23057 -6.0988202 -18.059334
-14.375133 -7.1875644 -17.543034
-14.546061 -8.3120356 -16.932583
-14.751851 -9.4833336 -16.197615
-15.027831 -10.734166 -15.211968
-15.423008 -12.118077 -13.800628
-16.055426 -13.761792 -11.541994
-14.820099 14.820096 -11.882419
-14.215671 13.122158 -14.207138
-13.882414 11.746655 -15.488897
-13.598194 10.460149 -16.582048
-13.400928 9.277565 -17.340765
-13.213016 8.1310854 -18.063505
-13.091174 7.0490923 -18.532127
-12.986335 5.9936914 -18.93535
-12.899449 4.9613252 -19.269531
-12.839592 3.9506431 -19.499746
-12.782125 2.9497185 -19.720778
-12.74789 1.9612141 -19.852451
-12.732681 0.97943687 -19.910942
-12.71952 -9.5367432e-07 -19.961567
-12.729039 -0.9791584 -19.92495
-12.756286 -1.9625063 -19.82016
-12.7865 -2.9507313 -19.703951
-12.838726 -3.9503779 -19.503082
-12.913185 -4.96661 -19.216698
-12.993796 -5.9971399 -18.906652
-13.102284 -7.0550756 -18.489393
-13.248078 -8.1526642 -17.928654
-13.404792 -9.2802391 -17.325903
-13.622458 -10.478814 -16.488728
-13.89463 -11.757 -15.441907
-14.27168 -13.173862 -13.991716
-14.888288 -14.888288 -11.620146
-13.77313 16.068651 -11.494753
-13.17858 14.276793 -13.972051
-12.788226 12.788225 -15.598519
-12.513785 11.470968 -16.742027
-12.312822 10.260687 -17.579372
-12.15429 9.1157169 -18.239918
-12.011808 8.0078707 -18.833595
-11.908102 6.946394 -19.265705
-11.806567 5.9032812 -19.688766
-11.736992 4.8904114 -19.978664
-11.683305 3.894433 -20.20236
-11.633645 2.9084101 -20.409277
-11.609688 1.9349461 -20.509098
-11.595919 0.96632481 -20.566471
-11.582182 1.9073486e-06 -20.623705
-11.592299 -0.96602345 -20.581554
-11.615275 -1.9358816 -20.485815
-11.639851 -2.9099636 -20.383415
-11.690166 -3.8967218 -20.173769
-11.753567 -4.8973184 -19.909603
-11.819829 -5.909915 -19.633507
-11.919753 -6.9531927 -19.217161
-12.031455 -8.0209723 -18.751736
-12.150848 -9.1131372 -18.254257
-12.344465 -10.287055 -17.447525
-12.545044 -11.499624 -16.611778
-12.810412 -12.810413 -15.506078
-13.195284 -14.294889 -13.902444
-13.870931 -16.182751 -11.087254
-12.881581 17.565794 -10.330152
-12.134151 15.443466 -13.727559
-11.761332 13.899754 -15.4222
-11.500708 12.546226 -16.606855
-11.286106 11.286103 -17.582315
-11.124767 10.113422 -18.315672
-10.986119 8.9886456 -18.94589
-10.868073 7.9040508 -19.482464
-10.779057 6.8593984 -19.887085
-10.700567 5.8366709 -20.243855
-10.646151 4.8391581 -20.491203
-10.600691 3.8547955 -20.69784
-10.55612 2.8789406 -20.900431
-10.537487 1.9159069 -20.985126
-10.524518 0.9567728 -21.044081
-10.512174 9.5367432e-07 -21.100189
-10.523047 -0.95664024 -21.050762
-10.541096 -1.916563 -20.968727
-10.559868 -2.8799667 -20.8834
-10.6005 -3.8547268 -20.698708
-10.653135 -4.8423371 -20.459455
-10.707234 -5.8403101 -20.213551
-10.785427 -6.8634572 -19.858126
-10.885484 -7.9167142 -19.403322
-10.991713 -8.9932184 -18.920464
-11.136316 -10.123926 -18.263178
-11.303727 -11.303728 -17.502214
-11.525757 -12.573555 -16.49299
-11.787335 -13.930485 -15.304003
-12.199005 -15.526007 -13.432774
-13.060318 -17.809525 -9.5177155
-11.208426 16.812637 -12.840668
-10.78756 15.102584 -14.94499
-10.491898 13.639467 -16.423306
-10.28712 12.344543 -17.447197
-10.100125 11.110137 -18.382168
-9.9761429 9.97614 -19.002085
-9.8611755 8.8750553 -19.576918
-9.7693071 7.815444 -20.036263
-9.6963396 6.7874351 -20.4011
-9.6264696 5.7758837 -20.750446
-9.5817871 4.7908936 -20.973858
-9.5405426 3.8162174 -21.180082
-9.5002127 2.8500633 -21.381733
-9.486743 1.8973475 -21.449085
-9.4747057 0.94747162 -21.50927
-9.4630594 -9.5367432e-07 -21.567499
-9.4750681 -0.94750881 -21.507456
-9.4905472 -1.8981085 -21.430058
-9.5066109 -2.851984 -21.349739
-9.5443907 -3.8177567 -21.160839
-9.5883818 -4.7941923 -20.940887
-9.6354332 -5.78126 -20.705631
-9.7059898 -6.7941918 -20.352844
-9.78267 -7.826138 -19.969444
-9.8671322 -8.8804207 -19.547138
-9.996377 -9.9963789 -18.900909
-10.130456 -11.143505 -18.230513
-10.303984 -12.364781 -17.362877
-10.52618 -13.684035 -16.251892
-10.807849 -15.130987 -14.843554
-11.248464 -16.872696 -12.640481
-10.360293 18.418301 -11.325606
-9.8368387 16.394733 -14.23369
-9.5242462 14.815492 -15.97032
-9.299161 13.432121 -17.220793
-9.1423044 12.189737 -18.092218
-8.9971313 10.99649 -18.898739
-8.893261 9.8813982 -19.47579
-8.7927494 8.7927485 -20.034185
-8.715414 7.7470345 -20.463825
-8.6471653 6.7255716 -20.842991
-8.5853691 5.7235794 -21.186302
-8.5503435 4.7501926 -21.38089
-8.5157518 3.7847767 -21.573061
-8.4821606 2.8273859 -21.759684
-8.471344 1.8825197 -21.819775
-8.4608021 0.94008827 -21.878342
-8.4503117 -9.5367432e-07 -21.936623
-8.4606543 -0.94007492 -21.879164
-8.4728804 -1.882863 -21.811237
-8.4851418 -2.8283825 -21.743114
-8.5170288 -3.785346 -21.565968
-8.5541563 -4.7523084 -21.359707
-8.591608 -5.7277389 -21.151642
-8.6533403 -6.7303786 -20.808687
-8.724287 -7.7549229 -20.414532
-8.7983589 -8.7983599 -20.003025
-8.8984795 -9.8871994 -19.4468
-9.0128374 -11.015692 -18.81148
-9.158145 -12.210862 -18.004211
-9.3232565 -13.466925 -17.086927
-9.5455894 -14.848697 -15.851739
-9.8635702 -16.439283 -14.085183
-10.450644 -18.578922 -10.823668
-8.9054222 17.810846 -13.223901
-8.5765476 16.081026 -15.279371
-8.3579054 14.626335 -16.645885
-8.1774445 13.288345 -17.773771
-8.0417891 12.062683 -18.621613
-7.9213438 10.891849 -19.374397
-7.8315639 9.7894535 -19.93552
-7.7440758 8.7120838 -20.482323
-7.6827226 7.6827226 -20.86578
-7.6306019 6.676774 -21.191532
-7.5808358 5.6856241 -21.502579
-7.549891 4.7186813 -21.69598
-7.5193954 3.759697 -21.886574
-7.491128 2.8091698 -22.063246
-7.4814849 1.8703709 -22.123516
-7.4719748 0.93399715 -22.182957
-7.4627705 -0 -22.240486
-7.4725385 -0.93406773 -22.179432
-7.4829855 -1.8707476 -22.11414
-7.4937449 -2.8101568 -22.046894
-7.5216141 -3.7608089 -21.872711
-7.5533462 -4.7208405 -21.674385
-7.5861964 -5.6896462 -21.469069
-7.6361012 -6.6815882 -21.157162
-7.6898355 -7.6898365 -20.821321
-7.7536378 -8.722846 -20.422558
-7.8411045 -9.8013821 -19.875895
-7.9318376 -10.906276 -19.308813
-8.0501623 -12.075245 -18.569279
-8.1953783 -13.31749 -17.66168
-8.3711128 -14.649449 -16.563341
-8.6074009 -16.138876 -15.086542
-8.9836674 -17.967335 -12.734878
-8.1226225 19.726368 -10.864065
-7.6680627 17.526997 -14.110923
-7.4029756 15.863518 -16.004398
-7.2259755 14.451952 -17.268682
-7.0799985 13.148568 -18.311378
-6.9698181 11.948256 -19.098381
-6.8760858 10.805278 -19.767895
-6.8025637 9.717947 -20.293056
-6.7307572 8.6538296 -20.805958
-6.6795282 7.6337476 -21.171879
-6.6311612 6.6311603 -21.517357
-6.5895367 5.6481733 -21.814678
-6.5628142 4.6877222 -22.00555
-6.5363274 3.7350435 -22.194744
-6.5127821 2.7911911 -22.362923
-6.5044522 1.8584127 -22.422424
-6.4961243 0.92801666 -22.481909
-6.4880981 -0 -22.539238
-6.4970427 -0.92814827 -22.475349
-6.5059924 -1.8588562 -22.411421
-6.5150423 -2.7921629 -22.346777
-6.5394959 -3.7368555 -22.172108
-6.5664682 -4.6903324 -21.979452
-6.5940499 -5.6520414 -21.782442
-6.637198 -6.6371975 -21.474239
-6.6850786 -7.6400919 -21.132235
-6.7364335 -8.661128 -20.765419
-6.8089995 -9.7271423 -20.247089
-6.8888283 -10.825303 -19.676882
-6.985465 -11.975082 -18.986618
-7.0970163 -13.180172 -18.189823
-7.2459407 -14.491884 -17.126078
-7.4227824 -15.905963 -15.862924
-7.6859832 -17.567961 -13.982916
-8.2394648 -20.010128 -10.029482
-6.785244 19.224857 -12.339095
-6.4736872 17.263163 -14.935407
-6.2787018 15.696752 -16.56028
-6.1408854 14.328732 -17.708755
-6.0295339 13.063988 -18.636681
-5.9372993 11.874599 -19.4053
-5.8599477 10.743236 -20.0499
-5.7977333 9.6628876 -20.568356
-5.7370133 8.6055202 -21.074352
-5.694664 7.5928845 -21.427259
-5.6537471 6.5960379 -21.768236
-5.6204886 5.6204872 -22.045395
-5.5987005 4.6655836 -22.226959
-5.5770802 3.7180519 -22.407127
-5.5581536 2.7790756 -22.56485
-5.5512505 1.8504162 -22.622375
-5.5443645 0.92405891 -22.679756
-5.537766 -0 -22.734743
-5.5449061 -0.92415237 -22.675243
-5.5520649 -1.8506889 -22.615589
-5.5592418 -2.779624 -22.555782
-5.5791755 -3.719449 -22.389668
-5.601234 -4.6676922 -22.205847
-5.6234674 -5.6234674 -22.020565
-5.6578388 -6.6008143 -21.734138
-5.6996903 -7.5995884 -21.385378
-5.7428484 -8.6142712 -21.025726
-5.8020535 -9.6700888 -20.532351
-5.862474 -10.747869 -20.028849
-5.9421597 -11.884321 -19.364801
-6.0384336 -13.083273 -18.562517
-6.1514683 -14.353429 -17.620558
-6.301055 -15.752637 -16.374006
-6.4974523 -17.326538 -14.737361
-6.8255863 -19.339161 -12.002909
-5.5638685 18.917154 -13.244109
-5.3470902 17.110685 -15.411898
-5.1953068 15.585917 -16.929731
-5.0822501 14.2303 -18.060295
-4.9933028 12.982585 -18.949764
-4.9174786 11.801949 -19.708008
-4.8554554 10.681999 -20.328247
-4.8043394 9.6086769 -20.839403
-4.7551737 8.5593128 -21.331059
-4.7237654 7.5580225 -21.645144
-4.6934948 6.5708933 -21.947849
-4.6662598 5.5995111 -22.220196
-4.6482382 4.6482372 -22.400414
-4.6303687 3.7042942 -22.579113
-4.6148448 2.7689075 -22.734348
-4.6091342 1.8436537 -22.791454
-4.6034379 0.92068768 -22.848415
-4.5979791 -1.9073486e-06 -22.903004
-4.6038857 -0.92077923 -22.843937
-4.609808 -1.8439226 -22.784718
-4.6157451 -2.7694473 -22.725348
-4.6320877 -3.7056723 -22.561916
-4.6503339 -4.6503344 -22.379457
-4.6687107 -5.6024523 -22.19569
-4.6968784 -6.5756321 -21.914009
-4.7276373 -7.5642219 -21.606422
-4.7599564 -8.5679207 -21.283236
-4.8104005 -9.6207991 -20.778793
-4.8629532 -10.698499 -20.253263
-4.9252906 -11.820698 -19.629894
-5.0010157 -13.002642 -18.872639
-5.0928984 -14.260118 -17.953808
-5.2037406 -15.611222 -16.84539
-5.3552046 -17.136658 -15.330746
-5.5904469 -19.007519 -12.978328
-4.7389612 21.325325 -9.6457825
-4.4037099 18.715765 -13.836427
-4.2427921 16.971169 -15.847895
-4.127183 15.476933 -17.293013
-4.0394163 14.137957 -18.390091
-3.9739621 12.915375 -19.208267
-3.9164371 11.74931 -19.927334
-3.8698378 10.642054 -20.509821
-3.8307645 9.5769119 -20.998238
-3.7932768 8.5348721 -21.466835
-3.7664957 7.5329919 -21.8016
-3.740525 6.5459185 -22.126232
-3.7191277 5.5786896 -22.3937
-3.7048278 4.6310339 -22.572449
-3.6906481 3.6906462 -22.749695
-3.6784253 2.7588186 -22.902481
-3.6738904 1.8369465 -22.959167
-3.6693559 0.91733551 -23.01585
-3.6650205 -9.5367432e-07 -23.070042
-3.6697114 -0.91743088 -23.011404
-3.6744144 -1.8372078 -22.952616
-3.6791296 -2.7593479 -22.893677
-3.6919816 -3.6919861 -22.733025
-3.7064705 -4.6330891 -22.551914
-3.7210629 -5.581594 -22.369513
-3.7432115 -6.5506215 -22.092653
-3.7696943 -7.5393891 -21.761616
-3.7967227 -8.5426273 -21.423759
-3.8339021 -9.5847549 -20.959023
-3.874532 -10.654963 -20.451149
-3.9234321 -11.770296 -19.839899
-3.9808564 -12.937782 -19.122091
-4.0500154 -14.175056 -18.257603
-4.1405644 -15.527116 -17.125746
-4.2515497 -17.006201 -15.73842
-4.422226 -18.794464 -13.604969
-3.4903359 20.942017 -10.710531
-3.2744756 18.555361 -14.308201
-3.165225 16.881201 -16.129042
-3.0848048 15.424025 -17.469383
-3.0214655 14.100168 -18.525038
-2.9727998 12.88213 -19.33614
-2.9298406 11.719361 -20.05212
-2.8951721 10.615628 -20.62993
-2.8659265 9.5530853 -21.117353
-2.8379834 8.5139484 -21.583075
-2.8179955 7.5146551 -21.916206
-2.7987494 6.5304174 -22.236969
-2.7832186 5.5664377 -22.495817
-2.7728353 4.6213923 -22.668873
-2.7625213 3.6833611 -22.840778
-2.7536023 2.753602 -22.989426
-2.7503469 1.8335638 -23.04368
-2.7470994 0.91569996 -23.097805
-2.743953 -0 -23.150249
-2.7473807 -0.91579342 -23.093115
-2.7508798 -1.8339205 -23.034798
-2.7544584 -2.7544594 -22.975155
-2.7636125 -3.6848173 -22.82259
-2.774142 -4.6235685 -22.647099
-2.7849126 -5.5698266 -22.467588
-2.8010557 -6.5357952 -22.198536
-2.820251 -7.5206704 -21.878614
-2.8404212 -8.5212631 -21.542442
-2.8678591 -9.5595322 -21.085146
-2.8963795 -10.620058 -20.609806
-2.9319401 -11.72776 -20.01713
-2.9769061 -12.899928 -19.267694
-3.0275483 -14.12856 -18.423658
-3.0904331 -15.452166 -17.37558
-3.17062 -16.909971 -16.039131
-3.2955668 -18.674879 -13.956683
-2.3040016 20.736012 -11.282756
-2.1754875 18.491642 -14.495609
-2.1040041 16.832031 -16.28269
-2.0510056 15.382544 -17.607653
-2.0089414 14.062588 -18.659262
-1.9768144 12.849294 -19.462435
-1.9482665 11.689598 -20.17613
-1.9253399 10.589369 -20.749294
-1.9059333 9.5296659 -21.234463
-1.8873675 8.4931536 -21.698608
-1.8753903 7.5015602 -21.998035
-1.8638285 6.5233974 -22.287081
-1.8533634 5.5600901 -22.54871
-1.8464569 4.6161432 -22.721375
-1.8396701 3.6793385 -22.891045
-1.8336012 2.7503996 -23.042767
-1.8314308 1.8314304 -23.097025
-1.8293332 0.91466522 -23.149467
-1.8272662 -1.9073486e-06 -23.201141
-1.8293799 -0.91468811 -23.148296
-1.831754 -1.8317547 -23.088943
-1.8341759 -2.7512636 -23.028395
-1.840075 -3.680151 -22.88092
-1.8471881 -4.6179724 -22.703094
-1.8545061 -5.5635185 -22.520142
-1.865033 -6.5276151 -22.256973
-1.8770201 -7.508081 -21.957294
-1.8891568 -8.5012064 -21.653877
-1.90825 -9.5412521 -21.176544
-1.9285649 -10.607106 -20.668676
-1.9517639 -11.710586 -20.088696
-1.9797391 -12.868303 -19.38932
-2.0123706 -14.086596 -18.573526
-2.0552628 -15.414469 -17.50123
-2.1070554 -16.856443 -16.206409
-2.1823399 -18.549889 -14.324299
-1.148199 20.66758 -11.472847
-1.084456 18.435751 -14.66
-1.0491316 16.786104 -16.426214
-1.023266 15.348989 -17.71949
-1.0028837 14.040371 -18.738611
-0.98722172 12.833879 -19.521713
-0.97337312 11.680475 -20.21414
-0.96209151 10.583006 -20.778217
-0.95268458 9.526844 -21.248569
-0.94355923 8.4920311 -21.704836
-0.93710542 7.4968424 -22.027527
-0.93091154 6.5163803 -22.337219
-0.92562622 5.5537567 -22.601482
-0.92221254 4.6110611 -22.772169
-0.91883707 3.6753483 -22.940945
-0.91573364 2.747201 -23.096115
-0.91468221 1.8293619 -23.148689
-0.91364872 0.91364765 -23.200363
-0.91261488 -2.8610229e-06 -23.252048
-0.91361237 -0.91361141 -23.202179
-0.91481733 -1.8296356 -23.141926
-0.91602296 -2.7480669 -23.081648
-0.91893148 -3.6757278 -22.93622
-0.9225536 -4.6127672 -22.755117
-0.92620426 -5.5572267 -22.572582
-0.93135333 -6.5194736 -22.315128
-0.93794382 -7.5035501 -21.985603
-0.94468099 -8.5021305 -21.648748
-0.95359069 -9.5359068 -21.203264
-0.96320879 -10.595297 -20.722359
-0.9746083 -11.695297 -20.152386
-0.98892045 -12.855968 -19.436775
-1.0052865 -14.074011 -18.618471
-1.0266151 -15.399225 -17.552044
-1.0517031 -16.82725 -16.297646
-1.0893638 -18.519184 -14.414607
0 20.678869 -11.441491
0 18.457331 -14.596523
0 16.811152 -16.347948
0 15.368242 -17.655321
0 14.057016 -18.679161
0 12.844162 -19.482162
0 11.689174 -20.177902
0 10.588484 -20.753326
0 9.5309944 -21.227829
0 8.4947968 -21.689476
0 7.4989147 -22.014563
0 6.5169649 -22.333046
0 5.5540752 -22.598822
0 4.6116819 -22.765957
0 3.6760721 -22.93189
0 2.7476759 -23.088165
0 1.8298206 -23.137249
0 0.91392994 -23.186222
0 -9.5367432e-07 -23.233021
0 -0.9139452 -23.185575
0 -1.8304205 -23.122284
0 -2.7495337 -23.057257
0 -3.6772604 -22.917057
0 -4.6143818 -22.738979
0 -5.5592093 -22.556047
0 -6.5221338 -22.296122
0 -7.5043817 -21.980412
0 -8.5031013 -21.643339
0 -9.535511 -21.20524
0 -10.59593 -20.719475
0 -11.697351 -20.143822
0 -12.863201 -19.408953
0 -14.078232 -18.603395
0 -15.397851 -17.556627
0 -16.840897 -16.254997
0 -18.517056 -14.420874
1.1565797 20.818434 -11.053809
1.0892606 18.517427 -14.41977
1.0528418 16.845467 -16.240704
1.0259212 15.388817 -17.586731
1.0052676 14.073746 -18.619415
0.98887187 12.855333 -19.439205
0.97485036 11.698202 -20.140282
0.96309346 10.594028 -20.728123
0.95358503 9.5358486 -21.203547
0.94427079 8.498436 -21.669258
0.93803954 7.5043154 -21.98082
0.9323895 6.5267258 -22.263319
0.92693257 5.5615931 -22.536167
0.92358083 4.6179037 -22.703758
0.92029798 3.6811914 -22.867901
0.91708797 2.7512627 -23.028397
0.91604644 1.8320904 -23.080475
0.91510093 0.9151001 -23.127748
0.91420931 -1.9073486e-06 -23.172331
0.91499949 -0.91499996 -23.13282
0.91629422 -1.8325891 -23.068085
0.91765285 -2.7529573 -23.000156
0.92030585 -3.681222 -22.867506
0.92393875 -4.6196947 -22.685856
0.92781979 -5.5669217 -22.491806
0.93288141 -6.5301704 -22.238726
0.93904132 -7.512332 -21.930731
0.94537473 -8.5083752 -21.614058
0.95452964 -9.5452995 -21.156311
0.96496183 -10.614582 -20.634703
0.97629946 -11.715595 -20.067823
0.99070442 -12.879157 -19.347574
1.0061067 -14.085492 -18.577461
1.0275263 -15.412894 -17.506483
1.0546222 -16.873957 -16.15169
1.0931529 -18.583601 -14.225151
2.3337834 21.004047 -10.538209
2.1903083 18.61762 -14.12509
2.1127269 16.901812 -16.064629
2.0574896 15.431173 -17.445553
2.0163233 14.114261 -18.474714
1.982538 12.886496 -19.319347
1.954787 11.728719 -20.013121
1.9306298 10.618464 -20.617046
1.9118946 9.5594711 -21.08543
1.8935696 8.5210629 -21.543556
1.8799311 7.5197239 -21.884514
1.8676684 6.5368404 -22.191084
1.8564692 5.5694075 -22.471067
1.8497256 4.6243134 -22.639656
1.8432419 3.6864843 -22.801748
1.8367983 2.7551947 -22.962837
1.8344269 1.8344259 -23.022125
1.8326406 0.9163208 -23.06678
1.8308578 -2.8610229e-06 -23.111351
1.8321553 -0.91607952 -23.078911
1.8348714 -1.8348713 -23.011011
1.8376006 -2.7564001 -22.94278
1.8427142 -3.6854315 -22.814941
1.8504329 -4.6260815 -22.621977
1.8582163 -5.5746479 -22.427389
1.8680642 -6.5382247 -22.181194
1.8817778 -7.5271096 -21.838352
1.8959848 -8.5319328 -21.483177
1.913725 -9.5686264 -21.039669
1.933797 -10.635883 -20.537872
1.9556423 -11.733856 -19.991737
1.986877 -12.9147 -19.210876
2.0197716 -14.138404 -18.388502
2.0620577 -15.465434 -17.331354
2.1196635 -16.95731 -15.891209
2.198035 -18.683296 -13.931922
3.6459458 21.875675 -8.117033
3.3147678 18.783688 -13.636662
3.1909072 17.018171 -15.701006
3.1030178 15.515087 -17.165836
3.0398834 14.186123 -18.218071
2.9865475 12.941706 -19.107004
2.9441531 11.776613 -19.813576
2.9062662 10.656309 -20.445024
2.8775263 9.591753 -20.924025
2.8497694 8.5493078 -21.386639
2.8283062 7.5421495 -21.744358
2.8093121 6.5550613 -22.060928
2.7917655 5.5835295 -22.353371
2.7812061 4.6353407 -22.529358
2.7714982 3.6953297 -22.69116
2.7619443 2.7619448 -22.850391
2.7581413 1.8387575 -22.913778
2.7556612 0.9185524 -22.955105
2.7532489 -1.9073486e-06 -22.995312
2.7551739 -0.91839504 -22.963232
2.7596548 -1.8397694 -22.88855
2.7641978 -2.7642002 -22.812832
2.7719197 -3.6958942 -22.684132
2.7834754 -4.6391277 -22.491539
2.7952087 -5.5904183 -22.295986
2.8107433 -6.5584021 -22.037075
2.8306777 -7.5484734 -21.704836
2.8518655 -8.5555964 -21.351707
2.8780236 -9.5934134 -20.915737
2.9103224 -10.671181 -20.377422
2.9455006 -11.782003 -19.791121
2.9924068 -12.967096 -19.00935
3.0414732 -14.193542 -18.191578
3.1094234 -15.547117 -17.059071
3.2007027 -17.070412 -15.537751
3.327827 -18.857689 -13.419011
4.4759502 19.022787 -12.933421
4.2878027 17.151209 -15.285266
4.1600733 15.600274 -16.88188
4.074564 14.260972 -17.950748
3.9993708 12.997952 -18.890663
3.9421029 11.826306 -19.606512
3.8888938 10.694456 -20.271626
3.8502884 9.625721 -20.75419
3.8124535 8.5780191 -21.227127
3.7830215 7.5660429 -21.59503
3.7604883 6.5808544 -21.87669
3.7382112 5.6073179 -22.155155
3.7228494 4.6535616 -22.347181
3.7098567 3.709856 -22.50959
3.6974535 2.7730885 -22.664627
3.6912405 1.8456202 -22.742287
3.6879308 0.92198277 -22.783661
3.6851857 -9.5367432e-07 -22.817978
3.68679 -0.92170048 -22.79792
3.6928079 -1.846405 -22.722698
3.6994193 -2.7745647 -22.640057
3.7088947 -3.7088947 -22.52161
3.7244651 -4.6555834 -22.326984
3.7418625 -5.6127954 -22.109518
3.7618949 -6.5833173 -21.859108
3.7886884 -7.5773768 -21.524189
3.8170769 -8.5884218 -21.169331
3.8543694 -9.6359262 -20.703175
3.8991413 -10.722639 -20.143526
3.9455948 -11.836784 -19.562862
4.008462 -13.027501 -18.777023
4.0805697 -14.281994 -17.875677
4.1724515 -15.646694 -16.727156
4.303153 -17.212616 -15.093379
4.4994006 -19.122456 -12.640284
5.6890545 19.342785 -11.992251
5.4192843 17.341711 -14.689949
5.253159 15.759474 -16.351208
5.1345 14.376599 -17.537794
5.0325003 13.084499 -18.557795
4.959568 11.902964 -19.287115
4.8892989 10.756455 -19.989807
4.8400474 9.6800928 -20.482321
4.7929487 8.6273069 -20.95331
4.7530527 7.6048832 -21.352268
4.7212152 6.6096988 -21.670643
4.6927419 5.6312895 -21.955379
4.6719232 4.6719236 -22.163567
4.6561737 3.7249393 -22.321058
4.6405301 2.784317 -22.477489
4.6313415 1.8525352 -22.569382
4.6278119 0.92556 -22.604681
4.6243539 -0 -22.639256
4.6251249 -0.92502499 -22.631546
4.6333413 -1.8533401 -22.549381
4.6416817 -2.7850113 -22.465979
4.6524849 -3.7219906 -22.357944
4.6742029 -4.6742029 -22.140768
4.6961384 -5.6353688 -21.921413
4.720315 -6.6084433 -21.679646
4.7586331 -7.6138148 -21.296467
4.7982936 -8.6369305 -20.899858
4.8440542 -9.6881084 -20.442253
4.8999887 -10.779977 -19.882908
4.9600573 -11.904139 -19.282221
5.039782 -13.103434 -18.484978
5.1399617 -14.391894 -17.483177
5.2660871 -15.798264 -16.221926
5.4445338 -17.422508 -14.437459
5.7405653 -19.51792 -11.477147
7.1017489 20.121624 -9.7015514
6.6089554 17.62388 -13.808168
6.3798113 15.949524 -15.717707
6.2217126 14.517329 -17.035189
6.0915813 13.198427 -18.119614
5.9984035 11.996807 -18.896095
5.9121041 10.838856 -19.615263
5.8471713 9.7452831 -20.156368
5.7888684 8.6833019 -20.642225
5.7375073 7.6500101 -21.070232
5.6988492 6.6486559 -21.392385
5.6616874 5.6616869 -21.702065
5.6349549 4.6957932 -21.924841
5.6158299 3.743885 -22.084217
5.5968504 2.7984228 -22.242378
5.5848718 1.8616228 -22.342201
5.5812879 0.93021202 -22.372066
5.5777249 -0 -22.401756
5.5784984 -0.92975235 -22.395309
5.5898185 -1.8632755 -22.300976
5.6012015 -2.8006039 -22.20612
5.6150136 -3.7433424 -22.091019
5.6414742 -4.70123 -21.87051
5.668169 -5.6681705 -21.648056
5.6998248 -6.6497965 -21.384256
5.7453947 -7.6605272 -21.004509
5.7917161 -8.6875753 -20.618492
5.8452778 -9.7421293 -20.172152
5.9172311 -10.848257 -19.572536
6.0016294 -12.003259 -18.869217
6.1019378 -13.220865 -18.033314
6.2269897 -14.529642 -16.991219
6.393034 -15.982588 -15.607513
6.6391778 -17.704473 -13.556314
7.2440462 -20.524797 -8.5157433
7.8950338 18.045792 -12.489696
7.5567389 16.19301 -14.906093
7.3378935 14.675786 -16.469271
7.1757984 13.326483 -17.62709
7.0552087 12.094643 -18.488449
6.9513865 10.923605 -19.230034
6.8686018 9.8122864 -19.821356
6.7991967 8.7418232 -20.317108
6.7337351 7.6956968 -20.784687
6.6934009 6.6934009 -21.072788
6.6535668 5.7030544 -21.357319
6.6188674 4.7277613 -21.605171
6.5962505 3.7692862 -21.766722
6.5748625 2.8177948 -21.919495
6.558095 1.873744 -22.039257
6.5538597 0.93626308 -22.069511
6.5506206 -2.8610229e-06 -22.092653
6.5493445 -0.9356184 -22.101765
6.5627184 -1.8750658 -22.006233
6.5773578 -2.8188677 -21.90167
6.5923514 -3.7670574 -21.794569
6.6228957 -4.7306423 -21.576401
6.6588173 -5.7075582 -21.319815
6.6953301 -6.6953325 -21.059008
6.7482376 -7.7122722 -20.681095
6.8099871 -8.7557001 -20.24003
6.8778286 -9.8254681 -19.755451
6.9603219 -10.937648 -19.166214
7.0631943 -12.108334 -18.43141
7.1928225 -13.358097 -17.505495
7.3567524 -14.713504 -16.334566
7.5767918 -16.235983 -14.762856
7.9296322 -18.124874 -12.242563
9.3609629 18.721926 -10.376776
8.8178263 16.533424 -13.771382
8.5180101 14.906515 -15.645235
8.3223248 13.523777 -16.868267
8.160984 12.241477 -17.876644
8.0364923 11.050177 -18.654718
7.9291015 9.911376 -19.325912
7.8476295 8.8285809 -19.835115
7.7689857 7.7689843 -20.326633
7.7129192 6.7488027 -20.677052
7.6604805 5.7453604 -21.004795
7.6162457 4.7601538 -21.281261
7.5911622 3.7955818 -21.438034
7.5667987 2.8375483 -21.590305
7.5440507 1.8860121 -21.732483
7.5401616 0.94251823 -21.756786
7.5368948 -9.5367432e-07 -21.777203
7.5336089 -0.94170284 -21.797739
7.5491819 -1.8872938 -21.700409
7.5664873 -2.8374338 -21.592251
7.586062 -3.7930307 -21.469906
7.6244326 -4.7652717 -21.230091
7.6669593 -5.7502198 -20.964302
7.7106323 -6.7468033 -20.691345
7.778986 -7.778985 -20.264137
7.8536854 -8.8353958 -19.79726
7.9311042 -9.9138823 -19.313396
8.0401068 -11.055147 -18.63213
8.170126 -12.255188 -17.81951
8.3285971 -13.533973 -16.829062
8.5391703 -14.943552 -15.51298
8.8490725 -16.59201 -13.576092
9.5115366 -19.023073 -9.4356918
10.211272 17.018787 -12.153503
9.7711658 15.199592 -14.598537
9.5080194 13.733808 -16.060467
9.2997274 12.399638 -17.217642
9.1526756 11.186604 -18.034599
9.0165119 10.018344 -18.791063
8.9215031 8.9215012 -19.318892
8.8292017 7.8481765 -19.831676
8.7582922 6.8120036 -20.225616
8.6998386 5.7998915 -20.550358
8.6476307 4.8042393 -20.840405
8.6162968 3.8294649 -21.014477
8.5880919 2.8626976 -21.171171
8.5614376 1.9025412 -21.319252
8.5561275 0.95068169 -21.348755
8.5537271 -1.9073486e-06 -21.362095
8.5529184 -0.95032406 -21.366581
8.5700512 -1.904458 -21.271402
8.5929079 -2.8643036 -21.144421
8.6183481 -3.8303795 -21.003084
8.6585913 -4.8103275 -20.779514
8.7084703 -5.8056483 -20.502407
8.7663507 -6.818274 -20.180847
8.8410597 -7.8587217 -19.765795
8.9262047 -8.9262066 -19.29277
9.0311594 -10.034621 -18.709688
9.1546135 -11.188972 -18.023832
9.3191471 -12.425529 -17.109756
9.5265636 -13.760593 -15.957441
9.8138075 -15.265925 -14.361641
10.28634 -17.143898 -11.736465
11.189837 15.665771 -12.933614
10.792083 14.029705 -14.922383
10.519643 12.623569 -16.28458
10.324379 11.356817 -17.2609
10.156224 10.156222 -18.101675
10.034184 9.0307646 -18.711878
9.9282246 7.9425755 -19.241676
9.8370323 6.8859205 -19.697638
9.7732229 5.8639317 -20.016682
9.7139006 4.8569484 -20.313297
9.6717463 3.8686962 -20.524067
9.6412926 2.8923864 -20.676331
9.6122379 1.9224463 -20.821609
9.6002522 0.96002579 -20.881538
9.5992212 -9.5367432e-07 -20.886692
9.5993929 -0.95993996 -20.88583
9.6137018 -1.92274 -20.814285
9.6420441 -2.8926163 -20.672577
9.6713381 -3.8685346 -20.526104
9.7141638 -4.8570838 -20.311975
9.7789841 -5.8673892 -19.987875
9.8446751 -6.8912716 -19.659422
9.934844 -7.9478765 -19.20857
10.05186 -9.0466747 -18.623501
10.171664 -10.171665 -18.024475
10.332898 -11.366189 -17.218307
10.538106 -12.645727 -16.192265
10.815549 -14.060215 -14.805051
11.24807 -15.747295 -12.642447
13.000031 16.545494 -9.7917442
12.188128 14.40415 -13.482219
11.833948 12.909761 -15.092121
11.569489 11.569489 -16.29421
11.37046 10.336781 -17.198889
11.209096 9.1710758 -17.932365
11.083181 8.0604944 -18.5047
10.967875 6.9795537 -19.02882
10.889971 5.9399824 -19.382927
10.813166 4.9150734 -19.73204
10.756131 3.9113178 -19.991295
10.722607 2.9243469 -20.143673
10.68929 1.9435062 -20.295113
10.671568 0.97014046 -20.375668
10.674399 -0 -20.362797
10.677233 -0.97065639 -20.349922
10.69365 -1.9443026 -20.275295
10.732229 -2.9269705 -20.099937
10.771907 -3.917057 -19.919586
10.823647 -4.9198413 -19.684402
10.899124 -5.9449739 -19.341322
10.985403 -6.9907098 -18.949146
11.090021 -8.0654678 -18.473608
11.221673 -9.1813698 -17.875191
11.388126 -10.352843 -17.118584
11.579745 -11.579746 -16.247595
11.874476 -12.953976 -14.9079
12.251356 -14.478875 -13.194819
13.26607 -16.884087 -8.5824795
14.018458 15.186663 -10.472555
13.324031 13.32403 -13.366003
12.920517 11.843807 -15.04731
12.664472 10.553726 -16.114164
12.436334 9.3272495 -17.064745
12.290681 8.1937866 -17.671623
12.149702 7.087326 -18.259039
12.053535 6.0267653 -18.659737
11.978128 4.9908853 -18.973925
11.904981 3.9683256 -19.278708
11.867337 2.9668312 -19.435556
11.833012 1.9721689 -19.578579
11.804619 0.98371696 -19.696888
11.807795 -9.5367432e-07 -19.683651
11.814911 -0.98457527 -19.653999
11.825657 -1.9709444 -19.609228
11.869636 -2.9674106 -19.425982
11.918686 -3.9728956 -19.221607
11.969034 -4.9870977 -19.011826
12.066566 -6.0332847 -18.605438
12.172028 -7.1003485 -18.166016
12.296003 -8.1973372 -17.649445
12.483971 -9.3629799 -16.866249
12.677774 -10.564812 -16.058735
12.970813 -11.889908 -14.837746
13.377939 -13.377939 -13.14138
14.166194 -15.346708 -9.856988
15.280346 14.104934 -10.112237
14.496384 12.266167 -13.127478
14.09693 10.843791 -14.663837
13.816304 9.5651321 -15.743162
13.607882 8.3740788 -16.544792
13.440664 7.2372794 -17.187931
13.301992 6.1393809 -17.721281
13.202633 5.0779343 -18.103437
13.104706 4.0322137 -18.480083
13.050664 3.0116916 -18.687931
13.013359 2.0020542 -18.831417
12.977111 0.99823761 -18.970829
12.981298 -9.5367432e-07 -18.954723
12.995936 -0.99968624 -18.898424
13.0117 -2.0017996 -18.837795
13.068192 -3.0157375 -18.620514
13.134533 -4.0413976 -18.365362
13.208677 -5.0802622 -18.080194
13.318508 -6.1470041 -17.657764
13.457526 -7.2463627 -17.123083
13.61377 -8.3777046 -16.522141
13.844193 -9.5844412 -15.635898
14.141576 -10.878136 -14.492119
14.556656 -12.317172 -12.895658
15.48359 -14.292543 -9.3305273
17.049376 13.395937 -7.9921741
15.826118 11.304368 -12.360941
15.377685 9.8856525 -13.962495
15.03987 8.5942087 -15.168972
14.833443 7.4167199 -15.906216
14.638785 6.2737641 -16.601421
14.518171 5.1850605 -17.032183
14.423083 4.1208801 -17.371784
14.343328 3.0735683 -17.656628
14.302123 2.0431595 -17.803783
14.268426 1.0191736 -17.924133
14.256235 -9.5367432e-07 -17.96767
14.275297 -1.0196667 -17.899591
14.300262 -2.0428939 -17.810431
14.34689 -3.0743322 -17.643902
14.429642 -4.1227531 -17.348356
14.523693 -5.1870346 -17.012465
14.669576 -6.2869611 -16.491457
14.855745 -7.4278746 -15.826559
15.089131 -8.622364 -14.993041
15.385457 -9.8906517 -13.934736
15.906352 -11.36168 -12.074396
17.400349 10.44021 -10.881632
16.789658 8.954484 -12.917272
16.416756 7.6611528 -14.16028
16.176569 6.4706268 -14.960896
15.980998 5.3269973 -15.612806
15.852058 4.2272143 -16.042601
15.74226 3.1484523 -16.408596
15.689409 2.0919199 -16.584766
15.650952 1.0433955 -16.712952
15.619909 -1.9073486e-06 -16.816429
15.659229 -1.0439501 -16.685368
15.700278 -2.0933695 -16.548536
15.755671 -3.1511374 -16.363894
15.874212 -4.2331238 -15.968756
16.012802 -5.3376007 -15.506784
16.169687 -6.467876 -14.983835
16.476484 -7.6890283 -13.961179
16.861614 -8.9928608 -12.677413
17.501472 -10.500882 -10.544556
18.595762 8.135643 -10.77104
18.061617 6.7731037 -12.440245
17.737284 5.5428991 -13.453783
17.525747 4.3814373 -14.114836
17.3661 3.2561431 -14.613736
17.237909 2.1547384 -15.014328
17.208183 1.0755105 -15.107221
17.178562 -4.7683716e-06 -15.199794
17.20347 -1.0752158 -15.121953
17.289305 -2.1611643 -14.853714
17.384863 -3.2596631 -14.555103
17.545216 -4.3863029 -14.054001
17.775187 -5.5547481 -13.335342
18.103399 -6.7887726 -12.309671
18.624619 -8.1482735 -10.680866
19.831264 4.6661797 -10.555552
19.493025 3.4399452 -11.550371
19.280006 2.2682352 -12.176896
19.16338 1.1272593 -12.519917
19.165661 -2.3841858e-06 -12.513205
19.177082 -1.1280646 -12.479618
19.323452 -2.2733512 -12.049115
19.556643 -3.4511697 -11.363259
19.893639 -4.6808577 -10.372094
