# .PCD v0.7 - Point Cloud Data file format
VERSION 0.7
FIELDS x y z
SIZE 4 4 4
TYPE F F F
COUNT 1 1 1
WIDTH 1077
HEIGHT 1
VIEWPOINT 0 0 0 1 0 0 0
POINTS 1077
DATA ascii
-22.229216 2.3399167 -10.384859
-21.892874 1.1522546 -11.26997
-21.924902 -1.9073486e-06 -11.185686
-21.971779 -1.1564088 -11.06233
-22.300396 -2.3474121 -10.197542
-20.731785 6.910594 -11.294507
-20.163439 5.6009531 -12.873243
-19.837526 4.4083362 -13.778557
-19.680428 3.2800698 -14.21494
-19.536797 2.170754 -14.613916
-19.450666 1.0805912 -14.853169
-19.434092 -3.8146973e-06 -14.899209
-19.427509 -1.0793099 -14.917495
-19.519417 -2.1688251 -14.662195
-19.668335 -3.2780533 -14.248534
-19.868484 -4.4152203 -13.692562
-20.266714 -5.6296449 -12.58637
-20.725554 -6.9085183 -11.311815
-19.266563 9.0666161 -12.216435
-18.732941 7.7135639 -13.785915
-18.370197 6.4835978 -14.852808
-18.1467 5.3372645 -15.510151
-17.963484 4.2267013 -16.049019
-17.86459 3.1525726 -16.339886
-17.77099 2.0907021 -16.615175
-17.717699 1.0422144 -16.771915
-17.706175 -1.9073486e-06 -16.805813
-17.694607 -1.0408597 -16.839836
-17.757668 -2.0891385 -16.65436
-17.861441 -3.1520185 -16.349148
-17.970091 -4.2282596 -16.029583
-18.191532 -5.3504515 -15.378292
-18.436062 -6.5068464 -14.659086
-18.765646 -7.7270331 -13.689723
-19.386446 -9.1230335 -11.863839
-18.350626 11.46914 -11.537089
-17.576296 9.8866682 -13.956867
-17.238718 8.6193571 -15.011803
-16.924812 7.404603 -15.992756
-16.721836 6.2706871 -16.627056
-16.542517 5.1695361 -17.187433
-16.409248 4.1023097 -17.603897
-16.338593 3.0634851 -17.824692
-16.268494 2.0335617 -18.043758
-16.23152 1.0144711 -18.1593
-16.231262 -3.8146973e-06 -18.160099
-16.239862 -1.0149927 -18.133228
-16.288099 -2.0360122 -17.982485
-16.361019 -3.0676889 -17.754608
-16.439949 -4.1099873 -17.507959
-16.583059 -5.1822062 -17.060736
-16.749142 -6.2809305 -16.541729
-16.942354 -7.412281 -15.937941
-17.274399 -8.6371994 -14.900295
-17.677914 -9.9438267 -13.63932
-18.46983 -11.543646 -11.164576
-16.800293 12.320215 -12.881822
-16.283958 10.855973 -14.602934
-15.895487 9.5372906 -15.89784
-15.646489 8.3447933 -16.727833
-15.430878 7.2010765 -17.446537
-15.293992 6.1175961 -17.902821
-15.162561 5.0541863 -18.340923
-15.060244 4.0160656 -18.681984
-14.99834 2.9996662 -18.888332
-14.93879 1.9918404 -19.086826
-14.907237 0.99381447 -19.192005
-14.901439 -1.9073486e-06 -19.211338
-14.908296 -0.99388885 -19.18848
-14.943554 -1.9924717 -19.07095
-15.001463 -3.0002899 -18.877922
-15.059962 -4.0159926 -18.682924
-15.162418 -5.054141 -18.3414
-15.29249 -6.1169977 -17.907829
-15.445096 -7.2077103 -17.399143
-15.688389 -8.3671379 -16.588165
-15.94663 -9.567977 -15.727362
-16.320019 -10.880014 -14.482739
-16.908745 -12.399747 -12.520312
-15.577916 13.352502 -13.247378
-15.051076 11.825843 -15.128956
-14.717013 10.51215 -16.322039
-14.468985 9.3014851 -17.207855
-14.267657 8.1529446 -17.926876
-14.088005 7.0440011 -18.568495
-13.975264 5.9893985 -18.971142
-13.872937 4.954618 -19.336594
-13.798036 3.9422951 -19.604099
-13.749445 2.9463091 -19.777637
-13.701486 1.9573545 -19.948917
-13.677694 0.97697735 -20.03389
-13.672049 9.5367432e-07 -20.05405
-13.677569 -0.97697067 -20.034336
-13.708323 -1.9583311 -19.924501
-13.758177 -2.9481802 -19.746449
-13.809793 -3.9456582 -19.562107
-13.896985 -4.9632096 -19.250708
-14.005196 -6.0022264 -18.864244
-14.117447 -7.0587225 -18.463343
-14.291961 -8.1668358 -17.840078
-14.479586 -9.3083057 -17.169987
-14.750306 -10.535933 -16.203133
-15.114644 -11.875791 -14.901927
-15.657224 -13.420478 -12.964141
-14.440045 14.440043 -13.34416
-13.932388 12.860664 -15.296687
-13.605535 11.512375 -16.553814
-13.332047 10.255418 -17.605698
-13.158534 9.1097527 -18.273048
-13.004541 8.0027905 -18.865334
-12.873333 6.9317932 -19.36998
-12.77986 5.8983955 -19.729488
-12.689775 4.8806801 -20.07597
-12.625402 3.884738 -20.323559
-12.582192 2.9035816 -20.489746
-12.539767 1.9291954 -20.652924
-12.519092 0.96300697 -20.732445
-12.513999 -0 -20.752031
-12.518604 -0.96296978 -20.734318
-12.542548 -1.9296246 -20.642225
-12.583405 -2.903861 -20.48509
-12.624602 -3.8844943 -20.326633
-12.690853 -4.8810968 -20.071825
-12.777167 -5.8971548 -19.739843
-12.871788 -6.9309649 -19.375925
-13.01996 -8.0122824 -18.806026
-13.184326 -9.1276102 -18.173847
-13.381597 -10.293537 -17.415115
-13.643604 -11.544588 -16.407394
-13.969465 -12.894893 -15.154085
-14.491312 -14.491316 -13.146983
-13.408409 15.643143 -13.014424
-12.885125 13.958885 -15.194777
-12.5297 12.529699 -16.675713
-12.306033 11.280533 -17.607655
-12.096992 10.080825 -18.478662
-11.952031 8.9640236 -19.082666
-11.816284 7.8775206 -19.648273
-11.704267 6.8274889 -20.115021
-11.622406 5.8112006 -20.456104
-11.547964 4.8116522 -20.766277
-11.498145 3.8327122 -20.97386
-11.462924 2.8657293 -21.120613
-11.427918 1.9046535 -21.26647
-11.411709 0.95097446 -21.334009
-11.41262 9.5367432e-07 -21.330212
-11.417073 -0.95142269 -21.311657
-11.438004 -1.9063358 -21.224447
-11.474027 -2.8685074 -21.074352
-11.510894 -3.8369684 -20.92074
-11.5682 -4.8200827 -20.681961
-11.645081 -5.8225389 -20.361626
-11.723808 -6.8388872 -20.033592
-11.835804 -7.8905368 -19.566944
-11.964992 -8.9737453 -19.028664
-12.107915 -10.089931 -18.433149
-12.327088 -11.29983 -17.519926
-12.575477 -12.57548 -16.484974
-12.93064 -14.008192 -15.005131
-13.48981 -15.738115 -12.675253
-12.466291 16.999487 -12.217832
-11.877704 15.117075 -14.893233
-11.540336 13.638575 -16.426727
-11.280064 12.305521 -17.609777
-11.087903 11.087903 -18.483238
-10.914178 9.921979 -19.272896
-10.803167 8.838954 -19.777489
-10.694489 7.7778082 -20.271479
-10.608124 6.7506232 -20.664051
-10.541567 5.7499447 -20.966583
-10.476057 4.7618427 -21.264359
-10.432896 3.7937803 -21.460548
-10.401353 2.836731 -21.60392
-10.370395 1.8855267 -21.744637
-10.356257 0.94147778 -21.808897
-10.352532 9.5367432e-07 -21.825829
-10.348841 -0.94080353 -21.842611
-10.365082 -1.8845606 -21.768789
-10.394938 -2.8349867 -21.633076
-10.424937 -3.7908869 -21.496716
-10.473453 -4.7606626 -21.276194
-10.542101 -5.7502375 -20.964159
-10.611653 -6.7528725 -20.648008
-10.708012 -7.7876468 -20.210018
-10.822488 -8.8547649 -19.689667
-10.943464 -9.9486036 -19.13978
-11.117536 -11.117537 -18.348543
-11.301744 -12.329174 -17.511238
-11.577056 -13.681976 -16.259813
-11.920299 -15.17129 -14.69962
-12.563448 -17.131973 -11.77622
-11.725291 18.760466 -10.25634
-10.947407 16.421106 -14.145762
-10.555284 14.777397 -16.106377
-10.301378 13.391791 -17.375906
-10.10187 12.122243 -18.373447
-9.9502945 10.945322 -19.131323
-9.8127069 9.812705 -19.819263
-9.7140465 8.7426414 -20.312563
-9.6178389 7.6942687 -20.793602
-9.5435133 6.680459 -21.165226
-9.484478 5.6906872 -21.460407
-9.4261684 4.7130842 -21.751953
-9.3892345 3.7556953 -21.936619
-9.3614855 2.808445 -22.075367
-9.3339005 1.8667774 -22.213293
-9.3237057 0.93236828 -22.264267
-9.3268948 9.5367432e-07 -22.248322
-9.3300848 -0.93300915 -22.232368
-9.3448496 -1.8689699 -22.158543
-9.3715181 -2.8114557 -22.025208
-9.398366 -3.759347 -21.89097
-9.4374466 -4.7187243 -21.695564
-9.4935427 -5.696126 -21.415077
-9.5503387 -6.6852369 -21.131102
-9.6258078 -7.7006464 -20.753757
-9.7182999 -8.7464714 -20.291294
-9.8142033 -9.8142052 -19.811779
-9.9644976 -10.960948 -19.060308
-10.123828 -12.148594 -18.263653
-10.334657 -13.435057 -17.209513
-10.59169 -14.828366 -15.924345
-11.000355 -16.500532 -13.881022
-10.075022 17.911148 -12.910455
-9.6283779 16.047295 -15.391809
-9.3440695 14.535219 -16.971296
-9.1445847 13.208841 -18.079552
-8.9840984 11.978797 -18.971142
-8.8523273 10.81951 -19.703199
-8.7352858 9.7058716 -20.353432
-8.648818 8.6488171 -20.833807
-8.5702791 7.6180267 -21.270136
-8.5115232 6.6200738 -21.596558
-8.4632006 5.6421318 -21.865019
-8.4153986 4.6752205 -22.130581
-8.3858929 3.7270641 -22.2945
-8.3630123 2.7876711 -22.421618
-8.3402548 1.8533897 -22.548044
-8.3303728 0.92559624 -22.602947
-8.3275938 -0 -22.618382
-8.3285284 -0.9253931 -22.613197
-8.3413363 -1.853631 -22.54204
-8.3649683 -2.7883234 -22.410751
-8.3887348 -3.7283287 -22.278715
-8.422349 -4.6790829 -22.091972
-8.4719887 -5.6479917 -21.816196
-8.5222416 -6.6284094 -21.53701
-8.5871506 -7.6330223 -21.176403
-8.6689568 -8.6689568 -20.721924
-8.7523375 -9.7248192 -20.258698
-8.8697577 -10.840816 -19.606359
-8.996069 -11.994761 -18.904636
-9.1631279 -13.235631 -17.976528
-9.3709154 -14.576978 -16.822157
-9.6724272 -16.120714 -15.147088
-10.158946 -18.060349 -12.444206
-9.3400106 19.847523 -10.507729
-8.7120504 17.424101 -14.432483
-8.4135141 15.775339 -16.298334
-8.1977005 14.345975 -17.647165
-8.0280981 13.045656 -18.707188
-7.9001727 11.850259 -19.506718
-7.7950482 10.718192 -20.163742
-7.7033877 9.6292353 -20.736622
-7.6333165 8.5874805 -21.174564
-7.5646868 7.5646853 -21.6035
-7.5143695 6.5750723 -21.917984
-7.4718013 5.6038494 -22.18404
-7.4299054 4.6436901 -22.445887
-7.4046903 3.702343 -22.603481
-7.384429 2.7691593 -22.730112
-7.3644261 1.8411064 -22.855133
-7.355947 0.91949368 -22.908127
-7.3535309 -9.5367432e-07 -22.923229
-7.3536143 -0.9192028 -22.922703
-7.3639417 -1.8409872 -22.858162
-7.383265 -2.7687254 -22.737392
-7.402689 -3.7013445 -22.61599
-7.4296055 -4.6435032 -22.447763
-7.4702406 -5.6026812 -22.193794
-7.5114541 -6.5725231 -21.936211
-7.5665545 -7.5665569 -21.591831
-7.6380272 -8.5927839 -21.145124
-7.7108631 -9.6385822 -20.689903
-7.8106084 -10.739587 -20.066496
-7.9208565 -11.881286 -19.377445
-8.0541162 -13.087942 -18.544569
-8.2203417 -14.385598 -17.505661
-8.4482174 -15.840408 -16.081438
-8.7777214 -17.555443 -14.022036
-7.8756857 19.126663 -12.627897
-7.4923 17.125256 -15.366367
-7.2692051 15.576866 -16.959906
-7.0984478 14.196895 -18.179598
-6.9640002 12.933144 -19.139935
-6.8612795 11.762194 -19.873657
-6.7703643 10.639144 -20.52305
-6.6930628 9.5615158 -21.075207
-6.6324892 8.527483 -21.507875
-6.5730782 7.5120873 -21.93224
-6.5307183 6.5307178 -22.234804
-6.4939523 5.5662432 -22.497423
-6.4575973 4.6125698 -22.757103
-6.4364171 3.677949 -22.908394
-6.418921 2.7509661 -23.03336
-6.4015565 1.8290138 -23.157394
-6.3972478 0.9138937 -23.188168
-6.3992834 -1.9073486e-06 -23.17363
-6.40132 -0.91447449 -23.159081
-6.4101357 -1.8314686 -23.096113
-6.4268684 -2.7543726 -22.976593
-6.443965 -3.6822662 -22.854473
-6.4669771 -4.6192694 -22.690098
-6.502162 -5.5732808 -22.438786
-6.5378828 -6.5378852 -22.183632
-6.5818353 -7.5220971 -21.869686
-6.6395063 -8.5365105 -21.45775
-6.6982369 -9.5689116 -21.038248
-6.7762704 -10.648424 -20.480869
-6.8657966 -11.769938 -19.841393
-6.9767466 -12.956816 -19.048891
-7.1140494 -14.228102 -18.068159
-7.2918396 -15.625371 -16.798227
-7.5269456 -17.204449 -15.118898
-7.9537373 -19.316223 -12.070382
-6.6156125 18.744234 -13.752692
-6.3408861 16.909029 -16.04208
-6.1618729 15.404679 -17.533859
-6.0319071 14.074448 -18.616903
-5.9226394 12.832384 -19.527466
-5.8380494 11.676098 -20.232384
-5.760993 10.561819 -20.874519
-5.6991687 9.4986134 -21.389723
-5.6507192 8.476078 -21.79347
-5.6030703 7.4707603 -22.19054
-5.56952 6.4977722 -22.470127
-5.5400701 5.5400686 -22.715549
-5.5109138 4.5924282 -22.958515
-5.4939485 3.662632 -23.099892
-5.4799938 2.739996 -23.216179
-5.4661412 1.8220482 -23.331619
-5.460453 0.91007423 -23.379021
-5.4587703 -1.9073486e-06 -23.393044
-5.4587703 -0.90979481 -23.39304
-5.4661255 -1.8220415 -23.331749
-5.4806008 -2.7403011 -23.211124
-5.4951682 -3.6634464 -23.089729
-5.514329 -4.595274 -22.930054
-5.544333 -5.5443325 -22.680019
-5.57481 -6.5039454 -22.426048
-5.6114235 -7.4818978 -22.120934
-5.6603932 -8.490591 -21.712856
-5.7104106 -9.5173521 -21.296043
-5.7754502 -10.588326 -20.754045
-5.849988 -11.699976 -20.132896
-5.935894 -12.861105 -19.417013
-6.049046 -14.11444 -18.474085
-6.1878185 -15.469548 -17.317642
-6.3679242 -16.981133 -15.816765
-6.6557918 -18.858076 -13.417866
-5.8520703 21.06745 -10.362095
-5.435173 18.479588 -14.531063
-5.2376337 16.760426 -16.506462
-5.0985465 15.295638 -17.897331
-4.995163 13.986456 -18.931164
-4.9043198 12.751232 -19.839598
-4.8397126 11.615309 -20.48567
-4.7802477 10.516545 -21.080317
-4.7309036 9.4618053 -21.573757
-4.6906219 8.4431171 -21.976582
-4.6512208 7.4419532 -22.370586
-4.6237559 6.473259 -22.645237
-4.5991096 5.5189304 -22.891705
-4.5750103 4.5750084 -23.132694
-4.5611863 3.6489487 -23.270933
-4.5493484 2.7296085 -23.389313
-4.537827 1.8151293 -23.504522
-4.5331998 0.9066391 -23.550797
-4.5317955 -0 -23.564842
-4.5317955 -0.90636063 -23.564846
-4.5375843 -1.8150368 -23.506954
-4.5488467 -2.7293062 -23.394329
-4.5601521 -3.6481218 -23.281277
-4.5750751 -4.5750742 -23.132044
-4.5987806 -5.5185366 -22.894991
-4.6227198 -6.471807 -22.655598
-4.6514091 -7.4422555 -22.368706
-4.6919346 -8.4454842 -21.963451
-4.7331581 -9.4663181 -21.551212
-4.7860775 -10.52937 -21.022026
-4.8482723 -11.635854 -20.400076
-4.9177942 -12.786267 -19.704851
-5.0052781 -14.014781 -18.830013
-5.1118765 -15.335629 -17.764029
-5.2517705 -16.805664 -16.365095
-5.4673429 -18.588966 -14.209368
-4.5672293 20.552532 -11.792425
-4.3071127 18.305229 -15.043884
-4.157722 16.630884 -16.911276
-4.0531139 15.199176 -18.218872
-3.975251 13.913375 -19.192162
-3.907865 12.700558 -20.034485
-3.8567715 11.570312 -20.673153
-3.8089113 10.474504 -21.271404
-3.7702463 9.4256153 -21.754715
-3.7381356 8.4108047 -22.156105
-3.7066839 7.4133663 -22.549246
-3.6851857 6.4490767 -22.817972
-3.6655524 5.4983301 -23.063389
-3.6461687 4.5577097 -23.305687
-3.6353674 3.6353664 -23.440704
-3.625957 2.7194662 -23.558332
-3.6166055 1.8083029 -23.675228
-3.6141887 0.90354729 -23.705433
-3.6152952 -1.9073486e-06 -23.691607
-3.6163921 -0.90409851 -23.677895
-3.6209695 -1.8104858 -23.620678
-3.6299241 -2.7224455 -23.508747
-3.6391494 -3.6391516 -23.393431
-3.6510499 -4.5638132 -23.244675
-3.6699104 -5.5048676 -23.008919
-3.6891038 -6.455934 -22.768995
-3.7117393 -7.4234786 -22.486053
-3.7425478 -8.4207306 -22.100952
-3.7739604 -9.4349012 -21.70829
-3.8137186 -10.487726 -21.211315
-3.8601716 -11.580515 -20.630653
-3.9124019 -12.715306 -19.977772
-3.9847751 -13.946712 -19.073109
-4.0664167 -15.249062 -18.052591
-4.1755643 -16.702255 -16.688246
-4.3298135 -18.401707 -14.760126
-4.6231122 -20.804008 -11.093893
-3.381228 20.287365 -12.529
-3.2089474 18.184032 -15.400341
-3.1055429 16.562897 -17.123745
-3.0265138 15.132567 -18.440899
-2.9699647 13.859835 -19.383385
-2.9193072 12.650331 -20.227678
-2.8817692 11.527077 -20.853312
-2.8465011 10.43717 -21.441111
-2.8188593 9.3961983 -21.901806
-2.7957752 8.3873253 -22.286543
-2.7730582 7.3948221 -22.665159
-2.7575977 6.434391 -22.922836
-2.7435398 5.4870787 -23.157135
-2.7296243 4.5493727 -23.389059
-2.7217753 3.6290321 -23.519871
-2.7151544 2.7151537 -23.630222
-2.7085655 1.8057108 -23.740036
-2.7059391 0.90197849 -23.783813
-2.705128 -9.5367432e-07 -23.797333
-2.7055447 -0.90184784 -23.790382
-2.7089381 -1.8059587 -23.733829
-2.715796 -2.7157974 -23.619528
-2.7227502 -3.6303339 -23.503626
-2.731555 -4.5525894 -23.35688
-2.7457399 -5.4914808 -23.120462
-2.7602465 -6.4405756 -22.878685
-2.7769985 -7.4053316 -22.599487
-2.8000565 -8.4001694 -22.215187
-2.82374 -9.412468 -21.820463
-2.8531716 -10.46163 -21.329931
-2.8881052 -11.552419 -20.747713
-2.9269447 -12.683428 -20.100382
-2.9770896 -13.893086 -19.264637
-3.0370626 -15.185311 -18.265089
-3.113344 -16.604504 -16.993727
-3.2235289 -18.266665 -15.157314
-3.4131913 -20.479149 -11.996271
-2.2365129 20.128616 -12.969971
-2.1299818 18.104843 -15.633254
-2.0629036 16.503227 -17.310205
-2.0133085 15.099814 -18.550083
-1.9760375 13.832263 -19.481857
-1.9425337 12.62647 -20.31945
-1.9184194 11.510515 -20.922312
-1.8957391 10.426564 -21.489317
-1.8773102 9.3865509 -21.950039
-1.8618014 8.3781042 -22.337757
-1.8466952 7.3867826 -22.715412
-1.8363738 6.4273062 -22.973452
-1.8268825 5.480648 -23.210735
-1.8176272 4.5440664 -23.442116
-1.8124118 3.6248245 -23.5725
-1.8078101 2.7117138 -23.687544
-1.8034286 1.8034306 -23.797077
-1.801687 0.90084457 -23.840618
-1.8011476 -1.9073486e-06 -23.854107
-1.8007797 -0.90039253 -23.863304
-1.802979 -1.8029785 -23.808319
-1.8073279 -2.7109928 -23.699602
-1.8116926 -3.6233883 -23.590483
-1.8173143 -4.5432873 -23.449942
-1.8265196 -5.4795599 -23.219809
-1.8358134 -6.4253483 -22.987461
-1.8468542 -7.3874183 -22.711439
-1.8623079 -8.3803854 -22.3251
-1.8780223 -9.3901119 -21.93224
-1.8975612 -10.436588 -21.443771
-1.9212998 -11.527798 -20.850304
-1.9468875 -12.65477 -20.210608
-1.9799035 -13.859325 -19.38521
-2.0176697 -15.132523 -18.441057
-2.0704684 -16.563747 -17.121082
-2.1414762 -18.202545 -15.345895
-2.2578447 -20.320602 -12.436681
-1.1123737 20.022724 -13.264112
-1.0635865 18.080969 -15.703472
-1.0301015 16.481625 -17.377722
-1.0044832 15.067245 -18.658638
-0.9869976 13.817966 -19.532913
-0.97070438 12.619154 -20.347576
-0.95851833 11.502218 -20.956881
-0.9469046 10.415951 -21.537565
-0.93774158 9.3774128 -21.995718
-0.92994851 8.3695364 -22.385368
-0.92234206 7.3787336 -22.765696
-0.91721863 6.4205303 -23.021862
-0.91244417 5.4746647 -23.260588
-0.90775496 4.5387726 -23.495049
-0.90516597 3.6206636 -23.624493
-0.90286785 2.7086039 -23.739401
-0.90058136 1.8011618 -23.853729
-0.89980835 0.89980793 -23.892382
-0.90007758 -9.5367432e-07 -23.878916
-0.90034705 -0.90034771 -23.865444
-0.90144658 -1.8028917 -23.810467
-0.90362078 -2.7108622 -23.701756
-0.90586418 -3.623457 -23.589588
-0.90874434 -4.5437241 -23.445578
-0.91334528 -5.4800711 -23.21553
-0.91802192 -6.4261508 -22.981701
-0.9234907 -7.3879256 -22.70826
-0.93100846 -8.379077 -22.332371
-0.93868518 -9.3868504 -21.948536
-0.94823545 -10.43059 -21.471027
-0.95953572 -11.51443 -20.906008
-0.97183883 -12.633904 -20.290857
-0.98925793 -13.849612 -19.419903
-1.0085155 -15.127734 -18.45702
-1.0337312 -16.539701 -17.196232
-1.0682466 -18.160194 -15.470464
-1.1238172 -20.22871 -12.691936
0 20.070528 -13.131337
0 18.088324 -15.681845
0 16.494665 -17.336967
0 15.083864 -18.603239
0 13.819152 -19.528679
0 12.611814 -20.375816
0 11.495919 -20.983128
0 10.412304 -21.554138
0 9.3747921 -22.008827
0 8.3684483 -22.391413
0 7.3783979 -22.767809
0 6.4206238 -23.02121
0 5.4755335 -23.253342
0 4.5399647 -23.483139
0 3.6216955 -23.611633
0 2.7097292 -23.720652
0 1.8021498 -23.829016
0 0.90021133 -23.872116
0 -2.8610229e-06 -23.881054
0 -0.90030384 -23.867584
0 -1.8028088 -23.812611
0 -2.7109222 -23.700741
0 -3.6237936 -23.585382
0 -4.5441437 -23.441345
0 -5.4807749 -23.209694
0 -6.4277487 -22.970306
0 -7.3897905 -22.696598
0 -8.3814287 -22.319307
0 -9.3908539 -21.928537
0 -10.435234 -21.449921
0 -11.521676 -20.875809
0 -12.647846 -20.23724
0 -13.850418 -19.417013
0 -15.12427 -18.468555
0 -16.533113 -17.216812
0 -18.176363 -15.422907
0 -20.240021 -12.660524
1.1186646 20.135962 -12.949565
1.0656608 18.116232 -15.599754
1.0322723 16.516354 -17.269182
1.007338 15.110069 -18.515892
0.98866224 13.841269 -19.449684
0.97200608 12.636077 -20.28249
0.95971596 11.51659 -20.896996
0.94838631 10.432246 -21.463482
0.93912077 9.3912067 -21.926758
0.93133718 8.3820353 -22.315937
0.92378491 7.3902779 -22.69355
0.91858 6.4300594 -22.953793
0.91384065 5.4830446 -23.190762
0.90923208 4.5461607 -23.421188
0.9065991 3.6263943 -23.552845
0.90430385 2.7129107 -23.667606
0.90213138 1.8042631 -23.776228
0.90126228 0.90126038 -23.819681
0.90099233 -9.5367432e-07 -23.833181
0.9007225 -0.9007225 -23.846668
0.90168148 -1.8033638 -23.798721
0.90385938 -2.7115784 -23.689827
0.9060477 -3.6241913 -23.580406
0.90894449 -4.5447235 -23.435572
0.91368496 -5.4821119 -23.198544
0.91847783 -6.4293442 -22.958908
0.92397064 -7.3917661 -22.684267
0.93166339 -8.3849716 -22.299623
0.93948811 -9.3948822 -21.90839
0.94923389 -10.441574 -21.421099
0.96114051 -11.533689 -20.825771
0.97398293 -12.661779 -20.183649
0.99045748 -13.866404 -19.359924
1.0101615 -15.152422 -18.37472
1.0364512 -16.583221 -17.060236
1.0719899 -18.223831 -15.2833
1.1298338 -20.337008 -12.391104
2.2602313 20.342079 -12.377017
2.1385376 18.177568 -15.419355
2.0738106 16.590485 -17.037529
2.0198855 15.149143 -18.385653
1.9827211 13.879045 -19.314768
1.9494467 12.671404 -20.146629
1.9241658 11.544994 -20.77865
1.9004129 10.45227 -21.372477
1.8816953 9.4084768 -21.840412
1.8658872 8.3964901 -22.235619
1.8505445 7.4021769 -22.619183
1.8400434 6.4401503 -22.88171
1.8303632 5.4910898 -23.123718
1.8209441 4.5523577 -23.359196
1.815643 3.6312857 -23.491722
1.8109739 2.7164602 -23.60845
1.8063742 1.8063726 -23.723438
1.8046321 0.90231514 -23.766998
1.8049306 -1.9073486e-06 -23.759531
1.8054774 -0.90273857 -23.745861
1.8077085 -1.8077106 -23.690083
1.8120853 -2.7181263 -23.580662
1.8165808 -3.6331625 -23.468275
1.8225217 -4.5563059 -23.319752
1.8318529 -5.4955606 -23.086472
1.8413119 -6.4445949 -22.849997
1.8526059 -7.4104257 -22.567652
1.8679231 -8.4056549 -22.184715
1.8836117 -9.4180565 -21.792505
1.9033632 -10.468498 -21.298717
1.9264349 -11.558613 -20.721924
1.95235 -12.690275 -20.074047
1.9877175 -13.914023 -19.189861
2.0278914 -15.209186 -18.185513
2.079284 -16.634274 -16.900696
2.1527138 -18.298067 -15.064955
2.2857313 -20.571585 -11.739513
3.4475737 20.685442 -11.423235
3.2373533 18.345001 -14.926904
3.1276252 16.680668 -16.755709
3.0476079 15.238036 -18.089334
2.9870834 13.93972 -19.098074
2.9323766 12.706964 -20.009855
2.8942347 11.576938 -20.645552
2.8589675 10.482881 -21.233337
2.8298731 9.432909 -21.718246
2.8060544 8.4181614 -22.115227
2.782625 7.4203305 -22.505711
2.7665424 6.4552631 -22.773754
2.752166 5.5043306 -23.013365
2.7379458 4.563241 -23.250366
2.7298868 3.6398478 -23.384682
2.7231956 2.7231951 -23.496201
2.7165372 1.8110266 -23.607176
2.7138495 0.90461349 -23.651974
2.713903 -1.9073486e-06 -23.651085
2.7147269 -0.90490818 -23.637346
2.7181051 -1.8120689 -23.581043
2.724894 -2.7248955 -23.467892
2.7320344 -3.6427126 -23.348892
2.7410705 -4.5684528 -23.198286
2.7552054 -5.5104122 -22.962709
2.7700109 -6.4633613 -22.715944
2.78722 -7.4325895 -22.429131
2.810457 -8.4313717 -22.041843
2.8347003 -9.4490023 -21.637791
2.8648381 -10.504408 -21.135496
2.9008436 -11.603376 -20.535404
2.9418836 -12.748162 -19.851402
2.9933252 -13.968851 -18.994043
3.0534875 -15.26744 -17.991341
3.1358333 -16.724443 -16.618908
3.2534773 -18.436369 -14.658175
3.522387 -21.134323 -10.176346
4.8105769 21.647594 -8.7505817
4.3627272 18.54159 -14.348702
4.1981964 16.792786 -16.40534
4.0874629 15.327985 -17.789513
4.0048451 14.016956 -18.822229
3.9339108 12.78521 -19.708912
3.8785357 11.635605 -20.401098
3.8309698 10.535166 -20.995674
3.7908866 9.4772158 -21.496716
3.7580733 8.4556656 -21.906879
3.7265565 7.4531107 -22.300838
3.7040925 6.4821625 -22.581642
3.6843419 5.5265121 -22.828522
3.6652186 4.581522 -23.067562
3.6538789 3.6538782 -23.209309
3.644383 2.7332878 -23.328007
3.6354392 1.8177185 -23.439804
3.6317778 0.90794373 -23.485573
3.630661 -9.5367432e-07 -23.499531
3.6295352 -0.90738583 -23.513607
3.6332126 -1.8166056 -23.467636
3.6427331 -2.732049 -23.348633
3.6523032 -3.6523037 -23.229008
3.6646237 -4.5807819 -23.074997
3.6842787 -5.5264187 -22.829311
3.7041349 -6.4822373 -22.58111
3.7275493 -7.4550982 -22.288433
3.7595329 -8.4589491 -21.888634
3.7920589 -9.4801483 -21.482058
3.8344274 -10.544676 -20.952456
3.8845284 -11.653582 -20.326193
3.9404736 -12.80654 -19.626875
4.014287 -14.050002 -18.704212
4.098877 -15.370787 -17.646839
4.2164989 -16.865995 -16.176561
4.3893251 -18.654633 -14.016234
5.5393524 18.833796 -13.489271
5.3070936 16.9827 -15.811863
5.1517115 15.455132 -17.365683
5.0408244 14.114306 -18.474558
4.9491954 12.867905 -19.390846
4.8777533 11.706608 -20.105261
4.8128605 10.588292 -20.75419
4.7613788 9.5227566 -21.269007
4.7194843 8.4950695 -21.687954
4.6788783 7.4862056 -22.094009
4.6501322 6.5101862 -22.381474
4.6246328 5.5495577 -22.636465
4.5999637 4.5999632 -22.883156
4.585453 3.6683617 -23.028267
4.5731511 2.7438889 -23.151287
4.5611606 1.8244648 -23.271193
4.5564847 0.91129589 -23.317947
4.5566397 -1.9073486e-06 -23.316399
4.5580721 -0.91161442 -23.302071
4.5640712 -1.8256302 -23.242085
4.5755305 -2.7453213 -23.127489
4.5873094 -3.6698484 -23.009705
4.6036487 -4.6036472 -22.846312
4.6282644 -5.5539184 -22.600151
4.6533327 -6.5146651 -22.349468
4.6845584 -7.4952927 -22.037212
4.7252913 -8.5055237 -21.629883
4.7674875 -9.5349751 -21.207924
4.8223948 -10.609269 -20.658852
4.8841643 -11.721994 -20.041157
4.9602866 -12.896745 -19.27993
5.0555367 -14.155503 -18.327429
5.1682076 -15.504625 -17.200718
5.3272281 -17.047131 -15.610512
5.5869923 -18.995773 -13.012877
6.8195119 19.321947 -12.053533
6.4553127 17.214169 -15.088521
6.2494607 15.623652 -16.803959
6.1086364 14.253483 -17.977495
5.9859824 12.969627 -18.999611
5.89359 11.787177 -19.769547
5.8162441 10.663113 -20.414093
5.7487645 9.5812702 -20.976429
5.6968985 8.5453491 -21.408638
5.6460271 7.5280356 -21.832569
5.6092391 6.5441093 -22.139137
5.578321 5.5783215 -22.39679
5.5477419 4.6231165 -22.651613
5.5294886 3.6863241 -22.803726
5.5152426 2.7576208 -22.922441
5.50107 1.8336897 -23.040545
5.4950743 0.91584492 -23.090508
5.4955277 -0 -23.086731
5.4972644 -0.91621208 -23.072262
5.5046301 -1.834877 -23.01088
5.5189943 -2.7594967 -22.891174
5.5343218 -3.6895504 -22.763447
5.5545082 -4.6287575 -22.595226
5.5846777 -5.5846772 -22.343819
5.6164832 -6.5525651 -22.078772
5.6550884 -7.5401182 -21.757061
5.7053823 -8.558075 -21.337944
5.7577806 -9.5963039 -20.901287
5.8257198 -10.680488 -20.335127
5.9072208 -11.814442 -19.655956
6.0033088 -13.007167 -18.855227
6.1191282 -14.277966 -17.890062
6.2685919 -15.671479 -16.644531
6.4914675 -17.310579 -14.787238
6.8983254 -19.545254 -11.396756
7.6823139 17.559576 -14.009123
7.3923111 15.840668 -16.080572
7.2020664 14.404131 -17.439468
7.0596528 13.110784 -18.456703
6.9413629 11.899478 -19.301634
6.8438334 10.754597 -19.998272
6.7619505 9.6599293 -20.583145
6.6976595 8.6112766 -21.042372
6.6373739 7.5855703 -21.47298
6.5918503 6.5918469 -21.798155
6.5538025 5.6175461 -22.06992
6.5176249 4.6554441 -22.328331
6.4947009 3.7112589 -22.492073
6.476459 2.7756233 -22.622375
6.4597082 1.8456306 -22.742023
6.4524922 0.92178345 -22.793566
6.4503679 -9.5367432e-07 -22.808743
6.4482446 -0.92117882 -22.823906
6.4555249 -1.8444347 -22.771906
6.4734998 -2.7743559 -22.643511
6.4915752 -3.7094727 -22.514397
6.5162487 -4.6544619 -22.338163
6.5533648 -5.6171694 -22.073051
6.5909047 -6.5909052 -21.804901
6.6381564 -7.5864673 -21.467392
6.6998706 -8.6141195 -21.026579
6.763555 -9.6622219 -20.57169
6.8517218 -10.766992 -19.941925
6.9478278 -11.910563 -19.255455
7.0733514 -13.136224 -18.358858
7.2287121 -14.457423 -17.249142
7.4268441 -15.914667 -15.83391
7.729867 -17.66827 -13.669456
9.0364504 18.072901 -12.404981
8.6161575 16.155291 -15.031819
8.3578243 14.626191 -16.646395
8.1638575 13.266265 -17.858692
8.0147524 12.022129 -18.790594
7.8964167 10.857573 -19.530191
7.7919106 9.7398844 -20.183353
7.7172189 8.6818714 -20.650177
7.643991 7.6439915 -21.107851
7.5898867 6.6411495 -21.446007
7.5449791 5.6587343 -21.726677
7.5011897 4.688242 -22.00036
7.4739699 3.7369833 -22.170483
7.4522939 2.79461 -22.305962
7.4309344 1.8577347 -22.439453
7.4224086 0.92780018 -22.492744
7.4237566 -9.5367432e-07 -22.484314
7.4263263 -0.92829323 -22.468256
7.4373531 -1.8593359 -22.399338
7.4573874 -2.7965202 -22.274122
7.4785514 -3.7392778 -22.141853
7.509263 -4.6932898 -21.949903
7.5527477 -5.6645632 -21.678123
7.5981517 -6.6483836 -21.394352
7.6576777 -7.6576777 -21.022308
7.7304502 -8.6967554 -20.567486
7.8083348 -9.7604189 -20.080706
7.914258 -10.882103 -19.418686
8.034687 -12.052032 -18.666002
8.1917019 -13.311516 -17.68466
8.3727465 -14.652306 -16.553135
8.6450891 -16.209541 -14.850991
9.1675377 -18.335075 -11.585688
9.9659624 16.609936 -13.516338
9.5645657 14.878215 -15.746318
9.334794 13.483591 -17.022825
9.1398516 12.186468 -18.105843
8.9957066 10.994749 -18.906652
8.8688622 9.8542938 -19.61134
8.776125 8.776124 -20.126545
8.6885643 7.7231679 -20.612995
8.6187334 6.7034593 -21.000944
8.5660973 5.7107296 -21.293369
8.5144253 4.7302361 -21.580433
8.4799747 3.7688761 -21.771824
8.4560356 2.8186779 -21.904823
8.43223 1.8738279 -22.037071
8.4215651 0.93572998 -22.096325
8.419631 9.5367432e-07 -22.107067
8.4225931 -0.93584538 -22.090611
8.4354467 -1.8745461 -22.019203
8.4600611 -2.8200226 -21.88246
8.485714 -3.7714291 -21.739941
8.5218153 -4.734345 -21.539379
8.5736027 -5.7157378 -21.251671
8.6274357 -6.710227 -20.952597
8.6975393 -7.7311449 -20.563131
8.785202 -8.785203 -20.076115
8.8748674 -9.8609638 -19.577978
9.0104818 -11.01281 -18.824566
9.155714 -12.207617 -18.017723
9.359499 -13.519278 -16.885578
9.607873 -14.945581 -15.50572
10.013544 -16.689238 -13.252
11.589121 17.383678 -10.937195
10.911514 15.276119 -14.325223
10.576618 13.749602 -15.999707
10.316833 12.380198 -17.298634
10.139745 11.15372 -18.184072
9.9780912 9.9780903 -18.99234
9.8707933 8.8837156 -19.528826
9.7671719 7.8137345 -20.046936
9.6851053 6.7795739 -20.45727
9.6210022 5.7725992 -20.777788
9.5612059 4.7806025 -21.076767
9.5206175 3.8082466 -21.279713
9.4900436 2.8470135 -21.432579
9.4623365 1.8924685 -21.571114
9.4498892 0.94498825 -21.633354
9.4465322 -1.9073486e-06 -21.650133
9.4450359 -0.94450569 -21.657621
9.461112 -1.8922234 -21.577234
9.4890642 -2.8467216 -21.437473
9.5171824 -3.8068752 -21.296888
9.5623989 -4.7812014 -21.070801
9.6243105 -5.7745872 -20.761244
9.6872044 -6.7810407 -20.446775
9.778182 -7.8225465 -19.991886
9.8834038 -8.8950624 -19.465778
10.001162 -10.001163 -18.876989
10.162062 -11.178266 -18.072493
10.345754 -12.414905 -17.154034
10.610373 -13.793483 -15.830935
10.982824 -15.375954 -13.968678
11.838251 -17.757378 -9.6915426
12.525707 15.941807 -11.947764
11.931789 14.101204 -14.647389
11.591423 12.645189 -16.194506
11.356125 11.356123 -17.26405
11.159661 10.145147 -18.157063
11.016272 9.0133142 -18.80883
10.889569 7.9196854 -19.384756
10.782832 6.8618021 -19.869923
10.70785 5.8406453 -20.210751
10.633935 4.8336077 -20.546728
10.584146 3.8487778 -20.773041
10.550647 2.8774471 -20.925312
10.517326 1.912241 -21.076767
10.504812 0.9549818 -21.133656
10.508927 -2.8610229e-06 -21.114944
10.513016 -0.95573044 -21.096359
10.531594 -1.9148359 -21.011915
10.563585 -2.8809795 -20.866501
10.599802 -3.8544741 -20.701878
10.653776 -4.8426275 -20.456541
10.725141 -5.8500762 -20.13216
10.801948 -6.8739686 -19.783033
10.908461 -7.9334259 -19.298882
11.034575 -9.0282917 -18.725639
11.17622 -10.1602 -18.081797
11.383549 -11.38355 -17.139393
11.614621 -12.670497 -16.089062
11.998191 -14.179682 -14.345562
12.650409 -16.100523 -11.380939
13.536053 14.664055 -12.48258
13.007686 13.007683 -14.68411
12.673325 11.617212 -16.077282
12.409479 10.341231 -17.176636
12.234806 9.1761026 -17.904436
12.081817 8.0545416 -18.541895
11.955029 6.9737659 -19.070179
11.863291 5.9316435 -19.452415
11.779271 4.9080286 -19.802502
11.717299 3.9057636 -20.060719
11.674687 2.9186687 -20.23827
11.63729 1.9395466 -20.394085
11.618734 0.96822357 -20.471401
11.614017 -1.9073486e-06 -20.491056
11.609269 -0.96744156 -20.510841
11.630317 -1.9383898 -20.423145
11.670594 -2.9176493 -20.25532
11.711117 -3.903707 -20.086479
11.776612 -4.9069238 -19.813578
11.863072 -5.9315376 -19.453331
11.953807 -6.9730568 -19.075268
12.097372 -8.0649147 -18.477083
12.253401 -9.190052 -17.826963
12.452573 -10.377146 -16.997074
12.709862 -11.650705 -15.925042
13.070065 -13.070065 -14.424192
13.658029 -14.796197 -11.974342
14.785165 13.647841 -12.016778
14.173435 11.992909 -14.369581
13.811196 10.623995 -15.76281
13.553922 9.383482 -16.752333
13.356434 8.2193432 -17.511894
13.178555 7.0961452 -18.196051
13.067988 6.0313797 -18.6213
12.963681 4.9860301 -19.022484
12.888362 3.9656463 -19.312176
12.839829 2.9630356 -19.498838
12.791699 1.9679527 -19.683952
12.771199 0.98240185 -19.762798
12.776972 -0 -19.740595
12.782749 -0.98328686 -19.718374
12.810578 -1.9708576 -19.61134
12.85486 -2.966506 -19.441025
12.90701 -3.9713893 -19.24045
12.99057 -4.9963737 -18.919065
13.094698 -6.0437055 -18.518574
13.20705 -7.1114898 -18.086443
13.379886 -8.233777 -17.4217
13.570231 -9.3947744 -16.689598
13.842087 -10.64776 -15.643999
14.202304 -12.017332 -14.258551
14.861 -13.717846 -11.7251
16.090977 12.642907 -11.41503
15.438809 11.02772 -13.74419
15.014311 9.6520557 -15.260257
14.756925 8.4325275 -16.179497
14.534704 7.2673507 -16.973137
14.396354 6.1698656 -17.467249
14.267296 5.0954599 -17.928169
14.167922 4.0479779 -18.283073
14.103791 3.0222402 -18.512108
14.049565 2.0070801 -18.705776
14.020579 1.0014687 -18.809299
14.013907 -9.5367432e-07 -18.83313
14.007197 -1.0005131 -18.857092
14.039803 -2.0056868 -18.740643
14.09757 -3.0209074 -18.534332
14.155814 -4.0445209 -18.326315
14.268652 -5.0959487 -17.923328
14.403948 -6.1731219 -17.440128
14.560398 -7.2802005 -16.881378
14.798121 -8.4560699 -16.032358
15.06829 -9.6867561 -15.067474
15.501702 -11.072644 -13.51958
16.31324 -12.817547 -10.62123
16.848726 10.109234 -12.720377
16.407993 8.7509289 -14.189485
16.079529 7.5037808 -15.284369
15.85862 6.3434482 -16.020729
15.686961 5.2289844 -16.592926
15.540161 4.144042 -17.08226
15.46454 3.0929089 -17.334326
15.391223 2.0521612 -17.57872
15.349674 1.0233107 -17.71722
15.357047 -9.5367432e-07 -17.69264
15.365748 -1.0243835 -17.663635
15.41014 -2.0546894 -17.515665
15.483588 -3.0967183 -17.270836
15.563559 -4.1502824 -17.004269
15.706152 -5.235384 -16.528957
15.877919 -6.3511682 -15.956396
16.087084 -7.5073071 -15.259188
16.457443 -8.7773027 -14.024655
16.939421 -10.163653 -12.418063
18.997526 9.4987612 -9.5155258
18.034985 7.8903046 -12.52347
17.615019 6.6056328 -13.835861
17.33564 5.4173851 -14.708925
17.116093 4.2790227 -15.395006
17.01446 3.1902122 -15.71261
16.914083 2.1142602 -16.026283
16.861246 1.0538263 -16.191404
16.863951 -1.9073486e-06 -16.182947
16.876333 -1.0547709 -16.144258
16.943525 -2.1179404 -15.934278
17.040022 -3.1950064 -15.632725
17.158583 -4.2896461 -15.262224
17.380989 -5.4315605 -14.567207
17.647438 -6.6177902 -13.734556
18.110531 -7.9233561 -12.287387
19.589071 -9.7945356 -7.6669455
19.765207 5.8132963 -10.749834
19.187439 4.5146914 -12.449153
18.946043 3.3434176 -13.159142
18.783943 2.2098746 -13.635906
18.690382 1.0994325 -13.911085
18.697088 -1.9073486e-06 -13.891356
18.716597 -1.1009784 -13.833981
18.834965 -2.215879 -13.485843
19.013399 -3.3553057 -12.961032
19.257341 -4.5311389 -12.243561
19.8566 -5.8401766 -10.481035
