# .PCD v0.7 - Point Cloud Data file format
VERSION 0.7
FIELDS x y z
SIZE 4 4 4
TYPE F F F
COUNT 1 1 1
WIDTH 1061
HEIGHT 1
VIEWPOINT 0 0 0 1 0 0 0
POINTS 1061
DATA ascii
-23.683964 1.2465253 -6.5565767
-23.683964 -1.4305115e-06 -6.5565758
-23.683964 -1.2465227 -6.5565739
-21.712751 7.2375822 -8.5695944
-20.760687 5.7668543 -11.214221
-20.354231 4.5231628 -12.343265
-20.145348 3.3575554 -12.923498
-19.964071 2.2182279 -13.427038
-19.901659 1.1056471 -13.600414
-19.862898 -1.9073486e-06 -13.70808
-19.887583 -1.1048665 -13.639509
-20.006062 -2.2228985 -13.310404
-20.162737 -3.3604579 -12.875196
-20.40571 -4.5346055 -12.200268
-20.848404 -5.7912245 -10.97056
-19.859121 9.3454666 -10.473618
-19.197741 7.9049492 -12.418857
-18.793039 6.6328373 -13.609148
-18.519812 5.4470019 -14.412763
-18.349741 4.317584 -14.912971
-18.209332 3.2134094 -15.325936
-18.118034 2.1315336 -15.59446
-18.06855 1.0628557 -15.740001
-18.034838 -1.9073486e-06 -15.839152
-18.074459 -1.0632062 -15.722619
-18.126499 -2.1325288 -15.569563
-18.212242 -3.2139249 -15.317379
-18.367975 -4.3218775 -14.859337
-18.567705 -5.4610939 -14.2719
-18.803892 -6.6366701 -13.577232
-19.288162 -7.9421873 -12.152908
-19.993309 -9.408617 -10.078948
-19.01029 11.88143 -9.4756374
-18.039597 10.14727 -12.509056
-17.613392 8.806694 -13.840948
-17.288958 7.5639162 -14.854803
-17.028921 6.3858442 -15.667418
-16.854015 5.2668796 -16.213997
-16.737656 4.1844125 -16.577627
-16.633467 3.1187739 -16.903214
-16.573824 2.0717278 -17.089596
-16.536991 1.0335598 -17.2047
-16.5242 -9.5367432e-07 -17.244667
-16.541666 -1.0338573 -17.19009
-16.578573 -2.0723219 -17.074753
-16.642767 -3.1205206 -16.874149
-16.752573 -4.1881456 -16.531002
-16.869089 -5.2715893 -16.166891
-17.061535 -6.398077 -15.565501
-17.321352 -7.5780916 -14.753572
-17.643145 -8.8215733 -13.747971
-18.162081 -10.216172 -12.126291
-19.679436 -12.29965 -7.3845596
-17.298466 12.685536 -11.221251
-16.643898 11.095931 -13.403135
-16.234125 9.7404747 -14.769042
-15.939837 8.5012455 -15.750004
-15.735282 7.3431311 -16.431856
-15.562655 6.2250595 -17.007278
-15.425798 5.1419315 -17.46347
-15.311309 4.083015 -17.845097
-15.246511 3.0493011 -18.061096
-15.182256 2.0242996 -18.275276
-15.153375 1.0102234 -18.371544
-15.153375 -9.5367432e-07 -18.371542
-15.153375 -1.0102262 -18.371546
-15.190474 -2.0253973 -18.247887
-15.254846 -3.0509686 -18.033314
-15.320981 -4.0855956 -17.812862
-15.443317 -5.1477733 -17.405075
-15.580487 -6.2321973 -16.947838
-15.759992 -7.3546629 -16.349491
-15.969577 -8.517108 -15.650867
-16.282585 -9.7695522 -14.60751
-16.71484 -11.143229 -13.166664
-17.496906 -12.831062 -10.55978
-15.998813 13.713268 -11.744177
-15.373855 12.079457 -13.976173
-15.00711 10.719362 -15.28598
-14.7301 9.4693489 -16.275297
-14.521541 8.2980232 -17.020151
-14.335114 7.1675563 -17.685961
-14.225537 6.0966587 -18.077303
-14.119128 5.0425434 -18.457336
-14.032281 4.0092211 -18.767504
-13.981422 2.9960175 -18.949146
-13.938256 1.9911795 -19.10331
-13.906034 0.99328804 -19.218388
-13.906034 1.9073486e-06 -19.218388
-13.915655 -0.99397564 -19.184025
-13.936833 -1.9909773 -19.108395
-13.987454 -2.9973111 -18.927597
-14.046632 -4.0133243 -18.716259
-14.131882 -5.0471025 -18.411789
-14.238845 -6.1023622 -18.029779
-14.354569 -7.1772847 -17.616476
-14.548033 -8.3131628 -16.925537
-14.765145 -9.4918823 -16.150135
-15.04836 -10.748829 -15.13865
-15.443995 -12.134567 -13.725666
-16.093218 -13.794188 -11.407022
-14.8475 14.847496 -11.777033
-14.23526 13.140241 -14.131793
-13.870448 11.736528 -15.534923
-13.589449 10.453422 -16.615685
-13.392177 9.2715073 -17.374424
-13.233034 8.1434059 -17.986507
-13.09228 7.0496874 -18.527874
-12.984563 5.9928737 -18.942171
-12.901278 4.9620318 -19.262493
-12.819881 3.9445791 -19.575558
-12.774046 2.9478569 -19.75185
-12.740397 1.9600592 -19.881268
-12.709166 0.97762585 -20.001392
-12.711482 -3.8146973e-06 -19.992481
-12.721415 -0.97857094 -19.954275
-12.731868 -1.9587498 -19.914072
-12.781032 -2.9494696 -19.724983
-12.83782 -3.9500999 -19.506565
-12.899171 -4.9612203 -19.270603
-13.000904 -6.0004187 -18.879322
-13.11062 -7.0595627 -18.457336
-13.251476 -8.1547556 -17.915579
-13.411882 -9.2851524 -17.298634
-13.620152 -10.47704 -16.497597
-13.908397 -11.768645 -15.388962
-14.286057 -13.18713 -13.936424
-14.947065 -14.947065 -11.394085
-13.74788 16.039188 -11.599966
-13.163711 14.260684 -14.034005
-12.776001 12.775997 -15.649463
-12.531164 11.486897 -16.669615
-12.323941 10.269949 -17.533041
-12.145766 9.1093225 -18.275438
-12.014948 8.0099621 -18.820517
-11.898673 6.9408917 -19.304993
-11.814477 5.9072361 -19.655807
-11.748918 4.8953805 -19.92897
-11.688185 3.89606 -20.182028
-11.647399 2.9118481 -20.351971
-11.620447 1.936739 -20.464266
-11.600411 0.96670151 -20.547745
-11.595431 -9.5367432e-07 -20.568497
-11.604385 -0.96703243 -20.531189
-11.620274 -1.9367142 -20.464993
-11.652599 -2.9131498 -20.330297
-11.698169 -3.8993912 -20.14043
-11.749275 -4.8955317 -19.927481
-11.827902 -5.9139528 -19.599873
-11.915193 -6.9505272 -19.236162
-12.019883 -8.0132542 -18.799948
-12.175212 -9.1314087 -18.152744
-12.33985 -10.283208 -17.466757
-12.557731 -11.511255 -16.558918
-12.818322 -12.818322 -15.473125
-13.226196 -14.328378 -13.773648
-13.91421 -16.233246 -10.906918
-12.89439 17.58326 -10.271928
-12.154316 15.469126 -13.635908
-11.771226 13.911446 -15.377224
-11.49686 12.542028 -16.62434
-11.281071 11.281069 -17.605202
-11.115162 10.104692 -18.359335
-10.976649 8.9808922 -18.988935
-10.87632 7.9100513 -19.444977
-10.782898 6.8618436 -19.869627
-10.702023 5.8374662 -20.237236
-10.64535 4.8387947 -20.494839
-10.595931 3.8530655 -20.719475
-10.552124 2.8778486 -20.918594
-10.533223 1.9151297 -21.004509
-10.517263 0.95611477 -21.077049
-10.505404 -2.8610229e-06 -21.130962
-10.519295 -0.95630074 -21.067818
-10.53523 -1.9154949 -20.99539
-10.556373 -2.8790083 -20.899286
-10.601866 -3.8552246 -20.692499
-10.651276 -4.8414869 -20.467909
-10.713197 -5.8435626 -20.186449
-10.792991 -6.8682685 -19.82375
-10.881469 -7.9137964 -19.421576
-11.001311 -9.0010738 -18.876833
-11.126341 -10.114855 -18.308517
-11.30853 -11.308532 -17.480389
-11.522419 -12.569911 -16.508165
-11.80711 -13.953856 -15.214115
-12.224871 -15.558924 -13.315203
-13.145821 -17.926121 -9.1290646
-11.191004 16.786505 -12.927779
-10.784922 15.098888 -14.958186
-10.497374 13.646582 -16.395929
-10.278282 12.33394 -17.491385
-10.11759 11.129346 -18.294846
-9.9848404 9.9848385 -18.958595
-9.863986 8.8775873 -19.562862
-9.772748 7.8181992 -20.019056
-9.6940031 6.7858019 -20.412779
-9.6186152 5.7711697 -20.789719
-9.577795 4.7888956 -20.99382
-9.5381107 3.8152437 -21.192242
-9.5017557 2.8505259 -21.37402
-9.4873581 1.8974695 -21.446007
-9.4745092 0.94744778 -21.510246
-9.4655371 -0 -21.555111
-9.4761 -0.9476099 -21.502296
-9.488924 -1.8977861 -21.438175
-9.5050945 -2.851531 -21.357319
-9.5430889 -3.8172388 -21.167353
-9.5828428 -4.7914228 -20.96858
-9.6273336 -5.776401 -20.746126
-9.7038832 -6.7927189 -20.36338
-9.7825508 -7.8260403 -19.970043
-9.8804302 -8.8923883 -19.48064
-9.9986134 -9.9986153 -18.889727
-10.137349 -11.151085 -18.196051
-10.301675 -12.362011 -17.374422
-10.528281 -13.686764 -16.241392
-10.824462 -15.154246 -14.760491
-11.27696 -16.915442 -12.497994
-10.36237 18.421988 -11.31408
-9.8365717 16.394283 -14.235177
-9.5193634 14.807897 -15.997447
-9.3106689 13.448742 -17.156858
-9.1421022 12.189466 -18.093342
-8.9963207 10.995501 -18.90324
-8.8852673 9.8725204 -19.520197
-8.7857618 8.7857609 -20.073009
-8.7128973 7.7447958 -20.47781
-8.6505489 6.7282047 -20.824192
-8.5932646 5.7288437 -21.142435
-8.55163 4.7509069 -21.373737
-8.5174303 3.7855234 -21.563744
-8.4885244 2.8295069 -21.724331
-8.4708729 1.8824148 -21.822388
-8.4617167 0.94018841 -21.873257
-8.4560595 -1.9073486e-06 -21.904688
-8.4607277 -0.94008064 -21.87875
-8.4742441 -1.8831663 -21.803665
-8.4914112 -2.830471 -21.70829
-8.5205374 -3.7869062 -21.546478
-8.5566072 -4.7536712 -21.346092
-8.5982399 -5.732162 -21.114799
-8.6580477 -6.7340379 -20.782536
-8.7206621 -7.751699 -20.434673
-8.7976103 -8.7976093 -20.007185
-8.8988352 -9.8875961 -19.444822
-9.0121355 -11.014835 -18.815376
-9.1602306 -12.213639 -17.992628
-9.3324184 -13.480162 -17.036024
-9.5522957 -14.859126 -15.814491
-9.8853512 -16.475586 -13.96418
-10.488259 -18.645794 -10.614691
-8.9437828 17.887566 -12.98415
-8.57372 16.075726 -15.297041
-8.3553562 14.62187 -16.661823
-8.1747694 13.284 -17.790485
-8.0340605 12.051092 -18.66992
-7.9169345 10.885788 -19.401953
-7.832541 9.7906742 -19.929419
-7.7525873 8.7216597 -20.429127
-7.6840067 7.6840067 -20.857754
-7.6310091 6.6771317 -21.18899
-7.5828223 5.6871147 -21.490154
-7.5416198 4.7135096 -21.747675
-7.5154443 3.7577209 -21.91127
-7.4901257 2.8087988 -22.06951
-7.471324 1.8678312 -22.187019
-7.466341 0.93329334 -22.218166
-7.4613638 9.5367432e-07 -22.249271
-7.4625964 -0.932827 -22.241566
-7.4775515 -1.8693886 -22.148094
-7.4925671 -2.8097115 -22.054253
-7.5144572 -3.7572279 -21.917437
-7.5505772 -4.7191095 -21.691689
-7.5870233 -5.690268 -21.463898
-7.6354446 -6.6810131 -21.161266
-7.6945014 -7.6945043 -20.792162
-7.7593861 -8.7293119 -20.386631
-7.8425851 -9.8032303 -19.86664
-7.9300051 -10.903759 -19.320261
-8.0514965 -12.077246 -18.560944
-8.1917543 -13.311603 -17.684334
-8.3772411 -14.660173 -16.525038
-8.6131306 -16.149618 -15.050731
-8.999053 -17.998104 -12.638715
-8.1441469 19.778641 -10.710321
-7.6602921 17.509237 -14.166424
-7.4080148 15.874316 -15.968405
-7.2262535 14.452504 -17.266697
-7.0803766 13.14927 -18.30868
-6.9754291 11.957877 -19.058304
-6.8783531 10.80884 -19.751701
-6.801003 9.7157154 -20.304207
-6.7350035 8.6592894 -20.775631
-6.6711421 7.6241612 -21.231785
-6.6298728 6.6298699 -21.526558
-6.5920811 5.6503544 -21.796501
-6.5589356 4.6849546 -22.033257
-6.5380731 3.7360411 -22.182278
-6.518115 2.7934761 -22.324829
-6.5043578 1.858386 -22.423096
-6.4989915 0.9284277 -22.461424
-6.4950571 -0 -22.489534
-6.497736 -0.92825031 -22.470398
-6.5082669 -1.8595066 -22.395176
-6.5201149 -2.7943363 -22.310545
-6.538775 -3.7364426 -22.177265
-6.5667553 -4.6905413 -21.977404
-6.5953431 -5.6531491 -21.773205
-6.6333089 -6.6333089 -21.502018
-6.6846218 -7.6395693 -21.135494
-6.7378235 -8.6629143 -20.755486
-6.8106871 -9.7295523 -20.235033
-6.8901134 -10.82732 -19.667698
-6.9877186 -11.978948 -18.970518
-7.0940886 -13.174737 -18.210735
-7.2475257 -14.495051 -17.114756
-7.4384437 -15.939523 -15.751055
-7.68963 -17.576298 -13.956868
-8.2400064 -20.011446 -10.025607
-6.7909718 19.241083 -12.29137
-6.4830322 17.288088 -14.857521
-6.2712793 15.678196 -16.622137
-6.1418028 14.330872 -17.701109
-6.0243049 13.052656 -18.68026
-5.9359851 11.871969 -19.416252
-5.8552384 10.734602 -20.089142
-5.7896843 9.6494713 -20.635429
-5.7394347 8.6091518 -21.054173
-5.6919951 7.5893273 -21.449503
-5.655767 6.5983944 -21.7514
-5.6236801 5.6236782 -22.018795
-5.5979862 4.6649885 -22.23291
-5.5767741 3.7178488 -22.409678
-5.559834 2.7799168 -22.550846
-5.5506439 1.8502121 -22.62743
-5.5436645 0.92394352 -22.685593
-5.5399585 -9.5367432e-07 -22.716473
-5.5448265 -0.92413998 -22.675907
-5.5518093 -1.8506041 -22.617718
-5.5616274 -2.7808142 -22.5359
-5.5801911 -3.720129 -22.381207
-5.6023388 -4.6686163 -22.196636
-5.6265974 -5.6265955 -21.994488
-5.6612229 -6.6047597 -21.70594
-5.7009354 -7.6012459 -21.375002
-5.7415676 -8.6123505 -21.036398
-5.7990565 -9.6650953 -20.557327
-5.8646994 -10.751952 -20.0103
-5.9442449 -11.888489 -19.347424
-6.0404553 -13.087654 -18.545673
-6.1572156 -14.366837 -17.572664
-6.2944822 -15.736209 -16.428778
-6.5074148 -17.353106 -14.654339
-6.8424449 -19.386929 -11.862423
-5.5714588 18.942957 -13.16821
-5.3383093 17.082586 -15.499703
-5.1921549 15.576467 -16.961245
-5.0828919 14.232099 -18.053873
-4.9880562 12.968945 -19.002235
-4.9158111 11.797945 -19.724684
-4.8561878 10.68361 -20.320919
-4.8046265 9.6092491 -20.836536
-4.7616186 8.5709114 -21.266613
-4.7244034 7.5590415 -21.638763
-4.6930156 6.57022 -21.952641
-4.6643934 5.5972719 -22.238861
-4.6451921 4.6451931 -22.430874
-4.6274524 3.7019606 -22.608276
-4.6110759 2.7666445 -22.772038
-4.6052957 1.8421154 -22.829838
-4.5995297 0.91990376 -22.887497
-4.5945525 -9.5367432e-07 -22.937271
-4.6003056 -0.92006111 -22.879738
-4.6060867 -1.842433 -22.82193
-4.6123843 -2.7674322 -22.758953
-4.6299424 -3.7039518 -22.583374
-4.6477818 -4.6477814 -22.404978
-4.666923 -5.6003084 -22.213566
-4.6979756 -6.5771661 -21.90304
-4.7299719 -7.567956 -21.583076
-4.7655668 -8.5780201 -21.227127
-4.8137097 -9.6274204 -20.745697
-4.8631883 -10.699015 -20.250912
-4.92419 -11.818057 -19.640896
-5.0006428 -13.001673 -18.876368
-5.0942369 -14.263865 -17.940428
-5.2071929 -15.621577 -16.810871
-5.3611817 -17.155781 -15.270977
-5.6009159 -19.043118 -12.873636
-4.7570863 21.406889 -9.4192162
-4.4041767 18.717751 -13.830587
-4.2423167 16.969265 -15.853839
-4.1299238 15.48721 -17.258751
-4.0400248 14.140084 -18.382484
-3.9736309 12.914301 -19.212406
-3.9169257 11.750774 -19.921227
-3.8696051 10.641414 -20.51273
-3.8301375 9.5753441 -21.006077
-3.7925284 8.5331879 -21.476192
-3.7644913 7.5289817 -21.826656
-3.7402749 6.5454798 -22.129356
-3.7178819 5.5768213 -22.409273
-3.704572 4.6307144 -22.575645
-3.6917064 3.6917067 -22.736464
-3.6791821 2.7593889 -22.893017
-3.6715431 1.8357697 -22.988508
-3.6671605 0.91679001 -23.043289
-3.6667635 1.9073486e-06 -23.048248
-3.6677356 -0.91693687 -23.036106
-3.6721089 -1.8360538 -22.981438
-3.6805921 -2.7604446 -22.875399
-3.6933694 -3.693368 -22.715679
-3.7062466 -4.6328096 -22.554714
-3.7207618 -5.5811434 -22.373276
-3.7431788 -6.5505643 -22.09306
-3.7678959 -7.5357919 -21.7841
-3.7979438 -8.5453758 -21.408497
-3.8361185 -9.5902987 -20.931314
-3.8752902 -10.657047 -20.441669
-3.9263637 -11.779093 -19.803249
-3.981977 -12.941426 -19.108084
-4.0507417 -14.177597 -18.248526
-4.1405644 -15.527116 -17.125746
-4.2571878 -17.028751 -15.667949
-4.4309483 -18.831528 -13.495949
-3.4958587 20.975151 -10.618486
-3.2791913 18.582081 -14.22961
-3.1620531 16.864279 -16.181915
-3.0821557 15.410779 -17.513533
-3.0201707 14.094131 -18.546616
-2.9706867 12.872972 -19.371353
-2.9292538 11.717014 -20.061901
-2.8910627 10.600563 -20.698418
-2.8633938 9.5446453 -21.159569
-2.8379748 8.5139256 -21.583216
-2.8175349 7.5134249 -21.923882
-2.8005519 6.5346212 -22.20693
-2.7838206 5.5676413 -22.485786
-2.7731936 4.6219893 -22.662903
-2.7633989 3.6845303 -22.826147
-2.753948 2.7539482 -22.983664
-2.7473807 1.8315887 -23.093115
-2.7443273 0.9147768 -23.144007
-2.7443273 9.5367432e-07 -23.144009
-2.7443273 -0.9147768 -23.144009
-2.7482331 -1.8321552 -23.078909
-2.7550952 -2.7550983 -22.964542
-2.7646492 -3.6862001 -22.805309
-2.7745087 -4.6241837 -22.640985
-2.7859976 -5.5719957 -22.449505
-2.802747 -6.5397453 -22.170349
-2.8198309 -7.5195513 -21.885616
-2.8412237 -8.5236721 -21.529068
-2.8667011 -9.5556698 -21.104446
-2.8951025 -10.615377 -20.631086
-2.935256 -11.741024 -19.961861
-2.9769704 -12.900206 -19.266623
-3.0297716 -14.138932 -18.386604
-3.0882387 -15.441194 -17.412151
-3.177392 -16.946089 -15.926264
-3.2952185 -18.672903 -13.962494
-3.5522335 -21.3134 -9.6789103
-2.3013654 20.712292 -11.348656
-2.1757302 18.493704 -14.489542
-2.0996664 16.797331 -16.391132
-2.0506659 15.379996 -17.616146
-2.0096939 14.067857 -18.640446
-1.9745342 12.834471 -19.519442
-1.9483728 11.690235 -20.173477
-1.9244937 10.584714 -20.770451
-1.9067576 9.5337849 -21.21386
-1.8898501 8.5043259 -21.636543
-1.8757674 7.503068 -21.988611
-1.8640661 6.524229 -22.281143
-1.8528299 5.5584898 -22.56205
-1.8454827 4.6137047 -22.745728
-1.8388397 3.6776781 -22.911808
-1.8323485 2.7485209 -23.074085
-1.82951 1.8295088 -23.145046
-1.8274426 0.91371918 -23.196732
-1.8259807 -9.5367432e-07 -23.23328
-1.8277177 -0.91385841 -23.189854
-1.8297805 -1.8297796 -23.138287
-1.8331782 -2.7497673 -23.053341
-1.839712 -3.6794252 -22.889996
-1.8463615 -4.6159048 -22.723757
-1.854287 -5.5628629 -22.52562
-1.8655896 -6.5295663 -22.243053
-1.8772937 -7.5091763 -21.950455
-1.8920112 -8.5140514 -21.582518
-1.9089632 -9.544817 -21.15872
-1.9275252 -10.601391 -20.694664
-1.9514918 -11.708953 -20.095499
-1.9783456 -12.859245 -19.424158
-2.0151808 -14.106265 -18.503279
-2.0551903 -15.413929 -17.503035
-2.1085188 -16.868153 -16.169827
-2.1881638 -18.599396 -14.178699
-2.3351214 -21.01609 -10.504766
-1.145681 20.622257 -11.598744
-1.0827119 18.406101 -14.747197
-1.049847 16.797552 -16.390448
-1.0232887 15.349329 -17.718357
-1.0031182 14.043655 -18.726891
-0.98643798 12.823692 -19.5609
-0.97388273 11.686593 -20.18866
-0.96194494 10.581392 -20.785553
-0.9526366 9.5263643 -21.250967
-0.94387752 8.4948959 -21.688923
-0.93659538 7.4927626 -22.053028
-0.93075806 6.5153046 -22.344891
-0.92532551 5.5519524 -22.616524
-0.92175823 4.6087904 -22.794884
-0.91873741 3.6749468 -22.945929
-0.91593695 2.7478104 -23.085949
-0.91459638 1.8291922 -23.152975
-0.91361237 0.91361141 -23.202175
-0.91302919 9.5367432e-07 -23.231339
-0.91374207 -0.91374207 -23.195692
-0.91472644 -1.8294544 -23.146477
-0.91621858 -2.7486572 -23.071869
-0.91913354 -3.6765327 -22.926117
-0.92215711 -4.6107855 -22.774946
-0.92601508 -5.5560932 -22.582043
-0.93151778 -6.5206261 -22.306904
-0.93735373 -7.4988327 -22.015108
-0.94499719 -8.5049772 -21.632935
-0.95377719 -9.5377731 -21.193935
-0.96346837 -10.59815 -20.709381
-0.97544426 -11.705332 -20.110584
-0.98843759 -12.849689 -19.460918
-1.0056131 -14.078585 -18.60214
-1.0266052 -15.399079 -17.552534
-1.0535657 -16.857048 -16.204514
-1.0910331 -18.547562 -14.331144
-1.1594925 -20.870863 -10.908173
0 20.720364 -11.326226
0 18.45957 -14.589931
0 16.797768 -16.389763
0 15.345963 -17.72958
0 14.055305 -18.685272
0 12.834981 -19.517475
0 11.688361 -20.18129
0 10.578138 -20.800354
0 9.5196304 -21.284641
0 8.4953718 -21.686289
0 7.4935446 -22.04812
0 6.5197535 -22.313108
0 5.5578327 -22.567516
0 4.6107044 -22.775736
0 3.6764708 -22.926903
0 2.7499695 -23.049948
0 1.8295345 -23.144398
0 0.91378212 -23.193619
0 9.5367432e-07 -23.201012
0 -0.91391373 -23.18726
0 -1.829793 -23.138027
0 -2.7508116 -23.035976
0 -3.6780567 -22.907078
0 -4.6127033 -22.755777
0 -5.5613575 -22.53817
0 -6.5245733 -22.278715
0 -7.4992671 -22.012377
0 -8.5044537 -21.635849
0 -9.5310497 -21.227552
0 -10.595077 -20.723364
0 -11.707889 -20.099937
0 -12.862447 -19.411842
0 -14.085893 -18.576044
0 -15.392746 -17.573643
0 -16.856224 -16.207098
0 -18.545301 -14.337796
0 -20.956184 -10.671182
1.1566753 20.820156 -11.049027
1.0896478 18.524012 -14.400405
1.0498948 16.798319 -16.388052
1.026183 15.392745 -17.573645
1.0056634 14.079287 -18.599625
0.98828584 12.847713 -19.468508
0.97437221 11.692463 -20.164188
0.96258938 10.588484 -20.753326
0.95344096 9.5344086 -21.210749
0.94553024 8.5097733 -21.606281
0.93822557 7.505805 -21.971519
0.9322328 6.5256281 -22.271154
0.92738664 5.5643196 -22.513462
0.92293453 4.6146708 -22.736069
0.91952491 3.6780987 -22.906551
0.91737819 2.7521343 -23.013885
0.91523886 1.8304749 -23.120853
0.9142431 0.9142437 -23.170643
0.9142431 -9.5367432e-07 -23.170643
0.9142431 -0.91424274 -23.170643
0.91551489 -1.831028 -23.107052
0.91765541 -2.7529669 -23.000027
0.91989279 -3.6795692 -22.888153
0.92351192 -4.6175604 -22.707201
0.92796957 -5.5678201 -22.484316
0.93291658 -6.5304146 -22.236971
0.9391427 -7.5131431 -21.925663
0.94654256 -8.5188828 -21.555668
0.95447022 -9.5447025 -21.159286
0.96408594 -10.604948 -20.678495
0.97599745 -11.711972 -20.082924
0.99044836 -12.875831 -19.36038
1.0079532 -14.111348 -18.485134
1.0291725 -15.437589 -17.424168
1.0547915 -16.876665 -16.143221
1.0947146 -18.610147 -14.147068
1.1734825 -21.122684 -10.20867
2.3379712 21.04174 -10.433516
2.1875393 18.594084 -14.194314
2.113039 16.904308 -16.056828
2.0591748 15.44381 -17.403427
2.0152817 14.106971 -18.500755
1.9812075 12.877849 -19.352608
1.9530847 11.718509 -20.055679
1.9286978 10.607836 -20.665352
1.9104702 9.552352 -21.121038
1.8943274 8.5244741 -21.524609
1.8799256 7.5197029 -21.884651
1.8661469 6.5315151 -22.229124
1.8569404 5.5708208 -22.459286
1.8484241 4.6210594 -22.672194
1.8415228 3.6830444 -22.844727
1.8375849 2.7563772 -22.943171
1.8336587 1.8336582 -23.041328
1.8315923 0.91579628 -23.092985
1.8315923 1.9073486e-06 -23.092983
1.8315923 -0.91579533 -23.092987
1.8341656 -1.8341675 -23.02866
1.838094 -2.7571411 -22.930447
1.8420339 -3.6840687 -22.831949
1.8494705 -4.6236773 -22.646034
1.8580984 -5.5742936 -22.430336
1.8675547 -6.5364428 -22.193932
1.8817669 -7.5270681 -21.838623
1.8963088 -8.5333881 -21.475079
1.9128038 -9.5640192 -21.062702
1.93147 -10.623086 -20.596043
1.9564806 -11.738884 -19.970785
1.985363 -12.90486 -19.248718
2.0198793 -14.139155 -18.385811
2.0654986 -15.491241 -17.245329
2.121417 -16.971336 -15.847373
2.2027214 -18.723133 -13.814764
2.3937137 -21.543423 -9.039957
3.609268 21.655607 -8.7283268
3.3109937 18.762295 -13.699567
3.1897473 17.011988 -15.720337
3.1026087 15.513042 -17.172649
3.0342278 14.159728 -18.312336
2.9818342 12.921279 -19.185562
2.9403245 11.761297 -19.877388
2.9036617 10.646757 -20.488436
2.8735778 9.5785942 -20.98983
2.847055 8.5411663 -21.431877
2.827486 7.5399604 -21.758028
2.8084214 6.5529804 -22.075775
2.7940035 5.588007 -22.316071
2.7817352 4.6362238 -22.520542
2.7712514 3.6949987 -22.695274
2.7641029 2.764102 -22.814413
2.7585196 1.8390112 -22.907473
2.7553077 0.91843414 -22.961002
2.754663 9.5367432e-07 -22.971745
2.7557244 -0.91857529 -22.954058
2.758945 -1.8392973 -22.900377
2.7648709 -2.7648716 -22.801617
2.7725248 -3.6967039 -22.674051
2.7833149 -4.6388626 -22.494215
2.7955892 -5.5911798 -22.289642
2.8106613 -6.5582104 -22.038437
2.8299973 -7.5466599 -21.716175
2.849618 -8.5488567 -21.389162
2.8774233 -9.5914135 -20.925741
2.9075792 -10.661121 -20.423145
2.9455814 -11.782324 -19.789776
2.9880817 -12.948356 -19.081434
3.0414155 -14.193275 -18.192537
3.11219 -15.560948 -17.012962
3.2026458 -17.080778 -15.505368
3.3344126 -18.895002 -13.309253
4.4694233 18.99505 -13.015006
4.2890024 17.156006 -15.270266
4.1598177 15.599314 -16.885073
4.0691929 14.242174 -18.017885
3.9982033 12.99416 -18.905256
3.9388101 11.816429 -19.647673
3.8876486 10.691031 -20.287188
3.8477104 9.619277 -20.786415
3.812815 8.5788336 -21.22261
3.7856805 7.5713587 -21.561794
3.7606201 6.5810843 -21.875042
3.7376578 5.6064882 -22.162071
3.721364 4.6517057 -22.365746
3.7081149 3.7081165 -22.531361
3.6958399 2.7718801 -22.684795
3.6898017 1.8448973 -22.760275
3.6855023 0.92137623 -22.814018
3.6826239 -1.9073486e-06 -22.849995
3.6860616 -0.92151451 -22.807026
3.6903622 -1.8451843 -22.753267
3.6968694 -2.7726536 -22.67193
3.7098138 -3.709816 -22.510124
3.7233014 -4.6541252 -22.341528
3.740449 -5.6106749 -22.127182
3.7636328 -6.5863571 -21.837387
3.7890675 -7.5781345 -21.519451
3.8167036 -8.5875835 -21.174
3.8528123 -9.6320324 -20.722645
3.8928452 -10.705326 -20.222233
3.9460299 -11.83809 -19.557421
4.00669 -13.021745 -18.79917
4.0790825 -14.276793 -17.894262
4.1731544 -15.64933 -16.718363
4.3073864 -17.229546 -15.040463
4.4980803 -19.116842 -12.656792
5.7075586 19.405697 -11.807211
5.4125037 17.320013 -14.757755
5.2563682 15.769102 -16.319117
5.1254234 14.351183 -17.628559
5.0277987 13.072275 -18.604809
4.9538574 11.889257 -19.344221
4.8890462 10.755903 -19.992332
4.833694 9.6673851 -20.54586
4.7886977 8.6196556 -20.995815
4.7518878 7.6030216 -21.363918
4.7210217 6.6094294 -21.672585
4.6918526 5.6302223 -21.964272
4.6683316 4.6683292 -22.199482
4.6528215 3.7222567 -22.354584
4.6378422 2.7827034 -22.504374
4.6304617 1.8521843 -22.578176
4.6255498 0.92510796 -22.627296
4.6218834 -1.9073486e-06 -22.663963
4.6261883 -0.9252367 -22.620911
4.631115 -1.8524466 -22.571651
4.6397676 -2.7838612 -22.485119
4.6547461 -3.7237968 -22.335337
4.6704721 -4.6704731 -22.178074
4.69559 -5.6347103 -21.926893
4.7248335 -6.6147671 -21.634462
4.7561717 -7.6098747 -21.321079
4.7936053 -8.6284914 -20.946745
4.8405571 -9.6811161 -20.477226
4.8957849 -10.770727 -19.924948
4.962903 -11.910967 -19.253769
5.0401449 -13.104377 -18.481346
5.1403232 -14.392906 -17.479565
5.2750468 -15.825142 -16.13233
5.4454737 -17.425514 -14.428062
5.7581282 -19.577641 -11.30151
7.0989294 20.113634 -9.725049
6.6068072 17.618153 -13.826069
6.3824682 15.956167 -15.695562
6.207911 14.485124 -17.150206
6.0884118 13.191562 -18.146027
5.9890642 11.978127 -18.973925
5.9051976 10.826197 -19.672817
5.8388968 9.7314939 -20.225325
5.7831125 8.6746655 -20.690191
5.7326188 7.6434903 -21.110971
5.6933041 6.6421862 -21.438593
5.6600442 5.6600437 -21.715759
5.6346259 4.6955223 -21.927578
5.6159768 3.7439833 -22.082991
5.5989113 2.7994556 -22.225201
5.5866647 1.8622208 -22.327255
5.5806909 0.93011475 -22.377041
5.5788202 -9.5367432e-07 -22.392628
5.5814977 -0.93025112 -22.370317
5.5874572 -1.862483 -22.320652
5.6006165 -2.8003092 -22.210991
5.6183133 -3.7455435 -22.06352
5.6373734 -4.697813 -21.904686
5.6643114 -5.66431 -21.680201
5.6976385 -6.6472459 -21.402473
5.7390251 -7.6520333 -21.057585
5.7897363 -8.6846066 -20.634995
5.8470473 -9.7450771 -20.1574
5.9143133 -10.84291 -19.596851
6.0016665 -12.003334 -18.868908
6.1033068 -13.223834 -18.021904
6.2283754 -14.532878 -16.97967
6.4061198 -16.015303 -15.498463
6.6399994 -17.706667 -13.549465
7.3154559 -20.727123 -7.9206619
7.8856378 18.024313 -12.556814
7.5523815 16.18367 -14.937218
7.3402843 14.680568 -16.452192
7.1769419 13.328605 -17.618923
7.0510573 12.087524 -18.518103
6.9506574 10.922462 -19.235241
6.8660479 9.8086395 -19.839598
6.794992 8.7364178 -20.347137
6.7350841 7.6972399 -20.775055
6.6889887 6.6889858 -21.104305
6.6449509 5.6956701 -21.418861
6.6145921 4.7247066 -21.635712
6.5904231 3.765954 -21.808346
6.5721769 2.8166466 -21.938673
6.5565686 1.8733044 -22.050163
6.5470414 0.93529034 -22.118216
6.5470605 -0 -22.11808
6.5471935 -0.93531418 -22.117128
6.5585918 -1.8738842 -22.035709
6.5741906 -2.8175106 -21.92429
6.5931807 -3.7675343 -21.788647
6.617837 -4.7270269 -21.612532
6.6505418 -5.7004652 -21.378929
6.6947737 -6.6947742 -21.062984
6.7426634 -7.7059011 -20.720917
6.8036113 -8.7474995 -20.285574
6.8767366 -9.8239079 -19.763248
6.9617624 -10.939913 -19.155922
7.0650992 -12.111599 -18.417803
7.1963372 -13.364627 -17.480387
7.3628836 -14.72577 -16.290768
7.5895295 -16.263277 -14.671872
7.9442568 -18.1583 -12.138104
9.3605556 18.721109 -10.379327
8.8100414 16.518827 -13.82004
8.5193348 14.908835 -15.636954
8.3151751 13.512158 -16.912952
8.152379 12.228567 -17.930424
8.0234442 11.032237 -18.736269
7.9194427 9.8993015 -19.386278
7.8361878 8.815712 -19.906622
7.7624979 7.7624984 -20.367184
7.7051401 6.7419968 -20.72567
7.6531706 5.7398782 -21.050478
7.6171918 4.7607441 -21.275345
7.5822639 3.791132 -21.493645
7.5608435 2.8353148 -21.627525
7.5439844 1.8859949 -21.732897
7.5335202 0.94168854 -21.79829
7.5321541 -9.5367432e-07 -21.806833
7.5342488 -0.94177914 -21.793743
7.5493374 -1.8873329 -21.699436
7.5653534 -2.8370123 -21.599335
7.5878506 -3.7939243 -21.458731
7.6217923 -4.7636209 -21.246593
7.6592727 -5.7444553 -21.012342
7.7124567 -6.7484007 -20.679941
7.7720823 -7.7720819 -20.307283
7.8470068 -8.8278837 -19.839001
7.9320326 -9.9150419 -19.307592
8.0371952 -11.051147 -18.650324
8.1701517 -12.255228 -17.819347
8.3405771 -13.553437 -16.754189
8.5469093 -14.957091 -15.464615
8.8568048 -16.60651 -13.527767
9.545249 -19.090498 -9.2249947
10.219486 17.032476 -12.107872
9.7855921 15.222031 -14.518396
9.5062094 13.731188 -16.070524
9.2948036 12.393069 -17.245001
9.1349516 11.164942 -18.133066
9.0147438 10.016382 -18.800884
8.9101954 8.9101944 -19.381708
8.816946 7.8372841 -19.899763
8.7523375 6.8073721 -20.258699
8.6925278 5.7950158 -20.590973
8.6435013 4.8019438 -20.863344
8.6061077 3.8249369 -21.071087
8.578249 2.8594151 -21.225857
8.556304 1.9013996 -21.347775
8.5484753 0.9498291 -21.391266
8.5406618 -1.9073486e-06 -21.434677
8.5513277 -0.95014954 -21.375423
8.5680485 -1.9040117 -21.282528
8.5891113 -2.86304 -21.165514
8.6185026 -3.8304482 -21.002228
8.6562624 -4.8090367 -20.792452
8.6976185 -5.7984118 -20.562696
8.7605438 -6.8137593 -20.21311
8.8289061 -7.8479152 -19.833317
8.922492 -8.922492 -19.313395
9.0292454 -10.032495 -18.720322
9.1543245 -11.188619 -18.025438
9.3165989 -12.422133 -17.123911
9.536727 -13.775272 -15.900982
9.82726 -15.286848 -14.286905
10.30416 -17.173605 -11.63746
11.186141 15.660598 -12.952089
10.771782 14.003316 -15.023886
10.503712 12.604455 -16.364235
10.310982 11.34208 -17.327887
10.152796 10.152796 -18.118816
10.025775 9.0231972 -18.753923
9.9288063 7.9430451 -19.238766
9.8364305 6.8855023 -19.700642
9.7607737 5.8564644 -20.078926
9.7068682 4.853435 -20.348457
9.6618147 3.8647251 -20.573723
9.6251745 2.8875513 -20.756926
9.6050367 1.9210081 -20.857613
9.5880671 0.95880604 -20.942457
9.5859547 -1.9073486e-06 -20.953026
9.5915823 -0.95915794 -20.924883
9.6064415 -1.9212894 -20.85059
9.6366167 -2.8909855 -20.699715
9.6691885 -3.8676748 -20.536858
9.714076 -4.8570409 -20.312416
9.7681208 -5.8608747 -20.042192
9.845006 -6.8915071 -19.657768
9.9309816 -7.944788 -19.227888
10.035247 -9.0317221 -18.706562
10.171824 -10.171827 -18.02367
10.334358 -11.367793 -17.211004
10.534036 -12.640842 -16.212618
10.819913 -14.065885 -14.783237
11.254993 -15.756994 -12.60783
12.945362 16.475916 -10.040241
12.183933 14.39919 -13.501287
11.834226 12.910061 -15.090864
11.556006 11.556007 -16.355492
11.355505 10.323186 -17.266861
11.206576 9.1690159 -17.943813
11.077909 8.0566597 -18.528664
10.963764 6.9769416 -19.047501
10.877591 5.9332285 -19.439203
10.804191 4.9109926 -19.772842
10.755183 3.9109745 -19.995598
10.711381 2.9212847 -20.194702
10.686677 1.9430275 -20.306992
10.666713 0.96969891 -20.397739
10.673402 -2.8610229e-06 -20.367332
10.679069 -0.9708252 -20.341572
10.686935 -1.9430799 -20.30582
10.718515 -2.9232321 -20.16227
10.758909 -3.9123302 -19.978662
10.816504 -4.9165931 -19.716871
10.882238 -5.9357681 -19.418074
10.974165 -6.9835587 -19.000227
11.080997 -8.0589066 -18.514633
11.208528 -9.1706161 -17.934944
11.372724 -10.338841 -17.188597
11.585581 -11.585584 -16.221064
11.876707 -12.956407 -14.89776
12.253051 -14.480879 -13.187109
13.097039 -16.668961 -9.3507957
14.030223 15.199406 -10.423538
13.313418 13.31342 -13.410215
12.907777 11.832126 -15.100392
12.641173 10.53431 -16.211239
12.44102 9.3307657 -17.04521
12.275056 8.1833677 -17.736732
12.150123 7.0875702 -18.257284
12.051204 6.0255995 -18.669451
11.957915 4.9824619 -19.058147
11.897353 3.9657826 -19.310493
11.845533 2.96138 -19.526405
11.815562 1.9692593 -19.651287
11.793083 0.98275852 -19.744947
11.791355 -9.5367432e-07 -19.752151
11.797479 -0.98312759 -19.726635
11.815417 -1.9692373 -19.651892
11.854006 -2.9635053 -19.491108
11.90168 -3.967226 -19.292465
11.97074 -4.9878111 -19.004711
12.056055 -6.0280285 -18.649227
12.161103 -7.0939775 -18.211533
12.298314 -8.1988792 -17.639822
12.46455 -9.3484154 -16.947172
12.669415 -10.557847 -16.093565
12.956323 -11.876629 -14.898121
13.374372 -13.374372 -13.156248
14.206685 -15.390577 -9.6882696
15.234443 14.06256 -10.28879
14.472113 12.245632 -13.220822
14.063144 10.817802 -14.793783
13.791347 9.5478554 -15.839153
13.583581 8.359127 -16.638252
13.417646 7.2248864 -17.276463
13.281681 6.1300077 -17.799406
13.185947 5.0715165 -18.167612
13.100848 4.0310273 -18.494919
13.100111 3.0231028 -18.497759
13.099946 2.0153751 -18.49839
13.099986 1.0076895 -18.49823
13.099946 -0 -18.49839
13.099946 -1.0076904 -18.498388
13.099946 -2.0153756 -18.49839
13.100234 -3.0231318 -18.497284
13.107086 -4.0329504 -18.470924
13.191934 -5.0738192 -18.144587
13.310585 -6.1433454 -17.68824
13.43031 -7.2317038 -17.227757
13.604827 -8.3722048 -16.556538
13.824386 -9.5707283 -15.71208
14.107244 -10.851727 -14.624163
14.528852 -12.293645 -13.002592
15.37265 -14.190141 -9.7572222
16.90563 13.282993 -8.5055523
15.784536 11.274669 -12.509452
15.330125 9.8550797 -14.132351
15.028834 8.5879049 -15.208388
14.806682 7.4033403 -16.001793
14.626334 6.2684278 -16.645885
14.604242 5.2157993 -16.724791
14.603958 4.1725578 -16.725801
14.603675 3.1293592 -16.726818
14.603722 2.0862446 -16.726646
14.603722 1.0431256 -16.726648
14.603722 -2.8610229e-06 -16.726648
14.603722 -1.0431247 -16.726648
14.603626 -2.0862327 -16.726986
14.603437 -3.1293082 -16.727661
14.604053 -4.1725874 -16.725466
14.604242 -5.2157993 -16.724789
14.648399 -6.2778864 -16.567081
14.824414 -7.4122047 -15.938459
15.075903 -8.6148033 -15.040284
15.377633 -9.8856201 -13.962679
15.8572 -11.326572 -12.249941
17.348011 10.408801 -11.056098
16.759115 8.9381943 -13.019079
16.41547 7.6605525 -14.164562
16.217165 6.486865 -14.825583
16.217438 5.4058113 -14.824671
16.217165 4.3245778 -14.82558
16.216948 3.243391 -14.826307
16.217056 2.162271 -14.825943
16.216948 1.081131 -14.826307
16.21711 -0 -14.825763
16.21711 -1.0811419 -14.825762
16.216948 -2.162261 -14.826307
16.216675 -3.2433357 -14.827215
16.216291 -4.3243442 -14.828485
16.217382 -5.4057965 -14.824856
16.217438 -6.4869771 -14.824672
16.430555 -7.6675959 -14.114277
16.823948 -8.9727736 -12.802973
17.469616 -10.481771 -10.650743
18.533316 8.1083241 -10.966185
18.000057 6.7500172 -12.632618
17.952549 5.6101704 -12.781073
17.952299 4.4880743 -12.781857
17.952299 3.3660531 -12.781859
17.952425 2.2440519 -12.781466
17.951986 1.1219993 -12.782836
17.952549 -2.8610229e-06 -12.781076
17.952549 -1.1220374 -12.781076
17.952299 -2.2440357 -12.781858
17.951925 -3.3659844 -12.783032
17.951986 -4.4879985 -12.782834
17.95155 -5.6098595 -12.784204
18.052118 -6.7695446 -12.469926
18.61849 -8.1455908 -10.700018
19.824005 4.6644707 -10.576897
19.824005 3.4983521 -10.576895
19.824221 2.3322597 -10.576262
19.824078 1.166121 -10.576686
19.824005 -9.5367432e-07 -10.576899
19.824436 -1.1661425 -10.575627
19.824078 -2.3322456 -10.576687
19.823647 -3.4982898 -10.577954
19.823647 -4.6643867 -10.577951
