# .PCD v0.7 - Point Cloud Data file format
VERSION 0.7
FIELDS x y z
SIZE 4 4 4
TYPE F F F
COUNT 1 1 1
WIDTH 1060
HEIGHT 1
VIEWPOINT 0 0 0 1 0 0 0
POINTS 1060
DATA ascii
-23.214069 -1.2217956 -7.7931385
-21.643797 7.2145948 -8.7611408
-20.804678 5.7790775 -11.092026
-20.345222 4.5211587 -12.368284
-20.146818 3.3578014 -12.919412
-19.962353 2.218039 -13.431816
-19.855886 1.1031036 -13.72756
-19.8738 -4.7683716e-07 -13.677795
-19.891748 -1.1050997 -13.627937
-19.997637 -2.2219601 -13.333807
-20.136385 -3.3560629 -12.948398
-20.398813 -4.5330696 -12.219428
-20.857714 -5.7938104 -10.944704
-21.82984 -7.2766118 -8.2443533
-19.92247 9.3752766 -10.287297
-19.205153 7.9080048 -12.397053
-18.811003 6.6391759 -13.556318
-18.532358 5.4506927 -14.37586
-18.331541 4.3133016 -14.966499
-18.21594 3.2145767 -15.306499
-18.101849 2.1296291 -15.642067
-18.038883 1.06111 -15.827261
-18.050426 -2.3841858e-06 -15.793303
-18.061989 -1.0624709 -15.759302
-18.125658 -2.1324329 -15.572039
-18.214001 -3.2142348 -15.312208
-18.326138 -4.3120341 -14.982392
-18.572937 -5.4626274 -14.25651
-18.827705 -6.6450729 -13.507194
-19.278988 -7.9384098 -12.179893
-20.081814 -9.4502668 -9.8186407
-19.122684 11.951676 -9.1244097
-18.059401 10.158411 -12.447175
-17.604902 8.8024492 -13.867481
-17.276428 7.5584378 -14.893955
-17.053286 6.3949828 -15.591282
-16.856997 5.2678113 -16.204683
-16.720587 4.1801462 -16.63096
-16.64352 3.1206589 -16.871798
-16.573771 2.0717211 -17.089764
-16.533167 1.0333223 -17.216648
-16.52383 -0 -17.245827
-16.522556 -1.0326591 -17.249805
-16.566093 -2.0707617 -17.113756
-16.650032 -3.121881 -16.85145
-16.740538 -4.1851382 -16.568615
-16.896656 -5.2802052 -16.080748
-17.063908 -6.3989673 -15.558084
-17.303366 -7.5702229 -14.809777
-17.657665 -8.8288326 -13.702593
-18.149086 -10.208865 -12.166903
-19.573212 -12.233256 -7.7165089
-17.299767 12.686493 -11.216907
-16.638506 11.092335 -13.421114
-16.23238 9.7394247 -14.774867
-15.954219 8.508914 -15.702065
-15.708605 7.3306818 -16.520779
-15.562455 6.2249789 -17.007946
-15.428511 5.1428375 -17.454432
-15.316751 4.0844655 -17.826962
-15.245066 3.0490117 -18.065912
-15.192816 2.0257101 -18.240074
-15.163942 1.0109301 -18.336321
-15.1588 -1.9073486e-06 -18.353464
-15.166468 -1.0110979 -18.327908
-15.204108 -2.0272131 -18.202435
-15.263237 -3.0526476 -18.005339
-15.329834 -4.0879555 -17.783348
-15.438675 -5.146225 -17.420547
-15.578224 -6.2312908 -16.955383
-15.750068 -7.3500314 -16.38257
-15.987295 -8.5265579 -15.591811
-16.263388 -9.7580328 -14.671512
-16.724277 -11.149518 -13.135204
-17.469488 -12.810961 -10.651169
-15.962706 13.682319 -11.873129
-15.393604 12.094973 -13.905638
-15.010409 10.721723 -15.274191
-14.724805 9.4659443 -16.294205
-14.52997 8.3028374 -16.990049
-14.345657 7.1728268 -17.648306
-14.217906 6.0933876 -18.104561
-14.117137 5.0418339 -18.464447
-14.035472 4.0101333 -18.756107
-13.979687 2.9956446 -18.955345
-13.930413 1.990057 -19.131325
-13.905391 0.99323845 -19.220686
-13.901358 -0 -19.235088
-13.907193 -0.99337006 -19.214249
-13.935238 -1.9907503 -19.114086
-13.978906 -2.995482 -18.95813
-14.035167 -4.0100489 -18.757198
-14.129003 -5.0460715 -18.422073
-14.242537 -6.1039467 -18.016598
-14.362577 -7.1812868 -17.587875
-14.544886 -8.3113623 -16.936775
-14.76563 -9.4921913 -16.148407
-15.05535 -10.753823 -15.113688
-15.417994 -12.114138 -13.818532
-16.070314 -13.774558 -11.488819
-14.784955 14.784955 -12.017585
-14.216009 13.122469 -14.205834
-13.875462 11.740772 -15.515638
-13.603501 10.464229 -16.561642
-13.394535 9.2731361 -17.365355
-13.222955 8.1371994 -18.02528
-13.087775 7.0472627 -18.5452
-12.989118 5.9949756 -18.924654
-12.895791 4.9599195 -19.2836
-12.825069 3.9461722 -19.555609
-12.778649 2.9489174 -19.734142
-12.741639 1.9602499 -19.87649
-12.722498 0.97865295 -19.950111
-12.718284 -9.5367432e-07 -19.966324
-12.723543 -0.97873402 -19.946091
-12.748006 -1.9612303 -19.852001
-12.789392 -2.9513988 -19.692825
-12.836757 -3.9497709 -19.510658
-12.907845 -4.9645567 -19.237232
-12.992829 -5.9966898 -18.910378
-13.098552 -7.0530667 -18.503754
-13.250302 -8.1540318 -17.920103
-13.41012 -9.2839279 -17.305414
-13.619754 -10.476732 -16.499134
-13.90909 -11.769231 -15.386295
-14.304568 -13.204217 -13.865221
-14.915254 -14.915255 -11.516439
-13.786159 16.083853 -11.440465
-13.161603 14.258402 -14.042788
-12.788989 12.788988 -15.595345
-12.525515 11.481722 -16.693153
-12.303251 10.252707 -17.619253
-12.151652 9.11374 -18.250914
-12.019584 8.0130539 -18.801197
-11.902487 6.9431157 -19.289103
-11.814442 5.9072185 -19.65596
-11.742488 4.8927016 -19.955765
-11.687796 3.8959303 -20.183649
-11.648768 2.9121904 -20.34626
-11.615484 1.935914 -20.484943
-11.598775 0.96656322 -20.554569
-11.594178 -0 -20.573723
-11.595606 -0.96630192 -20.567776
-11.614786 -1.9357996 -20.487856
-11.648558 -2.9121428 -20.347137
-11.691121 -3.8970423 -20.16979
-11.753065 -4.8971138 -19.91169
-11.830765 -5.9153829 -19.587944
-11.91431 -6.9500165 -19.23984
-12.029282 -8.0195217 -18.760792
-12.172334 -9.1292524 -18.164738
-12.342886 -10.285741 -17.454102
-12.56251 -11.515636 -16.539003
-12.820364 -12.820367 -15.464615
-13.229411 -14.331863 -13.760246
-13.906645 -16.224421 -10.938445
-12.906283 17.599476 -10.217867
-12.152855 15.46727 -13.642543
-11.769073 13.9089 -15.387009
-11.482987 12.526893 -16.687401
-11.292982 11.29298 -17.55106
-11.11422 10.103836 -18.363619
-10.984756 8.9875278 -18.952091
-10.866105 7.9026232 -19.491409
-10.775447 6.8571038 -19.90349
-10.706587 5.8399544 -20.216494
-10.642086 4.8373108 -20.509678
-10.594472 3.8525324 -20.726103
-10.558388 2.8795605 -20.890129
-10.525426 1.9137144 -21.039951
-10.512236 0.95565605 -21.099905
-10.515951 -1.9073486e-06 -21.083017
-10.519764 -0.95634174 -21.065685
-10.536609 -1.9157457 -20.989117
-10.565099 -2.8813915 -20.859619
-10.596598 -3.8533096 -20.716446
-10.645414 -4.8388252 -20.494545
-10.712321 -5.8430839 -20.190426
-10.787038 -6.8644772 -19.850807
-10.886991 -7.9178114 -19.396477
-10.998065 -8.9984169 -18.89159
-11.124733 -10.113396 -18.315832
-11.308639 -11.30864 -17.479893
-11.516309 -12.563246 -16.53594
-11.813059 -13.960887 -15.187075
-12.217361 -15.549372 -13.349337
-13.12676 -17.900129 -9.2157001
-11.198091 16.797134 -12.892345
-10.759142 15.062799 -15.087082
-10.504775 13.656208 -16.358919
-10.279989 12.335988 -17.482847
-10.116477 11.128124 -18.300411
-9.9641581 9.964159 -19.062006
-9.8683729 8.8815327 -19.540936
-9.7749739 7.8199787 -20.007925
-9.6962814 6.7873969 -20.401386
-9.6330395 5.7798219 -20.717598
-9.5721264 4.7860622 -21.022167
-9.5353136 3.814126 -21.20623
-9.5109377 2.8532801 -21.32811
-9.4867144 1.8973427 -21.449223
-9.4752073 0.94752121 -21.50676
-9.4719439 -1.9073486e-06 -21.523075
-9.4686556 -0.94686604 -21.539516
-9.4829693 -1.896595 -21.467953
-9.5136366 -2.8540916 -21.314611
-9.5445042 -3.8178034 -21.160275
-9.5870962 -4.7935495 -20.947313
-9.6420155 -5.785212 -20.672718
-9.6985025 -6.7889519 -20.390285
-9.7796373 -7.8237114 -19.984606
-9.88307 -8.894762 -19.467445
-9.9927454 -9.9927444 -18.919067
-10.142589 -11.156847 -18.169853
-10.299697 -12.359636 -17.384314
-10.52766 -13.685961 -16.24449
-10.821694 -15.150373 -14.77432
-11.265119 -16.897676 -12.557204
-10.354404 18.407827 -11.358328
-9.8384094 16.397346 -14.224967
-9.5235252 14.814374 -15.974321
-9.3041792 13.439368 -17.192915
-9.135355 12.180471 -18.130825
-9.005187 11.006339 -18.853981
-8.8838234 9.8709145 -19.528221
-8.7951794 8.7951775 -20.020689
-8.7082605 7.740675 -20.503567
-8.6432171 6.7225008 -20.864922
-8.5961218 5.7307444 -21.126568
-8.5495348 4.7497396 -21.385376
-8.5165033 3.7851114 -21.56889
-8.4901667 2.8300552 -21.715206
-8.4656248 1.8812504 -21.851547
-8.4556894 0.93951988 -21.906746
-8.4570475 -2.8610229e-06 -21.8992
-8.4598637 -0.93998432 -21.883556
-8.4716911 -1.8825979 -21.817848
-8.4924316 -2.8308125 -21.702621
-8.5132742 -3.7836771 -21.58683
-8.5494852 -4.7497129 -21.385658
-8.6026068 -5.7350707 -21.09054
-8.6563911 -6.7327495 -20.791733
-8.7247076 -7.7552962 -20.412197
-8.8039474 -8.8039494 -19.971973
-8.8877211 -9.875246 -19.506567
-9.0187025 -11.022856 -18.778898
-9.1547585 -12.206347 -18.023026
-9.3386469 -13.489157 -17.001425
-9.5429792 -14.844637 -15.866245
-9.8743982 -16.457329 -14.02503
-10.473619 -18.619772 -10.696017
-8.9367676 17.873533 -13.027999
-8.5812645 16.089869 -15.249893
-8.3446321 14.603105 -16.728846
-8.1796522 13.291933 -17.759968
-8.039403 12.059105 -18.636522
-7.9266601 10.899156 -19.341171
-7.8235197 9.779398 -19.985798
-7.7504864 8.7192955 -20.442257
-7.683846 7.6838455 -20.858759
-7.6298785 6.6761422 -21.196054
-7.5844307 5.6883221 -21.480103
-7.5423265 4.713954 -21.743256
-7.5139751 3.7569876 -21.920452
-7.4926324 2.8097372 -22.053844
-7.4750118 1.8687534 -22.163973
-7.4669905 0.93337345 -22.214104
-7.4658856 -1.9073486e-06 -22.221008
-7.4683332 -0.93354416 -22.205715
-7.4785728 -1.8696442 -22.141712
-7.4969306 -2.811347 -22.026979
-7.5193729 -3.7596884 -21.886711
-7.5490713 -4.7181711 -21.701099
-7.5887232 -5.6915441 -21.453278
-7.6313705 -6.6774516 -21.186728
-7.6898823 -7.6898818 -20.821035
-7.7622638 -8.7325487 -20.368649
-7.8371186 -9.7963982 -19.900806
-7.9404483 -10.918116 -19.254993
-8.0488033 -12.073208 -18.577774
-8.1944389 -13.315967 -17.667545
-8.3733177 -14.653307 -16.549559
-8.6229095 -16.167959 -14.98961
-8.9924212 -17.984842 -12.680162
-8.1437635 19.77771 -10.713057
-7.659667 17.507811 -14.170886
-7.4108901 15.880479 -15.947865
-7.2275758 14.455151 -17.257257
-7.0828252 13.153816 -18.291189
-6.9686108 11.946188 -19.107006
-6.8788157 10.809566 -19.748398
-6.79776 9.7110834 -20.327366
-6.7358289 8.6603508 -20.76973
-6.6783009 7.6323433 -21.180649
-6.6325083 6.6325078 -21.507738
-6.5932579 5.6513624 -21.788097
-6.559165 4.6851187 -22.031618
-6.5363088 3.7350321 -22.19488
-6.5205112 2.7945042 -22.307716
-6.50526 1.8586454 -22.416653
-6.4984102 0.92834377 -22.465578
-6.4963303 -0 -22.480436
-6.4942517 -0.92775154 -22.495285
-6.5020871 -1.8577394 -22.43932
-6.5212851 -2.794838 -22.302187
-6.5406919 -3.7375402 -22.163565
-6.5659709 -4.6899796 -21.983006
-6.6002316 -5.6573405 -21.738283
-6.6372375 -6.6372366 -21.473957
-6.6840277 -7.6388879 -21.139744
-6.7420378 -8.668335 -20.725384
-6.806571 -9.7236738 -20.264431
-6.8938875 -10.833253 -19.640741
-6.9874368 -11.978463 -18.972532
-7.1040659 -13.193266 -18.139467
-7.2397232 -14.479446 -17.170488
-7.4339023 -15.929792 -15.783493
-7.7067552 -17.615442 -13.834546
-8.241394 -20.014812 -10.015703
-6.7785749 19.205961 -12.394672
-6.4708881 17.255701 -14.95873
-6.281889 15.70472 -16.533726
-6.1364746 14.318441 -17.745508
-6.0266552 13.057751 -18.660673
-5.9372811 11.874561 -19.405455
-5.8609438 10.745062 -20.041601
-5.7933493 9.6555805 -20.604881
-5.7404242 8.6106367 -21.045927
-5.6890941 7.5854592 -21.473679
-5.6536479 6.5959191 -21.769066
-5.6250567 5.6250572 -22.007324
-5.5967531 4.6639585 -22.243187
-5.57758 3.7183876 -22.402962
-5.5614672 2.7807322 -22.537235
-5.5459251 1.8486395 -22.666752
-5.5403085 0.92338371 -22.713562
-5.542026 -1.9073486e-06 -22.699253
-5.5437603 -0.92396069 -22.684795
-5.550724 -1.8502426 -22.626762
-5.563374 -2.7816887 -22.521347
-5.576098 -3.7173986 -22.415314
-5.5958447 -4.6632071 -22.250755
-5.6280074 -5.6280074 -21.982733
-5.6605587 -6.6039863 -21.711473
-5.6997404 -7.5996575 -21.384956
-5.7473269 -8.6209908 -20.988403
-5.7965846 -9.6609774 -20.577927
-5.8647351 -10.752014 -20.010002
-5.9426165 -11.885235 -19.360991
-6.03866 -13.083765 -18.560627
-6.1564302 -14.365005 -17.579208
-6.3066115 -15.76653 -16.327703
-6.4965339 -17.324093 -14.745009
-6.8320827 -19.357567 -11.948772
-5.5524645 18.878376 -13.358154
-5.3347168 17.071093 -15.535629
-5.1867661 15.560297 -17.015137
-5.082603 14.231287 -18.056765
-4.9907169 12.975863 -18.97563
-4.9186063 11.804653 -19.696735
-4.8554111 10.681905 -20.328684
-4.8009996 9.6019983 -20.872803
-4.7619705 8.5715446 -21.263088
-4.7235713 7.557713 -21.647083
-4.6937003 6.5711813 -21.945795
-4.667397 5.6008739 -22.208826
-4.6429806 4.6429796 -22.452988
-4.6273594 3.7018871 -22.609207
-4.6155334 2.7693205 -22.727463
-4.6052561 1.8421011 -22.830235
-4.6007662 0.92015171 -22.875134
-4.5998721 1.9073486e-06 -22.884079
-4.6013055 -0.92026234 -22.869741
-4.6069965 -1.8427963 -22.81283
-4.617692 -2.7706156 -22.705872
-4.6307945 -3.7046366 -22.574848
-4.6473927 -4.6473923 -22.408871
-4.6704183 -5.6045036 -22.178616
-4.6936727 -6.5711446 -21.946068
-4.7255273 -7.5608449 -21.627523
-4.7675014 -8.5815039 -21.207783
-4.8103285 -9.6206589 -20.779512
-4.8659973 -10.705194 -20.222822
-4.9271908 -11.82526 -19.610888
-5.0006585 -13.001711 -18.876213
-5.0908041 -14.254251 -17.974756
-5.2104301 -15.63129 -16.778494
-5.3585753 -17.14744 -15.297043
-5.5952291 -19.023779 -12.930503
-4.7461948 21.357872 -9.5553637
-4.3968058 18.68642 -13.922729
-4.2371221 16.948488 -15.918769
-4.1247497 15.46781 -17.323427
-4.0432353 14.151321 -18.342354
-3.9712775 12.906651 -19.241827
-3.9176528 11.752956 -19.912136
-3.8703496 10.643459 -20.503422
-3.8290782 9.5726948 -21.019318
-3.7956483 8.540205 -21.437195
-3.7650859 7.5301704 -21.819221
-3.7416012 6.5478029 -22.112778
-3.7206974 5.5810452 -22.374081
-3.7026432 4.6283026 -22.599754
-3.6906693 3.6906681 -22.749434
-3.6823184 2.7617378 -22.853815
-3.6741314 1.8370667 -22.956154
-3.6706009 0.91764927 -23.000286
-3.6694915 -1.9073486e-06 -23.014151
-3.6683729 -0.91709328 -23.028135
-3.6723809 -1.8361902 -22.978035
-3.6827397 -2.7620564 -22.848549
-3.6931467 -3.6931467 -22.71846
-3.7062359 -4.6327963 -22.554852
-3.7245405 -5.5868115 -22.326042
-3.7444093 -6.5527167 -22.077681
-3.7687564 -7.5375147 -21.773342
-3.7988403 -8.5473919 -21.397293
-3.8322585 -9.5806465 -20.979568
-3.8760369 -10.659101 -20.432335
-3.9253821 -11.776148 -19.815521
-3.9828763 -12.944351 -19.09684
-4.0534205 -14.186973 -18.215042
-4.1372509 -15.514691 -17.167164
-4.2507639 -17.003059 -15.748249
-4.4185529 -18.778847 -13.650887
-3.4813371 20.888025 -10.860509
-3.2729771 18.546871 -14.333176
-3.1593626 16.849932 -16.226751
-3.0798254 15.399128 -17.552372
-3.0215034 14.100348 -18.524405
-2.9705679 12.872459 -19.373331
-2.9304895 11.721956 -20.041306
-2.8946772 10.613815 -20.638176
-2.8641326 9.5471067 -21.147253
-2.8391933 8.517581 -21.562906
-2.8153412 7.5075769 -21.960442
-2.7989442 6.5308704 -22.233723
-2.7853463 5.570693 -22.460354
-2.771888 4.6198139 -22.684662
-2.7629876 3.6839848 -22.833002
-2.7552919 2.755291 -22.961267
-2.7480924 1.8320608 -23.081255
-2.7454824 0.91515923 -23.124758
-2.7460992 -2.8610229e-06 -23.114475
-2.7469275 -0.91564178 -23.100672
-2.7501745 -1.8334513 -23.046555
-2.7562122 -2.7562141 -22.945929
-2.762284 -3.6830463 -22.844727
-2.7713866 -4.6189766 -22.693016
-2.7866731 -5.5733466 -22.438248
-2.8021207 -6.5382819 -22.180788
-2.8201852 -7.5204949 -21.879711
-2.8426542 -8.5279617 -21.505226
-2.8662329 -9.5541105 -21.112247
-2.8975441 -10.624329 -20.590395
-2.9324389 -11.729753 -20.008818
-2.9745948 -12.889911 -19.306217
-3.028878 -14.134765 -18.401495
-3.0891969 -15.445986 -17.396177
-3.1734335 -16.924984 -15.992233
-3.2918365 -18.653742 -14.018854
-3.5347669 -21.208607 -9.9700089
-2.2982512 20.684259 -11.426518
-2.1712384 18.455524 -14.601837
-2.1004956 16.803961 -16.370409
-2.048486 15.363644 -17.670645
-2.0100768 14.070537 -18.630877
-1.9751462 12.838449 -19.504141
-1.9487916 11.69275 -20.163004
-1.9247584 10.586171 -20.763832
-1.9050421 9.5252075 -21.256746
-1.8900112 8.5050488 -21.632519
-1.8752155 7.5008616 -22.002407
-1.8639096 6.5236845 -22.285055
-1.8537318 5.5611944 -22.539505
-1.8445361 4.6113424 -22.769394
-1.8386611 3.6773214 -22.916271
-1.8338102 2.7507143 -23.03754
-1.8298167 1.8298168 -23.137375
-1.8281175 0.91405964 -23.179859
-1.8280292 -2.8610229e-06 -23.18207
-1.8285795 -0.91429138 -23.168308
-1.8307277 -1.8307276 -23.114605
-1.8347458 -2.752121 -23.014149
-1.8397174 -3.6794357 -22.889866
-1.8460385 -4.615099 -22.731834
-1.8549497 -5.5648489 -22.509052
-1.8639743 -6.5239115 -22.283438
-1.8758931 -7.5035739 -21.985466
-1.8919666 -8.5138512 -21.58363
-1.9084255 -9.5421267 -21.172161
-1.9291775 -10.610478 -20.653357
-1.952581 -11.715488 -20.068272
-1.9799401 -12.869612 -19.384296
-2.0135732 -14.095013 -18.543468
-2.0538657 -15.403996 -17.536154
-2.1063659 -16.850927 -16.22365
-2.1829543 -18.555113 -14.308941
-2.3258226 -20.932402 -10.737231
-1.1449434 20.60898 -11.635627
-1.0841235 18.430099 -14.676621
-1.0481715 16.770742 -16.47422
-1.0224663 15.336993 -17.759481
-1.0032682 14.045754 -18.719385
-0.98661029 12.825932 -19.55228
-0.97370887 11.684505 -20.197353
-0.96223825 10.58462 -20.770882
-0.95234346 9.5234318 -21.265629
-0.94416273 8.4974613 -21.67466
-0.9367699 7.4941587 -22.044302
-0.93114048 6.5179815 -22.325771
-0.92606038 5.5563612 -22.579779
-0.921489 4.6074467 -22.808346
-0.91866916 3.674675 -22.949337
-0.91666484 2.7499943 -23.049557
-0.91466916 1.8293381 -23.149338
-0.91381729 0.91381645 -23.191929
-0.91354495 -9.5367432e-07 -23.205551
-0.91327018 -0.91327095 -23.21929
-0.91427684 -1.8285551 -23.168957
-0.91680586 -2.7504196 -23.042507
-0.91935152 -3.6774092 -22.91522
-0.92250329 -4.6125174 -22.757629
-0.92695129 -5.5617075 -22.535234
-0.93172544 -6.5220785 -22.296524
-0.93762958 -7.5010362 -22.001318
-0.94500834 -8.5050745 -21.632381
-0.95301735 -9.5301743 -21.231926
-0.9634164 -10.597582 -20.711975
-0.97541177 -11.704941 -20.112211
-0.98902988 -12.857391 -19.431301
-1.006201 -14.086816 -18.572742
-1.0257022 -15.385534 -17.597687
-1.052525 -16.840401 -16.256544
-1.0893233 -18.518496 -14.416634
-1.1573783 -20.832811 -11.01388
0 20.617928 -11.610773
0 18.433077 -14.667855
0 16.778337 -16.450487
0 15.346063 -17.729252
0 14.056051 -18.682608
0 12.83518 -19.516714
0 11.690413 -20.172739
0 10.586203 -20.763689
0 9.5248146 -21.25872
0 8.4986868 -21.667873
0 7.4911051 -22.063381
0 6.5174351 -22.329679
0 5.5594635 -22.553913
0 4.6106939 -22.775867
0 3.6768475 -22.92218
0 2.7499943 -23.049557
0 1.8288593 -23.161293
0 0.91357613 -23.203865
0 -1.9073486e-06 -23.202568
0 -0.91388035 -23.188948
0 -1.8298912 -23.135555
0 -2.7508249 -23.035713
0 -3.6757908 -22.935434
0 -4.6099949 -22.782869
0 -5.5622215 -22.53096
0 -6.5249114 -22.276287
0 -7.5043817 -21.980412
0 -8.5088978 -21.611141
0 -9.5324602 -21.220491
0 -10.598978 -20.705627
0 -11.700792 -20.129499
0 -12.849807 -19.460461
0 -14.085846 -18.5762
0 -15.385632 -17.597357
0 -16.842882 -16.248796
0 -18.527842 -14.389153
0 -20.861469 -10.934273
1.1525331 20.745592 -11.256145
1.0872403 18.483084 -14.520782
1.0512323 16.819717 -16.321178
1.0249248 15.373871 -17.636559
1.0056822 14.07955 -18.598684
0.98803091 12.8444 -19.481253
0.97486216 11.698347 -20.13969
0.96284568 10.591301 -20.740513
0.9530372 9.5303688 -21.23094
0.94548863 8.5093956 -21.608368
0.93805867 7.5044665 -21.979862
0.93237054 6.5265923 -22.264267
0.92725569 5.5635328 -22.520008
0.92278898 4.6139431 -22.743347
0.91985077 3.6794033 -22.890259
0.91729975 2.7518978 -23.017811
0.91519725 1.8303947 -23.122936
0.9143365 0.91433334 -23.16597
0.91447169 -1.9073486e-06 -23.159216
0.91474456 -0.91474628 -23.145565
0.91581708 -1.8316355 -23.091944
0.91781771 -2.7534504 -22.991911
0.92018211 -3.6807318 -22.873688
0.92337412 -4.6168718 -22.714088
0.92785984 -5.5671606 -22.489799
0.93253535 -6.5277467 -22.256027
0.93846625 -7.5077319 -21.959482
0.94647014 -8.5182323 -21.559288
0.95471936 -9.5471935 -21.146828
0.96509206 -10.616014 -20.628191
0.97688919 -11.722669 -20.03834
0.99074715 -12.879713 -19.34544
1.0076314 -14.10684 -18.501228
1.0286758 -15.430139 -17.449003
1.0549644 -16.879429 -16.134577
1.0929302 -18.579817 -14.236288
1.1669172 -21.004509 -10.536942
2.3331404 20.99826 -10.554286
2.1887741 18.604578 -14.163445
2.1103163 16.882526 -16.124895
2.0569835 15.427377 -17.458208
2.0163739 14.114614 -18.473448
1.9821228 12.883797 -19.329727
1.9549117 11.729468 -20.010004
1.9315628 10.623595 -20.593725
1.9111907 9.555954 -21.103027
1.8944557 8.5250511 -21.5214
1.8794645 7.5178585 -21.896181
1.8679991 6.5379944 -22.182819
1.8577336 5.5732002 -22.439453
1.848042 4.6201019 -22.681747
1.8424927 3.6849861 -22.820477
1.8384352 2.7576532 -22.921917
1.8343954 1.8343954 -23.022909
1.8326564 0.91632462 -23.066391
1.832098 -1.9073486e-06 -23.080345
1.8315403 -0.91577435 -23.09429
1.8336743 -1.8336763 -23.040937
1.8388081 -2.7582121 -22.912594
1.843976 -3.6879549 -22.783396
1.8504169 -4.6260424 -22.622374
1.8594242 -5.5782738 -22.39719
1.8689809 -6.5414348 -22.158276
1.881151 -7.5246048 -21.854023
1.8962362 -8.5330658 -21.476894
1.9123946 -9.5619736 -21.072933
1.9337097 -10.635405 -20.540049
1.9582008 -11.749203 -19.92778
1.9862392 -12.910555 -19.226816
2.0219607 -14.153726 -18.333782
2.0654588 -15.490945 -17.246323
2.1198521 -16.958817 -15.886497
2.2002366 -18.702011 -13.876883
2.3784904 -21.406412 -9.420537
3.6123607 21.674164 -8.6767845
3.3140397 18.779556 -13.6488
3.1877568 17.001369 -15.753513
3.1040852 15.520423 -17.148046
3.0386779 14.180494 -18.238167
2.9854484 12.936943 -19.12532
2.9435248 11.774099 -19.824047
2.9063451 10.656596 -20.443714
2.8753493 9.5844975 -20.960304
2.8500974 8.5502911 -21.381174
2.8254755 7.5346007 -21.791538
2.8087153 6.553668 -22.070873
2.794893 5.5897846 -22.301243
2.7811983 4.6353302 -22.529491
2.7720153 3.6960211 -22.682541
2.7641346 2.7641335 -22.813887
2.7576213 1.8384151 -22.92244
2.7549772 0.91832542 -22.966507
2.7545922 -1.9073486e-06 -22.972927
2.7554333 -0.91847897 -22.958908
2.7587638 -1.8391781 -22.903399
2.7649422 -2.7649412 -22.800428
2.7713947 -3.6951962 -22.692886
2.7811582 -4.6352644 -22.530161
2.7964394 -5.5928788 -22.275473
2.8121431 -6.5616689 -22.013744
2.8306527 -7.5484085 -21.70525
2.8534331 -8.5603018 -21.325575
2.878058 -9.5935278 -20.915163
2.9107261 -10.672665 -20.370695
2.9466243 -11.786499 -19.772394
2.9902103 -12.957578 -19.045958
3.0438991 -14.204863 -18.151146
3.1116683 -15.558342 -17.021656
3.1948667 -17.039289 -15.635019
3.3264282 -18.849762 -13.442321
4.4635344 18.970018 -13.088619
4.2812858 17.125141 -15.366727
4.1651611 15.619353 -16.818281
4.074048 14.259168 -17.957195
3.9985383 12.995247 -18.901066
3.9401 11.820299 -19.63155
3.8908918 10.699951 -20.246651
3.8475266 9.6188164 -20.788712
3.815855 8.5856724 -21.184607
3.7847006 7.5693998 -21.574034
3.7603126 6.5805445 -21.878887
3.7388954 5.6083431 -22.146603
3.720525 4.6506529 -22.376234
3.7080827 3.7080832 -22.531761
3.6975067 2.7731304 -22.663963
3.6881421 1.8440704 -22.781021
3.6844475 0.9211092 -22.827206
3.6854706 -1.9073486e-06 -22.814415
3.6866 -0.92165089 -22.800297
3.691103 -1.8455524 -22.744007
3.6993978 -2.7745514 -22.64032
3.7089696 -3.7089691 -22.520676
3.7226231 -4.6532793 -22.350006
3.7413623 -5.6120439 -22.11577
3.7611585 -6.5820289 -21.868313
3.7861924 -7.5723886 -21.555389
3.8200448 -8.5951004 -21.132236
3.8546813 -9.6367016 -20.69928
3.8991535 -10.722672 -20.143381
3.949856 -11.849567 -19.509596
4.0108347 -13.035213 -18.747362
4.0845704 -14.295999 -17.825665
4.1814914 -15.680592 -16.614157
4.3059316 -17.223722 -15.058657
4.501966 -19.133352 -12.608225
5.7028456 19.389675 -11.854342
5.421001 17.347202 -14.672789
5.2564707 15.769413 -16.318085
5.1299992 14.363995 -17.582809
5.0363121 13.094411 -18.519678
4.9580703 11.899368 -19.302094
4.8942957 10.76745 -19.93984
4.8381557 9.6763115 -20.501242
4.7934766 8.6282578 -20.948029
4.7528419 7.604547 -21.354374
4.7217002 6.6103802 -21.665794
4.6946721 5.633605 -21.936073
4.6687241 4.668725 -22.195557
4.6535883 3.7228718 -22.34691
4.6429138 2.7857466 -22.453659
4.632288 1.8529119 -22.559917
4.6275721 0.92551231 -22.607079
4.6261086 -3.8146973e-06 -22.62171
4.6246462 -0.92493153 -22.636333
4.6305017 -1.8522015 -22.577778
4.6440263 -2.7864151 -22.442539
4.6576295 -3.7261038 -22.306501
4.6750588 -4.6750565 -22.13221
4.6987028 -5.6384449 -21.895771
4.7242923 -6.6140094 -21.639872
4.7577605 -7.6124182 -21.305187
4.7981505 -8.636673 -20.901291
4.8401494 -9.6802979 -20.481304
4.8997946 -10.779549 -19.884846
4.9653835 -11.916924 -19.228962
5.0453444 -13.117896 -18.429354
5.14504 -14.406113 -17.432394
5.2743554 -15.823067 -16.139242
5.4452524 -17.424807 -14.430273
5.7623553 -19.592009 -11.259243
7.0904574 20.089626 -9.7956505
6.6066489 17.617729 -13.827387
6.3815398 15.953852 -15.703292
6.2179461 14.508537 -17.066582
6.0921965 13.199759 -18.114491
5.9948101 11.989619 -18.926046
5.9122853 10.839187 -19.613754
5.8411751 9.7352905 -20.206335
5.7869258 8.6803875 -20.658413
5.7349515 7.6466012 -21.091532
5.6959076 6.6452246 -21.416901
5.6662397 5.6662378 -21.664135
5.6368632 4.6973858 -21.908937
5.6164341 3.7442894 -22.079178
5.5995283 2.7997637 -22.220062
5.5855336 1.861846 -22.336679
5.5797396 0.92995739 -22.384966
5.5789332 -9.5367432e-07 -22.391685
5.5807395 -0.93012333 -22.376635
5.5880876 -1.8626947 -22.315397
5.6012664 -2.8006325 -22.205578
5.6151114 -3.7434082 -22.090202
5.6364684 -4.6970577 -21.912231
5.6697001 -5.6697001 -21.635294
5.7034106 -6.6539807 -21.354374
5.7446938 -7.6595936 -21.010345
5.793767 -8.6906528 -20.601406
5.8497753 -9.7496262 -20.134668
5.9238749 -10.860435 -19.51717
6.0037565 -12.007517 -18.85149
6.1091967 -13.236591 -17.972824
6.2305655 -14.537988 -16.961414
6.4057374 -16.014345 -15.501651
6.6534758 -17.742599 -13.437168
7.2236938 -20.467133 -8.6853418
7.893651 18.042631 -12.499574
7.5582852 16.196323 -14.895044
7.3342862 14.668573 -16.495037
7.1843343 13.342334 -17.566122
7.0545907 12.093584 -18.492865
6.9579134 10.933865 -19.183413
6.8679314 9.8113289 -19.826143
6.8030567 8.7467861 -20.289537
6.7433701 7.7067065 -20.71587
6.6944156 6.6944151 -21.065542
6.6533108 5.702836 -21.359142
6.6169815 4.7264156 -21.618637
6.5924478 3.7671127 -21.793882
6.5725026 2.8167849 -21.936348
6.5553856 1.8729658 -22.058613
6.548069 0.9354372 -22.110874
6.549325 -9.5367432e-07 -22.101902
6.5514579 -0.93592453 -22.086662
6.5602727 -1.8743639 -22.023705
6.5758414 -2.8182182 -21.912502
6.5949373 -3.7685337 -21.7761
6.6221166 -4.7300811 -21.581963
6.6579714 -5.7068338 -21.325861
6.6944156 -6.694418 -21.065544
6.7463989 -7.7101712 -20.694233
6.8116961 -8.7578964 -20.227825
6.8782902 -9.8261299 -19.752151
6.9698615 -10.952641 -19.098074
7.0724187 -12.124147 -18.36552
7.2016287 -13.374454 -17.442591
7.3620172 -14.724035 -16.296957
7.5925469 -16.269745 -14.650317
7.9488826 -18.168875 -12.105063
9.3516474 18.703291 -10.435005
8.8161955 16.530367 -13.781572
8.5163755 14.903655 -15.65545
8.3170824 13.515258 -16.901033
8.1592512 12.238876 -17.887474
8.0334587 11.046005 -18.673681
7.9260502 9.9075613 -19.34498
7.8455248 8.8262119 -19.848269
7.7677674 7.767767 -20.334249
7.709847 6.7461147 -20.696251
7.6621447 5.7466063 -20.994392
7.6184087 4.7615061 -21.267738
7.5877395 3.7938681 -21.459429
7.5690455 2.8383904 -21.57626
7.5504661 1.8876162 -21.692383
7.5417738 0.94272232 -21.746708
7.5392122 -1.9073486e-06 -21.76272
7.5366745 -0.94208527 -21.77858
7.5474343 -1.886857 -21.711334
7.5711598 -2.8391838 -21.563044
7.595058 -3.7975283 -21.413681
7.6271882 -4.7669945 -21.21287
7.6688089 -5.7516065 -20.952742
7.7178669 -6.7531352 -20.64613
7.7809601 -7.7809606 -20.251793
7.853374 -8.8350468 -19.79921
7.9320574 -9.9150696 -19.307438
8.0474443 -11.065236 -18.586267
8.1662655 -12.249397 -17.843643
8.3401184 -13.552691 -16.757061
8.5409832 -14.946722 -15.501648
8.8565302 -16.605995 -13.529484
9.4786558 -18.95731 -9.6411991
10.190794 16.984655 -12.267274
9.772089 15.201029 -14.59341
9.509861 13.736466 -16.050236
9.2940874 12.392116 -17.248976
9.1490326 11.18215 -18.054836
9.0084362 10.009374 -18.83593
8.9178219 8.91782 -19.33934
8.8306818 7.8494964 -19.823448
8.7563858 6.8105206 -20.23621
8.7024002 5.8015995 -20.536129
8.652874 4.8071508 -20.811272
8.6164255 3.8295202 -21.013765
8.5880156 2.8626709 -21.171597
8.5612354 1.9024982 -21.320375
8.5510502 0.9501133 -21.376965
8.5530443 -2.8610229e-06 -21.365881
8.5560513 -0.95067024 -21.349178
8.5690117 -1.9042273 -21.27718
8.5911236 -2.8637085 -21.154331
8.6133251 -3.8281431 -21.030993
8.6524611 -4.8069243 -20.813572
8.7087059 -5.8058071 -20.501095
8.765687 -6.8177562 -20.184536
8.8396568 -7.8574743 -19.773594
8.9323158 -8.9323177 -19.25882
9.0343151 -10.038129 -18.69216
9.1693945 -11.207039 -17.941719
9.3246069 -12.432807 -17.079424
9.5409994 -13.781444 -15.877244
9.8200302 -15.275606 -14.327074
10.270509 -17.117516 -11.824411
11.154233 15.615928 -13.111628
10.788935 14.025615 -14.938121
10.515381 12.618456 -16.305893
10.322856 11.35514 -17.268517
10.160007 10.160007 -18.082756
10.037157 9.0334396 -18.697014
9.929389 7.943511 -19.235851
9.8425369 6.8897743 -19.670113
9.7748251 5.8648953 -20.008667
9.7080688 4.8540339 -20.342453
9.665123 3.8660507 -20.557182
9.6376553 2.8912935 -20.694519
9.611434 1.922286 -20.82563
9.5984764 0.95984745 -20.890411
9.5948133 -0 -20.908726
9.5977612 -0.95977688 -20.893993
9.6127539 -1.9225512 -20.819023
9.6417551 -2.8925266 -20.674021
9.6756134 -3.8702464 -20.50473
9.7231741 -4.8615856 -20.266928
9.7821646 -5.8693018 -19.971972
9.8453074 -6.8917189 -19.65626
9.9410124 -7.9528141 -19.177734
10.046274 -9.041647 -18.651423
10.168708 -10.168708 -18.039259
10.341598 -11.375756 -17.174809
10.53507 -12.642086 -16.207443
10.823151 -14.070096 -14.767044
11.222574 -15.711605 -12.769923
12.974351 16.512808 -9.9084778
12.202999 14.421725 -13.414618
11.812783 12.886672 -15.18833
11.566277 11.566273 -16.308811
11.353029 10.320934 -17.278118
11.203172 9.1662292 -17.95929
11.075865 8.055172 -18.537956
10.96149 6.9754949 -19.057838
10.889736 5.9398541 -19.383995
10.819611 4.9180036 -19.702747
10.765125 3.9145908 -19.950405
10.724815 2.9249506 -20.133635
10.695104 1.944562 -20.268688
10.6801 0.97091675 -20.336887
10.675977 -0 -20.355627
10.680132 -0.97092152 -20.336739
10.699661 -1.9453955 -20.247972
10.728489 -2.925951 -20.11694
10.766206 -3.9149861 -19.945496
10.821165 -4.9187107 -19.695683
10.900936 -5.9459672 -19.333084
10.982063 -6.9885879 -18.964327
11.093705 -8.0681515 -18.456863
11.227225 -9.1859112 -17.849955
11.389775 -10.354342 -17.111094
11.599931 -11.599933 -16.155836
11.865561 -12.944248 -14.948428
12.250253 -14.477571 -13.199829
13.205007 -16.806376 -8.8600388
14.014286 15.182145 -10.489935
13.306217 13.306217 -13.440222
12.906484 11.830943 -15.10578
12.654057 10.545046 -16.157562
12.456389 9.3422909 -16.981176
12.293615 8.1957436 -17.659395
12.159879 7.0932612 -18.216639
12.062495 6.0312476 -18.622398
11.969627 4.9873419 -19.00935
11.906633 3.9688749 -19.271826
11.861432 2.9653568 -19.460161
11.822362 1.9703913 -19.622955
11.804583 0.98371506 -19.697037
11.812887 -0 -19.662434
11.812778 -0.9843998 -19.662884
11.836058 -1.9726763 -19.565886
11.876753 -2.9691892 -19.396322
11.909276 -3.9697599 -19.260809
11.986531 -4.9943867 -18.938919
12.070979 -6.035491 -18.587055
12.160797 -7.0938001 -18.212809
12.31082 -8.2072134 -17.587713
12.467246 -9.3504353 -16.935936
12.677442 -10.564534 -16.060118
12.949544 -11.870414 -14.926363
13.378078 -13.378078 -13.140802
14.200104 -15.383445 -9.7157001
15.278393 14.103129 -10.11975
14.501257 12.270292 -13.108732
14.09408 10.841599 -14.674799
13.786574 9.5445518 -15.857506
13.591569 8.3640404 -16.607536
13.41343 7.2226162 -17.292679
13.304108 6.1403565 -17.71315
13.201343 5.0774412 -18.108404
13.11551 4.035542 -18.438526
13.061338 3.0141521 -18.646875
13.019515 2.0030022 -18.807741
12.981339 0.99856377 -18.954567
12.979486 -9.5367432e-07 -18.961695
12.987908 -0.99907112 -18.929302
13.017165 -2.0026388 -18.816778
13.057425 -3.0132532 -18.661928
13.112016 -4.0344682 -18.451965
13.206551 -5.0794406 -18.088369
13.319483 -6.1474562 -17.654015
13.448744 -7.2416339 -17.156855
13.61067 -8.3757954 -16.534065
13.817903 -9.5662413 -15.737017
14.139092 -10.876226 -14.501672
14.532589 -12.296804 -12.988227
15.491961 -14.300275 -9.2983322
17.27947 13.576723 -7.1704063
15.834518 11.310368 -12.330945
15.335238 9.858366 -14.11409
15.059728 8.6055565 -15.098053
14.803421 7.4017076 -16.013433
14.636741 6.2728896 -16.608723
14.501069 5.1789527 -17.093264
14.409107 4.116888 -17.421701
14.336209 3.0720448 -17.682049
14.278509 2.0397878 -17.888123
14.24758 1.017683 -17.998581
14.247896 -3.8146973e-06 -17.997456
14.262959 -1.0187826 -17.943653
14.294999 -2.0421433 -17.829227
14.341776 -3.0732379 -17.662167
14.412702 -4.1179175 -17.408859
14.514569 -5.1837783 -17.045046
14.65569 -6.2810092 -16.54105
14.84625 -7.4231267 -15.860478
15.090446 -8.6231117 -14.988349
15.398761 -9.8992033 -13.887222
15.91523 -11.368021 -12.042691
17.397589 10.43855 -10.890831
16.80538 8.9628716 -12.864859
16.428711 7.6667323 -14.120428
16.18438 6.4737492 -14.934865
15.994075 5.3313575 -15.569214
15.850863 4.2268982 -16.046589
15.755825 3.1511636 -16.363379
15.668835 2.0891771 -16.653345
15.627192 1.0418124 -16.792158
15.627293 -1.9073486e-06 -16.791821
15.647859 -1.0431895 -16.723267
15.693744 -2.0925016 -16.570316
15.756288 -3.151257 -16.361835
15.834743 -4.2225995 -16.100319
16.01222 -5.3374057 -15.508731
16.194153 -6.4776621 -14.90229
16.461763 -7.6821585 -14.01025
16.842319 -8.9825687 -12.741735
17.495066 -10.49704 -10.565907
18.593481 8.1346445 -10.778173
18.066433 6.7749119 -12.425194
17.745659 5.545516 -13.427614
17.511444 4.3778591 -14.159536
17.376122 3.2580233 -14.582417
17.275385 2.1594248 -14.897219
17.199907 1.074995 -15.133085
17.218599 -0 -15.074674
17.210543 -1.0756588 -15.09985
17.295868 -2.1619849 -14.83321
17.403723 -3.2632003 -14.496159
17.507751 -4.3769383 -14.171077
17.772793 -5.5539999 -13.34282
18.068842 -6.7758155 -12.417667
18.71179 -8.186408 -10.408451
19.808359 4.6607895 -10.622915
19.51799 3.4443483 -11.476942
19.272875 2.2673969 -12.197873
19.174057 1.1278844 -12.488512
19.157139 -1.4305115e-06 -12.538273
19.183805 -1.128458 -12.459835
19.33103 -2.2742376 -12.026825
19.518131 -3.4443786 -11.476532
19.950657 -4.694272 -10.204391
