# .PCD v0.7 - Point Cloud Data file format
VERSION 0.7
FIELDS x y z
SIZE 4 4 4
TYPE F F F
COUNT 1 1 1
WIDTH 1053
HEIGHT 1
VIEWPOINT 0 0 0 1 0 0 0
POINTS 1053
DATA ascii
-23.000832 -9.5367432e-07 -8.3542938
-22.087955 7.3626523 -7.5273647
-20.804752 5.7790947 -11.09182
-20.334225 4.5187163 -12.398836
-20.130226 3.3550391 -12.965503
-19.948742 2.2165227 -13.469626
-19.88335 1.104629 -13.65127
-19.877756 -9.5367432e-07 -13.666805
-19.873461 -1.1040821 -13.678741
-19.974329 -2.2193694 -13.398548
-20.169617 -3.3616028 -12.856086
-20.368759 -4.5263891 -12.30291
-20.873272 -5.7981315 -10.901489
-19.942368 9.3846407 -10.228774
-19.198683 7.9053392 -12.41608
-18.811651 6.6394043 -13.554415
-18.511101 5.4444423 -14.438381
-18.341373 4.3156176 -14.937576
-18.197824 3.2113786 -15.359781
-18.105263 2.1300282 -15.632022
-18.069029 1.0628819 -15.738598
-18.042093 -1.4305115e-06 -15.817814
-18.061333 -1.0624318 -15.76123
-18.126198 -2.132493 -15.57045
-18.216789 -3.214726 -15.304001
-18.362551 -4.3206024 -14.875296
-18.571236 -5.4621282 -14.261519
-18.835094 -6.6476793 -13.485461
-19.27593 -7.9371471 -12.188883
-20.125769 -9.4709511 -9.6893597
-19.108492 11.942806 -9.1687574
-18.086359 10.173573 -12.362929
-17.596357 8.7981777 -13.894177
-17.28977 7.5642734 -14.852263
-17.033258 6.3874712 -15.653862
-16.856112 5.2675362 -16.207443
-16.742388 4.1855946 -16.562832
-16.630136 3.1181512 -16.913624
-16.579428 2.0724282 -17.072084
-16.530249 1.0331421 -17.225769
-16.497202 -0 -17.329044
-16.539753 -1.0337362 -17.196068
-16.584394 -2.0730505 -17.056566
-16.639809 -3.1199641 -16.883394
-16.745438 -4.1863594 -16.553307
-16.893606 -5.2792544 -16.090275
-17.058481 -6.3969307 -15.575041
-17.319778 -7.577405 -14.758486
-17.665903 -8.8329544 -13.676847
-18.138155 -10.202714 -12.201064
-19.466141 -12.16634 -8.0511055
-17.328705 12.707718 -11.120445
-16.623951 11.082634 -13.469627
-16.244724 9.7468328 -14.733717
-15.930106 8.4960575 -15.782439
-15.737591 7.3442097 -16.42416
-15.551776 6.2207098 -17.043541
-15.431765 5.1439223 -17.443577
-15.316507 4.0844011 -17.827774
-15.239483 3.0478978 -18.08452
-15.199465 2.0265932 -18.217913
-15.167087 1.011137 -18.32584
-15.161371 -3.8146973e-06 -18.344894
-15.175431 -1.0116968 -18.298027
-15.189468 -2.0252619 -18.251232
-15.248532 -3.0497055 -18.054356
-15.340309 -4.0907478 -17.748434
-15.433195 -5.1443992 -17.43881
-15.565064 -6.2260265 -16.99925
-15.76931 -7.3590117 -16.318432
-15.978987 -8.5221281 -15.619507
-16.278084 -9.7668524 -14.622517
-16.712408 -11.141609 -13.174767
-17.404741 -12.763476 -10.866996
-15.945759 13.667791 -11.933661
-15.391554 12.093362 -13.912964
-15.00991 10.721363 -15.275977
-14.736411 9.4734068 -16.252754
-14.528706 8.3021173 -16.994562
-14.346205 7.1731024 -17.646347
-14.215036 6.0921583 -18.114811
-14.120811 5.0431452 -18.45133
-14.031801 4.0090847 -18.769222
-13.978385 2.995369 -18.959988
-13.932998 1.990428 -19.122089
-13.897413 0.99267101 -19.249176
-13.895656 -1.9073486e-06 -19.255451
-13.914022 -0.99386024 -19.189859
-13.932998 -1.9904289 -19.122089
-13.985806 -2.9969587 -18.933489
-14.04326 -4.012362 -18.728298
-14.119571 -5.0427074 -18.455757
-14.245914 -6.1053915 -18.004539
-14.381603 -7.1908021 -17.519926
-14.519902 -8.2970886 -17.026003
-14.773376 -9.4971704 -16.120743
-15.041779 -10.744131 -15.162156
-15.439338 -12.130908 -13.742301
-16.111229 -13.809628 -11.342691
-14.844129 14.844126 -11.789996
-14.235744 13.140688 -14.129931
-13.866172 11.732912 -15.551367
-13.603147 10.463959 -16.563
-13.379542 9.2627583 -17.423018
-13.231528 8.142478 -17.992304
-13.089741 7.0483189 -18.537642
-12.98819 5.9945488 -18.928221
-12.894877 4.9595666 -19.287113
-12.820865 3.9448814 -19.571781
-12.778845 2.9489641 -19.733391
-12.746647 1.9610195 -19.857231
-12.721956 0.97861099 -19.952194
-12.722692 9.5367432e-07 -19.949368
-12.723427 -0.97872639 -19.946537
-12.734039 -1.9590836 -19.905729
-12.7865 -2.9507313 -19.703951
-12.841761 -3.951313 -19.491413
-12.901557 -4.9621406 -19.261421
-12.995008 -5.9976964 -18.901995
-13.109017 -7.0587006 -18.463497
-13.242082 -8.1489735 -17.951715
-13.419411 -9.2903624 -17.269676
-13.629692 -10.484379 -16.460905
-13.905762 -11.766413 -15.3991
-14.299435 -13.199479 -13.884968
-14.89656 -14.896558 -11.588342
-13.780895 16.077713 -11.462397
-13.146592 14.242142 -14.105326
-12.788185 12.788183 -15.598694
-12.521371 11.477924 -16.710413
-12.321465 10.267885 -17.543362
-12.155706 9.1167774 -18.234022
-12.015582 8.0103874 -18.817869
-11.895007 6.9387531 -19.320263
-11.819106 5.9095511 -19.636522
-11.74681 4.8945017 -19.937756
-11.689245 3.8964128 -20.177607
-11.64891 2.9122276 -20.345673
-11.610211 1.9350338 -20.506916
-11.59115 0.96592712 -20.586336
-11.595849 -1.9073486e-06 -20.566757
-11.60205 -0.96683788 -20.54092
-11.619469 -1.9365788 -20.468346
-11.653198 -2.9133015 -20.327805
-11.688857 -3.8962879 -20.179228
-11.749919 -4.8957992 -19.924801
-11.833882 -5.9169393 -19.574957
-11.920635 -6.9537048 -19.21348
-12.023214 -8.0154743 -18.786072
-12.175405 -9.1315575 -18.151945
-12.337761 -10.281469 -17.475456
-12.546431 -11.500894 -16.606009
-12.839118 -12.839116 -15.386475
-13.203043 -14.303301 -13.870114
-13.910752 -16.229212 -10.921331
-12.925133 17.625181 -10.132194
-12.167475 15.485877 -13.57609
-11.763598 13.902432 -15.411895
-11.489285 12.533764 -16.658772
-11.289705 11.289705 -17.565958
-11.102055 10.092775 -18.418911
-10.983835 8.9867725 -18.956272
-10.873714 7.9081535 -19.456821
-10.780665 6.8604231 -19.879772
-10.70581 5.8395286 -20.220026
-10.631987 4.8327198 -20.555586
-10.590859 3.8512182 -20.742529
-10.561506 2.8804092 -20.875952
-10.532346 1.9149723 -21.008495
-10.520671 0.95642376 -21.061565
-10.515484 -0 -21.085144
-10.510301 -0.95548344 -21.108704
-10.530842 -1.9146996 -21.015331
-10.564657 -2.8812704 -20.861628
-10.598691 -3.8540697 -20.706928
-10.646983 -4.8395367 -20.487417
-10.710409 -5.8420401 -20.19912
-10.788287 -6.8652735 -19.845133
-10.885752 -7.9169126 -19.402103
-11.000184 -9.0001526 -18.88196
-11.12704 -10.11549 -18.305344
-11.294496 -11.294497 -17.544182
-11.510468 -12.556873 -16.562492
-11.791301 -13.935173 -15.285979
-12.205441 -15.534196 -13.403524
-13.119465 -17.890181 -9.2488708
-11.198752 16.798126 -12.889031
-10.768791 15.076305 -15.038843
-10.49823 13.647697 -16.391647
-10.276937 12.332323 -17.498116
-10.119467 11.131411 -18.285461
-9.9785557 9.9785538 -18.990019
-9.8702793 8.8832512 -19.531403
-9.766016 7.8128123 -20.052715
-9.6931267 6.7851858 -20.41716
-9.6346836 5.7808084 -20.709381
-9.5769682 4.7884836 -20.997953
-9.5413342 3.8165331 -21.176123
-9.507061 2.8521156 -21.347492
-9.4766016 1.895319 -21.499784
-9.4728088 0.94727898 -21.518753
-9.4727249 -0 -21.519171
-9.4726696 -0.94726658 -21.519451
-9.4891205 -1.8978233 -21.437197
-9.5104885 -2.8531456 -21.330357
-9.5408258 -3.81633 -21.178667
-9.5880098 -4.7940068 -20.942745
-9.6427088 -5.7856236 -20.669254
-9.6994963 -6.7896476 -20.385319
-9.7804108 -7.8243284 -19.980742
-9.8834648 -8.8951168 -19.465473
-9.9887142 -9.9887152 -18.939226
-10.127683 -11.140453 -18.244381
-10.296006 -12.355209 -17.402767
-10.514041 -13.668253 -16.31259
-10.805382 -15.127535 -14.855891
-11.265079 -16.897619 -12.557403
-10.366301 18.42898 -11.292235
-9.8355026 16.392502 -14.241117
-9.5257177 14.817784 -15.962139
-9.3067198 13.443039 -17.178797
-9.1385832 12.184774 -18.112892
-8.9995346 10.999431 -18.88538
-8.8840685 9.8711872 -19.526861
-8.7933102 8.7933083 -20.031073
-8.7094135 7.7417006 -20.497166
-8.6492052 6.7271576 -20.831657
-8.5933161 5.7288752 -21.142155
-8.545701 4.7476101 -21.406675
-8.5151262 3.7844992 -21.576538
-8.4893198 2.8297729 -21.719904
-8.4666882 1.8814869 -21.845636
-8.4592447 0.93991566 -21.886984
-8.4554424 -9.5367432e-07 -21.908115
-8.455369 -0.93948555 -21.908527
-8.4731035 -1.8829136 -21.809998
-8.4909382 -2.8303146 -21.71092
-8.511198 -3.7827549 -21.598362
-8.5521107 -4.7511744 -21.371071
-8.6025553 -5.7350388 -21.090824
-8.6535978 -6.7305789 -20.807251
-8.7251024 -7.7556477 -20.410007
-8.8012199 -8.8012218 -19.987131
-8.8915405 -9.8794918 -19.485346
-9.0028353 -11.003467 -18.867043
-9.1476164 -12.196822 -18.062702
-9.3230162 -13.466579 -17.088261
-9.5498075 -14.855257 -15.828312
-9.8659554 -16.44326 -14.071929
-10.449814 -18.577446 -10.828276
-8.9388151 17.87763 -13.015201
-8.5845261 16.095987 -15.229506
-8.3487997 14.610399 -16.702799
-8.1759119 13.285854 -17.783348
-8.0391026 12.058654 -18.638405
-7.9202709 10.890373 -19.3811
-7.8285155 9.7856426 -19.954573
-7.7525401 8.7216072 -20.429417
-7.6825848 7.6825829 -20.866642
-7.6306019 6.676774 -21.191532
-7.5805225 5.6853914 -21.504528
-7.5415087 4.7134409 -21.748365
-7.5161681 3.7580833 -21.906742
-7.4940281 2.8102598 -22.04512
-7.4768133 1.8692017 -22.152712
-7.4702835 0.93378448 -22.193523
-7.4637866 -9.5367432e-07 -22.234127
-7.4628568 -0.93285942 -22.239944
-7.4790072 -1.8697519 -22.139
-7.4975638 -2.8115864 -22.023024
-7.5163436 -3.7581692 -21.905647
-7.5518174 -4.7198858 -21.683941
-7.587605 -5.6907058 -21.460266
-7.6257424 -6.6725254 -21.221905
-7.6922026 -7.6922021 -20.806534
-7.7609301 -8.7310486 -20.376984
-7.8360453 -9.7950573 -19.907515
-7.9337683 -10.908932 -19.296745
-8.0464888 -12.069736 -18.592239
-8.1850615 -13.300726 -17.726164
-8.3642054 -14.637359 -16.606514
-8.6014767 -16.127771 -15.12357
-8.9769325 -17.953865 -12.776967
-8.1444111 19.779282 -10.708433
-7.6423354 17.468195 -14.294684
-7.4099398 15.87844 -15.954657
-7.2291994 14.458397 -17.245663
-7.0745292 13.138409 -18.350449
-6.9742846 11.955915 -19.066477
-6.8778071 10.807982 -19.755602
-6.8028717 9.7183857 -20.290855
-6.7325883 8.6561832 -20.792883
-6.6742249 7.6276851 -21.209759
-6.6343641 6.6343646 -21.494482
-6.594995 5.6528511 -21.775688
-6.5634837 4.688201 -22.000772
-6.5391355 3.7366495 -22.174686
-6.5149674 2.7921276 -22.347317
-6.5012989 1.8575125 -22.44495
-6.4988608 0.92840958 -22.462366
-6.4964237 9.5367432e-07 -22.479767
-6.4977732 -0.92825413 -22.470127
-6.5081167 -1.8594618 -22.396252
-6.5184927 -2.7936401 -22.322136
-6.5361943 -3.7349701 -22.19569
-6.567234 -4.6908846 -21.973982
-6.6003666 -5.6574583 -21.737316
-6.6354976 -6.6354976 -21.486389
-6.6855154 -7.6405907 -21.129116
-6.7417755 -8.6679993 -20.727255
-6.8088136 -9.7268772 -20.248411
-6.8923268 -10.830801 -19.651892
-6.978476 -11.963103 -19.036541
-7.0958538 -13.178015 -18.198126
-7.2405143 -14.481029 -17.164839
-7.4267955 -15.91456 -15.834258
-7.6935949 -17.585363 -13.928543
-8.2142878 -19.948984 -10.209314
-6.776957 19.201378 -12.408152
-6.4779005 17.274399 -14.900294
-6.2761307 15.690324 -16.581709
-6.1410408 14.329096 -17.707451
-6.025733 13.055753 -18.668356
-5.9356389 11.871277 -19.41914
-5.8518853 10.728456 -20.117086
-5.7941146 9.6568546 -20.598509
-5.7399979 8.6099987 -21.04948
-5.6941438 7.5921912 -21.431599
-5.6558995 6.5985484 -21.750298
-5.6206684 5.6206675 -22.043892
-5.5958772 4.6632318 -22.250484
-5.5774508 3.7182989 -22.404039
-5.5601382 2.7800684 -22.548313
-5.5494795 1.8498249 -22.637131
-5.5431552 0.92385769 -22.689837
-5.5395613 -0 -22.719784
-5.5421529 -0.9236908 -22.698189
-5.5509315 -1.8503113 -22.625034
-5.5616918 -2.7808485 -22.535368
-5.5759048 -3.7172718 -22.416925
-5.598814 -4.6656799 -22.226013
-5.6269088 -5.6269097 -21.99189
-5.6581869 -6.6012163 -21.731239
-5.7005987 -7.6007991 -21.377806
-5.7436686 -8.6155033 -21.01889
-5.7968106 -9.6613522 -20.576042
-5.8686385 -10.759171 -19.977474
-5.9422507 -11.884501 -19.36404
-6.0333772 -13.072316 -18.604654
-6.1460838 -14.340864 -17.66543
-6.2924314 -15.731081 -16.445871
-6.4951792 -17.320478 -14.7563
-6.8265033 -19.341759 -11.99527
-5.5667171 18.926836 -13.215628
-5.3402405 17.088766 -15.480392
-5.1894927 15.568476 -16.987871
-5.0812068 14.227377 -18.070728
-4.990036 12.974092 -18.982437
-4.9180198 11.803246 -19.702599
-4.8546934 10.680325 -20.335861
-4.8050857 9.6101694 -20.831944
-4.7604213 8.5687561 -21.278584
-4.7242093 7.5587349 -21.640705
-4.6926322 6.5696831 -21.956474
-4.6642313 5.5970774 -22.240482
-4.6443744 4.6443729 -22.439051
-4.6292229 3.7033758 -22.590569
-4.6149106 2.7689447 -22.733685
-4.6071944 1.8428783 -22.810852
-4.6019769 0.9203949 -22.863031
-4.5977426 9.5367432e-07 -22.905369
-4.5995827 -0.9199152 -22.886969
-4.6082106 -1.8432837 -22.80069
-4.6174669 -2.7704802 -22.708126
-4.630209 -3.7041674 -22.580709
-4.6491513 -4.6491499 -22.391283
-4.6682363 -5.6018839 -22.200434
-4.6922765 -6.5691853 -21.960032
-4.7290268 -7.5664434 -21.592527
-4.7663574 -8.5794468 -21.219219
-4.8111339 -9.6222687 -20.771458
-4.8637619 -10.700278 -20.245176
-4.9197192 -11.807325 -19.685608
-4.9970093 -12.992222 -18.912706
-5.0894675 -14.25051 -17.988121
-5.2046661 -15.614001 -16.836132
-5.3578796 -17.145218 -15.304002
-5.5876517 -18.998016 -13.006279
-4.757297 21.407837 -9.4165773
-4.4020982 18.70892 -13.856567
-4.242135 16.968542 -15.856107
-4.1286125 15.482297 -17.275139
-4.0417752 14.146213 -18.360603
-3.9726012 12.910953 -19.225283
-3.9186785 11.756031 -19.899317
-3.8698146 10.641989 -20.510113
-3.8302288 9.5755711 -21.004936
-3.7914557 8.5307751 -21.489597
-3.7654271 7.5308561 -21.814957
-3.7429175 6.550106 -22.096325
-3.7206755 5.5810118 -22.374352
-3.7056808 4.6321011 -22.561783
-3.6915264 3.6915264 -22.738716
-3.677469 2.7581005 -22.914433
-3.6734183 1.83671 -22.965065
-3.6711137 0.91777706 -22.993874
-3.6688015 -9.5367432e-07 -23.022778
-3.6709146 -0.91773224 -22.996361
-3.6755056 -1.8377542 -22.938972
-3.6802552 -2.7601919 -22.879608
-3.6911559 -3.6911573 -22.743347
-3.707442 -4.6343021 -22.539772
-3.7241738 -5.5862589 -22.33062
-3.7444093 -6.5527167 -22.077681
-3.7699373 -7.5398731 -21.758579
-3.7972829 -8.5438862 -21.416763
-3.8337419 -9.5843544 -20.961021
-3.8765388 -10.66048 -20.426064
-3.9219735 -11.765921 -19.858126
-3.9817677 -12.940746 -19.110701
-4.0485635 -14.169972 -18.275753
-4.1340084 -15.502532 -17.207687
-4.2514939 -17.005978 -15.739123
-4.4219069 -18.793104 -13.608959
-3.490298 20.941786 -10.711164
-3.2793474 18.582964 -14.227013
-3.1650698 16.880369 -16.131638
-3.0813982 15.406988 -17.526159
-3.0219195 14.102289 -18.517471
-2.9716923 12.877335 -19.354588
-2.9282408 11.712963 -20.078781
-2.89205 10.604183 -20.681961
-2.864974 9.5499134 -21.133228
-2.8384004 8.5152025 -21.57612
-2.8182011 7.5152001 -21.912777
-2.799212 6.531496 -22.229259
-2.7825849 5.5651684 -22.50638
-2.7719357 4.6198921 -22.683868
-2.7628217 3.6837597 -22.83577
-2.7538929 2.7538939 -22.984581
-2.7498457 1.8332281 -23.052036
-2.7463179 0.91543865 -23.11083
-2.7446003 -0 -23.139458
-2.7466462 -0.91554737 -23.105362
-2.7502608 -1.8335075 -23.045118
-2.7550087 -2.7550077 -22.965984
-2.7627661 -3.6836891 -22.836695
-2.7732494 -4.6220818 -22.661972
-2.7857242 -5.5714488 -22.454063
-2.8013482 -6.5364814 -22.193661
-2.8203993 -7.5210638 -21.876143
-2.8408558 -8.5225677 -21.535198
-2.8669138 -9.5563812 -21.100899
-2.8979878 -10.625956 -20.583002
-2.9325902 -11.730361 -20.00629
-2.9771631 -12.901039 -19.263412
-3.0248547 -14.115988 -18.468555
-3.0897312 -15.448656 -17.387278
-3.171922 -16.916922 -16.017427
-3.2876778 -18.630177 -14.088166
-2.3053796 20.748417 -11.248303
-2.1741867 18.480589 -14.528126
-2.1031036 16.824829 -16.305204
-2.0503786 15.377838 -17.623333
-2.0085089 14.059561 -18.670076
-1.9759769 12.843851 -19.483374
-1.9488741 11.693245 -20.160942
-1.9256569 10.591113 -20.741373
-1.9064809 9.5324039 -21.220774
-1.8888297 8.4997311 -21.662052
-1.8757783 7.5031118 -21.988337
-1.8632244 6.521286 -22.302187
-1.8523766 5.557127 -22.57338
-1.8452553 4.6131382 -22.751415
-1.839281 3.6785593 -22.900772
-1.8333558 2.7500324 -23.048904
-1.8309202 1.8309193 -23.109791
-1.8284966 0.91424751 -23.170383
-1.8265455 -1.9073486e-06 -23.219158
-1.8281069 -0.91405392 -23.180122
-1.8312589 -1.8312626 -23.101324
-1.8344164 -2.751626 -23.022385
-1.8398383 -3.6796799 -22.886839
-1.8466899 -4.6167259 -22.715548
-1.8536303 -5.5608907 -22.542042
-1.8639203 -6.5237222 -22.284786
-1.8774637 -7.5098557 -21.946207
-1.8911995 -8.5103989 -21.60281
-1.9088669 -9.5443335 -21.161125
-1.9282818 -10.605549 -20.675755
-1.9502856 -11.701712 -20.12566
-1.9803725 -12.872424 -19.373484
-2.0124652 -14.087255 -18.571167
-2.0530796 -15.398095 -17.555809
-2.1076696 -16.861359 -16.191059
-2.1836503 -18.561028 -14.291539
-1.1487728 20.677908 -11.444159
-1.0857511 18.457771 -14.59524
-1.0496519 16.794426 -16.400206
-1.0237771 15.356655 -17.693939
-1.0031744 14.044439 -18.724077
-0.98709756 12.832268 -19.52792
-0.97373539 11.684822 -20.196028
-0.96230447 10.58535 -20.767572
-0.95243359 9.524334 -21.261116
-0.94288474 8.4859619 -21.73856
-0.93732649 7.4986115 -22.016472
-0.93183333 6.5228329 -22.291126
-0.92610037 5.5566025 -22.57778
-0.92274135 4.6137047 -22.745728
-0.91886324 3.6754513 -22.939632
-0.91552263 2.7465658 -23.106663
-0.91464835 1.8292961 -23.150379
-0.91391587 0.91391563 -23.187
-0.91318721 -9.5367432e-07 -23.223438
-0.91393155 -0.91393375 -23.186222
-0.91489798 -1.8297987 -23.137897
-0.91608298 -2.748251 -23.078648
-0.91893148 -3.6757278 -22.93622
-0.92280483 -4.6140242 -22.742554
-0.92671108 -5.5602689 -22.547243
-0.9319008 -6.5233045 -22.287756
-0.93793017 -7.5034413 -21.98629
-0.9442541 -8.4982891 -21.670088
-0.95341837 -9.5341835 -21.211878
-0.96363568 -10.599994 -20.70101
-0.97501272 -11.700154 -20.132158
-0.98910588 -12.858377 -19.427502
-1.0045804 -14.064127 -18.653774
-1.0256859 -15.385289 -17.598503
-1.0519575 -16.831318 -16.284924
-1.0891316 -18.515236 -14.426221
0 20.677687 -11.444774
0 18.454781 -14.604031
0 16.795631 -16.396444
0 15.356949 -17.692963
0 14.054824 -18.686995
0 12.841285 -19.493233
0 11.678465 -20.222527
0 10.581141 -20.786701
0 9.527832 -21.243633
0 8.4945469 -21.690859
0 7.5004039 -22.005276
0 6.5211725 -22.302998
0 5.5560732 -22.582176
0 4.6141014 -22.74176
0 3.6767111 -22.923885
0 2.7485399 -23.073826
0 1.8296747 -23.140886
0 0.91383171 -23.191282
0 -0 -23.227711
0 -0.91394043 -23.185833
0 -1.8299627 -23.133734
0 -2.7493067 -23.061041
0 -3.6769142 -22.921391
0 -4.6134968 -22.747845
0 -5.5596256 -22.552582
0 -6.5233989 -22.287083
0 -7.5046663 -21.978634
0 -8.5028038 -21.645002
0 -9.5364456 -21.200577
0 -10.596567 -20.716591
0 -11.698595 -20.138653
0 -12.863598 -19.407429
0 -14.081796 -18.590668
0 -15.398391 -17.554825
0 -16.846739 -16.236742
0 -18.530661 -14.380846
1.1516711 20.730078 -11.299245
1.0872146 18.482647 -14.522068
1.05215 16.834398 -16.275295
1.0261405 15.392106 -17.575773
1.0046556 14.065178 -18.650013
0.9886744 12.852767 -19.449078
0.97490054 11.698807 -20.137768
0.96332413 10.596561 -20.716591
0.95375454 9.5375443 -21.195068
0.9448002 8.5032034 -21.642784
0.93759412 7.500752 -22.003094
0.93165535 6.5215855 -22.300034
0.92652959 5.5591774 -22.556316
0.9227308 4.6136522 -22.746256
0.91949338 3.6779728 -22.908127
0.91723961 2.7517166 -23.020817
0.91589522 1.83179 -23.088036
0.9145574 0.91455555 -23.154924
0.91338938 -9.5367432e-07 -23.213329
0.91459906 -0.91459846 -23.152847
0.91605163 -1.8321037 -23.080212
0.91750896 -2.7525272 -23.007349
0.9203822 -3.681531 -22.863688
0.92367095 -4.6183548 -22.699247
0.92707139 -5.5624318 -22.529224
0.93258405 -6.528091 -22.253593
0.93918103 -7.5134482 -21.923744
0.94586933 -8.5128222 -21.589333
0.95490354 -9.5490341 -21.137623
0.96449333 -10.609426 -20.658127
0.97613358 -11.713603 -20.076118
0.99053365 -12.876935 -19.356113
1.0071552 -14.100174 -18.525036
1.0286068 -15.429102 -17.452457
1.0558089 -16.892942 -16.092352
1.0928484 -18.578423 -14.240372
2.3371053 21.033945 -10.455165
2.18612 18.582022 -14.229792
2.1092927 16.87434 -16.15048
2.0572267 15.429199 -17.452127
2.0139952 14.097965 -18.532915
1.9822145 12.88439 -19.327438
1.9543656 11.726192 -20.023655
1.9309138 10.620024 -20.609951
1.9109182 9.5545921 -21.109837
1.8919221 8.5136471 -21.584743
1.8789159 7.5156636 -21.909897
1.8678094 6.5373316 -22.187563
1.8574549 5.5723629 -22.446424
1.849481 4.623702 -22.645771
1.8414806 3.6829596 -22.845779
1.8366045 2.7549057 -22.967686
1.8343327 1.8343334 -23.024479
1.8325102 0.91625404 -23.070042
1.8313057 -9.5367432e-07 -23.100151
1.8326406 -0.91632175 -23.06678
1.8346152 -1.8346157 -23.017418
1.8371757 -2.755764 -22.9534
1.8431839 -3.6863689 -22.8032
1.8507308 -4.6268282 -22.614527
1.8584685 -5.575408 -22.421082
1.8691165 -6.5419087 -22.154882
1.8813983 -7.5255952 -21.847837
1.8939764 -8.522892 -21.533388
1.9132245 -9.566124 -21.052185
1.9333498 -10.633425 -20.549053
1.9573313 -11.74399 -19.949514
1.9855714 -12.906216 -19.243515
2.0189354 -14.132547 -18.40941
2.0624607 -15.468455 -17.32128
2.1173832 -16.939066 -15.948215
2.1976449 -18.679979 -13.941678
3.6602795 21.961676 -7.8781362
3.3133914 18.775883 -13.659607
3.1879148 17.002211 -15.750879
3.1014526 15.507262 -17.191917
3.0337605 14.157548 -18.320122
2.9815485 12.920042 -19.190319
2.9384184 11.753672 -19.909155
2.9037228 10.646982 -20.487417
2.8733213 9.5777388 -20.994104
2.8469627 8.5408869 -21.433416
2.8256242 7.5349956 -21.789059
2.8085763 6.5533447 -22.073189
2.7927992 5.5855989 -22.336142
2.7809098 4.6348486 -22.5343
2.7693596 3.6924801 -22.726803
2.7611148 2.7611122 -22.864214
2.7574794 1.8383179 -22.924805
2.7547336 0.91824341 -22.970568
2.753783 -0 -22.986412
2.7550402 -0.91834927 -22.965458
2.7580152 -1.8386784 -22.915876
2.7619679 -2.7619696 -22.849995
2.7709968 -3.6946611 -22.699512
2.7824407 -4.6374006 -22.508789
2.7942624 -5.5885267 -22.31176
2.8104651 -6.557754 -22.041708
2.8284304 -7.5424829 -21.742287
2.8496096 -8.54883 -21.389301
2.8766003 -9.5886698 -20.939459
2.907903 -10.662311 -20.417744
2.9436774 -11.774711 -19.821507
2.9870002 -12.943668 -19.099461
3.040812 -14.190455 -18.202593
3.1098845 -15.549422 -17.051394
3.2003844 -17.068718 -15.543058
3.3257749 -18.846064 -13.453209
4.478395 19.033176 -12.902863
4.2885742 17.154295 -15.27562
4.1661587 15.623095 -16.805811
4.0719862 14.25195 -17.982969
4.0005016 13.00163 -18.876522
3.9412096 11.823629 -19.617676
3.8908918 10.699951 -20.246651
3.8476529 9.619133 -20.787132
3.8108623 8.57444 -21.247021
3.7814322 7.5628643 -21.614895
3.7574592 6.5755529 -21.914558
3.7353368 5.6030045 -22.191086
3.7188163 4.6485186 -22.397593
3.7042308 3.7042303 -22.579908
3.6936555 2.7702389 -22.712105
3.6870222 1.8435106 -22.795017
3.6818869 0.92047119 -22.859213
3.6815708 -1.9073486e-06 -22.863161
3.6825082 -0.92062855 -22.851448
3.6876876 -1.8438425 -22.786699
3.6949806 -2.7712364 -22.695538
3.7054892 -3.705492 -22.564182
3.72088 -4.6510992 -22.371796
3.7375491 -5.6063247 -22.163429
3.7601588 -6.5802798 -21.880808
3.7849901 -7.5699797 -21.570419
3.814487 -8.5825949 -21.201708
3.8526855 -9.6317139 -20.724232
3.8964388 -10.715206 -20.177309
3.9476998 -11.8431 -19.536547
4.0078878 -13.025637 -18.784199
4.0825238 -14.288835 -17.851248
4.1770954 -15.664108 -16.669107
4.303441 -17.213764 -15.089783
4.4973102 -19.113569 -12.66642
5.7077813 19.406454 -11.804984
5.4254241 17.361357 -14.628556
5.2484641 15.745392 -16.398153
5.1333866 14.373483 -17.548929
5.0359335 13.093428 -18.52346
4.9577804 11.898672 -19.304993
4.8921976 10.762835 -19.960821
4.8384466 9.6768923 -20.498333
4.7862906 8.6153212 -21.01989
4.7507372 7.6011782 -21.37542
4.7213264 6.6098557 -21.669537
4.693399 5.6320782 -21.948809
4.6724658 4.6724644 -22.158138
4.6515841 3.7212677 -22.366955
4.6367464 2.7820473 -22.515335
4.6311951 1.8524761 -22.57085
4.6263881 0.92527771 -22.618917
4.6244202 9.5367432e-07 -22.638592
4.6269069 -0.92538357 -22.613729
4.6321278 -1.8528547 -22.561518
4.6378956 -2.7827396 -22.503841
4.6553116 -3.7242508 -22.329679
4.6753168 -4.6753139 -22.129631
4.6960149 -5.6352191 -21.922647
4.7247639 -6.6146722 -21.635157
4.7574797 -7.6119685 -21.308001
4.7925057 -8.6265125 -20.957735
4.8446231 -9.6892481 -20.436565
4.8986912 -10.777122 -19.895885
4.9649396 -11.915854 -19.233406
5.0468001 -13.12168 -18.414795
5.145978 -14.408739 -17.423016
5.2654152 -15.796246 -16.228643
5.4408703 -17.410786 -14.474093
5.7448483 -19.532484 -11.434315
7.1123695 20.151711 -9.6130543
6.6074629 17.6199 -13.820604
6.3759561 15.93989 -15.74983
6.2171454 14.50667 -17.073254
6.0943117 13.204342 -18.096867
5.9933586 11.986715 -18.938141
5.908052 10.831427 -19.649029
5.8460736 9.7434568 -20.165512
5.7853823 8.6780701 -20.671276
5.7342873 7.6457152 -21.097069
5.6955547 6.6448135 -21.41984
5.6614552 5.6614552 -21.704002
5.6357117 4.6964235 -21.918537
5.610054 3.7400351 -22.132345
5.5960555 2.798028 -22.249001
5.5871983 1.8623981 -22.322807
5.5808201 0.93013573 -22.375965
5.5765004 -1.9073486e-06 -22.411957
5.5812235 -0.9302063 -22.372604
5.5883951 -1.8628016 -22.312836
5.5980349 -2.7990208 -22.232506
5.6179862 -3.745326 -22.066242
5.6401558 -4.7001295 -21.881496
5.6647768 -5.6647768 -21.676321
5.7011375 -6.6513281 -21.37332
5.7452064 -7.6602774 -21.006077
5.7909522 -8.6864281 -20.624865
5.8532505 -9.7554207 -20.105703
5.9173946 -10.848558 -19.571175
6.0050263 -12.010052 -18.84091
6.1058736 -13.229396 -18.000511
6.2298422 -14.536298 -16.967447
6.395278 -15.988197 -15.588812
6.636075 -17.696199 -13.582176
7.2284803 -20.480698 -8.6454582
7.8833475 18.019081 -12.57317
7.5458293 16.169634 -14.984015
7.34306 14.686119 -16.432369
7.1765304 13.327842 -17.621864
7.0615335 12.105484 -18.443272
6.9560876 10.930992 -19.196459
6.873065 9.8186646 -19.789474
6.7991352 8.741745 -20.317547
6.7439752 7.7073979 -20.711544
6.6966243 6.6966219 -21.049767
6.647284 5.69767 -21.402197
6.6211829 4.729414 -21.588636
6.5935087 3.7677202 -21.786301
6.5710077 2.8161449 -21.947027
6.5605397 1.8744392 -22.021793
6.550106 0.93572998 -22.096325
6.5411296 -9.5367432e-07 -22.160446
6.5505061 -0.9357872 -22.093468
6.5618591 -1.8748188 -22.012379
6.5732508 -2.8171082 -21.931005
6.5965209 -3.7694397 -21.764788
6.6222725 -4.7301927 -21.580849
6.652957 -5.7025366 -21.361673
6.6990137 -6.699018 -21.032698
6.7489657 -7.7131057 -20.6759
6.8033648 -8.7471848 -20.287334
6.8826194 -9.8323154 -19.72123
6.9682016 -10.950031 -19.109932
7.0729742 -12.125099 -18.361555
7.2003627 -13.372104 -17.451633
7.3560553 -14.712112 -16.33954
7.5792384 -16.241226 -14.745377
7.9309449 -18.127872 -12.233191
9.3837891 18.767574 -10.234121
8.8205452 16.538521 -13.754393
8.5211678 14.912042 -15.625502
8.3134298 13.509321 -16.923862
8.1604671 12.2407 -17.879877
8.0270214 11.037153 -18.713913
7.9302983 9.9128723 -19.318432
7.8389559 8.8188229 -19.889324
7.7694082 7.7694063 -20.323996
7.717566 6.7528682 -20.648006
7.6608682 5.7456508 -21.002369
7.6292458 4.7682791 -21.200012
7.5930424 3.7965193 -21.426281
7.5586681 2.8345013 -21.641119
7.5494037 1.887351 -21.69902
7.5425472 0.94281864 -21.741875
7.5357037 -9.5367432e-07 -21.784649
7.5432544 -0.94290924 -21.737457
7.5523715 -1.8880939 -21.680477
7.5615096 -2.8355675 -21.62336
7.5928187 -3.7964077 -21.427681
7.6294942 -4.7684312 -21.19846
7.6665478 -5.7499113 -20.966869
7.7197413 -6.7547741 -20.634411
7.7783041 -7.7783046 -20.268394
7.8483467 -8.8293915 -19.830629
7.9431186 -9.9288969 -19.238308
8.0402069 -11.055285 -18.6315
8.1760683 -12.264103 -17.782373
8.3368502 -13.547381 -16.777483
8.5400486 -14.945086 -15.507495
8.8363171 -16.568094 -13.655815
9.5053215 -19.010645 -9.4745369
10.228509 17.047514 -12.057746
9.7801733 15.213603 -14.548499
9.4960184 13.716472 -16.12714
9.3085146 12.411352 -17.168825
9.1441221 11.176149 -18.082115
9.0217648 10.02418 -18.761887
8.9191675 8.9191685 -19.331863
8.8327827 7.8513589 -19.811779
8.7606497 6.8138371 -20.212517
8.6936502 5.7957668 -20.58474
8.6500835 4.8056021 -20.826773
8.6163998 3.8295107 -21.013908
8.5829515 2.8609829 -21.19973
8.5674648 1.9038792 -21.28577
8.5542068 0.9504652 -21.359428
8.546382 -0 -21.402897
8.5538788 -0.95042992 -21.361252
8.5698986 -1.9044228 -21.272249
8.5876341 -2.862546 -21.173719
8.620657 -3.8314056 -20.990257
8.6587982 -4.8104448 -20.778364
8.697279 -5.7981834 -20.564583
8.7657137 -6.8177781 -20.184385
8.8427334 -7.8602066 -19.756498
8.9230146 -8.9230165 -19.310492
9.03578 -10.039755 -18.684019
9.1668692 -11.203954 -17.955744
9.329834 -12.439778 -17.050388
9.5274096 -13.761813 -15.952741
9.8132429 -15.265043 -14.364781
10.259886 -17.09981 -11.883429
11.182254 15.655151 -12.971525
10.793313 14.031308 -14.916228
10.524562 12.629475 -16.259983
10.320539 11.352592 -17.280104
10.166266 10.166265 -18.051466
10.031713 9.0285416 -18.724234
9.9210625 7.9368515 -19.277483
9.8450966 6.8915691 -19.65731
9.7708492 5.8625102 -20.028551
9.7156305 4.8578138 -20.304646
9.6712513 3.8684998 -20.526539
9.6333284 2.8899984 -20.716156
9.6131849 1.9226351 -20.816872
9.5978174 0.95978069 -20.893705
9.5900679 9.5367432e-07 -20.932457
9.5995073 -0.95994949 -20.885258
9.6154823 -1.9230986 -20.805382
9.6355772 -2.8906765 -20.70491
9.6716871 -3.8686771 -20.524359
9.7232618 -4.8616319 -20.266483
9.7783308 -5.8670001 -19.991142
9.8549557 -6.8984704 -19.608021
9.939539 -7.951633 -19.185101
10.040664 -9.0366001 -18.679478
10.184733 -10.184736 -17.959127
10.332964 -11.366261 -17.217976
10.535587 -12.642706 -16.204857
10.811516 -14.054971 -14.825216
11.228604 -15.720046 -12.739777
12.970785 16.50827 -9.9246845
12.216223 14.437353 -13.35451
11.818422 12.892825 -15.162693
11.569451 11.56945 -16.294378
11.356708 10.324278 -17.261398
11.211473 9.1730251 -17.921551
11.074549 8.0542154 -18.543941
10.974676 6.9838839 -18.997906
10.885518 5.9375544 -19.403168
10.818057 4.9172969 -19.709812
10.765519 3.9147329 -19.948624
10.717802 2.9230366 -20.165514
10.692261 1.944047 -20.281607
10.683194 0.97119904 -20.322823
10.674722 -1.9073486e-06 -20.361334
10.682421 -0.97113037 -20.32634
10.699338 -1.9453363 -20.249439
10.725335 -2.9250898 -20.131271
10.771283 -3.9168296 -19.922417
10.828712 -4.9221425 -19.661377
10.889133 -5.939528 -19.386736
10.980258 -6.9874401 -18.972532
11.095653 -8.0695686 -18.448011
11.21396 -9.1750574 -17.910252
11.390215 -10.354744 -17.109095
11.597462 -11.597461 -16.167063
11.859877 -12.938048 -14.974264
12.248855 -14.475918 -13.206188
13.112563 -16.688717 -9.2802353
13.9993 15.165906 -10.552381
13.316081 13.316079 -13.399122
12.935144 11.857215 -14.986361
12.654429 10.545358 -16.156006
12.460126 9.3450937 -16.965603
12.279505 8.1863365 -17.718193
12.161219 7.0940442 -18.211052
12.057599 6.0287991 -18.642797
11.968662 4.9869413 -19.013369
11.912509 3.9708362 -19.247337
11.863109 2.9657764 -19.453178
11.828808 1.971467 -19.596098
11.811046 0.98425102 -19.670109
11.7933 -2.8610229e-06 -19.744049
11.803284 -0.9836092 -19.702446
11.833339 -1.9722223 -19.577221
11.864859 -2.9662156 -19.445887
11.912988 -3.9709983 -19.245352
11.983965 -4.9933186 -18.94961
12.068715 -6.0343585 -18.596481
12.179551 -7.1047387 -18.134666
12.307956 -8.2053041 -17.599649
12.469179 -9.351882 -16.927885
12.694361 -10.578637 -15.989625
12.953322 -11.87388 -14.91062
13.355178 -13.355176 -13.236224
14.144247 -15.322938 -9.9484329
15.281573 14.106067 -10.107516
14.482183 12.254153 -13.182094
14.099875 10.846054 -14.652509
13.811242 9.5616283 -15.762634
13.605801 8.372797 -16.552792
13.437428 7.2355375 -17.200384
13.303473 6.1400652 -17.71559
13.192434 5.0740128 -18.14267
13.123367 4.0379577 -18.408304
13.055063 3.0127063 -18.671017
13.006886 2.0010576 -18.856312
12.998924 0.99991894 -18.886932
12.991982 -1.9073486e-06 -18.913639
12.996945 -0.99976444 -18.894543
13.025555 -2.0039358 -18.784512
13.063869 -3.014739 -18.637152
13.127115 -4.0391121 -18.39389
13.217315 -5.0835819 -18.046968
13.308805 -6.1425252 -17.69508
13.445589 -7.2399344 -17.168993
13.62836 -8.3866835 -16.466024
13.820412 -9.567977 -15.727362
14.112812 -10.856009 -14.602754
14.537032 -12.300566 -12.971137
15.406502 -14.221388 -9.6270189
17.224838 13.533798 -7.3655181
15.833293 11.309493 -12.33532
15.346624 9.8656883 -14.073421
15.059324 8.6053276 -15.099493
14.804492 7.402247 -16.009613
14.6596 6.2826838 -16.527082
14.517469 5.1848116 -17.034689
14.419713 4.1199188 -17.383818
14.349952 3.0749893 -17.632969
14.287021 2.0410023 -17.857721
14.268426 1.0191736 -17.924133
14.249878 -0 -17.990376
14.254612 -1.0181856 -17.973467
14.301034 -2.0430055 -17.807674
14.350593 -3.0751295 -17.630684
14.413578 -4.118166 -17.405731
14.541224 -5.1932945 -16.949852
14.679325 -6.2911396 -16.456638
14.842679 -7.4213409 -15.873229
15.096615 -8.6266384 -14.966316
15.382199 -9.8885574 -13.946364
15.860884 -11.329202 -12.236783
17.415854 10.449512 -10.829948
16.806316 8.9633684 -12.86174
16.422394 7.6637826 -14.141479
16.184595 6.4738374 -14.934141
15.985284 5.3284268 -15.598516
15.837549 4.2233462 -16.090965
15.755979 3.1511946 -16.362865
15.681254 2.0908298 -16.61195
15.649735 1.043314 -16.717012
15.638125 -1.9073486e-06 -16.755711
15.638076 -1.0425382 -16.755878
15.687572 -2.0916762 -16.590885
15.772299 -3.1544609 -16.308472
15.857944 -4.2287865 -16.022987
16.006804 -5.3355999 -15.526785
16.214714 -6.4858837 -14.833752
16.453629 -7.67836 -14.037369
16.86138 -8.9927378 -12.678199
17.54549 -10.527293 -10.397829
18.629333 8.1503315 -10.666127
18.040165 6.7650614 -12.50728
17.74835 5.54636 -13.419203
17.506264 4.3765645 -14.175722
17.376181 3.2580347 -14.582235
17.264034 2.1580038 -14.932692
17.191868 1.0744925 -15.158211
17.208874 -2.3841858e-06 -15.105064
17.225916 -1.0766187 -15.051813
17.279095 -2.1598883 -14.885624
17.39185 -3.2609735 -14.533268
17.543062 -4.385767 -14.060726
17.755816 -5.5486927 -13.395868
18.139433 -6.8022861 -12.197071
18.682867 -8.1737556 -10.498834
19.872395 4.675858 -10.434578
19.43693 3.4300456 -11.715351
19.286123 2.2689548 -12.158905
19.16707 1.1274743 -12.509058
19.154119 -2.3841858e-06 -12.547149
19.201109 -1.129477 -12.408947
19.262154 -2.2661362 -12.229401
19.536112 -3.4475513 -11.423643
19.919569 -4.6869574 -10.295831
