# .PCD v0.7 - Point Cloud Data file format
VERSION 0.7
FIELDS x y z
SIZE 4 4 4
TYPE F F F
COUNT 1 1 1
WIDTH 1050
HEIGHT 1
VIEWPOINT 0 0 0 1 0 0 0
POINTS 1050
DATA ascii
-22.918844 -9.5367432e-07 -8.5700474
-21.824493 7.2748299 -8.259203
-20.766193 5.768384 -11.198924
-20.353945 4.5230994 -12.344062
-20.128618 3.3547683 -12.96997
-19.985907 2.2206564 -13.36639
-19.861536 1.1034164 -13.711863
-19.859289 4.7683716e-07 -13.718103
-19.898855 -1.1054926 -13.6082
-19.988665 -2.220963 -13.358725
-20.150743 -3.3584566 -12.908508
-20.398884 -4.5330849 -12.219229
-20.85561 -5.7932262 -10.950544
-19.961649 9.3937159 -10.172064
-19.202253 7.9068079 -12.405579
-18.785427 6.6301503 -13.631543
-18.542658 5.453721 -14.345563
-18.329515 4.3128252 -14.972462
-18.181677 3.2085309 -15.407274
-18.119715 2.1317296 -15.58952
-18.058174 1.0622439 -15.770525
-18.032461 2.3841858e-06 -15.846149
-18.064911 -1.0626411 -15.750706
-18.115095 -2.1311893 -15.603106
-18.219398 -3.2151875 -15.296331
-18.361319 -4.3203111 -14.878922
-18.558258 -5.4583144 -14.299685
-18.853268 -6.6540933 -13.432007
-19.232698 -7.9193473 -12.316037
-19.983669 -9.4040794 -10.1073
-19.053482 11.908426 -9.3406639
-18.059082 10.158234 -12.44816
-17.586323 8.7931614 -13.92554
-17.297321 7.5675759 -14.828667
-17.026669 6.3849998 -15.674458
-16.864338 5.2701035 -16.18174
-16.741463 4.1853657 -16.565723
-16.620367 3.1163192 -16.944153
-16.56588 2.070734 -17.114422
-16.540285 1.0337648 -17.194408
-16.514769 9.5367432e-07 -17.274147
-16.543207 -1.0339499 -17.185274
-16.573931 -2.0717459 -17.089262
-16.620312 -3.1163077 -16.944319
-16.752792 -4.1881986 -16.530321
-16.889729 -5.2780404 -16.10239
-17.077549 -6.4040828 -15.515459
-17.301853 -7.5695629 -14.814503
-17.656334 -8.828167 -13.706755
-18.115627 -10.190044 -12.27146
-17.315714 12.698188 -11.163751
-16.662855 11.108566 -13.339945
-16.243631 9.7461767 -14.737363
-15.940838 8.5017796 -15.74667
-15.735897 7.3434172 -16.429806
-15.561702 6.2246809 -17.010454
-15.424467 5.141489 -17.467903
-15.325259 4.0867329 -17.798595
-15.250219 3.0500412 -18.048733
-15.200661 2.0267534 -18.213924
-15.171091 1.0114059 -18.312492
-15.148525 -0 -18.387711
-15.164848 -1.0109921 -18.333303
-15.208133 -2.0277524 -18.189022
-15.255857 -3.0511737 -18.029938
-15.339528 -4.0905399 -17.751032
-15.440403 -5.1468005 -17.414785
-15.556686 -6.2226748 -17.027172
-15.759426 -7.3544002 -16.351376
-15.978299 -8.5217609 -15.621798
-16.288134 -9.7728806 -14.589014
-16.704544 -11.136362 -13.200985
-17.445057 -12.793045 -10.732605
-15.996767 13.711513 -11.751484
-15.352743 12.06287 -14.051571
-15.020066 10.728617 -15.239701
-14.733183 9.4713287 -16.264288
-14.520324 8.297327 -17.0245
-14.360884 7.1804399 -17.593925
-14.216874 6.0929446 -18.108244
-14.111876 5.0399532 -18.48324
-14.040633 4.0116072 -18.737675
-13.970107 2.9935942 -18.989553
-13.918965 1.9884224 -19.172207
-13.910672 0.99361706 -19.201826
-13.904575 -1.9073486e-06 -19.223598
-13.906249 -0.99330521 -19.217621
-13.938731 -1.9912491 -19.101616
-13.976521 -2.9949713 -18.966648
-14.036216 -4.0103474 -18.75345
-14.131528 -5.0469737 -18.413052
-14.23754 -6.1018023 -18.034439
-14.380226 -7.1901155 -17.524847
-14.544603 -8.311204 -16.937778
-14.751368 -9.4830227 -16.199341
-15.058672 -10.756195 -15.101826
-15.443995 -12.134567 -13.725666
-16.11025 -13.808786 -11.346189
-14.8062 14.806197 -11.935876
-14.246799 13.150891 -14.08742
-13.859742 11.727476 -15.576099
-13.600581 10.461986 -16.572866
-13.396252 9.2743282 -17.358755
-13.210596 8.1295986 -18.072813
-13.0981 7.0528226 -18.505489
-12.990851 5.9957771 -18.91798
-12.886218 4.9562364 -19.320415
-12.828176 3.9471297 -19.543659
-12.784233 2.9502048 -19.712666
-12.74063 1.9600954 -19.880371
-12.727995 0.97907543 -19.92897
-12.71666 -9.5367432e-07 -19.972567
-12.716891 -0.97822285 -19.971676
-12.747773 -1.9611969 -19.852898
-12.789784 -2.9514885 -19.691322
-12.832936 -3.9485946 -19.525347
-12.911751 -4.9660578 -19.222218
-12.992668 -5.9966168 -18.910999
-13.097444 -7.0524716 -18.508009
-13.24921 -8.1533585 -17.924295
-13.411409 -9.2848263 -17.300451
-13.6368 -10.489845 -16.433567
-13.881493 -11.745876 -15.492442
-14.294794 -13.195194 -13.902822
-14.962942 -14.962943 -11.333018
-13.793595 16.092524 -11.409485
-13.156669 14.253057 -14.063343
-12.783781 12.783782 -15.617037
-12.513136 11.470372 -16.74473
-12.310624 10.258854 -17.588533
-12.156204 9.1171494 -18.231949
-12.014573 8.0097132 -18.822075
-11.905899 6.9451075 -19.274883
-11.815489 5.9077458 -19.65159
-11.740239 4.8917646 -19.965134
-11.690378 3.8967905 -20.17289
-11.647188 2.9117966 -20.352848
-11.604316 1.9340534 -20.531479
-11.594387 0.96619797 -20.572851
-11.597346 9.5367432e-07 -20.560518
-11.600307 -0.96669483 -20.548183
-11.620902 -1.9368191 -20.46237
-11.651861 -2.9129648 -20.33337
-11.685815 -3.8952732 -20.191902
-11.748596 -4.8952498 -19.930313
-11.831671 -5.9158368 -19.584171
-11.915928 -6.9509559 -19.233097
-12.03753 -8.0250225 -18.726421
-12.163592 -9.1226978 -18.201157
-12.336578 -10.280484 -17.480389
-12.55867 -11.512114 -16.555008
-12.835575 -12.835574 -15.401231
-13.214384 -14.315581 -13.822865
-13.861322 -16.171543 -11.127285
-12.890213 17.577562 -10.290924
-12.158782 15.474813 -13.615602
-11.750986 13.887527 -15.469225
-11.477589 12.521004 -16.711941
-11.274962 11.274963 -17.632967
-11.116174 10.105613 -18.354733
-10.986085 8.988615 -18.946047
-10.863204 7.9005113 -19.504597
-10.778171 6.8588352 -19.891113
-10.708302 5.8408899 -20.208691
-10.64087 4.8367596 -20.515202
-10.590669 3.8511505 -20.743393
-10.5593 2.8798094 -20.885975
-10.533286 1.9151421 -21.004223
-10.519108 0.95628071 -21.068672
-10.51667 -9.5367432e-07 -21.079752
-10.514265 -0.95584488 -21.090683
-10.527272 -1.9140482 -21.031559
-10.5645 -2.8812284 -20.862345
-10.601992 -3.8552723 -20.691925
-10.650571 -4.8411684 -20.471111
-10.715304 -5.8447123 -20.176867
-10.780828 -6.8605309 -19.879026
-10.8808 -7.9133105 -19.424614
-11.002748 -9.0022497 -18.870306
-11.137543 -10.125037 -18.257605
-11.30965 -11.30965 -17.475296
-11.513649 -12.560346 -16.548029
-11.80644 -13.953066 -15.217158
-12.220736 -15.553663 -13.334
-13.090357 -17.850489 -9.3811741
-11.188941 16.783411 -12.93809
-10.76364 15.069098 -15.064592
-10.482671 13.627471 -16.46944
-10.272115 12.326539 -17.522223
-10.104375 11.11481 -18.360922
-9.9703007 9.9702997 -19.03129
-9.8679485 8.8811512 -19.543055
-9.7747965 7.8198376 -20.008816
-9.6947918 6.7863512 -20.40884
-9.6320305 5.7792168 -20.722645
-9.5759706 4.7879829 -21.002943
-9.5359631 3.8143835 -21.20298
-9.5091114 2.8527336 -21.337238
-9.4846735 1.8969326 -21.459429
-9.4677925 0.94677734 -21.543835
-9.4700766 -9.5367432e-07 -21.53241
-9.4767418 -0.94767284 -21.499086
-9.4871616 -1.8974323 -21.446985
-9.5145092 -2.854353 -21.310255
-9.5420141 -3.8168077 -21.172728
-9.5776243 -4.7888145 -20.994678
-9.6402245 -5.7841358 -20.681673
-9.706605 -6.7946262 -20.349773
-9.784812 -7.8278489 -19.958738
-9.8812799 -8.8931541 -19.476397
-9.9838171 -9.9838181 -18.963707
-10.13786 -11.151646 -18.193495
-10.304644 -12.365573 -17.359579
-10.526008 -13.683811 -16.252756
-10.827811 -15.158936 -14.743737
-11.257946 -16.886917 -12.593067
-10.336225 18.375511 -11.459324
-9.8162699 16.360447 -14.347968
-9.5163918 14.803275 -16.013956
-9.2988024 13.431603 -17.222784
-9.1269493 12.169265 -18.177525
-8.9936113 10.99219 -18.918291
-8.8808546 9.8676147 -19.544718
-8.7951527 8.7951527 -20.020838
-8.7111158 7.7432117 -20.487709
-8.6406908 6.7205372 -20.878958
-8.5958147 5.7305422 -21.128267
-8.5516806 4.7509336 -21.373459
-8.5131493 3.7836208 -21.587521
-8.4893703 2.8297901 -21.719627
-8.468174 1.8818169 -21.837387
-8.4548502 0.93942738 -21.911407
-8.4566278 -2.8610229e-06 -21.901533
-8.4603081 -0.94003582 -21.881088
-8.4662428 -1.8813896 -21.84811
-8.4901409 -2.8300486 -21.715342
-8.5192089 -3.7863131 -21.553858
-8.5506458 -4.7503586 -21.379206
-8.6010733 -5.7340488 -21.099054
-8.6552019 -6.7318211 -20.798344
-8.7185097 -7.7497864 -20.446629
-8.8044834 -8.8044844 -19.969004
-8.8988895 -9.8876543 -19.444521
-9.0166531 -11.020355 -18.790283
-9.1551352 -12.206847 -18.020937
-9.3352156 -13.4842 -17.020485
-9.5483274 -14.852958 -15.836531
-9.8841705 -16.473618 -13.970739
-10.439683 -18.559437 -10.88456
-8.9146118 17.829222 -13.166473
-8.5732355 16.074814 -15.300078
-8.3424959 14.599369 -16.742195
-8.1691408 13.274854 -17.825665
-8.02915 12.043724 -18.700615
-7.9131145 10.880531 -19.425829
-7.8234725 9.7793379 -19.986094
-7.7476182 8.7160702 -20.460186
-7.6854286 7.6854272 -20.848867
-7.6269622 6.6735907 -21.214279
-7.5856376 5.6892271 -21.472559
-7.5447803 4.7154856 -21.727922
-7.5068545 3.7534266 -21.964958
-7.4931774 2.8099422 -22.050438
-7.4795289 1.8698835 -22.135742
-7.465951 0.93324375 -22.220598
-7.4670773 -1.9073486e-06 -22.213566
-7.468637 -0.93357754 -22.203815
-7.4743385 -1.8685846 -22.168179
-7.4941807 -2.8103199 -22.044165
-7.5210209 -3.7605085 -21.876415
-7.5485849 -4.717865 -21.704144
-7.5895958 -5.6921973 -21.447823
-7.6349692 -6.6805992 -21.164238
-7.6858191 -7.6858182 -20.846428
-7.7585678 -8.7283897 -20.391747
-7.841033 -9.8012924 -19.876341
-7.9378042 -10.914484 -19.271519
-8.052 -12.078002 -18.557796
-8.1907377 -13.309952 -17.690683
-8.3778687 -14.661272 -16.521122
-8.6230831 -16.16828 -14.988529
-8.9990845 -17.998169 -12.638515
-8.1173248 19.713501 -10.901907
-7.6415057 17.466295 -14.300612
-7.3952236 15.846907 -16.059772
-7.2171793 14.434355 -17.33152
-7.0773516 13.143652 -18.330288
-6.9672961 11.943933 -19.116396
-6.8759599 10.805079 -19.768795
-6.7953815 9.7076836 -20.344357
-6.7347212 8.6589289 -20.777641
-6.6798058 7.6340632 -21.169897
-6.6272988 6.627296 -21.544949
-6.592062 5.6503372 -21.796638
-6.5631967 4.6879969 -22.002819
-6.5346022 3.7340565 -22.207066
-6.5199075 2.7942457 -22.312027
-6.5054479 1.8586979 -22.415314
-6.4916134 0.92737198 -22.514133
-6.4934282 -9.5367432e-07 -22.501167
-6.500042 -0.92857838 -22.453926
-6.506669 -1.8590488 -22.406588
-6.5219464 -2.7951212 -22.297468
-6.5417562 -3.7381468 -22.155968
-6.5616674 -4.6869078 -22.013741
-6.5957484 -5.6534991 -21.770309
-6.6401916 -6.6401916 -21.452856
-6.6852374 -7.6402726 -21.1311
-6.7444606 -8.6714497 -20.708084
-6.8086905 -9.7267017 -20.249294
-6.8826823 -10.815645 -19.720778
-6.9877405 -11.978983 -18.970367
-7.1005287 -13.186695 -18.164736
-7.246057 -14.492115 -17.125244
-7.434516 -15.931107 -15.779112
-7.7064657 -17.614779 -13.836616
-8.2752695 -20.097082 -9.7737284
-6.7695446 19.180374 -12.469927
-6.4692621 17.251364 -14.97228
-6.2762327 15.690581 -16.580856
-6.134603 14.314072 -17.761106
-6.0221057 13.047896 -18.69858
-5.9281125 11.856222 -19.481859
-5.8598943 10.743137 -20.050344
-5.7932105 9.6553507 -20.606043
-5.7401681 8.6102543 -21.048059
-5.6928511 7.5904684 -21.442371
-5.6515794 6.5935087 -21.786303
-5.6235819 5.62358 -22.019611
-5.5984406 4.6653662 -22.229126
-5.5741501 3.7161007 -22.431543
-5.5602822 2.7801399 -22.547112
-5.5493522 1.8497839 -22.638195
-5.5415802 0.92359447 -22.702961
-5.5412464 -0 -22.705744
-5.544126 -0.92401981 -22.681747
-5.5488257 -1.8496094 -22.64258
-5.5601702 -2.7800846 -22.548042
-5.5790462 -3.7193642 -22.390743
-5.6001453 -4.6667871 -22.214916
-5.6269417 -5.6269417 -21.991619
-5.6606255 -6.6040635 -21.710918
-5.696445 -7.5952601 -21.41242
-5.7440958 -8.6161442 -21.015331
-5.8031516 -9.6719189 -20.523197
-5.8655014 -10.753419 -20.00362
-5.9463863 -11.892775 -19.329575
-6.0321145 -13.069581 -18.615177
-6.1573133 -14.367066 -17.571844
-6.3034616 -15.758655 -16.353951
-6.4969492 -17.325199 -14.74155
-6.8436327 -19.390293 -11.852523
-5.5553975 18.88835 -13.328824
-5.3319945 17.062378 -15.562856
-5.1847773 15.55433 -17.035027
-5.0742049 14.207771 -18.140749
-4.9922185 12.979769 -18.960609
-4.9160366 11.798487 -19.722431
-4.8583431 10.688353 -20.299366
-4.8020024 9.6040039 -20.862774
-4.7590132 8.5662212 -21.292665
-4.7251663 7.5602651 -21.631132
-4.6917977 6.5685167 -21.964817
-4.6676273 5.6011486 -22.206524
-4.6456618 4.6456604 -22.426178
-4.6242342 3.6993885 -22.640453
-4.6141567 2.7684917 -22.74123
-4.6076956 1.8430767 -22.80584
-4.6012659 0.92025185 -22.870136
-4.5999904 -1.9073486e-06 -22.882896
-4.6023717 -0.9204731 -22.859077
-4.6060205 -1.8424082 -22.822586
-4.6152816 -2.7691708 -22.72998
-4.6308885 -3.7047081 -22.573914
-4.6483459 -4.6483459 -22.399338
-4.669198 -5.6030374 -22.190815
-4.6970296 -6.5758405 -21.912504
-4.7271376 -7.5634184 -21.611422
-4.764946 -8.5769043 -21.233337
-4.8110476 -9.622097 -20.77232
-4.8610144 -10.69423 -20.272655
-4.9267683 -11.824244 -19.615114
-5.0000057 -13.000015 -18.882738
-5.0934787 -14.261743 -17.948006
-5.2053733 -15.616121 -16.82906
-5.3652577 -17.168827 -15.230221
-5.5993571 -19.037817 -12.889224
-4.3913612 18.663284 -13.990781
-4.2364669 16.945868 -15.926961
-4.125741 15.471531 -17.311029
-4.0412173 14.144257 -18.367582
-3.97557 12.920599 -19.188171
-3.9138057 11.741417 -19.960226
-3.8691285 10.640102 -20.518692
-3.8289642 9.5724125 -21.020742
-3.7952228 8.5392494 -21.442513
-3.7667384 7.533474 -21.798569
-3.7392757 6.5437288 -22.141853
-3.7196865 5.5795279 -22.386715
-3.7052436 4.6315546 -22.567249
-3.6909232 3.6909208 -22.746254
-3.6816447 2.7612324 -22.86224
-3.6748445 1.8374233 -22.947239
-3.6680698 0.91701603 -23.031925
-3.6665025 -9.5367432e-07 -23.05151
-3.6710615 -0.91776562 -22.99453
-3.6756318 -1.8378143 -22.937401
-3.6822975 -2.7617235 -22.854076
-3.6939843 -3.693985 -22.707996
-3.705745 -4.6321831 -22.560984
-3.7201488 -5.580225 -22.380936
-3.7451062 -6.5539398 -22.068966
-3.77039 -7.5407801 -21.752922
-3.7994344 -8.548728 -21.389866
-3.8349872 -9.5874662 -20.945457
-3.8720148 -10.648042 -20.482613
-3.9238503 -11.771554 -19.834665
-3.9824576 -12.942987 -19.102081
-4.0543394 -14.19019 -18.203554
-4.1371441 -15.514291 -17.168493
-4.258554 -17.034214 -15.65087
-4.429606 -18.825827 -13.512716
-3.2725666 18.544546 -14.340016
-3.1593626 16.849932 -16.226751
-3.07796 15.389797 -17.583464
-3.0190468 14.088885 -18.565348
-2.9701841 12.870796 -19.379726
-2.9266343 11.706535 -20.105556
-2.89433 10.612543 -20.643959
-2.864311 9.5477047 -21.144276
-2.8385592 8.5156765 -21.573481
-2.817313 7.5128336 -21.927578
-2.7986846 6.5302639 -22.238052
-2.7843504 5.5687008 -22.476955
-2.7725644 4.6209383 -22.673389
-2.761873 3.6824951 -22.851578
-2.7544663 2.7544651 -22.975021
-2.7494383 1.8329573 -23.058823
-2.74631 0.91543484 -23.110962
-2.7451935 -0 -23.12957
-2.7471852 -0.91572762 -23.096375
-2.7498691 -1.8332453 -23.051643
-2.7543173 -2.7543192 -22.977509
-2.7631221 -3.6841631 -22.830763
-2.7738948 -4.6231594 -22.651215
-2.7854428 -5.5708861 -22.458748
-2.8022344 -6.538548 -22.178888
-2.8193614 -7.5182972 -21.89344
-2.840229 -8.52069 -21.545647
-2.8683703 -9.5612335 -21.076626
-2.8980484 -10.626178 -20.581985
-2.9348009 -11.739205 -19.969446
-2.9750621 -12.891935 -19.298428
-3.0275958 -14.12878 -18.422869
-3.092284 -15.461421 -17.344728
-3.176681 -16.942299 -15.938111
-3.2966924 -18.681255 -13.937925
-3.5442135 -21.265284 -9.8125668
-2.1702721 18.447311 -14.625994
-2.1001256 16.801004 -16.379658
-2.048897 15.366724 -17.660376
-2.006793 14.047548 -18.712973
-1.9767355 12.848781 -19.464411
-1.9480602 11.688361 -20.18129
-1.9261698 10.593934 -20.72855
-1.905386 9.5269279 -21.24815
-1.8882589 8.4971638 -21.676323
-1.8758003 7.5031981 -21.987789
-1.8635103 6.5222845 -22.295038
-1.8536942 5.5610847 -22.54044
-1.8456892 4.6142206 -22.74057
-1.8377528 3.6755056 -22.938974
-1.8328911 2.7493334 -23.06052
-1.8308058 1.8308048 -23.112654
-1.828725 0.91435909 -23.164673
-1.8277332 -1.9073486e-06 -23.189466
-1.8290577 -0.91452885 -23.156353
-1.8303788 -1.8303776 -23.123325
-1.8332096 -2.7498169 -23.052559
-1.8395597 -3.679121 -22.893806
-1.8467218 -4.616807 -22.714752
-1.8540947 -5.5622854 -22.530426
-1.8652545 -6.5283918 -22.251432
-1.8768941 -7.5075769 -21.960443
-1.8907772 -8.5084991 -21.613367
-1.9083688 -9.5418453 -21.173576
-1.9280679 -10.604375 -20.681095
-1.9519534 -11.711721 -20.08396
-1.9802992 -12.871946 -19.375311
-2.0142283 -14.099598 -18.527084
-2.0545213 -15.408909 -17.519762
-2.1111329 -16.889065 -16.104471
-2.1881044 -18.59889 -14.180186
-2.3324304 -20.991873 -10.572038
-1.0839044 18.426371 -14.687579
-1.0483969 16.774349 -16.462954
-1.0238161 15.357243 -17.691986
-1.0029899 14.041858 -18.733299
-0.98744279 12.836755 -19.510656
-0.97252607 11.670309 -20.256498
-0.96195638 10.58152 -20.784977
-0.95245332 9.5245333 -21.26013
-0.94396609 8.4956932 -21.684492
-0.93724179 7.4979353 -22.020706
-0.93061811 6.5143251 -22.351891
-0.9255783 5.5534678 -22.60388
-0.92220461 4.6110229 -22.772564
-0.91887897 3.6755152 -22.938847
-0.91637248 2.7491169 -23.064171
-0.91487199 1.8297443 -23.139198
-0.91337377 0.91337395 -23.214104
-0.91267186 -0 -23.249203
-0.91379398 -0.91379738 -23.1931
-0.91507488 -1.8301506 -23.129053
-0.91646385 -2.7493925 -23.059605
-0.91949075 -3.6779623 -22.908258
-0.92254037 -4.6127033 -22.755777
-0.92569548 -5.5541735 -22.598024
-0.9319737 -6.5238194 -22.284111
-0.93862498 -7.5090003 -21.951546
-0.94498056 -8.5048265 -21.63377
-0.95431167 -9.5431194 -21.16721
-0.96312815 -10.59441 -20.726395
-0.97477061 -11.697248 -20.144264
-0.98926097 -12.860394 -19.41975
-1.0059526 -14.083337 -18.585165
-1.0264939 -15.397408 -17.558102
-1.0535967 -16.857548 -16.202961
-1.091096 -18.548634 -14.328
-1.1598936 -20.878088 -10.888114
0 18.427864 -14.683193
0 16.779926 -16.44553
0 15.364182 -17.668854
0 14.037746 -18.747986
0 12.835652 -19.514898
0 11.681326 -20.210606
0 10.586327 -20.763117
0 9.524786 -21.258862
0 8.4946232 -21.690445
0 7.4970193 -22.026436
0 6.5178108 -22.326986
0 5.5567465 -22.57658
0 4.6114321 -22.768471
0 3.6758385 -22.934778
0 2.7490482 -23.065346
0 1.8296976 -23.140366
0 0.91372871 -23.196213
0 -0 -23.225121
0 -0.91393566 -23.185963
0 -1.8300543 -23.131523
0 -2.7489595 -23.06678
0 -3.6773968 -22.915352
0 -4.6139069 -22.743742
0 -5.5590835 -22.557116
0 -6.5250258 -22.275473
0 -7.5073371 -21.961945
0 -8.5011578 -21.654154
0 -9.5408516 -21.178528
0 -10.595871 -20.719759
0 -11.707176 -20.102894
0 -12.858576 -19.426741
0 -14.07722 -18.60701
0 -15.40714 -17.525665
0 -16.866051 -16.17639
0 -18.558071 -14.30024
0 -20.915018 -10.785517
1.0879937 18.495895 -14.483105
1.0507039 16.81126 -16.347605
1.0254865 15.382298 -17.608469
1.004571 14.063992 -18.654249
0.98878068 12.854148 -19.44376
0.97471452 11.696572 -20.147072
0.96346539 10.598118 -20.709524
0.95331097 9.5331097 -21.217247
0.9444924 8.5004311 -21.658173
0.93825835 7.5060663 -21.969879
0.93227869 6.5259504 -22.268856
0.92718095 5.5630856 -22.523748
0.92331845 4.6165905 -22.716873
0.91949075 3.6779633 -22.90826
0.91666484 2.7499943 -23.049557
0.91574407 1.8314857 -23.095592
0.91482264 0.91482162 -23.141666
0.91418076 -1.9073486e-06 -23.173763
0.91496563 -0.91496754 -23.134518
0.91575193 -1.8315048 -23.0952
0.91677183 -2.7503166 -23.044201
0.92011905 -3.6804752 -22.876846
0.92382735 -4.6191387 -22.691425
0.92756575 -5.5653954 -22.504509
0.93231928 -6.526237 -22.266832
0.93848538 -7.5078831 -21.958527
0.94556636 -8.5100994 -21.604477
0.95441359 -9.544136 -21.162117
0.96338761 -10.597264 -20.713417
0.97646827 -11.717622 -20.05938
0.99075925 -12.879872 -19.344831
1.0075998 -14.106398 -18.502808
1.0281796 -15.422694 -17.473818
1.0562143 -16.899429 -16.072079
1.0942084 -18.601543 -14.172377
1.166473 -20.996513 -10.559146
2.1867812 18.587639 -14.21327
2.1088917 16.871134 -16.1605
2.05653 15.423975 -17.469547
2.0150733 14.105511 -18.505962
1.9821472 12.883958 -19.329115
1.9527529 11.716516 -20.063976
1.9302826 10.616554 -20.625731
1.9109808 9.5549021 -21.108276
1.8937311 8.5217896 -21.539516
1.8800739 7.5202956 -21.880947
1.8670833 6.5347891 -22.205715
1.8564799 5.569437 -22.470798
1.8494651 4.6236629 -22.64617
1.8426877 3.6853752 -22.815601
1.8374065 2.7561083 -22.947634
1.8347511 1.8347502 -23.014015
1.8318999 0.91594982 -23.085299
1.8304204 -1.9073486e-06 -23.122284
1.8323953 -0.91619968 -23.072912
1.8350964 -1.8350983 -23.005388
1.8380309 -2.7570467 -22.932018
1.8437911 -3.6875811 -22.788021
1.8503584 -4.6258965 -22.62384
1.8572459 -5.5717382 -22.451649
1.8677443 -6.5371056 -22.189186
1.8815304 -7.526124 -21.844536
1.8957502 -8.5308762 -21.48904
1.9136112 -9.568058 -21.042515
1.9321425 -10.626784 -20.579233
1.9566172 -11.739706 -19.967365
1.9860798 -12.909519 -19.230801
2.019949 -14.139646 -18.384068
2.0620379 -15.465285 -17.331848
2.117655 -16.941242 -15.941422
2.1990788 -18.692171 -13.905822
2.3884995 -21.496496 -9.17031
3.311516 18.765259 -13.690857
3.1842561 16.9827 -15.811863
3.1001482 15.500743 -17.213659
3.0343804 14.16044 -18.30979
2.9812262 12.918646 -19.19569
2.938329 11.753315 -19.910646
2.9030766 10.644611 -20.498188
2.873843 9.5794764 -20.985413
2.8478527 8.5435581 -21.418583
2.8264599 7.5372238 -21.775135
2.8070903 6.5498772 -22.097958
2.7915637 5.583128 -22.356733
2.7803411 4.6339006 -22.543776
2.7703767 3.6938334 -22.70985
2.762711 2.7627106 -22.837614
2.7584643 1.838975 -22.908394
2.7543566 0.91811657 -22.976858
2.7519541 9.5367432e-07 -23.016895
2.754946 -0.91831684 -22.967033
2.7588742 -1.8392506 -22.901558
2.763818 -2.7638178 -22.819162
2.7716174 -3.6954899 -22.689175
2.7815189 -4.6358662 -22.524149
2.7930417 -5.5860848 -22.332102
2.8093936 -6.5552554 -22.059566
2.8292096 -7.5445609 -21.729305
2.8507032 -8.5521107 -21.371073
2.8774748 -9.5915813 -20.924885
2.9073777 -10.660387 -20.4265
2.943507 -11.774029 -19.824348
2.9873328 -12.94511 -19.093912
3.0417318 -14.19475 -18.187267
3.1087329 -15.543663 -17.070581
3.2017853 -17.076189 -15.519706
3.3353801 -18.90049 -13.293123
4.4649892 18.976202 -13.070431
4.2803602 17.121439 -15.37829
4.1640429 15.61516 -16.832258
4.0721536 14.252536 -17.980875
4.0008745 13.002841 -18.871861
3.9380867 11.81426 -19.656712
3.8889406 10.694587 -20.271038
3.8486538 9.6216326 -20.774622
3.8122277 8.5775099 -21.229948
3.7824767 7.5649519 -21.601837
3.7563732 6.5736523 -21.928127
3.7346432 5.601963 -22.199755
3.7183542 4.6479435 -22.403366
3.7046041 3.7046022 -22.575247
3.6940053 2.770504 -22.707733
3.687202 1.8435993 -22.79277
3.6819918 0.92049885 -22.857895
3.681339 -1.9073486e-06 -22.866058
3.6825926 -0.92064953 -22.850391
3.6878674 -1.8439331 -22.784454
3.6953309 -2.7714987 -22.691166
3.7060118 -3.7060137 -22.557652
3.7203422 -4.6504316 -22.378519
3.736855 -5.6052833 -22.172108
3.7593353 -6.5788345 -21.891106
3.7862704 -7.5725398 -21.554417
3.8161831 -8.5864134 -21.180504
3.853931 -9.6348276 -20.708658
3.893893 -10.708205 -20.209133
3.9462357 -11.838708 -19.554848
4.0093608 -13.030423 -18.765789
4.084765 -14.296677 -17.823235
4.175415 -15.657805 -16.690107
4.3073001 -17.229204 -15.041544
4.5122228 -19.176947 -12.480012
5.6852961 19.330006 -12.029838
5.4156003 17.32992 -14.726793
5.2536049 15.760815 -16.346746
5.1279883 14.358367 -17.602915
5.0344996 13.089701 -18.537798
4.9566655 11.895996 -19.316143
4.8910227 10.760249 -19.972567
4.838141 9.67628 -20.501387
4.7906513 8.6231728 -20.976284
4.754148 7.606637 -21.341316
4.7195396 6.6073537 -21.687399
4.6899109 5.6278915 -21.98369
4.6717467 4.6717463 -22.165327
4.6537366 3.722991 -22.34543
4.6400757 2.7840452 -22.482042
4.6328883 1.8531542 -22.553913
4.6255369 0.92510605 -22.62743
4.6205692 -1.9073486e-06 -22.677105
4.6266274 -0.92532825 -22.616524
4.633595 -1.8534374 -22.546843
4.6421237 -2.7852745 -22.461559
4.6564841 -3.7251873 -22.317959
4.6739583 -4.6739597 -22.143208
4.6921668 -5.6305995 -21.961124
4.7217832 -6.6104984 -21.664965
4.7582536 -7.6132035 -21.300266
4.7967777 -8.634201 -20.91502
4.8443894 -9.6887817 -20.438898
4.8937597 -10.766273 -19.945198
4.9660425 -11.918503 -19.222374
5.0449491 -13.116867 -18.433306
5.1447935 -14.405422 -17.434864
5.2704511 -15.811354 -16.178286
5.4486818 -17.43578 -14.395978
5.7450738 -19.533249 -11.432058
7.0578289 19.997181 -10.067554
6.601048 17.602793 -13.874063
6.3713493 15.928368 -15.788224
6.2178059 14.508211 -17.067747
6.0935612 13.202716 -18.103115
5.9934888 11.986977 -18.937057
5.9128642 10.840252 -19.608925
5.8441982 9.7403278 -20.181143
5.7795296 8.6692944 -20.720049
5.7385306 7.6513758 -21.061707
5.6986809 6.6484628 -21.393787
5.6630821 5.6630802 -21.690445
5.6373401 4.6977825 -21.904963
5.6141481 3.7427654 -22.098228
5.5964289 2.7982159 -22.245892
5.5876837 1.8625574 -22.318768
5.5802069 0.93003273 -22.381071
5.5755987 9.5367432e-07 -22.419472
5.5808201 -0.93013668 -22.375963
5.5888968 -1.8629665 -22.308659
5.5983758 -2.7991896 -22.229664
5.6178555 -3.7452383 -22.067329
5.6406999 -4.7005844 -21.876968
5.6656079 -5.6656089 -21.669395
5.6975713 -6.6471663 -21.403038
5.7408509 -7.6544681 -21.042374
5.7886086 -8.6829128 -20.644394
5.8509984 -9.7516651 -20.124477
5.9172854 -10.848358 -19.572083
6.0076604 -12.015322 -18.81896
6.1046581 -13.226761 -18.010647
6.2372675 -14.553625 -16.905565
6.3926105 -15.981527 -15.611044
6.644455 -17.718548 -13.51234
7.3405123 -20.798119 -7.7118583
7.8663359 17.980196 -12.694685
7.5449195 16.167683 -14.990514
7.3347635 14.669529 -16.491625
7.1833267 13.340463 -17.57332
7.0562477 12.096422 -18.48103
6.9526954 10.925664 -19.220686
6.8740506 9.8200722 -19.782431
6.7982731 8.7406349 -20.3237
6.7429261 7.7062006 -20.71904
6.6930037 6.6930003 -21.075632
6.6509542 5.7008152 -21.37598
6.6205211 4.728941 -21.593363
6.590519 3.7660093 -21.807659
6.5678272 2.8147831 -21.969744
6.5590692 1.8740206 -22.032299
6.551897 0.93598366 -22.083534
6.5470033 -9.5367432e-07 -22.118488
6.553174 -0.93616772 -22.074411
6.5593557 -1.8741026 -22.030256
6.5680766 -2.814889 -21.967968
6.5952854 -3.7687359 -21.773617
6.6244726 -4.7317672 -21.565132
6.6541166 -5.7035275 -21.353392
6.7019038 -6.7019029 -21.012058
6.752182 -7.7167802 -20.652924
6.8103986 -8.7562275 -20.237091
6.8879642 -9.8399515 -19.68305
6.9604287 -10.937818 -19.165445
7.0743732 -12.127499 -18.351559
7.1999254 -13.371293 -17.454758
7.3662782 -14.732556 -16.266523
7.5931358 -16.271006 -14.646109
7.9569125 -18.187227 -12.047712
9.3553505 18.710701 -10.411852
8.80233 16.504368 -13.868231
8.51052 14.893413 -15.692042
8.3155785 13.512812 -16.910435
8.1591997 12.238801 -17.887796
8.0333834 11.045902 -18.67415
7.9278808 9.9098501 -19.333544
7.8368797 8.8164883 -19.902298
7.7725043 7.7725043 -20.304646
7.7092237 6.7455688 -20.70015
7.6554236 5.7415662 -21.036396
7.6233497 4.7645931 -21.236862
7.5920124 3.7960033 -21.43272
7.5663095 2.8373652 -21.593361
7.5521498 1.8880367 -21.681862
7.5380645 0.94225693 -21.769892
7.5310745 -0 -21.81358
7.5417295 -0.94271755 -21.746983
7.5538111 -1.8884544 -21.671474
7.5681109 -2.8380432 -21.582102
7.5968065 -3.7984056 -21.402756
7.6257424 -4.7660904 -21.221907
7.659637 -5.7447262 -21.010063
7.7216401 -6.7564378 -20.622547
7.7839952 -7.7839971 -20.232824
7.8562016 -8.8382263 -19.781534
7.9404726 -9.9255915 -19.254843
8.0431204 -11.059294 -18.613293
8.1792364 -12.268856 -17.762568
8.3262539 -13.530166 -16.843708
8.5532408 -14.968174 -15.425037
8.8682756 -16.628017 -13.456075
9.5323143 -19.064631 -9.3058357
10.201131 17.001883 -12.209848
9.7658949 15.191391 -14.627824
9.5068026 13.732046 -16.067228
9.3056431 12.407522 -17.184778
9.1443243 11.176393 -18.080994
9.025053 10.027837 -18.743614
8.910552 8.9105511 -19.37973
8.8300629 7.8489447 -19.826889
8.7606497 6.8138371 -20.212517
8.6996822 5.7997875 -20.551231
8.6546583 4.8081427 -20.801359
8.6100988 3.8267078 -21.048916
8.5809174 2.8603048 -21.211029
8.5671101 1.903801 -21.287739
8.5554953 0.95061016 -21.352268
8.5493336 -1.9073486e-06 -21.386499
8.5566578 -0.95073986 -21.345806
8.5667562 -1.9037218 -21.289707
8.5847073 -2.8615704 -21.189978
8.6191177 -3.8307161 -20.998808
8.6594458 -4.810801 -20.774765
8.7065592 -5.8043742 -20.513023
8.7700663 -6.8211627 -20.160202
8.834507 -7.8528953 -19.802202
8.9263144 -8.9263134 -19.292158
9.0393896 -10.043767 -18.663967
9.1646652 -11.201257 -17.967993
9.3329296 -12.443906 -17.033186
9.5408735 -13.781262 -15.877945
9.8214293 -15.27778 -14.319303
10.291602 -17.15267 -11.707228
11.162126 15.626974 -13.07217
10.773549 14.005611 -15.015049
10.51923 12.623075 -16.286646
10.322557 11.354813 -17.270008
10.159687 10.159686 -18.084364
10.027712 9.0249395 -18.744236
9.9322081 7.945765 -19.22176
9.8384752 6.8869314 -19.690416
9.7653341 5.859199 -20.056126
9.7172441 4.8586211 -20.296577
9.6706114 3.8682451 -20.529736
9.6345396 2.8903599 -20.710098
9.612381 1.9224749 -20.820889
9.5983906 0.95983887 -20.890842
9.593298 -0 -20.916309
9.6015978 -0.96016216 -20.874805
9.6135006 -1.9227009 -20.815292
9.6361542 -2.8908453 -20.702023
9.6746817 -3.8698707 -20.509388
9.7196207 -4.8598094 -20.284695
9.7765779 -5.8659468 -19.999907
9.8552265 -6.8986588 -19.606663
9.9403687 -7.9522958 -19.180958
10.052896 -9.0476084 -18.618317
10.175074 -10.175076 -18.007427
10.34203 -11.376234 -17.172647
10.544355 -12.65323 -16.161018
10.829852 -14.078809 -14.733533
11.239468 -15.735254 -12.685461
12.914664 16.436848 -10.179772
12.189386 14.405635 -13.476497
11.819054 12.893515 -15.159821
11.556761 11.556759 -16.352066
11.372066 10.338243 -17.191586
11.198316 9.1622601 -17.981359
11.077806 8.0565872 -18.529135
10.974369 6.9836903 -18.9993
10.886656 5.9381752 -19.397999
10.818785 4.9176283 -19.706505
10.76146 3.9132566 -19.96707
10.723062 2.924469 -20.141609
10.69811 1.9451075 -20.255028
10.676042 0.97054672 -20.355331
10.669285 -9.5367432e-07 -20.386047
10.683259 -0.97120476 -20.322533
10.699888 -1.9454336 -20.246941
10.729269 -2.9261665 -20.113394
10.772726 -3.9173551 -19.915861
10.823151 -4.9196129 -19.686661
10.896843 -5.9437342 -19.351692
10.984039 -6.9898448 -18.955343
11.079123 -8.0575447 -18.523144
11.227439 -9.1860857 -17.848982
11.388639 -10.353308 -17.116253
11.597309 -11.597313 -16.167755
11.867789 -12.946679 -14.938299
12.280851 -14.513734 -13.060749
13.185726 -16.781834 -8.9476757
13.981308 15.146414 -10.627347
13.293668 13.293668 -13.492515
12.911574 11.835611 -15.084566
12.647674 10.539726 -16.184155
12.443145 9.3323574 -17.036362
12.296865 8.1979103 -17.645859
12.154023 7.0898457 -18.241035
12.05252 6.026258 -18.663967
11.97902 4.9912586 -18.970211
11.907624 3.9692082 -19.267696
11.857901 2.9644728 -19.47488
11.829568 1.971591 -19.59293
11.807722 0.98397446 -19.683952
11.804439 -1.9073486e-06 -19.697636
11.812382 -0.98436451 -19.664541
11.820843 -1.9701385 -19.629288
11.859866 -2.9649658 -19.466686
11.919753 -3.9732499 -19.217159
11.980284 -4.9917855 -18.964949
12.070715 -6.0353584 -18.588152
12.179858 -7.1049175 -18.133385
12.310937 -8.2072906 -17.587223
12.480622 -9.3604679 -16.880201
12.674905 -10.562422 -16.070692
12.972687 -11.891626 -14.829939
13.377197 -13.377198 -13.144474
14.239949 -15.42661 -9.549675
15.204931 14.035317 -10.402293
14.47657 12.249405 -13.203681
14.081841 10.832183 -14.721869
13.811014 9.5614691 -15.76351
13.599255 8.3687725 -16.577967
13.434278 7.23384 -17.212498
13.306604 6.1415076 -17.703548
13.1998 5.0768433 -18.114332
13.111812 4.0344038 -18.452755
13.061298 3.0141435 -18.647034
13.020771 2.0031948 -18.80291
12.984038 0.99877262 -18.944187
12.984118 9.5367432e-07 -18.943876
13.002479 -1.0001898 -18.87326
13.020892 -2.0032158 -18.802439
13.071664 -3.0165391 -18.607166
13.128185 -4.0394449 -18.389774
13.20155 -5.0775189 -18.107601
13.320332 -6.1478453 -17.650751
13.44533 -7.2397928 -17.169991
13.619442 -8.381197 -16.500324
13.850198 -9.5885973 -15.612808
14.132358 -10.871046 -14.527575
14.561064 -12.3209 -12.878706
15.391595 -14.207626 -9.6843548
17.052341 13.398266 -7.9815774
15.791894 11.279925 -12.483173
15.362218 9.8757086 -14.017732
15.060584 8.6060476 -15.094995
14.821732 7.4108653 -15.948042
14.645971 6.2768455 -16.575758
14.529033 5.1889386 -16.993393
14.413994 4.1182833 -17.404247
14.347074 3.0743723 -17.643248
14.294546 2.0420771 -17.830847
14.256101 1.0182905 -17.968153
14.260612 -1.9073486e-06 -17.952036
14.265127 -1.01894 -17.935911
14.283488 -2.0405002 -17.870338
14.35146 -3.0753145 -17.627583
14.430335 -4.122952 -17.345882
14.530345 -5.1894088 -16.98871
14.680377 -6.2915916 -16.452877
14.847081 -7.4235406 -15.857507
15.091911 -8.6239491 -14.983112
15.398076 -9.8987637 -13.889668
15.904275 -11.360198 -12.081818
17.401478 10.440883 -10.877874
16.799356 8.9596548 -12.884943
16.400301 7.6534748 -14.215124
16.182047 6.4728165 -14.94264
15.999747 5.3332491 -15.550304
15.832096 4.2218895 -16.109146
15.756494 3.151298 -16.361153
15.691754 2.092236 -16.576946
15.643092 1.0428724 -16.739159
15.636758 9.5367432e-07 -16.760267
15.647606 -1.0431743 -16.724112
15.688593 -2.0918131 -16.587486
15.770185 -3.154038 -16.315512
15.866126 -4.230968 -15.99571
16.020828 -5.3402734 -15.480038
16.195673 -6.4782705 -14.89722
16.475641 -7.6886344 -13.963991
16.83087 -8.9764671 -12.779902
17.532301 -10.519382 -10.441798
18.609406 8.1416149 -10.728403
18.062757 6.7735333 -12.436682
17.739851 5.5437012 -13.445765
17.497282 4.374321 -14.203794
17.378878 3.2585359 -14.573807
17.262066 2.1577559 -14.938842
17.201632 1.0751014 -15.127701
17.209681 -4.7683716e-07 -15.102547
17.217737 -1.0761085 -15.07737
17.293837 -2.1617279 -14.839558
17.384686 -3.2596297 -14.555655
17.539179 -4.3847952 -14.072861
17.777517 -5.5554733 -13.328054
18.085278 -6.7819786 -12.366299
18.673925 -8.1698427 -10.526782
19.895809 4.6813622 -10.365711
19.499416 3.4410734 -11.531569
19.286598 2.2690115 -12.157503
19.183134 1.1284204 -12.461819
19.15325 -4.7683716e-07 -12.54971
19.198549 -1.1293278 -12.416475
19.32823 -2.2739096 -12.035059
19.523771 -3.4453731 -11.45994
19.957645 -4.6959152 -10.183842
