# .PCD v0.7 - Point Cloud Data file format
VERSION 0.7
FIELDS x y z
SIZE 4 4 4
TYPE F F F
COUNT 1 1 1
WIDTH 1078
HEIGHT 1
VIEWPOINT 0 0 0 1 0 0 0
POINTS 1078
DATA ascii
-22.222349 2.3391943 -10.402928
-21.972172 1.1564293 -11.06129
-21.92734 -9.5367432e-07 -11.179274
-21.891228 -1.1521707 -11.2743
-22.32091 -2.34957 -10.143559
-20.70422 6.9014049 -11.371073
-20.1765 5.6045814 -12.836958
-19.844662 4.4099255 -13.758736
-19.67301 3.2788315 -14.235546
-19.504301 2.1671419 -14.704182
-19.421646 1.0789804 -14.933781
-19.438524 -1.9073486e-06 -14.886891
-19.455564 -1.0808668 -14.839563
-19.549654 -2.172183 -14.578205
-19.676685 -3.2794476 -14.225338
-19.857586 -4.4127994 -13.72283
-20.255798 -5.6266108 -12.616688
-20.811779 -6.9372582 -11.072302
-19.290134 9.0777082 -12.147104
-18.72781 7.7114496 -13.801004
-18.395086 6.4923835 -14.779598
-18.145617 5.3369441 -15.513335
-17.967024 4.2275362 -16.03861
-17.858583 3.1515145 -16.35755
-17.751387 2.0883975 -16.672836
-17.697985 1.0410566 -16.829905
-17.708696 -1.9073486e-06 -16.798397
-17.719479 -1.0423217 -16.766682
-17.777689 -2.091495 -16.595474
-17.860914 -3.1519284 -16.350691
-17.963306 -4.2266612 -16.04954
-18.182465 -5.3477836 -15.404964
-18.414034 -6.499073 -14.723877
-18.778591 -7.7323608 -13.651647
-19.331715 -9.0972767 -12.024815
-18.363127 11.476952 -11.498031
-17.611345 9.9063807 -13.847347
-17.226952 8.6134739 -15.048571
-16.922922 7.4037795 -15.998665
-16.727324 6.2727447 -16.609913
-16.545174 5.1703687 -17.179127
-16.415264 4.1038156 -17.585098
-16.344818 3.0646515 -17.805244
-16.27883 2.0348558 -18.01145
-16.241655 1.0151033 -18.127621
-16.232542 -2.8610229e-06 -18.156105
-16.230803 -1.0144253 -18.161541
-16.270857 -2.0338597 -18.036369
-16.352343 -3.0660653 -17.781725
-16.438795 -4.1096997 -17.511568
-16.579962 -5.1812396 -17.070412
-16.735912 -6.2759686 -16.583065
-16.953287 -7.4170637 -15.903769
-17.274342 -8.6371727 -14.90048
-17.675547 -9.9424953 -13.646717
-18.455202 -11.534502 -11.210294
-16.818731 12.333736 -12.82036
-16.276766 10.851177 -14.62691
-15.903656 9.5421925 -15.870611
-15.648519 8.3458748 -16.721073
-15.414568 7.1934638 -17.500904
-15.285034 6.1140132 -17.932686
-15.159466 5.0531545 -18.351242
-15.057285 4.0152745 -18.691847
-14.987397 2.9974785 -18.924807
-14.933938 1.991189 -19.103003
-14.907237 0.99381447 -19.192005
-14.903877 -2.8610229e-06 -19.203209
-14.910966 -0.99406528 -19.179575
-14.945589 -1.9927473 -19.064163
-14.999551 -2.9999104 -18.884291
-15.063439 -4.0169163 -18.671329
-15.163276 -5.0544248 -18.338547
-15.304029 -6.1216121 -17.86937
-15.457113 -7.2133217 -17.359083
-15.677537 -8.3613539 -16.62434
-15.945209 -9.5671253 -15.732102
-16.34339 -10.895596 -14.404834
-16.9046 -12.396706 -12.534132
-15.580071 13.354348 -13.239685
-15.066325 11.837826 -15.074495
-14.721389 10.515275 -16.30641
-14.451859 9.2904797 -17.269016
-14.269917 8.1542377 -17.918806
-14.103352 7.0516748 -18.513689
-13.981812 5.9922047 -18.947752
-13.875543 4.9555507 -19.327286
-13.800275 3.9429359 -19.596096
-13.747305 2.9458504 -19.78528
-13.702528 1.9575014 -19.945198
-13.679438 0.97710228 -20.027664
-13.673294 -0 -20.049604
-13.678276 -0.97702026 -20.031815
-13.704194 -1.9577436 -19.939241
-13.748479 -2.946104 -19.781086
-13.806492 -3.9447145 -19.573895
-13.892956 -4.9617724 -19.265095
-13.996363 -5.9984431 -18.895784
-14.106619 -7.0533109 -18.502016
-14.286796 -8.163887 -17.85853
-14.49258 -9.316658 -17.123583
-14.74934 -10.535243 -16.206585
-15.113832 -11.875156 -14.904822
-15.647979 -13.412557 -12.997155
-14.422573 14.42257 -13.411366
-13.932482 12.860751 -15.296328
-13.595057 11.503508 -16.594114
-13.348637 10.268179 -17.541887
-13.162218 9.1123037 -18.258881
-12.995008 7.9969282 -18.901997
-12.864741 6.9271679 -19.403019
-12.77389 5.8956413 -19.752451
-12.687389 4.8797636 -20.085148
-12.622012 3.8836946 -20.336592
-12.573307 2.9015293 -20.523926
-12.535333 1.9285107 -20.669977
-12.517705 0.96290016 -20.737774
-12.516845 9.5367432e-07 -20.741089
-12.521901 -0.96322441 -20.721632
-12.54458 -1.9299383 -20.634413
-12.582307 -2.9036102 -20.489307
-12.626621 -3.8851128 -20.318867
-12.692392 -4.88169 -20.065903
-12.783297 -5.8999825 -19.716272
-12.884315 -6.9377065 -19.327744
-13.023081 -8.014204 -18.794024
-13.17403 -9.1204834 -18.213448
-13.379286 -10.29176 -17.424004
-13.652463 -11.552085 -16.373322
-13.971798 -12.897046 -15.145113
-14.515294 -14.515293 -13.054744
-13.399803 15.633103 -13.050287
-12.88779 13.961771 -15.18367
-12.536941 12.53694 -16.645544
-12.30823 11.282545 -17.598501
-12.088624 10.073852 -18.513531
-11.945784 8.9593353 -19.1087
-11.820589 7.8803926 -19.630342
-11.713212 6.8327065 -20.077744
-11.62825 5.8141246 -20.431751
-11.550279 4.8126154 -20.756638
-11.499446 3.833149 -20.968437
-11.465374 2.8663425 -21.110405
-11.433264 1.9055433 -21.244198
-11.417917 0.95149422 -21.308144
-11.413564 -1.9073486e-06 -21.326281
-11.411743 -0.95097923 -21.333866
-11.429609 -1.9049368 -21.259426
-11.467553 -2.8668871 -21.101326
-11.50887 -3.8362904 -20.929169
-11.566295 -4.8192902 -20.689901
-11.639325 -5.8196611 -20.385609
-11.714705 -6.8335805 -20.071529
-11.828337 -7.8855567 -19.598061
-11.968254 -8.9761896 -19.015068
-12.121978 -10.101646 -18.374559
-12.325043 -11.297957 -17.528454
-12.572039 -12.572038 -16.499302
-12.938177 -14.016357 -14.973724
-13.511804 -15.763769 -12.583613
-12.465414 16.998291 -12.221819
-11.856897 15.090598 -14.987803
-11.54455 13.643559 -16.407566
-11.274568 12.299525 -17.634766
-11.089536 11.089535 -18.475819
-10.924518 9.9313774 -19.225897
-10.805114 8.8405457 -19.768644
-10.688258 7.7732782 -20.299807
-10.600309 6.7456493 -20.699574
-10.537487 5.7477174 -20.985126
-10.475406 4.7615452 -21.267317
-10.43102 3.7930994 -21.469069
-10.395733 2.8351984 -21.629467
-10.360683 1.8837595 -21.788784
-10.35008 0.94091606 -21.836973
-10.353865 1.9073486e-06 -21.819775
-10.357621 -0.9416008 -21.8027
-10.373312 -1.8860579 -21.731377
-10.400711 -2.8365593 -21.60684
-10.428224 -3.7920818 -21.481779
-10.473887 -4.7608595 -21.27422
-10.544958 -5.7517982 -20.95117
-10.617 -6.7562742 -20.623705
-10.709243 -7.7885408 -20.20442
-10.815413 -8.8489752 -19.721828
-10.938155 -9.9437771 -19.16391
-11.119177 -11.119177 -18.341084
-11.307591 -12.335555 -17.484653
-11.573082 -13.67728 -16.277874
-11.941409 -15.198155 -14.603668
-12.582067 -17.157368 -11.69158
-11.758062 18.812901 -10.092484
-10.9306 16.395903 -14.229792
-10.561033 14.785448 -16.077625
-10.301213 13.391578 -17.37673
-10.105772 12.126925 -18.353939
-9.950202 10.945221 -19.131784
-9.8084602 9.8084602 -19.840496
-9.7073078 8.736578 -20.346256
-9.6177244 7.6941781 -20.794174
-9.5447874 6.6813507 -21.158863
-9.4835281 5.690115 -21.465157
-9.4231052 4.7115507 -21.767271
-9.3877563 3.7551012 -21.944016
-9.3641825 2.8092546 -22.061882
-9.3407545 1.8681479 -22.179024
-9.3301392 0.93301105 -22.232101
-9.3269215 2.8610229e-06 -22.248188
-9.324111 -0.93241405 -22.262241
-9.3377733 -1.8675537 -22.193932
-9.367672 -2.8103027 -22.044437
-9.3978987 -3.7591629 -21.893303
-9.4376125 -4.7188091 -21.694735
-9.4905472 -5.6943307 -21.430059
-9.5440788 -6.6808562 -21.162399
-9.6235914 -7.6988716 -20.764839
-9.7223225 -8.7500896 -20.271187
-9.8236399 -9.8236389 -19.764599
-9.962554 -10.958813 -19.070026
-10.119785 -12.143743 -18.283869
-10.337313 -13.438509 -17.196236
-10.583505 -14.816908 -15.965274
-11.010404 -16.515606 -13.830778
-10.046644 17.860701 -13.068103
-9.6152411 16.025402 -15.464789
-9.3431053 14.533718 -16.976656
-9.1453924 13.21001 -18.075058
-8.9804764 11.973969 -18.991257
-8.8482437 10.81452 -19.725883
-8.7385798 9.7095318 -20.335133
-8.6533136 8.6533108 -20.80883
-8.5741863 7.6215 -21.248428
-8.5112982 6.6198978 -21.597807
-8.4617662 5.6411772 -21.872982
-8.416646 4.6759138 -22.123653
-8.385747 3.7269983 -22.295311
-8.3599224 2.7866421 -22.438782
-8.3388624 1.8530788 -22.555782
-8.3296776 0.92551804 -22.606812
-8.3280497 -0 -22.615858
-8.33078 -0.92564487 -22.600687
-8.3418407 -1.8537426 -22.539238
-8.361949 -2.7873192 -22.427521
-8.3861609 -3.7271862 -22.293018
-8.420537 -4.6780739 -22.102037
-8.4685202 -5.64568 -21.835461
-8.5207119 -6.627224 -21.545506
-8.584096 -7.6303101 -21.193371
-8.6619053 -8.6619053 -20.761097
-8.7512531 -9.7236176 -20.264721
-8.8706007 -10.841845 -19.601685
-9.0000668 -12.000088 -18.882431
-9.1623163 -13.234457 -17.981037
-9.3757687 -14.584529 -16.795195
-9.6566267 -16.094378 -15.234871
-10.124997 -17.999992 -12.632816
-9.3754854 19.922905 -10.286016
-8.7056284 17.411253 -14.472624
-8.4012423 15.75233 -16.375031
-8.2013311 14.352328 -17.624477
-8.0293245 13.047652 -18.699516
-7.9035673 11.855352 -19.485497
-7.7977395 10.721891 -20.146923
-7.7039409 9.6299267 -20.733164
-7.6292458 8.5828991 -21.200016
-7.560266 7.5602651 -21.631132
-7.5099854 6.5712376 -21.945385
-7.4689612 5.6017227 -22.201784
-7.4293909 4.6433697 -22.449102
-7.4028382 3.7014189 -22.615059
-7.3801956 2.7675714 -22.756573
-7.3605318 1.8401327 -22.879475
-7.3530898 0.91913319 -22.925985
-7.3547697 -1.9073486e-06 -22.915483
-7.3571658 -0.91964722 -22.900509
-7.3667231 -1.8416786 -22.840775
-7.384387 -2.7691441 -22.730375
-7.4035406 -3.7017717 -22.610668
-7.4313426 -4.6445923 -22.436907
-7.4720612 -5.6040449 -22.182413
-7.5177703 -6.5780516 -21.89673
-7.572207 -7.572206 -21.556503
-7.6389332 -8.5938015 -21.139462
-7.7081389 -9.6351738 -20.706928
-7.804831 -10.731645 -20.102598
-7.9187856 -11.878178 -19.390388
-8.0558043 -13.090683 -18.534018
-8.2180319 -14.381557 -17.52009
-8.437088 -15.81954 -16.150999
-8.7612934 -17.522587 -14.124714
-9.6726627 -20.554409 -8.4286499
-7.8578296 19.083302 -12.75544
-7.4942436 17.1297 -15.352482
-7.2597871 15.556684 -17.027174
-7.0980005 14.196001 -18.182796
-6.9658098 12.936502 -19.127016
-6.8602347 11.760401 -19.881119
-6.7662768 10.632721 -20.552246
-6.6882143 9.5545921 -21.109837
-6.6315131 8.5262299 -21.514851
-6.5757833 7.5151801 -21.912914
-6.53301 6.5330076 -22.218435
-6.4947381 5.5669184 -22.491808
-6.4568944 4.6120672 -22.762125
-6.4376488 3.6786566 -22.899588
-6.4227276 2.7525959 -23.006172
-6.4078927 1.8308239 -23.112133
-6.4015565 0.91450787 -23.157394
-6.3995199 -0 -23.17194
-6.3974662 -0.91392517 -23.186611
-6.4052515 -1.8300734 -23.131004
-6.4242296 -2.7532434 -22.995445
-6.4433022 -3.6818867 -22.859213
-6.4670143 -4.6192961 -22.689837
-6.5003042 -5.5716906 -22.452049
-6.5339384 -6.5339427 -22.211803
-6.5773768 -7.5170031 -21.901533
-6.6387239 -8.5355053 -21.463341
-6.7012057 -9.5731506 -21.01704
-6.7806549 -10.655317 -20.449545
-6.8687482 -11.774997 -19.820309
-6.9760342 -12.955494 -19.053982
-7.1194224 -14.238845 -18.029776
-7.2821045 -15.604511 -16.86776
-7.5208893 -17.190603 -15.162155
-7.9493313 -19.305519 -12.101856
-6.6088877 18.725183 -13.80873
-6.3359547 16.895876 -16.083174
-6.1618919 15.404728 -17.533699
-6.0356026 14.083073 -18.586109
-5.9202428 12.827192 -19.547438
-5.8369551 11.67391 -20.241501
-5.764915 10.569009 -20.841843
-5.7029901 9.504982 -21.357883
-5.6514635 8.4771919 -21.787268
-5.602973 7.4706302 -22.191357
-5.5673361 6.495224 -22.488331
-5.5393705 5.5393705 -22.721375
-5.5118103 4.5931749 -22.951042
-5.4938393 3.6625586 -23.100807
-5.4779887 2.7389927 -23.232893
-5.4648418 1.8216124 -23.342449
-5.4595423 0.9099226 -23.386612
-5.4591098 -2.8610229e-06 -23.390215
-5.4607925 -0.91013241 -23.376194
-5.4673018 -1.8224363 -23.321947
-5.4796209 -2.7398119 -23.219292
-5.4933233 -3.6622152 -23.105103
-5.5131326 -4.5942774 -22.940029
-5.5426941 -5.5426941 -22.693682
-5.5745206 -6.5036082 -22.428459
-5.6111789 -7.4815717 -22.122972
-5.6573582 -8.4860392 -21.738144
-5.7071528 -9.5119228 -21.323189
-5.7732224 -10.584243 -20.772608
-5.8505197 -11.701042 -20.128464
-5.938395 -12.866522 -19.396172
-6.0463562 -14.108165 -18.496492
-6.1803322 -15.45083 -17.38003
-6.368701 -16.983204 -15.810285
-6.6458039 -18.829779 -13.501099
-5.8497939 21.059256 -10.384858
-5.429781 18.461258 -14.584982
-5.2335277 16.74729 -16.547516
-5.0946403 15.28392 -17.936396
-4.9930243 13.980465 -18.952555
-4.9069667 12.758112 -19.813128
-4.8403382 11.616812 -20.479412
-4.7801766 10.516388 -21.081028
-4.7297497 9.4594975 -21.5853
-4.6872196 8.4369926 -22.010603
-4.6493797 7.4390049 -22.388998
-4.6213923 6.4699488 -22.668873
-4.5975847 5.5170994 -22.906948
-4.5748024 4.5748024 -23.134777
-4.560113 3.6480885 -23.281664
-4.5470085 2.7282038 -23.41271
-4.5356655 1.8142653 -23.526138
-4.5315018 0.90629959 -23.567778
-4.5325613 -9.5367432e-07 -23.557186
-4.5339532 -0.90679169 -23.543262
-4.5392866 -1.8157139 -23.489929
-4.5494766 -2.7296867 -23.388027
-4.5604877 -3.6483908 -23.277916
-4.5761032 -4.5761051 -23.121763
-4.5991354 -5.5189648 -22.891441
-4.6254306 -6.4756026 -22.628492
-4.6553655 -7.448586 -22.329142
-4.6935081 -8.4483147 -21.947712
-4.7340636 -9.4681263 -21.542162
-4.7852945 -10.527649 -21.029852
-4.8459067 -11.630178 -20.423729
-4.9168477 -12.783804 -19.714319
-5.0075679 -14.021192 -18.807119
-5.1151266 -15.345381 -17.731531
-5.2500739 -16.800238 -16.382057
-5.4627771 -18.573442 -14.255025
-4.5570273 20.506622 -11.91995
-4.3001204 18.275513 -15.131289
-4.1570911 16.628361 -16.919163
-4.0533562 15.200089 -18.215839
-3.975951 13.915824 -19.183414
-3.9077346 12.700136 -20.036116
-3.8556509 11.566952 -20.687159
-3.806366 10.467505 -21.303219
-3.7684035 9.4210081 -21.777754
-3.7381897 8.410924 -22.155426
-3.708446 7.4168897 -22.527225
-3.6863678 6.4511423 -22.8032
-3.6658447 5.4987679 -23.059736
-3.6455388 4.5569239 -23.31356
-3.6357882 3.6357861 -23.435442
-3.6277759 2.72083 -23.535597
-3.6197987 1.8098993 -23.635311
-3.616514 0.90412617 -23.676373
-3.615417 -1.9073486e-06 -23.690083
-3.614321 -0.90358257 -23.703789
-3.6183338 -1.8091669 -23.653627
-3.6285427 -2.7214069 -23.526012
-3.6388204 -3.6388216 -23.397545
-3.6511533 -4.5639439 -23.243378
-3.6690211 -5.5035343 -23.020033
-3.6870751 -6.4523826 -22.794355
-3.7089696 -7.4179401 -22.520676
-3.7416124 -8.4186287 -22.112646
-3.7748458 -9.4371166 -21.697224
-3.8151991 -10.4918 -21.192806
-3.86148 -11.584444 -20.614296
-3.9143057 -12.721494 -19.953979
-3.9845777 -13.946022 -19.075579
-4.0680871 -15.255325 -18.031706
-4.1759567 -16.703829 -16.683336
-4.3246646 -18.379824 -14.824492
-4.6260362 -20.817162 -11.057343
-3.3750343 20.250206 -12.632221
-3.2083075 18.18041 -15.411005
-3.1054332 16.562307 -17.12558
-3.0285454 15.142727 -18.407036
-2.9711986 13.865592 -19.36282
-2.9181337 12.645247 -20.247234
-2.8826036 11.530414 -20.839403
-2.8487267 10.44533 -21.404018
-2.820358 9.4011908 -21.876831
-2.7958968 8.3876905 -22.284515
-2.7730901 7.3949051 -22.664627
-2.7567708 6.4324656 -22.936613
-2.7433214 5.4866419 -23.160774
-2.7301338 4.5502214 -23.380566
-2.7217677 3.6290236 -23.52
-2.7142842 2.714282 -23.644726
-2.7083302 1.8055515 -23.743961
-2.7058935 0.90196419 -23.784571
-2.705272 -2.8610229e-06 -23.794933
-2.7060831 -0.90202808 -23.78141
-2.7091279 -1.8060865 -23.730661
-2.7150323 -2.7150307 -23.632256
-2.7219748 -3.6293011 -23.516548
-2.7311068 -4.5518446 -23.364349
-2.7447877 -5.4895763 -23.136335
-2.7599862 -6.4399676 -22.883026
-2.7770145 -7.4053741 -22.59922
-2.799001 -8.3970013 -22.232777
-2.8218913 -9.4063034 -21.851274
-2.851815 -10.456652 -21.352551
-2.8881483 -11.552594 -20.746994
-2.9275661 -12.686119 -20.090031
-2.9776404 -13.895658 -19.255453
-3.0349431 -15.174717 -18.300413
-3.1150515 -16.613609 -16.965267
-3.2187357 -18.239504 -15.237196
-3.4069164 -20.4415 -12.100857
-2.234797 20.113173 -13.012875
-2.1313572 18.116535 -15.598868
-2.0639753 16.511803 -17.283411
-2.0114398 15.085799 -18.596798
-1.9760073 13.83205 -19.482616
-1.9433196 12.631577 -20.299805
-1.9185451 11.511268 -20.919167
-1.8955549 10.425552 -21.493923
-1.8768066 9.3840322 -21.962631
-1.8605584 8.3725128 -22.368837
-1.8459643 7.3838549 -22.733686
-1.8353108 6.4235878 -23.000025
-1.8263795 5.4791393 -23.223305
-1.8176169 4.5440416 -23.442371
-1.81207 3.6241379 -23.581047
-1.8070183 2.7105274 -23.70734
-1.8022268 1.8022289 -23.827122
-1.8008754 0.90043736 -23.86091
-1.8014148 -1.9073486e-06 -23.847431
-1.8019543 -0.90097713 -23.833935
-1.8039745 -1.803978 -23.783436
-1.8079065 -2.7118616 -23.685133
-1.8118507 -3.623702 -23.586533
-1.8177966 -4.5444908 -23.437881
-1.8270226 -5.4810696 -23.207233
-1.8371234 -6.4299312 -22.954712
-1.848387 -7.393549 -22.673119
-1.8629979 -8.3834915 -22.307854
-1.8786088 -9.3930435 -21.917576
-1.8979472 -10.438711 -21.434116
-1.9203769 -11.522263 -20.873375
-1.946299 -12.650944 -20.225325
-1.9808782 -13.86615 -19.36084
-2.0197651 -15.14824 -18.388662
-2.0697627 -16.558104 -17.138729
-2.1393905 -18.184822 -15.398031
-2.2560008 -20.304005 -12.482779
-1.1133974 20.041153 -13.212927
-1.0631227 18.073086 -15.726659
-1.0300784 16.481255 -17.378874
-1.0054277 15.081416 -18.611408
-0.98701274 13.818175 -19.53216
-0.97061068 12.617938 -20.352261
-0.95828712 11.499445 -20.968439
-0.94637275 10.410101 -21.564159
-0.93737286 9.3737278 -22.014153
-0.93000227 8.3700199 -22.382683
-0.92274928 7.3819914 -22.745331
-0.91742784 6.4219933 -23.011402
-0.91241312 5.4744759 -23.262144
-0.90757316 4.5378637 -23.504141
-0.90507436 3.6202946 -23.629078
-0.9031111 2.7093315 -23.727242
-0.90115637 1.80231 -23.824982
-0.90036213 0.90036106 -23.864689
-0.90009266 -0 -23.878162
-0.89992911 -0.89993 -23.886341
-0.90093684 -1.8018751 -23.835955
-0.90331388 -2.7099409 -23.717102
-0.90583104 -3.6233253 -23.591246
-0.9088136 -4.5440683 -23.442116
-0.91318458 -5.4791079 -23.223566
-0.91759789 -6.4231873 -23.002901
-0.92286575 -7.3829269 -22.739511
-0.93081462 -8.3773308 -22.342066
-0.93890429 -9.3890438 -21.937582
-0.94855404 -10.434095 -21.455095
-0.95974177 -11.516902 -20.89571
-0.97248489 -12.642303 -20.258553
-0.98885667 -13.843992 -19.439966
-1.008127 -15.121902 -18.47645
-1.0340999 -16.545603 -17.177799
-1.0686687 -18.16737 -15.44936
-1.1234838 -20.222706 -12.708615
0 20.095936 -13.060747
0 18.090057 -15.676745
0 16.496038 -17.332674
0 15.084858 -18.599939
0 13.82106 -19.521866
0 12.612461 -20.373327
0 11.501466 -20.96002
0 10.420365 -21.517498
0 9.3800392 -21.982595
0 8.3692436 -22.386982
0 7.3801107 -22.757099
0 6.4204025 -23.022776
0 5.4754257 -23.254251
0 4.5409889 -23.472893
0 3.6217461 -23.610996
0 2.7094622 -23.725086
0 1.8023977 -23.822836
0 0.90040588 -23.862545
0 -1.9073486e-06 -23.876022
0 -0.90024376 -23.870609
0 -1.8025064 -23.820185
0 -2.7096844 -23.721413
0 -3.6229753 -23.595581
0 -4.5436344 -23.446478
0 -5.4785805 -23.22797
0 -6.4265385 -22.978951
0 -7.3894529 -22.698719
0 -8.3786411 -22.334797
0 -9.3850174 -21.957706
0 -10.430376 -21.472004
0 -11.52216 -20.873804
0 -12.649339 -20.231501
0 -13.851697 -19.412451
0 -15.127352 -18.458286
0 -16.534126 -17.213659
0 -18.176117 -15.423621
0 -20.247234 -12.640484
1.122547 20.205847 -12.755442
1.0669328 18.137854 -15.53616
1.0324975 16.519958 -17.257921
1.0067331 15.100994 -18.546146
0.98880506 13.843269 -19.442547
0.9723556 12.640619 -20.265018
0.95982188 11.517859 -20.891703
0.94825214 10.430773 -21.470188
0.93890709 9.3890696 -21.937443
0.93080378 8.3772335 -22.342604
0.92335296 7.3868227 -22.715153
0.91806638 6.426465 -22.979473
0.91364086 5.4818449 -23.20075
0.90925783 4.5462875 -23.419907
0.90647906 3.6259146 -23.558846
0.90394813 2.7118444 -23.685389
0.90143394 1.8028669 -23.8111
0.90083843 0.90083885 -23.84087
0.90110838 -0 -23.827377
0.90138102 -0.90138245 -23.813749
0.90239197 -1.8047829 -23.763199
0.90435719 -2.7130709 -23.664938
0.90633094 -3.6253252 -23.566246
0.90913707 -4.5456848 -23.425941
0.91399896 -5.4839945 -23.182846
0.91904432 -6.4333129 -22.93058
0.92467684 -7.3974142 -22.648956
0.93197101 -8.387742 -22.284248
0.93979818 -9.3979826 -21.892889
0.94956154 -10.445178 -21.404716
0.96083921 -11.53007 -20.840836
0.97357041 -12.656416 -20.204275
0.99110723 -13.875502 -19.327438
1.0106786 -15.16018 -18.34886
1.0363711 -16.581938 -17.064245
1.0718685 -18.221767 -15.28937
1.1303141 -20.345652 -12.367096
2.2625034 20.362526 -12.320211
2.1440871 18.224739 -15.280619
2.0728221 16.582577 -17.062241
2.0218527 15.163893 -18.336481
1.9831916 13.882339 -19.303009
1.949069 12.668947 -20.156073
1.9237173 11.542302 -20.789865
1.8996501 10.448074 -21.391544
1.8809255 9.4046249 -21.859661
1.8659467 8.3967609 -22.234127
1.8512046 7.4048166 -22.602682
1.8402854 6.440999 -22.87566
1.8300874 5.490262 -23.130611
1.820635 4.5515842 -23.366924
1.8150542 3.6301079 -23.506441
1.8110656 2.7165956 -23.606159
1.8070943 1.8070927 -23.705437
1.8054672 0.9027338 -23.746113
1.8049206 -3.8146973e-06 -23.759785
1.8050369 -0.90251827 -23.756874
1.8070689 -1.8070707 -23.70607
1.8114938 -2.7172413 -23.595453
1.8166167 -3.633235 -23.467381
1.8227334 -4.5568333 -23.314465
1.8316132 -5.4948406 -23.092468
1.8405801 -6.4420319 -22.868292
1.8514708 -7.4058828 -22.596027
1.8676305 -8.4043379 -22.192032
1.8840693 -9.4203491 -21.781065
1.9038192 -10.471005 -21.287315
1.9266251 -11.559751 -20.717169
1.9533869 -12.697015 -20.048122
1.9871161 -13.909813 -19.204893
2.0263274 -15.197455 -18.224611
2.0804737 -16.643791 -16.870956
2.1559801 -18.325834 -14.983292
2.2876811 -20.58913 -11.690769
3.4419076 20.651445 -11.51767
3.2415273 18.368652 -14.857341
3.1283751 16.684664 -16.74321
3.045464 15.227318 -18.125065
2.9862335 13.935755 -19.112242
2.9338825 12.713488 -19.984756
2.8954325 11.581728 -20.625587
2.8608315 10.489712 -21.202274
2.8314497 9.4381647 -21.691967
2.8063233 8.4189692 -22.110739
2.7835877 7.4228973 -22.489668
2.7670181 6.4563742 -22.765823
2.7521894 5.5043783 -23.012974
2.7386446 4.5644035 -23.23872
2.7299485 3.6399326 -23.383652
2.7234337 2.7234344 -23.492231
2.717447 1.8116312 -23.592014
2.7149789 0.90499401 -23.633148
2.7141545 -1.9073486e-06 -23.646887
2.7140782 -0.90469551 -23.648161
2.7173476 -1.8115654 -23.59367
2.7238257 -2.7238264 -23.485703
2.7315474 -3.6420641 -23.357006
2.7408292 -4.5680485 -23.202309
2.754215 -5.5084295 -22.979214
2.7692721 -6.461637 -22.72826
2.7869225 -7.4317942 -22.43409
2.8095164 -8.4285507 -22.057524
2.8328454 -9.4428205 -21.668705
2.8635976 -10.499859 -21.156172
2.900861 -11.603447 -20.53511
2.9417849 -12.747736 -19.853046
2.9936967 -13.970585 -18.987852
3.0571518 -15.28576 -17.930265
3.1368315 -16.729769 -16.602272
3.256671 -18.454468 -14.604948
3.4979231 -20.987537 -10.584079
4.7586865 21.414089 -9.3992138
4.3627863 18.541842 -14.347967
4.1993055 16.79722 -16.391478
4.0886183 15.332319 -17.775068
4.0045462 14.01591 -18.82597
3.9346082 12.787478 -19.700191
3.8794944 11.638483 -20.389114
3.8297045 10.531687 -21.011486
3.7898149 9.474535 -21.510109
3.7560556 8.4511251 -21.932102
3.7245619 7.4491224 -22.325775
3.7019725 6.4784517 -22.608137
3.683583 5.5253754 -22.838009
3.6653752 4.5817194 -23.065605
3.653568 3.6535664 -23.2132
3.6430526 2.7322903 -23.344639
3.6325977 1.8162994 -23.475327
3.6302719 0.90756702 -23.504395
3.6321874 -1.9073486e-06 -23.480453
3.6332026 -0.9083004 -23.467766
3.6372986 -1.8186493 -23.416565
3.646076 -2.7345552 -23.306849
3.6534951 -3.6534977 -23.214106
3.6645405 -4.580678 -23.076038
3.6852913 -5.5279369 -22.816654
3.7062681 -6.4859672 -22.554449
3.7302279 -7.4604568 -22.254946
3.7605762 -8.4612989 -21.875589
3.7939479 -9.4848709 -21.45845
3.8362327 -10.549641 -20.929888
3.8839538 -11.651861 -20.33337
3.9396658 -12.803913 -19.636976
4.0149627 -14.052369 -18.695761
4.1022205 -15.383327 -17.605038
4.2195673 -16.878271 -16.138208
4.388083 -18.649353 -14.031758
5.5499749 18.869913 -13.383046
5.3023891 16.967644 -15.858905
5.1546817 15.464046 -17.335976
5.0420403 14.117708 -18.462395
4.9470348 12.862289 -19.412451
4.8762164 11.702917 -20.120636
4.8127456 10.588039 -20.755342
4.7593932 9.5187874 -21.288862
4.7196779 8.4954205 -21.686014
4.6806068 7.4889684 -22.076729
4.6507773 6.5110874 -22.375023
4.6237955 5.5485535 -22.64484
4.599175 4.5991726 -22.891045
4.5841336 3.6673059 -23.041458
4.572917 2.7437506 -23.153625
4.5624404 1.8249722 -23.25839
4.5571303 0.91142654 -23.311495
4.5595446 -9.5367432e-07 -23.28735
4.5587311 -0.91174698 -23.295486
4.5639677 -1.8255873 -23.24312
4.5765715 -2.745944 -23.117081
4.5866423 -3.6693134 -23.016373
4.6042018 -4.6042032 -22.840778
4.627665 -5.5531998 -22.606144
4.6513691 -6.5119162 -22.369108
4.6815877 -7.4905386 -22.066925
4.7244449 -8.5040026 -21.638346
4.7680945 -9.5361919 -21.201849
4.8222647 -10.608981 -20.660152
4.8852763 -11.724662 -20.030035
4.9602866 -12.896745 -19.27993
5.0527906 -14.147816 -18.354891
5.1679425 -15.503827 -17.203373
5.3254299 -17.041376 -15.628495
5.5772905 -18.962788 -13.109893
6.8304157 19.35284 -11.962671
6.4505901 17.201571 -15.12788
6.2524757 15.631187 -16.778835
6.0986805 14.230251 -18.060455
5.982811 12.962755 -19.026037
5.8917737 11.783546 -19.784681
5.8158236 10.662342 -20.417597
5.7506647 9.5844402 -20.960592
5.6971507 8.5457268 -21.40654
5.6469517 7.5292673 -21.824867
5.6102333 6.5452719 -22.13085
5.5783529 5.5783539 -22.396519
5.54881 4.6240082 -22.642715
5.5295515 3.686368 -22.8032
5.5159674 2.7579832 -22.916401
5.5032649 1.8344193 -23.022255
5.4919014 0.91531754 -23.116947
5.4923859 -2.8610229e-06 -23.112913
5.4941206 -0.91568947 -23.098457
5.5015402 -1.833848 -23.036629
5.5132427 -2.7566223 -22.939106
5.5278893 -3.6852598 -22.817049
5.5539646 -4.6283054 -22.599754
5.5824175 -5.5824165 -22.362652
5.6145887 -6.550354 -22.094557
5.6536975 -7.5382643 -21.76865
5.7030401 -8.5545607 -21.357462
5.7532692 -9.5887814 -20.938887
5.8241735 -10.677652 -20.348015
5.9051433 -11.810286 -19.673271
5.9992981 -12.998479 -18.888641
6.1148653 -14.268019 -17.925587
6.2723999 -15.681001 -16.612799
6.4978461 -17.327589 -14.734082
6.9226851 -19.614277 -11.193751
7.6991167 17.597984 -13.889101
7.4041681 15.866072 -15.995885
7.2060981 14.412194 -17.410669
7.0499101 13.09269 -18.526297
6.9317088 11.88293 -19.37059
6.8346972 10.740236 -20.06353
6.7560496 9.6514969 -20.625298
6.6930628 8.6053648 -21.075205
6.6303215 7.5775104 -21.523354
6.5867424 6.5867419 -21.834637
6.5516109 5.6156645 -22.085577
6.5163808 4.6545572 -22.337219
6.4923048 3.7098875 -22.50919
6.4733324 2.7742853 -22.644705
6.4544888 1.844141 -22.779305
6.4459381 0.92084599 -22.84038
6.4478202 -0 -22.826941
6.452271 -0.92175484 -22.795151
6.460875 -1.8459644 -22.733685
6.4749885 -2.7749977 -22.632879
6.4899859 -3.7085657 -22.525755
6.516211 -4.654438 -22.338432
6.5545845 -5.6182141 -22.064335
6.5933933 -6.5933924 -21.78713
6.6411114 -7.5898414 -21.446287
6.6987543 -8.6126833 -21.03455
6.7630067 -9.6614389 -20.575605
6.8437705 -10.754497 -19.99872
6.9463286 -11.907994 -19.266167
7.0717306 -13.133215 -18.370436
7.2216439 -14.443288 -17.299623
7.435473 -15.933155 -15.772277
7.7486377 -17.711172 -13.535383
9.0820656 18.164129 -12.119888
8.6244688 16.170876 -14.979864
8.3490429 14.610824 -16.701281
8.1654367 13.268833 -17.848822
8.0131559 12.019733 -18.800573
7.8967562 10.858038 -19.528072
7.7949538 9.7436914 -20.164335
7.713635 8.6778355 -20.672577
7.6395683 7.6395679 -21.135494
7.5812373 6.6335831 -21.500065
7.5373363 5.6530008 -21.774445
7.4981747 4.6863594 -22.019203
7.4694605 3.7347279 -22.198673
7.4454613 2.7920456 -22.348661
7.4282546 1.8570633 -22.456203
7.4197135 0.92746353 -22.509586
7.4179177 -1.9073486e-06 -22.520813
7.4233713 -0.9279213 -22.486725
7.4328227 -1.8582067 -22.427654
7.4495544 -2.7935839 -22.32308
7.4708471 -3.735424 -22.189999
7.5002284 -4.6876421 -22.006371
7.5419512 -5.6564665 -21.745604
7.5886331 -6.6400547 -21.453836
7.6484871 -7.6484914 -21.07975
7.7212462 -8.6864014 -20.62501
7.8014016 -9.7517529 -20.124033
7.9108534 -10.877427 -19.439962
8.0348625 -12.052294 -18.664906
8.1884193 -13.306183 -17.705175
8.3838701 -14.671773 -16.483608
8.6664486 -16.249592 -14.717493
9.1800566 -18.360115 -11.50744
9.9651051 16.608511 -13.521098
9.5751581 14.894688 -15.687475
9.3314562 13.478766 -17.041376
9.142622 12.190163 -18.090454
8.9914894 10.989597 -18.93008
8.8670969 9.8523283 -19.621147
8.7746096 8.7746086 -20.134966
8.682991 7.7182131 -20.643959
8.6150675 6.7006063 -21.021311
8.564476 5.7096491 -21.302374
8.5133991 4.7296658 -21.586132
8.4780636 3.7680292 -21.78244
8.4488811 2.8162918 -21.944565
8.4265137 1.8725557 -22.068829
8.4161568 0.93512821 -22.126369
8.4141769 -0 -22.137371
8.4208546 -0.93565178 -22.100271
8.4327698 -1.873951 -22.034075
8.4533205 -2.8177738 -21.919907
8.4769716 -3.7675447 -21.788506
8.5150261 -4.7305689 -21.577093
8.5689859 -5.7126589 -21.277317
8.6259966 -6.7091088 -20.960592
8.6975918 -7.731194 -20.56284
8.7832308 -8.7832317 -20.08707
8.8775063 -9.8638973 -19.563318
9.012332 -11.015073 -18.814285
9.1517792 -12.202372 -18.039581
9.358532 -13.517881 -16.890953
9.598958 -14.931713 -15.555254
10.007627 -16.679382 -13.284867
11.602826 17.404238 -10.868667
10.912699 15.277775 -14.319304
10.57356 13.745627 -16.014996
10.311114 12.373334 -17.327225
10.141151 11.155264 -18.177044
9.9775658 9.9775639 -18.994968
9.8684931 8.8816433 -19.540331
9.7682981 7.8146377 -20.041306
9.6838522 6.778697 -20.463537
9.6162872 5.7697716 -20.801361
9.5591888 4.7795925 -21.086849
9.5174351 3.8069744 -21.295618
9.4861555 2.8458443 -21.452019
9.4560528 1.8912106 -21.602531
9.4394398 0.94394493 -21.6856
9.4428463 9.5367432e-07 -21.668566
9.4499722 -0.94499779 -21.632938
9.4647017 -1.8929424 -21.559288
9.4872456 -2.8461761 -21.446564
9.5111341 -3.8044548 -21.327122
9.5648432 -4.7824206 -21.058578
9.6239071 -5.7743444 -20.763258
9.6880789 -6.7816548 -20.442402
9.7738466 -7.8190775 -20.013565
9.8844662 -8.896019 -19.460464
10.00169 -10.00169 -18.874348
10.160873 -11.176962 -18.078428
10.348448 -12.418138 -17.14056
10.610058 -13.793077 -15.832508
10.973498 -15.3629 -14.015301
11.73902 -17.608532 -10.187696
12.535997 15.954906 -11.90099
11.946163 14.118192 -14.582051
11.592448 12.646305 -16.189852
11.356015 11.356014 -17.264544
11.160717 10.146108 -18.152264
11.018706 9.0153065 -18.797768
10.887092 7.9178829 -19.396019
10.788813 6.8656077 -19.842739
10.71164 5.8427134 -20.193521
10.637578 4.8352613 -20.530172
10.586837 3.8497572 -20.760811
10.557159 2.8792267 -20.89571
10.527617 1.9141111 -21.029995
10.503441 0.95485878 -21.139885
10.506963 -9.5367432e-07 -21.123875
10.504344 -0.9549427 -21.135778
10.523204 -1.9133091 -21.050053
10.561285 -2.880353 -20.876957
10.592222 -3.8517179 -20.736336
10.653007 -4.8422756 -20.460039
10.719522 -5.847014 -20.157696
10.799246 -6.8722506 -19.795315
10.908528 -7.933475 -19.298578
11.029657 -9.0242672 -18.74799
11.179255 -10.16296 -18.067997
11.383549 -11.38355 -17.139393
11.620684 -12.677109 -16.061506
11.986897 -14.166335 -14.396901
12.643812 -16.092127 -11.410921
13.573827 14.704977 -12.325182
13.016277 13.016277 -14.648304
12.674779 11.618546 -16.071217
12.419336 10.349445 -17.135565
12.229537 9.1721487 -17.926394
12.082648 8.0550966 -18.538429
11.951106 6.9714785 -19.086521
11.857901 5.9289479 -19.47488
11.778517 4.9077158 -19.805643
11.717193 3.9057302 -20.061163
11.671688 2.917922 -20.250763
11.62657 1.9377584 -20.438755
11.613703 0.96780872 -20.492367
11.621847 -0 -20.458435
11.623911 -0.96866035 -20.449837
11.646099 -1.9410172 -20.357386
11.682174 -2.9205456 -20.207073
11.713248 -3.904418 -20.077597
11.780097 -4.9083743 -19.799061
11.870985 -5.9354949 -19.420357
11.963324 -6.9786053 -19.035614
12.094228 -8.0628166 -18.490185
12.257212 -9.1929092 -17.811081
12.448278 -10.373567 -17.014969
12.71664 -11.656921 -15.896795
13.057735 -13.057735 -14.475566
13.628531 -14.764243 -12.097249
14.777696 13.640947 -12.045504
14.171179 11.990997 -14.378259
13.796486 10.61268 -15.819388
13.552911 9.382782 -16.756218
13.351661 8.216404 -17.530256
13.187943 7.1011992 -18.159939
13.076362 6.0352411 -18.589094
12.966694 4.9871907 -19.010891
12.88864 3.965734 -19.311106
12.846531 2.9645844 -19.473059
12.804698 1.9699516 -19.633957
12.782866 0.98329639 -19.717926
12.777167 -9.5367432e-07 -19.739849
12.772681 -0.98251438 -19.757101
12.799487 -1.9691525 -19.654001
12.853478 -2.966188 -19.446344
12.907966 -3.9716835 -19.236774
12.989359 -4.9959087 -18.923719
13.084991 -6.0392284 -18.555906
13.205593 -7.1107001 -18.092056
13.381041 -8.2344875 -17.417255
13.57098 -9.3952951 -16.686722
13.855197 -10.657844 -15.593576
14.220019 -12.032327 -14.190411
14.89449 -13.748762 -11.596294
16.06172 12.619922 -11.519509
15.423113 11.016507 -13.800251
15.033096 9.6641331 -15.193165
14.761469 8.4351254 -16.163267
14.539957 7.269978 -16.954376
14.388217 6.1663775 -17.496309
14.264315 5.0943975 -17.938816
14.167298 4.0477986 -18.285303
14.101452 3.0217376 -18.520468
14.036216 2.0051737 -18.753452
14.009505 1.0006781 -18.848846
14.016217 -0 -18.824879
14.02298 -1.0016422 -18.800726
14.056008 -2.0080013 -18.682766
14.106663 -3.0228572 -18.50186
14.159374 -4.0455356 -18.313604
14.272719 -5.0974002 -17.908798
14.405099 -6.1736169 -17.436014
14.548784 -7.2743931 -16.922852
14.790689 -8.4518242 -16.058907
15.048009 -9.6737204 -15.139909
15.508477 -11.077486 -13.495376
16.292297 -12.801094 -10.696018
16.869511 10.121706 -12.651094
16.404816 8.7492342 -14.200075
16.066149 7.4975348 -15.328966
15.851747 6.3406978 -16.043642
15.688083 5.2293587 -16.589188
15.545816 4.1455503 -17.063408
15.464888 3.0929766 -17.33317
15.402813 2.0537057 -17.540089
15.367117 1.0244761 -17.659069
15.358367 -0 -17.688242
15.349576 -1.0233049 -17.717545
15.397949 -2.053061 -17.556299
15.47917 -3.0958343 -17.285564
15.5612 -4.1496549 -17.012131
15.695888 -5.2319636 -16.563171
15.887065 -6.3548279 -15.925915
16.110006 -7.518002 -15.182773
16.459351 -8.7783203 -14.018295
16.934429 -10.16066 -12.434699
18.925329 9.4626646 -9.7411413
18.041998 7.8933744 -12.501552
17.599365 6.599761 -13.884782
17.341536 5.4192295 -14.690497
17.111883 4.2779694 -15.408165
17.02042 3.1913285 -15.693979
16.929932 2.1162386 -15.976756
16.875336 1.054708 -16.147369
16.863731 -0 -16.18364
16.868757 -1.054297 -16.167931
16.925093 -2.1156383 -15.991883
17.039684 -3.194942 -15.633783
17.159155 -4.2897906 -15.260437
17.370844 -5.428391 -14.598903
17.664389 -6.6241446 -13.681581
18.089598 -7.9142008 -12.352799
19.327318 -9.6636581 -8.4849272
19.719826 5.7999477 -10.883307
19.207514 4.5194149 -12.390113
18.966732 3.3470688 -13.09829
18.813721 2.2133789 -13.548325
18.714165 1.1008325 -13.841135
18.694342 -1.9073486e-06 -13.899438
18.699774 -1.0999904 -13.883463
18.806412 -2.2125187 -13.569818
19.010098 -3.354723 -12.970745
19.248802 -4.5291328 -12.26867
19.856958 -5.8402815 -10.479977
