# .PCD v0.7 - Point Cloud Data file format
VERSION 0.7
FIELDS x y z
SIZE 4 4 4
TYPE F F F
COUNT 1 1 1
WIDTH 1062
HEIGHT 1
VIEWPOINT 0 0 0 1 0 0 0
POINTS 1062
DATA ascii
-23.563671 1.2401948 -6.8731332
-23.289135 -3.5762787e-06 -7.5956001
-23.065643 -1.2139807 -8.1837358
-21.586613 7.1955366 -8.9199829
-20.798031 5.7772274 -11.110492
-20.333797 4.5186195 -12.400028
-20.129107 3.3548512 -12.968611
-19.981632 2.2201805 -13.378258
-19.884716 1.1047068 -13.647476
-19.866507 -1.9073486e-06 -13.698053
-19.889427 -1.1049676 -13.634389
-19.976397 -2.2196002 -13.392807
-20.169125 -3.3615212 -12.85745
-20.395868 -4.5324163 -12.227605
-20.864475 -5.7956862 -10.92592
-22.120598 -7.3735352 -7.4366932
-19.9359 9.3816004 -10.247795
-19.216419 7.9126444 -12.363918
-18.789167 6.6314716 -13.620535
-18.536377 5.4518733 -14.364042
-18.302351 4.3064346 -15.052353
-18.208179 3.2132096 -15.329321
-18.116415 2.1313434 -15.599222
-18.030914 1.0606394 -15.850691
-18.026934 -1.9073486e-06 -15.8624
-18.049952 -1.0617623 -15.794704
-18.106581 -2.1301866 -15.628145
-18.214727 -3.2143631 -15.310068
-18.350296 -4.3177152 -14.911342
-18.56109 -5.4591446 -14.291351
-18.850929 -6.6532726 -13.438887
-19.257 -7.9293556 -12.244559
-20.060387 -9.4401836 -9.8816586
-19.044884 11.903052 -9.3675327
-18.067194 10.162796 -12.422813
-17.604361 8.8021784 -13.869172
-17.273821 7.5572934 -14.902107
-17.039742 6.3899021 -15.633606
-16.870306 5.2719698 -16.163092
-16.728138 4.1820316 -16.607365
-16.622297 3.1166792 -16.938114
-16.549055 2.0686283 -17.166998
-16.510902 1.03193 -17.286228
-16.495615 -9.5367432e-07 -17.333998
-16.517681 -1.0323567 -17.265041
-16.563108 -2.0703893 -17.123081
-16.630243 -3.1181712 -16.913288
-16.724823 -4.1812053 -16.617722
-16.881145 -5.2753596 -16.129215
-17.071716 -6.4018917 -15.533684
-17.300924 -7.5691524 -14.817408
-17.657242 -8.82862 -13.703916
-18.138922 -10.203145 -12.198668
-19.360455 -12.100286 -8.3813753
-17.294189 12.682403 -11.2355
-16.652681 11.101786 -13.373857
-16.230469 9.7382784 -14.781235
-15.946209 8.5046434 -15.728765
-15.704057 7.3285604 -16.535938
-15.543964 6.2175846 -17.069584
-15.421216 5.1404057 -17.478745
-15.322049 4.0858779 -17.809296
-15.249928 3.0499854 -18.049698
-15.185217 2.0246973 -18.265408
-15.148573 1.009901 -18.387556
-15.153947 -3.8146973e-06 -18.369642
-15.169374 -1.0112944 -18.318214
-15.203917 -2.0271912 -18.203074
-15.25229 -3.0504575 -18.041832
-15.314029 -4.0837431 -17.836031
-15.427426 -5.142477 -17.458048
-15.559245 -6.2236977 -17.018646
-15.731487 -7.341362 -16.444504
-15.975232 -8.5201235 -15.632023
-16.255445 -9.7532673 -14.697979
-16.718718 -11.14581 -13.15374
-17.432331 -12.783711 -10.775024
-15.993872 13.709034 -11.761826
-15.369555 12.076077 -13.991531
-14.988487 10.70606 -15.352482
-14.720523 9.463191 -16.309498
-14.522243 8.2984238 -17.017647
-14.337806 7.1689 -17.676348
-14.221766 6.0950394 -18.090775
-14.112671 5.0402393 -18.480398
-14.024507 4.0070014 -18.795269
-13.979037 2.9955082 -18.957664
-13.934549 1.9906492 -19.116547
-13.8987 0.99276543 -19.244583
-13.90492 -0 -19.22237
-13.901443 -0.99295807 -19.234783
-13.929768 -1.9899683 -19.133631
-13.980642 -2.9958539 -18.951935
-14.032281 -4.0092258 -18.767504
-14.131129 -5.046834 -18.414478
-14.239339 -6.1025739 -18.028011
-14.370915 -7.1854591 -17.558102
-14.545589 -8.3117657 -16.934261
-14.740027 -9.4757309 -16.239841
-15.027933 -10.734239 -15.211608
-15.442249 -12.133197 -13.731909
-16.110826 -13.809278 -11.344137
-14.79264 14.79264 -11.988025
-14.210938 13.117788 -14.225342
-13.855105 11.723549 -15.593929
-13.596029 10.458484 -16.590376
-13.390205 9.2701416 -17.382008
-13.231485 8.1424522 -17.992466
-13.090355 7.0486503 -18.535278
-12.986134 5.9936008 -18.936129
-12.898892 4.9611139 -19.271671
-12.83211 3.9483433 -19.528526
-12.783688 2.9500818 -19.714771
-12.735588 1.9593182 -19.899763
-12.718746 0.97836304 -19.964542
-12.727646 -0 -19.930309
-12.731286 -0.97932911 -19.916306
-12.755897 -1.9624453 -19.821655
-12.795572 -2.9528255 -19.669058
-12.830419 -3.9478226 -19.535032
-12.904941 -4.963439 -19.248411
-12.99626 -5.9982753 -18.897182
-13.093797 -7.0505056 -18.522041
-13.245645 -8.1511669 -17.938007
-13.414333 -9.2868481 -17.289206
-13.62197 -10.478437 -16.490604
-13.90068 -11.762113 -15.418647
-14.281325 -13.182763 -13.954617
-14.917912 -14.917914 -11.506214
-13.784585 16.082014 -11.447026
-13.144758 14.240151 -14.112975
-12.773 12.772999 -15.661961
-12.52848 11.48444 -16.680796
-12.307798 10.256498 -17.600302
-12.153831 9.1153717 -18.241833
-12.01349 8.0089912 -18.826591
-11.897573 6.9402514 -19.309574
-11.817696 5.9088464 -19.642399
-11.741988 4.8924961 -19.957846
-11.683835 3.8946114 -20.20015
-11.648839 2.9122076 -20.345966
-11.616882 1.9361448 -20.479122
-11.60083 0.96673393 -20.546005
-11.596406 -9.5367432e-07 -20.564436
-11.591951 -0.96599483 -20.583004
-11.612132 -1.935358 -20.498913
-11.653057 -2.9132633 -20.328392
-11.694272 -3.8980894 -20.156662
-11.753101 -4.8971272 -19.911543
-11.83004 -5.9150167 -19.590965
-11.917583 -6.9519243 -19.226202
-12.036741 -8.0244961 -18.729706
-12.168499 -9.1263752 -18.180717
-12.34056 -10.283802 -17.463797
-12.553201 -11.507101 -16.577797
-12.828627 -12.828627 -15.430189
-13.193977 -14.293476 -13.90789
-13.913559 -16.232487 -10.909634
-12.903933 17.596272 -10.228558
-12.14535 15.457717 -13.67666
-11.766218 13.90553 -15.399987
-11.486602 12.530837 -16.670973
-11.288373 11.288371 -17.572008
-11.113277 10.102978 -18.367897
-10.981654 8.9849892 -18.966187
-10.873481 7.9079847 -19.457884
-10.779745 6.8598375 -19.883953
-10.705907 5.8395844 -20.219585
-10.639528 4.8361492 -20.521307
-10.593743 3.8522692 -20.729418
-10.558608 2.8796206 -20.889126
-10.527335 1.9140596 -21.031277
-10.51336 0.95575905 -21.094799
-10.516014 -1.9073486e-06 -21.082729
-10.519764 -0.95634174 -21.065685
-10.536014 -1.9156408 -20.991827
-10.563334 -2.880909 -20.867643
-10.597739 -3.8537216 -20.711254
-10.649129 -4.8405151 -20.477665
-10.713456 -5.8437014 -20.185272
-10.778564 -6.8590856 -19.889322
-10.880667 -7.9132147 -19.42522
-10.998987 -8.9991722 -18.8874
-11.128264 -10.116607 -18.299774
-11.311168 -11.311171 -17.468397
-11.508671 -12.554918 -16.570656
-11.806086 -13.952647 -15.218769
-12.194342 -15.520069 -13.453974
-13.151778 -17.934246 -9.1019859
-11.18758 16.781368 -12.944897
-10.757056 15.05988 -15.097511
-10.497613 13.646898 -16.394728
-10.277001 12.332399 -17.497784
-10.117368 11.129103 -18.295959
-9.9686956 9.9686966 -19.039318
-9.8667688 8.8800907 -19.54895
-9.7685356 7.8148303 -20.040115
-9.6897125 6.7827959 -20.434235
-9.6344814 5.7806878 -20.71039
-9.5798759 4.7899389 -20.983414
-9.5400057 3.8160028 -21.18277
-9.5086622 2.8526001 -21.339487
-9.4844503 1.8968887 -21.460545
-9.4733105 0.94733047 -21.516243
-9.4700766 -9.5367432e-07 -21.53241
-9.473032 -0.94730377 -21.517639
-9.4872179 -1.8974457 -21.446709
-9.5115843 -2.8534737 -21.324875
-9.5396662 -3.8158684 -21.184467
-9.5807037 -4.7903514 -20.97928
-9.6419573 -5.7851763 -20.67301
-9.7048197 -6.7933745 -20.3587
-9.7857637 -7.8286085 -19.953979
-9.880764 -8.8926849 -19.478977
-9.9916286 -9.9916296 -18.924648
-10.138116 -11.151928 -18.192215
-10.302795 -12.363356 -17.368816
-10.529452 -13.688287 -16.235537
-10.82184 -15.150577 -14.773593
-11.27072 -16.906082 -12.529194
-10.346341 18.393497 -11.403119
-9.8375406 16.395903 -14.229792
-9.5236197 14.81452 -15.973798
-9.3114777 13.449911 -17.152369
-9.1375742 12.183432 -18.118494
-9.0029755 11.003635 -18.866264
-8.8841496 9.8712749 -19.526409
-8.7941914 8.7941914 -20.02618
-8.7128458 7.7447486 -20.4781
-8.6485338 6.7266374 -20.835384
-8.5951777 5.7301178 -21.131811
-8.5424747 4.74582 -21.424599
-8.5111227 3.7827196 -21.59878
-8.4902163 2.8300724 -21.71493
-8.4694366 1.8820972 -21.830372
-8.4597893 0.93997574 -21.883968
-8.4569483 9.5367432e-07 -21.899748
-8.4562578 -0.93958473 -21.903589
-8.4677773 -1.8817301 -21.839588
-8.4931288 -2.8310432 -21.698748
-8.5198603 -3.7866049 -21.550241
-8.5555458 -4.7530828 -21.351986
-8.6021204 -5.7347474 -21.093237
-8.6518412 -6.7292089 -20.817015
-8.7217388 -7.7526569 -20.428688
-8.8026104 -8.8026123 -19.979404
-8.8870945 -9.8745489 -19.510052
-9.015193 -11.018569 -18.798389
-9.1486568 -12.198211 -18.056923
-9.3322382 -13.479899 -17.037029
-9.5417528 -14.842728 -15.873056
-9.8749371 -16.458229 -14.022038
-10.427843 -18.538387 -10.950336
-8.9352474 17.870491 -13.037502
-8.5813799 16.090082 -15.24918
-8.3430634 14.600359 -16.738649
-8.1723824 13.280121 -17.805405
-8.0314035 12.047106 -18.686523
-7.9217582 10.892416 -19.371809
-7.8209057 9.7761326 -20.002136
-7.7518635 8.7208462 -20.433647
-7.6840525 7.6840525 -20.857471
-7.6288381 6.6752329 -21.202557
-7.5842299 5.6881733 -21.481359
-7.5447803 4.7154856 -21.727922
-7.5170465 3.7585211 -21.90126
-7.4943337 2.8103752 -22.043209
-7.4717579 1.867938 -22.184311
-7.4650421 0.93313026 -22.226284
-7.4674888 -1.9073486e-06 -22.210991
-7.4699154 -0.93374062 -22.195826
-7.479876 -1.8699713 -22.133572
-7.4975853 -2.811594 -22.022886
-7.5155544 -3.7577791 -21.910583
-7.5462174 -4.7163858 -21.718939
-7.5880742 -5.6910563 -21.457333
-7.6333623 -6.6791916 -21.174284
-7.6893535 -7.6893535 -20.824335
-7.7621698 -8.7324429 -20.369232
-7.8378339 -9.7972946 -19.896332
-7.9387589 -10.915794 -19.265551
-8.0534353 -12.080155 -18.548822
-8.1980667 -13.321859 -17.64488
-8.3735628 -14.653738 -16.548025
-8.622303 -16.166819 -14.993404
-8.996789 -17.99358 -12.652864
-8.1341476 19.754358 -10.781739
-7.6606312 17.510012 -14.164004
-7.409842 15.878231 -15.955352
-7.2269955 14.453991 -17.261395
-7.0861888 13.160065 -18.26716
-6.974112 11.955619 -19.067711
-6.8791308 10.810062 -19.746149
-6.7991552 9.7130775 -20.317402
-6.7361512 8.6607647 -20.767431
-6.674284 7.6277537 -21.209335
-6.6297951 6.6297936 -21.527117
-6.5953431 5.6531506 -21.773205
-6.5612278 4.6865902 -22.01688
-6.5376549 3.7358007 -22.185259
-6.5196624 2.7941389 -22.313782
-6.5046959 1.8584814 -22.420681
-6.4979982 0.92828465 -22.468525
-6.4959373 -9.5367432e-07 -22.483246
-6.4957685 -0.92796612 -22.484449
-6.5042458 -1.8583565 -22.423899
-6.5204167 -2.794466 -22.308388
-6.5395722 -3.7368994 -22.17157
-6.5642872 -4.6887779 -21.995033
-6.5997872 -5.6569624 -21.741459
-6.6389389 -6.6389389 -21.461803
-6.6865864 -7.6418133 -21.121466
-6.7435923 -8.670332 -20.714281
-6.8048649 -9.7212343 -20.276617
-6.8902187 -10.827488 -19.666948
-6.9811139 -11.967623 -19.017696
-7.1001477 -13.185989 -18.167456
-7.2390947 -14.478191 -17.174974
-7.4343929 -15.930844 -15.779987
-7.705595 -17.612789 -13.842829
-8.2592802 -20.058254 -9.8879347
-6.7819076 19.215408 -12.366894
-6.4691324 17.25102 -14.973363
-6.2819295 15.704823 -16.533384
-6.1371379 14.319983 -17.739986
-6.0255451 13.055347 -18.669922
-5.9337053 11.867411 -19.435253
-5.8593078 10.742062 -20.055237
-5.7926197 9.6543655 -20.610966
-5.7404928 8.6107388 -21.045359
-5.6934891 7.5913172 -21.437052
-5.6564136 6.5991502 -21.746017
-5.6241064 5.6241064 -22.015244
-5.5923443 4.660284 -22.27993
-5.5742307 3.7161541 -22.430874
-5.5614672 2.7807322 -22.537235
-5.5487623 1.8495874 -22.643112
-5.5431552 0.92385769 -22.689837
-5.5414057 9.5367432e-07 -22.704418
-5.5418506 -0.92364216 -22.70071
-5.5486822 -1.8495626 -22.64378
-5.56323 -2.7816133 -22.522549
-5.5794973 -3.7196655 -22.386982
-5.6002426 -4.6668682 -22.214108
-5.6285162 -5.6285172 -21.978495
-5.6570764 -6.5999236 -21.740492
-5.6961427 -7.5948563 -21.414942
-5.7460785 -8.6191168 -20.99881
-5.7983422 -9.6639051 -20.563276
-5.8674083 -10.756916 -19.987724
-5.9457822 -11.891565 -19.33461
-6.038868 -13.084215 -18.558895
-6.1562538 -14.364594 -17.580681
-6.3059726 -15.764935 -16.333019
-6.504631 -17.345684 -14.677536
-6.8331709 -19.360649 -11.939707
-5.5577574 18.896374 -13.305222
-5.3370347 17.07851 -15.512449
-5.1930599 15.579178 -16.952198
-5.0819931 14.229581 -18.062864
-4.9886127 12.970392 -18.996672
-4.9178696 11.802885 -19.704102
-4.8550448 10.6811 -20.332346
-4.8012147 9.6024265 -20.870653
-4.7615056 8.5707083 -21.267738
-4.7226977 7.5563135 -21.655817
-4.6924548 6.569437 -21.958252
-4.6678028 5.6013632 -22.204765
-4.644897 4.6448975 -22.433825
-4.629436 3.7035446 -22.588436
-4.6162615 2.7697573 -22.720184
-4.6031485 1.8412571 -22.851313
-4.5994773 0.91989422 -22.888023
-4.6008844 9.5367432e-07 -22.873951
-4.6022925 -0.92045975 -22.859871
-4.6078935 -1.8431568 -22.803858
-4.6182222 -2.770936 -22.700573
-4.6285968 -3.7028809 -22.596825
-4.6451521 -4.645153 -22.431274
-4.669713 -5.6036568 -22.185665
-4.6959877 -6.5743833 -21.92292
-4.7271099 -7.5633755 -21.6117
-4.7670774 -8.5807419 -21.212021
-4.8102422 -9.6204853 -20.780375
-4.8653941 -10.70387 -20.228855
-4.9268737 -11.824499 -19.614054
-5.0023065 -13.005998 -18.859734
-5.0918026 -14.25705 -17.964767
-5.2104807 -15.631443 -16.777988
-5.3598247 -17.15144 -15.28455
-5.5944319 -19.02107 -12.938477
-4.7266245 21.269812 -9.7999887
-4.4023843 18.710133 -13.852995
-4.2388663 16.955462 -15.896969
-4.129447 15.485424 -17.264711
-4.0433116 14.15159 -18.341402
-3.9744408 12.91693 -19.202288
-3.9189649 11.756893 -19.895737
-3.8706174 10.644198 -20.500078
-3.8295109 9.5737762 -21.013908
-3.7959166 8.5408134 -21.433834
-3.7631376 7.5262733 -21.843575
-3.7402861 6.5454979 -22.129223
-3.7219021 5.5828533 -22.35902
-3.7036872 4.6296101 -22.586704
-3.6915159 3.691515 -22.738848
-3.6819077 2.7614298 -22.85895
-3.6738062 1.8369017 -22.960217
-3.6702974 0.91757298 -23.004078
-3.6691885 -0 -23.017941
-3.6691778 -0.91729546 -23.01807
-3.6735966 -1.8367987 -22.962839
-3.6821184 -2.7615881 -22.856314
-3.6924689 -3.6924686 -22.726934
-3.7054358 -4.6317959 -22.56485
-3.7242925 -5.5864382 -22.329142
-3.7451828 -6.5540709 -22.068014
-3.7697275 -7.5394545 -21.7612
-3.800029 -8.5500679 -21.382431
-3.8309698 -9.5774231 -20.995674
-3.874182 -10.653999 -20.455523
-3.9219496 -11.76585 -19.858425
-3.9798844 -12.934624 -19.134243
-4.0530372 -14.185632 -18.21983
-4.1417499 -15.531561 -17.110926
-4.2522101 -17.008842 -15.730169
-4.4197059 -18.783751 -13.636477
-3.4761102 20.856661 -10.947623
-3.2742317 18.553974 -14.312274
-3.1595078 16.850704 -16.224339
-3.0798748 15.399376 -17.551548
-3.0202937 14.094702 -18.544569
-2.9686041 12.863948 -19.406063
-2.9289248 11.715698 -20.067383
-2.8939831 10.611269 -20.649744
-2.863589 9.5452976 -21.156313
-2.8396528 8.5189581 -21.555252
-2.817313 7.5128336 -21.927578
-2.8001618 6.5337105 -22.213428
-2.7847841 5.5695696 -22.46973
-2.7695899 4.615983 -22.722965
-2.7614625 3.6819496 -22.858423
-2.7553864 2.7553854 -22.959692
-2.7493367 1.8328886 -23.06052
-2.7467399 0.9155798 -23.103798
-2.745904 -1.9073486e-06 -23.117729
-2.7458649 -0.91529083 -23.118382
-2.7490861 -1.8327236 -23.064693
-2.7561965 -2.7561979 -22.94619
-2.7639289 -3.6852379 -22.817316
-2.77356 -4.6225986 -22.656796
-2.787051 -5.5741019 -22.431948
-2.8006656 -6.5348873 -22.205034
-2.8183904 -7.5157061 -21.909626
-2.8421354 -8.5264072 -21.513872
-2.8669221 -9.5564108 -21.100758
-2.8981879 -10.62669 -20.579666
-2.9348099 -11.73924 -19.969299
-2.9766858 -12.898973 -19.271364
-3.0288494 -14.13463 -18.40197
-3.0936217 -15.468111 -17.322433
-3.1741745 -16.928932 -15.979886
-3.2917581 -18.653296 -14.020164
-3.5284114 -21.170469 -10.075939
-2.2996716 20.697044 -11.391005
-2.1715021 18.457771 -14.59524
-2.100523 16.80418 -16.369722
-2.04846 15.363447 -17.671299
-2.0100644 14.07045 -18.631187
-1.9755281 12.840931 -19.494595
-1.9492284 11.695368 -20.152088
-1.9252076 10.58864 -20.752607
-1.9051323 9.5256596 -21.25449
-1.8897003 8.5036488 -21.640287
-1.8748604 7.4994416 -22.011284
-1.8635211 6.5223246 -22.294769
-1.8539772 5.5619326 -22.533367
-1.8450912 4.6127272 -22.755514
-1.8392233 3.6784468 -22.902218
-1.8341237 2.7511835 -23.029701
-1.8290473 1.8290462 -23.156612
-1.8277487 0.91387367 -23.189075
-1.8282939 -2.8610229e-06 -23.175449
-1.8288393 -0.91441917 -23.16181
-1.8309776 -1.8309784 -23.108356
-1.8349761 -2.7524633 -23.008396
-1.8390181 -3.6780357 -22.907339
-1.845377 -4.6134443 -22.748375
-1.8545755 -5.5637293 -22.518406
-1.8647683 -6.5266905 -22.263592
-1.876615 -7.5064616 -21.967419
-1.8918554 -8.5133505 -21.586412
-1.9083291 -9.5416451 -21.174564
-1.9290214 -10.60962 -20.657261
-1.9521252 -11.712751 -20.07967
-1.9797207 -12.868184 -19.389776
-2.0134282 -14.093999 -18.547089
-2.0543311 -15.407485 -17.524519
-2.106559 -16.85247 -16.218822
-2.1834059 -18.558952 -14.297648
-2.3266718 -20.940046 -10.716
-1.1436698 20.586056 -11.699305
-1.0841235 18.430099 -14.676621
-1.0482124 16.771399 -16.472172
-1.0224891 15.337333 -17.758345
-1.0037282 14.052195 -18.696384
-0.98705512 12.831717 -19.530039
-0.97395641 11.687475 -20.184977
-0.9623304 10.585632 -20.766279
-0.95243078 9.5243053 -21.261257
-0.94424582 8.4982128 -21.670506
-0.93624663 7.4899702 -22.070465
-0.93081194 6.5156841 -22.342201
-0.92633224 5.5579929 -22.566181
-0.92189556 4.6094751 -22.788021
-0.91897351 3.6758909 -22.934122
-0.91651344 2.7495384 -23.057129
-0.91451848 1.8290358 -23.156876
-0.91366947 0.91366673 -23.199327
-0.91339457 -9.5367432e-07 -23.213066
-0.9135527 -0.91355228 -23.205162
-0.91461718 -1.8292351 -23.151936
-0.91661257 -2.7498407 -23.052166
-0.91903389 -3.676136 -22.931107
-0.92218083 -4.6109047 -22.773758
-0.92688721 -5.5613217 -22.538437
-0.93197906 -6.5238533 -22.283842
-0.93788916 -7.5031171 -21.988337
-0.94527477 -8.507473 -21.619057
-0.95277476 -9.5277481 -21.244059
-0.96296388 -10.592602 -20.734606
-0.97486216 -11.698348 -20.139688
-0.98847395 -12.850161 -19.459097
-1.006157 -14.086199 -18.574947
-1.0256565 -15.384848 -17.599976
-1.0526215 -16.841944 -16.251722
-1.0896662 -18.524326 -14.399485
-1.158374 -20.850731 -10.964098
0 20.637318 -11.556906
0 18.425011 -14.691588
0 16.781456 -16.440744
0 15.345283 -17.731853
0 14.054476 -18.688246
0 12.822474 -19.565586
0 11.683868 -20.200003
0 10.584051 -20.773472
0 9.5229273 -21.26816
0 8.5002556 -21.659145
0 7.4966693 -22.028616
0 6.5201349 -22.31041
0 5.5581837 -22.564583
0 4.6066799 -22.815998
0 3.6750441 -22.944748
0 2.750268 -23.044985
0 1.8295126 -23.144917
0 0.9139061 -23.187391
0 9.5367432e-07 -23.201012
0 -0.91344833 -23.210476
0 -1.829031 -23.157005
0 -2.7509899 -23.03297
0 -3.6781645 -22.905766
0 -4.6134834 -22.747976
0 -5.5628939 -22.525351
0 -6.521493 -22.300705
0 -7.4997687 -22.009239
0 -8.5072479 -21.62031
0 -9.5346375 -21.209618
0 -10.601832 -20.692642
0 -11.708878 -20.095798
0 -12.861975 -19.413664
0 -14.087171 -18.571484
0 -15.385973 -17.596216
0 -16.839466 -16.259468
0 -18.526209 -14.393948
0 -20.857487 -10.945331
1.1507033 20.712662 -11.34763
1.0875453 18.488268 -14.505535
1.0511123 16.817797 -16.327187
1.0249933 15.374898 -17.633131
1.0057294 14.08021 -18.596325
0.98855287 12.851187 -19.455151
0.97530824 11.703699 -20.117382
0.96326935 10.595963 -20.719328
0.95311904 9.531189 -21.226845
0.94532472 8.5079222 -21.616562
0.937922 7.5033765 -21.986694
0.93226254 6.525835 -22.269669
0.92738128 5.5642853 -22.513729
0.92290276 4.6145134 -22.737658
0.91995329 3.6798105 -22.88513
0.91739386 2.7521791 -23.013103
0.91499949 1.8299971 -23.132824
0.91424829 0.91424751 -23.170383
0.91452104 -0 -23.156744
0.91479665 -0.91479778 -23.142967
0.91587442 -1.8317499 -23.089077
0.9178831 -2.7536507 -22.98864
0.92005062 -3.6802015 -22.880268
0.92321253 -4.6160631 -22.722172
0.92767006 -5.5660191 -22.499298
0.93275702 -6.5292983 -22.244944
0.93873996 -7.5099201 -21.945799
0.94642562 -8.5178308 -21.561516
0.95465994 -9.5465984 -21.149799
0.96506029 -10.615663 -20.629782
0.97667277 -11.720074 -20.04916
0.9903264 -12.874244 -19.366478
1.0073066 -14.102293 -18.517471
1.0277067 -15.415602 -17.497458
1.0547847 -16.876553 -16.143568
1.0932308 -18.584927 -14.221252
1.1671584 -21.008852 -10.524878
2.335062 21.015556 -10.506249
2.1864171 18.584545 -14.222366
2.1095417 16.876331 -16.144257
2.0562739 15.422054 -17.475952
2.0163739 14.114614 -18.473448
1.9823486 12.885263 -19.324081
1.9554937 11.73296 -19.995453
1.9318004 10.624902 -20.587784
1.9113383 9.5566902 -21.099339
1.8946788 8.5260544 -21.515823
1.8783072 7.5132289 -21.925112
1.8672621 6.5354176 -22.201244
1.8581842 5.5745535 -22.42819
1.849194 4.6229849 -22.652941
1.8432419 3.6864843 -22.801748
1.8381044 2.7571564 -22.930183
1.8339356 1.8339348 -23.034409
1.8321867 0.91609097 -23.078131
1.8317488 -1.9073486e-06 -23.089077
1.8323015 -0.91615391 -23.07526
1.8344687 -1.8344727 -23.02108
1.8385035 -2.7577534 -22.920208
1.8430045 -3.6860085 -22.807686
1.8494864 -4.6237173 -22.645636
1.8593115 -5.5779352 -22.400009
1.8696269 -6.5436935 -22.142124
1.8817174 -7.5268707 -21.839863
1.8967224 -8.5352497 -21.464741
1.9119629 -9.5598183 -21.083725
1.9330652 -10.631858 -20.556166
1.9576111 -11.745666 -19.942516
1.9859635 -12.908765 -19.233709
2.0220432 -14.154303 -18.331717
2.0624673 -15.468506 -17.32111
2.1192727 -16.954182 -15.900979
2.1994469 -18.695299 -13.896618
2.3789036 -21.410133 -9.4102058
3.6240897 21.744539 -8.4812984
3.309371 18.753099 -13.726613
3.1864209 16.994246 -15.775779
3.1004767 15.502381 -17.208185
3.0388308 14.18121 -18.235613
2.9831147 12.926829 -19.164219
2.9413548 11.765416 -19.860218
2.9058027 10.654608 -20.452751
2.8746986 9.5823278 -20.971149
2.8506107 8.5518293 -21.372616
2.8276765 7.5404701 -21.754852
2.8099496 6.5565462 -22.050301
2.7942297 5.588459 -22.3123
2.778893 4.6314859 -22.567917
2.7707584 3.6943426 -22.703491
2.7645779 2.7645769 -22.806499
2.7584248 1.8389502 -22.909046
2.7557638 0.91858673 -22.953402
2.7549303 -2.8610229e-06 -22.967293
2.7540894 -0.91803169 -22.981306
2.7574794 -1.8383207 -22.924805
2.7652588 -2.7652588 -22.795151
2.7730823 -3.6974449 -22.664761
2.782954 -4.638258 -22.500235
2.7967148 -5.5934286 -22.270885
2.810637 -6.5581541 -22.038849
2.8289609 -7.5438943 -21.733448
2.8531296 -8.5593891 -21.330635
2.8786843 -9.5956144 -20.904724
2.9116652 -10.676105 -20.355042
2.948631 -11.794525 -19.738947
2.99211 -12.965811 -19.014296
3.0447919 -14.209027 -18.136265
3.1105857 -15.552933 -17.0397
3.1947927 -17.038897 -15.63625
3.328378 -18.860809 -13.409832
4.4678097 18.988188 -13.035175
4.2793784 17.11751 -15.390565
4.1621308 15.607987 -16.856159
4.0747185 14.261517 -17.948811
4.0019817 13.00644 -18.858021
3.9436002 11.830799 -19.587793
3.8928216 10.705259 -20.222527
3.8484812 9.6212025 -20.776779
3.8148487 8.5834084 -21.197189
3.7840443 7.5680895 -21.582239
3.7600052 6.5800066 -21.882732
3.7394276 5.6091404 -22.13995
3.7206647 4.6508284 -22.374485
3.7080505 3.7080498 -22.532166
3.6973791 2.7730341 -22.665558
3.6879835 1.8439913 -22.783003
3.6843841 0.92109585 -22.827995
3.6854284 -0 -22.814939
3.686579 -0.92164421 -22.80056
3.6911666 -1.8455849 -22.743214
3.699568 -2.7746773 -22.638195
3.7089589 -3.7089586 -22.520809
3.7223215 -4.6529016 -22.353775
3.7407858 -5.6111798 -22.122974
3.7619281 -6.583374 -21.858696
3.7876742 -7.5753479 -21.536869
3.8199315 -8.5948448 -21.133652
3.8542886 -9.6357231 -20.704189
3.8991652 -10.722705 -20.143232
3.948148 -11.844445 -19.530949
4.0071769 -13.023326 -18.793089
4.0844541 -14.295588 -17.827124
4.1816678 -15.681255 -16.611946
4.3033261 -17.213306 -15.091221
4.4999671 -19.124859 -12.633206
5.6902819 19.346956 -11.97998
5.4216766 17.349363 -14.66603
5.2567286 15.770185 -16.315512
5.1301298 14.364363 -17.581499
5.0341215 13.088715 -18.541578
4.9587584 11.901018 -19.295218
4.8950701 10.769152 -19.932098
4.8381557 9.6763115 -20.501242
4.7938766 8.6289787 -20.944029
4.7503867 7.6006179 -21.378929
4.7194567 6.6072383 -21.688227
4.6955352 5.6346426 -21.927441
4.6718688 4.6718664 -22.164106
4.655756 3.7246046 -22.325233
4.6422973 2.7853765 -22.459818
4.6309547 1.8523808 -22.57325
4.6261487 0.92522907 -22.621307
4.6253242 -2.8610229e-06 -22.629555
4.6267738 -0.92535591 -22.615059
4.6326079 -1.8530426 -22.556715
4.6431952 -2.7859173 -22.450848
4.6547732 -3.7238188 -22.335064
4.6725202 -4.6725197 -22.157597
4.6987848 -5.6385436 -21.894945
4.7260127 -6.616416 -21.622667
4.7589569 -7.6143332 -21.293228
4.7987518 -8.6377544 -20.895279
4.8393774 -9.6787567 -20.489019
4.900496 -10.781092 -19.877834
4.966671 -11.920012 -19.216087
5.0478449 -13.124398 -18.404345
5.1453528 -14.406989 -17.429268
5.2741132 -15.822341 -16.141668
5.4418087 -17.413784 -14.464709
5.743536 -19.528021 -11.447435
7.1090961 20.142435 -9.6403303
6.6053381 17.614235 -13.838309
6.3818145 15.954534 -15.701014
6.218627 14.51013 -17.060905
6.0940423 13.203758 -18.09911
5.9923916 11.984781 -18.946201
5.9094443 10.833981 -19.637426
5.8392496 9.7320814 -20.222382
5.7882442 8.6823654 -20.647429
5.7386842 7.6515775 -21.060432
5.698967 6.6487918 -21.391405
5.6651759 5.6651745 -21.672997
5.6317668 4.6931391 -21.951408
5.6135931 3.7423935 -22.102856
5.600389 2.8001919 -22.212887
5.5872631 1.862422 -22.322269
5.5813522 0.93022346 -22.371529
5.579546 -1.9073486e-06 -22.38658
5.5777574 -0.92962742 -22.401489
5.5854049 -1.8618021 -22.337757
5.6020141 -2.8010101 -22.199348
5.618722 -3.7458162 -22.06011
5.6406174 -4.7005148 -21.877651
5.6701164 -5.670115 -21.631828
5.6999426 -6.6499343 -21.383272
5.7403045 -7.6537423 -21.046923
5.7948799 -8.692318 -20.592133
5.8504844 -9.7508078 -20.128761
5.9263296 -10.864937 -19.496716
6.0069132 -12.013824 -18.825188
6.1084232 -13.234919 -17.979263
6.2298222 -14.536254 -16.967611
6.4059925 -16.014982 -15.499528
6.6529942 -17.741318 -13.441178
7.2617269 -20.574894 -8.3684072
7.8935676 18.042442 -12.500165
7.5590715 16.198009 -14.889427
7.3334265 14.666851 -16.501179
7.186008 13.345444 -17.554171
7.0608697 12.104346 -18.448013
6.961225 10.939066 -19.159763
6.8694601 9.8135138 -19.81522
6.801311 8.7445412 -20.302006
6.7404242 7.7033429 -20.736908
6.6926455 6.6926441 -21.078186
6.6541362 5.7035437 -21.353249
6.6182261 4.7273035 -21.609756
6.5931039 3.7674856 -21.789196
6.5728092 2.8169174 -21.934155
6.5540128 1.8725739 -22.06842
6.5473075 0.93532848 -22.116314
6.5494771 -1.9073486e-06 -22.100811
6.5516295 -0.93594742 -22.08544
6.5606742 -1.8744764 -22.02084
6.5766668 -2.818572 -21.906605
6.5941076 -3.7680616 -21.782028
6.6203651 -4.7288327 -21.594473
6.656673 -5.7057214 -21.335135
6.6980777 -6.6980777 -21.039385
6.7499971 -7.714282 -20.668533
6.8109751 -8.7569695 -20.232975
6.8767576 -9.8239403 -19.763098
6.9683523 -10.950268 -19.108852
7.0660076 -12.113158 -18.411312
7.2042079 -13.379247 -17.424168
7.3622336 -14.724468 -16.295408
7.5913959 -16.267275 -14.65854
7.9508185 -18.1733 -12.091237
9.381258 18.762518 -10.249932
8.8143845 16.526972 -13.792892
8.5167418 14.9043 -15.653159
8.3194466 13.519101 -16.88625
8.1510887 12.226631 -17.938494
8.0345116 11.047452 -18.667099
7.9245377 9.9056721 -19.354435
7.8451896 8.8258381 -19.850359
7.7692204 7.7692194 -20.325165
7.7080464 6.7445407 -20.707504
7.66292 5.7471905 -20.989546
7.621273 4.7632961 -21.24984
7.5915422 3.7957697 -21.435656
7.5681782 2.8380651 -21.581688
7.549005 1.887249 -21.701511
7.540051 0.94250584 -21.757475
7.5374465 -1.9073486e-06 -21.773754
7.5393887 -0.94242573 -21.761616
7.5500231 -1.8875055 -21.695147
7.5685339 -2.8382015 -21.57946
7.5919003 -3.7959509 -21.433418
7.6251101 -4.7656941 -21.225857
7.6704311 -5.7528238 -20.942602
7.7185378 -6.7537227 -20.641933
7.7801142 -7.7801132 -20.257082
7.8510036 -8.8323774 -19.814026
7.9351625 -9.9189529 -19.288033
8.05268 -11.072434 -18.553543
8.175601 -12.263403 -17.785294
8.3428745 -13.557171 -16.73983
8.5395098 -14.944143 -15.510859
8.8598223 -16.612167 -13.508907
9.4840326 -18.968065 -9.6075935
10.213037 17.021727 -12.143702
9.7731781 15.20272 -14.587366
9.5132666 13.741383 -16.031319
9.3051653 12.406887 -17.187433
9.1546421 11.189007 -18.023672
9.0117998 10.013109 -18.817245
8.9168339 8.916832 -19.34483
8.8321095 7.8507628 -19.815523
8.7600403 6.8133655 -20.215904
8.702714 5.8018098 -20.534386
8.6461325 4.8034058 -20.848724
8.6095362 3.8264599 -21.052044
8.5874557 2.862484 -21.174709
8.5655136 1.9034472 -21.296606
8.5550156 0.95055485 -21.354935
8.5520344 9.5367432e-07 -21.371492
8.5520086 -0.95022488 -21.371635
8.5654135 -1.9034243 -21.297169
8.5918636 -2.8639536 -21.150225
8.6198359 -3.8310385 -20.994822
8.6587725 -4.8104291 -20.778503
8.7085228 -5.8056836 -20.502113
8.7588749 -6.8124571 -20.222382
8.8389559 -7.8568492 -19.777489
8.9328394 -8.9328384 -19.255913
9.0338078 -10.037563 -18.694979
9.1708755 -11.208849 -17.933493
9.3135729 -12.418098 -17.140724
9.5449924 -13.787213 -15.855061
9.8208618 -15.2769 -14.322447
10.277251 -17.12875 -11.786956
11.177593 15.648629 -12.994827
10.797659 14.036954 -14.894503
10.50049 12.600588 -16.380341
10.325274 11.357799 -17.256432
10.159046 10.159044 -18.087568
10.038065 9.0342598 -18.692472
9.925499 7.9403977 -19.255299
9.8348379 6.8843837 -19.708611
9.7750044 5.8650007 -20.007774
9.7158642 4.8579302 -20.303471
9.6717463 3.8686962 -20.524067
9.6386652 2.8915997 -20.689468
9.6058102 1.9211597 -20.853743
9.5935555 0.95935345 -20.915022
9.5970163 9.5367432e-07 -20.897713
9.6005096 -0.96005058 -20.880249
9.616086 -1.9232178 -20.802366
9.6421881 -2.8926563 -20.671852
9.6684036 -3.8673654 -20.540777
9.7157183 -4.8578615 -20.304207
9.7832947 -5.8699775 -19.966326
9.8518476 -6.8962932 -19.623558
9.9445448 -7.955637 -19.16007
10.046494 -9.0418453 -18.65033
10.174044 -10.174046 -18.012577
10.348747 -11.383625 -17.139059
10.548711 -12.658451 -16.139246
10.822641 -14.069435 -14.769588
11.255269 -15.757376 -12.606452
12.960385 16.495035 -9.9719515
12.193837 14.410896 -13.456268
11.833435 12.909199 -15.094458
11.57418 11.574178 -16.272886
11.359039 10.326401 -17.250795
11.20381 9.1667547 -17.956388
11.081343 8.0591564 -18.513058
10.97141 6.9818053 -19.012749
10.889503 5.9397264 -19.385059
10.810359 4.9138007 -19.744799
10.759269 3.9124594 -19.977028
10.72813 2.9258518 -20.118567
10.697334 1.9449711 -20.258553
10.68168 0.9710598 -20.329712
10.677458 -1.9073486e-06 -20.348892
10.673209 -0.97029209 -20.368214
10.692261 -1.9440489 -20.281612
10.731382 -2.9267416 -20.103785
10.770792 -3.9166517 -19.924652
10.828812 -4.9221888 -19.660929
10.899493 -5.945178 -19.339643
10.972703 -6.9826307 -19.006878
11.091412 -8.0664825 -18.467291
11.228116 -9.1866417 -17.845909
11.389372 -10.353974 -17.112923
11.597384 -11.597386 -16.167408
11.870535 -12.949677 -14.925821
12.269784 -14.500655 -13.111052
13.190147 -16.787462 -8.927578
14.009049 15.176472 -10.511753
13.291699 13.291697 -13.500714
12.920344 11.843647 -15.048033
12.658494 10.548745 -16.139072
12.458359 9.3437672 -16.972973
12.291425 8.1942825 -17.668524
12.149358 7.0871258 -18.260468
12.061403 6.0307016 -18.626951
11.976791 4.9903302 -18.979496
11.909755 3.9699183 -19.25882
11.862926 2.9657278 -19.453938
11.817262 1.9695415 -19.644211
11.800254 0.98335457 -19.715069
11.80516 9.5367432e-07 -19.694632
11.81007 -0.98417473 -19.674171
11.833193 -1.9722004 -19.577824
11.869927 -2.9674816 -19.424767
11.909791 -3.9699311 -19.258667
11.976791 -4.9903326 -18.979498
12.072828 -6.0364122 -18.579346
12.171912 -7.1002827 -18.166494
12.315924 -8.2106161 -17.566448
12.465234 -9.3489275 -16.944321
12.694069 -10.578394 -15.990844
12.976652 -11.895268 -14.813411
13.364005 -13.364006 -13.199444
14.182529 -15.364408 -9.7889233
15.228065 14.056673 -10.313316
14.489757 12.260563 -13.152964
14.105817 10.85063 -14.629652
13.806002 9.5580006 -15.782791
13.605359 8.3725271 -16.554493
13.42837 7.230659 -17.235218
13.307832 6.1420741 -17.698826
13.190479 5.0732627 -18.150185
13.112592 4.0346417 -18.449749
13.065581 3.0151339 -18.630562
13.021338 2.0032806 -18.800728
12.99743 0.99980259 -18.892681
12.991698 -0 -18.914722
12.986658 -0.99897385 -18.934113
13.014208 -2.0021887 -18.828144
13.070112 -3.0161805 -18.613134
13.126456 -4.0389066 -18.396427
13.21623 -5.0831642 -18.051144
13.318974 -6.1472197 -17.655972
13.429835 -7.231451 -17.229584
13.630002 -8.3876953 -16.459711
13.838744 -9.5806694 -15.656857
14.130448 -10.869577 -14.534919
14.558329 -12.318587 -12.889227
15.506833 -14.313996 -9.2411318
17.049376 13.395937 -7.9921741
15.835631 11.311161 -12.326972
15.326161 9.8525295 -14.146506
15.062597 8.6071968 -15.087805
14.807898 7.4039493 -15.997447
14.653734 6.2801719 -16.548025
14.527487 5.1883879 -16.998913
14.419391 4.1198258 -17.384972
14.350135 3.0750275 -17.632317
14.281588 2.040226 -17.877129
14.252538 1.0180368 -17.980873
14.259801 -1.9073486e-06 -17.954937
14.26707 -1.0190763 -17.928974
14.303304 -2.0433283 -17.799572
14.357085 -3.0765209 -17.607491
14.412887 -4.1179686 -17.408199
14.533813 -5.1906481 -16.97632
14.681717 -6.2921662 -16.448093
14.849626 -7.4248133 -15.848418
15.087918 -8.6216688 -14.997374
15.396497 -9.897748 -13.895306
15.889579 -11.349698 -12.134302
17.404741 10.442841 -10.866998
16.805029 8.9626789 -12.866034
16.401974 7.654254 -14.209553
16.180853 6.4723396 -14.946617
15.994075 5.3313575 -15.569214
15.831264 4.2216702 -16.111916
15.754128 3.1508241 -16.369036
15.687471 2.0916624 -16.591225
15.647859 1.0431895 -16.723269
15.638936 -9.5367432e-07 -16.753006
15.635087 -1.0423403 -16.765839
15.68793 -2.0917234 -16.589695
15.773638 -3.1547284 -16.304003
15.860288 -4.2294106 -16.015173
16.012751 -5.3375874 -15.506962
16.204046 -6.4816179 -14.86931
16.474911 -7.6882935 -13.966429
16.84955 -8.9864264 -12.717628
17.494051 -10.496431 -10.569289
18.624887 8.1483841 -10.680025
18.047247 6.7677174 -12.485151
17.747677 5.5461469 -13.421307
17.480886 4.370223 -14.255026
17.378466 3.2584629 -14.575089
17.279964 2.1599932 -14.882907
17.218023 1.0761275 -15.076474
17.205137 4.7683716e-07 -15.116745
17.198759 -1.0749216 -15.136678
17.268316 -2.1585417 -14.919304
17.396786 -3.261898 -14.517845
17.53488 -4.383719 -14.086299
17.775002 -5.5546889 -13.335917
18.10671 -6.7900157 -12.299328
18.699558 -8.181056 -10.446675
19.86352 4.6737719 -10.46068
19.474775 3.4367251 -11.604043
19.300955 2.2706976 -12.11528
19.186361 1.1286054 -12.452318
19.164789 -0 -12.515772
19.143263 -1.1260767 -12.579084
19.313969 -2.272233 -12.077004
19.547348 -3.449533 -11.390594
19.857534 -4.6723595 -10.478281
