# .PCD v0.7 - Point Cloud Data file format
VERSION 0.7
FIELDS x y z
SIZE 4 4 4
TYPE F F F
COUNT 1 1 1
WIDTH 1050
HEIGHT 1
VIEWPOINT 0 0 0 1 0 0 0
POINTS 1050
DATA ascii
-23.502085 1.2369533 -7.035202
-21.950525 7.3168411 -7.9091125
-20.741508 5.7615299 -11.267492
-20.364178 4.5253716 -12.315636
-20.127218 3.3545346 -12.973854
-19.935148 2.2150159 -13.507384
-19.894072 1.105227 -13.621485
-19.86644 -1.4305115e-06 -13.69824
-19.873869 -1.1041059 -13.677607
-19.985632 -2.2206268 -13.367152
-20.123653 -3.3539429 -12.983763
-20.412685 -4.5361509 -12.180891
-20.81148 -5.7809672 -11.07313
-19.910435 9.3696146 -10.322694
-19.162975 7.890635 -12.521105
-18.826151 6.6445217 -13.511766
-18.516176 5.4459338 -14.423454
-18.335289 4.3141847 -14.955475
-18.211515 3.2137961 -15.31952
-18.097359 2.1291013 -15.655275
-18.054298 1.0620151 -15.781916
-18.048462 -1.4305115e-06 -15.799082
-18.056744 -1.0621624 -15.77473
-18.120434 -2.1318154 -15.587399
-18.211454 -3.2137866 -15.319695
-18.330069 -4.3129563 -14.97083
-18.571299 -5.4621472 -14.261332
-18.833084 -6.6469707 -13.491373
-19.286394 -7.9414582 -12.158108
-20.022064 -9.4221478 -9.9943724
-19.096445 11.935276 -9.2064066
-18.059526 10.158484 -12.446774
-17.610439 8.8052177 -13.85017
-17.260387 7.5514188 -14.944088
-17.056223 6.3960805 -15.582103
-16.865774 5.2705555 -16.177248
-16.715267 4.1788163 -16.647583
-16.640991 3.1201839 -16.879696
-16.567371 2.0709214 -17.10976
-16.507357 1.0317078 -17.29731
-16.523989 -9.5367432e-07 -17.245333
-16.542303 -1.0338955 -17.188097
-16.578146 -2.0722699 -17.076088
-16.654394 -3.1226983 -16.837816
-16.73624 -4.184062 -16.582047
-16.884523 -5.2764158 -16.118662
-17.066057 -6.3997726 -15.551368
-17.290062 -7.5644016 -14.851353
-17.660692 -8.830349 -13.693132
-18.145952 -10.207097 -12.176696
-17.281807 12.673323 -11.276775
-16.618057 11.078702 -13.489276
-16.213625 9.7281733 -14.837385
-15.955274 8.5094776 -15.69855
-15.709475 7.3310862 -16.517883
-15.55764 6.2230544 -17.023994
-15.433393 5.1444635 -17.438154
-15.312184 4.0832458 -17.842182
-15.244728 3.048943 -18.067038
-15.203869 2.0271816 -18.203236
-15.163276 1.0108824 -18.338543
-15.164324 -9.5367432e-07 -18.335051
-15.169088 -1.0112734 -18.319164
-15.183402 -2.0244517 -18.271456
-15.258317 -3.0516634 -18.021746
-15.341577 -4.0910859 -17.744207
-15.4406 -5.1468649 -17.414129
-15.581493 -6.2326016 -16.944489
-15.74606 -7.3481607 -16.395927
-15.990102 -8.5280581 -15.582456
-16.256704 -9.7540226 -14.69378
-16.72254 -11.148358 -13.140996
-17.495764 -12.830228 -10.563583
-15.949823 13.671275 -11.919144
-15.358867 12.067679 -14.029702
-14.986245 10.704459 -15.360497
-14.725527 9.4664097 -16.29163
-14.526598 8.3009129 -17.002094
-14.356171 7.1780853 -17.610756
-14.2184 6.0935984 -18.102798
-14.118995 5.0424972 -18.457809
-14.033986 4.0097094 -18.761417
-13.978169 2.9953222 -18.960764
-13.935067 1.9907236 -19.114704
-13.895827 0.99256039 -19.254841
-13.895656 -1.9073486e-06 -19.255451
-13.915182 -0.99394321 -19.185711
-13.934764 -1.9906797 -19.115782
-13.985458 -2.9968858 -18.934731
-14.045537 -4.0130086 -18.720167
-14.10631 -5.0379696 -18.50312
-14.238935 -6.1024022 -18.029457
-14.377244 -7.1886196 -17.5355
-14.544557 -8.3111753 -16.93795
-14.771148 -9.4957352 -16.128696
-15.054496 -10.753212 -15.116745
-15.44998 -12.139271 -13.704297
-16.118607 -13.815947 -11.316345
-14.792797 14.792798 -11.98742
-14.216541 13.122961 -14.203791
-13.854463 11.723007 -15.596398
-13.595146 10.457804 -16.593773
-13.386863 9.267828 -17.394859
-13.230565 8.1418848 -17.996008
-13.088511 7.0476594 -18.542368
-12.984683 5.9929314 -18.941708
-12.902989 4.962687 -19.255913
-12.822356 3.9453416 -19.566036
-12.772642 2.9475336 -19.757248
-12.749132 1.961401 -19.84767
-12.725673 0.97889614 -19.937904
-12.720448 -0 -19.957996
-12.728924 -0.97914982 -19.925394
-12.739467 -1.9599209 -19.884848
-12.778572 -2.9489002 -19.734442
-12.842785 -3.9516277 -19.487467
-12.907647 -4.9644785 -19.238001
-13.001429 -6.000659 -18.8773
-13.106512 -7.0573525 -18.473135
-13.237597 -8.1462154 -17.968958
-13.418679 -9.2898579 -17.27249
-13.609961 -10.4692 -16.536791
-13.91492 -11.774162 -15.363876
-14.275333 -13.17723 -13.97767
-14.885588 -14.885589 -11.630536
-13.757429 16.050331 -11.560171
-13.142387 14.237585 -14.122849
-12.773084 12.773082 -15.661609
-12.520682 11.477291 -16.713289
-12.321345 10.267786 -17.543856
-12.133403 9.10005 -18.32695
-12.018798 8.0125313 -18.80447
-11.907184 6.945857 -19.269531
-11.811587 5.9057918 -19.667852
-11.745523 4.8939676 -19.943113
-11.68875 3.8962498 -20.179668
-11.646345 2.9115858 -20.356358
-11.619364 1.9365597 -20.468777
-11.592507 0.96604252 -20.580681
-11.585205 -1.9073486e-06 -20.611111
-11.603096 -0.96692562 -20.536562
-11.621078 -1.9368448 -20.461641
-11.651264 -2.9128189 -20.335863
-11.698239 -3.8994155 -20.140133
-11.745595 -4.8939986 -19.942818
-11.820697 -5.9103522 -19.62989
-11.92277 -6.9549489 -19.204586
-12.026622 -8.0177498 -18.771873
-12.169074 -9.1268053 -18.178322
-12.342019 -10.285015 -17.457716
-12.560059 -11.513387 -16.549217
-12.824663 -12.824666 -15.446696
-13.225108 -14.327203 -13.778179
-13.916818 -16.23629 -10.896054
-12.858607 17.534466 -10.434576
-12.133695 15.442882 -13.72964
-11.753405 13.890387 -15.458229
-11.496225 12.541335 -16.627228
-11.282617 11.282617 -17.598175
-11.119317 10.108468 -18.340448
-10.977636 8.9817028 -18.984449
-10.873581 7.9080563 -19.457428
-10.775612 6.8572049 -19.902748
-10.700761 5.8367767 -20.24297
-10.64503 4.8386488 -20.496296
-10.591969 3.8516235 -20.737488
-10.551841 2.8777752 -20.919882
-10.534289 1.9153233 -20.999664
-10.519952 0.95635891 -21.064835
-10.513609 -9.5367432e-07 -21.093664
-10.522673 -0.95660686 -21.052469
-10.531751 -1.9148636 -21.0112
-10.551998 -2.877821 -20.919165
-10.600976 -3.8549023 -20.696541
-10.650891 -4.8413157 -20.469654
-10.711608 -5.8426967 -20.193666
-10.79026 -6.8665295 -19.836159
-10.881101 -7.9135299 -19.423246
-11.000936 -9.0007668 -18.878544
-11.133934 -10.121758 -18.274002
-11.300263 -11.300265 -17.51796
-11.526095 -12.573922 -16.491455
-11.802937 -13.948925 -15.233083
-12.206535 -15.535591 -13.398548
-13.157498 -17.942041 -9.0759888
-11.17608 16.764118 -13.002399
-10.766161 15.072624 -15.051992
-10.499154 13.648898 -16.387026
-10.278118 12.33374 -17.492205
-10.114569 11.126024 -18.309952
-9.9807835 9.9807796 -18.97888
-9.8537788 8.8683987 -19.613905
-9.7737865 7.8190279 -20.013863
-9.6972456 6.7880712 -20.396568
-9.6296959 5.7778177 -20.734314
-9.5800476 4.7900238 -20.982561
-9.5374889 3.8149967 -21.195347
-9.5055447 2.8516598 -21.355076
-9.4876661 1.8975325 -21.444469
-9.4719439 0.94719315 -21.523073
-9.4644785 -0 -21.560402
-9.4745932 -0.94745827 -21.509827
-9.4898472 -1.8979702 -21.433559
-9.5089989 -2.8527002 -21.337799
-9.5452681 -3.8181086 -21.156454
-9.5853834 -4.7926931 -20.955881
-9.6360388 -5.7816262 -20.7026
-9.706048 -6.7942328 -20.352552
-9.7810049 -7.8248038 -19.977772
-9.8745794 -8.8871231 -19.509897
-9.9991102 -9.9991083 -18.887245
-10.134189 -11.147609 -18.211853
-10.307085 -12.368505 -17.347368
-10.527695 -13.686005 -16.244318
-10.812279 -15.13719 -14.821406
-11.280399 -16.920601 -12.480801
-10.324877 18.355333 -11.522371
-9.8133764 16.355623 -14.364041
-9.5156412 14.802105 -16.018126
-9.3026848 13.437208 -17.201216
-9.1387568 12.185007 -18.111929
-8.9986677 10.998372 -18.890194
-8.886467 9.8738499 -19.513535
-8.7878942 8.7878933 -20.061159
-8.7159386 7.747498 -20.460915
-8.6451778 6.7240262 -20.854031
-8.586998 5.7246647 -21.177254
-8.550621 4.7503433 -21.379349
-8.5155773 3.7846985 -21.574036
-8.4865589 2.8288536 -21.735245
-8.4707499 1.8823881 -21.823076
-8.4576893 0.93974304 -21.895632
-8.4517918 -2.8610229e-06 -21.928402
-8.4597893 -0.93997765 -21.883968
-8.472558 -1.8827934 -21.81303
-8.4879513 -2.8293152 -21.727509
-8.5200357 -3.786685 -21.549265
-8.5526657 -4.7514791 -21.367985
-8.5912762 -5.7275176 -21.153482
-8.66043 -6.7358885 -20.7693
-8.7284946 -7.7586622 -20.391163
-8.8072939 -8.8072948 -19.953381
-8.9032393 -9.8924885 -19.420357
-9.0060272 -11.007367 -18.849312
-9.1573925 -12.209856 -18.008394
-9.3206758 -13.463201 -17.101261
-9.5650082 -14.878903 -15.743864
-9.8774967 -16.462494 -14.007816
-10.48378 -18.637831 -10.639575
-8.9122353 17.824471 -13.181323
-8.5731783 16.074711 -15.300432
-8.3465796 14.606514 -16.716673
-8.1775227 13.288471 -17.773287
-8.0329323 12.049399 -18.676968
-7.9206371 10.890877 -19.378815
-7.8304677 9.788084 -19.942371
-7.744472 8.7125282 -20.479849
-7.683548 7.6835475 -20.860622
-7.6299686 6.676219 -21.195492
-7.5821524 5.6866131 -21.494343
-7.5475221 4.7172012 -21.710781
-7.5132289 3.7566128 -21.925112
-7.4862709 2.8073473 -22.093605
-7.478117 1.8695269 -22.144569
-7.4699583 0.93374348 -22.195557
-7.4641542 -9.5367432e-07 -22.231831
-7.4711723 -0.93389797 -22.187969
-7.4782033 -1.8695517 -22.144024
-7.4878602 -2.8079491 -22.083672
-7.5188465 -3.7594233 -21.890007
-7.5520391 -4.720026 -21.682554
-7.58566 -5.6892452 -21.472424
-7.6361918 -6.6816678 -21.156595
-7.6918578 -7.6918573 -20.808685
-7.7563238 -8.7258644 -20.405773
-7.8469353 -9.80867 -19.839449
-7.9293213 -10.902819 -19.324539
-8.0525799 -12.078869 -18.554174
-8.1949091 -13.316726 -17.664614
-8.378849 -14.662988 -16.514984
-8.6182337 -16.159187 -15.018837
-8.9749918 -17.949987 -12.789091
-8.1309185 19.746517 -10.804806
-7.644177 17.472401 -14.281535
-7.4007139 15.858672 -16.020555
-7.2249331 14.449865 -17.276131
-7.0824246 13.153074 -18.29405
-6.9724069 11.952696 -19.079891
-6.8791728 10.810127 -19.74585
-6.7994838 9.7135468 -20.315056
-6.7292895 8.6519432 -20.816441
-6.6790333 7.6331801 -21.175415
-6.6319222 6.6319232 -21.511919
-6.5905771 5.649066 -21.807245
-6.5622025 4.6872854 -22.009918
-6.5368204 3.7353239 -22.191221
-6.516418 2.7927513 -22.336952
-6.5066504 1.8590431 -22.406723
-6.4960866 0.92800999 -22.482174
-6.4892192 -9.5367432e-07 -22.531227
-6.497848 -0.92826462 -22.469595
-6.5079279 -1.8594074 -22.397593
-6.519228 -2.7939539 -22.316881
-6.5409579 -3.7376909 -22.161667
-6.5656071 -4.6897202 -21.985603
-6.5934896 -5.6515608 -21.78644
-6.6321568 -6.6321583 -21.51025
-6.6840668 -7.6389332 -21.139465
-6.7391338 -8.6645994 -20.74613
-6.8058724 -9.7226744 -20.269423
-6.8828931 -10.815976 -19.719276
-6.9876533 -11.978836 -18.970985
-7.0958319 -13.177972 -18.198286
-7.246057 -14.492115 -17.125244
-7.4263053 -15.913511 -15.837755
-7.7049894 -17.611403 -13.847159
-8.2729902 -20.091549 -9.7900105
-6.7734861 19.191542 -12.437078
-6.4691758 17.251131 -14.973002
-6.2823582 15.705894 -16.52981
-6.1349735 14.314938 -17.758018
-6.0259776 13.056285 -18.666317
-5.9311171 11.862232 -19.45682
-5.8548126 10.733822 -20.09269
-5.7931237 9.6552057 -20.606766
-5.7373199 8.6059799 -21.071796
-5.6930861 7.5907793 -21.440413
-5.6517448 6.5937018 -21.784924
-5.6180029 5.618001 -22.066105
-5.5949693 4.6624727 -22.258053
-5.5739093 3.7159376 -22.433558
-5.5578976 2.7789469 -22.566984
-5.5486822 1.8495588 -22.643774
-5.5402446 0.92337322 -22.714092
-5.5361624 -2.8610229e-06 -22.748108
-5.5414214 -0.92357254 -22.704285
-5.5495915 -1.849864 -22.636198
-5.5601859 -2.7800951 -22.547913
-5.5765815 -3.71772 -22.411289
-5.5974669 -4.6645584 -22.23724
-5.6210284 -5.6210299 -22.040894
-5.6557508 -6.5983772 -21.751541
-5.6983781 -7.5978398 -21.396309
-5.7440271 -8.6160421 -21.0159
-5.8011122 -9.6685209 -20.540194
-5.8605523 -10.744347 -20.044861
-5.9434581 -11.886917 -19.353977
-6.0389247 -13.084337 -18.558424
-6.1548996 -14.361436 -17.591965
-6.3013635 -15.753408 -16.371433
-6.5047626 -17.346035 -14.676437
-6.8373809 -19.372578 -11.904621
-5.5534229 18.881634 -13.348571
-5.3309522 17.059044 -15.573275
-5.1895261 15.568579 -16.987535
-5.0769105 14.215349 -18.113691
-4.9888444 12.970996 -18.99435
-4.9126897 11.790457 -19.755899
-4.8512979 10.672853 -20.369818
-4.8010139 9.6020241 -20.872658
-4.7558484 8.560524 -21.324314
-4.7188063 7.5500889 -21.694733
-4.6879978 6.5631981 -22.002819
-4.6611643 5.5933962 -22.271152
-4.6412668 4.6412668 -22.470131
-4.6246066 3.6996841 -22.636734
-4.6117897 2.7670736 -22.7649
-4.603807 1.8415203 -22.844727
-4.5974011 0.91947842 -22.908785
-4.595799 -0 -22.924807
-4.5982289 -0.91964722 -22.900509
-4.6045837 -1.8418331 -22.836954
-4.6134291 -2.7680578 -22.748508
-4.6263347 -3.7010679 -22.619448
-4.6437178 -4.6437178 -22.445618
-4.6639476 -5.5967393 -22.243322
-4.691524 -6.5681338 -21.967556
-4.7234049 -7.5574484 -21.648748
-4.760632 -8.5691366 -21.276474
-4.8072386 -9.6144762 -20.810408
-4.8586807 -10.689097 -20.29599
-4.9221568 -11.813176 -19.661228
-4.9993377 -12.998279 -18.88942
-5.0921893 -14.258132 -17.960901
-5.2033534 -15.610062 -16.849258
-5.3660984 -17.171515 -15.221813
-5.6063018 -19.061426 -12.819777
-4.3970914 18.687635 -13.919161
-4.2341399 16.936558 -15.956048
-4.1232171 15.462059 -17.342585
-4.037643 14.131748 -18.412262
-3.9700406 12.902629 -19.25729
-3.9130919 11.739275 -19.969151
-3.8662348 10.632145 -20.554861
-3.828042 9.5701036 -21.032272
-3.7935007 8.5353756 -21.464039
-3.7654271 7.5308561 -21.814957
-3.7393732 6.5439005 -22.140629
-3.7179997 5.5769987 -22.407799
-3.7040496 4.6300592 -22.582174
-3.6904469 3.6904469 -22.752209
-3.6801291 2.7600946 -22.881187
-3.6748972 1.8374462 -22.946587
-3.6692197 0.91730309 -23.017551
-3.6648638 -9.5367432e-07 -23.071999
-3.6700776 -0.91752052 -23.006828
-3.6754005 -1.8376989 -22.940285
-3.6816971 -2.7612753 -22.861582
-3.6925218 -3.692524 -22.726273
-3.7057023 -4.6321278 -22.561516
-3.7199016 -5.579854 -22.384027
-3.7419603 -6.5484314 -22.108294
-3.7687898 -7.5375805 -21.772928
-3.7973948 -8.544138 -21.415363
-3.8331485 -9.5828705 -20.968441
-3.8714323 -10.646441 -20.489893
-3.9202895 -11.76087 -19.879175
-3.9778795 -12.92811 -19.159302
-4.0468197 -14.163868 -18.29755
-4.1347656 -15.505373 -17.198227
-4.2549367 -17.019749 -15.69609
-4.4282346 -18.82 -13.529859
-3.2719679 18.541149 -14.349999
-3.1591251 16.848667 -16.230713
-3.0815163 15.407581 -17.524191
-3.0192449 14.089811 -18.562046
-2.9706409 12.872777 -19.372114
-2.9266253 11.706502 -20.105703
-2.8928733 10.607203 -20.668242
-2.8639712 9.5465717 -21.14994
-2.8378832 8.5136471 -21.584743
-2.8177404 7.5139747 -21.920456
-2.7990174 6.5310373 -22.232506
-2.7835236 5.5670443 -22.490738
-2.7719278 4.6198778 -22.684002
-2.7617469 3.6823301 -22.853682
-2.75383 2.753829 -22.985626
-2.7496891 1.8331261 -23.054644
-2.746521 0.91550732 -23.107443
-2.7444677 -9.5367432e-07 -23.141668
-2.7468336 -0.91561031 -23.102234
-2.7502687 -1.8335133 -23.044987
-2.7545214 -2.7545233 -22.974106
-2.7634699 -3.6846256 -22.824963
-2.7734487 -4.6224146 -22.658653
-2.7846797 -5.5693569 -22.47147
-2.7989037 -6.5307765 -22.2344
-2.8197322 -7.5192857 -21.887262
-2.8409812 -8.5229435 -21.53311
-2.8677227 -9.5590744 -21.087418
-2.8951547 -10.61557 -20.630217
-2.93243 -11.729721 -20.008965
-2.976548 -12.898378 -19.273661
-3.0272541 -14.127184 -18.428562
-3.0894246 -15.447121 -17.392389
-3.1734233 -16.924925 -15.992409
-3.2890553 -18.637985 -14.065205
-3.5421073 -21.252644 -9.8476772
-2.1726823 18.467798 -14.565741
-2.0991187 16.79295 -16.404827
-2.0498235 15.373672 -17.637213
-2.007206 14.050442 -18.702646
-1.9763532 12.846292 -19.473969
-1.9484731 11.690834 -20.170971
-1.9261295 10.59371 -20.729563
-1.9058317 9.5291576 -21.237003
-1.8877329 8.4947968 -21.689476
-1.8756307 7.502521 -21.992029
-1.863683 6.5228901 -22.290724
-1.8535662 5.5606985 -22.543642
-1.8458532 4.6146326 -22.736465
-1.8382043 3.6764088 -22.927692
-1.8326666 2.7489977 -23.066128
-1.8306651 1.8306627 -23.116169
-1.8288289 0.9144125 -23.162071
-1.827588 9.5367432e-07 -23.193096
-1.8291616 -0.9145813 -23.153755
-1.8307328 -1.8307333 -23.114479
-1.8325623 -2.7488451 -23.068739
-1.8394598 -3.6789207 -22.896307
-1.8468701 -4.617177 -22.711042
-1.8543404 -5.5630226 -22.524284
-1.8645089 -6.5257816 -22.270071
-1.8765548 -7.5062189 -21.968924
-1.8894397 -8.5024776 -21.646809
-1.9076505 -9.5382519 -21.191536
-1.9266886 -10.596788 -20.71558
-1.9522851 -11.713713 -20.075674
-1.9798121 -12.868778 -19.387493
-2.0134282 -14.093999 -18.547089
-2.0550919 -15.413191 -17.505497
-2.1105237 -16.88419 -16.119701
-2.1864543 -18.58486 -14.221438
-2.3293662 -20.964294 -10.648642
-1.0831639 18.413784 -14.724602
-1.0483593 16.773748 -16.464828
-1.0239009 15.358513 -17.687752
-1.0028056 14.039276 -18.742519
-0.9871006 12.832308 -19.527767
-0.97296703 11.675604 -20.234444
-0.96199095 10.581898 -20.783253
-0.9524703 9.5247021 -21.259283
-0.94389135 8.4950209 -21.688229
-0.93717092 7.4973669 -22.02425
-0.93067998 6.5147591 -22.348793
-0.92572743 5.5543613 -22.596428
-0.9222548 4.6112728 -22.770054
-0.91892892 3.6757145 -22.936352
-0.91635686 2.7490702 -23.064957
-0.91485637 1.8297119 -23.139977
-0.91336083 0.91336155 -23.214752
-0.91276765 -2.8610229e-06 -23.244415
-0.91376281 -0.91376495 -23.194653
-0.91504371 -1.8300886 -23.130611
-0.91637504 -2.7491255 -23.064043
-0.91940147 -3.6776066 -22.912722
-0.92245042 -4.6122541 -22.760275
-0.92611903 -5.556715 -22.576847
-0.9320817 -6.5245733 -22.278715
-0.93849915 -7.5079927 -21.957842
-0.94472539 -8.5025291 -21.646528
-0.95424378 -9.5424376 -21.170605
-0.96321172 -10.595331 -20.722212
-0.97527277 -11.703277 -20.119158
-0.98878676 -12.854229 -19.443455
-1.0052834 -14.073969 -18.618629
-1.0269001 -15.403502 -17.537794
-1.0539279 -16.86285 -16.186398
-1.0907335 -18.542473 -14.346116
-1.1610695 -20.899252 -10.829323
0 18.434011 -14.665114
0 16.774675 -16.461929
0 15.359 -17.686127
0 14.043433 -18.727673
0 12.839472 -19.500202
0 11.67705 -20.228415
0 10.582312 -20.781382
0 9.5244179 -21.260695
0 8.4960928 -21.682278
0 7.4982824 -22.01852
0 6.5173054 -22.33062
0 5.5563145 -22.580177
0 4.6108751 -22.774021
0 3.6753998 -22.940289
0 2.7491388 -23.063782
0 1.8297586 -23.138805
0 0.91369152 -23.198154
0 -0 -23.226803
0 -0.91381264 -23.19219
0 -1.8301868 -23.128139
0 -2.749548 -23.056993
0 -3.6781836 -22.905502
0 -4.6129665 -22.753136
0 -5.557034 -22.574181
0 -6.5233641 -22.287352
0 -7.5084748 -21.954832
0 -8.5061998 -21.626135
0 -9.542635 -21.169617
0 -10.593872 -20.728842
0 -11.701111 -20.128168
0 -12.864701 -19.403172
0 -14.089414 -18.563461
0 -15.394071 -17.569229
0 -16.863787 -16.183466
0 -18.561152 -14.291169
0 -20.888697 -10.858629
1.0865722 18.471725 -14.554186
1.0510813 16.817301 -16.328728
1.0248594 15.372892 -17.63982
1.003891 14.054476 -18.688246
0.98895085 12.856359 -19.435253
0.97459936 11.695192 -20.152824
0.96371937 10.600912 -20.696829
0.95331383 9.5331364 -21.217104
0.94456726 8.5011044 -21.65443
0.93833494 7.5066776 -21.966049
0.93218154 6.5252714 -22.273718
0.92732251 5.5639362 -22.51667
0.92331588 4.6165791 -22.717003
0.91934365 3.6773729 -22.915615
0.91685027 2.7505484 -23.040283
0.91580659 1.8316116 -23.092464
0.91476536 0.91476631 -23.144527
0.91431582 -9.5367432e-07 -23.167007
0.91497868 -0.91497707 -23.133863
0.91563982 -1.8312798 -23.1008
0.91669619 -2.7500887 -23.047985
0.92025322 -3.6810122 -22.870136
0.92383796 -4.6191921 -22.690895
0.92758447 -5.5655084 -22.503574
0.9331708 -6.5321989 -22.224253
0.93882489 -7.5106006 -21.941551
0.94548303 -8.5093498 -21.608641
0.95491201 -9.5491209 -21.137196
0.96477675 -10.612545 -20.643961
0.97683573 -11.722033 -20.041008
0.99048185 -12.876265 -19.358706
1.0075493 -14.10569 -18.505333
1.0285705 -15.428561 -17.454266
1.0565195 -16.90431 -16.056828
1.095389 -18.621616 -14.113344
1.1701119 -21.062012 -10.377199
2.1868925 18.588587 -14.21048
2.1096728 16.87738 -16.140976
2.0560308 15.420232 -17.482027
2.0156603 14.109623 -18.491289
1.9829899 12.889434 -19.30805
1.9522316 11.713388 -20.077005
1.9314063 10.622732 -20.597641
1.9113894 9.5569458 -21.098063
1.8943331 8.524498 -21.524467
1.8801398 7.5205588 -21.879299
1.8666447 6.5332565 -22.216679
1.8571869 5.5715599 -22.453121
1.8499701 4.6249247 -22.633545
1.8428249 3.6856508 -22.812168
1.8379995 2.7569981 -22.932808
1.8346099 1.8346081 -23.017551
1.8316809 0.91584015 -23.090771
1.8310298 -9.5367432e-07 -23.107056
1.832677 -0.91634178 -23.065868
1.8349552 -1.8349571 -23.008917
1.8380572 -2.7570887 -22.93137
1.8438808 -3.6877623 -22.785778
1.8502201 -4.6255493 -22.627293
1.8580393 -5.5741181 -22.431814
1.8692467 -6.5423651 -22.151627
1.8816788 -7.5267148 -21.840824
1.8958172 -8.5311775 -21.487366
1.9137081 -9.5685387 -21.040096
1.9335181 -10.634352 -20.544844
1.9582543 -11.749527 -19.926437
1.9857796 -12.907568 -19.238308
2.0209322 -14.146525 -18.359491
2.0641606 -15.481208 -17.278778
2.1210814 -16.968651 -15.855759
2.2041395 -18.735188 -13.779308
2.3909838 -21.518854 -9.1082058
3.3060734 18.734413 -13.781576
3.1855063 16.989365 -15.791026
3.1004965 15.502483 -17.207851
3.0353916 14.165159 -18.292936
2.9866769 12.942264 -19.104851
2.9406917 11.762764 -19.871267
2.9062839 10.656374 -20.444733
2.8745105 9.5817013 -20.974287
2.8493826 8.5481472 -21.393089
2.828356 7.5422835 -21.743532
2.8084295 6.5529985 -22.075642
2.7936153 5.5872297 -22.32254
2.7813344 4.6355562 -22.527222
2.7705677 3.6940899 -22.706673
2.7637787 2.7637768 -22.81982
2.7586691 1.8391123 -22.904974
2.7545292 0.9181776 -22.973972
2.7533903 -1.9073486e-06 -22.99296
2.7558658 -0.91862106 -22.951694
2.7593 -1.8395329 -22.894463
2.7645066 -2.7645063 -22.807686
2.7732892 -3.6977205 -22.661308
2.7821279 -4.6368818 -22.513996
2.7941005 -5.5882025 -22.314457
2.8119631 -6.5612473 -22.016747
2.8309765 -7.5492735 -21.699852
2.8530874 -8.5592632 -21.331339
2.8798265 -9.5994225 -20.885691
2.90715 -10.659551 -20.430296
2.9476676 -11.790671 -19.755001
2.9917672 -12.964326 -19.020016
3.0464923 -14.216967 -18.107924
3.1072621 -15.536312 -17.095095
3.2033365 -17.084461 -15.493859
3.3343322 -18.894547 -13.310598
4.4663372 18.98193 -13.053582
4.2799196 17.11968 -15.383804
4.1591592 15.596847 -16.893307
4.070261 14.245912 -18.004534
4.0007381 13.002398 -18.873569
3.9400156 11.820047 -19.632603
3.893693 10.707656 -20.211636
3.8491833 9.6229572 -20.768005
3.8133907 8.5801287 -21.21541
3.7855468 7.5710926 -21.563461
3.7587755 6.5778561 -21.898102
3.7396991 5.6095467 -22.136557
3.7220633 4.6525764 -22.357004
3.7049663 3.7049637 -22.570717
3.6963599 2.7722683 -22.678295
3.6911774 1.8455849 -22.743084
3.6860194 0.92150593 -22.807554
3.6852913 -0 -22.816652
3.687202 -0.92180252 -22.792776
3.6891146 -1.8445578 -22.768867
3.6962962 -2.7722225 -22.679092
3.7101882 -3.7101879 -22.505445
3.7241957 -4.6552458 -22.330353
3.7413187 -5.6119781 -22.116314
3.7636549 -6.5863957 -21.837112
3.7862482 -7.5724945 -21.554695
3.8169866 -8.5882206 -21.170465
3.8562863 -9.6407156 -20.679218
3.8964152 -10.715143 -20.177607
3.9499409 -11.849823 -19.508537
4.006628 -13.02154 -18.799948
4.0852318 -14.29831 -17.817402
4.1784644 -15.669243 -16.651987
4.3049664 -17.219866 -15.070716
4.5066466 -19.153248 -12.549713
5.6931405 19.356678 -11.951391
5.4160562 17.331379 -14.722233
5.2500567 15.750171 -16.382227
5.1268768 14.355255 -17.614023
5.0294957 13.076687 -18.587839
4.9514799 11.883551 -19.368
4.8932538 10.765156 -19.95026
4.8374577 9.6749163 -20.508223
4.793591 8.6284618 -20.946884
4.7539797 7.6063671 -21.342999
4.716372 6.6029201 -21.719074
4.6943159 5.6331778 -21.939636
4.6738229 4.6738224 -22.144566
4.6535211 3.7228136 -22.347586
4.6423645 2.7854156 -22.459152
4.6321015 1.8528385 -22.561783
4.6242871 0.92485619 -22.639921
4.6243801 -1.9073486e-06 -22.638992
4.6281309 -0.92562675 -22.601482
4.6328349 -1.8531342 -22.554451
4.6428466 -2.7857103 -22.454327
4.656888 -3.7255116 -22.313915
4.6737547 -4.6737556 -22.145245
4.6966319 -5.6359587 -21.916481
4.7256107 -6.6158547 -21.626694
4.7575498 -7.6120811 -21.307297
4.7982221 -8.6368008 -20.900574
4.845367 -9.6907349 -20.429127
4.8984227 -10.776531 -19.898569
4.966104 -11.918651 -19.221758
5.0426092 -13.110785 -18.456707
5.1459451 -14.408646 -17.423346
5.2709169 -15.812753 -16.173626
5.4437418 -17.419979 -14.445377
5.7542572 -19.564478 -11.340223
7.0887656 20.084833 -9.8097525
6.6002584 17.600685 -13.880646
6.3693938 15.923487 -15.804508
6.2098274 14.489594 -17.134237
6.087491 13.189563 -18.153704
5.9905882 11.981175 -18.961227
5.9085221 10.832289 -19.645113
5.8366909 9.7278175 -20.243708
5.7861624 8.679244 -20.664772
5.7399297 7.6532388 -21.050053
5.695353 6.6445794 -21.421522
5.6646438 5.6646423 -21.677429
5.6358595 4.6965466 -21.917301
5.6116514 3.7411022 -22.119034
5.5991549 2.7995768 -22.223175
5.5875053 1.8624992 -22.32025
5.5774026 0.92956638 -22.40444
5.5771608 -0 -22.406456
5.5821428 -0.93035889 -22.364939
5.5878291 -1.8626118 -22.317554
5.6016078 -2.8008041 -22.202736
5.6186404 -3.74576 -22.060795
5.6373234 -4.6977711 -21.9051
5.6663394 -5.6663394 -21.6633
5.7041855 -6.6548862 -21.347914
5.7429681 -7.6572905 -21.024729
5.7949142 -8.6923695 -20.591845
5.8502364 -9.7503948 -20.130829
5.9178114 -10.849322 -19.567698
6.0079598 -12.01592 -18.816465
6.1073799 -13.232657 -17.987961
6.23312 -14.543946 -16.94013
6.4058862 -16.014715 -15.50041
6.6501532 -17.733744 -13.464853
7.2268848 -20.476171 -8.6587601
7.8643036 17.975552 -12.709198
7.545804 16.169579 -14.984195
7.3343096 14.668619 -16.494865
7.1749077 13.324827 -17.633457
7.0507483 12.086994 -18.520308
6.9487066 10.919396 -19.249176
6.868434 9.812048 -19.822552
6.8021111 8.7455711 -20.296284
6.7417555 7.7048602 -20.727402
6.6911349 6.6911345 -21.088976
6.6547852 5.7041016 -21.348618
6.619276 4.7280531 -21.602253
6.5881295 3.7646437 -21.82473
6.5721769 2.8166466 -21.938673
6.5601959 1.8743401 -22.024252
6.5486398 0.93551826 -22.106798
6.5500112 -2.8610229e-06 -22.097008
6.5513825 -0.93591213 -22.087208
6.5527544 -1.8722143 -22.077408
6.5736918 -2.817296 -21.927855
6.5977578 -3.7701464 -21.755955
6.6219997 -4.7300005 -21.582794
6.6591125 -5.7078104 -21.317707
6.6990538 -6.6990538 -21.032412
6.7404037 -7.7033181 -20.737053
6.810811 -8.7567539 -20.234152
6.8834605 -9.8335171 -19.715219
6.9706802 -10.95393 -19.09222
7.071331 -12.122282 -18.373291
7.198844 -13.369286 -17.462482
7.3663025 -14.732606 -16.266354
7.5890942 -16.262344 -14.674979
7.9565463 -18.186394 -12.050319
9.3552828 18.710562 -10.412277
8.7999229 16.499855 -13.883276
8.5097609 14.892079 -15.696793
8.305974 13.497206 -16.970459
8.1518116 12.227715 -17.933977
8.0271969 11.037394 -18.712814
7.9212952 9.9016171 -19.374702
7.8446169 8.8251934 -19.853943
7.7702522 7.7702484 -20.318722
7.7049556 6.7418361 -20.726826
7.6631026 5.7473269 -20.988403
7.6236205 4.7647629 -21.23517
7.5901995 3.7950983 -21.44405
7.568934 2.8383465 -21.576958
7.5477881 1.8869457 -21.709122
7.5343142 0.94179153 -21.793331
7.5377994 -1.9073486e-06 -21.771549
7.5430779 -0.94288635 -21.73856
7.549315 -1.887331 -21.699574
7.57096 -2.8391104 -21.564297
7.5927515 -3.7963772 -21.428101
7.6207771 -4.7629862 -21.252941
7.6677814 -5.7508354 -20.959164
7.7202735 -6.7552404 -20.631086
7.7788677 -7.7788677 -20.26487
7.8550754 -8.8369598 -19.788574
7.9363608 -9.9204502 -19.28054
8.0459614 -11.063198 -18.595539
8.1772623 -12.265895 -17.774908
8.3436041 -13.558359 -16.73527
8.537075 -14.939881 -15.526076
8.8613462 -16.615026 -13.499378
9.4989033 -18.997808 -9.5146484
10.192587 16.98764 -12.257315
9.7735395 15.203282 -14.585353
9.4980736 13.719439 -16.115725
9.2974291 12.39657 -17.230412
9.1394196 11.170399 -18.108246
9.0185337 10.020592 -18.779833
8.9155989 8.9155979 -19.35169
8.8311405 7.8499031 -19.820908
8.7600403 6.8133655 -20.215904
8.7031059 5.8020697 -20.532206
8.6469078 4.8038378 -20.844421
8.608922 3.8261852 -21.055452
8.5877867 2.8625965 -21.172867
8.5667562 1.9037218 -21.289709
8.5528927 0.95031929 -21.366722
8.5509233 -0 -21.377663
8.5551414 -0.95057201 -21.354231
8.5659447 -1.9035444 -21.294214
8.5907164 -2.8635712 -21.156595
8.6190405 -3.8306875 -20.999237
8.6549683 -4.8083181 -20.799637
8.7072134 -5.8048124 -20.509386
8.7666159 -6.8184795 -20.179377
8.8397379 -7.8575473 -19.773142
8.9292593 -8.9292583 -19.275799
9.0311308 -10.034592 -18.709846
9.1694231 -11.207071 -17.941557
9.3195963 -12.42613 -17.10726
9.5424452 -13.783532 -15.869213
9.8315296 -15.293489 -14.263186
10.309625 -17.182709 -11.6071
11.18898 15.664572 -12.937895
10.768719 13.999332 -15.039206
10.507175 12.608608 -16.34692
10.310322 11.341352 -17.331188
10.157282 10.157282 -18.096386
10.037846 9.0340605 -18.693569
9.921154 7.9369226 -19.277023
9.8389568 6.88727 -19.688013
9.77631 5.8657866 -20.001244
9.7144861 4.8572416 -20.310366
9.6703501 3.8681393 -20.531044
9.6348848 2.8904638 -20.70837
9.6102858 1.9220562 -20.831371
9.5989637 0.95989513 -20.887981
9.5967312 -0 -20.899143
9.5962439 -0.95962429 -20.901577
9.6094532 -1.9218931 -20.835527
9.6410904 -2.8923283 -20.677341
9.6754379 -3.8701744 -20.505604
9.7222042 -4.8611016 -20.271774
9.7815409 -5.8689232 -19.975094
9.8465424 -6.8925819 -19.650084
9.9399691 -7.9519777 -19.182953
10.051797 -9.0466175 -18.623812
10.180094 -10.180094 -17.982327
10.342361 -11.376598 -17.170984
10.551788 -12.662146 -16.123856
10.814822 -14.05927 -14.808686
11.261255 -15.765755 -12.576525
12.984963 16.526314 -9.860239
12.194257 14.411392 -13.454358
11.83561 12.911575 -15.084567
11.554046 11.554047 -16.364407
11.367502 10.334091 -17.212334
11.205902 9.1684628 -17.946878
11.074617 8.054266 -18.543627
10.976615 6.9851155 -18.989094
10.886723 5.9382119 -19.397694
10.80795 4.9127054 -19.755749
10.764013 3.9141846 -19.955465
10.725368 2.9251003 -20.131123
10.689096 1.9434729 -20.29599
10.675365 0.97048759 -20.35841
10.678102 -9.5367432e-07 -20.345966
10.680841 -0.97098541 -20.333519
10.702411 -1.9458942 -20.235476
10.731025 -2.9266434 -20.10541
10.760675 -3.9129729 -19.970636
10.823778 -4.9198995 -19.683804
10.900702 -5.9458365 -19.334152
10.98111 -6.9879799 -18.968662
11.095583 -8.0695152 -18.44833
11.214919 -9.1758442 -17.90589
11.388455 -10.353144 -17.117085
11.594993 -11.594993 -16.178286
11.874516 -12.954019 -14.907722
12.281959 -14.515044 -13.05571
13.219109 -16.824326 -8.7959366
13.970433 15.134635 -10.672655
13.312455 13.312455 -13.414229
12.928259 11.850904 -15.01505
12.654098 10.54508 -16.157391
12.461051 9.3457851 -16.96175
12.275329 8.1835499 -17.735596
12.163592 7.0954266 -18.201159
12.063702 6.0318494 -18.617376
11.969516 4.9872994 -19.009811
11.909718 3.9699063 -19.258972
11.861942 2.9654846 -19.458035
11.823013 1.9705009 -19.620239
11.812418 0.98436737 -19.664391
11.801841 -2.8610229e-06 -19.708458
11.791391 -0.98261738 -19.751999
11.830583 -1.9717665 -19.588699
11.870584 -2.967648 -19.422028
11.913942 -3.9713159 -19.241369
11.988578 -4.9952416 -18.930391
12.064192 -6.0320964 -18.615332
12.168499 -7.0982919 -18.180717
12.316748 -8.2111673 -17.563009
12.473649 -9.3552361 -16.909256
12.688814 -10.574014 -16.012741
12.968764 -11.888036 -14.846273
13.356517 -13.356518 -13.230643
14.143263 -15.321871 -9.9525337
15.280681 14.10524 -10.11095
14.485993 12.257375 -13.16744
14.104296 10.849459 -14.635504
13.809237 9.5602388 -15.770349
13.59656 8.3671103 -16.588337
13.446064 7.2401886 -17.167164
13.298822 6.137917 -17.733482
13.187402 5.0720768 -18.16202
13.122503 4.0376935 -18.411629
13.059014 3.0136161 -18.655815
13.008949 2.0013752 -18.848379
12.997794 0.9998312 -18.891281
12.992062 -3.8146973e-06 -18.913324
12.998238 -0.99986458 -18.889574
13.028759 -2.004427 -18.772186
13.059464 -3.0137248 -18.654089
13.117937 -4.0362911 -18.429195
13.216313 -5.0831985 -18.050827
13.316177 -6.1459298 -17.666733
13.458522 -7.2468967 -17.119251
13.613592 -8.3775949 -16.522825
13.845018 -9.5850124 -15.632724
14.132262 -10.870971 -14.527943
14.580398 -12.33726 -12.804341
15.553065 -14.356675 -9.0633144
16.843 13.233783 -8.7292252
15.838971 11.313549 -12.315042
15.342391 9.8629646 -14.08854
15.063807 8.6078882 -15.083488
14.827732 7.4138641 -15.926611
14.648875 6.2780871 -16.565382
14.525613 5.1877184 -17.005606
14.421144 4.1203251 -17.37871
14.337531 3.0723276 -17.677326
14.296042 2.042294 -17.8255
14.268019 1.019145 -17.925587
14.241186 -2.8610229e-06 -18.02142
14.258944 -1.0184965 -17.958004
14.303894 -2.0434165 -17.797459
14.349129 -3.0748153 -17.635906
14.436346 -4.124671 -17.324417
14.532031 -5.1900125 -16.982683
14.663846 -6.2845073 -16.511917
14.860155 -7.4300785 -15.810813
15.074945 -8.6142569 -15.043709
15.41926 -9.9123793 -13.814009
15.901412 -11.358152 -12.092042
17.37586 10.425516 -10.963263
16.814863 8.9679251 -12.83325
16.42206 7.6636257 -14.142597
16.168877 6.4675474 -14.986544
15.992805 5.3309355 -15.573448
15.858568 4.2289519 -16.020903
15.748474 3.149694 -16.387882
15.690581 2.0920749 -16.58086
15.644665 1.0429759 -16.733917
15.627342 -9.5367432e-07 -16.791651
15.656588 -1.0437746 -16.69417
15.69252 -2.0923328 -16.574396
15.757059 -3.1514111 -16.359264
15.868213 -4.2315259 -15.988756
15.999217 -5.3330731 -15.552071
16.199858 -6.4799414 -14.883267
16.470245 -7.6861167 -13.981979
16.85714 -8.9904747 -12.692329
17.536695 -10.522018 -10.427149
18.574566 8.1263733 -10.837277
18.063074 6.773653 -12.43569
17.7302 5.5406852 -13.475922
17.521036 4.3802571 -14.129557
17.371372 3.2571311 -14.597257
17.275095 2.1593857 -14.898122
17.215664 1.0759778 -15.083847
17.208817 4.7683716e-07 -15.105242
17.225512 -1.0765963 -15.053072
17.242239 -2.1552835 -15.0008
17.387856 -3.2602248 -14.54575
17.548744 -4.3871856 -14.042976
17.773468 -5.5542088 -13.34071
18.112442 -6.7921677 -12.281414
18.704245 -8.1831093 -10.432032
19.827454 4.6652813 -10.566753
19.517504 3.4442644 -11.478376
19.265139 2.2664866 -12.220622
19.18717 1.128655 -12.449944
19.169556 -2.3841858e-06 -12.501747
19.163177 -1.1272469 -12.52051
19.304224 -2.2710853 -12.105665
19.523144 -3.4452617 -11.461784
19.942295 -4.6923041 -10.228989
