# .PCD v0.7 - Point Cloud Data file format
VERSION 0.7
FIELDS x y z
SIZE 4 4 4
TYPE F F F
COUNT 1 1 1
WIDTH 1053
HEIGHT 1
VIEWPOINT 0 0 0 1 0 0 0
POINTS 1053
DATA ascii
-22.999187 9.5367432e-07 -8.3586178
-21.933737 7.3112445 -7.9557505
-20.783928 5.7733121 -11.149669
-20.389622 4.5310235 -12.244957
-20.128826 3.3548036 -12.969385
-19.981152 2.2201257 -13.379601
-19.87537 1.104187 -13.67344
-19.867666 -3.3378601e-06 -13.694833
-19.897488 -1.1054163 -13.611995
-19.978256 -2.2198048 -13.387642
-20.161194 -3.3602018 -12.879483
-20.423193 -4.5384893 -12.151707
-20.798328 -5.7773142 -11.109661
-19.921236 9.3747005 -10.290922
-19.223238 7.9154501 -12.343863
-18.790781 6.6320419 -13.615793
-18.54442 5.4542389 -14.340387
-18.328901 4.3126793 -14.974264
-18.211393 3.2137742 -15.319873
-18.111317 2.1307397 -15.614216
-18.056265 1.0621324 -15.776133
-18.04269 -9.5367432e-07 -15.816061
-18.060379 -1.0623765 -15.764034
-18.127279 -2.1326218 -15.56727
-18.222372 -3.2157125 -15.287585
-18.34082 -4.3154907 -14.939204
-18.575335 -5.463335 -14.249464
-18.839115 -6.6491003 -13.47363
-19.254358 -7.9282665 -12.25233
-20.117775 -9.4671888 -9.7128696
-19.033339 11.895834 -9.4036112
-18.088202 10.174611 -12.35717
-17.601711 8.8008556 -13.877447
-17.278458 7.5593243 -14.887617
-17.050743 6.3940272 -15.599225
-16.8671 5.2709699 -16.173107
-16.735804 4.1839523 -16.583406
-16.639755 3.1199517 -16.883562
-16.544748 2.0680919 -17.180456
-16.529718 1.0331068 -17.227427
-16.529665 -9.5367432e-07 -17.227592
-16.529612 -1.0331011 -17.227758
-16.582256 -2.0727835 -17.06324
-16.645512 -3.1210322 -16.865574
-16.739178 -4.1847954 -16.572865
-16.896879 -5.2802758 -16.080053
-17.057579 -6.3965907 -15.577864
-17.308252 -7.5723605 -14.79451
-17.647499 -8.8237476 -13.734364
-18.149469 -10.209081 -12.165704
-19.630445 -12.26903 -7.5376549
-17.307209 12.691953 -11.192097
-16.644012 11.096007 -13.402755
-16.245489 9.7472916 -14.731165
-15.944945 8.5039692 -15.732982
-15.725339 7.3384891 -16.465004
-15.561803 6.2247195 -17.01012
-15.403355 5.13445 -17.538284
-15.322974 4.0861239 -17.806217
-15.255423 3.0510817 -18.031387
-15.193772 2.025835 -18.236889
-15.174142 1.0116091 -18.302319
-15.154564 -1.9073486e-06 -18.367577
-15.151996 -1.0101337 -18.376144
-15.205256 -2.0273652 -18.198605
-15.260969 -3.0521932 -18.012899
-15.330613 -4.0881658 -17.780746
-15.437243 -5.1457462 -17.425318
-15.579279 -6.2317147 -16.951864
-15.754797 -7.3522387 -16.36681
-15.978353 -8.5217896 -15.621621
-16.275669 -9.765399 -14.630568
-16.682665 -11.121778 -13.273913
-17.475433 -12.815317 -10.631352
-16.000916 13.71507 -11.736672
-15.387663 12.090306 -13.926853
-14.988338 10.705956 -15.353016
-14.73723 9.4739351 -16.249828
-14.519996 8.2971382 -17.025665
-14.350318 7.1751575 -17.63166
-14.228323 6.0978513 -18.067358
-14.114794 5.0409994 -18.472816
-14.041422 4.0118341 -18.734863
-13.968765 2.9933062 -18.99435
-13.923009 1.9890003 -19.157764
-13.910629 0.99361515 -19.201977
-13.903246 -9.5367432e-07 -19.228348
-13.911015 -0.99364471 -19.2006
-13.941448 -1.9916344 -19.091911
-13.972013 -2.9940052 -18.982748
-14.035823 -4.0102353 -18.754856
-14.134853 -5.048162 -18.40118
-14.235921 -6.101109 -18.040222
-14.365233 -7.1826181 -17.578388
-14.553343 -8.3161964 -16.906572
-14.750401 -9.4824038 -16.202785
-15.033398 -10.738142 -15.192092
-15.414565 -12.111443 -13.830778
-16.061321 -13.766846 -11.520937
-14.819678 14.819675 -11.884037
-14.231822 13.137068 -14.145018
-13.875646 11.740931 -15.51493
-13.598947 10.460728 -16.579157
-13.39179 9.2712402 -17.375906
-13.219403 8.1350174 -18.038937
-13.097198 7.0523381 -18.508955
-12.979003 5.9903083 -18.963552
-12.887926 4.956892 -19.313852
-12.834552 3.9490905 -19.519138
-12.781616 2.949605 -19.722729
-12.747113 1.9610958 -19.855438
-12.728072 0.97908115 -19.928675
-12.710169 9.5367432e-07 -19.99753
-12.718785 -0.97836971 -19.96439
-12.752397 -1.9619093 -19.835112
-12.786187 -2.9506588 -19.705153
-12.839159 -3.9505115 -19.501413
-12.908204 -4.9646935 -19.235855
-12.989198 -5.9950147 -18.924343
-13.109263 -7.0588355 -18.462549
-13.246526 -8.1517105 -17.93462
-13.397623 -9.2752771 -17.353472
-13.639289 -10.491759 -16.423988
-13.890986 -11.753912 -15.455922
-14.269539 -13.171881 -13.999955
-14.902874 -14.902874 -11.564053
-13.79591 16.095228 -11.399836
-13.171252 14.268856 -14.002577
-12.792803 12.792803 -15.579454
-12.520803 11.477403 -16.71278
-12.311409 10.259505 -17.58526
-12.154328 9.1157436 -18.239759
-12.010725 8.0071468 -18.83811
-11.908909 6.9468617 -19.262341
-11.818382 5.9091902 -19.639538
-11.747561 4.8948169 -19.934631
-11.690767 3.8969212 -20.171268
-11.634557 2.9086399 -20.405479
-11.611678 1.9352798 -20.500805
-11.602538 0.96687794 -20.538891
-11.593377 -1.9073486e-06 -20.577057
-11.602886 -0.96690845 -20.537434
-11.621182 -1.9368639 -20.461208
-11.639851 -2.9099636 -20.383415
-11.690838 -3.8969469 -20.170971
-11.757181 -4.8988252 -19.894545
-11.824244 -5.9121222 -19.615112
-11.916553 -6.951324 -19.230494
-12.035316 -8.0235481 -18.735645
-12.163517 -9.1226358 -18.201477
-12.339692 -10.283079 -17.467413
-12.553363 -11.507248 -16.577116
-12.816493 -12.816493 -15.480745
-13.205212 -14.305649 -13.861087
-13.86177 -16.172064 -11.12542
-12.892465 17.580633 -10.280682
-12.136981 15.447064 -13.714703
-11.769974 13.909967 -15.382916
-11.490703 12.535309 -16.652328
-11.285782 11.285781 -17.58379
-11.122216 10.111105 -18.327271
-10.979304 8.9830666 -18.976866
-10.868807 7.9045849 -19.47913
-10.779417 6.8596287 -19.885445
-10.697237 5.834856 -20.258993
-10.639624 4.8361912 -20.520874
-10.597898 3.8537817 -20.710533
-10.55653 2.8790541 -20.898569
-10.535574 1.9155569 -20.993824
-10.518795 0.95625114 -21.070091
-10.502724 -2.8610229e-06 -21.143143
-10.51642 -0.95603943 -21.080887
-10.538272 -1.9160509 -20.981564
-10.560214 -2.8800592 -20.881824
-10.600183 -3.8546124 -20.700146
-10.647367 -4.8397145 -20.485672
-10.707137 -5.8402581 -20.213995
-10.791246 -6.8671575 -19.831676
-10.883443 -7.9152336 -19.412601
-10.982574 -8.9857435 -18.962002
-11.140382 -10.127619 -18.244701
-11.303439 -11.303441 -17.503527
-11.512564 -12.559162 -16.552965
-11.790397 -13.934107 -15.29008
-12.188505 -15.512642 -13.4805
-13.036942 -17.777651 -9.6239681
-11.216082 16.82412 -12.802387
-10.785067 15.099092 -14.957464
-10.48677 13.632799 -16.448948
-10.286528 12.343834 -17.450157
-10.101268 11.111393 -18.376459
-9.9811239 9.981122 -18.977175
-9.8680992 8.8812885 -19.542295
-9.7747364 7.8197899 -20.009113
-9.6953754 6.7867608 -20.405918
-9.6281118 5.7768664 -20.742241
-9.5826998 4.7913513 -20.969296
-9.537715 3.8150845 -21.194218
-9.5008583 2.850256 -21.378508
-9.4847021 1.8969402 -21.45929
-9.4758492 0.9475832 -21.503551
-9.467207 -1.9073486e-06 -21.546761
-9.4759598 -0.94759655 -21.502993
-9.4875536 -1.8975115 -21.445028
-9.5071173 -2.8521366 -21.347214
-9.5440512 -3.8176212 -21.16254
-9.5864105 -4.7932072 -20.950743
-9.6331835 -5.779912 -20.716877
-9.7016888 -6.7911859 -20.374352
-9.7865973 -7.829277 -19.949812
-9.875185 -8.8876686 -19.506868
-9.9952288 -9.9952278 -18.906652
-10.131892 -11.145082 -18.223337
-10.310949 -12.373138 -17.328051
-10.516412 -13.671333 -16.300741
-10.803713 -15.1252 -14.864234
-11.261609 -16.892414 -12.574749
-10.365559 18.427658 -11.29636
-9.8357697 16.39295 -14.239629
-9.5302 14.824753 -15.937242
-9.3051052 13.440706 -17.187767
-9.1380358 12.184045 -18.115936
-8.9976063 10.997074 -18.896097
-8.8896036 9.8773355 -19.496111
-8.7841368 8.7841358 -20.082037
-8.7142868 7.7460327 -20.470091
-8.6563396 6.7327061 -20.792019
-8.5906143 5.7270746 -21.157162
-8.5565319 4.7536287 -21.346512
-8.5177555 3.7856693 -21.561934
-8.4827566 2.8275862 -21.756371
-8.4691887 1.88204 -21.831749
-8.4598141 0.93997765 -21.883833
-8.4521608 1.9073486e-06 -21.926346
-8.4610491 -0.94011593 -21.876966
-8.4712448 -1.8825026 -21.820324
-8.485589 -2.8285303 -21.740635
-8.5156269 -3.7847214 -21.573757
-8.5566578 -4.7536993 -21.34581
-8.5980606 -5.7320423 -21.115795
-8.6576595 -6.7337356 -20.784691
-8.7217388 -7.7526569 -20.428688
-8.7947788 -8.7947807 -20.022911
-8.9005575 -9.8895082 -19.435255
-9.0117998 -11.014422 -18.817245
-9.1539478 -12.205266 -18.027529
-9.3330803 -13.481117 -17.032351
-9.5502167 -14.855894 -15.826037
-9.8633356 -16.438894 -14.086488
-10.439607 -18.559299 -10.884979
-8.9258919 17.851786 -13.095966
-8.5765476 16.081026 -15.279371
-8.3522387 14.616417 -16.681303
-8.1690893 13.274768 -17.825989
-8.0392284 12.058842 -18.637619
-7.9212213 10.891678 -19.375156
-7.8308015 9.7885008 -19.940285
-7.7491102 8.7177496 -20.450857
-7.6844192 7.684422 -20.855175
-7.6285672 6.6749949 -21.20425
-7.5736547 5.6802397 -21.547455
-7.5440063 4.715003 -21.732759
-7.5140619 3.7570314 -21.919907
-7.4915204 2.8093195 -22.060795
-7.4796376 1.8699093 -22.135063
-7.4677701 0.93346977 -22.20923
-7.4581871 -1.9073486e-06 -22.269129
-7.4682469 -0.93353081 -22.206253
-7.4811587 -1.8702927 -22.125555
-7.4941158 -2.8102951 -22.044575
-7.5207348 -3.7603693 -21.878199
-7.5500011 -4.7187529 -21.695288
-7.5799422 -5.6849589 -21.508156
-7.6339273 -6.6796885 -21.170744
-7.6932135 -7.6932144 -20.800209
-7.7549219 -8.724287 -20.41453
-7.838717 -9.7983971 -19.890814
-7.9358225 -10.911756 -19.283907
-8.0544691 -12.081704 -18.542368
-8.1892786 -13.30758 -17.6998
-8.3650751 -14.638883 -16.60108
-8.6007004 -16.126316 -15.128417
-8.9743042 -17.948612 -12.793393
-8.104475 19.682297 -10.993687
-7.6591983 17.506741 -14.174234
-7.4034619 15.864561 -16.000923
-7.2282248 14.456448 -17.252621
-7.0875044 13.162506 -18.257765
-6.9704866 11.949406 -19.093605
-6.8751626 10.803826 -19.774492
-6.8016391 9.7166271 -20.299658
-6.7312198 8.6544228 -20.802654
-6.6730976 7.626399 -21.217812
-6.6316686 6.6316667 -21.513733
-6.5921388 5.650404 -21.796085
-6.5623751 4.6874104 -22.00869
-6.5325556 3.7328882 -22.221684
-6.5130272 2.7912951 -22.361176
-6.5049219 1.8585472 -22.419067
-6.4981666 0.92830944 -22.467319
-6.4939709 -1.9073486e-06 -22.497292
-6.4987292 -0.92839146 -22.463303
-6.5060682 -1.8588781 -22.410883
-6.5153441 -2.7922888 -22.344624
-6.5389075 -3.7365179 -22.176311
-6.5670996 -4.6907873 -21.974937
-6.595922 -5.6536489 -21.769064
-6.6375303 -6.6375327 -21.471865
-6.6855545 -7.6406341 -21.128834
-6.7385492 -8.6638489 -20.750305
-6.8108516 -9.7297869 -20.233858
-6.8847232 -10.81885 -19.706203
-6.98317 -11.971148 -19.00301
-7.1016698 -13.188816 -18.156582
-7.2429814 -14.485964 -17.147211
-7.4272356 -15.915506 -15.83111
-7.6927547 -17.583439 -13.934547
-8.2411823 -20.014301 -10.017208
-6.7922373 19.244675 -12.280813
-6.4811616 17.283094 -14.873118
-6.2782321 15.695581 -16.564192
-6.1389327 14.324173 -17.725025
-6.0244732 13.053024 -18.678848
-5.9352555 11.870509 -19.422333
-5.8572989 10.73838 -20.071972
-5.7931061 9.6551762 -20.606911
-5.7326698 8.5990028 -21.110546
-5.6897645 7.5863504 -21.46809
-5.6545253 6.5969439 -21.761753
-5.6211429 5.6211433 -22.03994
-5.5961852 4.6634865 -22.247917
-5.5718665 3.7145748 -22.450577
-5.5549874 2.7774916 -22.591232
-5.5465627 1.848856 -22.661442
-5.5408173 0.92346764 -22.70932
-5.5391641 -0 -22.723095
-5.5415168 -0.9235878 -22.703491
-5.5477896 -1.8492632 -22.651217
-5.5568261 -2.7784176 -22.575912
-5.5753736 -3.7169189 -22.421352
-5.5993986 -4.6661634 -22.221144
-5.6242208 -5.6242218 -22.014288
-5.6582699 -6.6013145 -21.730549
-5.6971173 -7.5961561 -21.40682
-5.7383771 -8.6075649 -21.062986
-5.8005548 -9.667593 -20.544842
-5.8651452 -10.752767 -20.006588
-5.9439707 -11.887943 -19.34971
-6.0377345 -13.081762 -18.568336
-6.1554885 -14.362805 -17.587059
-6.29635 -15.740876 -16.413212
-6.4924278 -17.313143 -14.779231
-6.8260207 -19.340389 -11.999292
-5.5671988 18.928474 -13.210808
-5.3422437 17.095181 -15.460357
-5.1931601 15.579479 -16.951193
-5.0765262 14.214272 -18.117535
-4.9888444 12.970996 -18.99435
-4.9148655 11.795676 -19.734142
-4.8532 10.677038 -20.350796
-4.8003983 9.6007977 -20.878815
-4.7554407 8.5597935 -21.328388
-4.7186127 7.5497808 -21.696671
-4.6881752 6.563446 -22.001041
-4.6615829 5.5938959 -22.266968
-4.6417084 4.6417084 -22.46571
-4.6240215 3.6992168 -22.642578
-4.6110101 2.7666044 -22.772697
-4.603188 1.8412733 -22.850918
-4.5974669 0.91949368 -22.908127
-4.5967836 -9.5367432e-07 -22.914955
-4.5980844 -0.9196167 -22.901955
-4.604044 -1.8416185 -22.842358
-4.612596 -2.7675581 -22.756836
-4.6255369 -3.7004328 -22.627428
-4.6442003 -4.6442003 -22.440792
-4.6642985 -5.5971584 -22.239809
-4.6915655 -6.568192 -21.967144
-4.7232246 -7.5571589 -21.650551
-4.7599707 -8.5679474 -21.283089
-4.806047 -9.612093 -20.822327
-4.8603683 -10.69281 -20.279114
-4.9234672 -11.816321 -19.648127
-4.9980025 -12.994808 -18.902769
-5.0894032 -14.250329 -17.988764
-5.2069569 -15.620871 -16.813227
-5.362361 -17.159554 -15.259185
-5.5907969 -19.008707 -12.974828
-4.7418766 21.338444 -9.6093388
-4.3984733 18.69351 -13.901878
-4.2367177 16.946869 -15.923825
-4.1237984 15.464245 -17.335314
-4.0375667 14.131482 -18.413212
-3.9705303 12.904222 -19.251167
-3.9144483 11.743344 -19.95219
-3.8678844 10.636683 -20.534239
-3.8270633 9.5676575 -21.044506
-3.7913442 8.5305252 -21.490993
-3.7635555 7.5271125 -21.838348
-3.7413187 6.547308 -22.116314
-3.7204175 5.5806274 -22.377575
-3.7045612 4.6307011 -22.575779
-3.6888185 3.688817 -22.77257
-3.6776371 2.7582283 -22.912331
-3.6736491 1.8368263 -22.962183
-3.6699836 0.91749573 -23.008003
-3.6682997 -0 -23.029051
-3.6703391 -0.91758633 -23.003555
-3.674299 -1.8371515 -22.95406
-3.678499 -2.7588758 -22.901562
-3.6915479 -3.6915483 -22.738451
-3.7066839 -4.6333561 -22.549244
-3.7223971 -5.5835986 -22.352833
-3.7437232 -6.5515156 -22.086256
-3.7680614 -7.5361209 -21.782028
-3.7948537 -8.5384226 -21.447126
-3.8318136 -9.5795345 -20.985125
-3.8732378 -10.651403 -20.467323
-3.9210539 -11.763161 -19.869625
-3.9773633 -12.926431 -19.165752
-4.0462475 -14.161865 -18.304705
-4.1351509 -15.506817 -17.193413
-4.2536712 -17.014685 -15.711908
-4.4189925 -18.78072 -13.64539
-3.4828317 20.896988 -10.835604
-3.2713137 18.537443 -14.360899
-3.1611211 16.859312 -16.197439
-3.0830612 15.415304 -17.498444
-3.0180466 14.084215 -18.582022
-2.970577 12.872499 -19.37318
-2.9289782 11.715912 -20.066492
-2.893966 10.611207 -20.650032
-2.8640223 9.5467396 -21.149092
-2.836216 8.5086441 -21.612534
-2.8158092 7.5088253 -21.952641
-2.7991798 6.5314169 -22.229801
-2.7837081 5.5674152 -22.487661
-2.7717128 4.6195211 -22.687584
-2.7597339 3.6796446 -22.887234
-2.7537124 2.7537117 -22.987591
-2.7496734 1.8331156 -23.054907
-2.7465289 0.91550922 -23.107315
-2.7444053 -3.8146973e-06 -23.142708
-2.7466853 -0.91556358 -23.10471
-2.7501669 -1.8334465 -23.046684
-2.754545 -2.7545443 -22.973709
-2.7633197 -3.6844282 -22.827465
-2.7737515 -4.622921 -22.653606
-2.7852499 -5.5704999 -22.461964
-2.8013401 -6.5364609 -22.193794
-2.8197238 -7.5192633 -21.8874
-2.8397028 -8.5191088 -21.554417
-2.8674331 -9.5581131 -21.092243
-2.8975616 -10.624395 -20.590103
-2.9331248 -11.732499 -19.997383
-2.9755576 -12.894083 -19.290171
-3.0251958 -14.11758 -18.462868
-3.0907297 -15.45365 -17.370632
-3.1727557 -16.921366 -16.003531
-3.2881815 -18.63303 -14.079767
-2.3010447 20.7094 -11.356682
-2.172565 18.466803 -14.568672
-2.1024306 16.819441 -16.322039
-2.0503197 15.377397 -17.624802
-2.0087533 14.061272 -18.663965
-1.9765897 12.847832 -19.468052
-1.9480543 11.688326 -20.181437
-1.9250809 10.587944 -20.755775
-1.9067802 9.5338993 -21.213291
-1.8888795 8.499958 -21.660809
-1.8753793 7.5015173 -21.99831
-1.8628793 6.5200748 -22.310818
-1.851913 5.5557365 -22.584972
-1.8455304 4.6138258 -22.744535
-1.8387504 3.6774979 -22.91404
-1.8336848 2.7505283 -23.040676
-1.8309985 1.8309975 -23.107838
-1.828325 0.91416168 -23.174667
-1.8260946 -9.5367432e-07 -23.230431
-1.8283925 -0.91419601 -23.172981
-1.8313006 -1.8313026 -23.100281
-1.8342125 -2.7513208 -23.027481
-1.8399013 -3.6798038 -22.88526
-1.8464674 -4.616168 -22.721107
-1.8530806 -5.5592422 -22.555782
-1.8643577 -6.5252547 -22.273851
-1.8775403 -7.5101609 -21.94429
-1.8909049 -8.5090723 -21.610172
-1.9088612 -9.5443039 -21.161268
-1.9277678 -10.602721 -20.688604
-1.9505337 -11.703204 -20.119453
-1.9802933 -12.871906 -19.375465
-2.0133276 -14.093293 -18.549608
-2.0552561 -15.414422 -17.501394
-2.1094933 -16.875948 -16.145466
-2.1821623 -18.548378 -14.328739
-1.1477035 20.658661 -11.497621
-1.0856411 18.455898 -14.600738
-1.0496757 16.794809 -16.399012
-1.0235101 15.352651 -17.707291
-1.0036374 14.050922 -18.700926
-0.98749131 12.837385 -19.508232
-0.97329664 11.67956 -20.217964
-0.96197659 10.581741 -20.783972
-0.95241952 9.5241947 -21.261822
-0.94347626 8.4912834 -21.708982
-0.93746573 7.4997258 -22.009508
-0.93169034 6.5218325 -22.298275
-0.92604434 5.5562639 -22.580578
-0.92285246 4.6142626 -22.740171
-0.91906005 3.676239 -22.92979
-0.91578323 2.7473488 -23.093636
-0.91459376 1.8291874 -23.153107
-0.91386402 0.91386223 -23.189596
-0.91313279 -1.9073486e-06 -23.226156
-0.91393667 -0.91393566 -23.185963
-0.91490316 -1.8298082 -23.137636
-0.91603339 -2.7481003 -23.081125
-0.91886592 -3.6754637 -22.939499
-0.92273873 -4.6136932 -22.745861
-0.92664433 -5.5598679 -22.550579
-0.93190891 -6.5233641 -22.287352
-0.93793839 -7.5035086 -21.985876
-0.94434005 -8.4990587 -21.665796
-0.95322633 -9.5322666 -21.221481
-0.96343952 -10.597836 -20.710819
-0.97493297 -11.699198 -20.136147
-0.98912108 -12.858576 -19.426741
-1.0053493 -14.074889 -18.615334
-1.0261176 -15.391764 -17.57692
-1.0518095 -16.828953 -16.29232
-1.0895224 -18.521877 -14.406678
0 20.70015 -11.382376
0 18.458952 -14.59176
0 16.805773 -16.36475
0 15.364573 -17.667547
0 14.042427 -18.731268
0 12.835771 -19.514442
0 11.687969 -20.182915
0 10.5875 -20.75779
0 9.5262527 -21.251532
0 8.4900904 -21.715622
0 7.4979353 -22.020706
0 6.5222483 -22.295309
0 5.5567951 -22.576178
0 4.6131115 -22.751678
0 3.675313 -22.941338
0 2.7478647 -23.085037
0 1.8294783 -23.145824
0 0.91394997 -23.185312
0 -9.5367432e-07 -23.221752
0 -0.91392803 -23.186352
0 -1.829855 -23.136467
0 -2.7495165 -23.057518
0 -3.677165 -22.918242
0 -4.6142254 -22.740568
0 -5.5605083 -22.545242
0 -6.5232868 -22.287891
0 -7.5034218 -21.986423
0 -8.5028267 -21.644865
0 -9.5368118 -21.198744
0 -10.601295 -20.695097
0 -11.700755 -20.129648
0 -12.859009 -19.42507
0 -14.069353 -18.635113
0 -15.385337 -17.598341
0 -16.838308 -16.263081
0 -18.520311 -14.411287
1.155388 20.796982 -11.113395
1.0887115 18.508097 -14.447219
1.0522635 16.836216 -16.269619
1.0257218 15.385826 -17.596706
1.0053964 14.075549 -18.612976
0.98895389 12.856399 -19.435101
0.97469974 11.696394 -20.14781
0.96302718 10.593297 -20.731438
0.95389587 9.5389566 -21.188
0.94505829 8.5055237 -21.629883
0.93845528 7.5076385 -21.960032
0.93213832 6.5249681 -22.275879
0.92620963 5.5572586 -22.572315
0.92311722 4.6155834 -22.726936
0.92012691 3.6805077 -22.87645
0.91715592 2.7514658 -23.024998
0.9158926 1.8317842 -23.088165
0.91467959 0.91467667 -23.148817
0.91346973 -9.5367432e-07 -23.209309
0.91447425 -0.91447449 -23.159081
0.916049 -1.832099 -23.080343
0.91763192 -2.7528954 -23.001202
0.9202953 -3.681181 -22.868031
0.923724 -4.6186209 -22.6966
0.92717826 -5.5630698 -22.523884
0.93245167 -6.5271606 -22.260214
0.93923044 -7.513845 -21.921278
0.94610846 -8.5149746 -21.577375
0.95488369 -9.5488358 -21.138613
0.96460038 -10.610601 -20.652781
0.97568667 -11.708241 -20.098461
0.99099118 -12.882887 -19.333237
1.0070008 -14.098014 -18.532757
1.027802 -15.417031 -17.492699
1.0546981 -16.875174 -16.147886
1.093268 -18.585556 -14.219397
2.3402579 21.062321 -10.37635
2.1915686 18.62833 -14.09358
2.1140382 16.912306 -16.031837
2.0571873 15.428903 -17.453115
2.0169046 14.118333 -18.46018
1.9830631 12.88991 -19.306217
1.9544486 11.726691 -20.02158
1.9305779 10.618177 -20.618349
1.9112986 9.5564919 -21.100332
1.8935641 8.5210381 -21.543695
1.8799367 7.5197453 -21.884382
1.8680859 6.5382996 -22.180649
1.8570048 5.5710135 -22.457676
1.8497894 4.6244726 -22.638062
1.8428568 3.6857138 -22.811378
1.836898 2.7553473 -22.96035
1.8341029 1.8341017 -23.030228
1.8326303 0.91631413 -23.067043
1.831483 -2.8610229e-06 -23.095722
1.8327295 -0.91636848 -23.064564
1.8350179 -1.835021 -23.007351
1.837522 -2.7562819 -22.944746
1.8425982 -3.6851959 -22.817841
1.8506669 -4.6266699 -22.616123
1.8589998 -5.5770006 -22.407797
1.8693011 -6.5425572 -22.150269
1.882031 -7.5281272 -21.83202
1.8949299 -8.5271873 -21.509548
1.9128209 -9.564106 -21.062279
1.9343375 -10.638856 -20.524361
1.9572777 -11.743668 -19.950853
1.9870609 -12.915898 -19.206276
2.0181124 -14.126789 -18.429985
2.0623617 -15.467713 -17.323753
2.1182823 -16.946259 -15.925741
2.198185 -18.684572 -13.928169
3.6576726 21.946033 -7.9215889
3.3158836 18.790009 -13.618069
3.1895368 17.010859 -15.723853
3.1028981 15.514491 -17.167828
3.0375113 14.175053 -18.257605
2.9839444 12.930425 -19.150387
2.9434171 11.773668 -19.825842
2.906275 10.65634 -20.444878
2.8765059 9.5883541 -20.941031
2.8477268 8.5431805 -21.420681
2.8271468 7.5390587 -21.763683
2.8102279 6.5571995 -22.045664
2.7935104 5.587018 -22.324291
2.7820237 4.6367044 -22.515738
2.7713788 3.6951733 -22.69315
2.7620392 2.7620363 -22.848812
2.7578418 1.8385592 -22.918766
2.7559762 0.91865826 -22.94986
2.7542386 -9.5367432e-07 -22.978823
2.7556379 -0.91854572 -22.955498
2.7590871 -1.8393936 -22.898014
2.7640398 -2.7640409 -22.815468
2.7720153 -3.696022 -22.682545
2.7833471 -4.6389103 -22.493679
2.795913 -5.5918255 -22.284248
2.8109233 -6.5588217 -22.034077
2.8301134 -7.5469732 -21.714237
2.8523962 -8.557188 -21.342861
2.87956 -9.5985336 -20.890127
2.9109805 -10.673595 -20.366455
2.9448266 -11.779306 -19.802353
2.9904418 -12.958582 -19.042097
3.0428727 -14.200073 -18.168251
3.1084323 -15.542163 -17.075586
3.1965485 -17.048262 -15.606986
3.3280449 -18.858925 -13.415379
4.473073 19.010557 -12.969388
4.289474 17.157898 -15.264365
4.1602883 15.601081 -16.87919
4.0758152 14.265352 -17.935104
4.0014219 13.004622 -18.865019
3.9418252 11.825473 -19.609985
3.8889995 10.694747 -20.270306
3.8510487 9.6276226 -20.744686
3.8151879 8.5841732 -21.192947
3.7856247 7.571249 -21.562489
3.7602689 6.5804701 -21.879438
3.7354128 5.6031189 -22.190136
3.7205038 4.6506281 -22.376499
3.7089589 3.7089577 -22.520813
3.6974745 2.7731066 -22.66436
3.6909549 1.8454762 -22.745861
3.6867583 0.92169094 -22.798317
3.6825819 9.5367432e-07 -22.850521
3.6843207 -0.92107964 -22.828785
3.6917171 -1.8458595 -22.736334
3.6991427 -2.7743559 -22.643511
3.7090657 -3.7090693 -22.519476
3.7242603 -4.655324 -22.329544
3.7395797 -5.6093702 -22.13805
3.7599723 -6.5799527 -21.883144
3.7890902 -7.5781817 -21.519173
3.8190475 -8.5928574 -21.144703
3.8546233 -9.6365614 -20.700005
3.8968635 -10.716375 -20.172003
3.9453042 -11.835915 -19.566488
4.0038862 -13.01263 -18.834217
4.0802722 -14.280953 -17.879393
4.1753335 -15.6575 -16.691126
4.3015141 -17.206059 -15.113867
4.5001087 -19.12546 -12.631439
5.6997347 19.379099 -11.885448
5.4203434 17.345097 -14.679361
5.2534504 15.76035 -16.348291
5.1313238 14.367706 -17.569557
5.033319 13.086628 -18.549608
4.9578872 11.898926 -19.303925
4.8896108 10.757144 -19.986687
4.8384027 9.6768064 -20.498768
4.7919922 8.6255827 -20.962875
4.7529969 7.6047921 -21.352829
4.7218385 6.6105742 -21.66441
4.6939054 5.6326838 -21.943745
4.6725607 4.6725597 -22.157188
4.6552849 3.724225 -22.32995
4.6404366 2.7842646 -22.478428
4.631115 1.8524427 -22.571648
4.6269999 0.92539883 -22.612793
4.6252708 -9.5367432e-07 -22.630085
4.6269865 -0.92539883 -22.61293
4.6343293 -1.8537312 -22.539505
4.6417084 -2.7850275 -22.465714
4.6527677 -3.7222118 -22.355118
4.6750994 -4.6750975 -22.131802
4.6986065 -5.6383281 -21.896732
4.7243066 -6.6140304 -21.639732
4.7598014 -7.6156836 -21.284781
4.7958198 -8.6324749 -20.924599
4.8423777 -9.6847563 -20.459017
4.902452 -10.785393 -19.858278
4.9641123 -11.91387 -19.241676
5.0429883 -13.111773 -18.452911
5.1398635 -14.391621 -17.484163
5.26371 -15.79113 -16.245697
5.440907 -17.410902 -14.473726
5.7429824 -19.52614 -11.452971
7.0815907 20.064505 -9.8695431
6.6073275 17.619537 -13.821738
6.3800645 15.950159 -15.715595
6.2200289 14.513401 -17.049219
6.0874338 13.189437 -18.154186
5.9952006 11.990401 -18.922791
5.9120317 10.838724 -19.615866
5.8460917 9.7434855 -20.165367
5.7855387 8.6783066 -20.669975
5.7349172 7.6465535 -21.09182
5.6989164 6.6487346 -21.391825
5.6650095 5.6650076 -21.674385
5.6371593 4.6976309 -21.906469
5.6162052 3.7441368 -22.081083
5.596396 2.7981958 -22.246162
5.5848069 1.8616018 -22.342737
5.581336 0.93022156 -22.371662
5.5792394 -3.8146973e-06 -22.389132
5.5798364 -0.9299736 -22.384159
5.5887508 -1.8629169 -22.309872
5.6004376 -2.8002186 -22.212481
5.6154542 -3.743638 -22.087343
5.6418533 -4.7015438 -21.867353
5.6689844 -5.6689844 -21.641258
5.6986642 -6.6484432 -21.39393
5.7432756 -7.657701 -21.022167
5.7943578 -8.6915388 -20.596481
5.8514061 -9.7523441 -20.121077
5.9233479 -10.859474 -19.521563
5.9975281 -11.995059 -18.903393
6.100666 -13.218111 -18.043919
6.2293801 -14.535222 -16.971296
6.3958287 -15.989573 -15.584222
6.6343875 -17.691704 -13.596235
7.2451067 -20.527802 -8.5069084
7.8908305 18.036184 -12.519721
7.5621419 16.204586 -14.867497
7.3380609 14.67612 -16.468079
7.1854348 13.344378 -17.558264
7.0616221 12.105638 -18.442638
6.9523091 10.925057 -19.223442
6.8701096 9.8144417 -19.810585
6.8042688 8.7483435 -20.280874
6.7413321 7.7043791 -20.730427
6.6955695 6.6955676 -21.057301
6.6504431 5.7003813 -21.379627
6.6133494 4.7238197 -21.644588
6.5937605 3.7678595 -21.784512
6.5742669 2.817543 -21.92374
6.5582676 1.8737879 -22.038029
6.5525255 0.9360733 -22.079042
6.5468125 -1.9073486e-06 -22.119846
6.544302 -0.93490219 -22.137779
6.5600624 -1.8743038 -22.025206
6.5763979 -2.8184547 -21.908525
6.5928144 -3.7673254 -21.791264
6.623343 -4.7309613 -21.573204
6.6549029 -5.7042036 -21.347775
6.6941767 -6.6941772 -21.067251
6.7507253 -7.7151136 -20.663332
6.8093696 -8.7549038 -20.244444
6.8745966 -9.8208523 -19.778538
6.9644098 -10.944072 -19.137012
7.0682912 -12.117071 -18.395
7.19381 -13.359934 -17.49844
7.3551188 -14.710241 -16.34623
7.5788054 -16.240299 -14.748471
7.9341292 -18.135155 -12.210447
9.3460121 18.692024 -10.470221
8.8065758 16.512331 -13.841697
8.518405 14.907208 -15.642767
8.3156853 13.512987 -16.909763
8.1551943 12.232789 -17.912834
8.0353136 11.048553 -18.662085
7.9289303 9.9111624 -19.326982
7.8434691 8.8239021 -19.861113
7.7654243 7.7654219 -20.348894
7.7105393 6.7467198 -20.691921
7.6643348 5.7482462 -20.980707
7.6202354 4.7626457 -21.256325
7.5929079 3.7964535 -21.427122
7.5657763 2.8371639 -21.596695
7.5445366 1.8861303 -21.729443
7.5392342 0.94240475 -21.762581
7.5391684 -2.8610229e-06 -21.762997
7.5391021 -0.94239044 -21.763409
7.5539222 -1.8884802 -21.670782
7.5698686 -2.8387003 -21.571115
7.5862408 -3.7931213 -21.46879
7.6264658 -4.7665429 -21.217384
7.6715965 -5.7536979 -20.935318
7.7172651 -6.7526069 -20.649891
7.7801847 -7.7801862 -20.256641
7.8522487 -8.8337793 -19.806244
7.935945 -9.9199324 -19.28314
8.036643 -11.050385 -18.653776
8.1669388 -12.250406 -17.839432
8.3282471 -13.533402 -16.831249
8.5394535 -14.944042 -15.511213
8.8436623 -16.581865 -13.60991
9.4659348 -18.93187 -9.7207031
10.222949 17.038246 -12.088635
9.7766743 15.208158 -14.56794
9.5120163 13.739577 -16.038263
9.3037014 12.404931 -17.195572
9.1486855 11.181728 -18.056765
9.0174942 10.019438 -18.785603
8.9192228 8.9192219 -19.331562
8.8293362 7.8483 -19.830925
8.7587423 6.8123541 -20.223114
8.7008057 5.8005371 -20.544987
8.6484823 4.8047113 -20.835672
8.6145554 3.8286896 -21.024158
8.5854445 2.8618116 -21.185879
8.5618944 1.9026413 -21.316719
8.5552177 0.95057774 -21.353811
8.5520086 9.5367432e-07 -21.371634
8.551959 -0.95022011 -21.371918
8.5656662 -1.9034815 -21.295759
8.5908937 -2.8636332 -21.155603
8.6183996 -3.8304005 -21.0028
8.6597557 -4.8109798 -20.773041
8.7093344 -5.8062234 -20.497602
8.75951 -6.812952 -20.218849
8.8387938 -7.8567066 -19.778387
8.9323158 -8.9323177 -19.25882
9.0278378 -10.030931 -18.728144
9.159709 -11.1952 -17.995525
9.3211861 -12.428247 -17.098433
9.526 -13.759777 -15.960576
9.8107166 -15.261115 -14.378816
10.278819 -17.131365 -11.778245
11.18583 15.660158 -12.953647
10.790708 14.027917 -14.929258
10.514797 12.617754 -16.308815
10.323717 11.356087 -17.264214
10.157122 10.157119 -18.097187
10.031681 9.028511 -18.72439
9.930645 7.9445162 -19.229576
9.8422661 6.8895841 -19.671463
9.7736387 5.8641858 -20.014603
9.7095041 4.8547516 -20.335278
9.6668062 3.8667221 -20.548763
9.6389542 2.8916855 -20.688026
9.6122379 1.9224463 -20.821609
9.599679 0.95996857 -20.884399
9.5949278 9.5367432e-07 -20.908157
9.5963011 -0.95963192 -20.901287
9.6138458 -1.9227686 -20.813572
9.6415825 -2.8924732 -20.674889
9.6710472 -3.8684225 -20.527557
9.713665 -4.8568325 -20.31447
9.7830572 -5.869833 -19.967512
9.8545322 -6.8981738 -19.610136
9.9419956 -7.9535975 -19.172821
10.046965 -9.0422678 -18.647976
10.1771 -10.177101 -17.997295
10.32988 -11.362867 -17.233395
10.543595 -12.652316 -16.164818
10.816239 -14.061112 -14.8016
11.252632 -15.753687 -12.619637
12.951187 16.48333 -10.013763
12.193542 14.410549 -13.457601
11.839569 12.915891 -15.066574
11.564501 11.5645 -16.316885
11.369036 10.335485 -17.205364
11.208989 9.1709919 -17.932846
11.07902 8.0574656 -18.523621
10.959522 6.9742427 -19.066786
10.887995 5.9389052 -19.391912
10.821066 4.9186664 -19.696135
10.764766 3.9144592 -19.952045
10.727415 2.9256592 -20.121817
10.690324 1.9436951 -20.290417
10.67189 0.97017097 -20.374203
10.67762 -9.5367432e-07 -20.348164
10.683355 -0.97121716 -20.32209
10.697268 -1.9449568 -20.258844
10.728456 -2.9259424 -20.117088
10.771021 -3.916739 -19.923609
10.825004 -4.9204578 -19.678234
10.902783 -5.9469724 -19.324688
10.981654 -6.988327 -18.966185
11.082522 -8.0600147 -18.507696
11.229326 -9.1876316 -17.840405
11.380035 -10.345487 -17.155359
11.599057 -11.599057 -16.159811
11.877665 -12.957453 -14.893413
12.271656 -14.502867 -13.102543
13.244282 -16.856356 -8.6815176
14.036393 15.206088 -10.397829
13.322788 13.322789 -13.371175
12.917534 11.841075 -15.059734
12.665302 10.554417 -16.110704
12.437494 9.3281193 -17.059902
12.29479 8.1965265 -17.654503
12.162176 7.0946026 -18.207064
12.061554 6.0307775 -18.62632
11.974415 4.989336 -18.989401
11.892297 3.9640961 -19.331558
11.86176 2.9654388 -19.458792
11.831671 1.9719429 -19.584167
11.805232 0.98376656 -19.69433
11.805918 1.9073486e-06 -19.691471
11.80664 -0.98388767 -19.688461
11.819069 -1.9698458 -19.636673
11.866973 -2.9667459 -19.437077
11.917068 -3.9723558 -19.22835
11.969961 -4.9874849 -19.007959
12.069884 -6.0349412 -18.59161
12.184278 -7.1074958 -18.114971
12.304935 -8.2032909 -17.612228
12.474012 -9.3555098 -16.907745
12.693986 -10.578321 -15.991193
12.951933 -11.872607 -14.916409
13.386843 -13.386844 -13.104283
14.127688 -15.304995 -10.017424
15.310038 14.13234 -9.9980345
14.51338 12.280552 -13.062102
14.098545 10.845036 -14.657625
13.81521 9.564373 -15.747374
13.606332 8.3731279 -16.550747
13.431905 7.2325616 -17.221622
13.28898 6.1333728 -17.771334
13.204092 5.0784979 -18.097828
13.12024 4.0369968 -18.420334
13.064357 3.0148497 -18.635269
13.02146 2.0032997 -18.800261
12.978802 0.99837017 -18.964327
12.985328 -1.9073486e-06 -18.939228
13.003166 -1.0002413 -18.870617
13.021014 -2.0032339 -18.801975
13.066684 -3.0153899 -18.626328
13.130452 -4.0401416 -18.381058
13.20897 -5.0803747 -18.079069
13.322962 -6.1490579 -17.640636
13.450776 -7.2427263 -17.14904
13.616384 -8.3793125 -16.512087
13.851161 -9.5892658 -15.609102
14.14564 -10.881264 -14.476486
14.527339 -12.292364 -13.008413
15.506372 -14.313574 -9.2429018
17.16931 13.49017 -7.5638375
15.811069 11.293619 -12.414696
15.371338 9.8815727 -13.985165
15.040574 8.594614 -15.166459
14.828708 7.4143515 -15.923128
14.649972 6.2785578 -16.56147
14.526925 5.1881881 -17.000923
14.414731 4.118495 -17.401613
14.330373 3.0707941 -17.702898
14.298537 2.0426478 -17.816591
14.267793 1.0191288 -17.926394
14.255965 -0 -17.968634
14.269239 -1.0192308 -17.92123
14.293503 -2.0419273 -17.834572
14.352009 -3.0754323 -17.62562
14.437086 -4.1248817 -17.321772
14.523131 -5.1868324 -17.014467
14.674067 -6.2888856 -16.475414
14.86859 -7.4342957 -15.780687
15.06829 -8.6104507 -15.067472
15.415198 -9.9097719 -13.828517
15.924397 -11.374573 -12.009946
17.332874 10.399721 -11.106552
16.794973 8.9573193 -12.899549
16.41642 7.6609955 -14.161398
16.185411 6.4741631 -14.931427
15.986872 5.3289557 -15.593224
15.854036 4.2277436 -16.036007
15.746728 3.1493444 -16.393703
15.687217 2.0916276 -16.592075
15.643954 1.0429282 -16.736284
15.621073 -3.8146973e-06 -16.812553
15.656994 -1.0438008 -16.692816
15.693233 -2.092433 -16.572018
15.736565 -3.1473165 -16.427582
15.869569 -4.2318864 -15.984233
16.011475 -5.3371582 -15.511212
16.171097 -6.4684405 -14.97914
16.487457 -7.6941481 -13.924602
16.836563 -8.9795008 -12.760919
17.457106 -10.474264 -10.692444
18.606918 8.1405277 -10.736176
18.060984 6.7728691 -12.442225
17.727148 5.5397334 -13.485457
17.509478 4.377367 -14.165678
17.380989 3.2589345 -14.567207
17.269533 2.1586909 -14.915504
17.227816 1.0767379 -15.045869
17.186245 -9.5367432e-07 -15.175783
17.20462 -1.0752888 -15.118359
17.291338 -2.1614184 -14.847363
17.378935 -3.2585478 -14.573624
17.522587 -4.3806491 -14.124716
17.784147 -5.5575457 -13.307333
18.101999 -6.78825 -12.314047
18.630751 -8.1509514 -10.661705
19.895592 4.6813145 -10.36635
19.498304 3.4408765 -11.53484
19.300819 2.2706838 -12.115681
19.182325 1.1283731 -12.464191
19.157206 -2.3841858e-06 -12.538074
19.176409 -1.1280246 -12.481592
19.322701 -2.2732587 -12.051321
19.52858 -3.4462197 -11.445797
19.950003 -4.6941199 -10.206316
