# .PCD v0.7 - Point Cloud Data file format
VERSION 0.7
FIELDS x y z
SIZE 4 4 4
TYPE F F F
COUNT 1 1 1
WIDTH 1077
HEIGHT 1
VIEWPOINT 0 0 0 1 0 0 0
POINTS 1077
DATA ascii
-22.234552 2.3404784 -10.370818
-21.978333 1.1567526 -11.045078
-21.931509 4.7683716e-07 -11.168305
-21.905737 -1.1529317 -11.236122
-22.30422 -2.3478119 -10.187483
-20.668467 6.8894873 -11.470385
-20.191973 5.6088781 -12.79398
-19.84235 4.4094081 -13.765156
-19.672207 3.2787032 -14.237774
-19.504892 2.1672096 -14.702537
-19.427572 1.0793076 -14.917315
-19.439243 4.7683716e-07 -14.884898
-19.457199 -1.0809555 -14.835023
-19.55018 -2.1722426 -14.576738
-19.675282 -3.2792149 -14.229238
-19.870596 -4.4156904 -13.686695
-20.251266 -5.6253548 -12.629275
-20.82053 -6.9401793 -11.047991
-19.263578 9.0652122 -12.225216
-18.708405 7.7034607 -13.858073
-18.398182 6.4934764 -14.770498
-18.138517 5.3348556 -15.534216
-17.964487 4.2269387 -16.04607
-17.856602 3.1511636 -16.363379
-17.749949 2.0882273 -16.677067
-17.699072 1.0411215 -16.826706
-17.7103 -0 -16.793676
-17.721603 -1.0424519 -16.760437
-17.778959 -2.0916457 -16.591736
-17.860973 -3.151938 -16.350521
-17.97086 -4.2284374 -16.027325
-18.183912 -5.3482094 -15.400698
-18.408518 -6.4971247 -14.740093
-18.793621 -7.7385507 -13.607439
-19.382395 -9.1211281 -11.875756
-18.320396 11.450247 -11.631557
-17.58116 9.8893976 -13.941678
-17.227644 8.613821 -15.046411
-16.909029 7.3976989 -16.04208
-16.721619 6.270606 -16.627737
-16.546078 5.1706476 -17.176306
-16.408358 4.1020894 -17.606674
-16.342844 3.0642819 -17.811403
-16.277853 2.03473 -18.014507
-16.241245 1.0150728 -18.128902
-16.232031 1.9073486e-06 -18.1577
-16.233974 -1.0146227 -18.151627
-16.273634 -2.034204 -18.027687
-16.354057 -3.0663867 -17.776369
-16.439949 -4.1099873 -17.507959
-16.577827 -5.1805696 -17.077087
-16.737762 -6.2766609 -16.57729
-16.962671 -7.4211702 -15.874451
-17.264149 -8.6320753 -14.932331
-17.682526 -9.9464226 -13.624904
-18.493645 -11.558528 -11.090156
-16.826117 12.339151 -12.795744
-16.284674 10.856448 -14.600553
-15.890935 9.5345583 -15.913017
-15.651054 8.347229 -16.712616
-15.423088 7.1974392 -17.4725
-15.283292 6.1133151 -17.938492
-15.160275 5.0534253 -18.348545
-15.059681 4.015914 -18.683863
-14.990235 2.9980478 -18.915342
-14.935832 1.9914436 -19.096687
-14.909401 0.99395943 -19.184795
-14.903049 -1.9073486e-06 -19.205965
-14.910184 -0.99401379 -19.182184
-14.944479 -1.9925985 -19.067867
-14.997967 -2.9995918 -18.889574
-15.059681 -4.0159154 -18.683863
-15.164277 -5.0547595 -18.335209
-15.305873 -6.1223516 -17.86322
-15.453847 -7.2117953 -17.369968
-15.675959 -8.3605118 -16.629601
-15.945683 -9.5674114 -15.730525
-16.331667 -10.887779 -14.443903
-16.870455 -12.371667 -12.647949
-15.559033 13.336312 -13.314816
-15.065166 11.836915 -15.078632
-14.716629 10.511876 -16.323408
-14.465964 9.2995481 -17.218637
-14.264992 8.1514215 -17.936394
-14.103969 7.0519829 -18.51148
-13.985501 5.9937854 -18.934574
-13.871484 4.9540987 -19.341778
-13.797064 3.9420195 -19.607569
-13.745459 2.9454546 -19.791868
-13.700986 1.9572821 -19.950703
-13.678108 0.97700596 -20.032408
-13.67483 -1.9073486e-06 -20.044121
-13.684133 -0.97743893 -20.010897
-13.709741 -1.9585342 -19.919439
-13.75171 -2.9467964 -19.769547
-13.809623 -3.9456077 -19.562714
-13.894927 -4.9624743 -19.258053
-13.996537 -5.9985185 -18.895164
-14.104808 -7.0524044 -18.508488
-14.287519 -8.164299 -17.855942
-14.48005 -9.3086033 -17.168329
-14.750499 -10.536073 -16.202442
-15.099043 -11.863537 -14.957644
-15.667677 -13.42944 -12.926808
-14.422771 14.42277 -13.410602
-13.911911 12.841761 -15.375445
-13.607084 11.513685 -16.547855
-13.334766 10.25751 -17.595234
-13.155183 9.1074324 -18.285938
-12.99739 7.9983945 -18.892838
-12.859997 6.9246111 -19.42127
-12.773811 5.8956046 -19.75275
-12.688737 4.8802838 -20.079964
-12.623879 3.8842688 -20.329414
-12.575158 2.9019585 -20.516802
-12.536611 1.928709 -20.665066
-12.517856 0.96291065 -20.737198
-12.526589 -1.9073486e-06 -20.703609
-12.525088 -0.96346951 -20.709379
-12.548455 -1.9305325 -20.619509
-12.591244 -2.905673 -20.454941
-12.624565 -3.8844843 -20.326778
-12.689237 -4.8804741 -20.078039
-12.786617 -5.901516 -19.703499
-12.885465 -6.9383273 -19.323318
-13.02 -8.01231 -18.805872
-13.181585 -9.1257143 -18.184391
-13.381639 -10.293568 -17.414951
-13.636711 -11.538757 -16.433905
-13.98838 -12.912352 -15.081327
-14.519474 -14.519474 -13.038661
-13.400732 15.634189 -13.046412
-12.880182 13.953529 -15.215369
-12.537877 12.537877 -16.641647
-12.299841 11.274853 -17.633457
-12.098281 10.0819 -18.473291
-11.94789 8.9609165 -19.099922
-11.818274 7.8788486 -19.639988
-11.713319 6.8327675 -20.077301
-11.62993 5.8149652 -20.424749
-11.547722 4.8115501 -20.767288
-11.496776 3.8322554 -20.979567
-11.464693 2.8661747 -21.113241
-11.432756 1.9054594 -21.246311
-11.404059 0.95033741 -21.365883
-11.402882 -1.9073486e-06 -21.370794
-11.411406 -0.95095158 -21.335276
-11.429744 -1.9049568 -21.25886
-11.459863 -2.8649654 -21.133369
-11.496981 -3.8323278 -20.97871
-11.567161 -4.8196502 -20.686295
-11.639079 -5.8195367 -20.386631
-11.714029 -6.8331838 -20.074341
-11.830365 -7.8869128 -19.589603
-11.961508 -8.9711323 -19.04318
-12.108294 -10.090247 -18.431566
-12.330236 -11.302719 -17.506809
-12.566189 -12.566188 -16.523676
-12.9364 -14.014432 -14.981127
-13.513553 -15.76581 -12.576326
-12.438347 16.96138 -12.344857
-11.862897 15.098231 -14.960536
-11.539433 13.637512 -16.43083
-11.278159 12.303447 -17.618437
-11.090021 11.090021 -18.47361
-10.914986 9.9227104 -19.269226
-10.801981 8.8379803 -19.782883
-10.692875 7.7766347 -20.27882
-10.601929 6.7466817 -20.692211
-10.536326 5.7470884 -20.990398
-10.473515 4.7606897 -21.275909
-10.428008 3.7920017 -21.482758
-10.39387 2.8346949 -21.63793
-10.359955 1.8836279 -21.792091
-10.34621 0.94056416 -21.854572
-10.348205 -2.8610229e-06 -21.845501
-10.356167 -0.9414711 -21.809311
-10.371762 -1.8857746 -21.738424
-10.396679 -2.8354588 -21.625168
-10.423863 -3.7904949 -21.501598
-10.474506 -4.7611394 -21.271402
-10.543608 -5.7510567 -20.957306
-10.613594 -6.7541084 -20.639187
-10.704708 -7.7852416 -20.225029
-10.81852 -8.8515167 -19.707706
-10.944309 -9.9493732 -19.135937
-11.112579 -11.112581 -18.371069
-11.306399 -12.334255 -17.490074
-11.577435 -13.682424 -16.258089
-11.941529 -15.198309 -14.603117
-12.58077 -17.155594 -11.697474
-11.776823 18.842915 -9.998683
-10.937771 16.406654 -14.193946
-10.557466 14.780451 -16.095469
-10.307119 13.399256 -17.347202
-10.102662 12.123196 -18.369484
-9.9452829 10.939808 -19.156382
-9.8113012 9.8113012 -19.82629
-9.7093573 8.7384205 -20.336008
-9.6083918 7.6867127 -20.840837
-9.5348606 6.6744018 -21.208488
-9.4785843 5.687149 -21.489876
-9.4237671 4.7118816 -21.763962
-9.384799 3.7539196 -21.958797
-9.3528891 2.8058653 -22.118351
-9.3305988 1.8661165 -22.229801
-9.3199263 0.93199158 -22.283167
-9.3143959 -9.5367432e-07 -22.310818
-9.3219233 -0.93219185 -22.273182
-9.3346043 -1.8669195 -22.209774
-9.3573484 -2.8072042 -22.096054
-9.387044 -3.754817 -21.947577
-9.426528 -4.7132616 -21.75016
-9.4830799 -5.6898508 -21.467392
-9.5472221 -6.6830535 -21.146687
-9.6239071 -7.6991253 -20.763258
-9.7182417 -8.746418 -20.29159
-9.814682 -9.814682 -19.809383
-9.9633875 -10.959727 -19.065861
-10.120231 -12.144279 -18.281641
-10.333827 -13.433976 -17.213661
-10.589286 -14.824998 -15.936372
-11.006148 -16.50922 -13.852056
-10.074076 17.909464 -12.915714
-9.6302986 16.050493 -15.381138
-9.3437986 14.534796 -16.972805
-9.1376314 13.198801 -18.118176
-8.9739656 11.965288 -19.027428
-8.8441916 10.809566 -19.748398
-8.7332048 9.7035599 -20.36499
-8.6421347 8.6421337 -20.870937
-8.5668564 7.614984 -21.289145
-8.504425 6.6145525 -21.635986
-8.4584055 5.6389351 -21.891655
-8.4138832 4.6743784 -22.139
-8.3817434 3.7252188 -22.317551
-8.3560877 2.7853622 -22.460087
-8.333848 1.8519659 -22.583641
-8.3240042 0.92488861 -22.638325
-8.3244114 9.5367432e-07 -22.636066
-8.3303728 -0.92559814 -22.602947
-8.3411674 -1.8535919 -22.542976
-8.3598013 -2.786602 -22.439455
-8.3807735 -3.7247877 -22.322945
-8.4150324 -4.6750183 -22.132622
-8.4618645 -5.6412444 -21.872435
-8.5141249 -6.6220994 -21.5821
-8.576395 -7.6234651 -21.236158
-8.6525908 -8.6525927 -20.812851
-8.744278 -9.7158661 -20.303471
-8.8597736 -10.828615 -19.661831
-8.998333 -11.997778 -18.892056
-9.1657667 -13.239442 -17.961866
-9.3737049 -14.581319 -16.806656
-9.6696186 -16.116032 -15.162694
-10.152893 -18.049585 -12.477837
-9.3950539 19.964489 -10.163706
-8.7232666 17.446531 -14.36238
-8.4130192 15.774412 -16.301424
-8.1947269 14.340767 -17.665758
-8.0240192 13.039031 -18.732674
-7.8943586 11.841537 -19.543053
-7.7892466 10.710215 -20.200003
-7.7003694 9.6254625 -20.755486
-7.6294036 8.5830784 -21.199026
-7.5578251 7.5578237 -21.646389
-7.508759 6.5701647 -21.953051
-7.4688315 5.6016216 -22.202599
-7.4287052 4.6429386 -22.453392
-7.4020715 3.7010355 -22.619846
-7.3804922 2.767683 -22.754721
-7.3614993 1.8403749 -22.873425
-7.3475289 0.91843987 -22.960743
-7.350738 -9.5367432e-07 -22.940681
-7.3556523 -0.91945744 -22.909966
-7.3656483 -1.8414135 -22.847494
-7.3815293 -2.768075 -22.748241
-7.3977966 -3.6989012 -22.646564
-7.429584 -4.6434908 -22.447899
-7.4726472 -5.604485 -22.178753
-7.5167828 -6.5771856 -21.902905
-7.5699139 -7.5699143 -21.570835
-7.63626 -8.5907917 -21.156172
-7.7055087 -9.6318874 -20.723366
-7.8003621 -10.725498 -20.130535
-7.9098082 -11.864713 -19.446495
-8.0446787 -13.072605 -18.603552
-8.2126589 -14.372152 -17.553682
-8.4467201 -15.8376 -16.090797
-8.769948 -17.539898 -14.070622
-7.8704305 19.113903 -12.665436
-7.486001 17.110861 -15.411359
-7.2557192 15.547966 -17.056234
-7.0934186 14.186834 -18.215521
-6.9566031 12.919405 -19.192774
-6.855454 11.752207 -19.915264
-6.7673335 10.634379 -20.544697
-6.6919894 9.5599842 -21.082874
-6.6299124 8.5241718 -21.526279
-6.5748429 7.5141044 -21.91963
-6.532423 6.532423 -22.222633
-6.4943829 5.5666151 -22.494347
-6.4577823 4.6126995 -22.755777
-6.4376311 3.678647 -22.899719
-6.4228005 2.7526274 -23.00565
-6.4080391 1.830864 -23.111092
-6.396976 0.91385078 -23.190115
-6.3986473 -2.8610229e-06 -23.178173
-6.3973751 -0.91391373 -23.18726
-6.4048319 -1.8299532 -23.133995
-6.4225445 -2.7525206 -23.007481
-6.4387164 -3.6792679 -22.891968
-6.4669399 -4.6192446 -22.690369
-6.4999852 -5.5714188 -22.454327
-6.5343556 -6.5343566 -22.208828
-6.5794706 -7.5193944 -21.886578
-6.6367488 -8.5329628 -21.477451
-6.6979775 -9.5685387 -21.040096
-6.7767186 -10.64913 -20.477661
-6.8704243 -11.77787 -19.808338
-6.9785409 -12.960148 -19.036077
-7.1089306 -14.21786 -18.104721
-7.2813988 -15.602995 -16.872807
-7.5293608 -17.209967 -15.10165
-7.9729071 -19.362778 -11.933456
-6.6093397 18.726461 -13.804965
-6.3364329 16.897156 -16.079187
-6.1657486 15.41437 -17.50156
-6.0333772 14.077879 -18.604652
-5.9234576 12.834156 -19.520653
-5.8393383 11.678677 -20.221645
-5.7620931 10.563837 -20.865353
-5.6996565 9.4994259 -21.385658
-5.6521749 8.4782629 -21.78134
-5.6054773 7.4739695 -22.170481
-5.5700183 6.498354 -22.465981
-5.5385761 5.5385761 -22.727993
-5.5111341 4.5926123 -22.956676
-5.4932141 3.6621408 -23.106014
-5.4773674 2.7386808 -23.23807
-5.4643779 1.8214588 -23.346317
-5.4598508 0.9099741 -23.384043
-5.462739 9.5367432e-07 -23.359968
-5.4626927 -0.91044903 -23.360357
-5.4689279 -1.822978 -23.308395
-5.4838533 -2.7419291 -23.184013
-5.4950428 -3.6633615 -23.090771
-5.5142817 -4.5952368 -22.930449
-5.5423121 -5.5423155 -22.696863
-5.5725255 -6.5012789 -22.445084
-5.6088481 -7.4784632 -22.142395
-5.6579547 -8.4869347 -21.733171
-5.7101231 -9.5168724 -21.298435
-5.7745347 -10.586645 -20.761675
-5.8466225 -11.693247 -20.160942
-5.9355288 -12.860313 -19.420053
-6.0462232 -14.107855 -18.497599
-6.1828451 -15.457114 -17.359083
-6.3663282 -16.976879 -15.83006
-6.6496034 -18.840546 -13.469436
-5.8456497 21.044338 -10.426299
-5.4342737 18.476526 -14.54006
-5.2340899 16.749086 -16.541897
-5.0951076 15.285322 -17.931721
-4.9945893 13.984849 -18.936903
-4.9075508 12.759629 -19.807293
-4.8393922 11.614542 -20.488873
-4.7799635 10.515921 -21.083157
-4.7304311 9.4608612 -21.578485
-4.6883531 8.4390354 -21.999266
-4.6470165 7.435225 -22.412632
-4.6208215 6.4691505 -22.67458
-4.5979004 5.517477 -22.903793
-4.5752187 4.5752172 -23.130613
-4.5605526 3.6484423 -23.277267
-4.5474453 2.728466 -23.40834
-4.53619 1.814476 -23.520897
-4.5320382 0.90640736 -23.562418
-4.5330338 -0 -23.55246
-4.5350652 -0.90701389 -23.532146
-4.5401444 -1.8160591 -23.481348
-4.5502486 -2.7301512 -23.38031
-4.5594931 -3.6475964 -23.287867
-4.5750751 -4.5750742 -23.132044
-4.6001482 -5.5201788 -22.881315
-4.6262951 -6.4768109 -22.61985
-4.6560526 -7.4496865 -22.322269
-4.6938782 -8.4489784 -21.944016
-4.7328796 -9.4657593 -21.553999
-4.7852516 -10.527554 -21.030281
-4.8462133 -11.630912 -20.420664
-4.9152408 -12.779629 -19.730389
-5.0077081 -14.021583 -18.805716
-5.1155334 -15.346599 -17.727465
-5.2561274 -16.819609 -16.32152
-5.4605713 -18.565941 -14.277086
-4.5580282 20.511127 -11.907446
-4.3070555 18.304981 -15.044608
-4.1615524 16.64621 -16.863388
-4.0542626 15.203486 -18.204508
-3.9759138 13.915697 -19.183872
-3.903883 12.687619 -20.084259
-3.8547502 11.564249 -20.698416
-3.8087423 10.474037 -21.273518
-3.7698379 9.4245949 -21.759821
-3.7376254 8.4096546 -22.162479
-3.7080505 7.4161024 -22.532164
-3.6860616 6.4506083 -22.807026
-3.6655941 5.4983912 -23.062866
-3.6463547 4.5579414 -23.303364
-3.6358294 3.6358309 -23.434927
-3.6278269 2.7208719 -23.534958
-3.6198497 1.8099232 -23.634676
-3.616575 0.90414333 -23.675606
-3.6154778 -0 -23.689322
-3.6143816 -0.90359497 -23.703026
-3.6182523 -1.8091269 -23.654644
-3.6284711 -2.7213535 -23.526905
-3.6387482 -3.6387501 -23.398443
-3.6510706 -4.5638409 -23.244413
-3.6688852 -5.5033264 -23.02173
-3.6871703 -6.4525471 -22.793169
-3.7105515 -7.421103 -22.500904
-3.7407749 -8.4167461 -22.123108
-3.7737503 -9.4343777 -21.710918
-3.8135266 -10.487199 -21.213717
-3.8623374 -11.587013 -20.603579
-3.9165206 -12.728691 -19.926289
-3.9843061 -13.945072 -19.078966
-4.0665321 -15.249495 -18.051144
-4.1716399 -16.686562 -16.737299
-4.3298283 -18.401772 -14.759942
-4.6242914 -20.809311 -11.079152
-3.383918 20.303507 -12.484161
-3.2078066 18.177568 -15.419355
-3.1038258 16.553738 -17.152367
-3.0280516 15.140253 -18.415272
-2.9706318 13.862947 -19.372265
-2.9211442 12.658292 -20.197056
-2.8832836 11.533133 -20.82807
-2.8470383 10.439138 -21.432159
-2.8187687 9.395895 -21.903315
-2.7963421 8.3890247 -22.277096
-2.7742774 7.3980722 -22.644836
-2.7579679 6.4352551 -22.916664
-2.742924 5.4858465 -23.167397
-2.7297554 4.549593 -23.386871
-2.7213917 3.6285229 -23.526264
-2.7140477 2.7140455 -23.64867
-2.7080946 1.8053961 -23.747887
-2.7056737 0.90189075 -23.788235
-2.7054615 -9.5367432e-07 -23.791771
-2.7062728 -0.90209103 -23.778252
-2.7093179 -1.8062134 -23.727493
-2.7152233 -2.7152233 -23.629078
-2.7224507 -3.6299353 -23.508617
-2.7315936 -4.5526562 -23.356234
-2.7448812 -5.4897623 -23.134775
-2.7589529 -6.4375567 -22.900246
-2.7759047 -7.4024138 -22.617718
-2.7989688 -8.3969078 -22.233318
-2.8235831 -9.4119444 -21.823078
-2.8530874 -10.461323 -21.331339
-2.8870168 -11.548068 -20.765848
-2.9257209 -12.678125 -20.120783
-2.9770439 -13.892873 -19.2654
-3.036155 -15.180775 -18.280209
-3.116349 -16.620527 -16.943647
-3.2259846 -18.280581 -15.116385
-3.4118888 -20.471331 -12.017988
-2.2390261 20.151234 -12.907145
-2.1310749 18.114136 -15.605927
-2.0638695 16.510954 -17.28606
-2.0116034 15.087021 -18.592712
-1.9759283 13.831495 -19.484587
-1.9430851 12.630053 -20.30567
-1.9181278 11.508767 -20.9296
-1.8957949 10.42687 -21.487925
-1.8771405 9.3857002 -21.954283
-1.8609402 8.3742304 -22.359289
-1.8450278 7.3801107 -22.757099
-1.8353214 6.423624 -22.99976
-1.8264781 5.479434 -23.220844
-1.8177196 4.5442991 -23.439806
-1.8121721 3.624341 -23.578497
-1.8071197 2.71068 -23.7048
-1.8024487 1.8024483 -23.821575
-1.8008603 0.90043068 -23.861288
-1.8013694 9.5367432e-07 -23.84856
-1.801909 -0.9009552 -23.835072
-1.8039291 -1.8039312 -23.784573
-1.8078557 -2.7117853 -23.686403
-1.8117946 -3.6235905 -23.587933
-1.817345 -4.5433607 -23.449173
-1.8272817 -5.4818487 -23.200752
-1.8373646 -6.4307756 -22.948683
-1.8486099 -7.3944407 -22.667549
-1.8631811 -8.3843155 -22.303265
-1.8779894 -9.3899479 -21.933062
-1.8973709 -10.435541 -21.448524
-1.920996 -11.525976 -20.857901
-1.9467344 -12.653774 -20.214434
-1.980732 -13.865124 -19.364496
-2.0197146 -15.147859 -18.389931
-2.0698559 -16.558847 -17.136396
-2.1403224 -18.192743 -15.374733
-2.2548704 -20.293835 -12.511034
-1.1151065 20.071915 -13.127475
-1.06346 18.078819 -15.709799
-1.0304445 16.487112 -17.360569
-1.0055692 15.083534 -18.60434
-0.98714292 13.820003 -19.525648
-0.96995538 12.609419 -20.385025
-0.95809311 11.497116 -20.978138
-0.94695193 10.416471 -21.535198
-0.9376651 9.3766479 -21.999542
-0.92985445 8.3686895 -22.39007
-0.92260379 7.3808279 -22.752604
-0.91728663 6.4210043 -23.018463
-0.91227341 5.4736385 -23.269125
-0.90780354 4.5390148 -23.492619
-0.90509981 3.6203985 -23.627802
-0.90313649 2.7094097 -23.725975
-0.90118152 1.8023624 -23.823717
-0.90038735 0.90038586 -23.86343
-0.90012038 -2.8610229e-06 -23.876778
-0.89985114 -0.89985275 -23.890244
-0.90082586 -1.8016529 -23.841503
-0.90326065 -2.7097826 -23.719761
-0.90577489 -3.6231022 -23.594053
-0.90875715 -4.543787 -23.444937
-0.91313022 -5.4787807 -23.226288
-0.91771561 -6.4240088 -22.997015
-0.92330796 -7.3864627 -22.717402
-0.93058038 -8.3752251 -22.353775
-0.9386524 -9.3865223 -21.950176
-0.9482885 -10.431175 -21.468369
-0.95998794 -11.519856 -20.883398
-0.97282296 -12.6467 -20.24165
-0.98919708 -13.848758 -19.422943
-1.0076724 -15.115087 -18.499178
-1.0336118 -16.537786 -17.202211
-1.0689527 -18.172197 -15.43516
-1.1233543 -20.220377 -12.715084
0 20.036022 -13.227177
0 18.089218 -15.67921
0 16.480352 -17.38168
0 15.080097 -18.615803
0 13.822546 -19.516563
0 12.623039 -20.33264
0 11.503864 -20.950027
0 10.414079 -21.546062
0 9.3746281 -22.009649
0 8.3708181 -22.378248
0 7.3826904 -22.740965
0 6.4225979 -23.007086
0 5.4749908 -23.257872
0 4.5401707 -23.481091
0 3.6210995 -23.61902
0 2.7092867 -23.728004
0 1.8022766 -23.825865
0 0.90034485 -23.86557
0 -9.5367432e-07 -23.878916
0 -0.90032291 -23.866705
0 -1.80266 -23.816273
0 -2.7100334 -23.71558
0 -3.6234474 -23.589716
0 -4.5442247 -23.440575
0 -5.4792938 -23.222012
0 -6.4236636 -22.9995
0 -7.3861885 -22.719122
0 -8.378664 -22.334661
0 -9.3905506 -21.930044
0 -10.435819 -21.447266
0 -11.518826 -20.887691
0 -12.63963 -20.268839
0 -13.852296 -19.410318
0 -15.131763 -18.443586
0 -16.55028 -17.163174
0 -18.173223 -15.43214
0 -20.241785 -12.655614
1.1201949 20.163506 -12.873053
1.0670849 18.14044 -15.528556
1.0331705 16.530724 -17.224277
1.0071394 15.107088 -18.525826
0.98841023 13.837742 -19.462284
0.97205311 12.636687 -20.28014
0.95971596 11.51659 -20.896996
0.94845062 10.432955 -21.460268
0.9390468 9.3904667 -21.930458
0.93090886 8.3781786 -22.337353
0.92306954 7.3845549 -22.729317
0.91808999 6.42663 -22.978294
0.9136591 5.4819527 -23.199846
0.9092707 4.5463533 -23.419262
0.90649182 3.625968 -23.558205
0.90396345 2.7118921 -23.684624
0.90145165 1.8029032 -23.810211
0.90083092 0.90082836 -23.841251
0.90110075 -9.5367432e-07 -23.827757
0.90137082 -0.90137386 -23.814255
0.90238434 -1.8047705 -23.76358
0.90434957 -2.7130499 -23.665318
0.90632337 -3.6252975 -23.566628
0.9090395 -4.5451984 -23.430819
0.91404307 -5.4842577 -23.180641
0.91909945 -6.4336958 -22.927822
0.92474854 -7.3979878 -22.64537
0.93206275 -8.3885651 -22.279661
0.9394936 -9.3949375 -21.908115
0.94913316 -10.440464 -21.426138
0.96113479 -11.533619 -20.826059
0.97416276 -12.664116 -20.17466
0.99103701 -13.874519 -19.330948
1.0105454 -15.158183 -18.355528
1.0355674 -16.56908 -17.104425
1.0707951 -18.203516 -15.343044
1.130739 -20.353298 -12.34585
2.2601836 20.34165 -12.378208
2.1425169 18.211391 -15.319874
2.0730023 16.584017 -17.057737
2.0218909 15.164179 -18.335527
1.9833689 13.883579 -19.298576
1.9483314 12.664154 -20.174509
1.9231195 11.538717 -20.80481
1.9005083 10.452795 -21.370089
1.8815304 9.40765 -21.844536
1.8655952 8.3951778 -22.24292
1.8507841 7.4031363 -22.613194
1.8398435 6.4394522 -22.886711
1.8298221 5.4894657 -23.137247
1.8210212 4.5525532 -23.357265
1.8154279 3.6308546 -23.497101
1.8111573 2.7167358 -23.603867
1.8071806 1.8071785 -23.703278
1.8055483 0.90277481 -23.744087
1.8050015 -9.5367432e-07 -23.757757
1.8048446 -0.90242386 -23.761681
1.8068762 -1.8068771 -23.710888
1.8113153 -2.7169752 -23.599915
1.8164321 -3.6328688 -23.471994
1.8225527 -4.5563822 -23.318981
1.8314569 -5.4943714 -23.096375
1.8410697 -6.4437451 -22.856054
1.8524512 -7.4098072 -22.571512
1.8671267 -8.40207 -22.204632
1.8835675 -9.41784 -21.793608
1.9035546 -10.469549 -21.293932
1.9273348 -11.564009 -20.699429
1.9537487 -12.699366 -20.039082
1.987202 -13.910416 -19.202747
2.0267293 -15.200469 -18.214561
2.0809107 -16.647285 -16.860029
2.1505127 -18.279356 -15.11998
2.2833149 -20.549835 -11.799924
3.4430368 20.65822 -11.498847
3.2339809 18.32589 -14.983112
3.1243663 16.663288 -16.810026
3.0443406 15.221698 -18.143789
2.9871387 13.93998 -19.097149
2.9358006 12.721799 -19.952789
2.8964055 11.585623 -20.609373
2.8593233 10.484183 -21.227411
2.8295081 9.4316921 -21.724331
2.8067966 8.4203892 -22.102854
2.7844386 7.4251676 -22.475483
2.7677956 6.4581871 -22.752872
2.752362 5.5047245 -23.010098
2.7380311 4.563385 -23.248943
2.7293313 3.6391068 -23.393944
2.7232955 2.7232971 -23.494535
2.7173018 1.811533 -23.594433
2.7148261 0.90494251 -23.635693
2.7140019 -1.9073486e-06 -23.649431
2.7141392 -0.90471363 -23.647142
2.7173018 -1.811533 -23.594435
2.7240791 -2.724081 -23.481478
2.7318025 -3.6424036 -23.352757
2.7410939 -4.568491 -23.197897
2.7545292 -5.509058 -22.973974
2.7680891 -6.4588742 -22.747978
2.7855473 -7.4281259 -22.457006
2.8096309 -8.428894 -22.055616
2.8346169 -9.4487228 -21.639175
2.8650591 -10.505217 -21.131811
2.8998592 -11.59944 -20.551811
2.9391608 -12.736362 -19.89678
2.9944577 -13.974137 -18.975164
3.0577908 -15.288956 -17.919617
3.1383612 -16.737926 -16.576777
3.2548373 -18.444078 -14.635506
3.5033429 -21.020056 -10.493752
4.8081336 21.636599 -8.7811279
4.3644581 18.548944 -14.327074
4.1999631 16.799854 -16.383255
4.0877352 15.329004 -17.786104
4.0050197 14.01757 -18.820049
3.9323008 12.779977 -19.729038
3.8790267 11.637078 -20.394962
3.8312891 10.536045 -20.991682
3.790596 9.4764919 -21.500343
3.7564611 8.4520359 -21.927032
3.7236676 7.4473324 -22.336952
3.7020791 6.4786358 -22.606808
3.6836252 5.5254364 -22.837482
3.6653438 4.5816793 -23.066
3.6535056 3.6535053 -23.213976
3.6429906 2.7322416 -23.345413
3.6325362 1.816267 -23.476093
3.6299241 0.90748119 -23.508743
3.6310401 -0 -23.494797
3.6321671 -0.90804386 -23.480709
3.636456 -1.8182287 -23.427097
3.6446307 -2.7334747 -23.324913
3.652842 -3.6528435 -23.222267
3.6645405 -4.580678 -23.076038
3.6852279 -5.5278435 -22.817446
3.706332 -6.486083 -22.553648
3.7304659 -7.4609299 -22.251974
3.7610817 -8.4624367 -21.869274
3.7921932 -9.4804821 -21.480385
3.8343587 -10.544488 -20.953312
3.8855484 -11.656643 -20.313442
3.9429843 -12.814697 -19.595495
4.0143743 -14.050311 -18.703117
4.1011748 -15.379408 -17.618109
4.2154908 -16.861965 -16.189161
4.3926349 -18.668697 -13.974861
5.5464549 18.857944 -13.418247
5.3029833 16.969543 -15.852966
5.1512332 15.453699 -17.370462
5.0437946 14.122622 -18.444851
4.9492254 12.867985 -19.390541
4.8757877 11.701889 -20.12492
4.8131342 10.588895 -20.751455
4.7610831 9.5221643 -21.271967
4.719069 8.4943237 -21.692101
4.6795454 7.4872723 -22.087343
4.6495275 6.5093403 -22.38752
4.6231446 5.5477715 -22.651348
4.6001086 4.6001081 -22.88171
4.5850086 3.6680069 -23.032707
4.5731769 2.7439051 -23.151024
4.5626473 1.825057 -23.256321
4.5581889 0.91163731 -23.300909
4.5567427 -9.5367432e-07 -23.315367
4.556962 -0.91139412 -23.313171
4.5624275 -1.8249722 -23.258518
4.5734239 -2.7440567 -23.148558
4.5869694 -3.6695766 -23.013103
4.6036224 -4.6036215 -22.846573
4.6272392 -5.5526905 -22.610401
4.6529827 -6.5141778 -22.352966
4.6837678 -7.49403 -22.04512
4.7231135 -8.5016041 -21.651659
4.7673883 -9.5347786 -21.208912
4.8230886 -10.610794 -20.651913
4.8865967 -11.727833 -20.016832
4.9606838 -12.897781 -19.275951
5.0542827 -14.151993 -18.339972
5.1678429 -15.503529 -17.204369
5.3303695 -17.057182 -15.579102
5.58389 -18.985229 -13.043892
6.8248148 19.336971 -12.009345
6.4604745 17.22793 -15.045508
6.2487326 15.621827 -16.81003
6.1038666 14.242353 -18.017239
5.9898262 12.977957 -18.967577
5.8979106 11.79582 -19.733541
5.8171554 10.664783 -20.406502
5.7484903 9.5808163 -20.978708
5.6970167 8.5455217 -21.407658
5.6490164 7.5320215 -21.807659
5.6119618 6.5472889 -22.116447
5.5790143 5.5790138 -22.39101
5.5479174 4.6232634 -22.650152
5.5285068 3.6856689 -22.811909
5.5156837 2.7578411 -22.918766
5.5029197 1.8343058 -23.025129
5.4974365 0.91623878 -23.070826
5.4956684 -2.8610229e-06 -23.08556
5.4956374 -0.91594124 -23.085821
5.5026689 -1.8342228 -23.02722
5.5175595 -2.7587776 -22.903137
5.533989 -3.6893244 -22.76622
5.554492 -4.6287451 -22.59536
5.5831437 -5.5831437 -22.3566
5.6123042 -6.5476904 -22.113594
5.6522574 -7.5363441 -21.780651
5.7039666 -8.5559483 -21.349739
5.7577977 -9.5963306 -20.901146
5.8266692 -10.68223 -20.327219
5.902544 -11.805086 -19.694929
6.0011067 -13.002399 -18.873573
6.1249127 -14.291462 -17.841862
6.2731743 -15.682936 -16.606344
6.4899182 -17.306448 -14.800145
6.9107432 -19.580441 -11.293268
7.6837287 17.562807 -13.99902
7.3957815 15.848105 -16.055782
7.2099032 14.419804 -17.383492
7.0550542 13.102242 -18.489555
6.93822 11.894091 -19.324081
6.8449974 10.756424 -19.989956
6.7617278 9.6596107 -20.58474
6.6959677 8.6091003 -21.054461
6.6314931 7.5788474 -21.514988
6.5876865 6.5876856 -21.827892
6.5525255 5.6164494 -22.079044
6.5177379 4.6555281 -22.327522
6.4941959 3.710968 -22.495686
6.4742818 2.7746925 -22.637928
6.4544888 1.844141 -22.779305
6.4489827 0.92128372 -22.818634
6.451088 9.5367432e-07 -22.803593
6.4531946 -0.92188454 -22.788548
6.4616532 -1.8461885 -22.728127
6.4771662 -2.7759285 -22.617321
6.4927731 -3.7101555 -22.505846
6.5164561 -4.6546097 -22.336681
6.5561872 -5.6195893 -22.052889
6.596405 -6.5964079 -21.765614
6.6446571 -7.5938931 -21.420961
6.7033792 -8.6186304 -21.001518
6.763494 -9.6621342 -20.572126
6.8549747 -10.772102 -19.918694
6.9554434 -11.923616 -19.201057
7.0776625 -13.144232 -18.328062
7.2214823 -14.442966 -17.300781
7.4212174 -15.902609 -15.8741
7.7350163 -17.680037 -13.632683
9.0710907 18.142181 -12.188482
8.6032295 16.131054 -15.112611
8.3480682 14.609119 -16.707367
8.1707745 13.277508 -17.815456
8.0205956 12.03089 -18.754078
7.8978214 10.859506 -19.521408
7.791769 9.7397118 -20.184238
7.7194176 8.6843433 -20.636436
7.6486011 7.6486001 -21.079037
7.5917888 6.6428146 -21.434116
7.5433431 5.657506 -21.736902
7.5011683 4.6882286 -22.000496
7.4733624 3.73668 -22.174278
7.453372 2.7950134 -22.299221
7.4348192 1.8587027 -22.415176
7.4265189 0.92831516 -22.467051
7.4239922 -9.5367432e-07 -22.482843
7.4232864 -0.9279108 -22.487257
7.4332089 -1.8583031 -22.42524
7.4543004 -2.7953625 -22.293423
7.4782033 -3.7391014 -22.144024
7.5092192 -4.6932621 -21.950174
7.5511088 -5.6633329 -21.68837
7.5952601 -6.6458521 -21.412422
7.652329 -7.6523299 -21.055738
7.7286863 -8.6947718 -20.578506
7.8087134 -9.7608919 -20.078341
7.9166665 -10.885419 -19.403625
8.031003 -12.046506 -18.68903
8.1881857 -13.305799 -17.70664
8.3833246 -14.670817 -16.48702
8.6571817 -16.232216 -14.775413
9.1395502 -18.2791 -11.760609
9.9533253 16.588875 -13.586544
9.5749054 14.894295 -15.688881
9.330555 13.477468 -17.046381
9.1389866 12.185315 -18.110647
8.9990873 10.998883 -18.887865
8.8687801 9.8541994 -19.611792
8.7725906 8.7725878 -20.146187
8.6870012 7.7217803 -20.621679
8.6203232 6.7046952 -20.992111
8.5647793 5.7098541 -21.300686
8.5143251 4.7301798 -21.58099
8.4790812 3.7684793 -21.776787
8.4536161 2.8178711 -21.918262
8.4324017 1.8738661 -22.036121
8.4226913 0.93585205 -22.090067
8.4198017 -0 -22.106119
8.4225197 -0.93583393 -22.091019
8.435029 -1.8744507 -22.021523
8.4580355 -2.8193455 -21.893715
8.4854155 -3.7712936 -21.7416
8.5216904 -4.7342749 -21.540073
8.5696449 -5.7130966 -21.273655
8.6256638 -6.7088499 -20.962446
8.6987934 -7.7322593 -20.556168
8.7843771 -8.7843771 -20.080706
8.875493 -9.86166 -19.574499
9.0100327 -11.012262 -18.827057
9.1612148 -12.214954 -17.987156
9.3627672 -13.523997 -16.867426
9.6054831 -14.941862 -15.519
10.022969 -16.704947 -13.199637
11.579155 17.368731 -10.98702
10.918845 15.286381 -14.288574
10.577069 13.750187 -15.997452
10.322922 12.387503 -17.268187
10.136806 11.150485 -18.198765
9.9782763 9.9782772 -18.991413
9.8686752 8.8818054 -19.539421
9.7647123 7.8117681 -20.059235
9.6785231 6.7749658 -20.490185
9.6180401 5.7708216 -20.792593
9.5611486 4.7805729 -21.077055
9.5200529 3.8080225 -21.282532
9.4877214 2.8463154 -21.444189
9.4573307 1.8914652 -21.59614
9.4449797 0.94449806 -21.657898
9.4475031 -1.9073486e-06 -21.645281
9.4509706 -0.94509983 -21.627941
9.4654818 -1.8930988 -21.555393
9.4905472 -2.8471642 -21.430063
9.5159712 -3.8063889 -21.30294
9.5621996 -4.7811017 -21.071796
9.626873 -5.7761226 -20.748432
9.6929522 -6.7850661 -20.418034
9.7783899 -7.8227115 -19.990845
9.8804607 -8.892416 -19.480492
10.002404 -10.002406 -18.870775
10.16829 -11.18512 -18.041348
10.340899 -12.409079 -17.178299
10.616077 -13.8009 -15.80241
10.971554 -15.360176 -14.025025
11.800487 -17.700731 -9.8803644
12.532669 15.950666 -11.91612
11.948946 14.12148 -14.569407
11.57823 12.630798 -16.254475
11.363998 11.363996 -17.228256
11.160436 10.145848 -18.153545
11.011886 9.0097218 -18.82877
10.892954 7.9221468 -19.369371
10.792299 6.8678284 -19.826889
10.713618 5.8437891 -20.184534
10.636075 4.8345814 -20.536999
10.587027 3.8498259 -20.759949
10.557191 2.8792324 -20.895565
10.527522 1.9140959 -21.030422
10.513109 0.95573616 -21.095932
10.509115 -0 -21.114092
10.505092 -0.95501041 -21.13238
10.523547 -1.913373 -21.048485
10.561506 -2.8804102 -20.875954
10.599738 -3.8544502 -20.702166
10.65352 -4.8425121 -20.457708
10.721081 -5.8478622 -20.150616
10.791543 -6.8673458 -19.83033
10.903992 -7.9301744 -19.319195
11.033302 -9.0272484 -18.731426
11.178373 -10.162159 -18.07201
11.385014 -11.385014 -17.132738
11.634317 -12.691983 -15.999534
11.986653 -14.166045 -14.398008
12.638577 -16.085461 -11.434721
13.573207 14.704306 -12.327766
13.016409 13.016409 -14.647758
12.681107 11.624346 -16.044857
12.411592 10.342991 -17.16783
12.233334 9.1749992 -17.910574
12.077019 8.051342 -18.561886
11.941609 6.9659367 -19.126091
11.859757 5.9298773 -19.46714
11.778984 4.9079094 -19.803699
11.717086 3.905695 -20.061605
11.671652 2.9179125 -20.250912
11.62657 1.9377584 -20.438755
11.610736 0.96755886 -20.50473
11.615484 -1.9073486e-06 -20.484945
11.620203 -0.96835041 -20.465284
11.641605 -1.9402657 -20.376106
11.676805 -2.9192009 -20.229443
11.712217 -3.9040718 -20.08189
11.779414 -4.9080896 -19.801901
11.872335 -5.9361682 -19.41473
11.966772 -6.980618 -19.02125
12.098244 -8.0654964 -18.473448
12.252389 -9.1892929 -17.831171
12.458076 -10.381729 -16.974144
12.714463 -11.654928 -15.905867
13.072233 -13.072237 -14.415159
13.645867 -14.783027 -12.025016
14.765909 13.63007 -12.090835
14.153154 11.975743 -14.447591
13.817355 10.628733 -15.739126
13.552472 9.3824806 -16.757902
13.353024 8.2172451 -17.525013
13.193473 7.1041765 -18.138666
13.078938 6.0364337 -18.579189
12.966372 4.9870653 -19.012131
12.889514 3.9660048 -19.307743
12.847123 2.9647207 -19.470783
12.805011 1.9700003 -19.632755
12.782946 0.98330116 -19.717625
12.777205 -1.9073486e-06 -19.739697
12.771433 -0.98241806 -19.7619
12.798586 -1.9690132 -19.657465
12.852728 -2.966013 -19.44923
12.907329 -3.9714851 -19.239223
12.989923 -4.9961281 -18.921551
13.087242 -6.0402665 -18.547247
13.19493 -7.1049633 -18.133062
13.378131 -8.2326984 -17.428448
13.570231 -9.3947744 -16.689598
13.851436 -10.654949 -15.608046
14.229209 -12.040099 -14.155067
14.907016 -13.760324 -11.548123
16.108751 12.656876 -11.351537
15.450352 11.035965 -13.702971
15.012809 9.6510906 -15.26562
14.765968 8.4376965 -16.147194
14.532595 7.2662954 -16.980673
14.385964 6.1654129 -17.504349
14.2668 5.0952854 -17.929943
14.1681 4.0480285 -18.282438
14.101762 3.0218048 -18.519363
14.036085 2.0051527 -18.753922
14.008984 1.0006399 -18.850716
14.015738 -9.5367432e-07 -18.82659
14.022455 -1.0016041 -18.802597
14.055745 -2.0079641 -18.683708
14.106883 -3.0229068 -18.50107
14.158395 -4.0452561 -18.317099
14.273216 -5.0975761 -17.907024
14.41201 -6.176578 -17.411329
14.561244 -7.280623 -16.878353
14.791466 -8.4522667 -16.056131
15.069147 -9.6873112 -15.064415
15.498449 -11.070321 -13.531194
16.227106 -12.749869 -10.928843
16.850843 10.110505 -12.713318
16.406376 8.7500668 -14.194872
16.04911 7.4895835 -15.38576
15.854558 6.3418221 -16.034267
15.686095 5.2286983 -16.595814
15.540511 4.1441374 -17.081093
15.464986 3.0929966 -17.33284
15.401978 2.053597 -17.542871
15.365748 1.0243816 -17.663635
15.357047 -9.5367432e-07 -17.69264
15.351919 -1.0234632 -17.709732
15.399962 -2.0533304 -17.549587
15.48175 -3.0963511 -17.276962
15.564362 -4.1504955 -17.001591
15.701912 -5.2339697 -16.543091
15.883144 -6.3532596 -15.938983
16.117861 -7.5216694 -15.156593
16.449928 -8.7732973 -14.049701
16.943403 -10.166042 -12.404781
18.994164 9.4970827 -9.5260334
18.022297 7.8847542 -12.56312
17.612125 6.6045456 -13.8449
17.34206 5.4193926 -14.688855
17.116833 4.2792082 -15.392697
17.021603 3.1915498 -15.69029
16.931101 2.1163864 -15.973104
16.876001 1.05475 -16.145294
16.863565 -1.9073486e-06 -16.184156
16.863621 -1.0539799 -16.183983
16.920698 -2.1150885 -16.005619
17.03788 -3.1946034 -15.639421
17.159727 -4.2899313 -15.258648
17.377998 -5.4306264 -14.576553
17.656031 -6.6210093 -13.707701
18.099709 -7.918623 -12.321207
19.598318 -9.7991571 -7.6380529
19.735191 5.8044667 -10.838116
19.188381 4.514914 -12.446383
18.967062 3.3471279 -13.097322
18.814627 2.2134857 -13.54566
18.715445 1.1009092 -13.837367
18.696003 -2.3841858e-06 -13.89455
18.693768 -1.0996337 -13.901129
18.804409 -2.212285 -13.575714
19.012276 -3.3551083 -12.964335
19.257883 -4.5312696 -12.241966
19.863375 -5.8421688 -10.461102
