# .PCD v0.7 - Point Cloud Data file format
VERSION 0.7
FIELDS x y z
SIZE 4 4 4
TYPE F F F
COUNT 1 1 1
WIDTH 1058
HEIGHT 1
VIEWPOINT 0 0 0 1 0 0 0
POINTS 1058
DATA ascii
-23.456648 1.2345612 -7.1547804
-21.739561 7.2465172 -8.4951286
-20.756893 5.7658024 -11.22476
-20.387829 4.5306249 -12.249939
-20.084023 3.3473339 -13.093843
-19.974054 2.219337 -13.399311
-19.892773 1.1051517 -13.625093
-19.874346 -1.4305115e-06 -13.676278
-19.880962 -1.104497 -13.657902
-19.967514 -2.2186112 -13.417481
-20.1492 -3.3581977 -12.912793
-20.381947 -4.5293226 -12.266279
-20.85854 -5.7940416 -10.942409
-19.910725 9.369751 -10.321844
-19.225872 7.9165325 -12.336115
-18.793169 6.6328835 -13.60877
-18.538826 5.4525948 -14.356836
-18.330006 4.3129435 -14.97101
-18.180468 3.2083168 -15.410828
-18.121756 2.1319718 -15.583516
-18.070221 1.062953 -15.735086
-18.039299 -1.9073486e-06 -15.826037
-18.062643 -1.0625076 -15.757372
-18.126858 -2.1325712 -15.568502
-18.191772 -3.2103143 -15.377579
-18.362551 -4.3206024 -14.875296
-18.555363 -5.4574604 -14.308202
-18.855803 -6.6549911 -13.424557
-19.26602 -7.9330668 -12.218029
-19.97506 -9.4000282 -10.13262
-19.073738 11.921085 -9.2773609
-18.100409 10.181482 -12.319017
-17.58494 8.7924671 -13.929859
-17.285707 7.5624962 -14.86496
-17.009626 6.3786092 -15.727713
-16.868151 5.2712965 -16.169827
-16.742987 4.1857457 -16.560963
-16.641853 3.1203442 -16.877008
-16.542942 2.0678663 -17.186108
-16.529612 1.033102 -17.22776
-16.527437 -0 -17.234556
-16.536619 -1.0335398 -17.205862
-16.582151 -2.0727696 -17.063576
-16.655254 -3.1228633 -16.835123
-16.74827 -4.1870685 -16.544453
-16.894327 -5.2794781 -16.08802
-17.077377 -6.404016 -15.515994
-17.325607 -7.5799541 -14.740274
-17.6371 -8.8185501 -13.766857
-18.158623 -10.214223 -12.137101
-19.219471 -12.012169 -8.8219519
-17.313354 12.696461 -11.171611
-16.599657 11.066436 -13.550611
-16.240843 9.744504 -14.746652
-15.924116 8.4928617 -15.802409
-15.737386 7.3441095 -16.424847
-15.568226 6.2272892 -16.988708
-15.415061 5.1383514 -17.499262
-15.313787 4.0836768 -17.836842
-15.256773 3.0513535 -18.026886
-15.205545 2.0274067 -18.197645
-15.165706 1.0110464 -18.330446
-15.150712 -1.9073486e-06 -18.380424
-15.167087 -1.0111389 -18.325842
-15.189852 -2.0253148 -18.249958
-15.247907 -3.0495815 -18.056442
-15.336555 -4.0897508 -17.760944
-15.42925 -5.1430836 -17.451965
-15.577621 -6.23105 -16.957394
-15.74334 -7.3468924 -16.404999
-15.966091 -8.5152483 -15.662489
-16.272543 -9.763526 -14.64099
-16.723814 -11.149209 -13.13675
-17.452688 -12.798636 -10.707168
-15.972213 13.690469 -11.839179
-15.389451 12.091709 -13.920471
-15.01071 10.721933 -15.273124
-14.738147 9.4745216 -16.246557
-14.527393 8.3013649 -16.999249
-14.336118 7.1680589 -17.682377
-14.223158 6.0956378 -18.085804
-14.123732 5.0441885 -18.440899
-14.038971 4.0111341 -18.74361
-13.96145 2.9917374 -19.020479
-13.925677 1.9893799 -19.148237
-13.909125 0.99350739 -19.20735
-13.898399 -2.8610229e-06 -19.245657
-13.913464 -0.99382114 -19.191853
-13.94175 -1.9916782 -19.09083
-13.983287 -2.9964209 -18.942482
-14.044223 -4.0126367 -18.724857
-14.134455 -5.0480199 -18.402603
-14.232548 -6.0996652 -18.052265
-14.377105 -7.1885533 -17.535988
-14.548503 -8.3134327 -16.923859
-14.772214 -9.4964247 -16.124893
-15.043286 -10.745206 -15.156775
-15.434579 -12.127171 -13.759301
-16.119184 -13.816442 -11.314285
-14.845655 14.845652 -11.784122
-14.230854 13.136174 -14.14874
-13.858226 11.726191 -15.581928
-13.595808 10.458312 -16.591225
-13.392348 9.2716227 -17.373762
-13.225672 8.1388741 -18.014828
-13.095763 7.0515623 -18.514479
-12.977997 5.9898462 -18.967422
-12.892969 4.9588323 -19.294451
-12.829906 3.9476647 -19.536999
-12.779782 2.9491806 -19.72979
-12.742415 1.960372 -19.873505
-12.727491 0.97903824 -19.930908
-12.721995 -0 -19.952045
-12.718631 -0.97835827 -19.964983
-12.738807 -1.9598179 -19.887386
-12.781656 -2.9496136 -19.72258
-12.827546 -3.9469385 -19.54608
-12.906015 -4.9638548 -19.244278
-12.996421 -5.9983511 -18.896564
-13.100725 -7.0542364 -18.495394
-13.245938 -8.1513481 -17.936878
-13.395908 -9.2740908 -17.360073
-13.62543 -10.4811 -16.477293
-13.901002 -11.762388 -15.417401
-14.293524 -13.194024 -13.907702
-14.887282 -14.887283 -11.624021
-13.78808 16.086088 -11.432469
-13.16977 14.26725 -14.00875
-12.779933 12.779928 -15.633079
-12.532587 11.488204 -16.663685
-12.312155 10.260128 -17.582153
-12.143169 9.1073751 -18.286259
-12.021007 8.0140047 -18.795271
-11.908689 6.9467349 -19.263258
-11.812201 5.9061007 -19.665293
-11.739526 4.8914661 -19.968107
-11.69183 3.897275 -20.166843
-11.649647 2.9124098 -20.3426
-11.61304 1.9355068 -20.495132
-11.58444 0.96536732 -20.614296
-11.592612 -9.5367432e-07 -20.580246
-11.60083 -0.96673679 -20.546007
-11.618839 -1.9364748 -20.470964
-11.653409 -2.913353 -20.326923
-11.694732 -3.8982444 -20.154745
-11.756787 -4.8986611 -19.896181
-11.830257 -5.9151278 -19.590057
-11.916185 -6.9511085 -19.232025
-12.038918 -8.0259457 -18.720636
-12.170185 -9.1276388 -18.173687
-12.349596 -10.291329 -17.426144
-12.554016 -11.507848 -16.574396
-12.833614 -12.833614 -15.409406
-13.213705 -14.314848 -13.825693
-13.911553 -16.230146 -10.917992
-12.868003 17.547276 -10.391876
-12.146267 15.458883 -13.672491
-11.753756 13.890802 -15.456633
-11.488092 12.532466 -16.664196
-11.275932 11.275929 -17.628559
-11.123894 10.112629 -18.319643
-10.985641 8.9882517 -18.948061
-10.853445 7.8934145 -19.548952
-10.779417 6.8596287 -19.885445
-10.708109 5.8407841 -20.209576
-10.64503 4.8386488 -20.496296
-10.583609 3.8485823 -20.775486
-10.553446 2.8782101 -20.912588
-10.533976 1.9152689 -21.001087
-10.515764 0.95597744 -21.083868
-10.516139 1.9073486e-06 -21.082165
-10.51917 -0.95628834 -21.068386
-10.532534 -1.9150095 -21.007645
-10.562293 -2.8806257 -20.872372
-10.592222 -3.8517179 -20.736336
-10.640647 -4.8366585 -20.516222
-10.706846 -5.8400984 -20.215315
-10.774824 -6.8567057 -19.906324
-10.879563 -7.9124098 -19.430239
-10.988643 -8.9907093 -18.93442
-11.130328 -10.118478 -18.290394
-11.305966 -11.305967 -17.492043
-11.530375 -12.57859 -16.472
-11.805653 -13.952135 -15.220739
-12.205019 -15.533661 -13.405434
-13.104749 -17.870111 -9.3157597
-11.198792 16.798183 -12.888839
-10.768106 15.075347 -15.042269
-10.504295 13.655584 -16.36132
-10.274837 12.329803 -17.508614
-10.111741 11.122913 -18.324091
-9.9791126 9.9791107 -18.987234
-9.864893 8.8784046 -19.558329
-9.7746773 7.8197417 -20.009409
-9.6924849 6.7847381 -20.420372
-9.6292067 5.7775235 -20.736767
-9.5771675 4.7885838 -20.996956
-9.5371218 3.814847 -21.197189
-9.5088587 2.8526573 -21.338505
-9.4864635 1.8972893 -21.450481
-9.4691572 0.94691372 -21.53701
-9.4687395 -1.9073486e-06 -21.539097
-9.4693804 -0.94693756 -21.535892
-9.4793377 -1.8958702 -21.486107
-9.5046177 -2.8513851 -21.359707
-9.5344944 -3.8137989 -21.210325
-9.5803614 -4.7901797 -20.980989
-9.627593 -5.7765584 -20.744831
-9.6993208 -6.7895236 -20.386196
-9.7873116 -7.8298521 -19.946239
-9.8847399 -8.8962669 -19.459099
-9.994483 -9.994483 -18.910379
-10.13917 -11.153086 -18.186947
-10.303093 -12.363713 -17.367332
-10.517958 -13.673347 -16.293005
-10.833899 -15.167459 -14.7133
-11.284948 -16.927422 -12.458061
-10.382278 18.457382 -11.20347
-9.8354359 16.392393 -14.241486
-9.524559 14.815979 -15.968578
-9.3002348 13.433674 -17.214821
-9.1429386 12.190584 -18.088692
-9.0002337 11.000284 -18.881496
-8.8774519 9.8638334 -19.56362
-8.7951794 8.7951775 -20.020689
-8.7167788 7.7482457 -20.456249
-8.644146 6.7232227 -20.85976
-8.5884237 5.7256165 -21.169331
-8.5502415 4.7501326 -21.381453
-8.5147762 3.7843437 -21.578487
-8.4884243 2.8294735 -21.724882
-8.4676542 1.8816986 -21.840277
-8.4520617 0.93911839 -21.926895
-8.455122 -1.9073486e-06 -21.909897
-8.4633732 -0.94037724 -21.864056
-8.4716663 -1.8825932 -21.817986
-8.486186 -2.8287306 -21.737316
-8.510623 -3.7825012 -21.601561
-8.5488787 -4.7493787 -21.389025
-8.5928822 -5.7285881 -21.144562
-8.6493864 -6.7273002 -20.83065
-8.7175922 -7.7489696 -20.451733
-8.8047771 -8.8047791 -19.967365
-8.8942175 -9.8824635 -19.470482
-9.0189543 -11.023167 -18.777493
-9.154006 -12.205343 -18.027205
-9.3372622 -13.487157 -17.009119
-9.5597677 -14.870751 -15.772979
-9.8664942 -16.444155 -14.068942
-10.460646 -18.596703 -10.768101
-8.9373255 17.874653 -13.02451
-8.5882778 16.10302 -15.206059
-8.3488798 14.610538 -16.702295
-8.1717596 13.279108 -17.809298
-8.0367432 12.055114 -18.653151
-7.9241719 10.895736 -19.35672
-7.8317785 9.7897205 -19.934183
-7.7453337 8.7135 -20.474459
-7.6791935 7.6791925 -20.887836
-7.6298556 6.6761241 -21.196196
-7.5830903 5.687315 -21.488483
-7.5467262 4.7167025 -21.715761
-7.5107083 3.755352 -21.940868
-7.4885354 2.8082027 -22.079449
-7.4790721 1.8697662 -22.138592
-7.4696331 0.93370342 -22.197586
-7.465518 -0 -22.223307
-7.4720178 -0.93400383 -22.182686
-7.478529 -1.8696337 -22.141989
-7.4879909 -2.8079977 -22.082851
-7.5153127 -3.757659 -21.912092
-7.5449123 -4.7155724 -21.727093
-7.5839839 -5.6879869 -21.482895
-7.6346073 -6.6802816 -21.166504
-7.6872873 -7.6872911 -20.83725
-7.7593632 -8.7292871 -20.386778
-7.8364024 -9.7955017 -19.905279
-7.9343548 -10.90974 -19.293074
-8.045433 -12.068151 -18.598841
-8.1941528 -13.315497 -17.669344
-8.3719568 -14.650924 -16.558067
-8.6196766 -16.161892 -15.009822
-8.9866457 -17.973295 -12.716256
-8.1522217 19.79825 -10.652645
-7.65272 17.49193 -14.220511
-7.4063582 15.870767 -15.980234
-7.2296629 14.459322 -17.242352
-7.0873709 13.162258 -18.25872
-6.9646902 11.939468 -19.13501
-6.8812108 10.81333 -19.731291
-6.8021736 9.7173882 -20.295845
-6.7308183 8.6539078 -20.805525
-6.6779642 7.631959 -21.183052
-6.6324892 6.6324868 -21.507877
-6.5910978 5.6495104 -21.803528
-6.5596995 4.6854982 -22.027802
-6.5374084 3.7356577 -22.187019
-6.5166445 2.7928448 -22.335335
-6.5076089 1.8593159 -22.399876
-6.4986172 0.92837334 -22.464104
-6.490304 -9.5367432e-07 -22.523483
-6.4947577 -0.92782307 -22.491673
-6.5049219 -1.8585482 -22.419067
-6.517663 -2.7932844 -22.328064
-6.5403314 -3.7373314 -22.166143
-6.5665445 -4.6903887 -21.978905
-6.5991106 -5.6563807 -21.746292
-6.6388412 -6.6388407 -21.462502
-6.6858125 -7.6409302 -21.126993
-6.7427645 -8.6692686 -20.720194
-6.8086491 -9.7266426 -20.249588
-6.8910408 -10.82878 -19.661076
-6.9852266 -11.974675 -18.988317
-7.1028566 -13.19102 -18.148106
-7.2391415 -14.478284 -17.174644
-7.4346876 -15.931474 -15.777884
-7.7091026 -17.62081 -13.817777
-8.2697105 -20.083586 -9.8134346
-6.7932892 19.247648 -12.272058
-6.4831853 17.288488 -14.856256
-6.2753959 15.688487 -16.587828
-6.1409435 14.328867 -17.708267
-6.0247927 13.053717 -18.676188
-5.9362774 11.872553 -19.413818
-5.8539076 10.732162 -20.100235
-5.7910213 9.6517029 -20.624283
-5.7406292 8.6109428 -21.04422
-5.6947651 7.5930176 -21.426422
-5.6545749 6.5970025 -21.761339
-5.6182156 5.6182127 -22.064337
-5.5970287 4.6641884 -22.240891
-5.5782404 3.7188263 -22.397461
-5.5596418 2.7798185 -22.55245
-5.5480928 1.8493652 -22.648689
-5.540451 0.92340851 -22.712368
-5.5385604 -0 -22.728128
-5.5418029 -0.92363548 -22.701107
-5.551394 -1.8504667 -22.621178
-5.5628772 -2.7814379 -22.525488
-5.5783048 -3.7188711 -22.396923
-5.5985703 -4.6654758 -22.228045
-5.6271548 -5.6271553 -21.98984
-5.6573911 -6.6002898 -21.737869
-5.6963611 -7.5951495 -21.413122
-5.7445912 -8.6168871 -21.011204
-5.7952447 -9.658742 -20.589087
-5.8664279 -10.755117 -19.995899
-5.9413366 -11.882674 -19.371656
-6.0413804 -13.089657 -18.537956
-6.1534877 -14.358141 -17.603731
-6.2961035 -15.740258 -16.415268
-6.5039744 -17.343929 -14.683014
-6.8497267 -19.407557 -11.801746
-5.5527134 18.879225 -13.355661
-5.3416762 17.093367 -15.466031
-5.1963801 15.58914 -16.918995
-5.073709 14.206382 -18.145706
-4.9926057 12.980775 -18.956738
-4.9197941 11.807505 -19.684855
-4.8534927 10.677683 -20.34787
-4.8039808 9.6079607 -20.842987
-4.7602377 8.568428 -21.280416
-4.7215476 7.5544748 -21.66732
-4.6923585 6.5693026 -21.959209
-4.6671534 5.6005831 -22.211266
-4.6454067 4.6454067 -22.428726
-4.6293025 3.7034397 -22.589767
-4.6133232 2.7679911 -22.749565
-4.6028719 1.8411465 -22.854078
-4.6016078 0.92032051 -22.866714
-4.6003451 1.9073486e-06 -22.879341
-4.6023321 -0.92046738 -22.859478
-4.6061263 -1.8424501 -22.821533
-4.6161685 -2.769702 -22.721111
-4.6289034 -3.7031221 -22.593763
-4.6425118 -4.6425133 -22.457676
-4.6681147 -5.6017389 -22.201649
-4.695097 -6.5731354 -21.931828
-4.7258463 -7.5613527 -21.624332
-4.7661738 -8.5791149 -21.221056
-4.8085175 -9.617034 -20.797623
-4.8636589 -10.700054 -20.246206
-4.9221869 -11.813247 -19.660927
-4.9993844 -12.998399 -18.888954
-5.0859284 -14.240599 -18.023512
-5.2028995 -15.608698 -16.853806
-5.3563991 -17.14048 -15.318803
-5.6033735 -19.05147 -12.849061
-4.7568402 21.405781 -9.4222946
-4.4071469 18.730373 -13.793459
-4.2366757 16.946701 -15.924347
-4.1309443 15.491039 -17.245993
-4.043642 14.152746 -18.337275
-3.9729073 12.911949 -19.221453
-3.9144006 11.743201 -19.952787
-3.8704545 10.643747 -20.502113
-3.8302288 9.5755711 -21.004936
-3.794138 8.5368099 -21.456074
-3.7631266 7.5262523 -21.843714
-3.742352 6.5491133 -22.103401
-3.7220418 5.5830641 -22.357273
-3.7022066 4.627759 -22.605209
-3.6892836 3.6892843 -22.76675
-3.6814971 2.7611227 -22.86408
-3.6744983 1.8372478 -22.951569
-3.6692722 0.91731834 -23.016895
-3.6682682 -2.8610229e-06 -23.029442
-3.670109 -0.9175272 -23.006435
-3.6719408 -1.8359709 -22.983536
-3.6802659 -2.7601986 -22.879475
-3.6928926 -3.692894 -22.721642
-3.7059264 -4.6324091 -22.558718
-3.7233338 -5.5850015 -22.341124
-3.7447793 -6.5533676 -22.07305
-3.770103 -7.5402069 -21.756508
-3.7993674 -8.5485792 -21.390703
-3.8342791 -9.5856981 -20.954309
-3.8757098 -10.658203 -20.436424
-3.9235156 -11.770546 -19.838852
-3.9836407 -12.946832 -19.087288
-4.0499387 -14.174788 -18.25856
-4.1376896 -15.516336 -17.161678
-4.2532215 -17.012886 -15.717528
-4.4206161 -18.787621 -13.625093
-3.4938724 20.963234 -10.65159
-3.279726 18.585115 -14.220695
-3.1654949 16.882641 -16.124544
-3.0795896 15.397949 -17.556297
-3.0230455 14.107543 -18.498705
-2.970257 12.871111 -19.378511
-2.9276016 11.710405 -20.089437
-2.8936448 10.610031 -20.65538
-2.8630116 9.5433702 -21.165936
-2.8388426 8.5165272 -21.568748
-2.8177817 7.5140834 -21.919769
-2.7996585 6.5325365 -22.221817
-2.7843263 5.5686522 -22.477358
-2.7700429 4.6167345 -22.715416
-2.7612176 3.6816225 -22.862503
-2.7554097 2.7554102 -22.959299
-2.750253 1.8334999 -23.045246
-2.7459743 0.91532421 -23.116562
-2.7424409 -2.8610229e-06 -23.175449
-2.7462711 -0.9154253 -23.11161
-2.7501669 -1.8334465 -23.046684
-2.7555356 -2.755538 -22.957203
-2.7634306 -3.6845751 -22.825621
-2.7735763 -4.6226263 -22.656528
-2.7862227 -5.5724459 -22.445753
-2.8001618 -6.5337129 -22.213428
-2.819699 -7.5191998 -21.88781
-2.8403461 -8.5210381 -21.543695
-2.8663776 -9.5545921 -21.109838
-2.8969183 -10.622034 -20.600826
-2.9324565 -11.729828 -20.008518
-2.9764013 -12.89774 -19.276108
-3.026144 -14.122006 -18.447062
-3.0891476 -15.44574 -17.397001
-3.173027 -16.92281 -15.99901
-3.2898176 -18.6423 -14.052505
-3.5488644 -21.293186 -9.7350569
-2.3042657 20.738388 -11.276159
-2.170975 18.453283 -14.608427
-2.1037703 16.830164 -16.288534
-2.0497322 15.37299 -17.639496
-2.0089476 14.062632 -18.659107
-1.9759101 12.843416 -19.485039
-1.9491279 11.694767 -20.154598
-1.9256338 10.590985 -20.741951
-1.9042248 9.521122 -21.277178
-1.8897059 8.5036755 -21.640148
-1.8755816 7.502327 -21.993256
-1.8617961 6.5162859 -22.337893
-1.8523445 5.5570335 -22.574181
-1.8438386 4.6095953 -22.786831
-1.8379837 3.6759663 -22.933205
-1.8331469 2.7497177 -23.054123
-1.82977 1.8297672 -23.138546
-1.8280603 0.91402912 -23.18129
-1.8275204 9.5367432e-07 -23.194784
-1.8283978 -0.91419888 -23.172852
-1.8309879 -1.8309908 -23.108099
-1.834704 -2.7520571 -23.015196
-1.8388186 -3.6776381 -22.912333
-1.8451495 -4.612874 -22.754061
-1.8537476 -5.5612426 -22.539104
-1.863343 -6.5217004 -22.299221
-1.8766644 -7.5066586 -21.966187
-1.8909661 -8.5093498 -21.608641
-1.9080124 -9.540062 -21.182487
-1.9281257 -10.604692 -20.679649
-1.9499902 -11.699942 -20.133043
-1.978303 -12.858968 -19.425222
-2.0121882 -14.08532 -18.578091
-2.0533416 -15.400061 -17.549257
-2.1064074 -16.851257 -16.222614
-2.1846733 -18.569723 -14.265966
-2.3287089 -20.95838 -10.665071
-1.1461788 20.63122 -11.57385
-1.0856448 18.455963 -14.600554
-1.0486292 16.778063 -16.45134
-1.0245169 15.367752 -17.656948
-1.0027555 14.038576 -18.74502
-0.98691887 12.829946 -19.53685
-0.97343504 11.681217 -20.211046
-0.96165168 10.578167 -20.800211
-0.95240545 9.5240526 -21.262526
-0.94409072 8.4968166 -21.678261
-0.93697995 7.4958363 -22.033802
-0.93038142 6.5126667 -22.363728
-0.92561817 5.553709 -22.601887
-0.92132282 4.6066141 -22.816654
-0.91831797 3.6732712 -22.9669
-0.91570497 2.7471132 -23.097546
-0.91414696 1.8282909 -23.175449
-0.91380692 0.91380501 -23.192448
-0.91355789 9.5367432e-07 -23.204903
-0.91372913 -0.91373062 -23.196342
-0.91426897 -1.8285389 -23.169346
-0.91619247 -2.7485781 -23.073172
-0.91887897 -3.675518 -22.938845
-0.92211473 -4.6105757 -22.777056
-0.92678577 -5.5607157 -22.54351
-0.93173081 -6.5221133 -22.296253
-0.93780994 -7.5024796 -21.992298
-0.94495279 -8.5045757 -21.635157
-0.95360762 -9.5360765 -21.202415
-0.96335876 -10.596948 -20.714861
-0.97419524 -11.690346 -20.173035
-0.98832822 -12.848267 -19.466385
-1.0047498 -14.066496 -18.645308
-1.025212 -15.378181 -17.622194
-1.0521396 -16.834236 -16.27581
-1.0888478 -18.510412 -14.440409
-1.1612161 -20.90189 -10.821989
0 20.702738 -11.375184
0 18.483273 -14.520229
0 16.786213 -16.425873
0 15.363598 -17.670807
0 14.052455 -18.69545
0 12.839908 -19.498533
0 11.675356 -20.235474
0 10.581425 -20.785408
0 9.5269566 -21.248007
0 8.4925814 -21.70179
0 7.4922376 -22.056297
0 6.5131197 -22.360498
0 5.5538349 -22.600821
0 4.6074467 -22.808346
0 3.6736603 -22.962051
0 2.7478342 -23.08556
0 1.8286772 -23.16584
0 0.91358757 -23.203476
0 -2.8610229e-06 -23.214886
0 -0.91352749 -23.206326
0 -1.828228 -23.177135
0 -2.7498322 -23.052296
0 -3.6778059 -22.910233
0 -4.6139193 -22.74361
0 -5.5601859 -22.547911
0 -6.5228524 -22.290991
0 -7.5027628 -21.990524
0 -8.50103 -21.654848
0 -9.5340147 -21.212727
0 -10.589243 -20.74987
0 -11.695617 -20.151056
0 -12.848977 -19.463652
0 -14.067682 -18.641073
0 -15.388918 -17.586405
0 -16.835833 -16.270821
0 -18.536375 -14.364043
0 -20.923334 -10.76243
1.158199 20.847582 -10.972851
1.0888625 18.51066 -14.439672
1.0529349 16.846956 -16.236055
1.0250913 15.376369 -17.628233
1.0053366 14.074711 -18.615961
0.98884451 12.854977 -19.440571
0.97473228 11.696786 -20.146187
0.96313667 10.594503 -20.725958
0.95373762 9.5373745 -21.195915
0.9445895 8.5013037 -21.653324
0.93759412 7.500752 -22.003094
0.93153125 6.5207186 -22.306232
0.92664963 5.5598965 -22.550312
0.9224028 4.6120157 -22.762653
0.91924912 3.6769981 -22.92034
0.91663086 2.7498903 -23.051254
0.91491884 1.8298349 -23.136856
0.91392106 0.91391945 -23.186745
0.91334009 -1.9073486e-06 -23.215792
0.91409504 -0.91409588 -23.178043
0.91487461 -1.829751 -23.139067
0.91732848 -2.7519846 -23.016373
0.92002696 -3.6801071 -22.881447
0.92345363 -4.6172686 -22.710115
0.92716491 -5.5629897 -22.524551
0.93205738 -6.5244026 -22.27993
0.93836498 -7.5069213 -21.964546
0.94560528 -8.5104475 -21.602533
0.95460331 -9.5460339 -21.152632
0.96421021 -10.606314 -20.672289
0.97631127 -11.715736 -20.067232
0.98958027 -12.864546 -19.40378
1.0065567 -14.091794 -18.55496
1.0277265 -15.4159 -17.496471
1.0548918 -16.878271 -16.138208
1.0924368 -18.571424 -14.260962
1.1698184 -21.056732 -10.391874
2.3457592 21.111832 -10.238822
2.1921508 18.633284 -14.07902
2.1135454 16.908361 -16.044165
2.0573516 15.430137 -17.449005
2.0169995 14.118997 -18.457811
1.9803177 12.872063 -19.374859
1.9545733 11.727439 -20.018461
1.9311628 10.621395 -20.603724
1.9098637 9.5493183 -21.136202
1.893007 8.5185299 -21.557617
1.8784389 7.5137558 -21.921824
1.8665473 6.5329151 -22.219112
1.8564799 5.569437 -22.470798
1.8482491 4.6206217 -22.676573
1.8417439 3.683486 -22.839197
1.8367722 2.7551584 -22.96349
1.8331521 1.8331528 -23.053993
1.8313318 0.91566277 -23.099503
1.8303945 -0 -23.122936
1.8314517 -0.91572762 -23.096502
1.832985 -1.8329868 -23.05817
1.8372911 -2.7559357 -22.950516
1.8416123 -3.6832247 -22.842491
1.8490506 -4.6226263 -22.656528
1.8574067 -5.5722213 -22.44763
1.8680316 -6.5381103 -22.182007
1.8794097 -7.5176411 -21.897552
1.8956107 -8.5302505 -21.492527
1.9135032 -9.5675173 -21.045216
1.9338726 -10.6363 -20.535984
1.9576409 -11.745847 -19.941776
1.9837111 -12.894121 -19.290022
2.0194042 -14.135828 -18.397694
2.0624211 -15.468159 -17.322266
2.1182823 -16.946259 -15.925741
2.1998005 -18.698303 -13.887787
2.3832726 -21.449451 -9.3009834
3.6205018 21.723007 -8.5410995
3.3148932 18.784393 -13.634578
3.1907806 17.017494 -15.703118
3.1014726 15.507362 -17.191586
3.0389457 14.181745 -18.233702
2.9838984 12.930225 -19.151157
2.9421256 11.768499 -19.847372
2.9063625 10.656662 -20.443424
2.8737061 9.5790176 -20.987692
2.8482897 8.5448675 -21.411301
2.8256075 7.5349536 -21.789335
2.8075068 6.550848 -22.091021
2.7918947 5.583787 -22.351219
2.7792287 4.6320457 -22.562319
2.769304 3.6924047 -22.72773
2.761739 2.7617378 -22.853815
2.7559683 1.8373108 -22.949995
2.7530527 0.91768265 -22.998587
2.7514286 -1.9073486e-06 -23.025654
2.7536259 -0.91787624 -22.989033
2.7559762 -1.8373213 -22.949863
2.7628374 -2.7628384 -22.835505
2.7700031 -3.6933393 -22.716076
2.7807977 -4.6346626 -22.536167
2.7925811 -5.585166 -22.339777
2.8096716 -6.5559001 -22.054935
2.8278754 -7.5410004 -21.751541
2.8505604 -8.5516815 -21.373459
2.8774319 -9.5914421 -20.925598
2.9090333 -10.666456 -20.398907
2.9444673 -11.77787 -19.808338
2.9877305 -12.946832 -19.087288
3.0416646 -14.194437 -18.188381
3.1093035 -15.546517 -17.061073
3.1972578 -17.052042 -15.595165
3.3309269 -18.875254 -13.367346
4.4768529 19.026623 -12.922133
4.2920485 17.168192 -15.232189
4.1656466 15.621172 -16.812218
4.0716 14.250598 -17.987799
4.0008373 13.002722 -18.872326
3.9419699 11.825908 -19.608173
3.8899748 10.69743 -20.25811
3.8508415 9.6271048 -20.747278
3.8146904 8.5830545 -21.199167
3.78141 7.5628171 -21.61517
3.7574921 6.5756063 -21.914148
3.7354779 5.6032162 -22.189323
3.7191384 4.6489239 -22.393564
3.7050092 3.7050056 -22.570183
3.6953309 2.7714977 -22.691162
3.6870964 1.8435478 -22.794092
3.683604 0.92090034 -22.837746
3.6816339 -0 -22.862371
3.6840045 -0.92100048 -22.832737
3.6878884 -1.8439426 -22.784191
3.6958611 -2.7718954 -22.68453
3.7050409 -3.7050419 -22.569782
3.7205038 -4.650631 -22.376501
3.7382331 -5.6073494 -22.154884
3.7593024 -6.5787802 -21.891514
3.7856579 -7.5713162 -21.562071
3.8174732 -8.5893145 -21.164381
3.8513138 -9.6282854 -20.741373
3.8941166 -10.708821 -20.206337
3.9452438 -11.835732 -19.567247
4.0035124 -13.011416 -18.83889
4.0801945 -14.280681 -17.880362
4.1723161 -15.646183 -16.728848
4.3004508 -17.201801 -15.127163
4.5115113 -19.173923 -12.488905
5.7083483 19.408381 -11.799314
5.4228458 17.353106 -14.654335
5.2568488 15.770547 -16.314308
5.1320767 14.369814 -17.562029
5.0334449 13.086956 -18.548347
4.9580855 11.899405 -19.301939
4.8878732 10.75332 -20.004065
4.8389702 9.6779385 -20.493093
4.793334 8.6280012 -20.949455
4.7495456 7.5992723 -21.387341
4.7185845 6.606019 -21.696949
4.6896372 5.6275616 -21.986423
4.6691031 4.6691027 -22.191761
4.6500921 3.7200747 -22.381878
4.63831 2.7829847 -22.499695
4.6273193 1.8509274 -22.6096
4.623198 0.92463684 -22.650816
4.6199589 -9.5367432e-07 -22.683205
4.6231313 -0.9246273 -22.65148
4.6286635 -1.8514671 -22.596161
4.6397948 -2.7838783 -22.484854
4.6534672 -3.7227764 -22.348122
4.6705265 -4.6705294 -22.177532
4.6933713 -5.6320491 -21.949081
4.7208552 -6.6091981 -21.674244
4.7569594 -7.611135 -21.313208
4.7972641 -8.6350746 -20.910158
4.8379226 -9.6758461 -20.503569
4.8952785 -10.769612 -19.930012
4.9607148 -11.905713 -19.275648
5.0396714 -13.103147 -18.48608
5.1391411 -14.389598 -17.491385
5.2653117 -15.795937 -16.229679
5.4396749 -17.40696 -14.48605
5.7603135 -19.585066 -11.279665
7.1200533 20.173483 -9.5490179
6.6193771 17.651669 -13.721321
6.3797269 15.949315 -15.718407
6.2131844 14.497429 -17.106262
6.0953698 13.206633 -18.088051
5.9923358 11.984671 -18.946665
5.9122486 10.839123 -19.614058
5.8436322 9.7393856 -20.185862
5.7848973 8.6773472 -20.675318
5.7382751 7.6510339 -21.063839
5.6985464 6.648303 -21.394909
5.660758 5.660758 -21.709812
5.6334753 4.694562 -21.937172
5.6105919 3.7403946 -22.127865
5.595099 2.7975464 -22.256973
5.5824981 1.8608341 -22.36198
5.577322 0.92955112 -22.405113
5.5778699 -0 -22.400547
5.5790625 -0.92984581 -22.39061
5.5840635 -1.8613548 -22.34893
5.5949206 -2.7974606 -22.258457
5.6124511 -3.7416353 -22.11237
5.6349382 -4.6957808 -21.924976
5.6628332 -5.6628323 -21.69252
5.6970334 -6.6465406 -21.40752
5.7385478 -7.6513972 -21.061565
5.787394 -8.6810894 -20.654514
5.8442335 -9.7403889 -20.180849
5.9136791 -10.841746 -19.602135
5.9986086 -11.997219 -18.894386
6.1034036 -13.224041 -18.021099
6.2260656 -14.527486 -16.998917
6.3951087 -15.987772 -15.590223
6.6359835 -17.695957 -13.582933
7.9022069 18.062183 -12.438465
7.561203 16.202572 -14.874208
7.3382521 14.676502 -16.466711
7.1846094 13.342846 -17.564156
7.053905 12.09241 -18.497755
6.9548421 10.929035 -19.205355
6.8735056 9.8192921 -19.786327
6.7940702 8.7352295 -20.353725
6.7418156 7.7049308 -20.726969
6.6949329 6.6949344 -21.061848
6.6486969 5.6988811 -21.392107
6.613543 4.723959 -21.643202
6.5870504 3.7640285 -21.832436
6.5675216 2.8146496 -21.971931
6.5523543 1.8721008 -22.080265
6.5481067 0.93544483 -22.110603
6.547574 -0 -22.11441
6.5482211 -0.93546104 -22.109791
6.5541458 -1.8726139 -22.067471
6.5696087 -2.8155499 -21.957018
6.5894012 -3.7653704 -21.815645
6.6169624 -4.7264013 -21.618778
6.6492853 -5.6993885 -21.387899
6.6905179 -6.6905203 -21.093378
6.7658701 -7.7324219 -20.555151
6.8430223 -8.798173 -20.004065
6.9219332 -9.8884773 -19.440418
7.0029893 -11.004698 -18.861444
7.0859437 -12.147333 -18.268911
7.1902733 -13.353367 -17.523699
7.3558874 -14.711775 -16.340744
7.5715203 -16.224688 -14.800508
7.9267869 -18.118366 -12.262893
9.361372 18.722744 -10.374224
8.8158941 16.529799 -13.783461
8.5152216 14.901635 -15.662666
8.3186407 13.51779 -16.891291
8.1547804 12.232172 -17.915417
8.0335836 11.046176 -18.672897
7.9274168 9.9092722 -19.336441
7.8404837 8.8205423 -19.879774
7.7720113 7.7720098 -20.307726
7.7094312 6.7457523 -20.698851
7.6574502 5.7430868 -21.023731
7.6149836 4.7593641 -21.289145
7.5855484 3.7927732 -21.473122
7.5599551 2.8349819 -21.633074
7.5485406 1.8871317 -21.704418
7.5399632 0.94249344 -21.75803
7.5366745 -1.9073486e-06 -21.77858
7.5355935 -0.9419508 -21.785337
7.5469913 -1.8867483 -21.7141
7.5661535 -2.837307 -21.594334
7.5859947 -3.7929974 -21.470327
7.6174397 -4.7608991 -21.273798
7.6933284 -5.7699966 -20.799492
7.7806315 -6.8080544 -20.253851
7.8698902 -7.8698912 -19.695984
7.9612451 -8.9564018 -19.125015
8.0547209 -10.068403 -18.540791
8.1505728 -11.207039 -17.941719
8.2491293 -12.373697 -17.325737
8.3492327 -13.567505 -16.700092
8.5394535 -14.944042 -15.511213
8.8473701 -16.588821 -13.586735
9.5762787 -19.152561 -9.0310497
10.180513 16.967524 -12.324386
9.7869816 15.224193 -14.510677
9.5093927 13.735787 -16.052837
9.2961159 12.394821 -17.237705
9.1491776 11.182327 -18.054035
9.0189543 10.021061 -18.777491
8.9104967 8.9104958 -19.380033
8.832325 7.850956 -19.814323
8.7555122 6.8098392 -20.241062
8.6931019 5.7954016 -20.587784
8.6459007 4.803277 -20.850014
8.6078987 3.8257294 -21.061142
8.5777922 2.8592644 -21.228397
8.5616407 1.902586 -21.318127
8.5513535 0.95014858 -21.375282
8.5412655 -9.5367432e-07 -21.43132
8.5472898 -0.94969845 -21.39785
8.5588331 -1.9019651 -21.333729
8.5833836 -2.8611259 -21.197329
8.6113024 -3.8272476 -21.042229
8.7085485 -4.8380809 -20.501968
8.8080711 -5.8720489 -19.949064
8.909812 -6.9298539 -19.383841
9.0139027 -8.0123596 -18.805561
9.1204262 -9.1204243 -18.213764
9.229496 -10.254997 -17.607819
9.3414183 -11.41729 -16.986029
9.4563656 -12.608487 -16.347433
9.5734491 -13.828314 -15.696968
9.8053036 -15.252697 -14.40889
10.266977 -17.111629 -11.84403
11.185246 15.659348 -12.95656
10.79031 14.027405 -14.931246
10.514075 12.616892 -16.31242
10.322525 11.354774 -17.270176
10.159303 10.1593 -18.086287
10.033933 9.0305395 -18.713131
9.9273367 7.9418688 -19.246115
9.8369722 6.8858786 -19.697937
9.7723322 5.8633976 -20.021133
9.7139292 4.8569636 -20.313152
9.6594086 3.8637609 -20.585758
9.6275358 2.888257 -20.745121
9.6009102 1.9201803 -20.878242
9.5910969 0.95910931 -20.927311
9.5871248 -0 -20.947174
9.5914679 -0.95914745 -20.925457
9.6060114 -1.9212046 -20.852737
9.6270456 -2.8881149 -20.747568
9.7364111 -3.8945656 -20.200741
9.8483801 -4.9241896 -19.640894
9.9628935 -5.9777374 -19.068329
10.080132 -7.0560927 -18.482134
10.200067 -8.1600533 -17.882465
10.322856 -9.2905731 -17.268518
10.448603 -10.448603 -16.63978
10.577869 -11.635655 -15.99345
10.71016 -12.852194 -15.331997
10.845655 -14.099355 -14.654519
11.233934 -15.72751 -12.713122
12.932547 16.459604 -10.098495
12.208429 14.428144 -13.389936
11.833474 12.909243 -15.094279
11.564651 11.564651 -16.3162
11.363233 10.330209 -17.231737
11.198955 9.1627808 -17.978458
11.079054 8.0574932 -18.52346
10.961694 6.9756222 -19.056917
10.884045 5.9367514 -19.409866
10.819412 4.9179125 -19.703651
10.75551 3.9110937 -19.994114
10.713521 2.9218693 -20.184978
10.687613 1.9432001 -20.302738
10.667292 0.96975422 -20.395107
10.664657 -9.5367432e-07 -20.407089
10.668867 -0.96989727 -20.387947
10.685225 -1.942771 -20.313589
10.777087 -2.9392042 -19.896034
10.901876 -3.9643164 -19.328814
11.029521 -5.0134201 -18.748611
11.160084 -6.0873208 -18.155144
11.293847 -7.1869946 -17.547129
11.430781 -8.3132954 -16.924698
11.571002 -9.4671822 -16.287334
11.714666 -10.649696 -15.634314
11.86254 -11.862541 -14.962161
12.013541 -13.105681 -14.27579
12.243262 -14.46931 -13.231605
13.139672 -16.723221 -9.1570129
14.056112 15.227455 -10.315659
13.313466 13.313462 -13.410026
12.923976 11.846979 -15.032895
12.653974 10.544975 -16.157909
12.450526 9.3378906 -17.005604
12.291034 8.1940212 -17.670158
12.148976 7.0869021 -18.262064
12.057712 6.0288548 -18.642326
11.969442 4.9872661 -19.010122
11.893103 3.9643669 -19.328199
11.850113 2.9625282 -19.507324
11.813285 1.9688778 -19.660778
11.796001 0.98300076 -19.732792
11.787576 -0 -19.767893
11.795605 -0.98296928 -19.734446
11.830836 -1.9718046 -19.587643
11.968774 -2.9921956 -19.012907
12.10989 -4.0366302 -18.424923
12.254255 -5.1059413 -17.823399
12.401947 -6.2009754 -17.208021
12.553363 -7.3227954 -16.577118
12.708607 -8.4724073 -15.930272
12.867523 -9.6506453 -15.268118
13.030419 -10.858684 -14.58938
13.198125 -12.098283 -13.890608
13.36965 -13.369652 -13.175925
14.132291 -15.30998 -9.9982529
15.222247 14.051303 -10.335692
14.497187 12.26685 -13.124386
14.099115 10.84547 -14.655436
13.801811 9.5550985 -15.79891
13.602085 8.370512 -16.567083
13.427206 7.2300329 -17.239697
13.301316 6.1390686 -17.723885
13.198843 5.0764775 -18.118017
13.108195 4.0332875 -18.46666
13.041022 3.0094681 -18.725014
13.005915 2.0009108 -18.860046
12.986899 0.99899006 -18.93318
12.987061 -3.8146973e-06 -18.93256
12.987143 -0.99901009 -18.932251
13.04932 -2.0075865 -18.6931
13.204175 -3.0471177 -18.097511
13.362748 -4.1116147 -17.48761
13.525002 -5.2019248 -16.863556
13.69111 -6.3189735 -16.224682
13.86144 -7.4638519 -15.569566
14.036297 -8.637722 -14.897038
14.215284 -9.8413544 -14.208625
14.398797 -11.076 -13.50281
14.587871 -12.343583 -12.775599
15.404404 -14.219451 -9.6350937
16.937023 13.307661 -8.3934298
15.800811 11.286291 -12.45133
15.353527 9.8701229 -14.04877
15.045999 8.5977125 -15.147089
14.816809 7.408402 -15.965622
14.643067 6.2756009 -16.586126
14.521541 5.1862636 -17.020151
14.402015 4.1148582 -17.447031
14.328184 3.0703239 -17.710711
14.275975 2.0394244 -17.897171
14.241636 1.0172586 -18.019814
14.236145 -0 -18.039417
14.245328 -1.0175247 -18.006626
14.312845 -2.044692 -17.76549
14.485825 -3.1041055 -17.147713
14.663034 -4.1894374 -16.514818
14.844489 -5.3016014 -15.866766
15.030238 -6.4415312 -15.203375
15.220901 -7.6104517 -14.522435
15.416885 -8.8096485 -13.822489
15.617389 -10.039752 -13.10641
15.83886 -11.313471 -12.315437
17.357492 10.414494 -11.024491
16.754112 8.9355259 -13.035751
16.431171 7.6678782 -14.112226
16.15205 6.4608188 -15.042624
15.988566 5.3295207 -15.587576
15.834588 4.2225542 -16.100838
15.731897 3.1463799 -16.443134
15.66919 2.089222 -16.652161
15.620214 1.041348 -16.815418
15.613949 9.5367432e-07 -16.836304
15.623753 -1.041584 -16.803623
15.663091 -2.0884151 -16.672493
15.816275 -3.1632571 -16.161882
16.013441 -4.2702489 -15.504661
16.215477 -5.405158 -14.831211
16.422338 -6.5689354 -14.141665
16.634834 -7.7629223 -13.433345
16.853373 -8.9884653 -12.704885
17.461401 -10.476841 -10.678128
18.561108 8.1204853 -10.879335
18.0632 6.7736983 -12.435296
17.706118 5.5331607 -13.551176
17.492586 4.3731432 -14.218468
17.331846 3.2497201 -14.720778
17.254084 2.1567588 -14.963788
17.208183 1.0755105 -15.107221
17.162586 -1.4305115e-06 -15.249716
17.191811 -1.0744886 -15.158389
17.262238 -2.1577816 -14.938301
17.36651 -3.2562218 -14.612451
17.502932 -4.3757324 -14.186134
17.723 -5.5384378 -13.498425
18.051676 -6.7693777 -12.47131
18.658226 -8.1629744 -10.575837
19.817184 4.6628647 -10.596959
19.435204 3.4297409 -11.720434
19.24826 2.2645025 -12.270262
19.149561 1.1264439 -12.560558
19.144535 -9.5367432e-07 -12.57534
19.163715 -1.1272793 -12.51893
19.255035 -2.2652979 -12.250339
19.470617 -3.4359925 -11.616272
19.861427 -4.6732779 -10.466831
