# .PCD v0.7 - Point Cloud Data file format
VERSION 0.7
FIELDS x y z
SIZE 4 4 4
TYPE F F F
COUNT 1 1 1
WIDTH 1058
HEIGHT 1
VIEWPOINT 0 0 0 1 0 0 0
POINTS 1058
DATA ascii
-22.92082 -2.3841858e-06 -8.564846
-21.801332 7.2671065 -8.3235407
-20.746634 5.7629566 -11.253256
-20.385174 4.530035 -12.257315
-20.130575 3.3550949 -12.964528
-19.99391 2.2215457 -13.344162
-19.873392 1.104075 -13.67893
-19.856907 1.4305115e-06 -13.724725
-19.891203 -1.1050687 -13.629456
-19.985701 -2.2206326 -13.366961
-20.135824 -3.3559699 -12.949953
-20.376354 -4.5280781 -12.281813
-20.85914 -5.7942047 -10.940741
-21.911007 -7.3036709 -8.0188904
-19.889082 9.3595667 -10.385499
-19.181787 7.8983822 -12.465772
-18.808224 6.6381969 -13.564492
-18.516615 5.4460621 -14.422164
-18.350603 4.3177862 -14.910437
-18.207695 3.2131219 -15.330748
-18.107719 2.1303186 -15.624795
-18.06509 1.0626526 -15.750179
-18.026934 -1.9073486e-06 -15.8624
-18.048403 -1.0616708 -15.799257
-18.133226 -2.1333203 -15.549774
-18.230265 -3.2171063 -15.264366
-18.343588 -4.3161387 -14.931067
-18.543413 -5.4539452 -14.343346
-18.836651 -6.6482334 -13.480882
-19.283541 -7.9402828 -12.166502
-20.087786 -9.4530754 -9.8010721
-19.095383 11.934615 -9.2097254
-18.09691 10.179511 -12.329952
-17.590828 8.7954111 -13.911461
-17.280834 7.5603642 -14.880184
-17.021658 6.3831186 -15.690113
-16.867598 5.2711248 -16.171553
-16.717819 4.1794524 -16.639612
-16.624819 3.1171517 -16.930235
-16.567745 2.0709677 -17.108591
-16.519272 1.0324545 -17.260071
-16.52383 -0 -17.245827
-16.545811 -1.0341134 -17.177137
-16.582632 -2.0728312 -17.062075
-16.627182 -3.117599 -16.922855
-16.742769 -4.1856914 -16.561642
-16.89189 -5.2787166 -16.09564
-17.073359 -6.4025102 -15.528555
-17.303425 -7.5702467 -14.809595
-17.631184 -8.8155918 -13.785347
-18.099072 -10.180731 -12.323194
-17.337978 12.714517 -11.089531
-16.657797 11.105194 -13.356811
-16.223433 9.7340565 -14.804688
-15.948843 8.5060482 -15.719988
-15.719296 7.3356705 -16.485144
-15.567173 6.2268667 -16.992222
-15.422841 5.1409445 -17.473324
-15.32891 4.0877104 -17.78643
-15.257014 3.0514021 -18.026081
-15.19688 2.0262518 -18.226528
-15.170901 1.0113945 -18.313133
-15.165134 -1.9073486e-06 -18.332355
-15.164134 -1.0109415 -18.335686
-15.18364 -2.0244861 -18.27066
-15.259089 -3.0518184 -18.019169
-15.33529 -4.0894136 -17.765165
-15.439168 -5.1463919 -17.418901
-15.57149 -6.2285967 -16.977825
-15.750581 -7.3502712 -16.380856
-15.994763 -8.5305414 -15.566916
-16.265249 -9.7591496 -14.665298
-16.684107 -11.12274 -13.269109
-17.455402 -12.800628 -10.698124
-16.000006 13.714288 -11.739918
-15.384039 12.087461 -13.9398
-14.994524 10.710375 -15.330927
-14.735399 9.4727564 -16.256371
-14.512933 8.2931042 -17.05089
-14.361387 7.1806922 -17.592129
-14.223651 6.0958486 -18.084042
-14.113688 5.0406017 -18.476767
-14.038665 4.011045 -18.744707
-13.965561 2.9926186 -19.005791
-13.920815 1.9886866 -19.165602
-13.907838 0.99341679 -19.211948
-13.897327 -0 -19.249483
-13.905519 -0.9932518 -19.220226
-13.939723 -1.9913883 -19.098074
-13.982767 -2.9963107 -18.944342
-14.042953 -4.0122752 -18.729391
-14.121783 -5.0434923 -18.447855
-14.24087 -6.1032305 -18.022547
-14.381649 -7.1908278 -17.519764
-14.53011 -8.3029213 -16.989546
-14.755813 -9.4858799 -16.183464
-15.036208 -10.740148 -15.182054
-15.438598 -12.130326 -13.74495
-16.082016 -13.784584 -11.447025
-14.822722 14.822721 -11.872325
-14.233953 13.139034 -14.136824
-13.872977 11.738672 -15.525189
-13.603058 10.463888 -16.563343
-13.386135 9.2673225 -17.397657
-13.228474 8.1405983 -18.004053
-13.093878 7.0505495 -18.521727
-12.979043 5.9903259 -18.963398
-12.904263 4.963181 -19.251015
-12.832936 3.9485941 -19.525349
-12.779118 2.9490242 -19.73234
-12.751038 1.9616947 -19.840345
-12.728769 0.97913265 -19.925991
-12.709551 -1.9073486e-06 -19.999908
-12.723814 -0.97875786 -19.945049
-12.750066 -1.9615488 -19.844084
-12.776425 -2.9484053 -19.742699
-12.82912 -3.9474196 -19.540026
-12.913185 -4.96661 -19.216698
-12.998399 -5.9992652 -18.888952
-13.09765 -7.0525789 -18.507221
-13.243423 -8.1497955 -17.946556
-13.414592 -9.2870226 -17.288212
-13.632312 -10.486395 -16.450827
-13.908027 -11.768332 -15.390387
-14.29455 -13.194968 -13.903758
-14.939592 -14.939594 -11.422826
-13.790245 16.088621 -11.423439
-13.153219 14.249319 -14.077717
-12.796151 12.796149 -15.565503
-12.518166 11.474982 -16.723776
-12.318046 10.265037 -17.557611
-12.148059 9.111042 -18.265882
-12.021753 8.0145025 -18.792152
-11.899699 6.9414921 -19.300716
-11.816972 5.908484 -19.645412
-11.744345 4.8934755 -19.948029
-11.6731 3.8910313 -20.244886
-11.640166 2.9100409 -20.382103
-11.614926 1.9358196 -20.487274
-11.591742 0.96597767 -20.58387
-11.593725 -9.5367432e-07 -20.575607
-11.601876 -0.96682549 -20.541649
-11.617337 -1.9362249 -20.477226
-11.64761 -2.9119034 -20.351088
-11.696681 -3.8988938 -20.146629
-11.75024 -4.8959332 -19.92346
-11.825548 -5.9127765 -19.60968
-11.916516 -6.9512992 -19.230646
-12.029244 -8.0194969 -18.760944
-12.171183 -9.1283913 -18.169531
-12.338511 -10.282094 -17.47234
-12.53922 -11.494286 -16.636049
-12.826366 -12.826371 -15.439598
-13.222663 -14.324551 -13.788366
-13.887641 -16.202248 -11.017624
-12.891292 17.579031 -10.286018
-12.167057 15.485344 -13.577993
-11.771931 13.91228 -15.374023
-11.486788 12.53104 -16.670124
-11.283264 11.283262 -17.595236
-11.113382 10.103076 -18.367422
-10.988165 8.9903164 -18.936592
-10.872913 7.9075727 -19.460461
-10.779877 6.8599191 -19.883358
-10.70934 5.8414559 -20.203979
-10.643494 4.8379526 -20.503277
-10.596058 3.8531122 -20.718895
-10.56286 2.8807774 -20.869791
-10.533035 1.9150972 -21.005363
-10.512829 0.95571136 -21.097212
-10.514203 -1.9073486e-06 -21.090967
-10.519233 -0.95629215 -21.068104
-10.524267 -1.9135056 -21.045218
-10.559332 -2.879818 -20.88583
-10.603262 -3.8557301 -20.686148
-10.647592 -4.8398161 -20.484652
-10.699047 -5.835844 -20.250763
-10.790622 -6.8667588 -19.834515
-10.887225 -7.9179845 -19.395409
-10.993523 -8.9947014 -18.912239
-11.128684 -10.116987 -18.297869
-11.30965 -11.30965 -17.475296
-11.520881 -12.568233 -16.515156
-11.808685 -13.95572 -15.206955
-12.218246 -15.550495 -13.345312
-13.140112 -17.918335 -9.1550198
-11.187036 16.78055 -12.947619
-10.770953 15.079331 -15.028032
-10.502615 13.653399 -16.369719
-10.2838 12.340558 -17.463797
-10.111932 11.123121 -18.323141
-9.973484 9.9734812 -19.015379
-9.8657703 8.8791924 -19.553946
-9.7603884 7.8083076 -20.080853
-9.6915798 6.7841034 -20.424896
-9.6279097 5.7767448 -20.743248
-9.570816 4.785408 -21.028715
-9.5398073 3.8159237 -21.183758
-9.5089989 2.8526974 -21.337803
-9.4814606 1.8962898 -21.475498
-9.4752903 0.94752884 -21.506342
-9.4702997 -2.8610229e-06 -21.531296
-9.4735889 -0.94735909 -21.514851
-9.4885044 -1.8977003 -21.440271
-9.5124846 -2.8537455 -21.320377
-9.5404015 -3.8161602 -21.180788
-9.5798473 -4.7899222 -20.983559
-9.6310215 -5.7786131 -20.727686
-9.6987648 -6.7891355 -20.388969
-9.7760143 -7.8208122 -20.002728
-9.8758526 -8.8882656 -19.503536
-9.996067 -9.996067 -18.902464
-10.13119 -11.144309 -18.226843
-10.305898 -12.367075 -17.353308
-10.5092 -13.66196 -16.336796
-10.814423 -15.140194 -14.810686
-11.27072 -16.906082 -12.529194
-10.364669 18.426079 -11.301306
-9.8396463 16.399408 -14.218095
-9.5278797 14.821145 -15.95013
-9.2970114 13.429015 -17.232733
-9.1384964 12.184662 -18.113369
-8.998333 10.997961 -18.892057
-8.8916502 9.879611 -19.484737
-8.7954998 8.7955008 -20.018906
-8.7143917 7.7461257 -20.469509
-8.6525908 6.7297907 -20.812853
-8.5937243 5.7291479 -21.139885
-8.549283 4.7496004 -21.386784
-8.5167294 3.7852106 -21.567635
-8.484993 2.8283281 -21.743946
-8.4636202 1.880805 -21.862682
-8.4579611 0.93977356 -21.894121
-8.4523335 -1.9073486e-06 -21.925385
-8.4493504 -0.93881702 -21.941963
-8.4711704 -1.8824797 -21.820736
-8.4930792 -2.8310289 -21.699024
-8.5151014 -3.7844925 -21.576679
-8.54671 -4.7481718 -21.401075
-8.5939016 -5.7292676 -21.138897
-8.6482496 -6.7264175 -20.836964
-8.7169876 -7.7484365 -20.455086
-8.7972898 -8.7972908 -20.008965
-8.9004488 -9.8893871 -19.435862
-9.0148287 -11.018125 -18.800415
-9.1436024 -12.191472 -18.085003
-9.3339224 -13.482335 -17.027672
-9.5592632 -14.869965 -15.775783
-9.8762503 -16.460417 -14.01474
-10.457549 -18.591202 -10.785303
-8.9308462 17.861689 -13.065009
-8.585557 16.097918 -15.223065
-8.357688 14.625956 -16.647242
-8.1756783 13.285475 -17.784809
-8.0361919 12.054287 -18.656599
-7.9187613 10.888295 -19.390539
-7.8305635 9.7882051 -19.941774
-7.7452173 8.7133694 -20.475187
-7.6855659 7.6855645 -20.848007
-7.6305795 6.6767554 -21.191677
-7.5791612 5.684371 -21.513035
-7.5485182 4.7178211 -21.704559
-7.5186925 3.7593451 -21.890966
-7.4908667 2.8090734 -22.06488
-7.4783554 1.8695889 -22.143074
-7.4699802 0.93374729 -22.195417
-7.4650207 -1.9073486e-06 -22.226418
-7.4682684 -0.93353558 -22.20612
-7.4780946 -1.8695269 -22.144703
-7.494966 -2.8106136 -22.039257
-7.5150933 -3.7575474 -21.913464
-7.542901 -4.7143145 -21.739666
-7.5823312 -5.686748 -21.493225
-7.6266007 -6.6732764 -21.216539
-7.6850843 -7.6850863 -20.851017
-7.7481074 -8.7166204 -20.457127
-7.8330646 -9.7913342 -19.926142
-7.9265137 -10.898957 -19.342085
-8.0434723 -12.06521 -18.611094
-8.1915979 -13.311348 -17.68531
-8.3734541 -14.653546 -16.548708
-8.6058178 -16.135908 -15.096436
-8.9807215 -17.961443 -12.753287
-8.11481 19.707394 -10.919869
-7.6592503 17.506857 -14.173863
-7.3968258 15.850339 -16.048328
-7.2228251 14.44565 -17.291189
-7.0834041 13.154895 -18.28705
-6.9709826 11.950256 -19.090061
-6.8794246 10.810526 -19.744047
-6.8016191 9.7165966 -20.299807
-6.7306771 8.6537266 -20.806534
-6.6796079 7.6338344 -21.171312
-6.6296978 6.6296997 -21.527813
-6.5889964 5.6477079 -21.818535
-6.5610752 4.6864805 -22.017975
-6.5348487 3.7341967 -22.205307
-6.5150046 2.7921429 -22.347048
-6.5056543 1.858757 -22.413837
-6.4963303 0.92804813 -22.480434
-6.4903226 -9.5367432e-07 -22.523348
-6.4988041 -0.92840195 -22.462765
-6.507308 -1.85923 -22.402023
-6.515985 -2.7925673 -22.340046
-6.534811 -3.7341766 -22.205574
-6.5616102 -4.6868658 -22.014154
-6.5938954 -5.6519108 -21.783546
-6.6339731 -6.6339726 -21.497274
-6.681272 -7.6357388 -21.159428
-6.73738 -8.6623487 -20.75865
-6.8047824 -9.7211189 -20.277206
-6.8822412 -10.814951 -19.723932
-6.9795785 -11.964993 -19.028664
-7.0952058 -13.17681 -18.202755
-7.2351427 -14.470285 -17.203207
-7.4247642 -15.910208 -15.848768
-7.6984329 -17.59642 -13.89399
-8.2288704 -19.984398 -10.105156
-6.7994604 19.265137 -12.220626
-6.48423 17.291279 -14.847547
-6.2868996 15.717248 -16.491968
-6.1347389 14.314389 -17.759972
-6.0266738 13.057792 -18.660519
-5.9317913 11.863584 -19.451202
-5.8616552 10.746368 -20.035667
-5.7950535 9.6584196 -20.590685
-5.7411413 8.6117115 -21.039951
-5.6968985 7.5958643 -21.408638
-5.6545587 6.5969834 -21.761478
-5.6245484 5.624547 -22.011559
-5.5992036 4.6660023 -22.222767
-5.574472 3.7163143 -22.428864
-5.5586977 2.7793465 -22.560316
-5.5501494 1.850049 -22.63155
-5.5416598 0.92361069 -22.702293
-5.5375123 -1.9073486e-06 -22.736864
-5.5432186 -0.92387104 -22.689306
-5.5512667 -1.850421 -22.622238
-5.5593376 -2.7796688 -22.554981
-5.5737319 -3.7158222 -22.43503
-5.5968504 -4.6640425 -22.242376
-5.6210451 -5.6210451 -22.040754
-5.6553369 -6.5978942 -21.754993
-5.6914921 -7.5886579 -21.453697
-5.7406292 -8.6109438 -21.044224
-5.794497 -9.6574955 -20.595322
-5.8604813 -10.744217 -20.045456
-5.9393811 -11.878761 -19.387951
-6.0300984 -13.065213 -18.631971
-6.1459866 -14.340638 -17.666245
-6.293128 -15.732821 -16.440062
-6.4964681 -17.323915 -14.745558
-6.8386397 -19.376146 -11.89413
-5.5582948 18.898205 -13.299844
-5.3415523 17.092966 -15.467274
-5.1969676 15.5909 -16.913122
-5.0802603 14.224729 -18.080193
-4.9909334 12.976426 -18.973461
-4.9130497 11.791319 -19.7523
-4.8560119 10.683224 -20.322678
-4.8004837 9.6009684 -20.877956
-4.7611675 8.5700989 -21.271122
-4.7243066 7.5588908 -21.639732
-4.6902933 6.5664082 -21.979862
-4.6683316 5.6019955 -22.199486
-4.6466947 4.6466942 -22.41585
-4.6265078 3.7012062 -22.617718
-4.6166453 2.7699862 -22.716345
-4.6074715 1.842989 -22.808081
-4.6004372 0.92008495 -22.878424
-4.6000824 -9.5367432e-07 -22.881975
-4.6020026 -0.92040253 -22.862766
-4.6048346 -1.8419352 -22.834452
-4.6134291 -2.7680578 -22.748508
-4.6256566 -3.7005281 -22.626232
-4.6442404 -4.6442375 -22.440392
-4.666111 -5.5993333 -22.221687
-4.6931934 -6.5704718 -21.950861
-4.7246389 -7.5594225 -21.636402
-4.7629995 -8.5734024 -21.2528
-4.8063912 -9.6127825 -20.81888
-4.8597517 -10.691454 -20.285278
-4.9214039 -11.811372 -19.668756
-4.996078 -12.989803 -18.922014
-5.0877619 -14.245733 -18.005177
-5.199604 -15.598814 -16.886757
-5.3540111 -17.132837 -15.342685
-5.5906224 -19.008118 -12.976576
-4.768187 21.456841 -9.2804565
-4.4002476 18.701052 -13.879703
-4.2349057 16.939625 -15.946469
-4.126945 15.476042 -17.295986
-4.0414963 14.145237 -18.36409
-3.9747231 12.917847 -19.198761
-3.9180584 11.754173 -19.907068
-3.8711648 10.645701 -20.493238
-3.8273818 9.5684538 -21.040524
-3.7958829 8.5407352 -21.434258
-3.7651961 7.5303931 -21.817846
-3.7392864 6.5437479 -22.141718
-3.7203856 5.5805769 -22.377979
-3.7024727 4.6280909 -22.601883
-3.6887655 3.6887646 -22.77323
-3.6809287 2.7606945 -22.871189
-3.673125 1.8365622 -22.968731
-3.6669831 0.91674614 -23.045507
-3.6685195 -9.5367432e-07 -23.026304
-3.6707263 -0.9176836 -22.998716
-3.6730723 -1.8365393 -22.969391
-3.6808972 -2.7606716 -22.871586
-3.6915371 -3.6915359 -22.738583
-3.7038577 -4.6298237 -22.584574
-3.7215898 -5.5823865 -22.362921
-3.7405901 -6.5460315 -22.125418
-3.7661431 -7.5322886 -21.806004
-3.7947528 -8.5381927 -21.448385
-3.830776 -9.5769386 -20.998098
-3.8720379 -10.648106 -20.482321
-3.9207313 -11.762195 -19.873655
-3.9777198 -12.92759 -19.161297
-4.047812 -14.167343 -18.285145
-4.1368251 -15.513097 -17.172482
-4.2502027 -17.000811 -15.755267
-4.4211931 -18.790073 -13.617882
-3.4855978 20.913586 -10.789499
-3.2796478 18.584669 -14.221999
-3.1644576 16.877104 -16.14184
-3.0844107 15.422054 -17.475952
-3.0212102 14.09898 -18.529293
-2.9700012 12.870003 -19.382776
-2.9303651 11.72146 -20.043377
-2.8950071 10.615024 -20.632679
-2.8645406 9.5484695 -21.140453
-2.8406804 8.5220394 -21.538124
-2.8177652 7.5140395 -21.920044
-2.8001297 6.5336342 -22.21397
-2.7857563 5.5715122 -22.453526
-2.7717686 4.6196117 -22.686653
-2.7618258 3.6824341 -22.852367
-2.7554255 2.7554264 -22.959038
-2.7493446 1.8328962 -23.06039
-2.7452872 0.91509247 -23.12801
-2.7451468 -0 -23.130352
-2.7469039 -0.91563511 -23.101065
-2.748867 -1.8325787 -23.068346
-2.7561808 -2.7561836 -22.946453
-2.7635412 -3.6847239 -22.823774
-2.7709332 -4.6182213 -22.700575
-2.7843182 -5.5686393 -22.477493
-2.7996993 -6.5326333 -22.221142
-2.8184481 -7.515861 -21.908665
-2.8396358 -8.5189095 -21.555527
-2.8657565 -9.5525227 -21.120186
-2.8950765 -10.615282 -20.631517
-2.9336329 -11.73453 -19.988916
-2.9750347 -12.891817 -19.298883
-3.0250914 -14.117093 -18.464605
-3.0887821 -15.44391 -17.403097
-3.1709843 -16.911919 -16.033054
-3.2949033 -18.67112 -13.967741
-3.5280635 -21.168381 -10.081741
-2.3018429 20.716583 -11.336726
-2.1736507 18.47603 -14.541526
-2.1019909 16.815929 -16.333021
-2.0495231 15.371424 -17.644714
-2.0096877 14.067813 -18.640602
-1.9733719 12.826918 -19.5485
-1.9481604 11.68896 -20.178785
-1.9245571 10.585064 -20.768867
-1.9057132 9.5285645 -21.239967
-1.8898612 8.5043774 -21.636265
-1.8744401 7.4977584 -22.021797
-1.8639203 6.5237217 -22.284784
-1.8542069 5.5626192 -22.527624
-1.8448639 4.6121588 -22.7612
-1.8392601 3.6785192 -22.901299
-1.8343745 2.7515593 -23.023432
-1.8303111 1.8303099 -23.125019
-1.8285121 0.9142561 -23.169994
-1.828081 -0 -23.180771
-1.8276554 -0.9138298 -23.191414
-1.8296088 -1.8296089 -23.142578
-1.8347354 -2.7521038 -23.014408
-1.8399539 -3.6799088 -22.883945
-1.8454087 -4.6135235 -22.74758
-1.8547573 -5.56427 -22.513866
-1.8642066 -6.5247202 -22.277636
-1.8752592 -7.5010362 -22.001318
-1.8895783 -8.5031013 -21.643339
-1.9066164 -9.533082 -21.217388
-1.9266194 -10.596408 -20.71731
-1.9519 -11.711401 -20.085293
-1.9788809 -12.862725 -19.41078
-2.0118296 -14.082808 -18.587053
-2.0527391 -15.395542 -17.56432
-2.1134553 -16.907642 -16.046415
-2.220917 -18.877792 -13.359877
-2.3395517 -21.055965 -10.394001
-1.148617 20.675104 -11.451947
-1.0867888 18.475405 -14.543364
-1.0499154 16.798647 -16.387024
-1.0220246 15.330371 -17.781561
-1.0038315 14.053638 -18.691223
-0.98679483 12.828331 -19.543056
-0.97409791 11.689174 -20.177902
-0.96183562 10.580191 -20.791014
-0.95243078 9.5243053 -21.261257
-0.94412118 8.4970894 -21.676739
-0.9361459 7.4891672 -22.0755
-0.93087918 6.5161524 -22.338837
-0.92570609 5.5542355 -22.597492
-0.9211092 4.605545 -22.827335
-0.91865605 3.6746225 -22.949993
-0.91621858 2.7486553 -23.071869
-0.91386658 1.8277302 -23.189465
-0.91341794 0.91341877 -23.211901
-0.91346711 1.9073486e-06 -23.209436
-0.91352159 -0.91352081 -23.206715
-0.91460937 -1.8292198 -23.152328
-0.91646641 -2.7494001 -23.059473
-0.9189499 -3.6757994 -22.935307
-0.92223102 -4.6111546 -22.771246
-0.92690319 -5.5614204 -22.537634
-0.93175244 -6.5222659 -22.295177
-0.93703175 -7.4962544 -22.03121
-0.94447029 -8.5002327 -21.659283
-0.95262247 -9.526227 -21.251671
-0.96316838 -10.594854 -20.724377
-0.9750039 -11.700047 -20.132599
-0.98831004 -12.848029 -19.467295
-1.0051923 -14.072689 -18.623184
-1.0251664 -15.377496 -17.624477
-1.067956 -17.087296 -15.484999
-1.1228604 -19.088627 -12.739775
-1.183503 -21.303053 -9.7076483
0 20.650488 -11.520325
0 18.47884 -14.533264
0 16.816093 -16.332506
0 15.354504 -17.701107
0 14.051275 -18.699671
0 12.832581 -19.526711
0 11.692322 -20.164778
0 10.582565 -20.78023
0 9.5305119 -21.23023
0 8.5021019 -21.648888
0 7.4965162 -22.029572
0 6.521925 -22.297604
0 5.5590467 -22.557383
0 4.6095438 -22.787361
0 3.676733 -22.923622
0 2.749938 -23.050468
0 1.8284702 -23.171034
0 0.91359138 -23.203217
0 -1.9073486e-06 -23.207493
0 -0.91356182 -23.204639
0 -1.8300753 -23.130871
0 -2.7506924 -23.037933
0 -3.6754246 -22.940027
0 -4.6106653 -22.776133
0 -5.5613575 -22.53817
0 -6.5226259 -22.29261
0 -7.4993558 -22.011831
0 -8.498312 -21.66995
0 -9.5255203 -21.255196
0 -10.59368 -20.729706
0 -11.698665 -20.138363
0 -12.84381 -19.483526
0 -14.063818 -18.654877
0 -15.430879 -17.446539
0 -17.270691 -14.911888
0 -19.304153 -12.105866
0 -21.557133 -9.0018768
1.157191 20.829435 -11.023243
1.0892532 18.517303 -14.420136
1.0521982 16.835169 -16.272888
1.0252513 15.378768 -17.620232
1.0052142 14.073 -18.622084
0.98789442 12.842626 -19.488075
0.97467911 11.696149 -20.148842
0.96231019 10.58541 -20.767288
0.9537009 9.5370064 -21.197754
0.94524425 8.5071983 -21.620586
0.93798488 7.5038795 -21.983551
0.93260294 6.5282221 -22.252647
0.92732519 5.5639524 -22.516537
0.92305106 4.6152534 -22.730244
0.92021108 3.6808434 -22.872242
0.91753769 2.752614 -23.005911
0.91542888 1.8308563 -23.111353
0.9147836 0.91478062 -23.143616
0.91413921 -1.9073486e-06 -23.175838
0.91361237 -0.91361141 -23.202179
0.91568673 -1.8313732 -23.098457
0.91781503 -2.7534428 -22.992043
0.91995329 -3.6798115 -22.885128
0.92362058 -4.618103 -22.701767
0.92776626 -5.566597 -22.494484
0.93194669 -6.5236278 -22.285461
0.93831575 -7.506526 -21.967009
0.94547194 -8.5092459 -21.6092
0.95406848 -9.5406837 -21.179377
0.96363282 -10.599958 -20.701157
0.9757843 -11.709414 -20.093576
0.98969901 -12.866088 -19.397848
1.0065629 -14.091881 -18.554647
1.03936 -15.590399 -16.914797
1.091133 -17.458126 -14.326151
1.1485186 -19.524815 -11.456865
1.2120792 -21.817423 -8.2788401
2.3346469 21.01182 -10.516624
2.1936002 18.645599 -14.042789
2.1146634 16.917307 -16.016212
2.0564117 15.423088 -17.4725
2.0171955 14.120366 -18.452911
1.9829348 12.889074 -19.309422
1.9557968 11.734781 -19.987875
1.9300221 10.61512 -20.632242
1.9117072 9.5585327 -21.090115
1.8938147 8.5221653 -21.537426
1.8789105 7.5156426 -21.910034
1.8674463 6.5360603 -22.196638
1.8563675 5.5690985 -22.47361
1.848387 4.6209669 -22.673122
1.8426985 3.6853952 -22.815334
1.8370395 2.755558 -22.956808
1.833246 1.8332462 -23.051643
1.8323641 0.91618061 -23.073692
1.8317592 9.5367432e-07 -23.088818
1.8316863 -0.91584492 -23.090641
1.8346988 -1.8346996 -23.015326
1.8378159 -2.7567253 -22.937401
1.8421025 -3.6842051 -22.830233
1.8502201 -4.6255493 -22.627293
1.8591557 -5.5774693 -22.403904
1.8682106 -6.5387354 -22.177534
1.8815854 -7.5263405 -21.843164
1.8954712 -8.5296192 -21.496017
1.9114007 -9.557004 -21.097778
1.9323051 -10.62768 -20.575172
1.9553393 -11.732038 -19.999311
1.9841636 -12.897065 -19.278708
2.0182643 -14.127848 -18.426189
2.1004338 -15.753255 -16.371948
2.2062018 -17.649614 -13.727752
2.323606 -19.750656 -10.792645
2.4537868 -22.084082 -7.538125
3.6855137 22.113081 -7.4575682
3.3135734 18.776913 -13.656575
3.1916878 17.022331 -15.688004
3.1026187 15.513094 -17.172482
3.0373013 14.174073 -18.261108
2.9852545 12.9361 -19.128555
2.9440813 11.776325 -19.814774
2.905488 10.653453 -20.457998
2.8776805 9.5922699 -20.921453
2.8506024 8.5518084 -21.372755
2.8284636 7.5425692 -21.741737
2.8110297 6.5590677 -22.032301
2.7939224 5.5878458 -22.317417
2.7814627 4.6357718 -22.525085
2.7723894 3.6965199 -22.676304
2.7634938 2.7634935 -22.824566
2.7575817 1.8383875 -22.923096
2.7550323 0.91834259 -22.965591
2.7541208 -1.9073486e-06 -22.980782
2.7547336 -0.91824722 -22.97057
2.7592764 -1.8395176 -22.894857
2.7641268 -2.7641296 -22.814014
2.7705595 -3.6940804 -22.706806
2.7822242 -4.6370401 -22.512394
2.7955244 -5.5910482 -22.290724
2.8098598 -6.5563397 -22.0518
2.8305035 -7.5480084 -21.707741
2.8523962 -8.557188 -21.342861
2.8767374 -9.5891256 -20.937174
2.9073339 -10.660223 -20.427231
2.944665 -11.778662 -19.805046
2.988054 -12.948235 -19.081896
3.0400078 -14.186702 -18.216002
3.1839094 -15.919547 -15.81764
3.3460147 -17.845415 -13.115881
3.526195 -19.981773 -10.11288
4.4819031 19.048088 -12.859011
4.2873459 17.149384 -15.290976
4.1611218 15.604205 -16.868773
4.0741768 14.259619 -17.955582
3.9993336 12.997832 -18.891129
3.940377 11.821133 -19.628082
3.8880126 10.692034 -20.282637
3.8506799 9.6267014 -20.749294
3.814069 8.5816536 -21.206936
3.7848902 7.5697789 -21.571671
3.7613893 6.5824289 -21.865429
3.7383091 5.607461 -22.153934
3.7221713 4.6527128 -22.355659
3.7095573 3.7095566 -22.513332
3.6974959 2.7731228 -22.664097
3.690172 1.8450832 -22.75565
3.6863995 0.92159939 -22.802803
3.6826346 -1.9073486e-06 -22.849865
3.6834776 -0.92087078 -22.839329
3.691103 -1.8455524 -22.744007
3.69876 -2.7740688 -22.648293
3.7082641 -3.7082634 -22.529491
3.723937 -4.6549215 -22.333586
3.7397425 -5.6096153 -22.136015
3.7595658 -6.5792403 -21.888224
3.7879975 -7.575994 -21.532829
3.8178809 -8.5902328 -21.159283
3.8515904 -9.6289749 -20.737917
3.8940816 -10.708723 -20.206779
3.9436243 -11.830873 -19.587492
4.005568 -13.0181 -18.813194
4.0897875 -14.314254 -17.760458
4.2904892 -16.089336 -15.251678
4.511385 -18.04554 -12.490487
4.7572446 -20.218288 -9.4172382
5.694047 19.359758 -11.942326
5.4268332 17.365862 -14.614469
5.2508793 15.752636 -16.374006
5.1331248 14.372746 -17.55155
5.0360284 13.093672 -18.522518
4.9612498 11.906998 -19.270298
4.8905172 10.759135 -19.977623
4.8403678 9.6807365 -20.479118
4.7912502 8.6242476 -20.970295
4.7521548 7.6034465 -21.36125
4.7207308 6.6090207 -21.675491
4.6897192 5.6276636 -21.985603
4.6697812 4.6697788 -22.184988
4.6538982 3.7231178 -22.343817
4.638123 2.7828722 -22.501568
4.6298089 1.8519211 -22.584707
4.6272531 0.92544937 -22.610268
4.6246991 -2.8610229e-06 -22.635803
4.6264677 -0.92529202 -22.618118
4.6333952 -1.8533573 -22.548847
4.6403298 -2.7841969 -22.4795
4.6532116 -3.7225695 -22.350679
4.6750994 -4.6750975 -22.131802
4.6975369 -5.6370459 -21.907429
4.7240705 -6.6137018 -21.64209
4.7586894 -7.6139035 -21.295902
4.7941766 -8.6295166 -20.941029
4.8401785 -9.6803579 -20.481014
4.895472 -10.770038 -19.928078
4.9632549 -11.911812 -19.25025
5.0452967 -13.117771 -18.429827
5.1648407 -14.461555 -17.234388
5.4208913 -16.262674 -14.673883
5.7031894 -18.250206 -11.850904
6.0176969 -20.460171 -8.7058287
7.1267285 20.192398 -9.4933949
6.5959291 17.589142 -13.91672
6.3783779 15.945943 -15.729647
6.2193279 14.511765 -17.055063
6.0881248 13.190936 -18.148426
5.9971375 11.994275 -18.906654
5.9092817 10.833683 -19.638783
5.8482695 9.7471132 -20.147219
5.7885041 8.6827555 -20.64526
5.7399297 7.6532388 -21.050053
5.7017102 6.6519938 -21.368547
5.6640124 5.664011 -21.682693
5.6382618 4.6985483 -21.89728
5.6179862 3.7453232 -22.066242
5.5978565 2.7989292 -22.233994
5.5864711 1.862154 -22.328869
5.5798683 0.92997932 -22.383892
5.5767097 -9.5367432e-07 -22.410215
5.5794172 -0.92990208 -22.387653
5.5879583 -1.8626518 -22.316477
5.5995445 -2.7997732 -22.219925
5.6159606 -3.7439728 -22.083124
5.6401725 -4.7001448 -21.881359
5.6653585 -5.6653585 -21.671473
5.6987486 -6.6485376 -21.393227
5.7445059 -7.6593399 -21.011915
5.791369 -8.6870527 -20.621391
5.8461447 -9.7435741 -20.164927
5.9147296 -10.84367 -19.59338
6.0002494 -12.0005 -18.880718
6.0992203 -13.214977 -18.05596
6.26227 -14.611963 -16.697216
6.5759377 -16.439846 -14.083313
6.9223628 -18.459633 -11.196444
7.3086724 -20.707901 -7.9771976
7.9018188 18.0613 -12.441235
7.5589957 16.197845 -14.889971
7.3430834 14.686167 -16.432198
7.1785655 13.331624 -17.607327
7.060936 12.104463 -18.44754
6.9474425 10.91741 -19.258209
6.8700891 9.8144102 -19.810734
6.7993808 8.7420597 -20.31579
6.7407064 7.7036657 -20.73489
6.6955495 6.6955495 -21.057442
6.6509733 5.7008333 -21.375845
6.6198788 4.7284842 -21.597946
6.5959029 3.7690878 -21.769199
6.5721006 2.8166151 -21.939224
6.5584011 1.8738279 -22.037071
6.5506206 0.93580151 -22.092655
6.5441122 -2.8610229e-06 -22.139137
6.5477266 -0.93539143 -22.113323
6.5602531 -1.8743582 -22.023844
6.5739412 -2.8174009 -21.926071
6.5936637 -3.7678089 -21.785198
6.6222725 -4.7301927 -21.580849
6.6553159 -5.7045588 -21.344828
6.6972809 -6.6972828 -21.045074
6.7495117 -7.7137289 -20.671997
6.8025637 -8.7461557 -20.293056
6.8753934 -9.82199 -19.772842
6.9599557 -10.937074 -19.168825
7.0658746 -12.112929 -18.412262
7.1931205 -13.358655 -17.503365
7.3827662 -14.765534 -16.14875
7.7564282 -16.620918 -13.479736
8.1698122 -18.673859 -10.526995
9.3890591 18.778116 -10.201181
8.822751 16.54266 -13.7406
8.5244122 14.91772 -15.605221
8.3128929 13.50845 -16.927216
8.165617 12.248425 -17.847687
8.0333576 11.045866 -18.674307
7.9336462 9.9170551 -19.297508
7.8453813 8.8260536 -19.849165
7.7692676 7.7692685 -20.324875
7.7136121 6.7494121 -20.67272
7.6587715 5.7440772 -21.015476
7.6190853 4.7619257 -21.263512
7.5896177 3.7948093 -21.447685
7.5603776 2.8351412 -21.63044
7.5458636 1.8864641 -21.721149
7.541399 0.94267368 -21.749054
7.5369167 1.9073486e-06 -21.777063
7.5403829 -0.9425478 -21.755402
7.5524821 -1.8881207 -21.679783
7.56462 -2.8367338 -21.603918
7.5889468 -3.7944717 -21.45188
7.627347 -4.7670913 -21.21188
7.6667538 -5.7500648 -20.96559
7.7153459 -6.7509279 -20.661884
7.7793379 -7.7793379 -20.26193
7.8498783 -8.8311138 -19.821056
7.9321799 -9.915226 -19.306673
8.0385752 -11.053043 -18.641701
8.1641159 -12.246175 -17.857075
8.3257694 -13.529377 -16.846735
8.5326328 -14.932106 -15.553841
8.9631815 -16.805969 -12.862911
9.4744349 -18.948868 -9.6675787
10.218982 17.031635 -12.110674
9.760498 15.182999 -14.657806
9.5075512 13.733128 -16.063068
9.3029232 12.403895 -17.199888
9.145133 11.177382 -18.076502
9.0225515 10.025055 -18.757513
8.9216957 8.9216938 -19.317823
8.8287716 7.8477941 -19.834066
8.7649174 6.8171577 -20.188805
8.702426 5.8016157 -20.53598
8.6531067 4.8072815 -20.809978
8.6193228 3.8308096 -20.997667
8.586998 2.8623314 -21.177254
8.5657673 1.9035015 -21.295197
8.555748 0.95063686 -21.350864
8.5457516 -1.9073486e-06 -21.406395
8.548501 -0.94983196 -21.391125
8.5688591 -1.904192 -21.278027
8.5893154 -2.8631039 -21.164379
8.6167841 -3.8296833 -21.011772
8.6584101 -4.8102288 -20.780521
8.7015381 -5.8010268 -20.540922
8.7633801 -6.8159637 -20.197353
8.8415194 -7.859129 -19.763248
8.9210358 -8.9210358 -19.321487
9.0274439 -10.030494 -18.73033
9.1535435 -11.187664 -18.029779
9.3186674 -12.424888 -17.112423
9.5191746 -13.749921 -15.998489
9.8066311 -15.25476 -14.40151
10.267924 -17.113207 -11.838775
11.195325 15.673452 -12.906178
10.788139 14.024578 -14.942098
10.522532 12.627036 -16.270138
10.328687 11.361555 -17.239363
10.160842 10.160841 -18.078588
10.03603 9.0324249 -18.70265
9.9144611 7.9315677 -19.310493
9.8381147 6.8866792 -19.692225
9.7672606 5.8603563 -20.046494
9.7070732 4.8535357 -20.347427
9.6704378 3.8681736 -20.530605
9.6340494 2.8902149 -20.712553
9.6070156 1.9214029 -20.847721
9.5981331 0.95981312 -20.892132
9.5941839 -1.9073486e-06 -20.911873
9.597188 -0.95972061 -20.896852
9.6164598 -1.9232931 -20.800497
9.6358366 -2.8907509 -20.703611
9.6639328 -3.8655729 -20.563133
9.7218523 -4.8609266 -20.273533
9.7805004 -5.8682995 -19.980297
9.8474169 -6.8931928 -19.645712
9.9373293 -7.9498649 -19.196148
10.040351 -9.036314 -18.681046
10.168065 -10.168067 -18.042471
10.340003 -11.374005 -17.182783
10.540798 -12.648957 -16.178806
10.81464 -14.059032 -14.809596
11.220696 -15.708972 -12.779316
12.958156 16.492199 -9.9820862
12.196315 14.413827 -13.445001
11.819369 12.893858 -15.15839
11.56775 11.567752 -16.302113
11.35638 10.32398 -17.262892
11.214991 9.1759014 -17.905569
11.078325 8.056963 -18.526772
10.977806 6.9858742 -18.983677
10.89292 5.9415922 -19.369522
10.813166 4.9150734 -19.73204
10.768991 3.9159937 -19.932842
10.725335 2.9250898 -20.131271
10.690872 1.9437923 -20.287922
10.680841 0.97098255 -20.333519
10.672919 -0 -20.369526
10.672276 -0.97020721 -20.372452
10.696364 -1.9447947 -20.26296
10.729529 -2.9262371 -20.112209
10.764896 -3.9145107 -19.95145
10.827917 -4.9217796 -19.664989
10.891713 -5.9409356 -19.375008
10.973621 -6.9832144 -19.002701
11.077841 -8.0566149 -18.528976
11.213214 -9.1744509 -17.913643
11.380474 -10.345884 -17.153366
11.595828 -11.595829 -16.174492
11.86254 -12.940952 -14.96216
12.237971 -14.463058 -13.255651
13.139965 -16.723595 -9.1556816
14.018967 15.187212 -10.470435
13.316725 13.316727 -13.396441
12.938177 11.859996 -14.973721
12.663516 10.552929 -16.118147
12.45434 9.3407555 -16.989712
12.283566 8.189045 -17.701267
12.151613 7.0884399 -18.251072
12.057712 6.0288548 -18.642326
11.965251 4.9855185 -19.027584
11.908726 3.9695759 -19.263103
11.86402 2.9660025 -19.449383
11.819612 1.9699335 -19.634411
11.806063 0.98383808 -19.69087
11.80112 -3.8146973e-06 -19.711466
11.801985 -0.98350048 -19.707855
11.832577 -1.9720974 -19.580391
11.866389 -2.9665985 -19.43951
11.901093 -3.9670324 -19.29491
11.981474 -4.9922805 -18.959991
12.073167 -6.0365844 -18.577934
12.166314 -7.0970182 -18.189823
12.297178 -8.1981192 -17.644554
12.456791 -9.3425941 -16.979502
12.664721 -10.553933 -16.113129
12.962279 -11.882092 -14.8733
13.351899 -13.351901 -13.249882
14.131981 -15.309645 -9.9995441
15.30931 14.131668 -10.000841
14.500302 12.269488 -13.112403
14.08886 10.837584 -14.694874
13.804225 9.5567703 -15.789626
13.612352 8.3768301 -16.527592
13.427594 7.2302442 -17.238205
13.312787 6.1443629 -17.679771
13.203092 5.0781116 -18.101677
13.11917 4.0366669 -18.424446
13.065214 3.0150471 -18.631973
13.014897 2.0022898 -18.825497
12.994321 0.99956417 -18.904634
12.989521 -2.8610229e-06 -18.9231
12.988432 -0.99911118 -18.927288
13.012266 -2.0018892 -18.835617
13.069908 -3.0161338 -18.61392
13.128021 -4.0393901 -18.390408
13.207885 -5.0799565 -18.083239
13.311812 -6.1439123 -17.683519
13.44006 -7.2369595 -17.190258
13.606111 -8.3729935 -16.5516
13.822193 -9.569212 -15.720511
14.119957 -10.861505 -14.575273
14.536173 -12.299841 -12.974438
15.495116 -14.303189 -9.2861948
15.787413 11.276721 -12.499182
15.378263 9.8860254 -13.960429
15.062849 8.6073427 -15.086906
14.823536 7.4117665 -15.941595
14.641259 6.2748241 -16.592587
14.515038 5.1839399 -17.043379
14.396446 4.1132708 -17.466919
14.342917 3.0734816 -17.658092
14.291735 2.0416737 -17.840889
14.250238 1.0178728 -17.989086
14.252988 -9.5367432e-07 -17.979263
14.26856 -1.0191822 -17.923649
14.292369 -2.0417676 -17.838619
14.354753 -3.0760207 -17.615822
14.420452 -4.1201305 -17.381184
14.522758 -5.1866989 -17.015808
14.65202 -6.279439 -16.554153
14.838573 -7.4192848 -15.887892
15.071818 -8.6124687 -15.054874
15.379733 -9.8869696 -13.955181
15.865409 -11.332437 -12.220626
17.381491 10.428892 -10.944495
16.782478 8.9506531 -12.941204
16.425022 7.6650085 -14.132727
16.165628 6.4662499 -14.99737
15.999005 5.3330002 -15.552778
15.859715 4.2292581 -16.01708
15.752226 3.1504455 -16.375376
15.692674 2.0923572 -16.573887
15.646692 1.0431113 -16.727156
15.637316 -0 -16.758413
15.649532 -1.043303 -16.717686
15.683496 -2.0911355 -16.604477
15.748629 -3.149725 -16.387367
15.845554 -4.2254806 -16.064283
15.987083 -5.3290291 -15.592518
16.187256 -6.4749031 -14.925276
16.443932 -7.6738386 -14.069687
16.806259 -8.9633369 -12.861934
17.540455 -10.524274 -10.414616
18.599188 8.1371431 -10.760332
18.066053 6.7747688 -12.426386
17.725195 5.5391221 -13.491562
17.538641 4.3846607 -14.074543
17.37442 3.2577043 -14.587734
17.276951 2.1596189 -14.892328
17.220442 1.0762768 -15.068914
17.19112 -9.5367432e-07 -15.160543
17.228508 -1.0767832 -15.043705
17.278631 -2.1598277 -14.887073
17.375124 -3.2578359 -14.585533
17.517578 -4.3793945 -14.140359
17.747433 -5.546073 -13.422071
18.060286 -6.7726088 -12.444404
18.725809 -8.192544 -10.36465
19.846874 4.6698523 -10.509638
19.504631 3.4419947 -11.516236
19.309879 2.2717509 -12.089031
19.177284 1.1280751 -12.479024
19.164654 -9.5367432e-07 -12.516164
19.196259 -1.1291943 -12.423212
19.275251 -2.2676802 -12.19088
19.553217 -3.4505687 -11.37333
19.938007 -4.6912947 -10.241598
