# .PCD v0.7 - Point Cloud Data file format
VERSION 0.7
FIELDS x y z
SIZE 4 4 4
TYPE F F F
COUNT 1 1 1
WIDTH 1056
HEIGHT 1
VIEWPOINT 0 0 0 1 0 0 0
POINTS 1056
DATA ascii
-22.979136 1.2094264 -8.4113884
-21.768726 7.2562394 -8.414115
-20.705553 5.7515421 -11.367373
-20.368544 4.5263453 -12.303507
-20.091547 3.3485918 -13.072947
-19.976051 2.2195587 -13.393764
-19.889835 1.10499 -13.633251
-19.873323 -0 -13.679121
-19.898239 -1.1054592 -13.609907
-19.988459 -2.220942 -13.359303
-20.151093 -3.3585148 -12.907537
-20.419594 -4.5376883 -12.161704
-20.858465 -5.7940154 -10.942617
-19.914711 9.3716259 -10.310121
-19.192688 7.9028692 -12.43371
-18.789167 6.6314716 -13.620535
-18.523447 5.448072 -14.402067
-18.3235 4.3114104 -14.990154
-18.209211 3.2133889 -15.326292
-18.102867 2.1297464 -15.639069
-18.070639 1.0629768 -15.733857
-18.043344 9.5367432e-07 -15.814138
-18.045843 -1.0615215 -15.806787
-18.129261 -2.1328535 -15.561438
-18.221827 -3.2156162 -15.28919
-18.359655 -4.3199182 -14.88381
-18.555426 -5.4574795 -14.308014
-18.842165 -6.650177 -13.464664
-19.269142 -7.9343514 -12.208849
-20.048403 -9.4345436 -9.9169025
-18.969952 11.856218 -9.6016998
-18.068018 10.163258 -12.42024
-17.604179 8.8020859 -13.869738
-17.28385 7.5616841 -14.870762
-17.030779 6.3865409 -15.66161
-16.860695 5.2689657 -16.193129
-16.742769 4.1856909 -16.561642
-16.62772 3.1176953 -16.921177
-16.572437 2.071557 -17.093929
-16.532743 1.0332928 -17.217974
-16.51318 9.5367432e-07 -17.27911
-16.543633 -1.033977 -17.183945
-16.575905 -2.0719895 -17.083092
-16.644918 -3.120923 -16.867428
-16.749306 -4.1873279 -16.54122
-16.887623 -5.2773824 -16.108974
-17.07251 -6.4021931 -15.531206
-17.289015 -7.5639453 -14.854624
-17.653547 -8.8267746 -13.715459
-18.173555 -10.222626 -12.090436
-17.317516 12.699508 -11.157744
-16.645044 11.096697 -13.399313
-16.248442 9.7490635 -14.721322
-15.95865 8.5112801 -15.687298
-15.733589 7.3423405 -16.437496
-15.563157 6.2252626 -17.005606
-15.428658 5.1428852 -17.453938
-15.29787 4.0794334 -17.889896
-15.249352 3.0498672 -18.051626
-15.204587 2.0272779 -18.20084
-15.160085 1.0106726 -18.349178
-15.154374 -9.5367432e-07 -18.368214
-15.174715 -1.0116482 -18.300411
-15.203965 -2.0271974 -18.202911
-15.252964 -3.0505934 -18.039577
-15.33792 -4.0901132 -17.756393
-15.439959 -5.1466537 -17.416267
-15.551826 -6.2207322 -17.043375
-15.758758 -7.3540878 -16.353607
-15.989784 -8.5278883 -15.583514
-16.271938 -9.7631636 -14.643006
-16.696859 -11.131241 -13.2266
-17.474167 -12.814389 -10.635569
-15.986097 13.702369 -11.78959
-15.352272 12.062498 -14.05325
-14.995572 10.711121 -15.327181
-14.726393 9.4669685 -16.288534
-14.518031 8.2960186 -17.032684
-14.343511 7.1717544 -17.655972
-14.226526 6.0970831 -18.073776
-14.113822 5.040648 -18.476292
-14.041159 4.0117569 -18.7358
-13.975957 2.9948473 -18.968662
-13.916902 1.9881296 -19.179577
-13.90758 0.99339676 -19.212868
-13.90492 -0 -19.22237
-13.903117 -0.99308205 -19.228806
-13.922319 -1.9889059 -19.160223
-13.98216 -2.9961786 -18.94651
-14.043434 -4.0124106 -18.727673
-14.121517 -5.0434008 -18.448799
-14.24096 -6.1032701 -18.022224
-14.379905 -7.1899519 -17.525995
-14.539581 -8.3083334 -16.955719
-14.754556 -9.4850731 -16.187952
-15.049265 -10.749477 -15.13542
-15.456234 -12.144185 -13.681964
-16.076908 -13.780206 -11.465268
-14.765701 14.765702 -12.091638
-14.228193 13.133716 -14.158978
-13.84621 11.71602 -15.628147
-13.602528 10.46348 -16.565384
-13.395865 9.2740593 -17.360241
-13.224334 8.138052 -18.019974
-13.098183 7.0528679 -18.505171
-12.975985 5.9889154 -18.975164
-12.890983 4.9580698 -19.302092
-12.835496 3.9493828 -19.515503
-12.780524 2.9493523 -19.726936
-12.745754 1.9608841 -19.860666
-12.723079 0.97869778 -19.947876
-12.718322 -2.8610229e-06 -19.966177
-12.723853 -0.978755 -19.944901
-12.751309 -1.9617434 -19.8393
-12.788219 -2.9511271 -19.697338
-12.837662 -3.9500489 -19.507174
-12.903984 -4.9630709 -19.252083
-12.995856 -5.9980879 -18.898735
-13.105199 -7.0566478 -18.478188
-13.239902 -8.1476336 -17.960096
-13.416572 -9.2883978 -17.280602
-13.627338 -10.482569 -16.469955
-13.911495 -11.771267 -15.377047
-14.265792 -13.168424 -14.014365
-14.929303 -14.929307 -11.462396
-13.793299 16.09218 -11.410715
-13.155594 14.251892 -14.06782
-12.792421 12.792419 -15.581043
-12.504587 11.462536 -16.780354
-12.317298 10.264414 -17.560722
-12.136683 9.1025105 -18.313288
-12.016068 8.0107117 -18.815844
-11.908652 6.946713 -19.263412
-11.818129 5.9090652 -19.640593
-11.748954 4.8953953 -19.928822
-11.680548 3.8935175 -20.213844
-11.639009 2.9097519 -20.386925
-11.618665 1.9364424 -20.471693
-11.599958 0.96666241 -20.549637
-11.581696 -9.5367432e-07 -20.625732
-11.597173 -0.96643162 -20.561245
-11.618979 -1.9364967 -20.470383
-11.642273 -2.9105663 -20.373329
-11.687972 -3.8959894 -20.182911
-11.757466 -4.8989429 -19.893349
-11.8312 -5.9156003 -19.586132
-11.917913 -6.9521146 -19.224823
-12.025685 -8.0171251 -18.775774
-12.171798 -9.12885 -18.166973
-12.343361 -10.286133 -17.452126
-12.54423 -11.498879 -16.615173
-12.836088 -12.836087 -15.399098
-13.226558 -14.328773 -13.772139
-13.879456 -16.192696 -11.051732
-12.885708 17.571421 -10.311396
-12.151937 15.466101 -13.646715
-11.770795 13.910937 -15.379183
-11.493649 12.538526 -16.638931
-11.289057 11.289057 -17.568901
-11.117187 10.10653 -18.350134
-10.986494 8.9889488 -18.944187
-10.870743 7.9059939 -19.470329
-10.764798 6.8503246 -19.951893
-10.705065 5.8391232 -20.223412
-10.645958 4.8390703 -20.492075
-10.590764 3.8511868 -20.742958
-10.557726 2.8793802 -20.893133
-10.532816 1.9150562 -21.006361
-10.516077 0.9560051 -21.082451
-10.515202 -9.5367432e-07 -21.086422
-10.519827 -0.95634651 -21.065401
-10.537111 -1.9158382 -20.986835
-10.559206 -2.8797846 -20.886404
-10.599833 -3.8544874 -20.701736
-10.65102 -4.8413725 -20.46907
-10.702961 -5.8379812 -20.232973
-10.785525 -6.8635168 -19.857677
-10.888531 -7.9189324 -19.389473
-11.002851 -9.0023317 -18.869841
-11.12732 -10.115746 -18.30407
-11.307988 -11.307989 -17.482849
-11.528008 -12.57601 -16.482756
-11.792204 -13.936239 -15.281872
-12.209355 -15.539179 -13.385727
-13.183615 -17.977659 -8.9572763
-11.198208 16.797312 -12.891759
-10.759897 15.063857 -15.083307
-10.490222 13.637288 -16.431684
-10.276379 12.331654 -17.500904
-10.110851 11.121935 -18.328541
-9.9717531 9.9717522 -19.024029
-9.8706417 8.8835773 -19.529585
-9.7715902 7.8172703 -20.024845
-9.6977711 6.7884393 -20.393938
-9.6296959 5.7778177 -20.734314
-9.5737486 4.7868757 -21.01405
-9.5403452 3.8161373 -21.181072
-9.5108538 2.8532534 -21.328529
-9.4817677 1.8963499 -21.473961
-9.4662609 0.94662285 -21.551491
-9.4690456 -0 -21.537567
-9.4730043 -0.94730186 -21.517776
-9.4780807 -1.8956184 -21.49239
-9.51091 -2.8532734 -21.328251
-9.546854 -3.8187437 -21.148525
-9.5880671 -4.794034 -20.942455
-9.6364431 -5.781868 -20.700579
-9.70438 -6.793066 -20.360893
-9.7829084 -7.8263268 -19.968256
-9.8736706 -8.8863049 -19.514442
-9.9959116 -9.9959097 -18.903238
-10.137956 -11.151756 -18.193014
-10.301246 -12.361497 -17.376566
-10.523289 -13.680278 -16.266354
-10.825408 -15.155573 -14.755756
-11.276052 -16.914078 -12.502538
-10.371869 18.438877 -11.261302
-9.8353024 16.392168 -14.242229
-9.5347176 14.831781 -15.912143
-9.3026848 13.437208 -17.201216
-9.139535 12.186045 -18.107603
-8.9954548 10.994442 -18.908051
-8.8888941 9.8765469 -19.50005
-8.7862158 8.7862139 -20.070492
-8.7114296 7.7434907 -20.485964
-8.6511431 6.7286654 -20.82089
-8.5929585 5.7286406 -21.144135
-8.5455246 4.7475138 -21.407661
-8.5149508 3.7844219 -21.577511
-8.4901667 2.8300552 -21.715206
-8.4677029 1.881711 -21.84
-8.4594679 0.93993855 -21.885754
-8.4574919 -1.9073486e-06 -21.896732
-8.459938 -0.93999386 -21.883144
-8.4703531 -1.8823023 -21.825279
-8.4921579 -2.8307219 -21.704144
-8.5171537 -3.7854052 -21.565271
-8.545701 -4.7476106 -21.406677
-8.6001797 -5.7334533 -21.104023
-8.6586685 -6.7345223 -20.779079
-8.7250757 -7.7556224 -20.410152
-8.7986794 -8.7986813 -20.001244
-8.8968668 -9.8854084 -19.455759
-9.0165682 -11.02025 -18.790749
-9.1544981 -12.205999 -18.024473
-9.3245773 -13.468834 -17.07959
-9.569211 -14.88544 -15.720513
-9.8760815 -16.460138 -14.015672
-10.48359 -18.637493 -10.640631
-8.9314356 17.862869 -13.061328
-8.5682993 16.065559 -15.330925
-8.346715 14.60675 -16.715828
-8.176302 13.286488 -17.780912
-8.0312786 12.046917 -18.687307
-7.9232454 10.894461 -19.362514
-7.8323264 9.7904081 -19.930756
-7.746336 8.7146263 -20.468197
-7.6819658 7.6819654 -20.870508
-7.6295843 6.6758847 -21.197895
-7.5811257 5.6858435 -21.500763
-7.5481858 4.7176151 -21.706635
-7.515532 3.7577658 -21.910721
-7.4869456 2.8076038 -22.089382
-7.4768357 1.8692083 -22.152576
-7.4696116 0.93370152 -22.197725
-7.4624023 9.5367432e-07 -22.242781
-7.4658217 -0.93322754 -22.221415
-7.4813981 -1.8703508 -22.12406
-7.4977164 -2.8116455 -22.022072
-7.5196366 -3.7598209 -21.885065
-7.5482745 -4.7176743 -21.706078
-7.5887003 -5.6915259 -21.453415
-7.6323891 -6.6783404 -21.180365
-7.6862082 -7.6862092 -20.843992
-7.761375 -8.7315454 -20.374207
-7.843039 -9.8037996 -19.863802
-7.9353089 -10.91105 -19.287119
-8.0474949 -12.07124 -18.585953
-8.2014618 -13.327374 -17.623663
-8.3736448 -14.653877 -16.547516
-8.6135054 -16.150322 -15.048391
-9.0000286 -18.000057 -12.632615
-8.1074791 19.689594 -10.972227
-7.6670709 17.524731 -14.118008
-7.4121828 15.883248 -15.938636
-7.2209034 14.441807 -17.304914
-7.0872817 13.162093 -18.259354
-6.9686751 11.946299 -19.106541
-6.8769674 10.806661 -19.7616
-6.7989917 9.7128458 -20.318573
-6.7365141 8.6612301 -20.764841
-6.6808753 7.6352868 -21.162258
-6.6261487 6.6261468 -21.553162
-6.5925441 5.6507521 -21.793192
-6.5650711 4.6893339 -21.989431
-6.5378261 3.735898 -22.184038
-6.516098 2.792613 -22.339241
-6.5055976 1.8587437 -22.41424
-6.4987855 0.92839718 -22.462898
-6.4919872 -1.9073486e-06 -22.511459
-6.4960122 -0.92800236 -22.48271
-6.5050902 -1.8586006 -22.417864
-6.5184169 -2.7936058 -22.322674
-6.5368776 -3.7353611 -22.190815
-6.5681725 -4.6915541 -21.967283
-6.6006761 -5.657722 -21.735106
-6.6384501 -6.6384506 -21.465298
-6.6826391 -7.6373053 -21.149658
-6.7407064 -8.6666212 -20.734896
-6.8086286 -9.7266121 -20.249733
-6.88588 -10.820667 -19.697939
-6.9860497 -11.976086 -18.982437
-7.104156 -13.193433 -18.138826
-7.2403283 -14.480659 -17.166166
-7.4390821 -15.940888 -15.746496
-7.6965923 -17.592213 -13.90714
-8.2296219 -19.986225 -10.099785
-6.782361 19.216688 -12.363123
-6.4668794 17.24501 -14.992136
-6.281991 15.704977 -16.532873
-6.1411972 14.32946 -17.70615
-6.0242105 13.052455 -18.681042
-5.9365878 11.873174 -19.411236
-5.8577433 10.739197 -20.06827
-5.7877584 9.6462631 -20.651478
-5.7410383 8.6115551 -21.04081
-5.6950674 7.5934243 -21.423901
-5.654459 6.5968676 -21.762306
-5.6228776 5.6228771 -22.02548
-5.5967364 4.6639462 -22.243322
-5.57407 3.7160454 -22.432215
-5.5616436 2.7808189 -22.53577
-5.5492725 1.8497553 -22.638861
-5.5424709 0.9237442 -22.695538
-5.5410872 9.5367432e-07 -22.707069
-5.5450015 -0.92416763 -22.67445
-5.5522561 -1.8507509 -22.613995
-5.5599942 -2.7799988 -22.549511
-5.5761948 -3.7174635 -22.414509
-5.5988464 -4.6657028 -22.225742
-5.6256299 -5.6256304 -22.002548
-5.6570764 -6.5999236 -21.740492
-5.7008514 -7.6011343 -21.375702
-5.7479258 -8.6218882 -20.983419
-5.7990737 -9.6651258 -20.557182
-5.8638091 -10.750316 -20.017721
-5.9479251 -11.895849 -19.316755
-6.0350928 -13.076035 -18.590353
-6.1562929 -14.364683 -17.580353
-6.3045936 -15.761484 -16.344519
-6.5025501 -17.340137 -14.694876
-6.8321071 -19.357635 -11.948569
-5.5686049 18.933256 -13.196745
-5.3434677 17.099096 -15.448117
-5.1853452 15.556033 -17.029345
-5.080822 14.226302 -18.074575
-4.9856758 12.962755 -19.026037
-4.919508 11.806819 -19.68771
-4.8558068 10.682775 -20.32473
-4.8055305 9.6110611 -20.827494
-4.75914 8.5664501 -21.291397
-4.7212291 7.5539641 -21.670507
-4.694015 6.57162 -21.942646
-4.6678982 5.6014795 -22.203815
-4.6420836 4.6420813 -22.461962
-4.6258826 3.7007036 -22.62397
-4.6153345 2.7691984 -22.72945
-4.6049929 1.8419971 -22.83287
-4.5963111 0.91926003 -22.919685
-4.5995297 -1.9073486e-06 -22.887497
-4.6027532 -0.92055035 -22.855263
-4.6074319 -1.8429708 -22.808477
-4.6167912 -2.7700768 -22.714884
-4.6315413 -3.7052317 -22.567387
-4.6492591 -4.6492596 -22.390205
-4.6676946 -5.6012354 -22.205847
-4.693645 -6.5711045 -21.946344
-4.728332 -7.5653324 -21.599476
-4.7653413 -8.5776157 -21.229385
-4.8097248 -9.6194496 -20.785551
-4.8642173 -10.701281 -20.240622
-4.9269795 -11.824751 -19.612997
-4.9993534 -12.99832 -18.889263
-5.0912228 -14.255427 -17.970566
-5.2108855 -15.632656 -16.773939
-5.3609853 -17.155153 -15.272941
-5.5943928 -19.020939 -12.938867
-4.7391882 21.326344 -9.6429482
-4.3951697 18.67947 -13.943178
-4.2424846 16.969938 -15.851739
-4.1298442 15.486916 -17.259743
-4.0431085 14.150877 -18.343941
-3.9754963 12.920362 -19.189095
-3.9151506 11.745451 -19.943411
-3.868675 10.638857 -20.524361
-3.8309584 9.5773945 -20.995819
-3.7944062 8.5374126 -21.452717
-3.7632365 7.526473 -21.842337
-3.7424824 6.5493431 -22.101765
-3.7222681 5.5834036 -22.354446
-3.7037833 4.6297274 -22.585506
-3.6909971 3.6909943 -22.745331
-3.6820869 2.7615633 -22.856712
-3.6737223 1.8368616 -22.961266
-3.6696382 0.91740894 -23.012318
-3.6693454 -2.8610229e-06 -23.01598
-3.6696489 -0.91741371 -23.012192
-3.670517 -1.8352613 -23.001335
-3.6819918 -2.7614965 -22.857895
-3.6937191 -3.693717 -22.711308
-3.7066946 -4.6333704 -22.54911
-3.7233338 -5.5850015 -22.341124
-3.7451935 -6.5540886 -22.067877
-3.7703128 -7.540628 -21.753883
-3.7958944 -8.5407629 -21.434118
-3.8334455 -9.5836143 -20.964729
-3.8765152 -10.660418 -20.426353
-3.9207671 -11.762301 -19.873207
-3.9827776 -12.944029 -19.098072
-4.0552845 -14.193498 -18.191736
-4.134912 -15.505921 -17.196398
-4.2584558 -17.033823 -15.652104
-4.4233656 -18.799303 -13.590725
-3.4733841 20.840303 -10.993059
-3.2761536 18.564867 -14.280238
-3.1580093 16.842716 -16.249313
-3.0836718 15.418354 -17.488268
-3.0184619 14.086152 -18.575102
-2.9721863 12.879473 -19.346355
-2.9276459 11.710584 -20.088697
-2.8926651 10.606438 -20.671709
-2.8650677 9.5502243 -21.131668
-2.8380082 8.5140238 -21.582657
-2.8182998 7.5154662 -21.911133
-2.7988715 6.5306988 -22.23494
-2.7831144 5.566226 -22.497559
-2.7723098 4.6205168 -22.677631
-2.7627661 3.6836901 -22.836693
-2.7539637 2.7539616 -22.983402
-2.748914 1.8326073 -23.067562
-2.7474589 0.91581917 -23.091812
-2.7465522 -9.5367432e-07 -23.106922
-2.7467866 -0.91559792 -23.103018
-2.7497361 -1.8331604 -23.053864
-2.7559762 -2.7559757 -22.949863
-2.762877 -3.6838379 -22.834846
-2.7705517 -4.6175852 -22.706938
-2.7860858 -5.5721741 -22.44803
-2.8024051 -6.5389485 -22.176041
-2.8202839 -7.5207567 -21.878065
-2.8416336 -8.5249023 -21.52224
-2.8671777 -9.5572596 -21.096504
-2.8985968 -10.628191 -20.572851
-2.9321806 -11.728725 -20.013119
-2.9752274 -12.892651 -19.295675
-3.0283175 -14.132151 -18.410837
-3.0913336 -15.45667 -17.360571
-3.1765974 -16.941854 -15.939504
-3.2959945 -18.677299 -13.949554
-3.5335641 -21.201382 -9.9900637
-2.2978327 20.680494 -11.436977
-2.1767528 18.502399 -14.463973
-2.1018605 16.814884 -16.336281
-2.0503719 15.377787 -17.623501
-2.0089037 14.062325 -18.660204
-1.9765109 12.847321 -19.470024
-1.9488211 11.692925 -20.16227
-1.9263831 10.595104 -20.723221
-1.9047544 9.5237713 -21.263935
-1.8892233 8.501503 -21.652214
-1.8761283 7.5045114 -21.979588
-1.8634293 6.5220022 -22.297066
-1.8521154 5.5563459 -22.57991
-1.8453664 4.6134157 -22.748636
-1.8389184 3.6778336 -22.909836
-1.8325102 2.748765 -23.070038
-1.8294423 1.829442 -23.146736
-1.8284756 0.91423607 -23.170902
-1.82751 -0 -23.195045
-1.8280292 -0.91401577 -23.182068
-1.8314257 -1.8314257 -23.097157
-1.835112 -2.7526684 -23.004995
-1.8397015 -3.6794043 -22.890257
-1.8459061 -4.614769 -22.735142
-1.8548055 -5.5644197 -22.512661
-1.8642496 -6.5248756 -22.276554
-1.8752538 -7.5010176 -22.001453
-1.8917608 -8.5129261 -21.588774
-1.9087423 -9.5437145 -21.164238
-1.9265791 -10.596185 -20.718321
-1.9503446 -11.702069 -20.124182
-1.9778713 -12.856165 -19.436012
-2.0103846 -14.072689 -18.623184
-2.0563855 -15.422891 -17.473158
-2.1093478 -16.874786 -16.149097
-2.1874797 -18.593578 -14.195804
-2.3260915 -20.934822 -10.730507
-1.1446826 20.60429 -11.648661
-1.0847228 18.440285 -14.64666
-1.0500765 16.80122 -16.378977
-1.0229342 15.34401 -17.736082
-1.0041572 14.0582 -18.674932
-0.9862445 12.821177 -19.570574
-0.97357041 11.682846 -20.204273
-0.96251172 10.587627 -20.757214
-0.95171815 9.5171795 -21.296888
-0.94368929 8.4932022 -21.698334
-0.93727458 7.4981971 -22.019068
-0.93094921 6.5166435 -22.335335
-0.92625493 5.5575304 -22.570049
-0.92214644 4.6107321 -22.775475
-0.91892368 3.6756916 -22.936615
-0.91632032 2.7489605 -23.066782
-0.91486156 1.8297215 -23.139717
-0.91381729 0.91381645 -23.191929
-0.91277802 -9.5367432e-07 -23.243896
-0.91318458 -0.91318417 -23.223568
-0.914846 -1.8296938 -23.140495
-0.91654736 -2.7496433 -23.055429
-0.91882396 -3.6752958 -22.941601
-0.92282873 -4.6141453 -22.741362
-0.92703664 -5.5622215 -22.53096
-0.93175513 -6.5222869 -22.295042
-0.93753397 -7.5002718 -22.006096
-0.94517761 -8.5065975 -21.623917
-0.9536472 -9.5364752 -21.200436
-0.9626441 -10.589087 -20.750591
-0.9746024 -11.695229 -20.152679
-0.98830092 -12.847913 -19.467749
-1.0057199 -14.080082 -18.596796
-1.0269459 -15.40419 -17.535496
-1.0521845 -16.834951 -16.273579
-1.0902163 -18.533676 -14.371985
-1.1558444 -20.805202 -11.09057
0 20.599674 -11.661481
0 18.452972 -14.609344
0 16.806486 -16.36252
0 15.346889 -17.72649
0 14.060523 -18.66663
0 12.832226 -19.528072
0 11.68235 -20.206335
0 10.584714 -20.770451
0 9.5263939 -21.250826
0 8.5009794 -21.655125
0 7.4928265 -22.05262
0 6.5159664 -22.340181
0 5.558712 -22.560181
0 4.610467 -22.778116
0 3.6735544 -22.963358
0 2.7500324 -23.048904
0 1.8302269 -23.127098
0 0.9139595 -23.184792
0 -0 -23.214237
0 -0.91402912 -23.181419
0 -1.8303108 -23.125019
0 -2.7488585 -23.068476
0 -3.6748867 -22.946714
0 -4.6135082 -22.747715
0 -5.5604434 -22.545776
0 -6.5210419 -22.303942
0 -7.505981 -21.970428
0 -8.5051231 -21.632105
0 -9.5317841 -21.223881
0 -10.591305 -20.740513
0 -11.694344 -20.156366
0 -12.84326 -19.485651
0 -14.088136 -18.568024
0 -15.396327 -17.561701
0 -16.860529 -16.193647
0 -18.529034 -14.385645
0 -20.86816 -10.915689
1.1546295 20.783329 -11.151323
1.0885862 18.505964 -14.453482
1.0518577 16.829723 -16.289909
1.0263662 15.395491 -17.564486
1.0047247 14.066144 -18.646563
0.98895085 12.856359 -19.435253
0.97533482 11.704016 -20.116055
0.96208864 10.582975 -20.778362
0.95365846 9.5365829 -21.199873
0.94566363 8.510973 -21.599613
0.93780172 7.5024123 -21.99271
0.93187648 6.5231352 -22.288971
0.92739469 5.5643663 -22.513065
0.92295843 4.61479 -22.734879
0.91931468 3.6772585 -22.917057
0.91714031 2.751421 -23.025785
0.91546798 1.8309326 -23.109398
0.91410023 0.91409683 -23.177788
0.91442746 -9.5367432e-07 -23.161423
0.91503584 -0.91503525 -23.131001
0.91600215 -1.8320065 -23.082691
0.91745144 -2.7523556 -23.010227
0.92032695 -3.6813087 -22.866449
0.92373991 -4.6187 -22.695803
0.92718095 -5.5630846 -22.52375
0.93247592 -6.5273314 -22.258999
0.939192 -7.513536 -21.923199
0.94600558 -8.5140514 -21.582518
0.95395815 -9.5395813 -21.184891
0.96420437 -10.606249 -20.672577
0.97602111 -11.712252 -20.081741
0.99047881 -12.876225 -19.358858
1.0078964 -14.110549 -18.487974
1.027559 -15.413387 -17.504837
1.0559545 -16.895271 -16.085077
1.0952735 -18.61965 -14.119122
1.1667267 -21.001081 -10.54646
2.3363671 21.027306 -10.473615
2.1882606 18.600214 -14.17628
2.1102815 16.882252 -16.125755
2.059715 15.447865 -17.389915
2.0153069 14.107145 -18.500126
1.9824463 12.885901 -19.321638
1.9553274 11.731964 -19.999611
1.9308848 10.619864 -20.610676
1.9108163 9.554081 -21.112389
1.8942661 8.5241976 -21.526142
1.8797719 7.5190845 -21.888496
1.8682431 6.5388489 -22.17672
1.8578517 5.573554 -22.436504
1.8489499 4.6223736 -22.659054
1.8433739 3.6867476 -22.79845
1.8385823 2.7578726 -22.91824
1.8342388 1.8342361 -23.026829
1.8312016 0.91559887 -23.102757
1.8312433 -9.5367432e-07 -23.101715
1.8321921 -0.91609478 -23.077995
1.8337005 -1.8337002 -23.040283
1.838535 -2.7578039 -22.91942
1.8442613 -3.6885233 -22.776264
1.8507254 -4.6268129 -22.61466
1.8585114 -5.5755358 -22.42001
1.8692033 -6.5422134 -22.152712
1.8818164 -7.5272646 -21.837387
1.8954935 -8.5297222 -21.495461
1.9141747 -9.5708742 -21.028429
1.9332395 -10.632815 -20.551811
1.9564507 -11.738706 -19.971527
1.9869258 -12.91502 -19.209648
2.0205133 -14.143595 -18.369959
2.0646706 -15.485029 -17.266035
2.1196356 -16.957087 -15.891908
2.20294 -18.724991 -13.809298
2.3765144 -21.38863 -9.4699326
3.6189818 21.713892 -8.5664301
3.3165214 18.793621 -13.607437
3.1882517 17.004009 -15.745267
3.1016819 15.50841 -17.188099
3.0375974 14.175456 -18.256168
2.9865198 12.941583 -19.107468
2.9404051 11.761621 -19.876043
2.9070799 10.65929 -20.431463
2.8767631 9.5892086 -20.936745
2.8470633 8.5411911 -21.431738
2.8268902 7.5383711 -21.767963
2.8095 6.5555 -22.057796
2.7923307 5.5846615 -22.343948
2.7803411 4.6339006 -22.543776
2.7722223 3.6962948 -22.679089
2.7643564 2.7643538 -22.810192
2.7578104 1.8385372 -22.919292
2.7559841 0.91865826 -22.94973
2.7554097 -1.9073486e-06 -22.959297
2.7555592 -0.91851997 -22.95681
2.7573061 -1.8382044 -22.927692
2.7640316 -2.7640343 -22.815599
2.7718959 -3.6958618 -22.684532
2.7809739 -4.6349573 -22.533232
2.79584 -5.5916815 -22.285461
2.8119631 -6.5612473 -22.016747
2.8282812 -7.5420847 -21.744774
2.852489 -8.5574684 -21.341316
2.8808491 -9.602829 -20.868647
2.9098136 -10.669318 -20.3859
2.9465342 -11.786137 -19.77389
2.9913406 -12.962477 -19.027121
3.0422781 -14.197297 -18.178164
3.1116984 -15.558495 -17.021154
3.2016685 -17.075567 -15.521653
3.3307204 -18.874083 -13.370792
4.4766345 19.025698 -12.924861
4.2852478 17.140987 -15.317199
4.1674266 15.627849 -16.789967
4.0723982 14.253393 -17.977818
4.0038242 13.012428 -18.834993
3.9390509 11.817152 -19.644661
3.8919976 10.702993 -20.232826
3.851579 9.6289454 -20.738064
3.8138766 8.5812216 -21.209335
3.7844338 7.5688667 -21.577374
3.7606201 6.5810843 -21.875042
3.7370937 5.6056414 -22.169125
3.721278 4.6515942 -22.366821
3.7075593 3.7075558 -22.538305
3.695076 2.7713079 -22.694344
3.6887233 1.8443575 -22.773756
3.6869695 0.92174149 -22.795675
3.6853333 -9.5367432e-07 -22.816128
3.6855338 -0.92138481 -22.813622
3.6917803 -1.84589 -22.735538
3.6999509 -2.7749624 -22.63341
3.7093329 -3.7093334 -22.516132
3.7214715 -4.6518402 -22.364399
3.7413731 -5.612061 -22.115633
3.7632916 -6.5857615 -21.841648
3.7866044 -7.5732098 -21.55024
3.8183227 -8.5912285 -21.153763
3.8547273 -9.6368198 -20.698704
3.8967221 -10.715984 -20.173773
3.9492381 -11.847716 -19.517319
4.0083246 -13.027057 -18.778738
4.0846224 -14.29618 -17.825016
4.176404 -15.661516 -16.677746
4.3078909 -17.231565 -15.034156
4.5085092 -19.161165 -12.526433
5.7106986 19.41637 -11.775816
5.4271808 17.366978 -14.610991
5.2533479 15.760042 -16.349319
5.133976 14.375131 -17.543037
5.0342321 13.089003 -18.540478
4.9583149 11.899955 -19.299646
4.8941617 10.767154 -19.941181
4.8350301 9.6700573 -20.532495
4.7923775 8.6262798 -20.959019
4.754766 7.607625 -21.335133
4.7201209 6.6081667 -21.681585
4.6943159 5.6331778 -21.939636
4.6744881 4.6744871 -22.137917
4.6565647 3.7252512 -22.31715
4.6393929 2.7836361 -22.488865
4.6317148 1.8526859 -22.565651
4.626441 0.92528725 -22.618387
4.622016 -2.8610229e-06 -22.662638
4.6248188 -0.92496395 -22.634604
4.634089 -1.8536386 -22.541908
4.6433825 -2.7860317 -22.448971
4.6551099 -3.7240887 -22.331699
4.675643 -4.6756439 -22.126368
4.697125 -5.6365509 -21.911543
4.7236681 -6.6131372 -21.646114
4.7595339 -7.615253 -21.287457
4.7996249 -8.6393242 -20.886547
4.8407025 -9.681406 -20.475769
4.898572 -10.776857 -19.897079
4.9635 -11.912401 -19.247797
5.0432415 -13.112428 -18.450382
5.1436095 -14.402108 -17.446701
5.2724543 -15.817361 -16.158255
5.4413304 -17.412258 -14.469493
5.7493024 -19.54763 -11.389771
7.1204209 20.174526 -9.5459538
6.611105 17.629612 -13.790254
6.3706131 15.926533 -15.794353
6.2217326 14.517376 -17.035023
6.0905437 13.196179 -18.128262
5.993154 11.986307 -18.939848
5.9154363 10.844967 -19.587494
5.839921 9.7331982 -20.216789
5.7859721 8.678957 -20.666363
5.7391276 7.6521697 -21.056736
5.6930356 6.6418743 -21.440834
5.661787 5.6617851 -21.701241
5.6377354 4.6981106 -21.901669
5.6146703 3.7431107 -22.093876
5.5988464 2.7994204 -22.225744
5.5896406 1.8632145 -22.302456
5.5824981 0.93041611 -22.36198
5.5761137 -1.9073486e-06 -22.415176
5.5807228 -0.93012142 -22.376772
5.588686 -1.8628969 -22.310411
5.5966721 -2.798337 -22.243866
5.6138215 -3.7425489 -22.100948
5.6400571 -4.7000504 -21.882322
5.6666555 -5.6666574 -21.660667
5.6969495 -6.6464434 -21.408218
5.7446938 -7.6595936 -21.010345
5.7941666 -8.6912498 -20.598072
5.8514419 -9.7524042 -20.120783
5.923203 -10.859205 -19.522774
6.0019836 -12.003969 -18.866264
6.1087136 -13.235546 -17.976851
6.229259 -14.534941 -16.972301
6.4045262 -16.011318 -15.511743
6.6395426 -17.70545 -13.55327
7.9017081 18.061045 -12.442026
7.5528116 16.184595 -14.934142
7.3417916 14.683581 -16.441429
7.1797781 13.333873 -17.598667
7.061357 12.105183 -18.444534
6.9539833 10.927687 -19.211487
6.8715973 9.8165665 -19.799957
6.8029332 8.7466278 -20.290417
6.7429261 7.7062006 -20.71904
6.6927838 6.6927848 -21.077194
6.6546669 5.7040014 -21.349461
6.6200151 4.7285814 -21.596973
6.585722 3.7632685 -21.841927
6.5701451 2.815773 -21.95319
6.5592794 1.8740807 -22.0308
6.5492301 0.93560123 -22.102583
6.5477266 -9.5367432e-07 -22.113323
6.5539169 -0.93627644 -22.069103
6.5620885 -1.8748827 -22.01074
6.5718317 -2.8165026 -21.941141
6.5952272 -3.7687025 -21.774029
6.6239862 -4.7314219 -21.568609
6.6554337 -5.7046556 -21.343983
6.7004881 -6.7004881 -21.022167
6.749249 -7.7134256 -20.673878
6.8012695 -8.7444916 -20.302298
6.8813157 -9.830452 -19.730539
6.964582 -10.944343 -19.135782
7.0715747 -12.122701 -18.371546
7.198154 -13.368 -17.467411
7.3663263 -14.732654 -16.26618
7.5776072 -16.23773 -14.757031
7.9344087 -18.135794 -12.20845
9.4037361 18.80747 -10.109447
8.8101921 16.519108 -13.819098
8.5293827 14.926418 -15.574157
8.3062687 13.497684 -16.968616
8.1639605 12.24594 -17.858044
8.0301008 11.041389 -18.694664
7.925416 9.9067678 -19.348946
7.8427043 8.82304 -19.865891
7.7630124 7.7630119 -20.363964
7.7104473 6.7466397 -20.692501
7.6656127 5.7492085 -20.972721
7.6237783 4.7648602 -21.23418
7.5908041 3.7954006 -21.440277
7.5694909 2.8385572 -21.573483
7.5510421 1.8877611 -21.688784
7.5326829 0.94158459 -21.803528
7.5334988 -9.5367432e-07 -21.798428
7.5405149 -0.94256401 -21.754578
7.54812 -1.8870268 -21.707047
7.5682001 -2.8380756 -21.581545
7.5953498 -3.7976761 -21.411861
7.622695 -4.764185 -21.240953
7.6646543 -5.7484903 -20.978706
7.7214775 -6.7562947 -20.623562
7.7798319 -7.7798319 -20.258846
7.852488 -8.8340492 -19.804747
7.9431925 -9.9289932 -19.237846
8.0405836 -11.055803 -18.629147
8.1786909 -12.268036 -17.76598
8.3286514 -13.534059 -16.828722
8.5414085 -14.947467 -15.498996
8.8444214 -16.58329 -13.605161
10.190651 16.984417 -12.268071
9.782321 15.216941 -14.536572
9.511735 13.73917 -16.039825
9.3058825 12.407843 -17.183447
9.1427078 11.174419 -18.089973
9.0242653 10.026962 -18.74799
8.9186182 8.9186192 -19.334915
8.8277216 7.8468652 -19.839897
8.7609406 6.814064 -20.210899
8.6986885 5.7991261 -20.556747
8.6430626 4.8017006 -20.865784
8.6147346 3.8287697 -21.023165
8.5894175 2.8631363 -21.163815
8.5668821 1.9037504 -21.289003
8.5550404 0.95056057 -21.354794
8.5543575 -9.5367432e-07 -21.358582
8.5572395 -0.95080471 -21.342577
8.562273 -1.902729 -21.314613
8.5884743 -2.8628254 -21.16905
8.620554 -3.831358 -20.990828
8.652874 -4.8071537 -20.811274
8.7064028 -5.8042698 -20.513895
8.764308 -6.8166838 -20.192196
8.8339682 -7.8524179 -19.805193
8.931489 -8.9314909 -19.263409
9.033103 -10.036782 -18.698891
9.1690454 -11.206613 -17.943653
9.3257475 -12.434332 -17.073086
9.5248728 -13.758148 -15.966839
9.8063993 -15.254399 -14.402804
10.274006 -17.123344 -11.804983
11.179535 15.651349 -12.985118
10.786223 14.022091 -14.951675
10.528074 12.633686 -16.242426
10.312931 11.344224 -17.318138
10.163056 10.163054 -18.067518
10.026056 9.023447 -18.752516
9.9250097 7.9400077 -19.25775
9.8478985 6.893528 -19.643307
9.7750931 5.865056 -20.007328
9.7129622 4.8564777 -20.317989
9.6718912 3.8687572 -20.52334
9.6339912 2.8901968 -20.712841
9.6000805 1.9200163 -20.882397
9.59799 0.95979691 -20.892849
9.5966444 9.5367432e-07 -20.89957
9.5977039 -0.95977211 -20.894279
9.6153965 -1.9230795 -20.805815
9.640976 -2.892293 -20.677919
9.6714258 -3.8685722 -20.525669
9.7207661 -4.8603826 -20.278969
9.7830267 -5.8698168 -19.967663
9.8491945 -6.8944368 -19.636824
9.9310732 -7.944859 -19.227428
10.040977 -9.0368795 -18.677912
10.167422 -10.167423 -18.045685
10.335255 -11.368781 -17.206526
10.534691 -12.641629 -16.209343
10.812751 -14.056578 -14.819042
11.221361 -15.709909 -12.775987
13.00777 16.555342 -9.7565699
12.210072 14.430084 -13.382475
11.833909 12.909716 -15.092299
11.565256 11.565254 -16.31345
11.36637 10.333062 -17.217476
11.203668 9.1666374 -17.957033
11.079782 8.0580215 -18.520149
10.972226 6.9823227 -19.009041
10.876287 5.9325175 -19.445129
10.818817 4.9176431 -19.706356
10.770136 3.9164104 -19.927631
10.72605 2.9252853 -20.128023
10.6963 1.9447832 -20.263252
10.684129 0.97128487 -20.318573
10.674947 -1.9073486e-06 -20.36031
10.670893 -0.97008324 -20.378738
10.698724 -1.9452229 -20.252232
10.728781 -2.9260302 -20.115608
10.761297 -3.9131999 -19.967812
10.82186 -4.9190264 -19.692528
10.894731 -5.9425812 -19.361294
10.974676 -6.9838839 -18.997906
11.078465 -8.0570641 -18.526138
11.214777 -9.1757259 -17.906536
11.373126 -10.339206 -17.186771
11.582852 -11.582852 -16.233471
11.855706 -12.933501 -14.993221
12.26515 -14.495179 -13.132116
13.101209 -16.674267 -9.3318481
14.003056 15.169975 -10.536731
13.293805 13.293803 -13.491946
12.934192 11.85634 -14.990332
12.664969 10.55414 -16.112087
12.435411 9.3265591 -17.068581
12.294243 8.1961613 -17.656788
12.167501 7.0977087 -18.18487
12.05361 6.0268049 -18.65942
11.977757 4.9907303 -18.975473
11.907331 3.9691095 -19.268921
11.844953 2.9612389 -19.528828
11.826851 1.9711418 -19.60425
11.811262 0.984272 -19.669205
11.799065 -0 -19.720028
11.810972 -0.98424816 -19.67041
11.832106 -1.9720182 -19.582355
11.862344 -2.9655876 -19.456364
11.917767 -3.972589 -19.225437
11.985824 -4.994091 -18.941864
12.060273 -6.0301371 -18.631659
12.164397 -7.0959001 -18.197805
12.295181 -8.1967869 -17.652872
12.461252 -9.3459396 -16.960911
12.671245 -10.559371 -16.085941
12.945248 -11.86648 -14.944267
13.364838 -13.36484 -13.195972
14.128929 -15.306339 -10.012257
15.324393 14.145592 -9.9428196
14.503771 12.272421 -13.099062
14.088763 10.837508 -14.695242
13.808782 9.5599251 -15.772099
13.612219 8.3767481 -16.528107
13.429534 7.231287 -17.230742
13.292104 6.1348171 -17.759319
13.205467 5.0790253 -18.092539
13.122669 4.0377421 -18.410995
13.060319 3.0139189 -18.650795
13.025838 2.003974 -18.783421
12.996461 0.99972725 -18.896408
12.976508 -9.5367432e-07 -18.973152
12.998198 -0.99986267 -18.889729
13.023162 -2.0035639 -18.793715
13.056978 -3.0131478 -18.663651
13.124109 -4.0381856 -18.405453
13.20555 -5.0790572 -18.092216
13.301783 -6.1392837 -17.722095
13.4395 -7.2366538 -17.192413
13.607968 -8.3741331 -16.544455
13.827082 -9.5725975 -15.701715
14.111194 -10.854766 -14.608974
14.53284 -12.29702 -12.987256
15.406786 -14.221646 -9.6259298
16.84659 13.236603 -8.7164068
15.811235 11.293738 -12.414099
15.368925 9.880023 -13.993778
15.05847 8.6048403 -15.102549
14.814568 7.4072824 -15.973624
14.663751 6.2844644 -16.512259
14.531985 5.1899939 -16.982851
14.407125 4.116322 -17.428774
14.334613 3.071701 -17.687754
14.292233 2.0417466 -17.839108
14.254521 1.018177 -17.973789
14.255379 -0 -17.97073
14.268291 -1.019165 -17.924616
14.288109 -2.0411615 -17.853836
14.352375 -3.0755091 -17.624313
14.435144 -4.1243277 -17.328709
14.523975 -5.1871333 -17.011457
14.650162 -6.2786388 -16.560789
14.838817 -7.4194088 -15.887019
15.058871 -8.605072 -15.10111
15.388926 -9.8928823 -13.922348
15.86904 -11.335029 -12.207653
17.381241 10.428743 -10.945329
16.795675 8.9576912 -12.897215
16.415918 7.6607599 -14.163074
16.191219 6.4764862 -14.912064
15.981262 5.3270855 -15.611925
15.836718 4.2231245 -16.093739
15.763285 3.1526546 -16.338511
15.693132 2.0924177 -16.572357
15.642839 1.0428557 -16.74
15.640507 -2.8610229e-06 -16.74777
15.654506 -1.0436344 -16.701107
15.690989 -2.0921307 -16.579498
15.767971 -3.153594 -16.322893
15.845763 -4.2255397 -16.063587
16.004999 -5.3350005 -15.5328
16.194641 -6.4778576 -14.90066
16.466707 -7.684464 -13.99378
16.848021 -8.985611 -12.722726
17.500965 -10.500579 -10.546248
18.515324 8.1004543 -11.022409
18.089281 6.7834806 -12.353792
17.702709 5.5320973 -13.561832
17.520262 4.3800654 -14.131981
17.388502 3.2603436 -14.54373
17.268259 2.1585293 -14.919487
17.217218 1.0760775 -15.07899
17.209621 -1.4305115e-06 -15.102728
17.204447 -1.0752764 -15.118898
17.282459 -2.1603055 -14.875112
17.368853 -3.2566581 -14.605131
17.515255 -4.3788142 -14.147621
17.759062 -5.5497065 -13.385728
18.083372 -6.7812672 -12.372254
18.709139 -8.1852484 -10.416738
19.904566 4.6834249 -10.339951
19.492887 3.4399214 -11.550779
19.277426 2.2679315 -12.184488
19.211088 1.1300607 -12.379596
19.164318 1.4305115e-06 -12.517154
19.198954 -1.129353 -12.415291
19.313221 -2.2721434 -12.079207
19.489414 -3.4393084 -11.560992
19.945713 -4.693109 -10.218937
