# .PCD v0.7 - Point Cloud Data file format
VERSION 0.7
FIELDS x y z
SIZE 4 4 4
TYPE F F F
COUNT 1 1 1
WIDTH 1055
HEIGHT 1
VIEWPOINT 0 0 0 1 0 0 0
POINTS 1055
DATA ascii
-23.504072 -1.2370598 -7.029973
-22.063475 7.3544874 -7.595367
-20.78072 5.7724228 -11.15857
-20.348154 4.5218086 -12.360144
-20.116665 3.352777 -13.003173
-19.92692 2.2141004 -13.530245
-19.895643 1.1053138 -13.617121
-19.872915 -0 -13.68026
-19.870119 -1.1038961 -13.68802
-19.98708 -2.2207899 -13.363132
-20.148781 -3.3581333 -12.913961
-20.398813 -4.5330696 -12.219428
-20.810059 -5.7805738 -11.077077
-19.955097 9.3906326 -10.191336
-19.191477 7.9023724 -12.437277
-18.792976 6.6328135 -13.609339
-18.52351 5.4480915 -14.401882
-18.329208 4.3127537 -14.973362
-18.186029 3.2092981 -15.394479
-18.121214 2.1319046 -15.585106
-18.062883 1.0625191 -15.75667
-18.035671 1.9073486e-06 -15.836706
-18.069506 -1.0629134 -15.737194
-18.122595 -2.1320705 -15.581043
-18.190565 -3.2100983 -15.381136
-18.361996 -4.3204718 -14.876925
-18.570982 -5.4620543 -14.262259
-18.838921 -6.6490307 -13.474203
-19.26046 -7.9307771 -12.234388
-20.098633 -9.4581804 -9.7691679
-19.056797 11.910495 -9.330307
-18.093985 10.177864 -12.339093
-17.580738 8.7903671 -13.942991
-17.268145 7.554812 -14.919847
-17.03912 6.3896699 -15.635546
-16.876055 5.2737656 -16.145123
-16.73189 4.182971 -16.595646
-16.646641 3.121244 -16.862045
-16.562202 2.0702739 -17.12591
-16.515085 1.0321922 -17.273151
-16.522823 -0 -17.248974
-16.530621 -1.0331626 -17.224607
-16.552778 -2.0690989 -17.155361
-16.648417 -3.1215801 -16.856491
-16.751266 -4.1878181 -16.535088
-16.88419 -5.2763095 -16.119701
-17.062551 -6.3984575 -15.562322
-17.318848 -7.5769949 -14.761399
-17.662994 -8.8314962 -13.685936
-18.124874 -10.195241 -12.242563
-19.391222 -12.119515 -8.2852278
-17.307768 12.692361 -11.190238
-16.656992 11.10466 -13.359488
-16.237347 9.7424068 -14.758305
-15.958175 8.5110254 -15.688882
-15.733999 7.3425322 -16.436131
-15.564462 6.2257848 -17.001255
-15.412846 5.1376133 -17.506645
-15.320007 4.0853333 -17.816107
-15.247665 3.0495329 -18.057243
-15.192481 2.0256624 -18.241192
-15.172951 1.011529 -18.306295
-15.153518 -9.5367432e-07 -18.371069
-15.160609 -1.0107088 -18.347435
-15.209521 -2.0279336 -18.184391
-15.264251 -3.0528502 -18.001959
-15.333388 -4.0889034 -17.7715
-15.432159 -5.1440525 -17.442263
-15.576867 -6.2307487 -16.959908
-15.755312 -7.3524814 -16.365093
-15.969842 -8.517251 -15.649988
-16.275944 -9.7655668 -14.629651
-16.724277 -11.149518 -13.135204
-17.484674 -12.822094 -10.600551
-16.022652 13.733703 -11.65904
-15.381571 12.085518 -13.948619
-14.999267 10.713759 -15.313992
-14.737086 9.4738417 -16.250343
-14.506392 8.2893639 -17.074255
-14.355302 7.1776476 -17.613861
-14.215304 6.0922713 -18.113852
-14.121032 5.0432234 -18.450542
-14.040765 4.0116467 -18.737206
-13.964652 2.992425 -19.009041
-13.92882 1.98983 -19.137012
-13.912733 0.99376583 -19.194462
-13.896685 -1.9073486e-06 -19.25178
-13.909469 -0.99353504 -19.206121
-13.939895 -1.991415 -19.097456
-13.971147 -2.9938178 -18.985842
-14.034204 -4.0097752 -18.760635
-14.134676 -5.0480967 -18.401812
-14.242941 -6.1041183 -18.01515
-14.367157 -7.1835785 -17.57152
-14.538455 -8.3076906 -16.95974
-14.771486 -9.4959545 -16.127483
-15.050722 -10.750519 -15.130213
-15.438439 -12.130204 -13.745514
-16.133209 -13.828465 -11.264194
-14.81055 14.810548 -11.919144
-14.236617 13.141493 -14.126575
-13.85841 11.726347 -15.581218
-13.60673 10.466716 -16.549217
-13.388834 9.2691917 -17.38728
-13.233913 8.1439457 -17.983131
-13.092649 7.0498857 -18.526453
-12.981258 5.9913483 -18.954878
-12.893605 4.9590764 -19.292007
-12.824047 3.9458585 -19.55954
-12.779742 2.9491682 -19.72994
-12.746724 1.9610338 -19.85693
-12.713878 0.97799015 -19.983271
-12.714302 -0 -19.981636
-12.730899 -0.97929859 -19.917799
-12.750376 -1.9615984 -19.842886
-12.782281 -2.9497585 -19.720179
-12.841563 -3.9512515 -19.49217
-12.91223 -4.9662418 -19.220377
-12.986134 -5.9936008 -18.936129
-13.102571 -7.0552335 -18.488291
-13.251854 -8.1549892 -17.914127
-13.419884 -9.2906914 -17.267857
-13.604694 -10.465152 -16.557045
-13.917742 -11.776552 -15.353017
-14.308532 -13.207876 -13.849982
-14.942101 -14.942102 -11.413179
-13.785716 16.083336 -11.442308
-13.143147 14.238407 -14.119682
-12.793777 12.793775 -15.575396
-12.526773 11.482875 -16.687906
-12.311957 10.259963 -17.58297
-12.143437 9.1075773 -18.285143
-12.018874 8.0125809 -18.804159
-11.902082 6.9428811 -19.290783
-11.822253 5.9111252 -19.623405
-11.746274 4.8942828 -19.939987
-11.682492 3.8941631 -20.205746
-11.646099 2.9115238 -20.357384
-11.618455 1.936409 -20.472567
-11.594874 0.96623802 -20.57082
-11.595153 -0 -20.56966
-11.602399 -0.96686649 -20.539471
-11.609653 -1.9349432 -20.509243
-11.64294 -2.9107323 -20.370548
-11.696219 -3.8987412 -20.148548
-11.751993 -4.8966656 -19.916157
-11.825873 -5.9129353 -19.608324
-11.921703 -6.9543266 -19.209034
-12.033367 -8.0222464 -18.743771
-12.1554 -9.1165504 -18.235294
-12.345136 -10.287616 -17.444729
-12.550261 -11.504409 -16.590036
-12.83225 -12.832249 -15.415093
-13.221803 -14.323622 -13.791949
-13.935549 -16.258142 -10.818007
-12.893451 17.58198 -10.276199
-12.161582 15.478375 -13.602881
-11.768486 13.908212 -15.389673
-11.483583 12.527543 -16.68469
-11.291289 11.291287 -17.558754
-11.11572 10.105198 -18.356796
-10.987994 8.9901762 -18.937366
-10.864637 7.9015541 -19.498079
-10.773315 6.8557439 -19.913181
-10.704417 5.8387723 -20.226353
-10.638088 4.835495 -20.527847
-10.596629 3.8533182 -20.716301
-10.558261 2.8795223 -20.890701
-10.525582 1.9137411 -21.03924
-10.518514 0.95623016 -21.071369
-10.517358 9.5367432e-07 -21.076626
-10.520546 -0.95641518 -21.062138
-10.535167 -1.9154854 -20.995674
-10.56491 -2.8813381 -20.860481
-10.602881 -3.8555918 -20.68788
-10.641318 -4.8369622 -20.513168
-10.70581 -5.8395329 -20.220026
-10.791246 -6.8671575 -19.831676
-10.883409 -7.9152088 -19.412754
-10.997006 -8.99755 -18.89641
-11.136702 -10.124274 -18.261427
-11.312253 -11.312253 -17.463469
-11.505043 -12.550955 -16.587147
-11.813966 -13.96196 -15.182952
-12.227615 -15.562422 -13.302725
-13.017097 -17.750586 -9.7141762
-11.205225 16.807835 -12.856672
-10.770017 15.07802 -15.032715
-10.49402 13.642226 -16.412697
-10.283175 12.339808 -17.466919
-10.106977 11.117675 -18.347912
-9.9788342 9.9788332 -18.988626
-9.8707333 8.8836594 -19.529131
-9.773015 7.8184094 -20.017719
-9.7002268 6.7901587 -20.38166
-9.6284857 5.7770901 -20.740368
-9.5728092 4.7864046 -21.018749
-9.540288 3.8161144 -21.181355
-9.507987 2.852396 -21.342859
-9.4819632 1.896389 -21.472982
-9.4740362 0.947402 -21.512619
-9.468071 -2.8610229e-06 -21.542442
-9.4621973 -0.94621944 -21.57181
-9.4867706 -1.8973532 -21.448944
-9.5132999 -2.8539886 -21.316298
-9.5428057 -3.8171215 -21.168762
-9.5860109 -4.7930059 -20.95274
-9.6417551 -5.7850537 -20.674019
-9.7064581 -6.7945213 -20.350504
-9.7720356 -7.8176289 -20.022619
-9.8792477 -8.8913231 -19.486561
-9.9972162 -9.9972162 -18.896717
-10.126982 -11.139682 -18.247887
-10.299004 -12.358805 -17.387775
-10.526284 -13.684169 -16.251377
-10.816749 -15.143449 -14.799054
-11.281072 -16.921608 -12.477442
-10.364706 18.426144 -11.301099
-9.8356361 16.392725 -14.240373
-9.5269394 14.819683 -15.955353
-9.3044777 13.439798 -17.191252
-9.1420155 12.189353 -18.093822
-8.9968233 10.996115 -18.900446
-8.887639 9.8751526 -19.507021
-8.782938 8.7829361 -20.088696
-8.7131338 7.7450061 -20.476501
-8.65166 6.7290649 -20.81802
-8.591073 5.7273808 -21.154615
-8.5512266 4.7506809 -21.37598
-8.5142756 3.7841225 -21.581268
-8.4856892 2.8285608 -21.740082
-8.4719887 1.8826628 -21.816195
-8.4620628 0.94022655 -21.871336
-8.4567757 -3.8146973e-06 -21.900711
-8.4591961 -0.93991089 -21.88726
-8.4735994 -1.8830214 -21.807245
-8.4913111 -2.8304358 -21.708845
-8.5090971 -3.7818232 -21.610035
-8.5520601 -4.7511454 -21.371353
-8.6013546 -5.7342334 -21.097494
-8.6545296 -6.7313004 -20.802078
-8.7228165 -7.7536168 -20.422707
-8.8021555 -8.8021564 -19.981932
-8.901433 -9.890481 -19.430391
-9.0087156 -11.010655 -18.834373
-9.1502752 -12.200368 -18.047934
-9.3232565 -13.466925 -17.086927
-9.5498705 -14.855352 -15.827962
-9.8823156 -16.470526 -13.981043
-10.471234 -18.615526 -10.709274
-8.9267588 17.853518 -13.090552
-8.5771484 16.08215 -15.275623
-8.3469858 14.607224 -16.714136
-8.1726933 13.280628 -17.803461
-8.0361671 12.054249 -18.656757
-7.9260015 10.898252 -19.345287
-7.8324213 9.7905254 -19.930162
-7.7486672 8.7172489 -20.453625
-7.6847405 7.6847377 -20.853168
-7.6244106 6.67136 -21.23023
-7.5799422 5.6849556 -21.50816
-7.5457749 4.7161102 -21.721703
-7.5118918 3.7559443 -21.933468
-7.485857 2.8071957 -22.096191
-7.476531 1.869133 -22.154476
-7.4674449 0.93342876 -22.21126
-7.4606938 -1.9073486e-06 -22.25346
-7.4706521 -0.93383121 -22.191217
-7.481441 -1.8703604 -22.123787
-7.4962101 -2.81108 -22.031483
-7.519022 -3.75951 -21.888912
-7.5517511 -4.7198448 -21.684353
-7.5883875 -5.6912894 -21.455378
-7.6259007 -6.6726651 -21.220917
-7.6911683 -7.6911688 -20.812998
-7.7601347 -8.7301521 -20.381952
-7.8307781 -9.788475 -19.940435
-7.9295406 -10.90312 -19.323166
-8.0441008 -12.066152 -18.607166
-8.1838903 -13.298824 -17.733482
-8.3764505 -14.658789 -16.52998
-8.6169643 -16.156811 -15.026768
-8.9816303 -17.963261 -12.74761
-8.109931 19.695547 -10.954716
-7.6612043 17.511322 -14.15991
-7.4062366 15.870503 -15.981108
-7.2214122 14.442824 -17.301277
-7.0880847 13.163585 -18.253622
-6.9639363 11.938177 -19.140394
-6.8783746 10.808871 -19.751553
-6.7991142 9.7130184 -20.317696
-6.7365742 8.6613073 -20.764408
-6.6816087 7.6361246 -21.157021
-6.6291714 6.6291723 -21.531574
-6.5923896 5.6506205 -21.794292
-6.564229 4.6887331 -21.995443
-6.5362897 3.7350225 -22.195011
-6.5191712 2.7939281 -22.317284
-6.5074019 1.8592577 -22.401352
-6.4966111 0.92808819 -22.478428
-6.4915009 -9.5367432e-07 -22.514935
-6.4971361 -0.92816162 -22.474682
-6.5041142 -1.8583193 -22.424837
-6.5146093 -2.7919788 -22.349873
-6.5409579 -3.7376909 -22.161667
-6.5680952 -4.6914949 -21.967829
-6.5986662 -5.6559987 -21.74947
-6.6377263 -6.6377263 -21.470467
-6.6842256 -7.6391139 -21.13833
-6.743269 -8.6699171 -20.716591
-6.807538 -9.7250538 -20.257523
-6.8870807 -10.822556 -19.689367
-6.978065 -11.962397 -19.039476
-7.0977769 -13.181585 -18.184395
-7.2458243 -14.49165 -17.126911
-7.4303966 -15.922276 -15.808538
-7.7021704 -17.604961 -13.867292
-8.2347355 -19.998648 -10.063253
-6.7769098 19.201242 -12.408548
-6.4780302 17.274742 -14.899212
-6.2822976 15.705743 -16.530319
-6.1378202 14.321579 -17.734295
-6.0285931 13.061948 -18.644524
-5.9357481 11.871494 -19.41823
-5.8586497 10.740857 -20.060715
-5.7869949 9.6449919 -20.657837
-5.7397928 8.6096869 -21.051188
-5.6946473 7.5928607 -21.427401
-5.6549559 6.5974469 -21.758165
-5.6244669 5.6244659 -22.012239
-5.5953255 4.6627703 -22.255081
-5.57444 3.7162905 -22.429131
-5.5623484 2.7811737 -22.529892
-5.5508037 1.8502674 -22.626095
-5.5416441 0.92360783 -22.702429
-5.5423756 -0 -22.696331
-5.5456386 -0.92427444 -22.669142
-5.5505486 -1.8501844 -22.628227
-5.5601058 -2.7800541 -22.548578
-5.5784822 -3.7189856 -22.395443
-5.5977588 -4.6647997 -22.234806
-5.6211429 -5.6211457 -22.039936
-5.6598454 -6.6031537 -21.717415
-5.6992865 -7.59905 -21.388744
-5.7407656 -8.6111488 -21.043083
-5.8022103 -9.6703501 -20.531044
-5.8696198 -10.760969 -19.969299
-5.9385958 -11.877193 -19.394495
-6.0392647 -13.085073 -18.555593
-6.1557827 -14.363491 -17.584606
-6.2961855 -15.740466 -16.414581
-6.5081387 -17.355036 -14.648305
-6.8269134 -19.342924 -11.991848
-5.5598316 18.903423 -13.284484
-5.3369818 17.078339 -15.512982
-5.1915355 15.574602 -16.967445
-5.0798917 14.223696 -18.083881
-4.9869738 12.966131 -19.013058
-4.9194031 11.806564 -19.688766
-4.8575511 10.68661 -20.307285
-4.8053436 9.6106892 -20.829357
-4.7614918 8.5706844 -21.267879
-4.7188063 7.5500889 -21.694733
-4.6909227 6.5672894 -21.973576
-4.6666117 5.5999355 -22.216677
-4.6426592 4.6426582 -22.456203
-4.6262417 3.7009916 -22.62038
-4.6142359 2.7685404 -22.740435
-4.6042547 1.8416996 -22.840252
-4.5989385 0.9197855 -22.89341
-4.6006474 -9.5367432e-07 -22.876316
-4.602345 -0.92046928 -22.859344
-4.6061392 -1.8424578 -22.8214
-4.6181426 -2.7708883 -22.70137
-4.6320081 -3.7056055 -22.562716
-4.6479697 -4.6479692 -22.403099
-4.668047 -5.6016583 -22.202326
-4.6965632 -6.5751891 -21.917162
-4.7289572 -7.5663309 -21.593224
-4.7634792 -8.5742636 -21.248005
-4.8091207 -9.6182404 -20.791588
-4.8647909 -10.702543 -20.234884
-4.9240999 -11.817841 -19.641798
-5.0019331 -13.005028 -18.863466
-5.0889525 -14.249068 -17.993271
-5.2097049 -15.629116 -16.785749
-5.3653646 -17.16917 -15.229146
-5.6032758 -19.05114 -12.850039
-4.7401476 21.330666 -9.6309471
-4.4051714 18.721975 -13.818159
-4.2402625 16.961048 -15.879515
-4.1270509 15.476439 -17.294662
-4.0451283 14.157947 -18.318691
-3.9719639 12.90888 -19.23325
-3.9163659 11.749094 -19.928226
-3.8673618 10.635242 -20.540777
-3.8306391 9.5765972 -20.999805
-3.796499 8.5421209 -21.426559
-3.7646894 7.5293779 -21.824177
-3.7413187 6.547308 -22.116314
-3.7220743 5.5831089 -22.356869
-3.7036126 4.6295166 -22.587635
-3.6923418 3.6923399 -22.728523
-3.6825397 2.7619038 -22.851051
-3.6730306 1.8365126 -22.969913
-3.6693037 0.91732502 -23.016502
-3.668906 -0 -23.021469
-3.6684983 -0.9171257 -23.026566
-3.6718574 -1.8359318 -22.984581
-3.6823816 -2.7617893 -22.853027
-3.6929667 -3.6929646 -22.720713
-3.7049985 -4.6312475 -22.570316
-3.7242064 -5.5863132 -22.330215
-3.744616 -6.5530796 -22.075094
-3.7684035 -7.5368085 -21.777756
-3.7997375 -8.5494108 -21.38608
-3.835387 -9.5884657 -20.940462
-3.8717117 -10.647209 -20.486399
-3.9232645 -11.769793 -19.841991
-3.9821248 -12.941908 -19.106237
-4.0503974 -14.176394 -18.252825
-4.1417632 -15.531612 -17.110758
-4.2531934 -17.012774 -15.71788
-4.4304142 -18.829262 -13.502619
-3.4861262 20.916758 -10.780688
-3.2769985 18.569658 -14.266152
-3.1647167 16.87849 -16.137514
-3.0813887 15.406942 -17.52632
-3.021806 14.101761 -18.519363
-2.971729 12.877491 -19.353979
-2.9294581 11.71783 -20.058495
-2.8915477 10.602339 -20.690336
-2.864192 9.5473061 -21.146261
-2.8389263 8.516777 -21.567362
-2.8177323 7.5139518 -21.920593
-2.8000321 6.5334082 -22.215591
-2.7831945 5.5663862 -22.496222
-2.771697 4.6194944 -22.687847
-2.7632802 3.6843719 -22.828127
-2.7552919 2.755291 -22.961267
-2.749047 1.8326979 -23.065344
-2.7475293 0.91584587 -23.090639
-2.7466774 -9.5367432e-07 -23.104839
-2.7463727 -0.91545868 -23.109919
-2.7499866 -1.8333235 -23.049686
-2.7561414 -2.7561436 -22.947107
-2.7625763 -3.6834345 -22.839855
-2.771013 -4.6183548 -22.699247
-2.7861261 -5.5722523 -22.447361
-2.8013968 -6.5365934 -22.192844
-2.8169513 -7.511869 -21.933609
-2.8419597 -8.5258808 -21.5168
-2.8687623 -9.5625401 -21.070091
-2.8961189 -10.619104 -20.614151
-2.9337308 -11.734924 -19.987282
-2.9747872 -12.890747 -19.303011
-3.0268743 -14.125416 -18.434887
-3.0922246 -15.461124 -17.345716
-3.1732147 -16.923811 -15.995882
-3.2938578 -18.665195 -13.985163
-3.542809 -21.256853 -9.8359814
-2.3071318 20.764181 -11.204508
-2.1714582 18.45739 -14.596344
-2.1028974 16.823181 -16.310358
-2.0506723 15.380042 -17.615986
-2.006649 14.046544 -18.71657
-1.9767051 12.848583 -19.465168
-1.9492402 11.695442 -20.151794
-1.9262042 10.594122 -20.727692
-1.9065148 9.5325727 -21.219927
-1.8872237 8.4925041 -21.702206
-1.8749533 7.4998126 -22.008965
-1.8635641 6.5224733 -22.293694
-1.8523126 5.5569372 -22.57498
-1.8448428 4.6121063 -22.76173
-1.8384142 3.6768284 -22.92244
-1.8326615 2.748991 -23.066259
-1.8298167 1.8298168 -23.137375
-1.8288083 0.91440201 -23.162594
-1.8278008 -2.8610229e-06 -23.187778
-1.8280238 -0.91401291 -23.182198
-1.8314569 -1.8314581 -23.096375
-1.8351068 -2.7526608 -23.005127
-1.8393862 -3.678772 -22.898142
-1.8462186 -4.6155434 -22.727333
-1.8548055 -5.5644197 -22.512661
-1.8649572 -6.5273519 -22.258863
-1.8769927 -7.5079732 -21.957977
-1.8916053 -8.5122223 -21.592667
-1.9076844 -9.5384235 -21.190685
-1.9281257 -10.604692 -20.679649
-1.9522909 -11.713744 -20.075525
-1.9793859 -12.86601 -19.398148
-2.0137055 -14.095938 -18.540159
-2.0540624 -15.405469 -17.531239
-2.1103575 -16.882862 -16.123852
-2.1844952 -18.568211 -14.270417
-2.331104 -20.97994 -10.605192
-1.1459585 20.627253 -11.584872
-1.0853592 18.451105 -14.614832
-1.0485984 16.777573 -16.452875
-1.0244354 15.366529 -17.661026
-1.0030619 14.042864 -18.729704
-0.98705208 12.831677 -19.530191
-0.97282881 11.673945 -20.241356
-0.96235627 10.585918 -20.764984
-0.95272684 9.5272694 -21.246452
-0.94378889 8.4940987 -21.693354
-0.93695533 7.4956417 -22.03503
-0.93126714 6.5188694 -22.319439
-0.92601508 5.5560894 -22.582043
-0.92240024 4.6119995 -22.762787
-0.91915983 3.6766376 -22.924805
-0.91597086 2.7479105 -23.084255
-0.91462237 1.8292427 -23.151678
-0.91371089 0.91371059 -23.19725
-0.91280133 -9.5367432e-07 -23.242733
-0.91308618 -0.91308784 -23.228487
-0.91479665 -1.8295937 -23.142967
-0.91651344 -2.7495403 -23.057125
-0.91870856 -3.6748381 -22.947371
-0.92266732 -4.6133375 -22.749432
-0.92666036 -5.5599637 -22.549778
-0.931162 -6.5181351 -22.324694
-0.93800944 -7.5040755 -21.982323
-0.94533312 -8.5079975 -21.616142
-0.95287919 -9.5287924 -21.238838
-0.96311945 -10.594313 -20.726824
-0.97480309 -11.697638 -20.142643
-0.98842239 -12.849491 -19.461678
-1.0060313 -14.084437 -18.581232
-1.0258788 -15.388182 -17.588861
-1.0534794 -16.855673 -16.208824
-1.0894707 -18.521004 -14.409258
-1.1579238 -20.842627 -10.986606
0 20.621157 -11.601801
0 18.453722 -14.607143
0 16.782166 -16.438524
0 15.360417 -17.6814
0 14.054297 -18.688873
0 12.841957 -19.490652
0 11.676699 -20.229885
0 10.582531 -20.780376
0 9.5242519 -21.261539
0 8.4981632 -21.670782
0 7.4988499 -22.014969
0 6.5152674 -22.345161
0 5.5570469 -22.574047
0 4.6128063 -22.754723
0 3.6764488 -22.927166
0 2.7493277 -23.06065
0 1.8303518 -23.123978
0 0.91413784 -23.175968
0 -1.9073486e-06 -23.221491
0 -0.91395187 -23.185314
0 -1.8303995 -23.122807
0 -2.7494869 -23.058039
0 -3.6749821 -22.945534
0 -4.6137972 -22.744801
0 -5.5608597 -22.542305
0 -6.5194736 -22.315128
0 -7.5030937 -21.988472
0 -8.507823 -21.617115
0 -9.5344372 -21.210608
0 -10.602721 -20.688604
0 -11.702386 -20.12285
0 -12.856165 -19.436012
0 -14.077572 -18.605753
0 -15.398145 -17.555645
0 -16.858595 -16.199684
0 -18.531792 -14.377522
0 -20.834238 -11.009924
1.1554711 20.798473 -11.109247
1.08908 18.514357 -14.4288
1.0522394 16.835829 -16.270826
1.025833 15.387495 -17.591146
1.0049098 14.068736 -18.637308
0.9890877 12.858139 -19.428413
0.97513974 11.701675 -20.125805
0.96378571 10.601645 -20.69351
0.95269859 9.5269833 -21.247864
0.9449833 8.5048485 -21.633629
0.93825835 7.5060663 -21.969879
0.93162835 6.5213957 -22.30138
0.92698336 5.5619001 -22.53363
0.92289221 4.61446 -22.738186
0.91913098 3.6765242 -22.92625
0.9170723 2.7512159 -23.029181
0.91580403 1.8316078 -23.092594
0.91456002 0.91455841 -23.154797
0.91410542 -1.9073486e-06 -23.177525
0.91505146 -0.91505241 -23.130222
0.91610122 -1.832201 -23.077736
0.91740167 -2.7522078 -23.012712
0.9202795 -3.6811199 -22.868818
0.92362326 -4.6181154 -22.701637
0.92768067 -5.5660858 -22.49876
0.93299502 -6.5309649 -22.233049
0.93916458 -7.5133176 -21.924568
0.94541359 -8.5087242 -21.612116
0.95447308 -9.5447302 -21.159143
0.96488082 -10.613688 -20.638754
0.97598261 -11.711792 -20.083666
0.99095452 -12.882407 -19.335068
1.0074263 -14.103969 -18.511478
1.027907 -15.418607 -17.487446
1.0538969 -16.86235 -16.187952
1.0929673 -18.580446 -14.234435
1.1663547 -20.994385 -10.565063
2.335299 21.017693 -10.500318
2.1917851 18.630171 -14.088169
2.1115625 16.892496 -16.093739
2.0589902 15.44243 -17.408033
2.0173471 14.121429 -18.449118
1.980732 12.874756 -19.364496
1.9545258 11.727157 -20.019648
1.9320962 10.626527 -20.580395
1.910476 9.5523796 -21.120895
1.894255 8.5241451 -21.526419
1.8802222 7.5208888 -21.877243
1.8674734 6.5361557 -22.195961
1.8584954 5.5754862 -22.42041
1.8501668 4.6254148 -22.628626
1.8420181 3.6840382 -22.832342
1.8378998 2.7568483 -22.935305
1.8345106 1.8345108 -23.020031
1.8311391 0.91556835 -23.104317
1.8304309 9.5367432e-07 -23.122025
1.8323067 -0.91615391 -23.075129
1.8342073 -1.8342094 -23.027615
1.8374537 -2.7561836 -22.946453
1.8437436 -3.6874866 -22.789206
1.8500764 -4.6251917 -22.630882
1.8571066 -5.5713181 -22.455133
1.8693609 -6.5427628 -22.148777
1.8821355 -7.528543 -21.829409
1.8950861 -8.5278893 -21.505642
1.9122525 -9.5612621 -21.076483
1.9325428 -10.628985 -20.569221
1.955987 -11.735924 -19.983122
1.9862759 -12.910794 -19.225897
2.0192077 -14.134456 -18.402601
2.0610805 -15.458102 -17.355785
2.1181428 -16.945145 -15.929226
2.1981699 -18.684444 -13.928546
3.6152687 21.691612 -8.628315
3.3133118 18.775434 -13.660931
3.1904747 17.015865 -15.708215
3.09972 15.4986 -17.220795
3.0397494 14.185496 -18.220306
2.9849317 12.9347 -19.133938
2.9421077 11.768427 -19.847672
2.905514 10.653549 -20.457563
2.8748784 9.5829277 -20.968155
2.8503919 8.5511742 -21.376263
2.826319 7.5368485 -21.777477
2.8085358 6.5532494 -22.073868
2.7949984 5.5899973 -22.299488
2.7818553 4.6364241 -22.518539
2.7710924 3.6947889 -22.697922
2.7650292 2.765029 -22.798973
2.7595444 1.8396959 -22.890388
2.7544584 0.91814995 -22.975155
2.7548437 2.8610229e-06 -22.968735
2.7564323 -0.9188118 -22.942255
2.7581491 -1.8387671 -22.913643
2.763217 -2.7632179 -22.829182
2.7729228 -3.6972303 -22.667414
2.7827375 -4.6378975 -22.503839
2.7947555 -5.5895123 -22.303537
2.8107924 -6.558516 -22.036255
2.8300056 -7.5466838 -21.716034
2.8510232 -8.5530701 -21.365742
2.8754523 -9.5848398 -20.958593
2.9087353 -10.665366 -20.403872
2.9441981 -11.776794 -19.812826
2.9883409 -12.949476 -19.077118
3.0419807 -14.195912 -18.183115
3.1086628 -15.543314 -17.071753
3.196665 -17.048883 -15.605044
3.3274829 -18.85574 -13.424744
4.4808264 19.043512 -12.872466
4.290132 17.160524 -15.256148
4.1632752 15.61228 -16.841856
4.0729914 14.255469 -17.970407
3.9991844 12.997351 -18.89299
3.9443252 11.832975 -19.578732
3.89168 10.702118 -20.236797
3.847883 9.6197071 -20.784256
3.8155384 8.5849609 -21.188564
3.7837331 7.5674644 -21.586134
3.7588744 6.5780277 -21.89687
3.738385 5.6075754 -22.152985
3.7184296 4.648037 -22.402428
3.7060864 3.7060862 -22.556717
3.6979527 2.7734652 -22.658388
3.6898441 1.8449202 -22.759747
3.6849642 0.92124081 -22.820744
3.6860616 -1.9073486e-06 -22.807028
3.6874342 -0.92186069 -22.789867
3.6897385 -1.8448715 -22.761068
3.6991534 -2.7743664 -22.643375
3.7094934 -3.7094917 -22.514133
3.722666 -4.6533327 -22.349466
3.7416885 -5.612534 -22.111691
3.7632477 -6.5856862 -21.842197
3.7852573 -7.5705142 -21.567081
3.816206 -8.586462 -21.180223
3.8524778 -9.6311951 -20.726826
3.8939402 -10.708337 -20.208544
3.944833 -11.834497 -19.572386
4.0064907 -13.021095 -18.801662
4.0777516 -14.272133 -17.910898
4.1750493 -15.656435 -16.694679
4.300508 -17.202034 -15.126442
4.4955826 -19.106228 -12.688013
5.7013502 19.38459 -11.869291
5.4254971 17.361591 -14.627822
5.2504506 15.75135 -16.378288
5.1355329 14.379491 -17.527468
5.028914 13.075176 -18.593653
4.9587584 11.901018 -19.295218
4.8927479 10.764044 -19.955317
4.8390722 9.6781425 -20.492075
4.792449 8.6264057 -20.958305
4.7523088 7.6036925 -21.359709
4.7233911 6.6127462 -21.648884
4.6967278 5.6360712 -21.91552
4.6711364 4.6711349 -22.171431
4.6549749 3.723978 -22.333046
4.6423917 2.7854319 -22.458885
4.6298752 1.8519497 -22.584042
4.6238751 0.92477512 -22.644043
4.6238751 -1.9073486e-06 -22.644041
4.625258 -0.92505264 -22.630219
4.6300621 -1.852025 -22.582176
4.6426592 -2.7855959 -22.456203
4.6553388 -3.7242699 -22.329411
4.6695776 -4.6695795 -22.187019
4.6975913 -5.6371117 -21.906879
4.7262073 -6.6166935 -21.620724
4.7558346 -7.6093354 -21.324453
4.7925344 -8.6265602 -20.957451
4.8403821 -9.6807642 -20.478975
4.8949504 -10.768892 -19.933289
4.9626732 -11.910415 -19.256065
5.0396399 -13.103065 -18.486393
5.1401916 -14.392537 -17.480881
5.2653637 -15.79609 -16.229164
5.441422 -17.412552 -14.468574
7.0716057 20.036213 -9.9527521
6.6150908 17.640244 -13.757033
6.3717065 15.929265 -15.785244
6.2206907 14.514946 -17.043709
6.093369 13.2023 -18.104717
5.9959641 11.991928 -18.916428
5.9054685 10.826691 -19.670563
5.8435793 9.7392998 -20.186302
5.7852092 8.6778126 -20.672722
5.7321424 7.6428552 -21.114941
5.6984286 6.6481662 -21.395889
5.6651092 5.6651077 -21.673553
5.6348233 4.6956854 -21.925938
5.6177411 3.7451601 -22.068287
5.6012988 2.8006477 -22.205305
5.5861154 1.8620377 -22.331833
5.581933 0.93032265 -22.366684
5.5807877 -1.9073486e-06 -22.37623
5.5802393 -0.93004036 -22.380802
5.5869074 -1.8623018 -22.325233
5.6017375 -2.8008699 -22.201651
5.6177902 -3.7451963 -22.067875
5.6390691 -4.6992245 -21.890556
5.6681356 -5.6681366 -21.648331
5.6996732 -6.6496196 -21.385517
5.7385645 -7.6514201 -21.061422
5.7887645 -8.6831474 -20.643093
5.8480039 -9.7466755 -20.149433
5.9149289 -10.84404 -19.591721
6.0008273 -12.001655 -18.875902
6.1003766 -13.217484 -18.046326
6.2290583 -14.53447 -16.973976
6.4016814 -16.004202 -15.535456
6.645781 -17.722084 -13.501286
7.8955321 18.04693 -12.486138
7.5498505 16.178249 -14.955296
7.346508 14.693013 -16.40774
7.1787257 13.331919 -17.60618
7.0636816 12.109166 -18.427929
6.9523306 10.925091 -19.223289
6.8714933 9.8164158 -19.800705
6.8029122 8.7466011 -20.290562
6.7415333 7.7046061 -20.728985
6.6951909 6.6951895 -21.060003
6.6504631 5.7003946 -21.379486
6.612534 4.723237 -21.650414
6.5915222 3.7665834 -21.800495
6.5714865 2.8163509 -21.943607
6.554718 1.8727751 -22.063381
6.5522013 0.93602753 -22.081356
6.5496678 -0 -22.099453
6.5488491 -0.93555164 -22.105299
6.5612087 -1.8746309 -22.017017
6.5753613 -2.8180132 -21.91593
6.5931425 -3.7675104 -21.788923
6.6232653 -4.730907 -21.573759
6.6577749 -5.7066631 -21.327263
6.695251 -6.6952534 -21.059574
6.7442174 -7.7076769 -20.709812
6.8049269 -8.7491913 -20.276178
6.8729186 -9.8184557 -19.790524
6.9627743 -10.941504 -19.148699
7.0625296 -12.107194 -18.436153
7.1950045 -13.36215 -17.489908
7.3585544 -14.717109 -16.321693
7.5828357 -16.248934 -14.719683
7.921658 -18.106647 -12.299529
9.3809843 18.761969 -10.25164
8.8064852 16.512156 -13.842267
8.5279131 14.923846 -15.583339
8.3169212 13.514992 -16.902042
8.1550131 12.232518 -17.913967
8.0273714 11.037636 -18.711723
7.9310312 9.9137897 -19.31385
7.8390269 8.8189049 -19.888874
7.7713785 7.7713766 -20.311684
7.7162476 6.7517166 -20.656248
7.6638098 5.7478576 -20.983984
7.6234174 4.7646332 -21.236439
7.5942969 3.7971478 -21.418442
7.5666208 2.8374805 -21.591415
7.5465932 1.8866463 -21.716591
7.5403385 0.94254017 -21.75568
7.5343366 -0 -21.793194
7.5326395 -0.94158077 -21.803799
7.5500011 -1.8875008 -21.695288
7.5674214 -2.8377848 -21.586411
7.5861292 -3.7930641 -21.469488
7.6255617 -4.7659788 -21.22303
7.6685581 -5.75142 -20.954313
7.7137737 -6.7495522 -20.671711
7.769361 -7.7693615 -20.324287
7.8475094 -8.8284512 -19.835861
7.9338417 -9.9173031 -19.296286
8.0375462 -11.051627 -18.648132
8.1687517 -12.25313 -17.828096
8.3280048 -13.53301 -16.832767
8.5524454 -14.966781 -15.430012
8.8444519 -16.583347 -13.604973
10.204832 17.008053 -12.189281
9.7938643 15.234899 -14.472439
9.5023737 13.725652 -16.091831
9.3151312 12.420175 -17.132071
9.1420155 11.173573 -18.093819
9.0235634 10.026178 -18.751892
8.9151592 8.9151573 -19.354132
8.8276682 7.8468161 -19.840197
8.7561207 6.810317 -20.23768
8.6941462 5.7960973 -20.581985
8.6527452 4.8070774 -20.811989
8.6182976 3.8303528 -21.003368
8.5857506 2.8619184 -21.184183
8.5680733 1.9040136 -21.282387
8.5590849 0.95100975 -21.332321
8.5522108 -1.9073486e-06 -21.37051
8.5551157 -0.9505682 -21.35437
8.5701523 -1.9044809 -21.27084
8.5901299 -2.8633776 -21.159851
8.6179638 -3.8302059 -21.005219
8.6594458 -4.810801 -20.774765
8.701354 -5.8009005 -20.541939
8.7603846 -6.8136315 -20.213991
8.8369331 -7.8550534 -19.788727
8.9179325 -8.9179325 -19.338732
9.0307932 -10.034216 -18.711723
9.1563787 -11.19113 -18.014025
9.3199863 -12.426647 -17.105097
9.5221167 -13.754169 -15.982147
9.8083572 -15.257445 -14.391917
10.274407 -17.124014 -11.802757
11.178642 15.650099 -12.989586
10.786078 14.021901 -14.952404
10.514934 12.617918 -16.308126
10.31594 11.347533 -17.303097
10.164564 10.164564 -18.059975
10.030744 9.0276661 -18.72908
9.9335871 7.9468694 -19.214863
9.8490734 6.8943505 -19.637426
9.7676764 5.8606043 -20.044415
9.7156305 4.8578138 -20.304646
9.6693916 3.8677559 -20.535839
9.6235914 2.8870773 -20.764839
9.6085634 1.9217119 -20.839977
9.5983047 0.95983028 -20.891273
9.5885248 -1.9073486e-06 -20.940174
9.5982761 -0.95983124 -20.891415
9.6147938 -1.9229603 -20.80883
9.6314535 -2.8894377 -20.725529
9.6710196 -3.8684092 -20.527704
9.7236147 -4.8618078 -20.264721
9.7767563 -5.8660555 -19.999016
9.8552265 -6.8986588 -19.606663
9.9422722 -7.9538159 -19.171438
10.04571 -9.0411406 -18.654247
10.182703 -10.182705 -17.969282
10.332932 -11.366225 -17.21814
10.53214 -12.638571 -16.222097
10.811698 -14.055208 -14.824311
11.225706 -15.715991 -12.754265
12.94825 16.479589 -10.027113
12.192661 14.409508 -13.461609
11.845789 12.922678 -15.038301
11.558384 11.558381 -16.344688
11.36867 10.335154 -17.207022
11.198707 9.1625748 -17.979586
11.070219 8.0510712 -18.563618
10.972125 6.9822588 -19.009502
10.87973 5.9343967 -19.42948
10.824473 4.9202142 -19.680641
10.770596 3.9165812 -19.925545
10.720106 2.923665 -20.155043
10.701182 1.9456692 -20.241062
10.684419 0.97130966 -20.317255
10.668063 -0 -20.391602
10.682227 -0.97111225 -20.327217
10.70254 -1.945919 -20.234886
10.722931 -2.9244375 -20.1422
10.771873 -3.9170437 -19.919735
10.822753 -4.9194365 -19.688465
10.882808 -5.9360776 -19.415489
10.983699 -6.9896274 -18.95689
11.086617 -8.0629959 -18.489079
11.221602 -9.1813107 -17.875513
11.386771 -10.351611 -17.124744
11.582852 -11.582852 -16.233471
11.85535 -12.933109 -14.994845
12.237592 -14.462608 -13.257379
13.093649 -16.664642 -9.3662148
14.068196 15.240543 -10.265312
13.335947 13.335943 -13.316356
12.907649 11.832008 -15.100931
12.664389 10.553657 -16.114511
12.447476 9.3356066 -17.018314
12.300351 8.2002335 -17.631334
12.169764 7.0990276 -18.175447
12.049249 6.0246234 -18.677597
11.973932 4.9891381 -18.991413
11.901643 3.9672117 -19.29262
11.850077 2.9625206 -19.507473
11.828917 1.971487 -19.595646
11.807795 0.98398113 -19.683651
11.795676 -1.9073486e-06 -19.734144
11.812273 -0.98435879 -19.664989
11.828917 -1.971488 -19.595646
11.858046 -2.9645152 -19.474274
11.91784 -3.9726171 -19.225132
11.984151 -4.9933968 -18.948837
12.068904 -6.0344534 -18.595699
12.178668 -7.1042252 -18.138346
12.30137 -8.2009144 -17.627092
12.480622 -9.3604679 -16.880201
12.68248 -10.568735 -16.039131
12.970768 -11.88987 -14.837929
13.343549 -13.343549 -13.284675
14.112046 -15.28805 -10.082598
15.26401 14.089856 -10.17506
14.496032 12.26587 -13.12883
14.09674 10.843645 -14.664568
13.812383 9.5624189 -15.758248
13.600007 8.3692322 -16.575079
13.429964 7.2315183 -17.229086
13.295948 6.13659 -17.744534
13.209512 5.0805817 -18.076982
13.125673 4.0386658 -18.399437
13.060605 3.0139852 -18.6497
13.02815 2.0043306 -18.774525
12.997269 0.99978733 -18.893299
12.984442 -2.8610229e-06 -18.942638
13.003005 -1.0002337 -18.871239
13.024054 -2.0037031 -18.790279
13.065051 -3.0150118 -18.632603
13.129174 -4.0397468 -18.385971
13.193933 -5.0745878 -18.136906
13.310033 -6.1430922 -17.690357
13.446929 -7.2406569 -17.163839
13.605623 -8.3726902 -16.553473
13.838424 -9.5804491 -15.658091
14.120814 -10.862164 -14.571973
14.565372 -12.324548 -12.862132
15.3595 -14.177999 -9.8077974
17.133724 13.462213 -7.6909218
15.818507 11.298932 -12.388128
15.35426 9.8705931 -14.046152
15.052232 8.6012735 -15.124825
14.841456 7.4207277 -15.877595
14.651019 6.2790089 -16.557728
14.52936 5.1890554 -16.992224
14.411273 4.1175056 -17.41396
14.329324 3.0705667 -17.706642
14.292596 2.0417991 -17.837812
14.256055 1.0182886 -17.968313
14.25042 -1.9073486e-06 -17.988443
14.267477 -1.0191059 -17.927525
14.284801 -2.0406861 -17.865648
14.345795 -3.0741 -17.64782
14.434081 -4.124023 -17.332508
14.523459 -5.1869512 -17.013296
14.672202 -6.2880845 -16.482073
14.850947 -7.4254742 -15.843701
15.080495 -8.617425 -15.023884
15.402235 -9.9014368 -13.874816
15.900907 -11.357792 -12.093843
17.419876 10.451923 -10.816545
16.778103 8.9483204 -12.955787
16.454021 7.6785393 -14.03606
16.152321 6.4609275 -15.041725
15.987136 5.3290439 -15.592342
15.850965 4.2269239 -16.046244
15.75526 3.1510496 -16.365265
15.700686 2.0934224 -16.547176
15.647707 1.043179 -16.723778
15.643396 -0 -16.738144
15.662836 -1.0441914 -16.673344
15.685534 -2.0914059 -16.597683
15.766323 -3.153265 -16.328386
15.865344 -4.2307601 -15.99832
16.003088 -5.3343635 -15.539168
16.204481 -6.4817929 -14.86786
16.454918 -7.6789632 -14.03307
16.848198 -8.9857044 -12.722141
17.478153 -10.486896 -10.622284
18.611759 8.1426449 -10.721048
18.036753 6.7637801 -12.517944
17.734779 5.5421176 -13.461607
17.530878 4.3827205 -14.098803
17.376003 3.2579989 -14.582785
17.293661 2.1617074 -14.840103
17.212671 1.0757933 -15.093201
17.210657 -9.5367432e-07 -15.099491
17.237852 -1.0773673 -15.014508
17.266638 -2.1583281 -14.924553
17.392553 -3.2611027 -14.531067
17.531178 -4.3827944 -14.09787
17.767641 -5.5523872 -13.358918
18.113207 -6.7924542 -12.279025
18.604834 -8.1396141 -10.74269
19.899862 4.6823215 -10.353791
19.459814 3.434083 -11.64805
19.32386 2.2733936 -12.047911
19.191679 1.1289196 -12.436679
19.171638 -1.9073486e-06 -12.495622
19.222494 -1.1307359 -12.346044
19.28422 -2.2687325 -12.164503
19.529139 -3.4463217 -11.444157
19.904858 -4.6834955 -10.339099
