# .PCD v0.7 - Point Cloud Data file format
VERSION 0.7
FIELDS x y z
SIZE 4 4 4
TYPE F F F
COUNT 1 1 1
WIDTH 1076
HEIGHT 1
VIEWPOINT 0 0 0 1 0 0 0
POINTS 1076
DATA ascii
-22.109377 2.327302 -10.700226
-22.003641 1.1580853 -10.978477
-21.898911 -1.4305115e-06 -11.254083
-21.885353 -1.1518598 -11.289762
-22.277241 -2.3449728 -10.258474
-20.75087 6.916954 -11.241489
-20.162807 5.60078 -12.874998
-19.879393 4.4176426 -13.662258
-19.603905 3.2673159 -14.427509
-19.517246 2.1685839 -14.668221
-19.453278 1.0807357 -14.845913
-19.407005 -0 -14.974445
-19.455826 -1.0808797 -14.838837
-19.539894 -2.1710982 -14.605315
-19.668602 -3.2781 -14.247794
-19.910824 -4.4246302 -13.574953
-20.226025 -5.6183414 -12.699395
-20.864775 -6.9549255 -10.925088
-19.271721 9.0690451 -12.201263
-18.73185 7.7131157 -13.78912
-18.398428 6.4935637 -14.769773
-18.112637 5.3272433 -15.610338
-17.965961 4.227283 -16.041733
-17.846525 3.1493859 -16.393017
-17.732344 2.0861573 -16.728844
-17.717299 1.0421934 -16.773094
-17.712652 -9.5367432e-07 -16.786762
-17.729471 -1.0429111 -16.737297
-17.75202 -2.0884728 -16.670973
-17.849203 -3.1498594 -16.385139
-18.002022 -4.2357707 -15.935672
-18.178295 -5.3465567 -15.417223
-18.436062 -6.5068464 -14.659086
-18.790781 -7.737381 -13.615794
-19.38624 -9.1229362 -11.864446
-18.359066 11.474414 -11.510715
-17.646168 9.9259701 -13.738521
-17.198414 8.599206 -15.137753
-16.93656 7.4097438 -15.956047
-16.71044 6.2664142 -16.662668
-16.5597 5.1749039 -17.133734
-16.421545 4.1053863 -17.565464
-16.337452 3.063271 -17.828257
-16.285215 2.0356493 -17.991501
-16.248217 1.0155106 -18.107122
-16.215214 -1.9073486e-06 -18.210258
-16.229216 -1.014328 -18.166496
-16.289747 -2.0362215 -17.977331
-16.356758 -3.0668921 -17.767927
-16.440578 -4.1101451 -17.505989
-16.540869 -5.1690245 -17.192583
-16.741137 -6.2779274 -16.566744
-16.955074 -7.4178452 -15.898189
-17.276718 -8.6383591 -14.893052
-17.692247 -9.9518881 -13.594526
-18.432804 -11.520504 -11.280283
-16.794331 12.315842 -12.901697
-16.279127 10.852753 -14.61904
-15.914614 9.548769 -15.834084
-15.651867 8.3476639 -16.709908
-15.435368 7.2031708 -17.431572
-15.285711 6.1142836 -17.930426
-15.153375 5.0511212 -18.371548
-15.059962 4.0159912 -18.682922
-14.991818 2.9983644 -18.910067
-14.925673 1.9900894 -19.13055
-14.901669 0.99344635 -19.210567
-14.909355 -0 -19.184946
-14.92106 -0.99473858 -19.145931
-14.945035 -1.9926729 -19.066015
-14.974473 -2.9948964 -18.967886
-15.071012 -4.0189371 -18.646091
-15.176385 -5.0587945 -18.294846
-15.300779 -6.1203113 -17.880201
-15.460331 -7.2148199 -17.348358
-15.674788 -8.3598862 -16.633501
-15.928582 -9.557148 -15.787523
-16.308329 -10.87222 -14.5217
-16.923742 -12.410747 -12.470323
-15.577538 13.352174 -13.248728
-15.067685 11.838894 -15.069633
-14.715811 10.511291 -16.32633
-14.449356 9.2888689 -17.277954
-14.258628 8.1477852 -17.959129
-14.10494 7.0524707 -18.508011
-13.955179 5.9807901 -19.042868
-13.879433 4.9569397 -19.313395
-13.806153 3.9446144 -19.575104
-13.742524 2.9448271 -19.802349
-13.706279 1.9580402 -19.931797
-13.685546 0.97753906 -20.005846
-13.672215 -1.9073486e-06 -20.053457
-13.664627 -0.97604656 -20.080559
-13.706946 -1.9581347 -19.929417
-13.756204 -2.9477568 -19.753502
-13.815595 -3.9473133 -19.541388
-13.880459 -4.9573088 -19.309732
-13.9865 -5.9942155 -18.931013
-14.119527 -7.0597649 -18.455914
-14.282221 -8.1612701 -17.874866
-14.497569 -9.3198681 -17.105759
-14.76205 -10.544322 -16.16119
-15.108562 -11.871014 -14.923648
-15.664409 -13.426636 -12.938478
-14.432175 14.432174 -13.374433
-13.934059 12.862206 -15.290261
-13.601865 11.509268 -16.567936
-13.359078 10.276215 -17.501722
-13.155845 9.1078911 -18.283394
-13.002521 8.0015488 -18.873104
-12.867948 6.928894 -19.390694
-12.773851 5.8956218 -19.7526
-12.692123 4.8815856 -20.066935
-12.612956 3.880908 -20.371428
-12.565943 2.8998318 -20.552246
-12.542548 1.9296236 -20.642223
-12.52164 0.96320057 -20.722645
-12.510332 -0 -20.766134
-12.524001 -0.96338558 -20.713562
-12.545407 -1.9300642 -20.631229
-12.575726 -2.9020929 -20.51462
-12.62605 -3.8849397 -20.321066
-12.69455 -4.8825173 -20.057606
-12.775216 -5.8962555 -19.747351
-12.891182 -6.9414067 -19.301331
-13.017124 -8.0105381 -18.816933
-13.181958 -9.1259708 -18.182955
-13.369154 -10.283966 -17.462975
-13.63058 -11.533567 -16.457489
-13.958139 -12.884439 -15.197643
-14.479276 -14.479276 -13.193274
-13.419964 15.656626 -12.966278
-12.895752 13.970396 -15.150497
-12.541541 12.54154 -16.626377
-12.289548 11.265417 -17.67635
-12.096272 10.080229 -18.481659
-11.945784 8.9593353 -19.1087
-11.798992 7.8659935 -19.720329
-11.710868 6.8313394 -20.087513
-11.628671 5.8143353 -20.430004
-11.553802 4.814085 -20.741951
-11.506264 3.8354216 -20.940031
-11.46711 2.8667774 -21.103172
-11.433602 1.9056005 -21.242785
-11.404935 0.9504118 -21.362232
-11.409416 -1.9073486e-06 -21.343563
-11.421733 -0.95181274 -21.29224
-11.438851 -1.906477 -21.220913
-11.460373 -2.8650942 -21.131243
-11.501089 -3.8336945 -20.96159
-11.565948 -4.8191462 -20.691345
-11.63729 -5.8186474 -20.394085
-11.721888 -6.83777 -20.041599
-11.827648 -7.8850994 -19.600927
-11.948297 -8.9612236 -19.098225
-12.112511 -10.093758 -18.414005
-12.318478 -11.291939 -17.555807
-12.594342 -12.594344 -16.40637
-12.946722 -14.025616 -14.938119
-13.515823 -15.768459 -12.566865
-12.466688 17.000023 -12.216038
-11.872007 15.109825 -14.919128
-11.527221 13.623077 -16.486338
-11.292082 12.318634 -17.555153
-11.081862 11.081861 -18.510691
-10.931669 9.9378815 -19.193388
-10.800564 8.8368244 -19.789326
-10.696364 7.7791724 -20.262959
-10.609903 6.7517576 -20.65596
-10.526489 5.7417207 -21.035114
-10.467878 4.7581253 -21.301529
-10.429637 3.792594 -21.475353
-10.393047 2.834465 -21.641676
-10.366963 1.884903 -21.760235
-10.358439 0.94167519 -21.798981
-10.35441 -9.5367432e-07 -21.817297
-10.352532 -0.94113922 -21.825832
-10.361442 -1.8838987 -21.785337
-10.39845 -2.8359432 -21.617115
-10.435694 -3.7947979 -21.447824
-10.482385 -4.7647233 -21.235592
-10.541127 -5.7497039 -20.96858
-10.607838 -6.7504401 -20.665352
-10.695944 -7.7788677 -20.26487
-10.802014 -8.8380127 -19.782736
-10.940622 -9.9460211 -19.152695
-11.099514 -11.099514 -18.430458
-11.302753 -12.330275 -17.506645
-11.565861 -13.668745 -16.310703
-11.9371 -15.192673 -14.623252
-12.585601 -17.162182 -11.67552
-11.775444 18.840708 -10.005576
-10.943945 16.415915 -14.163074
-10.565645 14.791901 -16.054571
-10.297522 13.386776 -17.395189
-10.09851 12.11821 -18.390249
-9.9474659 10.942211 -19.145466
-9.8085203 9.8085175 -19.840197
-9.7048779 8.7343884 -20.358406
-9.6214046 7.6971216 -20.775776
-9.5433149 6.6803203 -21.16622
-9.4826336 5.689579 -21.469627
-9.4351778 4.7175884 -21.706905
-9.3921127 3.7568426 -21.922237
-9.3521013 2.8056278 -22.122292
-9.3386135 1.8677244 -22.189728
-9.3309774 0.93309593 -22.227907
-9.3259754 1.9073486e-06 -22.252918
-9.3267326 -0.93267345 -22.249134
-9.3413506 -1.868269 -22.176043
-9.3669901 -2.8100996 -22.047846
-9.3963079 -3.7585249 -21.901258
-9.4258375 -4.7129192 -21.753611
-9.4869385 -5.6921635 -21.448103
-9.555954 -6.6891675 -21.103027
-9.6259804 -7.7007847 -20.752895
-9.7099142 -8.7389212 -20.333225
-9.8213606 -9.8213606 -19.775991
-9.9549427 -10.950439 -19.108082
-10.124179 -12.149015 -18.261906
-10.333761 -13.433888 -17.213993
-10.604359 -14.846104 -15.861004
-11.004945 -16.507416 -13.858074
-10.071483 17.904856 -12.930114
-9.6302347 16.050388 -15.381495
-9.3494692 14.543616 -16.941303
-9.1439495 13.207924 -18.083078
-8.9763021 11.968403 -19.014448
-8.8531656 10.820535 -19.69854
-8.7384739 9.7094135 -20.335716
-8.6530561 8.6530552 -20.810266
-8.5713949 7.6190186 -21.263931
-8.5068979 6.6164751 -21.622253
-8.4630022 5.6420002 -21.866116
-8.4199247 4.6777353 -22.10544
-8.3818169 3.7252512 -22.31715
-8.3607912 2.7869301 -22.433956
-8.343667 1.8541489 -22.529091
-8.3281927 0.92535305 -22.615057
-8.3183861 -0 -22.669537
-8.3313074 -0.92570114 -22.597755
-8.3442917 -1.8542871 -22.525618
-8.3598261 -2.7866096 -22.439318
-8.385747 -3.7269974 -22.295311
-8.4232788 -4.6796017 -22.086803
-8.4637938 -5.64253 -21.861719
-8.5242233 -6.6299491 -21.526001
-8.5854959 -7.6315536 -21.185596
-8.6495924 -8.6495934 -20.829502
-8.7547712 -9.7275238 -20.24518
-8.8648987 -10.834877 -19.633358
-9.000905 -12.001207 -18.877766
-9.1681757 -13.242918 -17.94849
-9.371006 -14.577122 -16.821653
-9.6628437 -16.10474 -15.200329
-10.142441 -18.031006 -12.535904
-9.3956032 19.965656 -10.160278
-8.7167397 17.433479 -14.40317
-8.4031067 15.755825 -16.363377
-8.2024021 14.354203 -17.617783
-8.0316544 13.051435 -18.684959
-7.9041986 11.856295 -19.481554
-7.791604 10.713455 -20.18527
-7.7077699 9.6347103 -20.709236
-7.6321173 8.586132 -21.182062
-7.5611763 7.5611777 -21.625441
-7.5120678 6.5730581 -21.932375
-7.4666653 5.5999994 -22.216137
-7.4223018 4.6389389 -22.49341
-7.4001784 3.7000895 -22.631683
-7.3826084 2.7684784 -22.741495
-7.3665962 1.8416481 -22.841568
-7.3530269 0.91912746 -22.926378
-7.3520393 -0 -22.932545
-7.3578811 -0.91973782 -22.896042
-7.3667865 -1.8416986 -22.840382
-7.3757138 -2.765893 -22.784588
-7.4028168 -3.7014093 -22.615189
-7.4378262 -4.6486444 -22.396383
-7.4733195 -5.60499 -22.174549
-7.511651 -6.5726948 -21.934978
-7.5690455 -7.5690446 -21.576262
-7.6365771 -8.5911484 -21.15419
-7.7143517 -9.6429405 -20.668098
-7.8056593 -10.732784 -20.097425
-7.9175677 -11.87635 -19.397997
-8.0407848 -13.066275 -18.627895
-8.2181635 -14.381788 -17.519272
-8.4456406 -15.835576 -16.097548
-8.773056 -17.546116 -14.051195
-7.881803 19.14152 -12.584204
-7.5081811 17.161556 -15.25293
-7.2695565 15.57762 -16.957394
-7.0926366 14.185272 -18.221102
-6.9629245 12.931146 -19.147621
-6.8551626 11.751705 -19.917349
-6.7622352 10.626368 -20.581116
-6.6927838 9.56112 -21.077192
-6.6268501 8.5202351 -21.548151
-6.5773964 7.5170226 -21.901394
-6.5342231 6.5342236 -22.20977
-6.4948316 5.5669994 -22.491138
-6.4623208 4.615942 -22.723362
-6.4397469 3.6798544 -22.884604
-6.4185915 2.750824 -23.035709
-6.4026294 1.8293219 -23.149727
-6.3997197 0.91424561 -23.170513
-6.3992653 -1.9073486e-06 -23.173763
-6.3999376 -0.91427708 -23.168955
-6.4076376 -1.8307543 -23.113956
-6.4229841 -2.7527084 -23.004341
-6.441349 -3.6807709 -22.873161
-6.4677572 -4.6198263 -22.68453
-6.4980545 -5.5697627 -22.468121
-6.53301 -6.5330095 -22.218437
-6.5796824 -7.5196366 -21.885067
-6.637785 -8.5342941 -21.470047
-6.7024817 -9.574976 -21.007927
-6.7730312 -10.643335 -20.504004
-6.8666754 -11.771446 -19.835114
-6.9787569 -12.960549 -19.034534
-7.1187701 -14.237541 -18.034437
-7.2956891 -15.633622 -16.770733
-7.5417876 -17.238371 -15.012886
-7.9430809 -19.290342 -12.146503
-6.6180387 18.751106 -13.732475
-6.3434901 16.91597 -16.020384
-6.1724691 15.431173 -17.445553
-6.0301552 14.070358 -18.631504
-5.9267845 12.841367 -19.492924
-5.8358088 11.671616 -20.25106
-5.7669291 10.572701 -20.825054
-5.7033939 9.5056553 -21.354513
-5.6461258 8.4691887 -21.831743
-5.6050386 7.4733815 -22.174145
-5.56846 6.4965382 -22.478962
-5.535718 5.5357161 -22.751812
-5.5149589 4.5957947 -22.924805
-5.4950743 3.6633816 -23.090508
-5.4771028 2.7385511 -23.240271
-5.4643312 1.8214445 -23.346703
-5.4605455 0.91009045 -23.37825
-5.4586005 -9.5367432e-07 -23.394459
-5.4566417 -0.90944099 -23.410784
-5.4651203 -1.8217049 -23.340126
-5.4806318 -2.7403173 -23.210865
-5.4962473 -3.6641665 -23.080734
-5.5119524 -4.5932932 -22.94986
-5.5390687 -5.5390701 -22.723888
-5.5746489 -6.5037589 -22.427383
-5.6129727 -7.4839659 -22.108021
-5.6551213 -8.4826813 -21.756786
-5.7047758 -9.5079575 -21.343
-5.7728601 -10.583576 -20.775629
-5.8478618 -11.695725 -20.15061
-5.937829 -12.865297 -19.400888
-6.0484014 -14.112934 -18.47945
-6.1829243 -15.457313 -17.358425
-6.3616095 -16.964293 -15.869387
-6.6532464 -18.850863 -13.439075
-5.9008274 21.242977 -9.8745213
-5.4415512 18.501272 -14.467284
-5.2338343 16.748268 -16.544453
-5.0991926 15.297576 -17.890869
-4.994946 13.985847 -18.933336
-4.9062638 12.756283 -19.82016
-4.8382282 11.611748 -20.500513
-4.7820091 10.52042 -21.0627
-4.7292075 9.458415 -21.590719
-4.6891317 8.4404364 -21.991482
-4.6535749 7.4457173 -22.347046
-4.6191368 6.4667912 -22.691427
-4.5939488 5.5127401 -22.943302
-4.57583 4.5758295 -23.124496
-4.5588083 3.647048 -23.294712
-4.5455313 2.7273169 -23.427483
-4.5390563 1.8156242 -23.492231
-4.53334 0.90666676 -23.549397
-4.5317316 1.9073486e-06 -23.565479
-4.5325356 -0.90650749 -23.557438
-4.5384798 -1.8153934 -23.497993
-4.548821 -2.7292948 -23.394588
-4.5615997 -3.6492796 -23.266792
-4.5763245 -4.5763273 -23.119551
-4.5985441 -5.5182562 -22.897352
-4.6248322 -6.4747653 -22.634476
-4.6553922 -7.4486294 -22.328869
-4.6901703 -8.4423065 -21.981094
-4.7338963 -9.4677954 -21.543833
-4.7865753 -10.530468 -21.017038
-4.8467097 -11.632105 -20.415701
-4.9159613 -12.781501 -19.723181
-5.0023527 -14.006588 -18.859268
-5.1113896 -15.334168 -17.7689
-5.2572265 -16.823128 -16.310532
-5.4628882 -18.573818 -14.253914
-4.5798712 20.609421 -11.634405
-4.3097801 18.316566 -15.010539
-4.1641235 16.656494 -16.831249
-4.0506783 15.190042 -18.249317
-3.975656 13.914794 -19.187094
-3.9063709 12.695705 -20.05316
-3.8541157 11.562346 -20.70635
-3.8069291 10.469051 -21.296185
-3.7685909 9.4214735 -21.775412
-3.7386239 8.4119024 -22.149998
-3.7098994 7.4197984 -22.509056
-3.6850171 6.4487791 -22.820084
-3.6667325 5.5000982 -23.048641
-3.6499007 4.562376 -23.259037
-3.6332228 3.6332216 -23.46751
-3.6249361 2.7187014 -23.571095
-3.6196868 1.8098412 -23.636711
-3.6145642 0.90364075 -23.700743
-3.6120896 -9.5367432e-07 -23.731674
-3.6167984 -0.90420246 -23.672817
-3.6215301 -1.8107672 -23.613672
-3.6262636 -2.7196989 -23.554502
-3.6350799 -3.6350813 -23.444298
-3.6517746 -4.5647192 -23.235609
-3.668927 -5.5033903 -23.02121
-3.6880891 -6.4541574 -22.781681
-3.707442 -7.414887 -22.53977
-3.740514 -8.4161606 -22.126369
-3.7751112 -9.4377804 -21.693903
-3.8143852 -10.489563 -21.202978
-3.8563783 -11.569138 -20.678062
-3.9158652 -12.726562 -19.934481
-3.9834554 -13.942094 -19.089602
-4.0669689 -15.251133 -18.045685
-4.1752934 -16.701172 -16.691635
-4.3238072 -18.376183 -14.835203
-4.6187005 -20.784153 -11.149044
-3.3900135 20.34008 -12.382572
-3.2049527 18.161394 -15.46692
-3.1070821 16.571102 -17.098097
-3.0296006 15.148 -18.389458
-2.9705038 13.86235 -19.374401
-2.9225502 12.664385 -20.173624
-2.8840415 11.536166 -20.815435
-2.847542 10.440987 -21.423761
-2.8195755 9.3985844 -21.88987
-2.7945292 8.3835831 -22.307312
-2.7727637 7.3940353 -22.670067
-2.757771 6.4347982 -22.919949
-2.7439997 5.4879961 -23.149467
-2.7311919 4.5519857 -23.362932
-2.7209239 3.6278982 -23.534065
-2.7141392 2.714138 -23.647142
-2.7095613 1.8063726 -23.723438
-2.7050066 0.90166759 -23.799355
-2.7037113 2.8610229e-06 -23.820942
-2.7066369 -0.9022131 -23.772181
-2.7102003 -1.8068027 -23.712791
-2.7137654 -2.7137671 -23.653374
-2.7203412 -3.6271238 -23.543777
-2.7318952 -4.5531607 -23.351212
-2.7444599 -5.4889193 -23.1418
-2.7585983 -6.4367294 -22.90616
-2.7770305 -7.4054127 -22.598955
-2.7983115 -8.3949366 -22.24427
-2.8226833 -9.4089432 -21.838078
-2.8513095 -10.454803 -21.36097
-2.8856966 -11.542788 -20.787849
-2.9277349 -12.686852 -20.087215
-2.9772456 -13.893814 -19.262035
-3.0347617 -15.173812 -18.303432
-3.1119792 -16.597223 -17.016476
-3.2209156 -18.251852 -15.20087
-3.412154 -20.472927 -12.013562
-2.2331996 20.098793 -13.052808
-2.1291854 18.098074 -15.65316
-2.0613775 16.491016 -17.34836
-2.0143859 15.107894 -18.523144
-1.973729 13.816102 -19.539574
-1.9441708 12.637112 -20.278526
-1.9183507 11.510103 -20.924026
-1.8955326 10.425427 -21.494482
-1.8777537 9.3887672 -21.938951
-1.8610803 8.3748598 -22.355793
-1.8461868 7.3847446 -22.728127
-1.8352219 6.4232759 -23.002247
-1.8253956 5.4761848 -23.24791
-1.8166575 4.5416431 -23.466354
-1.8118201 3.623641 -23.587294
-1.8070893 2.7106342 -23.705563
-1.803358 1.8033562 -23.798849
-1.8012837 0.90064335 -23.850704
-1.801324 -2.8610229e-06 -23.849697
-1.8013644 -0.90068436 -23.84869
-1.803277 -1.8032789 -23.800869
-1.8064705 -2.7097073 -23.721031
-1.8105867 -3.6211729 -23.61813
-1.817807 -4.5445204 -23.437624
-1.8252453 -5.4757376 -23.251663
-1.8361276 -6.4264503 -22.979607
-1.849157 -7.3966279 -22.653873
-1.8630356 -8.3836632 -22.306906
-1.8777702 -9.3888531 -21.93854
-1.8973205 -10.435265 -21.449781
-1.9211679 -11.527008 -20.853596
-1.9478067 -12.660746 -20.18763
-1.9779809 -13.845865 -19.433279
-2.0174356 -15.130767 -18.446905
-2.070755 -16.566038 -17.113922
-2.1407497 -18.196373 -15.364055
-2.2531736 -20.278561 -12.55346
-1.1158874 20.085976 -13.088423
-1.0635056 18.079596 -15.707512
-1.0298609 16.477776 -17.389751
-1.0062577 15.093862 -18.569912
-0.98622942 13.807209 -19.571327
-0.97134018 12.62742 -20.315788
-0.95714706 11.485765 -21.02544
-0.94689906 10.415889 -21.537846
-0.93802589 9.3802595 -21.981501
-0.92957515 8.3661747 -22.404037
-0.92317277 7.3853817 -22.724155
-0.91756916 6.4229822 -23.004341
-0.9122088 5.4732504 -23.272358
-0.90784454 4.5392218 -23.49057
-0.90521443 3.6208572 -23.622074
-0.90259695 2.7077913 -23.752949
-0.90017325 1.8003464 -23.87413
-0.90006757 0.90006638 -23.879417
-0.90012294 1.9073486e-06 -23.87665
-0.90019345 -0.90019417 -23.873129
-0.90038484 -1.8007698 -23.863556
-0.90256399 -2.7076931 -23.754597
-0.90488094 -3.619525 -23.638748
-0.9083519 -4.5417576 -23.465202
-0.91236401 -5.474184 -23.264597
-0.91732848 -6.4213018 -23.016371
-0.92348015 -7.3878407 -22.708792
-0.93027109 -8.3724365 -22.369244
-0.93819267 -9.3819256 -21.973164
-0.9477495 -10.425245 -21.495319
-0.95927542 -11.511307 -20.919024
-0.97235847 -12.64066 -20.264872
-0.98796415 -13.831499 -19.484587
-1.0069283 -15.103927 -18.536383
-1.0334557 -16.535294 -17.210011
-1.0671309 -18.141224 -15.526258
-1.1230328 -20.21459 -12.731157
0 20.133585 -12.956172
0 18.068249 -15.740881
0 16.48431 -17.369314
0 15.091693 -18.577148
0 13.819407 -19.527769
0 12.636267 -20.281757
0 11.493693 -20.992397
0 10.421133 -21.514013
0 9.3746834 -22.009375
0 8.3615856 -22.429533
0 7.3860407 -22.720049
0 6.4226723 -23.006565
0 5.4730034 -23.274426
0 4.5433598 -23.449173
0 3.6224651 -23.601955
0 2.7089911 -23.732944
0 1.8021564 -23.828892
0 0.90009689 -23.877909
0 -9.5367432e-07 -23.874508
0 -0.90023518 -23.870983
0 -1.8018694 -23.836081
0 -2.7080498 -23.748646
0 -3.6206026 -23.625259
0 -4.5410166 -23.472633
0 -5.4740772 -23.265499
0 -6.4184647 -23.036629
0 -7.3850217 -22.726406
0 -8.3677731 -22.395176
0 -9.3825054 -21.970289
0 -10.42334 -21.503973
0 -11.507601 -20.934462
0 -12.637912 -20.275442
0 -13.831455 -19.484741
0 -15.113005 -18.506121
0 -16.518053 -17.263885
0 -18.135811 -15.542173
0 -20.23896 -12.663471
1.1216785 20.19021 -12.798873
1.0676973 18.150854 -15.497931
1.0318289 16.509262 -17.291353
1.0076755 15.115129 -18.499022
0.98797327 13.831624 -19.484133
0.97278178 12.646163 -20.243706
0.95942986 11.513155 -20.911304
0.94893438 10.438279 -21.436075
0.9389838 9.3898335 -21.933609
0.93067998 8.3761196 -22.348797
0.92397588 7.3918066 -22.684002
0.91759264 6.4231491 -23.003162
0.91289705 5.4773827 -23.237942
0.90950197 4.5475082 -23.4077
0.90613192 3.6245279 -23.576199
0.90339756 2.7101898 -23.712917
0.90228313 1.8045654 -23.768639
0.90129763 0.90129471 -23.817913
0.90031677 -0 -23.866955
0.9005335 -0.90053463 -23.856125
0.9015224 -1.8030453 -23.806679
0.90326321 -2.7097902 -23.719635
0.90602225 -3.6240902 -23.581684
0.90906006 -4.5453024 -23.429794
0.91343862 -5.4806328 -23.210863
0.91802722 -6.4261904 -22.981438
0.92423594 -7.3938909 -22.670998
0.93088734 -8.3779869 -22.338432
0.9393757 -9.3937569 -21.914011
0.94851768 -10.433697 -21.456909
0.96024859 -11.522985 -20.870365
0.97354978 -12.656147 -20.205307
0.98977208 -13.856811 -19.394192
1.0091258 -15.136887 -18.426504
1.0359541 -16.575264 -17.085094
1.0698233 -18.186996 -15.391633
1.1320077 -20.376139 -12.282411
2.2707887 20.437096 -12.113079
2.1457381 18.238771 -15.239345
2.0736504 16.589199 -17.04154
2.0225198 15.168899 -18.319801
1.9836377 13.885464 -19.291853
1.9495767 12.672246 -20.143381
1.9223098 11.533857 -20.825052
1.9012436 10.456839 -21.351706
1.8810025 9.4050121 -21.857737
1.8661036 8.3974648 -22.230206
1.852366 7.409462 -22.573648
1.8391442 6.4370031 -22.904186
1.8295411 5.4886208 -23.144268
1.8221245 4.5553102 -23.329685
1.8147625 3.6295252 -23.513733
1.8092278 2.7138405 -23.6521
1.8074396 1.807436 -23.696812
1.8056496 0.90282536 -23.741556
1.8038683 -9.5367432e-07 -23.786089
1.8042071 -0.90210247 -23.777618
1.8068053 -1.8068056 -23.712662
1.8097314 -2.7145996 -23.639511
1.8153152 -3.6306334 -23.499914
1.8212839 -4.5532103 -23.350697
1.8298167 -5.4894524 -23.137377
1.839118 -6.436914 -22.904842
1.8514229 -7.4056911 -22.597225
1.8652005 -8.393404 -22.252785
1.8825319 -9.4126587 -21.8195
1.9014852 -10.45817 -21.345667
1.9248794 -11.549276 -20.760813
1.9521132 -12.688736 -20.079964
1.9845428 -13.891801 -19.269226
2.0246511 -15.184885 -18.266521
2.0790422 -16.632339 -16.90674
2.14973 -18.272705 -15.139549
2.2839227 -20.555305 -11.784727
3.4548771 20.729261 -11.301514
3.24193 18.370934 -14.850632
3.1284969 16.685316 -16.741182
3.0446093 15.223045 -18.139307
2.9884517 13.94611 -19.075266
2.9365149 12.724894 -19.940884
2.8960319 11.584126 -20.615601
2.8603737 10.488035 -21.209902
2.8276932 9.4256439 -21.754578
2.8063071 8.4189215 -22.11101
2.785234 7.42729 -22.462231
2.7661622 6.4543781 -22.780094
2.7529271 5.5058546 -23.000679
2.7406659 4.5677719 -23.205032
2.7295625 3.6394138 -23.390087
2.7227578 2.7227573 -23.503498
2.717057 1.8113708 -23.598511
2.7142689 0.90475655 -23.644978
2.7123551 -9.5367432e-07 -23.67688
2.7124159 -0.90413952 -23.675861
2.7161245 -1.81075 -23.614056
2.7205558 -2.7205572 -23.540197
2.7290998 -3.6387997 -23.3978
2.7390254 -4.5650454 -23.232372
2.752111 -5.5042229 -23.014278
2.7674148 -6.4573011 -22.759216
2.7851777 -7.4271421 -22.463165
2.8068538 -8.4205589 -22.101904
2.8318734 -9.4395771 -21.68491
2.8613825 -10.491736 -21.193089
2.89744 -11.589763 -20.592133
2.9394832 -12.737761 -19.891411
2.9895067 -13.951032 -19.057688
3.0521455 -15.260731 -18.0137
3.1491711 -16.79558 -16.396614
3.294791 -18.670483 -13.969614
3.4979992 -20.987995 -10.582813
4.377429 18.604073 -14.164932
4.2040505 16.816202 -16.332163
4.0872812 15.327301 -17.791784
4.0030646 14.010724 -18.84449
3.9316881 12.777987 -19.736694
3.8803947 11.641186 -20.377861
3.831768 10.537363 -20.985695
3.7901051 9.4752617 -21.506481
3.7570531 8.4533691 -21.919632
3.7249391 7.4498758 -22.321058
3.7000892 6.4751587 -22.63168
3.6823184 5.5234785 -22.853815
3.6647282 4.5809097 -23.073694
3.6507289 3.6507273 -23.248688
3.6430321 2.7322721 -23.344896
3.6353776 1.817688 -23.440575
3.6277452 0.90693665 -23.53598
3.6273668 -1.9073486e-06 -23.540709
3.6293306 -0.90733624 -23.516165
3.6339922 -1.8169956 -23.457893
3.6415479 -2.7311621 -23.363449
3.6513503 -3.65135 -23.240919
3.665323 -4.5816536 -23.066261
3.6810656 -5.5215988 -22.869476
3.7022705 -6.4789753 -22.604412
3.7261357 -7.4522705 -22.306101
3.7570972 -8.4534664 -21.919086
3.792841 -9.4821024 -21.472282
3.8326123 -10.539684 -20.975143
3.8808627 -11.642588 -20.372013
3.9391716 -12.802306 -19.643154
4.0082369 -14.028831 -18.779833
4.1219101 -15.457164 -17.358919
4.3087997 -17.235201 -15.022801
4.5135517 -19.182594 -12.4634
5.5555701 18.888937 -13.327095
5.3150692 17.008221 -15.732102
5.1547647 15.464291 -17.335154
5.046689 14.13073 -18.415903
4.9470043 12.862209 -19.412756
4.8745322 11.698875 -20.137476
4.8123569 10.587183 -20.759228
4.7632394 9.5264778 -21.250404
4.7208414 8.4975128 -21.674383
4.6802802 7.4884462 -22.079998
4.6495681 6.5093937 -22.387115
4.6246195 5.5495396 -22.6366
4.6005034 4.600502 -22.877768
4.5820189 3.6656132 -23.062607
4.5725403 2.7435217 -23.157394
4.5636048 1.8254395 -23.246746
4.5559559 0.91119099 -23.323236
4.5564075 -9.5367432e-07 -23.318722
4.5568724 -0.911376 -23.314075
4.5599971 -1.8240004 -23.282825
4.5700469 -2.7420282 -23.182327
4.5814972 -3.6651983 -23.067823
4.6012793 -4.6012793 -22.870007
4.6223745 -5.5468521 -22.65905
4.6503072 -6.5104313 -22.379726
4.6812468 -7.489996 -22.070326
4.7209935 -8.4977894 -21.672861
4.7686033 -9.5372076 -21.196762
4.8175006 -10.598499 -20.707792
4.880372 -11.712894 -20.079077
4.9542389 -12.881019 -19.340408
5.0597811 -14.167387 -18.284985
5.2847137 -15.854143 -16.035658
5.5308037 -17.69857 -13.574764
5.8010569 -19.723593 -10.872228
6.8446031 19.393042 -11.844433
6.4658179 17.242178 -15.000983
6.2484498 15.62112 -16.812386
6.1090617 14.254474 -17.973953
5.9890084 12.976186 -18.974388
5.8994422 11.798882 -19.720779
5.8135476 10.658171 -20.436567
5.7487817 9.5813007 -20.976284
5.6954703 8.5432034 -21.42054
5.6455646 7.5274191 -21.836422
5.6120758 6.5474195 -22.115498
5.5794492 5.5794487 -22.387386
5.5502138 4.6251774 -22.631016
5.5312462 3.6874943 -22.789078
5.5143919 2.7571974 -22.929527
5.5008974 1.8336325 -23.041981
5.4959192 0.91598415 -23.083473
5.4964662 -0 -23.078911
5.4976087 -0.91627026 -23.069389
5.5006313 -1.8335447 -23.044201
5.5143919 -2.7571955 -22.929529
5.5302167 -3.6868124 -22.797657
5.5509477 -4.6257877 -22.624901
5.577435 -5.5774364 -22.404173
5.6087828 -6.5435834 -22.142937
5.6493802 -7.5325055 -21.804628
5.7006497 -8.5509739 -21.377386
5.758914 -9.5981922 -20.891846
5.8195572 -10.66919 -20.386488
5.9040236 -11.808046 -19.6826
5.9935632 -12.986053 -18.936438
6.2246208 -14.524115 -17.010956
6.5087972 -16.271992 -14.642819
6.8204026 -18.18774 -12.046104
7.1632919 -20.295998 -9.1886959
7.6993012 17.598402 -13.887788
7.3999114 15.856954 -16.026283
7.2127423 14.425482 -17.363211
7.0496454 13.092196 -18.528189
6.9429669 11.902229 -19.290173
6.840425 10.749238 -20.022615
6.7656064 9.6651516 -20.557037
6.6959677 8.6091003 -21.054461
6.6319423 7.5793629 -21.51178
6.5883417 6.5883384 -21.823215
6.5470791 5.6117811 -22.117943
6.5119162 4.6513681 -22.369106
6.4918933 3.709651 -22.512127
6.4732585 2.7742529 -22.645237
6.454896 1.8442545 -22.776398
6.4484477 0.92120552 -22.822456
6.4497766 -9.5367432e-07 -22.812958
6.4514947 -0.92164326 -22.800694
6.460505 -1.8458595 -22.736334
6.4767756 -2.7757597 -22.620115
6.4931474 -3.7103691 -22.503174
6.5145717 -4.653264 -22.350142
6.5504489 -5.6146722 -22.093876
6.589324 -6.589324 -21.816195
6.6410527 -7.5897751 -21.446707
6.701983 -8.6168356 -21.01149
6.766541 -9.6664867 -20.550362
6.8462043 -10.75832 -19.981339
6.9438019 -11.90366 -19.284212
7.1309838 -13.243256 -17.947197
7.450079 -14.90016 -15.667945
7.7991781 -16.712523 -13.174385
8.1827507 -18.703428 -10.43458
9.06847 18.136938 -12.204859
8.6093569 16.142544 -15.074312
8.3649654 14.63869 -16.601757
8.1667309 13.270937 -17.840727
8.0217943 12.03269 -18.746582
7.8853407 10.842342 -19.599419
7.8012133 9.7515144 -20.125216
7.7190933 8.683979 -20.638466
7.6479878 7.6479845 -21.082874
7.5943866 6.6450887 -21.417881
7.5449791 5.6587343 -21.726677
7.5023699 4.6889811 -21.992981
7.4728851 3.7364426 -22.177261
7.4514742 2.794302 -22.311087
7.4321356 1.8580332 -22.431946
7.4271193 0.92838764 -22.463305
7.4221301 -0 -22.494484
7.4171481 -0.927145 -22.52562
7.4347763 -1.8586941 -22.415451
7.455358 -2.7957592 -22.286812
7.4760323 -3.7380152 -22.157598
7.5039005 -4.6899414 -21.983418
7.5422821 -5.656714 -21.74353
7.5880523 -6.6395478 -21.45747
7.6511011 -7.651103 -21.063414
7.722219 -8.6874981 -20.618929
7.8022528 -9.7528172 -20.118713
7.9034467 -10.867239 -19.486256
8.0220947 -12.033143 -18.744707
8.356143 -13.578732 -16.656908
8.7402649 -15.295465 -14.256139
9.1613722 -17.177574 -11.624221
9.6251831 -19.250366 -8.7254009
9.9561653 16.593609 -13.570767
9.5912018 14.919645 -15.598342
9.3181276 13.459517 -17.115423
9.1494656 12.199287 -18.052427
8.988308 10.985708 -18.94775
8.8759012 9.862114 -19.572231
8.7675705 8.7675686 -20.174067
8.6825743 7.7178421 -20.646275
8.62117 6.7053533 -20.987408
8.5613365 5.7075548 -21.319813
8.516428 4.731349 -21.569305
8.4823589 3.7699385 -21.758579
8.4485369 2.8161783 -21.94648
8.4274206 1.8727598 -22.063791
8.4241123 0.93601131 -22.082172
8.4208298 -0 -22.100407
8.4205847 -0.9356184 -22.101765
8.4371424 -1.8749228 -22.009785
8.4537897 -2.8179302 -21.917301
8.4746656 -3.7665167 -21.801323
8.5163279 -4.7312942 -21.569862
8.5621214 -5.7080789 -21.315454
8.6215811 -6.7056756 -20.985126
8.6872349 -7.7219896 -20.620375
8.773839 -8.773838 -20.139248
8.8751669 -9.8612957 -19.576313
8.9966278 -10.995881 -18.901531
9.2299957 -12.306661 -17.605042
9.6452427 -13.932015 -15.298115
10.100916 -15.712535 -12.766598
10.601663 -17.669437 -9.9846745
11.607178 17.410765 -10.84691
10.915696 15.281972 -14.304315
10.568386 13.7389 -16.040869
10.330443 12.396533 -17.230577
10.12437 11.136806 -18.26095
9.99436 9.99436 -18.911001
9.869976 8.8829765 -19.532915
9.7676163 7.8140903 -20.044714
9.6885166 6.78196 -20.440212
9.6118927 5.7671347 -20.82333
9.5554428 4.7777185 -21.105583
9.5196314 3.8078527 -21.284641
9.484086 2.8452282 -21.46236
9.4617243 1.8923464 -21.574177
9.4494171 0.94494152 -21.635708
9.439827 -1.9073486e-06 -21.683662
9.445673 -0.94456959 -21.654434
9.4662609 -1.8932543 -21.551491
9.4887838 -2.8466339 -21.438873
9.5196877 -3.8078737 -21.284357
9.5679426 -4.7839708 -21.043085
9.6166897 -5.7700152 -20.799351
9.6828613 -6.7780061 -20.468491
9.7695742 -7.8156581 -20.034927
9.8701277 -8.8831139 -19.532158
9.994173 -9.9941759 -18.911928
10.142653 -11.156919 -18.169533
10.517168 -12.620604 -16.296957
11.003514 -14.304567 -13.865224
11.537808 -16.152933 -11.193751
12.127003 -18.190506 -8.2477789
12.491718 15.898552 -12.102259
11.933841 14.103625 -14.638066
11.60712 12.66231 -16.123167
11.35343 11.353428 -17.2763
11.169273 10.153884 -18.113371
11.003534 9.0028906 -18.86673
10.886589 7.9175177 -19.398302
10.795821 6.8700671 -19.810884
10.708109 5.8407841 -20.209576
10.645383 4.8388071 -20.494694
10.592697 3.8518887 -20.734173
10.544016 2.8756409 -20.95545
10.523079 1.9132853 -21.050621
10.512673 0.9556942 -21.097923
10.503346 -0 -21.14031
10.510675 -0.95551777 -21.107002
10.528242 -1.9142275 -21.027145
10.550803 -2.87749 -20.924599
10.593078 -3.8520317 -20.732441
10.652975 -4.8422618 -20.460182
10.714299 -5.8441625 -20.181438
10.791444 -6.8672824 -19.830776
10.891445 -7.9210525 -19.376226
11.015278 -9.0124989 -18.813351
11.179361 -10.163055 -18.067518
11.356635 -11.356634 -17.261732
11.87169 -12.950935 -14.920569
12.436905 -14.698163 -12.351406
13.05762 -16.618792 -9.5299768
13.573159 14.704256 -12.327965
13.023872 13.023871 -14.616661
12.660028 11.605024 -16.132677
12.426928 10.355773 -17.103928
12.239071 9.1793022 -17.886665
12.079209 8.052803 -18.552759
11.961804 6.9777174 -19.041943
11.846661 5.9233284 -19.521715
11.771659 4.9048557 -19.834217
11.717228 3.9057436 -20.061012
11.663263 2.9158144 -20.285866
11.635537 1.9392548 -20.40139
11.614576 0.9678812 -20.488726
11.603584 -0 -20.534531
11.616323 -0.96802902 -20.481449
11.640377 -1.9400616 -20.381224
11.667527 -2.9168816 -20.268099
11.72146 -3.9071546 -20.043379
11.783944 -4.909977 -19.783031
11.849168 -5.9245863 -19.511265
11.957397 -6.9751482 -19.060307
12.081892 -8.0545959 -18.54158
12.247688 -9.1857672 -17.850763
12.438736 -10.365617 -17.054729
12.707311 -11.648368 -15.93567
13.299481 -13.29948 -13.468292
13.951406 -15.114023 -10.751933
14.777279 13.640564 -12.047107
14.173148 11.992661 -14.37069
13.8122 10.624771 -15.758949
13.554754 9.3840618 -16.749125
13.333832 8.2054348 -17.598827
13.201509 7.1085019 -18.107763
13.071827 6.0331507 -18.606537
12.975863 4.9907174 -18.975628
12.898813 3.968864 -19.271976
12.827586 2.9602108 -19.545929
12.797726 1.9688778 -19.660778
12.781851 0.98321724 -19.721828
12.766172 -3.8146973e-06 -19.782135
12.782125 -0.98323917 -19.720779
12.804227 -1.969883 -19.635771
12.831797 -2.9611826 -19.529736
12.903427 -3.9702854 -19.25423
12.986255 -4.9947157 -18.935661
13.072154 -6.0333018 -18.605284
13.197761 -7.1064858 -18.122181
13.354815 -8.2183485 -17.518124
13.56196 -9.3890514 -16.721407
13.82265 -10.632809 -15.718757
14.185642 -12.003236 -14.322633
14.807666 -13.668612 -11.930233
16.069511 12.626041 -11.491683
15.426704 11.019073 -13.787424
15.029737 9.661972 -15.205167
14.74794 8.427392 -16.211584
14.559645 7.2798228 -16.884064
14.387251 6.1659641 -17.499756
14.252402 5.0901418 -17.981361
14.169304 4.0483727 -18.278141
14.091397 3.0195856 -18.556377
14.048163 2.0068798 -18.710783
14.018005 1.0012846 -18.818491
13.99332 9.5367432e-07 -18.906651
14.015477 -1.0011072 -18.827522
14.05443 -2.0077782 -18.688404
14.093557 -3.0200491 -18.548666
14.176481 -4.0504241 -18.252508
14.272132 -5.0971909 -17.910898
14.389182 -6.166791 -17.492863
14.547093 -7.2735481 -16.928892
14.764806 -8.4370298 -16.151342
15.052031 -9.6763058 -15.125545
15.448497 -11.03464 -13.709595
16.228626 -12.751064 -10.923419
16.833332 10.099998 -12.771686
16.415192 8.7547684 -14.165489
16.081135 7.5045276 -15.279013
15.842227 6.3368902 -16.075375
15.664513 5.2215047 -16.667751
15.553129 4.147501 -17.039034
15.451077 3.0902128 -17.379204
15.388672 2.0518203 -17.587223
15.367901 1.0245237 -17.65646
15.348063 9.5367432e-07 -17.722584
15.366237 -1.0244141 -17.662006
15.402077 -2.0536118 -17.542543
15.458401 -3.09168 -17.354794
15.570084 -4.1520219 -16.982513
15.697317 -5.2324386 -16.558407
15.855495 -6.3421993 -16.031145
16.082314 -7.5050783 -15.275087
16.443037 -8.7696199 -14.072674
16.939657 -10.163795 -12.417271
18.832235 9.4161167 -10.032063
18.043642 7.8940935 -12.496413
17.600748 6.6002817 -13.880455
17.334181 5.4169288 -14.713484
17.151781 4.2879472 -15.283478
17.009066 3.1891975 -15.72947
16.895214 2.1119022 -16.085251
16.873678 1.0546064 -16.152555
16.860252 -0 -16.194506
16.874229 -1.0546422 -16.150826
16.938509 -2.1173139 -15.949954
17.009459 -3.1892743 -15.728241
17.146471 -4.2866182 -15.300076
17.342997 -5.4196858 -14.685934
17.619961 -6.6074839 -13.820415
18.040861 -7.8928781 -12.505108
19.156477 -9.5782394 -9.0188046
19.747444 5.8080697 -10.802081
19.198818 4.517365 -12.415683
18.963905 3.3465724 -13.106604
18.776529 2.2090025 -13.657711
18.684574 1.099092 -13.928167
18.700796 9.5367432e-07 -13.880456
18.717047 -1.1010027 -13.832661
18.803698 -2.2122011 -13.577802
18.960751 -3.346015 -13.115882
19.219658 -4.522274 -12.35439
19.761139 -5.812099 -10.761801
