# .PCD v0.7 - Point Cloud Data file format
VERSION 0.7
FIELDS x y z
SIZE 4 4 4
TYPE F F F
COUNT 1 1 1
WIDTH 1057
HEIGHT 1
VIEWPOINT 0 0 0 1 0 0 0
POINTS 1057
DATA ascii
-23.007668 -4.7683716e-07 -8.3363018
-21.571741 7.1905761 -8.9612942
-20.796015 5.7766685 -11.116091
-20.340153 4.5200329 -12.382378
-20.12603 3.3543367 -12.977156
-19.944689 2.2160778 -13.480881
-19.880486 1.1044683 -13.659227
-19.873869 -3.3378601e-06 -13.677607
-19.903574 -1.1057544 -13.595097
-19.984941 -2.220551 -13.369067
-20.111147 -3.3518581 -13.018497
-20.432486 -4.540556 -12.125892
-20.847654 -5.7910175 -10.972643
-19.845507 9.3390617 -10.513658
-19.216215 7.9125557 -12.364516
-18.812038 6.6395411 -13.553272
-18.532923 5.4508567 -14.374199
-18.330805 4.313127 -14.968666
-18.208061 3.2131848 -15.329678
-18.093887 2.1286922 -15.665483
-18.067774 1.0628099 -15.742284
-18.053049 -2.3841858e-06 -15.785593
-18.069862 -1.062932 -15.736141
-18.12788 -2.1326923 -15.565502
-18.186211 -3.2093334 -15.393944
-18.355282 -4.3188906 -14.896675
-18.566004 -5.4605927 -14.276902
-18.831335 -6.6463547 -13.49652
-19.280823 -7.9391637 -12.174496
-20.107941 -9.4625635 -9.7417917
-19.049253 11.905782 -9.3538809
-18.016747 10.13442 -12.580459
-17.61062 8.8053093 -13.849604
-17.278109 7.5591726 -14.888704
-17.054922 6.3955941 -15.586163
-16.863676 5.269897 -16.183809
-16.742498 4.1856246 -16.56249
-16.644703 3.1208816 -16.868099
-16.573666 2.0717044 -17.090096
-16.541559 1.0338469 -17.190422
-16.516411 -9.5367432e-07 -17.269016
-16.531734 -1.0332346 -17.22113
-16.573717 -2.0717158 -17.089928
-16.637175 -3.1194739 -16.891626
-16.756662 -4.189167 -16.518225
-16.883471 -5.2760839 -16.12195
-17.043575 -6.3913403 -15.621623
-17.321352 -7.5780916 -14.753572
-17.631365 -8.8156843 -13.784783
-18.165155 -10.217902 -12.116681
-17.268639 12.663667 -11.320667
-16.662569 11.10838 -13.340903
-16.23358 9.7401457 -14.770864
-15.931789 8.496954 -15.776834
-15.722367 7.3371043 -16.474903
-15.557188 6.2228742 -17.025501
-15.41511 5.1383696 -17.499096
-15.325553 4.0868139 -17.797623
-15.237029 3.0474048 -18.092697
-15.18622 2.0248289 -18.262064
-15.165324 1.0110178 -18.331717
-15.148952 -0 -18.386286
-15.171662 -1.0114422 -18.310585
-15.209713 -2.0279613 -18.18375
-15.25176 -3.0503521 -18.043594
-15.335386 -4.089437 -17.764843
-15.437342 -5.1457815 -17.42499
-15.578375 -6.2313495 -16.95488
-15.759117 -7.3542571 -16.352407
-15.957173 -8.5104904 -15.69222
-16.284674 -9.7708063 -14.600554
-16.680302 -11.120201 -13.281793
-17.414598 -12.770702 -10.834138
-16.019176 13.730721 -11.671453
-15.38346 12.087002 -13.941868
-15.00541 10.718148 -15.292048
-14.742921 9.4775925 -16.229506
-14.521729 8.2981291 -17.019482
-14.357406 7.1787028 -17.606348
-14.225852 6.0967941 -18.076181
-14.115236 5.0411544 -18.471237
-14.041203 4.0117707 -18.735645
-13.97353 2.9943266 -18.977333
-13.937178 1.9910259 -19.107159
-13.911573 0.99368382 -19.198605
-13.8945 -1.9073486e-06 -19.259588
-13.911272 -0.99366188 -19.199678
-13.928088 -1.9897299 -19.139626
-13.970843 -2.9937515 -18.986927
-14.048427 -4.013834 -18.709843
-14.131173 -5.0468483 -18.41432
-14.232682 -6.0997224 -18.051788
-14.376281 -7.1881413 -17.538939
-14.54545 -8.3116856 -16.934763
-14.766743 -9.4929085 -16.144432
-15.05188 -10.751344 -15.126085
-15.442831 -12.133653 -13.729827
-16.105528 -13.804743 -11.363054
-14.792954 14.792951 -11.98682
-14.234727 13.139745 -14.133844
-13.873713 11.739294 -15.522361
-13.57644 10.443415 -16.665718
-13.388662 9.2690744 -17.387939
-13.214852 8.1322174 -18.056442
-13.093222 7.0501966 -18.524248
-12.976991 5.9893765 -18.971294
-12.895076 4.9596457 -19.28635
-12.828057 3.947093 -19.544113
-12.763213 2.9453573 -19.793516
-12.739661 1.9599466 -19.884102
-12.723427 0.97872257 -19.946537
-12.713644 -9.5367432e-07 -19.984161
-12.729234 -0.97917271 -19.924206
-12.751153 -1.9617186 -19.839897
-12.78435 -2.9502335 -19.712215
-12.836519 -3.9496989 -19.511568
-12.902472 -4.9624887 -19.257902
-12.998198 -5.9991674 -18.889727
-13.110866 -7.0596976 -18.45639
-13.227803 -8.1401882 -18.006626
-13.418593 -9.2897959 -17.272821
-13.629425 -10.484174 -16.461929
-13.905391 -11.766101 -15.400518
-14.280596 -13.182091 -13.957429
-14.925362 -14.925364 -11.477558
-13.797832 16.097471 -11.391826
-13.165281 14.262383 -14.02746
-12.780481 12.780479 -15.630788
-12.525677 11.481868 -16.692478
-12.318949 10.26579 -17.553843
-12.149589 9.1121883 -18.259516
-12.021007 8.0140047 -18.795271
-11.906596 6.9455142 -19.271976
-11.819794 5.909894 -19.633659
-11.747131 4.8946385 -19.936417
-11.686911 3.8956385 -20.187332
-11.648628 2.912158 -20.346846
-11.620343 1.9367218 -20.464699
-11.596128 0.96634388 -20.565599
-11.588959 -0 -20.595469
-11.595187 -0.96626663 -20.569515
-11.614926 -1.9358206 -20.487274
-11.649472 -2.9123688 -20.34333
-11.697283 -3.8990946 -20.144117
-11.749919 -4.8957992 -19.924801
-11.822398 -5.911201 -19.622805
-11.921886 -6.9544377 -19.208267
-12.03033 -8.0202217 -18.75642
-12.173677 -9.1302595 -18.159142
-12.336737 -10.280614 -17.479733
-12.560998 -11.514251 -16.545303
-12.823428 -12.823427 -15.451841
-13.225561 -14.32769 -13.776291
-13.903291 -16.220509 -10.952421
-12.898337 17.588642 -10.25399
-12.131741 15.440394 -13.738523
-11.767469 13.907009 -15.394299
-11.491523 12.536207 -16.6486
-11.281825 11.281826 -17.60177
-11.108012 10.098191 -18.39183
-10.974744 8.9793358 -18.997599
-10.865938 7.9024997 -19.492168
-10.765944 6.8510547 -19.946686
-10.698465 5.8355269 -20.25341
-10.632562 4.8329821 -20.552971
-10.588705 3.8504372 -20.752319
-10.558891 2.8796968 -20.887836
-10.530716 1.9146748 -21.015902
-10.518264 0.95620441 -21.072506
-10.518419 -1.9073486e-06 -21.071796
-10.52286 -0.95662308 -21.051613
-10.528337 -1.9142427 -21.02672
-10.557348 -2.8792782 -20.894852
-10.599517 -3.8543701 -20.703176
-10.646663 -4.8393946 -20.488874
-10.715888 -5.8450322 -20.174213
-10.788188 -6.865211 -19.845579
-10.870309 -7.9056792 -19.472301
-11.001175 -9.0009613 -18.877455
-11.135265 -10.12297 -18.267956
-11.303692 -11.303691 -17.50238
-11.527521 -12.57548 -16.484974
-11.801009 -13.946648 -15.241847
-12.210072 -15.54009 -13.382472
-13.168706 -17.957325 -9.0250435
-11.205538 16.808308 -12.855105
-10.78196 15.094741 -14.973002
-10.488582 13.635156 -16.439892
-10.276608 12.33193 -17.499752
-10.120708 11.132778 -18.279255
-9.9765759 9.9765759 -18.999916
-9.8720951 8.8848858 -19.52232
-9.7752123 7.820168 -20.006739
-9.6893625 6.7825513 -20.435982
-9.6212893 5.7727723 -20.77635
-9.574604 4.7873011 -21.009777
-9.5308514 3.8123398 -21.228535
-9.5010262 2.8503065 -21.377663
-9.477747 1.8955479 -21.494061
-9.4693241 0.94693089 -21.536171
-9.4694643 9.5367432e-07 -21.535477
-9.4718046 -0.94717979 -21.523771
-9.4910507 -1.8982105 -21.427542
-9.5160847 -2.8548279 -21.302372
-9.5437403 -3.8174973 -21.164097
-9.5750027 -4.7875028 -21.007786
-9.6394167 -5.783649 -20.685715
-9.7073364 -6.7951345 -20.346111
-9.7841864 -7.8273501 -19.961861
-9.8769121 -8.8892231 -19.498234
-9.9935522 -9.9935541 -18.915031
-10.139712 -11.153686 -18.184233
-10.300917 -12.361099 -17.378212
-10.532932 -13.692812 -16.218136
-10.812896 -15.138055 -14.818316
-11.262516 -16.893772 -12.570216
-10.362926 18.422979 -11.310987
-9.8158035 16.359673 -14.350554
-9.525342 14.817197 -15.964231
-9.3133936 13.452681 -17.14172
-9.1366224 12.182161 -18.123783
-9.0023603 11.002884 -18.869686
-8.8830328 9.8700333 -19.532612
-8.7937107 8.7937088 -20.028849
-8.7069521 7.7395105 -20.510841
-8.6422892 6.7217798 -20.870079
-8.5858517 5.7238998 -21.183617
-8.5437346 4.74652 -21.417601
-8.5066986 3.780756 -21.62336
-8.4841232 2.828042 -21.748777
-8.4707985 1.8823977 -21.822803
-8.462533 0.94027996 -21.868727
-8.454258 -2.8610229e-06 -21.914698
-8.4536409 -0.93929482 -21.918123
-8.4710217 -1.8824511 -21.821564
-8.492631 -2.8308754 -21.701513
-8.5168295 -3.7852592 -21.567081
-8.5573406 -4.7540784 -21.342016
-8.6009455 -5.7339668 -21.099766
-8.6510134 -6.7285671 -20.821608
-8.7227116 -7.753521 -20.42329
-8.8045902 -8.804594 -19.968405
-8.8899584 -9.8777304 -19.494141
-9.0170736 -11.020869 -18.787947
-9.1570454 -12.209391 -18.010326
-9.3297129 -13.476254 -17.051058
-9.5594196 -14.870211 -15.774905
-9.8875446 -16.47924 -13.951994
-10.484198 -18.638573 -10.637257
-8.92416 17.848318 -13.106799
-8.5860434 16.098831 -15.220023
-8.3462553 14.605946 -16.7187
-8.1724091 13.280163 -17.805241
-8.0312033 12.046806 -18.687775
-7.9207096 10.890974 -19.378359
-7.8267784 9.783473 -19.965433
-7.7498097 8.7185364 -20.446484
-7.679491 7.6794887 -20.885975
-7.6282506 6.6747189 -21.20623
-7.5776892 5.6832666 -21.52224
-7.5411777 4.7132339 -21.750435
-7.5118918 3.7559443 -21.933468
-7.4861617 2.8073111 -22.094284
-7.4778776 1.8694696 -22.146061
-7.4713674 0.93391991 -22.186749
-7.464869 -0 -22.227367
-7.4710207 -0.93387985 -22.188919
-7.4804416 -1.8701105 -22.130035
-7.4899077 -2.8087177 -22.070875
-7.516366 -3.7581854 -21.905512
-7.5537891 -4.7211151 -21.671614
-7.5918779 -5.6939077 -21.433559
-7.6306019 -6.6767769 -21.191534
-7.6877003 -7.6877027 -20.834667
-7.7617254 -8.7319403 -20.372015
-7.8401971 -9.8002472 -19.881565
-7.9363365 -10.912462 -19.280697
-8.0518494 -12.077773 -18.558739
-8.1992683 -13.323811 -17.637373
-8.3714123 -14.649972 -16.56147
-8.6198778 -16.162273 -15.008558
-8.9981728 -17.996347 -12.644217
-8.1401148 19.768847 -10.739121
-7.6681409 17.527176 -14.110363
-7.4062853 15.870607 -15.980759
-7.2214589 14.442916 -17.300947
-7.0857882 13.159319 -18.270023
-6.9729676 11.953655 -19.075884
-6.8803492 10.811977 -19.737446
-6.8002434 9.7146339 -20.309631
-6.7355471 8.6599865 -20.771748
-6.6787367 7.6328387 -21.177538
-6.633348 6.6333475 -21.501736
-6.5947056 5.6526031 -21.777756
-6.5633116 4.6880789 -22.001999
-6.5371046 3.7354898 -22.189186
-6.5154572 2.7923393 -22.343817
-6.5036263 1.8581772 -22.428326
-6.4942145 0.92774677 -22.495552
-6.4915195 -1.9073486e-06 -22.514801
-6.499929 -0.92856407 -22.454731
-6.5089064 -1.8596878 -22.39061
-6.518436 -2.7936153 -22.32254
-6.5403504 -3.7373447 -22.166006
-6.5640578 -4.688611 -21.996674
-6.5968108 -5.6544113 -21.762718
-6.6399961 -6.6399951 -21.454258
-6.6887503 -7.6442876 -21.106009
-6.7382264 -8.6634369 -20.752605
-6.8077435 -9.7253475 -20.256052
-6.8905563 -10.828018 -19.664537
-6.9769197 -11.960436 -19.047657
-7.103394 -13.192015 -18.144266
-7.2411895 -14.482376 -17.160017
-7.4388123 -15.940311 -15.748425
-7.7010646 -17.602436 -13.875192
-8.2726564 -20.090733 -9.7923965
-6.7940536 19.249819 -12.265682
-6.468287 17.248766 -14.980403
-6.2739282 15.684822 -16.600058
-6.1385813 14.323355 -17.727953
-6.0279527 13.060561 -18.649857
-5.9309711 11.861942 -19.458035
-5.8572812 10.738348 -20.072119
-5.788053 9.6467533 -20.649019
-5.7384624 8.6076946 -21.062277
-5.6903515 7.5871348 -21.4632
-5.6536312 6.5959039 -21.769203
-5.6234021 5.6234007 -22.021114
-5.5958123 4.6631746 -22.251026
-5.576436 3.7176228 -22.412495
-5.5610027 2.7804995 -22.541107
-5.5502615 1.8500862 -22.630619
-5.5406899 0.92344952 -22.710379
-5.538878 -3.8146973e-06 -22.725479
-5.541533 -0.92359066 -22.703358
-5.5491447 -1.8497171 -22.639923
-5.562108 -2.7810526 -22.531897
-5.5807228 -3.7204828 -22.37677
-5.5996418 -4.6663694 -22.219112
-5.6222391 -5.6222372 -22.030802
-5.6607084 -6.6041617 -21.710228
-5.7021308 -7.6028419 -21.36504
-5.744164 -8.6162462 -21.014767
-5.7983074 -9.6638432 -20.563568
-5.8684068 -10.758747 -19.979404
-5.945178 -11.890359 -19.339645
-6.0369043 -13.07996 -18.57526
-6.155057 -14.361798 -17.590656
-6.3008699 -15.752174 -16.375549
-6.511343 -17.363581 -14.621603
-6.8544922 -19.421061 -11.762028
-5.5558958 18.890043 -13.323838
-5.3344865 17.070358 -15.537928
-5.1873178 15.561951 -17.009621
-5.0735331 14.20589 -18.147469
-4.9891076 12.971679 -18.99172
-4.91467 11.795209 -19.736094
-4.8563051 10.683872 -20.319744
-4.802031 9.6040602 -20.862486
-4.761055 8.5698977 -21.272247
-4.7215061 7.5544109 -21.667732
-4.6917157 6.5683994 -21.965639
-4.664772 5.5977249 -22.235075
-4.6405573 4.6405544 -22.477226
-4.6273456 3.7018747 -22.609337
-4.6146064 2.7687645 -22.736732
-4.6051769 1.8420706 -22.831024
-4.6021347 0.92042542 -22.86145
-4.600595 -0 -22.876846
-4.6018448 -0.92037201 -22.864346
-4.6035304 -1.8414135 -22.847494
-4.6154404 -2.7692661 -22.72839
-4.6314478 -3.7051582 -22.568316
-4.6475806 -4.6475792 -22.406992
-4.6704855 -5.6045847 -22.17794
-4.6957412 -6.5740371 -21.925386
-4.7265406 -7.5624681 -21.617392
-4.7666678 -8.5800028 -21.216118
-4.8129039 -9.6258106 -20.753757
-4.8600454 -10.692101 -20.282343
-4.9260445 -11.822505 -19.622353
-5.001451 -13.003774 -18.868286
-5.0887432 -14.248481 -17.995365
-5.2096539 -15.628963 -16.786255
-5.3648105 -17.167391 -15.234694
-5.5996299 -19.038742 -12.886502
-4.7476997 21.364649 -9.5365467
-4.396235 18.684 -13.929854
-4.2357979 16.94319 -15.935323
-4.1255693 15.470884 -17.313181
-4.0406461 14.142262 -18.374714
-3.9754841 12.920323 -19.189243
-3.916199 11.748594 -19.930309
-3.8700125 10.642534 -20.507641
-3.8291349 9.5728359 -21.018608
-3.7953012 8.5394268 -21.441532
-3.7666612 7.5333233 -21.79953
-3.7420907 6.5486565 -22.106665
-3.7207618 5.5811424 -22.373274
-3.7040496 4.6300592 -22.582174
-3.6913359 3.6913328 -22.741098
-3.6787198 2.759037 -22.8988
-3.6717629 1.8358784 -22.98576
-3.6699312 0.91748238 -23.008657
-3.6684566 9.5367432e-07 -23.027092
-3.6695647 -0.91739082 -23.013233
-3.6753063 -1.8376541 -22.941467
-3.6825714 -2.7619286 -22.850655
-3.6903622 -3.6903591 -22.753265
-3.7048385 -4.6310482 -22.572315
-3.7247019 -5.5870528 -22.32402
-3.7451062 -6.5539398 -22.068966
-3.7666502 -7.5333009 -21.799669
-3.7991991 -8.5481968 -21.392807
-3.836004 -9.5900097 -20.932745
-3.8735175 -10.652176 -20.463827
-3.9224634 -11.767388 -19.852005
-3.9834061 -12.946074 -19.090218
-4.0528588 -14.185005 -18.222063
-4.1425762 -15.534662 -17.100592
-4.2573285 -17.029316 -15.666186
-4.4318938 -18.835548 -13.484122
-3.4905503 20.9433 -10.706959
-3.2709148 18.535183 -14.367551
-3.160428 16.855616 -16.208996
-3.0795896 15.397949 -17.556297
-3.0192168 14.089674 -18.562517
-2.9707325 12.873173 -19.37059
-2.9269538 11.707813 -20.100235
-2.8930032 10.607677 -20.666077
-2.8625531 9.5418434 -21.173576
-2.8377414 8.5132236 -21.587109
-2.8171239 7.5123305 -21.930731
-2.7981575 6.5290327 -22.24684
-2.7846556 5.5693102 -22.47187
-2.7720313 4.6200552 -22.682274
-2.762284 3.6830444 -22.844727
-2.7548122 2.7548103 -22.969257
-2.7497282 1.8331528 -23.053993
-2.7458336 0.91528034 -23.1189
-2.7423785 -9.5367432e-07 -23.176489
-2.7465756 -0.91552734 -23.106535
-2.7508564 -1.8339062 -23.035191
-2.7562122 -2.7562141 -22.945929
-2.7620707 -3.6827602 -22.848284
-2.7717526 -4.6195898 -22.686918
-2.7863593 -5.5727181 -22.443476
-2.8017139 -6.5373325 -22.187565
-2.820564 -7.5215054 -21.873396
-2.8417003 -8.5251026 -21.521124
-2.8669562 -9.5565205 -21.100191
-2.898649 -10.628382 -20.571981
-2.9343371 -11.737349 -19.977177
-2.9749796 -12.89158 -19.299801
-3.0292869 -14.136673 -18.394684
-3.0882981 -15.441489 -17.411163
-3.1763885 -16.940739 -15.942988
-3.2963545 -18.67934 -13.943554
-3.5413277 -21.247967 -9.8606663
-2.305289 20.747601 -11.250572
-2.1724551 18.465868 -14.571423
-2.0983045 16.786434 -16.425186
-2.0472286 15.354216 -17.702082
-2.0072122 14.050484 -18.702492
-1.9746494 12.835218 -19.516565
-1.9466226 11.679735 -20.21723
-1.9255531 10.590541 -20.743967
-1.9054931 9.5274649 -21.245468
-1.8891568 8.5012045 -21.653877
-1.8748822 7.4995298 -22.01074
-1.8621516 6.5175295 -22.329006
-1.852574 5.5577183 -22.568451
-1.8441291 4.610321 -22.779568
-1.8383354 3.676671 -22.924412
-1.8342177 2.7513256 -23.027351
-1.8306963 1.8306961 -23.115387
-1.8281069 0.91405201 -23.180122
-1.8275204 9.5367432e-07 -23.194784
-1.8281901 -0.91409588 -23.178043
-1.8301706 -1.8301706 -23.128532
-1.8336743 -2.7505112 -23.040936
-1.8386768 -3.6773548 -22.915876
-1.844975 -4.6124363 -22.758423
-1.8534914 -5.5604763 -22.545509
-1.8636074 -6.5226259 -22.29261
-1.8774416 -7.5097661 -21.946758
-1.8916386 -8.5123749 -21.591833
-1.9067011 -9.5335045 -21.215267
-1.9288884 -10.608887 -20.660583
-1.9526284 -11.715773 -20.067083
-1.9782726 -12.858772 -19.425983
-2.0146258 -14.102383 -18.517153
-2.0551708 -15.41378 -17.503529
-2.1110775 -16.88862 -16.10586
-2.1869001 -18.58865 -14.210297
-2.3352737 -21.017466 -10.500952
-1.1481048 20.665886 -11.477553
-1.0826719 18.405418 -14.749203
-1.0485677 16.777081 -16.454416
-1.0224305 15.336457 -17.761269
-1.002281 14.031929 -18.768753
-0.98632908 12.822276 -19.566343
-0.97277886 11.673346 -20.243855
-0.96207428 10.582817 -20.779079
-0.95248151 9.5248146 -21.25872
-0.94404918 8.4964399 -21.680338
-0.93698257 7.4958601 -22.033669
-0.93098694 6.5169067 -22.33345
-0.92620164 5.5572081 -22.572716
-0.92167377 4.6083679 -22.79911
-0.91854072 3.6741619 -22.955761
-0.91594994 2.7478485 -23.085297
-0.91412359 1.8282471 -23.176617
-0.91372913 0.91372776 -23.196342
-0.91355789 9.5367432e-07 -23.204903
-0.91387433 -0.91387558 -23.189077
-0.91421193 -1.8284264 -23.172203
-0.91606468 -2.7481909 -23.079561
-0.91867971 -3.6747179 -22.948814
-0.92190605 -4.6095314 -22.787491
-0.92625493 -5.5575309 -22.570049
-0.93118626 -6.5183039 -22.323483
-0.93791646 -7.5033345 -21.986971
-0.94505274 -8.505475 -21.630159
-0.95362735 -9.5362749 -21.201426
-0.96309644 -10.594059 -20.727978
-0.97493297 -11.699198 -20.136147
-0.98935217 -12.861577 -19.415188
-1.0056288 -14.078804 -18.601355
-1.027087 -15.406304 -17.528452
-1.0525423 -16.840677 -16.255684
-1.0905303 -18.539013 -14.356284
-1.1555001 -20.799004 -11.107792
0 20.588032 -11.693818
0 18.434322 -14.664203
0 16.775879 -16.45817
0 15.344306 -17.735104
0 14.036915 -18.750954
0 12.823692 -19.5609
0 11.676699 -20.229885
0 10.575103 -20.814144
0 9.5227566 -21.269007
0 8.4916849 -21.706768
0 7.4967113 -22.028347
0 6.5176449 -22.328197
0 5.5566826 -22.577114
0 4.6116982 -22.765825
0 3.6764488 -22.927166
0 2.7487946 -23.069519
0 1.8280745 -23.180901
0 0.91352844 -23.206326
0 -2.8610229e-06 -23.214886
0 -0.91365242 -23.200233
0 -1.828949 -23.159084
0 -2.7488585 -23.068476
0 -3.6750546 -22.94462
0 -4.6103745 -22.779041
0 -5.5578332 -22.567516
0 -6.518774 -22.320116
0 -7.4987674 -22.015516
0 -8.5033045 -21.642231
0 -9.539072 -21.187437
0 -10.59495 -20.723942
0 -11.698238 -20.140133
0 -12.865731 -19.399216
0 -14.06922 -18.635582
0 -15.408419 -17.521402
0 -16.845251 -16.241394
0 -18.55316 -14.314678
0 -20.930668 -10.742059
1.1550107 20.790192 -11.13226
1.0865061 18.470604 -14.557487
1.0511397 16.818233 -16.325815
1.0247257 15.370888 -17.646507
1.0043515 14.060921 -18.665218
0.98754281 12.838057 -19.505657
0.97423655 11.690834 -20.170971
0.96250874 10.587595 -20.757357
0.95288199 9.5288191 -21.238695
0.94439542 8.4995594 -21.663023
0.93756944 7.5005541 -22.004322
0.93127787 6.5189457 -22.318901
0.92671108 5.5602655 -22.547245
0.92300332 4.6150188 -22.732628
0.91968256 3.6787271 -22.89867
0.9170357 2.7511063 -23.03101
0.91477841 1.8295546 -23.143875
0.91401976 0.91401863 -23.18181
0.91327274 -1.9073486e-06 -23.219158
0.91407424 -0.91407394 -23.179081
0.91507488 -1.8301506 -23.129053
0.91697043 -2.7509127 -23.034277
0.9195801 -3.6783209 -22.903791
0.92295575 -4.6147785 -22.735012
0.92722899 -5.563374 -22.521347
0.93221396 -6.5254998 -22.272099
0.93838143 -7.5070534 -21.963724
0.94572479 -8.5115242 -21.596558
0.95496303 -9.5496311 -21.134645
0.96460038 -10.610601 -20.652781
0.97629946 -11.715595 -20.067823
0.99085087 -12.881063 -19.340254
1.0078428 -14.1098 -18.490656
1.0288435 -15.432656 -17.440617
1.0564674 -16.903481 -16.059427
1.0956837 -18.626625 -14.098614
1.1707504 -21.073509 -10.345276
2.3380988 21.042885 -10.430331
2.1862464 18.583092 -14.226639
2.1101086 16.880865 -16.130083
2.0571675 15.428755 -17.453608
2.0147264 14.103085 -18.514633
1.9808295 12.875392 -19.362057
1.9522969 11.713781 -20.075377
1.9294435 10.611937 -20.646708
1.9086461 9.5432281 -21.166645
1.892946 8.5182552 -21.559149
1.8778086 7.5112352 -21.93758
1.8668343 6.5339184 -22.211941
1.8575193 5.5725555 -22.444817
1.848525 4.6213112 -22.669674
1.8411119 3.6822224 -22.855
1.8367826 2.7551727 -22.963232
1.8327188 1.8327179 -23.064823
1.831358 0.91567707 -23.09885
1.8303007 -1.9073486e-06 -23.125278
1.8315871 -0.91579342 -23.093115
1.8334548 -1.833457 -23.046421
1.8373646 -2.7560472 -22.948677
1.842266 -3.6845331 -22.826151
1.8493537 -4.6233845 -22.64896
1.8576318 -5.5728965 -22.442001
1.8680534 -6.5381875 -22.181465
1.880041 -7.520165 -21.881771
1.8951364 -8.5281124 -21.504391
1.9123206 -9.5616035 -21.074781
1.934227 -10.638251 -20.527122
1.9577481 -11.746487 -19.939096
1.9850937 -12.903111 -19.255453
2.0219924 -14.153946 -18.332985
2.0609813 -15.45736 -17.358259
2.1211164 -16.968933 -15.854888
2.2044339 -18.737686 -13.771952
2.3895547 -21.505991 -9.1439304
3.6104152 21.662491 -8.7092056
3.307693 18.743587 -13.754583
3.1849072 16.98617 -15.801006
3.1026886 15.513443 -17.171318
3.0366802 14.171174 -18.271458
2.9820828 12.922356 -19.181419
2.9397247 11.7589 -19.887384
2.9027972 10.643587 -20.502842
2.8734922 9.5783081 -20.991257
2.847265 8.5417938 -21.428379
2.8255498 7.5347967 -21.790298
2.8081353 6.5523129 -22.08054
2.7940681 5.5881367 -22.314993
2.7812943 4.6354914 -22.527891
2.7709889 3.6946516 -22.699642
2.762553 2.7625523 -22.840248
2.7555985 1.8370667 -22.956154
2.753406 0.9178009 -22.992699
2.7512326 -0 -23.028919
2.7535238 -0.91784382 -22.990734
2.7564719 -1.8376474 -22.941601
2.7627821 -2.762785 -22.83643
2.7703528 -3.6938057 -22.710249
2.7812464 -4.6354132 -22.528692
2.7936881 -5.5873742 -22.321327
2.8099008 -6.5564361 -22.051119
2.8280327 -7.5414209 -21.748917
2.8514779 -8.5544348 -21.358162
2.877269 -9.5908947 -20.928318
2.911042 -10.67382 -20.365431
2.946975 -11.787898 -19.766548
2.9900343 -12.956816 -19.048891
3.0460408 -14.214856 -18.115452
3.1116583 -15.558291 -17.021826
3.2020934 -17.077833 -15.514574
3.3338716 -18.891941 -13.318271
4.4763079 19.024307 -12.928947
4.2814283 17.125711 -15.364945
4.1645951 15.617231 -16.825354
4.0698876 14.244606 -18.009201
3.9978802 12.99311 -18.909294
3.9376171 11.812849 -19.662582
3.8880599 10.692163 -20.282051
3.8469977 9.6174946 -20.795326
3.8107042 8.5740852 -21.248993
3.7827325 7.5654626 -21.59864
3.7560117 6.5730209 -21.93265
3.7369962 5.6054916 -22.170347
3.7214394 4.6518002 -22.364803
3.7078266 3.7078238 -22.534969
3.6965084 2.7723789 -22.676437
3.6870644 1.8435335 -22.794487
3.6838148 0.92095375 -22.835112
3.6814446 -0 -22.864738
3.6843526 -0.92108917 -22.828388
3.6880999 -1.8440533 -22.781551
3.6966252 -2.7724695 -22.67498
3.7064066 -3.7064095 -22.552715
3.721493 -4.651866 -22.36413
3.7378314 -5.6067467 -22.159903
3.7606201 -6.5810885 -21.875042
3.7853017 -7.5706038 -21.566525
3.8194101 -8.5936718 -21.140169
3.8556395 -9.6390972 -20.687305
3.8962147 -10.71459 -20.180111
3.9496257 -11.848877 -19.512474
4.0087242 -13.028353 -18.773746
4.0839615 -14.293865 -17.833279
4.1782475 -15.668427 -16.654703
4.3076606 -17.230644 -15.037041
4.5117326 -19.174866 -12.486136
5.7040381 19.393728 -11.842415
5.4149628 17.327877 -14.733172
5.2471981 15.741591 -16.41082
5.1263051 14.353655 -17.619741
5.0320592 13.083355 -18.562201
4.9517536 11.884207 -19.365257
4.8856025 10.748325 -20.026772
4.8337226 9.6674442 -20.545567
4.7880569 8.6185017 -21.002228
4.7538114 7.6060967 -21.344685
4.7192354 6.6069283 -21.690443
4.6909499 5.6291399 -21.973301
4.6682229 4.6682243 -22.200565
4.651557 3.7212467 -22.367224
4.6382027 2.7829227 -22.500765
4.6270933 1.8508358 -22.611866
4.623158 0.92463112 -22.651215
4.6199059 -0 -22.683735
4.6239023 -0.92477894 -22.643776
4.6279984 -1.851202 -22.602818
4.6395807 -2.7837505 -22.486994
4.6520147 -3.7216139 -22.362654
4.671855 -4.6718569 -22.164246
4.6935358 -5.6322436 -21.947439
4.7224898 -6.6114855 -21.657898
4.7544012 -7.6070447 -21.338785
4.7992811 -8.6387081 -20.889984
4.8450313 -9.6900616 -20.43248
4.8953228 -10.769711 -19.929565
4.9677901 -11.922697 -19.204895
5.0436521 -13.113497 -18.446276
5.146801 -14.411045 -17.414787
5.2714181 -15.814256 -16.168617
5.4512105 -17.443874 -14.370692
5.7669816 -19.60774 -11.212979
7.0812006 20.063402 -9.8727884
6.5962672 17.590044 -13.913902
6.3697305 15.924328 -15.801706
6.2094479 14.48871 -17.137398
6.0900254 13.195054 -18.132586
5.9861307 11.972261 -18.998373
5.9041319 10.824242 -19.681696
5.8369374 9.7282286 -20.24165
5.7794433 8.6691628 -20.720772
5.7353945 7.6471906 -21.087843
5.6930022 6.6418333 -21.441111
5.6588006 5.6588001 -21.726128
5.6324239 4.6936865 -21.94593
5.6110973 3.7407322 -22.123653
5.5945802 2.7972898 -22.261295
5.5831275 1.8610411 -22.356733
5.5767097 0.92945004 -22.410213
5.5741825 -9.5367432e-07 -22.431274
5.5773706 -0.92956352 -22.404709
5.583951 -1.8613186 -22.349873
5.5965586 -2.7982798 -22.244808
5.6136584 -3.7424383 -22.10231
5.6366324 -4.697196 -21.910858
5.6654248 -5.6654263 -21.670919
5.7037811 -6.6544142 -21.351284
5.7435832 -7.6581092 -21.019604
5.7921157 -8.6881714 -20.615168
5.8525238 -9.7542076 -20.111767
5.92135 -10.855808 -19.538212
6.004149 -12.008297 -18.848225
6.109796 -13.237891 -17.967831
6.2314911 -14.540146 -16.953705
6.4048028 -16.012007 -15.509441
6.6510692 -17.736185 -13.45722
7.8749976 17.999992 -12.632814
7.5456271 16.169201 -14.985459
7.3300385 14.660076 -16.525377
7.1711617 13.317869 -17.660213
7.0751729 12.128865 -18.345844
6.992794 10.988676 -18.934263
6.9122906 9.8747005 -19.509291
6.8334532 8.7858677 -20.072416
6.7564149 7.7216144 -20.622694
6.6842847 6.6842833 -21.137905
6.646009 5.696579 -21.411297
6.6117187 4.7226543 -21.656233
6.5867038 3.7638292 -21.834908
6.5666022 2.8142567 -21.978495
6.5533261 1.8723803 -22.073324
6.5453105 0.93504333 -22.130577
6.5420413 9.5367432e-07 -22.153934
6.5458612 -0.93512344 -22.126644
6.5544324 -1.872695 -22.065426
6.5696278 -2.8155546 -21.956882
6.5905962 -3.7660551 -21.807108
6.6171174 -4.7265129 -21.61767
6.6547852 -5.7041039 -21.348616
6.7011061 -6.701107 -21.017752
6.748076 -7.7120872 -20.682251
6.8043718 -8.748476 -20.280142
6.8840499 -9.8343573 -19.711012
6.9656377 -10.946001 -19.128246
7.0706873 -12.121178 -18.377886
7.2020426 -13.375223 -17.439634
7.3648572 -14.729715 -16.276672
7.5862579 -16.256268 -14.695242
7.9382668 -18.144611 -12.180893
9.3560648 18.712128 -10.407392
8.8007956 16.50149 -13.877825
8.5090857 14.890897 -15.701013
8.3364992 13.54681 -16.779675
8.236331 12.354494 -17.405731
8.138669 11.190668 -18.016113
8.0431967 10.053993 -18.61282
7.9499373 8.9436798 -19.195688
7.8587198 7.8587184 -19.765797
7.7695489 6.7983537 -20.323118
7.6824017 5.7617993 -20.867786
7.6130252 4.7581406 -21.30139
7.5842743 3.7921371 -21.481083
7.5573592 2.8340082 -21.649303
7.5440941 1.8860226 -21.732204
7.5319996 0.94149971 -21.807796
7.531251 -2.8610229e-06 -21.812479
7.532948 -0.94161797 -21.801872
7.5465269 -1.886632 -21.717001
7.562398 -2.8359003 -21.617807
7.5893269 -3.7946634 -21.449503
7.6203933 -4.7627449 -21.255337
7.6631708 -5.7473807 -20.987978
7.7165713 -6.7520003 -20.654226
7.7809601 -7.7809606 -20.251793
7.8495908 -8.8307886 -19.822853
7.9396648 -9.9245796 -19.259892
8.0486526 -11.066898 -18.578718
8.1745882 -12.261883 -17.791618
8.3428478 -13.557126 -16.74
8.5463705 -14.956148 -15.467983
8.8512936 -16.596176 -13.562209
9.5949793 -19.189959 -8.9141731
10.186959 16.978266 -12.288581
9.7751236 15.20575 -14.576552
9.5586319 13.806913 -15.779285
9.4415073 12.588675 -16.429976
9.3274899 11.400265 -17.063408
9.2160168 10.240017 -17.682701
9.1072626 9.1072598 -18.286896
9.0008774 8.0007782 -18.877922
8.8969221 6.9198275 -19.455454
8.7953396 5.8635583 -20.019796
8.6962337 4.8312378 -20.570385
8.6030407 3.8235703 -21.088127
8.5803843 2.8601284 -21.213997
8.5639191 1.9030924 -21.30547
8.5473909 0.94970798 -21.397293
8.5450201 -0 -21.410461
8.5488787 -0.94987488 -21.389023
8.5622473 -1.9027243 -21.314753
8.5814009 -2.860467 -21.208347
8.6121464 -3.8276215 -21.037533
8.6521769 -4.806767 -20.815147
8.6998911 -5.7999282 -20.550066
8.7655544 -6.817656 -20.18527
8.8425446 -7.8600402 -19.757549
8.9208717 -8.9208717 -19.322401
9.0358648 -10.039849 -18.68355
9.1667538 -11.20381 -17.956388
9.3223858 -12.42985 -17.091763
9.5356903 -13.773773 -15.906737
9.8064985 -15.254556 -14.40225
10.304748 -17.174576 -11.634205
11.145966 15.604353 -13.152962
10.828431 14.076959 -14.74064
10.693293 12.831949 -15.416335
10.561658 11.617825 -16.074509
10.433022 10.433019 -16.717686
10.307647 9.2768803 -17.344563
10.185088 8.1480694 -17.957359
10.065315 7.0457182 -18.556221
9.9483271 5.968996 -19.141163
9.8341761 4.9170885 -19.711914
9.7226458 3.8890581 -20.269569
9.6231022 2.8869295 -20.767288
9.6011686 1.9202337 -20.876957
9.5876102 0.95876122 -20.944744
9.5826139 -0 -20.969725
9.5896101 -0.95896053 -20.934746
9.6021423 -1.9204283 -20.872086
9.6315117 -2.8894558 -20.725241
9.6653843 -3.8661532 -20.555876
9.7216167 -4.8608069 -20.274708
9.7801132 -5.8680677 -19.982225
9.8483505 -6.8938475 -19.641045
9.9411669 -7.9529328 -19.176966
10.048062 -9.0432558 -18.642487
10.178581 -10.178581 -17.989893
10.342096 -11.376305 -17.172314
10.543665 -12.6524 -16.164471
10.809119 -14.051856 -14.837202
11.250154 -15.750216 -12.632028
12.931082 16.457739 -10.105153
12.182675 14.397703 -13.507004
11.994451 13.084855 -14.362562
11.843847 11.843843 -15.04713
11.696784 10.633438 -15.715595
11.553517 9.4528751 -16.366808
11.413718 8.3008862 -17.002262
11.277045 7.1763005 -17.623497
11.143573 6.078311 -18.230194
11.013154 5.0059776 -18.823009
10.886053 3.9585638 -19.400738
10.761722 2.9350147 -19.965879
10.684355 1.9426088 -20.317549
10.669221 0.96992588 -20.386341
10.665942 -0 -20.401245
10.672373 -0.97021484 -20.372013
10.691259 -1.9438658 -20.28616
10.720041 -2.9236488 -20.155334
10.763947 -3.9141626 -19.955765
10.827917 -4.9217796 -19.664989
10.892685 -5.9414663 -19.370588
10.975254 -6.9842529 -18.995279
11.092802 -8.0674915 -18.460968
11.213214 -9.1744509 -17.913643
11.373236 -10.339307 -17.18627
11.582132 -11.582133 -16.236742
11.871092 -12.950281 -14.923285
12.265364 -14.495426 -13.131146
13.2324 -16.841238 -8.7355232
13.951306 15.113913 -10.752354
13.347839 13.347837 -13.266802
13.17687 12.078796 -13.979171
13.010096 10.841745 -14.674064
12.847445 9.6355839 -15.351769
12.689273 8.4595137 -16.010828
12.534498 7.3117895 -16.65572
12.383375 6.1916862 -17.285398
12.235813 5.0982542 -17.900238
12.092107 4.0307002 -18.49902
11.951365 2.9878407 -19.085438
11.813863 1.9689789 -19.658365
11.797983 0.98316669 -19.724531
11.797623 -9.5367432e-07 -19.726032
11.797659 -0.98313904 -19.725883
11.815236 -1.9692059 -19.652643
11.851604 -2.9629035 -19.501114
11.899992 -3.9666648 -19.299494
11.978909 -4.9912128 -18.970673
12.064116 -6.0320568 -18.615646
12.167501 -7.0977097 -18.184872
12.292442 -8.1949625 -17.664288
12.457474 -9.3431053 -16.976656
12.684396 -10.57033 -16.031145
12.957582 -11.877784 -14.892872
13.375529 -13.375532 -13.151423
14.212383 -15.396749 -9.6645279
15.197089 14.02808 -10.432456
14.563852 12.323258 -12.867981
14.37584 11.058335 -13.591108
14.192573 9.8256264 -14.295984
14.014435 8.6242657 -14.981127
13.840346 7.4524927 -15.650695
13.670308 6.3093724 -16.304689
13.504353 5.1939802 -16.94298
13.342505 4.1053863 -17.565464
13.184492 3.0425749 -18.17321
13.030138 2.0046349 -18.76688
12.980332 0.99848747 -18.958443
12.972926 -2.8610229e-06 -18.986925
12.984723 -0.99882698 -18.941549
13.006239 -2.0009642 -18.858803
13.045537 -3.0105076 -18.707657
13.110949 -4.0341382 -18.456074
13.197927 -5.0761275 -18.12154
13.308721 -6.1424875 -17.69541
13.445675 -7.2399802 -17.168661
13.62441 -8.3842525 -16.481222
13.834259 -9.5775623 -15.674104
14.141721 -10.878247 -14.491565
14.568417 -12.327124 -12.850426
15.458361 -14.269256 -9.4275675
16.788586 13.191031 -8.9235592
15.797265 11.28376 -12.463989
15.591825 10.023315 -13.197706
15.392185 8.7955341 -13.91071
15.197439 7.5987201 -14.60623
15.00711 6.4316177 -15.28598
14.821439 5.2933698 -15.949085
14.640307 4.1829429 -16.595984
14.464199 3.0994692 -17.224939
14.291326 2.0416169 -17.842346
14.254612 1.0181866 -17.973471
14.249608 -1.9073486e-06 -17.991341
14.254883 -1.0182056 -17.972504
14.274347 -2.0391917 -17.902987
14.331922 -3.0711279 -17.697363
14.41796 -4.1194158 -17.390083
14.537612 -5.1920042 -16.962755
14.659314 -6.2825627 -16.528105
14.846298 -7.4231505 -15.860302
15.076358 -8.6150637 -15.038664
15.408607 -9.9055367 -13.852052
15.872619 -11.337586 -12.194875
17.331133 10.398677 -11.112357
16.825588 8.9736462 -12.797502
16.608679 7.7507162 -13.520529
16.396736 6.5586915 -14.227009
16.189915 5.396637 -14.91641
15.988301 4.2635455 -15.588458
15.791904 3.1583805 -16.243116
15.661159 2.088151 -16.678932
15.627342 1.0418239 -16.791649
15.618293 -1.9073486e-06 -16.821819
15.634277 -1.0422873 -16.768539
15.674891 -2.0899858 -16.633163
15.741541 -3.1483107 -16.410988
15.855965 -4.2282596 -16.029583
16.009617 -5.3365393 -15.517408
16.184704 -6.4738855 -14.933778
16.470751 -7.6863499 -13.980293
16.826057 -8.9738979 -12.795938
17.461716 -10.477032 -10.677076
18.558031 8.1191359 -10.888954
18.012777 6.7547922 -12.592869
17.695591 5.529871 -13.584076
17.48332 4.3708286 -14.247421
17.333422 3.2500148 -14.715851
17.260675 2.1575837 -14.943182
17.188826 1.0743022 -15.167716
17.178274 -9.5367432e-07 -15.200688
17.197437 -1.074842 -15.140807
17.255123 -2.1568904 -14.960532
17.352465 -3.2535868 -14.656346
17.516506 -4.3791256 -14.143715
17.748962 -5.5465498 -13.417292
18.113588 -6.7925968 -12.277829
18.672842 -8.1693697 -10.530169
19.880049 4.6776571 -10.412066
19.469093 3.4357219 -11.620756
19.234659 2.2628994 -12.310268
19.15097 1.1265254 -12.556417
19.114304 -1.4305115e-06 -12.664257
19.159754 -1.1270442 -12.530576
19.274979 -2.2676482 -12.191679
19.462029 -3.4344757 -11.641534
19.88106 -4.6778946 -10.409093
