# .PCD v0.7 - Point Cloud Data file format
VERSION 0.7
FIELDS x y z
SIZE 4 4 4
TYPE F F F
COUNT 1 1 1
WIDTH 1055
HEIGHT 1
VIEWPOINT 0 0 0 1 0 0 0
POINTS 1055
DATA ascii
-23.080618 1.2147684 -8.1443272
-23.061207 2.8610229e-06 -8.1954107
-21.698357 7.2327867 -8.6095829
-20.754662 5.7651825 -11.230957
-20.35323 4.5229402 -12.346045
-20.123373 3.3538961 -12.984539
-19.968889 2.2187629 -13.413658
-19.862217 1.103456 -13.709972
-19.878302 1.4305115e-06 -13.665291
-19.905077 -1.105835 -13.590916
-19.976465 -2.2196088 -13.392618
-20.168142 -3.3613577 -12.860182
-20.375135 -4.5278082 -12.285195
-20.866354 -5.7962084 -10.920704
-19.938372 9.382761 -10.24053
-19.187574 7.9007626 -12.448755
-18.785877 6.630311 -13.630215
-18.543476 5.4539628 -14.343163
-18.341682 4.3156915 -14.936672
-18.177025 3.2077074 -15.420954
-18.116653 2.1313715 -15.598516
-18.06354 1.0625587 -15.754738
-18.035135 -9.5367432e-07 -15.838282
-18.0707 -1.0629835 -15.733683
-18.128721 -2.1327906 -15.563028
-18.207211 -3.2130408 -15.332172
-18.370813 -4.3225436 -14.850992
-18.549135 -5.4556293 -14.326519
-18.830557 -6.64608 -13.498807
-19.2549 -7.9284887 -12.250737
-20.094204 -9.4560986 -9.7821941
-19.060606 11.912879 -9.3184023
-18.026209 10.139741 -12.550899
-17.615561 8.8077793 -13.834166
-17.287043 7.5630808 -14.860787
-17.04431 6.3916125 -15.619331
-16.844587 5.2639337 -16.243458
-16.740702 4.1851749 -16.568108
-16.639217 3.1198535 -16.885246
-16.54443 2.0680509 -17.181454
-16.530197 1.0331373 -17.225937
-16.522398 -9.5367432e-07 -17.250301
-16.51461 -1.0321641 -17.274643
-16.571478 -2.0714331 -17.096928
-16.646048 -3.1211352 -16.863894
-16.724606 -4.1811523 -16.618401
-16.880758 -5.2752409 -16.130428
-17.055658 -6.3958731 -15.583869
-17.312441 -7.574193 -14.781416
-17.652761 -8.8263798 -13.717916
-18.176634 -10.224354 -12.080813
-19.494442 -12.184029 -7.962666
-17.324291 12.704482 -11.135161
-16.652969 11.10198 -13.372896
-16.232325 9.7393913 -14.775049
-15.939996 8.5013304 -15.749476
-15.728771 7.3400922 -16.45356
-15.565466 6.2261872 -16.99791
-15.426736 5.142242 -17.460346
-15.310726 4.0828609 -17.84704
-15.253206 3.0506415 -18.038776
-15.203533 2.0271368 -18.20435
-15.155516 1.0103693 -18.36441
-15.155849 -0 -18.363302
-15.17567 -1.0117121 -18.297234
-15.19559 -2.0260801 -18.230831
-15.257545 -3.0515122 -18.024315
-15.342015 -4.0912042 -17.74275
-15.431173 -5.1437263 -17.445553
-15.583957 -6.2335844 -16.936274
-15.754745 -7.3522158 -16.366982
-15.990896 -8.5284796 -15.579809
-16.269361 -9.7616167 -14.651596
-16.716576 -11.144383 -13.16088
-17.435984 -12.786389 -10.762854
-15.994894 13.709906 -11.758175
-15.372911 12.078715 -13.979545
-14.99612 10.711514 -15.325224
-14.741763 9.4768467 -16.233643
-14.510223 8.2915545 -17.06057
-14.350821 7.1754079 -17.629866
-14.227558 6.0975232 -18.070084
-14.115634 5.0412965 -18.469818
-14.033812 4.0096564 -18.762041
-13.977302 2.9951334 -18.963861
-13.931877 1.9902668 -19.126095
-13.906765 0.99333858 -19.215778
-13.898829 -0 -19.244122
-13.915182 -0.99394321 -19.185711
-13.933386 -1.9904852 -19.120705
-13.974787 -2.994596 -18.972841
-14.050092 -4.0143123 -18.703897
-14.126742 -5.0452638 -18.430143
-14.233807 -6.100204 -18.047775
-14.377244 -7.1886196 -17.5355
-14.526316 -8.3007517 -17.003096
-14.762581 -9.4902296 -16.15929
-15.032194 -10.737286 -15.196388
-15.448285 -12.137938 -13.710349
-16.1283 -13.82426 -11.281723
-14.810864 14.810861 -11.917936
-14.237489 13.142296 -14.123223
-13.864334 11.731359 -15.558435
-13.591569 10.455053 -16.607534
-13.384893 9.2664623 -17.402437
-13.232657 8.1431732 -17.987961
-13.083845 7.0451474 -18.560314
-12.976588 5.9891963 -18.972841
-12.902632 4.9625506 -19.257292
-12.829514 3.9475403 -19.538517
-12.763369 2.9453917 -19.792915
-12.745132 1.9607868 -19.863056
-12.72842 0.97911072 -19.927334
-12.71241 -9.5367432e-07 -19.988916
-12.718708 -0.97836113 -19.964689
-12.75158 -1.9617834 -19.838253
-12.784585 -2.9502897 -19.711315
-12.833094 -3.9486446 -19.52474
-12.912069 -4.9661832 -19.220993
-12.994765 -5.9975877 -18.902925
-13.106553 -7.0573783 -18.472977
-13.251057 -8.1544952 -17.917192
-13.414893 -9.2872324 -17.287054
-13.634223 -10.487864 -16.44348
-13.910108 -11.770092 -15.382382
-14.290107 -13.19087 -13.920848
-14.891893 -14.891891 -11.606285
-13.80691 16.108057 -11.354008
-13.155819 14.252136 -14.066887
-12.794752 12.79475 -15.571335
-12.527992 11.483992 -16.682829
-12.310781 10.258982 -17.587879
-12.149817 9.1123619 -18.258556
-12.017303 8.0115328 -18.810701
-11.909424 6.9471636 -19.260197
-11.813899 5.9069476 -19.658215
-11.743524 4.8931336 -19.951448
-11.689741 3.8965807 -20.175537
-11.647434 2.9118576 -20.351822
-11.614926 1.9358196 -20.487274
-11.598914 0.96657562 -20.553989
-11.593516 -0 -20.576479
-11.595535 -0.96629429 -20.568062
-11.622546 -1.9370928 -20.455523
-11.650209 -2.9125519 -20.340256
-11.688467 -3.8961544 -20.180849
-11.75532 -4.8980489 -19.902298
-11.828518 -5.9142613 -19.597305
-11.909681 -6.9473171 -19.259129
-12.034342 -8.0228949 -18.739704
-12.161984 -9.1214867 -18.207859
-12.333467 -10.27789 -17.493353
-12.549814 -11.503998 -16.591908
-12.836727 -12.836728 -15.39643
-13.215604 -14.316906 -13.817777
-13.927759 -16.249054 -10.850468
-12.876334 17.558638 -10.354005
-12.162125 15.479068 -13.60041
-11.77428 13.915059 -15.363341
-11.470597 12.513379 -16.743717
-11.288913 11.288912 -17.569557
-11.122426 10.111296 -18.326317
-10.971105 8.9763565 -19.014139
-10.868441 7.9043183 -19.480793
-10.782734 6.8617392 -19.870373
-10.698368 5.8354731 -20.253853
-10.636458 4.8347521 -20.535255
-10.597612 3.8536749 -20.711834
-10.559049 2.8797369 -20.887123
-10.520764 1.9128666 -21.061138
-10.515233 0.95593166 -21.086281
-10.51692 -1.9073486e-06 -21.078613
-10.518733 -0.95624924 -21.070377
-10.529276 -1.9144144 -21.022449
-10.563585 -2.8809795 -20.866501
-10.601896 -3.855238 -20.692356
-10.646535 -4.8393354 -20.489454
-10.714883 -5.8444815 -20.178783
-10.791938 -6.8675971 -19.828537
-10.884045 -7.9156699 -19.409866
-11.002611 -9.0021362 -18.87093
-11.132463 -10.120422 -18.280687
-11.312686 -11.312687 -17.461496
-11.514885 -12.561693 -16.542408
-11.813768 -13.961725 -15.183847
-12.224491 -15.558441 -13.316929
-13.063307 -17.813602 -9.5041332
-11.210143 16.815214 -12.832079
-10.779215 15.090899 -14.986722
-10.491522 13.638977 -16.425186
-10.276181 12.331419 -17.501886
-10.10666 11.117327 -18.349495
-9.9805975 9.9805965 -18.979805
-9.8684025 8.8815622 -19.540783
-9.7700186 7.8160138 -20.032703
-9.6938276 6.7856803 -20.413654
-9.6344528 5.7806716 -20.710533
-9.5791063 4.7895527 -20.987263
-9.5383654 3.8153458 -21.190968
-9.5071173 2.8521328 -21.34721
-9.4876938 1.8975382 -21.444328
-9.4725304 0.94725418 -21.520147
-9.4724455 -0 -21.520567
-9.4723625 -0.94723606 -21.520983
-9.4837236 -1.8967457 -21.46418
-9.5124559 -2.8537369 -21.320518
-9.5446739 -3.8178682 -21.159428
-9.5773392 -4.7886667 -20.996101
-9.6364431 -5.781868 -20.700579
-9.7039709 -6.7927833 -20.362942
-9.7724514 -7.8179617 -20.02054
-9.8766098 -8.8889523 -19.499746
-9.9908533 -9.9908543 -18.928528
-10.130456 -11.143505 -18.230513
-10.309397 -12.371275 -17.335812
-10.532692 -13.692499 -16.219343
-10.809809 -15.13373 -14.833753
-11.270918 -16.90638 -12.528208
-10.365373 18.427332 -11.29739
-9.8280602 16.380102 -14.282458
-9.5112352 14.795255 -16.042601
-9.2977867 13.430137 -17.22842
-9.1310635 12.174751 -18.154663
-8.9938345 10.992461 -18.917053
-8.8888674 9.8765163 -19.500202
-8.7944317 8.7944317 -20.024841
-8.7054348 7.7381635 -20.519272
-8.646081 6.72473 -20.84901
-8.5964785 5.7309856 -21.124584
-8.5474167 4.7485638 -21.39715
-8.5069981 3.7808886 -21.621696
-8.4887238 2.8295736 -21.723225
-8.4712448 1.8824978 -21.820324
-8.4541101 0.93934441 -21.915516
-8.4511251 -9.5367432e-07 -21.932102
-8.4621124 -0.94023705 -21.871063
-8.4731531 -1.8829231 -21.809723
-8.4895687 -2.8298578 -21.718523
-8.5181065 -3.7858276 -21.559986
-8.5563297 -4.7535162 -21.347637
-8.5986471 -5.7324314 -21.112532
-8.6583834 -6.7343001 -20.780661
-8.7244711 -7.7550859 -20.413511
-8.8040552 -8.8040562 -19.97138
-8.9020901 -9.8912115 -19.426743
-9.0111265 -11.013601 -18.820982
-9.1599121 -12.213216 -17.994396
-9.3200769 -13.462333 -17.104591
-9.5634289 -14.876445 -15.752636
-9.8840694 -16.473452 -13.971301
-10.467034 -18.608061 -10.732605
-8.9224281 17.844856 -13.117621
-8.5846977 16.096308 -15.228433
-8.3513718 14.6149 -16.68672
-8.164607 13.267487 -17.853998
-8.0274467 12.041172 -18.71125
-7.9169102 10.885752 -19.402103
-7.8213096 9.7766361 -19.999607
-7.7524471 8.7215023 -20.430004
-7.6861854 7.6861844 -20.844135
-7.62642 6.6731153 -21.217669
-7.5830007 5.6872482 -21.48904
-7.5460181 4.716259 -21.720184
-7.5152035 3.7575989 -21.912777
-7.4942245 2.8103333 -22.043892
-7.4782681 1.8695669 -22.143616
-7.4668608 0.93335629 -22.214916
-7.4633327 9.5367432e-07 -22.236965
-7.4714541 -0.9339323 -22.186207
-7.4795723 -1.869895 -22.135471
-7.4877295 -2.8079004 -22.084484
-7.5163436 -3.7581692 -21.905647
-7.5502224 -4.7188902 -21.693905
-7.5843863 -5.6882901 -21.480385
-7.6326604 -6.6785793 -21.178667
-7.6932826 -7.6932826 -20.799782
-7.7548518 -8.7242069 -20.41497
-7.8407221 -9.8009014 -19.878281
-7.9377799 -10.914449 -19.271669
-8.0526047 -12.078909 -18.554016
-8.1979628 -13.321688 -17.645535
-8.3835974 -14.671296 -16.485315
-8.6141109 -16.151455 -15.044608
-8.9879007 -17.975801 -12.708415
-8.1380272 19.763781 -10.754032
-7.6573763 17.502573 -14.187252
-7.4030728 15.863728 -16.003702
-7.2258601 14.45172 -17.269508
-7.0812669 13.150923 -18.30232
-6.9653788 11.940645 -19.130093
-6.8772197 10.807056 -19.759802
-6.7979655 9.7113771 -20.325901
-6.7367959 8.6615944 -20.762827
-6.6814108 7.6358967 -21.158436
-6.6282344 6.628232 -21.538265
-6.590982 5.6494131 -21.804352
-6.5641341 4.6886663 -21.996126
-6.5375037 3.7357159 -22.186344
-6.5131588 2.7913532 -22.360233
-6.5049033 1.8585453 -22.419203
-6.4996104 0.92851639 -22.457006
-6.4943452 -9.5367432e-07 -22.494614
-6.4976792 -0.92824078 -22.470798
-6.5059738 -1.8588514 -22.411556
-6.5207944 -2.7946262 -22.305695
-6.5400276 -3.7371588 -22.168312
-6.5679617 -4.6914034 -21.968784
-6.5966759 -5.6542926 -21.763685
-6.6356926 -6.6356936 -21.484993
-6.6873603 -7.6426964 -21.115936
-6.7398391 -8.6655102 -20.741089
-6.8081141 -9.7258797 -20.25341
-6.8898182 -10.826858 -19.669807
-6.9769416 -11.960474 -19.047501
-7.1002822 -13.18624 -18.166496
-7.2358866 -14.471774 -17.197895
-7.4296613 -15.920704 -15.813787
-7.7004333 -17.600992 -13.879704
-8.223793 -19.972071 -10.141415
-6.7704463 19.18293 -12.462409
-6.4792471 17.277994 -14.889064
-6.2755389 15.688849 -16.586634
-6.1387177 14.323671 -17.726814
-6.0253758 13.054979 -18.671331
-5.930006 11.860012 -19.466078
-5.8612814 10.745683 -20.03878
-5.7941146 9.6568546 -20.598509
-5.7354116 8.6031151 -21.0877
-5.6938586 7.5918097 -21.433975
-5.655767 6.5983944 -21.7514
-5.6217647 5.6217632 -22.034756
-5.5985055 4.6654205 -22.228584
-5.575438 3.7169571 -22.420815
-5.5582175 2.7791071 -22.564316
-5.5498304 1.8499441 -22.634205
-5.5444603 0.92407513 -22.678959
-5.5391164 -2.8610229e-06 -22.723495
-5.5386715 -0.92311478 -22.727201
-5.5508995 -1.8503008 -22.625301
-5.5634866 -2.781744 -22.520412
-5.5761137 -3.717411 -22.415176
-5.5985217 -4.6654329 -22.228449
-5.6285 -5.6285009 -21.978634
-5.6590161 -6.6021867 -21.724329
-5.6999087 -7.5998788 -21.383554
-5.7478399 -8.6217632 -20.984127
-5.7991257 -9.6652107 -20.556747
-5.8682823 -10.758517 -19.980448
-5.9455442 -11.891088 -19.336597
-6.0415883 -13.090107 -18.536224
-6.1544094 -14.360291 -17.59605
-6.3091869 -15.772969 -16.306236
-6.5107064 -17.361885 -14.626911
-6.825635 -19.339298 -12.002507
-5.5634451 18.915714 -13.248343
-5.3433967 17.098871 -15.448825
-5.1922054 15.576612 -16.960747
-5.0775514 14.217144 -18.107285
-4.9913669 12.977553 -18.969124
-4.9151206 11.796288 -19.731594
-4.857903 10.687386 -20.303768
-4.8028483 9.6056938 -20.854317
-4.7580981 8.5645761 -21.301811
-4.7258601 7.5613737 -21.624195
-4.6949873 6.5729809 -21.932922
-4.6653538 5.5984249 -22.229259
-4.6430612 4.6430607 -22.452187
-4.6293693 3.7034931 -22.589102
-4.616394 2.7698345 -22.718859
-4.605691 1.8422737 -22.825884
-4.601253 0.92024899 -22.870266
-4.5999508 9.5367432e-07 -22.883286
-4.6008711 -0.92017365 -22.874081
-4.6085401 -1.8434153 -22.797394
-4.6179309 -2.7707596 -22.703487
-4.6273594 -3.7018881 -22.609203
-4.6459031 -4.6459036 -22.423763
-4.6698756 -5.6038523 -22.18404
-4.6943302 -6.5720639 -21.939495
-4.724431 -7.5590897 -21.638487
-4.7659903 -8.5787849 -21.222891
-4.8083014 -9.6166058 -20.79978
-4.8618221 -10.696011 -20.264574
-4.9266629 -11.823992 -19.616171
-4.9982042 -12.995331 -18.900755
-5.0948339 -14.265533 -17.934462
-5.2094688 -15.628407 -16.788111
-5.3567381 -17.141562 -15.315419
-5.5911465 -19.009897 -12.971332
-4.7260346 21.267157 -9.8073616
-4.4021282 18.709044 -13.856193
-4.2358255 16.943304 -15.934973
-4.1288109 15.483044 -17.272654
-4.0416484 14.145771 -18.362188
-3.9747722 12.918007 -19.198147
-3.916151 11.748452 -19.930908
-3.8672569 10.634956 -20.542082
-3.8309927 9.5774803 -20.995388
-3.7953906 8.5396252 -21.440414
-3.7655926 7.5311837 -21.812891
-3.7415905 6.5477839 -22.112915
-3.7200413 5.5800629 -22.382278
-3.7030265 4.6287823 -22.594963
-3.6921406 3.6921377 -22.731041
-3.6813288 2.7609959 -22.866188
-3.6705799 1.835288 -23.000547
-3.6690736 0.91726589 -23.019379
-3.6698058 -1.9073486e-06 -23.010227
-3.6705382 -0.91763401 -23.001072
-3.6737852 -1.8368921 -22.96048
-3.6818762 -2.7614079 -22.859348
-3.6935282 -3.6935282 -22.713692
-3.705617 -4.6320219 -22.562584
-3.7246804 -5.5870199 -22.324291
-3.744137 -6.5522428 -22.081085
-3.767874 -7.5357485 -21.784374
-3.8002985 -8.5506706 -21.379066
-3.8336051 -9.5840111 -20.962732
-3.8743687 -10.654515 -20.45319
-3.9250948 -11.775285 -19.819111
-3.979466 -12.933264 -19.139477
-4.0539947 -14.188983 -18.207859
-4.1365461 -15.512048 -17.175972
-4.2581034 -17.032413 -15.656504
-4.4298959 -18.827055 -13.509101
-3.4792545 20.875526 -10.895222
-3.2772322 18.570982 -14.262259
-3.1607692 16.857437 -16.203304
-3.0834255 15.417126 -17.492371
-3.018981 14.088578 -18.566448
-2.9697089 12.868736 -19.387648
-2.9287915 11.715164 -20.069601
-2.8927 10.606565 -20.671129
-2.8654332 9.5514431 -21.125576
-2.8386674 8.5160027 -21.571671
-2.8150375 7.5067658 -21.9655
-2.8003488 6.5341482 -22.210316
-2.7858286 5.5716562 -22.45232
-2.7716413 4.619401 -22.688774
-2.7625449 3.6833935 -22.840382
-2.7544663 2.7544651 -22.975021
-2.7492898 1.83286 -23.061302
-2.7464197 0.91547394 -23.109138
-2.746443 -9.5367432e-07 -23.108749
-2.7464743 -0.9154911 -23.108229
-2.7475371 -1.8316927 -23.090509
-2.7553549 -2.7553568 -22.960217
-2.7640316 -3.6853771 -22.815603
-2.7727873 -4.621314 -22.66967
-2.7851455 -5.5702934 -22.463703
-2.8024051 -6.5389485 -22.176041
-2.8201275 -7.5203404 -21.880672
-2.8419597 -8.5258808 -21.5168
-2.8687282 -9.5624266 -21.070662
-2.8973529 -10.623629 -20.593584
-2.9341946 -11.736777 -19.979557
-2.9770803 -12.900683 -19.264788
-3.0288494 -14.13463 -18.40197
-3.0923829 -15.461918 -17.343073
-3.1784487 -16.951725 -15.908656
-3.2970073 -18.683044 -13.932669
-3.5313799 -21.188282 -10.026465
-2.2982841 20.684553 -11.425697
-2.1743777 18.482208 -14.523353
-2.1021626 16.817301 -16.328728
-2.0489035 15.366772 -17.660215
-2.0088537 14.061975 -18.661457
-1.9760194 12.844126 -19.482311
-1.9493109 11.695864 -20.150023
-1.9251788 10.588484 -20.753326
-1.9054649 9.5273228 -21.246172
-1.8898002 8.5041008 -21.637791
-1.87521 7.5008373 -22.002546
-1.8640661 6.524229 -22.281143
-1.8544687 5.563405 -22.521078
-1.8450384 4.6125946 -22.756836
-1.8374591 3.6749172 -22.946321
-1.8341864 2.7512808 -23.028133
-1.8309255 1.830925 -23.109657
-1.8276969 0.91384697 -23.190372
-1.8277177 -1.9073486e-06 -23.189856
-1.8287926 -0.91439724 -23.162983
-1.8307902 -1.8307896 -23.113043
-1.8347406 -2.7521143 -23.01428
-1.8400959 -3.680192 -22.880396
-1.8454881 -4.6137199 -22.745594
-1.8538384 -5.5615172 -22.536835
-1.8651086 -6.5278826 -22.255081
-1.8765167 -7.5060678 -21.969883
-1.8896337 -8.5033531 -21.641954
-1.9082613 -9.5413065 -21.176262
-1.9272597 -10.599928 -20.701303
-1.9511071 -11.706646 -20.105112
-1.9797391 -12.868303 -19.38932
-2.0122197 -14.085539 -18.577305
-2.0554922 -15.416193 -17.495487
-2.1090162 -16.872129 -16.157393
-2.1852889 -18.574957 -14.250573
-2.3387952 -21.049156 -10.412915
-1.1447519 20.605536 -11.6452
-1.0837291 18.423395 -14.696337
-1.0497031 16.79525 -16.397636
-1.0233246 15.349868 -17.716564
-1.0038409 14.053771 -18.690752
-0.98631096 12.822041 -19.567249
-0.97331131 11.679735 -20.21723
-0.96174085 10.579146 -20.795757
-0.95194334 9.519433 -21.285625
-0.94441485 8.4997311 -21.662052
-0.93712175 7.4969735 -22.026707
-0.93062347 6.5143623 -22.351622
-0.92586589 5.5551939 -22.589502
-0.92208302 4.6104126 -22.778645
-0.91838086 3.673522 -22.963755
-0.91658133 2.7497425 -23.053732
-0.91478878 1.8295774 -23.143356
-0.91300327 0.91300201 -23.232632
-0.91295147 -9.5367432e-07 -23.235222
-0.91394705 -0.91394806 -23.185442
-0.91494739 -1.8298969 -23.135424
-0.91628897 -2.7488689 -23.068346
-0.91905218 -3.6762094 -22.930185
-0.92276776 -4.6138382 -22.744406
-0.92651355 -5.5590835 -22.557116
-0.93203038 -6.5242124 -22.281281
-0.93783182 -7.502656 -21.991207
-0.94472814 -8.5025558 -21.646389
-0.95381677 -9.538168 -21.191957
-0.96341354 -10.597548 -20.712122
-0.97509253 -11.701111 -20.128168
-0.98930955 -12.861024 -19.417316
-1.0053775 -14.075288 -18.613922
-1.0268903 -15.403355 -17.538284
-1.0537243 -16.859589 -16.196581
-1.0904342 -18.537382 -14.361086
-1.1620799 -20.917442 -10.778799
0 20.625048 -11.590991
0 18.44899 -14.621055
0 16.798592 -16.387194
0 15.3505 -17.714455
0 14.048861 -18.708281
0 12.830376 -19.535187
0 11.685707 -20.192343
0 10.587975 -20.75563
0 9.5216866 -21.274361
0 8.4995594 -21.663023
0 7.4958601 -22.033669
0 6.5143061 -22.352026
0 5.5591774 -22.556316
0 4.6136904 -22.745861
0 3.6759548 -22.933334
0 2.7494764 -23.058174
0 1.8293924 -23.147907
0 0.91379547 -23.192968
0 -9.5367432e-07 -23.21475
0 -0.91416264 -23.174799
0 -1.8299198 -23.134773
0 -2.7480774 -23.08152
0 -3.6769018 -22.921522
0 -4.6143818 -22.738979
0 -5.5597363 -22.551647
0 -6.5205326 -22.307579
0 -7.5061755 -21.969194
0 -8.5065975 -21.623917
0 -9.5357647 -21.203972
0 -10.60358 -20.684706
0 -11.698311 -20.139837
0 -12.863516 -19.407736
0 -14.083381 -18.585005
0 -15.40822 -17.52206
0 -16.850597 -16.224682
0 -18.540085 -14.353141
0 -20.914494 -10.786982
1.1508762 20.715769 -11.33899
1.0888551 18.510536 -14.440038
1.0506043 16.809668 -16.352579
1.0248073 15.372111 -17.642429
1.005365 14.075109 -18.61455
0.98909372 12.858218 -19.428108
0.97459638 11.695156 -20.152973
0.96359813 10.599579 -20.702888
0.95320094 9.5320082 -21.22275
0.94464773 8.5018272 -21.65041
0.93841428 7.5073123 -21.962082
0.93226254 6.525835 -22.269669
0.92731982 5.5639172 -22.516804
0.92348015 4.6173983 -22.708794
0.91967201 3.6786861 -22.899193
0.91653693 2.7496099 -23.05595
0.91569716 1.8313942 -23.097935
0.914859 0.91485977 -23.139847
0.91402239 -1.9073486e-06 -23.181677
0.91462761 -0.91462803 -23.151417
0.91590047 -1.8318024 -23.087774
0.91766858 -2.753006 -22.999372
0.92031896 -3.6812792 -22.866848
0.92381942 -4.6190987 -22.691828
0.92734921 -5.5640955 -22.515333
0.93250835 -6.5275574 -22.25738
0.93915915 -7.5132742 -21.924839
0.94590545 -8.5131512 -21.587524
0.95406276 -9.5406284 -21.179657
0.964742 -10.612162 -20.645695
0.97566301 -11.707958 -20.099644
0.99053669 -12.876979 -19.355959
1.0070859 -14.099201 -18.528505
1.028791 -15.431865 -17.443249
1.0547534 -16.876053 -16.145123
1.0951468 -18.617493 -14.12546
1.1701119 -21.062012 -10.377199
2.1880746 18.598633 -14.180931
2.1121099 16.896877 -16.080055
2.0554531 15.415895 -17.496473
2.0144932 14.101452 -18.520466
1.982538 12.886496 -19.319347
1.9524508 11.714705 -20.071527
1.9300511 10.615281 -20.631519
1.909773 9.5488625 -21.13847
1.8935194 8.5208359 -21.544811
1.8806013 7.5224056 -21.867764
1.8678528 6.537487 -22.186478
1.8562281 5.5686836 -22.477093
1.8490826 4.6227055 -22.655731
1.8431363 3.6862717 -22.804386
1.8372283 2.7558422 -22.952091
1.8347406 1.8347406 -23.014278
1.832651 0.91632557 -23.066521
1.8305662 -2.8610229e-06 -23.118641
1.8315507 -0.91577816 -23.094028
1.835086 -1.8350868 -23.00565
1.8386347 -2.7579517 -22.916931
1.8428249 -3.6856508 -22.812172
1.8501722 -4.6254311 -22.62849
1.8594028 -5.5782118 -22.397726
1.8687204 -6.540524 -22.164785
1.8820421 -7.5281696 -21.831749
1.8964428 -8.5339918 -21.471725
1.9130425 -9.5652161 -21.056732
1.9345061 -10.639785 -20.520145
1.958028 -11.748168 -19.932098
1.9871161 -12.916254 -19.204895
2.0217512 -14.152255 -18.33902
2.0652335 -15.489251 -17.251957
2.1211934 -16.969549 -15.852962
2.2039053 -18.733196 -13.785161
2.3954239 -21.558815 -8.9971952
3.3077948 18.744173 -13.752879
3.1886206 17.005974 -15.739126
3.1001084 15.500543 -17.214323
3.0341325 14.159284 -18.313925
2.9827554 12.92527 -19.17021
2.9398589 11.759434 -19.885147
2.9046052 10.650221 -20.472712
2.8722017 9.5740051 -21.01277
2.8481805 8.5445404 -21.41312
2.8277264 7.5406022 -21.754023
2.8089361 6.5541821 -22.067194
2.7929204 5.5858412 -22.334126
2.7819996 4.6366663 -22.516138
2.7727954 3.6970596 -22.669537
2.7638814 2.7638817 -22.818104
2.7581098 1.8387403 -22.914303
2.7550087 0.91833687 -22.965984
2.7545922 -1.9073486e-06 -22.972927
2.7551897 -0.91839886 -22.962971
2.75986 -1.8399086 -22.885128
2.7645383 -2.7645369 -22.807159
2.7702892 -3.693717 -22.711308
2.7826972 -4.6378288 -22.504509
2.796237 -5.5924759 -22.278849
2.8102932 -6.5573506 -22.044575
2.829566 -7.5455103 -21.723362
2.8536861 -8.56106 -21.321363
2.878221 -9.5940704 -20.912445
2.9102874 -10.671055 -20.378006
2.9479017 -11.791609 -19.751101
2.9897938 -12.955772 -19.052902
3.0460408 -14.214856 -18.115452
3.1099644 -15.54982 -17.050056
3.1995149 -17.064079 -15.557552
3.335288 -18.899965 -13.29466
4.4655008 18.978374 -13.064038
4.2822256 17.128901 -15.354976
4.1620908 15.607838 -16.856665
4.0686402 14.24024 -18.024797
3.9983275 12.994561 -18.903704
3.9383037 11.814912 -19.653997
3.8882945 10.692807 -20.279116
3.8481593 9.6203976 -20.780806
3.8121488 8.5773354 -21.230938
3.7826324 7.5652642 -21.59989
3.7607741 6.5813532 -21.873121
3.7392321 5.6088476 -22.142395
3.7214715 4.6518393 -22.364399
3.7089159 3.7089167 -22.521345
3.696445 2.7723331 -22.677237
3.686769 1.8433838 -22.798183
3.6861036 0.92152596 -22.806498
3.6855445 9.5367432e-07 -22.813488
3.6849854 -0.92124462 -22.82048
3.6904049 -1.8452024 -22.752737
3.6991746 -2.7743826 -22.643108
3.7094719 -3.7094727 -22.514397
3.7240984 -4.6551218 -22.331564
3.7418733 -5.612813 -22.109381
3.7613125 -6.5822997 -21.86639
3.7880533 -7.5761075 -21.532133
3.8199201 -8.5948219 -21.133793
3.8523395 -9.6308517 -20.728552
3.8977721 -10.718871 -20.160648
3.9487536 -11.84626 -19.523378
4.0076756 -13.024946 -18.786852
4.0856075 -14.299625 -17.8127
4.1786952 -15.670107 -16.649105
4.3078194 -17.231279 -15.035056
4.5124917 -19.178093 -12.47665
5.4108114 17.314594 -14.774685
5.2479167 15.743751 -16.403629
5.1272688 14.35635 -17.610107
5.0280027 13.072805 -18.602768
4.9537201 11.888927 -19.345594
4.8880811 10.753778 -20.001986
4.8340569 9.6681118 -20.542229
4.7878003 8.6180391 -21.004795
4.7517896 7.6028643 -21.364899
4.7228918 6.6120472 -21.653877
4.6943436 5.6332102 -21.939362
4.6671262 4.6671257 -22.211533
4.6543827 3.7235069 -22.33897
4.6426592 2.7855921 -22.456205
4.6309814 1.8523922 -22.572981
4.6277585 0.92555046 -22.605211
4.6258163 -0 -22.624634
4.6238751 -0.92477703 -22.644047
4.6312881 -1.8525152 -22.569916
4.6437178 -2.786232 -22.445618
4.6566992 -3.725359 -22.315805
4.6725607 -4.6725626 -22.15719
4.697948 -5.637538 -21.903316
4.7264848 -6.6170797 -21.617947
4.7577605 -7.6124182 -21.305187
4.7979789 -8.6363621 -20.903008
4.8456731 -9.6913481 -20.42606
4.9007649 -10.781685 -19.875147
4.9680052 -11.923213 -19.202747
5.0445538 -13.115842 -18.437262
5.1473441 -14.412563 -17.409351
5.2691221 -15.807366 -16.191576
5.448442 -17.435017 -14.398376
5.7606435 -19.586189 -11.276363
6.5973039 17.59281 -13.90526
6.3685751 15.921434 -15.811337
6.2113256 14.493092 -17.12175
6.0877981 13.190228 -18.151144
5.9893432 11.978684 -18.971603
5.9069314 10.829372 -19.658367
5.8403802 9.733964 -20.212961
5.7816925 8.6725378 -20.702024
5.7333851 7.6445136 -21.104588
5.6956215 6.6448917 -21.419283
5.6648269 5.6648245 -21.675909
5.6358428 4.6965351 -21.917439
5.6165156 3.7443428 -22.078499
5.6009579 2.800477 -22.208151
5.5866976 1.8622322 -22.326981
5.57903 0.92983627 -22.390877
5.578692 -9.5367432e-07 -22.3937
5.5818524 -0.93031025 -22.367359
5.5881042 -1.8627024 -22.315266
5.6022902 -2.8011446 -22.197046
5.6165323 -3.7443533 -22.078362
5.6364512 -4.6970444 -21.912369
5.669301 -5.6693029 -21.638624
5.7025352 -6.6529579 -21.361673
5.7369113 -7.6492157 -21.075205
5.7931061 -8.6896601 -20.606913
5.8516188 -9.7527008 -20.119305
5.9160166 -10.846031 -19.582659
6.0057545 -12.011509 -18.834845
6.0982375 -13.212851 -18.064146
6.236361 -14.551509 -16.913124
6.398139 -15.995348 -15.564973
6.6508632 -17.735636 -13.458936
7.3797321 -20.909243 -7.3850312
7.8766217 18.003708 -12.621207
7.5436563 16.164978 -14.999537
7.3314934 14.662987 -16.514986
7.1765532 13.327882 -17.621702
7.0486088 12.083328 -18.535593
6.9525886 10.925494 -19.221453
6.8624716 9.8035278 -19.865145
6.7972064 8.7392654 -20.33132
6.7370582 7.6994925 -20.760956
6.690896 6.6908941 -21.090683
6.6536846 5.7031565 -21.356482
6.6193929 4.728137 -21.601421
6.591445 3.7665386 -21.801044
6.5730782 2.8170328 -21.93224
6.5556335 1.8730364 -22.056839
6.5463753 0.93519783 -22.122971
6.5480494 -9.5367432e-07 -22.111012
6.5517826 -0.93597031 -22.084351
6.5555191 -1.873004 -22.057661
6.5733466 -2.8171473 -21.930321
6.5976415 -3.7700806 -21.756783
6.6221166 -4.7300811 -21.581963
6.6584044 -5.7072058 -21.322763
6.6985359 -6.698535 -21.036114
6.7478538 -7.7118344 -20.68384
6.8121285 -8.7584505 -20.224735
6.8808956 -9.8298512 -19.73354
6.9665637 -10.94746 -19.121626
7.0750179 -12.128601 -18.346956
7.200201 -13.371802 -17.452785
7.3666878 -14.733377 -16.263597
7.5848532 -16.253258 -14.705276
7.9306378 -18.127172 -12.235387
8.8002539 16.500477 -13.881208
8.5084667 14.889818 -15.704873
8.3038311 13.493723 -16.983854
8.1517086 12.227561 -17.93462
8.022295 11.030657 -18.743454
7.9234405 9.9042969 -19.361296
7.8376431 8.8173475 -19.897528
7.7628016 7.7628026 -20.365286
7.7074466 6.7440162 -20.711254
7.6636958 5.7477698 -20.984699
7.6207089 4.7629423 -21.253365
7.5833588 3.7916813 -21.486805
7.5674663 2.8377981 -21.586132
7.5526595 1.8881645 -21.678677
7.5379324 0.94224262 -21.770721
7.5390577 -9.5367432e-07 -21.763685
7.5410008 -0.94262791 -21.751541
7.5477657 -1.8869429 -21.709263
7.5694466 -2.8385439 -21.573759
7.595439 -3.7977228 -21.411303
7.6225371 -4.7640858 -21.241941
7.6644711 -5.748353 -20.979849
7.7209454 -6.7558289 -20.626892
7.7782807 -7.7782817 -20.268543
7.8496151 -8.8308172 -19.822706
7.9437561 -9.9296942 -19.234322
8.0412369 -11.0567 -18.625071
8.1788473 -12.268272 -17.765003
8.3314276 -13.53857 -16.811377
8.5538664 -14.969267 -15.42113
8.8636036 -16.619257 -13.48527
9.5403681 -19.080732 -9.2554989
10.191546 16.98591 -12.263092
9.7696505 15.197235 -14.60696
9.4940262 13.713592 -16.138208
9.2967129 12.395617 -17.23439
9.1393042 11.170258 -18.108883
9.0162315 10.018035 -18.792622
8.906661 8.9066601 -19.401346
8.8280172 7.8471246 -19.838257
8.7519407 6.8070645 -20.260902
8.6968613 5.7979069 -20.566902
8.6549683 4.8083153 -20.799633
8.6135044 3.8282213 -21.029995
8.5883722 2.8627892 -21.169617
8.568428 1.9040947 -21.280418
8.5490818 0.94989681 -21.387903
8.5469122 -1.9073486e-06 -21.399952
8.5579224 -0.95088291 -21.338787
8.5689602 -1.9042177 -21.277458
8.5894175 -2.8631401 -21.163815
8.6191692 -3.8307428 -20.998524
8.657608 -4.8097849 -20.784975
8.7074232 -5.8049521 -20.508221
8.7702532 -6.8213086 -20.159176
8.8359623 -7.854188 -19.794117
8.9295063 -8.9295073 -19.274424
9.0382328 -10.042481 -18.670389
9.1598244 -11.195344 -17.994879
9.3339529 -12.445269 -17.027508
9.5358791 -13.774048 -15.905688
9.8312292 -15.293023 -14.264853
10.302658 -17.171097 -11.645811
11.159919 15.623883 -13.083203
10.774451 14.006784 -15.010539
10.504363 12.605234 -16.360983
10.311346 11.342478 -17.326069
10.165849 10.165849 -18.053555
10.029837 9.0268517 -18.733612
9.9314718 7.9451742 -19.225437
9.8451872 6.8916306 -19.65686
9.7707005 5.8624206 -20.029295
9.7177715 4.8588862 -20.293938
9.6654129 3.8661642 -20.555733
9.6294661 2.8888378 -20.73547
9.6128407 1.9225693 -20.818592
9.5986481 0.95986462 -20.889557
9.5938129 -1.9073486e-06 -20.913733
9.6026859 -0.96026802 -20.869366
9.6115484 -1.9223118 -20.825054
9.6303587 -2.8891096 -20.731007
9.6762819 -3.8705144 -20.501385
9.7226458 -4.861321 -20.269569
9.7751532 -5.8650913 -20.007034
9.8540802 -6.8978553 -19.612396
9.94347 -7.9547787 -19.165447
10.04731 -9.0425787 -18.64625
10.184701 -10.184701 -17.959291
10.336649 -11.370314 -17.199554
10.553864 -12.664639 -16.11347
10.803494 -14.044543 -14.865322
11.246183 -15.744654 -12.651882
12.934436 16.462009 -10.089907
12.191484 14.408116 -13.466953
11.822172 12.896913 -15.145653
11.550917 11.550914 -16.378633
11.366845 10.333494 -17.215321
11.20225 9.1654768 -17.963478
11.074549 8.0542154 -18.543941
10.971444 6.9818287 -19.012594
10.87121 5.9297485 -19.468204
10.816867 4.9167566 -19.715221
10.766272 3.9150076 -19.945198
10.721146 2.9239464 -20.150318
10.69992 1.9454412 -20.246796
10.680713 0.97097301 -20.334106
10.668867 -0 -20.387947
10.679938 -0.9709034 -20.337622
10.701699 -1.9457607 -20.238708
10.725952 -2.9252596 -20.128466
10.774398 -3.9179668 -19.90826
10.823282 -4.9196758 -19.686056
10.890977 -5.9405346 -19.378361
10.988472 -6.9926672 -18.935198
11.087729 -8.0638027 -18.484028
11.221531 -9.1812544 -17.875834
11.392121 -10.356474 -17.100431
11.588047 -11.588045 -16.209862
11.89119 -12.972206 -14.831937
12.268849 -14.499547 -13.115303
13.222466 -16.828596 -8.7806778
13.964474 15.128178 -10.697491
13.289185 13.289185 -13.511194
12.933541 11.855745 -14.993038
12.657456 10.547879 -16.143396
12.458961 9.3442211 -16.970459
12.287123 8.1914139 -17.686449
12.165893 7.0967689 -18.191582
12.055905 6.0279536 -18.649857
11.976346 4.9901433 -18.981358
11.910085 3.9700279 -19.257444
11.851713 2.9629288 -19.500656
11.82486 1.9708071 -19.612547
11.807254 0.98393726 -19.685907
11.79438 -9.5367432e-07 -19.739546
11.81119 -0.98426437 -19.669506
11.830149 -1.9716902 -19.590513
11.853132 -2.9632831 -19.494743
11.915046 -3.9716835 -19.236774
11.987797 -4.994916 -18.933645
12.061666 -6.0308352 -18.625851
12.17625 -7.1028113 -18.148426
12.314784 -8.209856 -17.571196
12.472883 -9.3546629 -16.912447
12.708481 -10.590403 -15.930794
12.951237 -11.871969 -14.919307
13.363218 -13.363217 -13.202718
14.218349 -15.403214 -9.6396742
15.207861 14.038021 -10.391027
14.488451 12.259457 -13.157986
14.069623 10.822786 -14.768863
13.810239 9.5609341 -15.766489
13.579083 8.3563595 -16.655548
13.430999 7.2320776 -17.225105
13.294258 6.1358099 -17.751036
13.186986 5.0719161 -18.163618
13.122174 4.0375915 -18.412895
13.057997 3.013381 -18.659733
13.020771 2.0031948 -18.80291
12.99743 0.99980259 -18.892681
12.982911 -1.9073486e-06 -18.948528
12.994604 -0.99958897 -18.903549
13.026811 -2.0041265 -18.779676
13.064724 -3.0149388 -18.633854
13.13309 -4.0409532 -18.370911
13.21047 -5.0809484 -18.073294
13.30923 -6.142724 -17.693453
13.459517 -7.2474322 -17.115423
13.619132 -8.3810024 -16.50152
13.831607 -9.5757265 -15.684308
14.133217 -10.871706 -14.52427
14.551088 -12.312457 -12.917078
15.468648 -14.278753 -9.3879929
16.84577 13.235958 -8.7193327
15.797985 11.284274 -12.46142
15.350807 9.8683758 -14.058483
15.049417 8.5996637 -15.134883
14.830611 7.4153047 -15.916327
14.65488 6.2806611 -16.543943
14.513915 5.1835399 -17.047386
14.424562 4.1213031 -17.366505
14.336299 3.072063 -17.681728
14.28213 2.0403023 -17.875191
14.265895 1.0189896 -17.93317
14.25389 -9.5367432e-07 -17.976046
14.268245 -1.0191612 -17.924782
14.302532 -2.0432205 -17.802326
14.337029 -3.0722227 -17.679121
14.424238 -4.121213 -17.367662
14.538128 -5.1921883 -16.960913
14.653831 -6.2802153 -16.547686
14.8532 -7.426599 -15.835657
15.075953 -8.6148319 -15.040102
15.381571 -9.888154 -13.948618
15.894064 -11.352903 -12.118285
17.352562 10.411535 -11.040923
16.77309 8.9456453 -12.972499
16.397738 7.652276 -14.223667
16.171638 6.4686565 -14.977333
15.97904 5.3263459 -15.619329
15.851747 4.2271309 -16.043642
15.75742 3.1514821 -16.358065
15.683344 2.0911126 -16.604988
15.654405 1.0436249 -16.70145
15.625522 -0 -16.797722
15.63615 -1.0424123 -16.762295
15.698694 -2.0931616 -16.553814
15.761742 -3.152349 -16.343658
15.864197 -4.2304544 -16.00214
16.018276 -5.3394256 -15.488544
16.197577 -6.4790292 -14.890877
16.432234 -7.6683755 -14.108686
16.806082 -8.9632454 -12.862522
17.589155 -10.553493 -10.252281
18.532116 8.1077976 -10.969936
18.060602 6.7727222 -12.443414
17.726721 5.5395975 -13.486797
17.501028 4.3752546 -14.192085
17.333946 3.2501154 -14.714211
17.236408 2.1545534 -15.019016
17.194738 1.0746698 -15.14924
17.183834 -1.4305115e-06 -15.183311
17.198414 -1.0749016 -15.137758
17.263628 -2.1579552 -14.933958
17.350126 -3.253149 -14.663652
17.514301 -4.3785787 -14.150601
17.776474 -5.5551467 -13.331314
18.091505 -6.7843146 -12.346841
18.69243 -8.1779394 -10.468948
19.859194 4.6727505 -10.473403
19.490664 3.4395289 -11.557312
19.277832 2.2679782 -12.18329
19.205221 1.1297169 -12.396852
19.133154 -0 -12.608816
19.169489 -1.1276159 -12.501948
19.324474 -2.2734699 -12.046104
19.48303 -3.4381826 -11.579769
19.941278 -4.6920648 -10.23198
