# .PCD v0.7 - Point Cloud Data file format
VERSION 0.7
FIELDS x y z
SIZE 4 4 4
TYPE F F F
COUNT 1 1 1
WIDTH 1059
HEIGHT 1
VIEWPOINT 0 0 0 1 0 0 0
POINTS 1059
DATA ascii
-22.912661 -3.3378601e-06 -8.586319
-21.728634 7.242878 -8.5254784
-20.796686 5.7768555 -11.114222
-20.339367 4.519855 -12.384558
-20.109192 3.351531 -13.023929
-19.967857 2.2186494 -13.416529
-19.899811 1.105546 -13.605541
-19.873665 -0 -13.678174
-19.87496 -1.104167 -13.674576
-19.9897 -2.2210803 -13.355854
-20.149973 -3.3583283 -12.910649
-20.429316 -4.5398474 -12.1347
-20.805351 -5.7792645 -11.090158
-21.813974 -7.271327 -8.2884235
-19.901815 9.3655586 -10.348043
-19.202253 7.9068079 -12.405579
-18.796978 6.6342258 -13.597565
-18.513418 5.4451237 -14.431562
-18.338976 4.315053 -14.944626
-18.204121 3.2124901 -15.341261
-18.120674 2.1318426 -15.586695
-18.037931 1.0610538 -15.830059
-18.03573 4.7683716e-07 -15.836534
-18.074938 -1.063231 -15.721216
-18.114256 -2.1310887 -15.605576
-18.204668 -3.2125869 -15.339659
-18.366127 -4.3214445 -14.864779
-18.554293 -5.4571447 -14.311347
-18.847357 -6.6520071 -13.44939
-19.262695 -7.9317007 -12.227808
-20.019865 -9.4211121 -10.000839
-19.100058 11.937534 -9.1951189
-18.022738 10.13779 -12.561741
-17.578037 8.7890196 -13.951431
-17.276602 7.5585122 -14.893414
-17.049728 6.3936467 -15.602398
-16.864891 5.2702775 -16.180012
-16.73983 4.1849566 -16.570827
-16.624605 3.1171117 -16.930904
-16.561243 2.0701566 -17.128906
-16.541027 1.0338125 -17.192081
-16.520914 -1.9073486e-06 -17.25494
-16.523354 -1.0327101 -17.247318
-16.582312 -2.072793 -17.063076
-16.651701 -3.1221948 -16.846231
-16.750994 -4.1877494 -16.535938
-16.887402 -5.2773132 -16.109665
-17.043575 -6.3913403 -15.621623
-17.320478 -7.5777111 -14.756303
-17.643869 -8.8219376 -13.745701
-18.144291 -10.206165 -12.181892
-19.445633 -12.153517 -8.1151981
-17.294003 12.682269 -11.236121
-16.616684 11.07779 -13.493851
-16.226213 9.7357292 -14.79542
-15.963451 8.5138416 -15.671289
-15.720779 7.3363647 -16.480194
-15.551927 6.2207699 -17.043043
-15.427376 5.142457 -17.45821
-15.319764 4.0852704 -17.816914
-15.253881 3.0507736 -18.036526
-15.193484 2.0257978 -18.237848
-15.169042 1.0112686 -18.319326
-15.157991 -9.5367432e-07 -18.356161
-15.171948 -1.0114641 -18.309635
-15.204012 -2.0272031 -18.202755
-15.260921 -3.0521846 -18.01306
-15.327888 -4.0874367 -17.789835
-15.438132 -5.1460433 -17.422356
-15.583102 -6.233242 -16.939123
-15.740566 -7.3455982 -16.414238
-15.981156 -8.5232811 -15.612277
-16.268593 -9.7611551 -14.654156
-16.708534 -11.139021 -13.187687
-17.454014 -12.79961 -10.702749
-15.977085 13.694644 -11.821781
-15.384459 12.087786 -13.938303
-14.993375 10.709553 -15.335025
-14.723553 9.4651413 -16.298677
-14.509896 8.2913685 -17.061741
-14.364134 7.1820679 -17.582315
-14.223516 6.0957918 -18.084522
-14.110506 5.0394645 -18.488134
-14.038491 4.0109973 -18.745331
-13.982897 2.996336 -18.943878
-13.92869 1.9898129 -19.137476
-13.89677 0.99262428 -19.251476
-13.902601 -0 -19.230644
-13.913722 -0.99383926 -19.190935
-13.924859 -1.9892645 -19.151157
-13.974093 -2.9944491 -18.975315
-14.048865 -4.0139627 -18.708281
-14.125901 -5.0449667 -18.433149
-14.234616 -6.1005521 -18.04488
-14.375272 -7.1876383 -17.542542
-14.542069 -8.3097534 -16.946835
-14.765435 -9.4920673 -16.149099
-15.042481 -10.744633 -15.159648
-15.449662 -12.139022 -13.705433
-16.09523 -13.795913 -11.399835
-14.827188 14.827188 -11.855148
-14.2356 13.140553 -14.13049
-13.871596 11.737502 -15.530502
-13.603147 10.463959 -16.563
-13.391362 9.2709398 -17.377556
-13.223081 8.1372795 -18.024796
-13.081309 7.0437803 -18.570068
-12.987747 5.9943447 -18.929924
-12.902989 4.962687 -19.255913
-12.819529 3.9444704 -19.57692
-12.775918 2.9482889 -19.74465
-12.753058 1.9620075 -19.832573
-12.73028 0.97925186 -19.920179
-12.709435 -2.8610229e-06 -20.000353
-12.722575 -0.97866154 -19.949814
-12.752747 -1.9619598 -19.833767
-12.783063 -2.9499388 -19.717176
-12.840105 -3.9508038 -19.497776
-12.90478 -4.9633751 -19.249025
-12.988754 -5.9948111 -18.926044
-13.11103 -7.0597849 -18.455755
-13.24468 -8.1505737 -17.941717
-13.412828 -9.2858067 -17.294994
-13.633734 -10.487486 -16.44536
-13.913346 -11.772829 -15.369929
-14.267592 -13.170085 -14.007444
-14.913125 -14.913127 -11.524619
-13.77313 16.068651 -11.494753
-13.166403 14.263606 -14.022781
-12.789539 12.789539 -15.593047
-12.504869 11.462796 -16.779169
-12.317575 10.264642 -17.559574
-12.153106 9.1148262 -18.244858
-12.01461 8.009737 -18.821918
-11.903477 6.9436936 -19.284975
-11.816465 5.9082313 -19.647522
-11.74156 4.8923125 -19.959633
-11.691156 3.8970518 -20.169643
-11.642132 2.910532 -20.373915
-11.617512 1.9362526 -20.476498
-11.59672 0.96639156 -20.563133
-11.590768 -1.9073486e-06 -20.587929
-11.597869 -0.96649361 -20.558344
-11.622651 -1.937109 -20.455086
-11.647539 -2.9118843 -20.351381
-11.682209 -3.8940725 -20.206924
-11.754246 -4.8976002 -19.906771
-11.829713 -5.9148579 -19.592321
-11.916075 -6.9510422 -19.232485
-12.030818 -8.0205469 -18.754391
-12.16501 -9.1237602 -18.195253
-12.343005 -10.28584 -17.453609
-12.546308 -11.500783 -16.606516
-12.839075 -12.839073 -15.386653
-13.228551 -14.330928 -13.763834
-13.924797 -16.2456 -10.862809
-12.91085 17.605701 -10.197113
-12.152105 15.466311 -13.64596
-11.768291 13.907979 -15.390562
-11.491076 12.535717 -16.650637
-11.287365 11.287363 -17.57659
-11.107106 10.097368 -18.395952
-10.980598 8.9841251 -18.970982
-10.874383 7.9086404 -19.453785
-10.779352 6.8595877 -19.885742
-10.689937 5.8308744 -20.292175
-10.642567 4.8375273 -20.507496
-10.598279 3.853919 -20.708803
-10.554358 2.878459 -20.90844
-10.524549 1.9135523 -21.043934
-10.521327 0.95648289 -21.058582
-10.51892 -1.9073486e-06 -21.069525
-10.516514 -0.95604897 -21.08046
-10.532189 -1.9149437 -21.009207
-10.563838 -2.8810482 -20.865353
-10.600119 -3.8545895 -20.700434
-10.650891 -4.8413157 -20.469654
-10.713747 -5.843864 -20.183943
-10.782077 -6.8613214 -19.873356
-10.882071 -7.9142342 -19.418835
-11.001244 -9.0010166 -18.877148
-11.13523 -10.122936 -18.268116
-11.308422 -11.308421 -17.480879
-11.520618 -12.567947 -16.51635
-11.799711 -13.945113 -15.247747
-12.225505 -15.559732 -13.312323
-13.18381 -17.977922 -8.9563837
-11.196766 16.795145 -12.89897
-10.774884 15.084836 -15.008375
-10.479156 13.622899 -16.48702
-10.282584 12.339102 -17.469875
-10.113679 11.125044 -18.314402
-9.9812784 9.9812794 -18.976404
-9.8615685 8.8754091 -19.574955
-9.766016 7.8128123 -20.052715
-9.6898584 6.7829013 -20.433502
-9.6250877 5.7750516 -20.757359
-9.5753441 4.7876711 -21.006075
-9.5359068 3.8143597 -21.203262
-9.5099821 2.8529959 -21.332886
-9.4860163 1.8972034 -21.452719
-9.4744816 0.94744682 -21.510387
-9.4714708 9.5367432e-07 -21.525444
-9.4708576 -0.94708633 -21.528509
-9.4831371 -1.8966274 -21.467113
-9.5127373 -2.8538227 -21.319111
-9.542551 -3.8170223 -21.170038
-9.5749454 -4.7874737 -21.008068
-9.6385784 -5.7831488 -20.689899
-9.7077179 -6.7954011 -20.344208
-9.7829971 -7.8263988 -19.967808
-9.8825541 -8.8943014 -19.470024
-9.9867306 -9.9867287 -18.949148
-10.133997 -11.147399 -18.212807
-10.306888 -12.368266 -17.348358
-10.530245 -13.689318 -16.231575
-10.821768 -15.150474 -14.773958
-11.276684 -16.915028 -12.499376
-10.354404 18.407827 -11.358328
-9.8317633 16.386274 -14.261887
-9.5253105 14.817149 -15.964402
-9.3095016 13.447059 -17.16334
-9.1245632 12.166082 -18.190781
-9.0001783 11.000219 -18.881805
-8.8873672 9.8748512 -19.508535
-8.7856827 8.7856808 -20.073454
-8.7088375 7.7411885 -20.500368
-8.6402521 6.7201943 -20.881393
-8.5888052 5.7258692 -21.167212
-8.5414925 4.7452717 -21.430061
-8.5127487 3.7834435 -21.589745
-8.4907389 2.830246 -21.712025
-8.4688673 1.8819666 -21.833534
-8.4479704 0.93866253 -21.949629
-8.455615 -1.9073486e-06 -21.907156
-8.4633245 -0.94036865 -21.86433
-8.4710464 -1.8824568 -21.821423
-8.491436 -2.8304777 -21.708155
-8.5178308 -3.7857008 -21.561516
-8.5532465 -4.7518044 -21.364758
-8.6004601 -5.7336407 -21.102459
-8.6575298 -6.7336345 -20.785408
-8.7157288 -7.7473173 -20.462078
-8.8009787 -8.8009777 -19.988472
-8.9027462 -9.8919401 -19.423096
-9.0162601 -11.019872 -18.792467
-9.1571894 -12.209588 -18.009521
-9.3242769 -13.468399 -17.081261
-9.5602093 -14.871435 -15.770525
-9.8831253 -16.471874 -13.976544
-10.455774 -18.588039 -10.795164
-8.9158773 17.831755 -13.158562
-8.5683842 16.06572 -15.330393
-8.3484745 14.60983 -16.704832
-8.1718378 13.279236 -17.808809
-8.0290241 12.043536 -18.701395
-7.9121661 10.879227 -19.431759
-7.8225694 9.7782106 -19.991737
-7.740653 8.7082348 -20.503714
-7.6777506 7.6777511 -20.896854
-7.6217017 6.6689892 -21.24716
-7.5780458 5.6835346 -21.520008
-7.5397425 4.7123375 -21.759407
-7.5121112 3.7560558 -21.932098
-7.4928503 2.8098164 -22.052481
-7.4772263 1.8693027 -22.150133
-7.4674673 0.93343163 -22.211128
-7.4664702 -2.8610229e-06 -22.217354
-7.4720612 -0.93400955 -22.182411
-7.4776387 -1.8694105 -22.147552
-7.4880123 -2.8080053 -22.08272
-7.5196152 -3.7598076 -21.885202
-7.5514851 -4.7196789 -21.686012
-7.5853691 -5.6890278 -21.474237
-7.6353087 -6.6808949 -21.162117
-7.6921797 -7.6921792 -20.806677
-7.7588716 -8.7287312 -20.389847
-7.842227 -9.802784 -19.868877
-7.9300051 -10.903759 -19.320261
-8.05404 -12.08106 -18.545042
-8.1944141 -13.315924 -17.667713
-8.3790407 -14.663324 -16.513792
-8.612381 -16.148216 -15.055414
-8.9968834 -17.993769 -12.652275
-8.1062832 19.686686 -10.980772
-7.6520181 17.490328 -14.225523
-7.4063826 15.870818 -15.980063
-7.216208 14.432416 -17.338453
-7.0789304 13.146584 -18.319008
-6.9669948 11.943417 -19.118551
-6.8725619 10.799738 -19.793068
-6.7957916 9.708272 -20.341427
-6.7302141 8.6531296 -20.809837
-6.6742249 7.6276851 -21.209759
-6.6291318 6.6291299 -21.531855
-6.5892277 5.6479073 -21.816883
-6.557847 4.6841755 -22.041027
-6.5314951 3.7322845 -22.229259
-6.5150619 2.7921667 -22.346645
-6.506556 1.8590155 -22.407394
-6.4980917 0.928298 -22.467852
-6.4913139 -9.5367432e-07 -22.51627
-6.4961243 -0.92801666 -22.481907
-6.5072327 -1.8592129 -22.402563
-6.5188508 -2.7937927 -22.319574
-6.5416417 -3.7380829 -22.156784
-6.5671763 -4.6908407 -21.974392
-6.5928912 -5.6510496 -21.790712
-6.6361623 -6.6361613 -21.48164
-6.6876783 -7.6430597 -21.113667
-6.7399807 -8.6656876 -20.74008
-6.8101311 -9.7287598 -20.239002
-6.8885117 -10.824805 -19.679138
-6.9854002 -11.974972 -18.98708
-7.0994096 -13.184619 -18.172728
-7.2453346 -14.49067 -17.130405
-7.4321613 -15.926062 -15.795929
-7.6951723 -17.588963 -13.917282
-8.277215 -20.101809 -9.7598314
-6.7690458 19.178961 -12.47408
-6.4681139 17.248304 -14.981847
-6.2813163 15.703287 -16.538496
-6.1393814 14.325222 -17.721285
-6.0164771 13.035698 -18.745487
-5.9286952 11.857388 -19.477005
-5.8525057 10.729593 -20.111916
-5.7868042 9.6446733 -20.659428
-5.7346792 8.6020164 -21.093805
-5.6866984 7.5822635 -21.493645
-5.6511989 6.5930662 -21.789473
-5.6180682 5.6180668 -22.065561
-5.5938182 4.6615152 -22.267647
-5.5718985 3.7145987 -22.45031
-5.5586014 2.7793007 -22.561117
-5.5505486 1.8501825 -22.628223
-5.5425191 0.92374992 -22.695141
-5.5375752 -1.9073486e-06 -22.736334
-5.543139 -0.92385769 -22.689968
-5.5522881 -1.8507624 -22.613728
-5.5621562 -2.7810793 -22.531494
-5.5771127 -3.7180777 -22.406858
-5.5999179 -4.6665983 -22.216812
-5.6274824 -5.6274834 -21.987108
-5.6597958 -6.603096 -21.717833
-5.700767 -7.6010246 -21.376404
-5.7423363 -8.6135054 -21.029995
-5.7989173 -9.6648617 -20.558487
-5.8688707 -10.759595 -19.975542
-5.9440618 -11.888124 -19.348946
-6.0394726 -13.085524 -18.553858
-6.1532326 -14.357546 -17.605856
-6.3004384 -15.751095 -16.379147
-6.5113654 -17.36364 -14.62142
-6.8428564 -19.388096 -11.858987
-5.5534801 18.88183 -13.347995
-5.337955 17.081457 -15.503243
-5.1898942 15.56968 -16.983856
-5.0788174 14.220687 -18.094622
-4.9866495 12.965286 -19.016304
-4.9125547 11.79013 -19.75725
-4.8531852 10.677009 -20.350941
-4.8011141 9.6022263 -20.871655
-4.7580843 8.5645523 -21.301952
-4.7212291 7.5539641 -21.670507
-4.689733 6.5656233 -21.985468
-4.6635418 5.5962496 -22.247379
-4.6417351 4.6417322 -22.465445
-4.6241012 3.6992788 -22.641785
-4.6122127 2.7673283 -22.760672
-4.6042676 1.8417034 -22.840118
-4.6020555 0.92041111 -22.86224
-4.6001215 -9.5367432e-07 -22.88158
-4.6016345 -0.92032623 -22.866451
-4.6087251 -1.8434906 -22.795544
-4.6158242 -2.7694921 -22.724552
-4.6262283 -3.7009821 -22.62051
-4.6476073 -4.6476078 -22.406719
-4.6703911 -5.6044698 -22.178886
-4.6936588 -6.5711236 -21.946209
-4.7274709 -7.5639544 -21.608084
-4.766809 -8.5802593 -21.214703
-4.8106017 -9.6212044 -20.776783
-4.8649969 -10.702994 -20.232828
-4.9206367 -11.80953 -19.67643
-5.0025549 -13.006643 -18.857248
-5.0923023 -14.258444 -17.959774
-5.2099237 -15.629773 -16.783556
-5.3656511 -17.170084 -15.226286
-5.603159 -19.050739 -12.85121
-4.7381067 21.321478 -9.6564655
-4.3919754 18.665895 -13.983103
-4.23492 16.939678 -15.946299
-4.1229534 15.461071 -17.345884
-4.0394163 14.137957 -18.390091
-3.9710081 12.905775 -19.245197
-3.9132583 11.739775 -19.967068
-3.8663394 10.632434 -20.553553
-3.8259258 9.5648117 -21.058723
-3.7904735 8.5285635 -21.501877
-3.7631047 7.5262074 -21.843987
-3.7378533 6.5412416 -22.15963
-3.7194607 5.5791903 -22.389538
-3.7018769 4.6273451 -22.609337
-3.690299 3.690299 -22.754059
-3.6798661 2.7598972 -22.884472
-3.6730096 1.8365059 -22.970175
-3.6706531 0.91766167 -22.999632
-3.6685612 -1.9073486e-06 -23.025784
-3.6672964 -0.91682339 -23.041588
-3.6740372 -1.8370199 -22.957333
-3.6830666 -2.7623043 -22.844467
-3.6921406 -3.6921396 -22.731037
-3.7072923 -4.634119 -22.541639
-3.7240877 -5.5861311 -22.331699
-3.7416773 -6.5479374 -22.111826
-3.7685466 -7.5370936 -21.775961
-3.800029 -8.5500679 -21.382431
-3.8320873 -9.5802164 -20.981705
-3.8751149 -10.656567 -20.443857
-3.9239101 -11.771732 -19.83392
-3.9834309 -12.94615 -19.089909
-4.0504999 -14.17675 -18.251551
-4.1423631 -15.533861 -17.103262
-4.2575822 -17.030329 -15.663021
-4.426012 -18.810549 -13.557648
-3.4761102 20.856661 -10.947623
-3.2743313 18.554546 -14.310605
-3.1589699 16.847839 -16.233295
-3.0789909 15.394951 -17.566286
-3.0159254 14.074316 -18.617374
-2.9677007 12.860035 -19.421118
-2.9265192 11.706074 -20.107479
-2.8908291 10.599705 -20.702312
-2.8620865 9.540287 -21.181355
-2.8370659 8.5111971 -21.598366
-2.8160393 7.5094352 -21.948811
-2.7978899 6.5284071 -22.251297
-2.7825289 5.5650558 -22.507317
-2.7701621 4.6169357 -22.713428
-2.7627661 3.6836901 -22.836693
-2.7554097 2.7554102 -22.959299
-2.7486088 1.832406 -23.072649
-2.7468493 0.91561317 -23.101978
-2.7450998 -0 -23.131134
-2.745537 -0.91518116 -23.123848
-2.750159 -1.8334398 -23.046814
-2.7561808 -2.7561836 -22.946453
-2.7629561 -3.6839409 -22.83353
-2.7726841 -4.6211395 -22.671396
-2.7864959 -5.5729923 -22.441196
-2.801836 -6.5376172 -22.185528
-2.8204567 -7.5212197 -21.875179
-2.8425789 -8.5277367 -21.506483
-2.8651102 -9.5503654 -21.13096
-2.8976223 -10.624617 -20.589088
-2.93448 -11.737919 -19.9748
-2.9764931 -12.898137 -19.274578
-3.0286405 -14.133657 -18.405455
-3.0934532 -15.467264 -17.325243
-3.1705368 -16.909529 -16.04052
-3.2954996 -18.674498 -13.957808
-3.5536194 -21.321716 -9.6558113
-2.3239081 20.915169 -10.785097
-2.2067842 18.757668 -13.713186
-2.1009619 16.807693 -16.358751
-2.0477169 15.35788 -17.689871
-2.0073061 14.051142 -18.700142
-1.9740618 12.831402 -19.53125
-1.9472057 11.683235 -20.202654
-1.9238956 10.581425 -20.785408
-1.9042248 9.521122 -21.277178
-1.8878547 8.4953442 -21.686432
-1.8736762 7.4947 -22.040894
-1.8631219 6.5209227 -22.304752
-1.8536783 5.5610342 -22.540838
-1.8446418 4.6116018 -22.76675
-1.8393967 3.678791 -22.897879
-1.8341813 2.7512712 -23.028267
-1.8290993 1.8290968 -23.155315
-1.8278214 0.91390896 -23.187263
-1.8282523 -9.5367432e-07 -23.176489
-1.8286784 -0.91434193 -23.16584
-1.8308786 -1.8308783 -23.11083
-1.8348191 -2.7522287 -23.012318
-1.8387766 -3.6775541 -22.913382
-1.8452183 -4.6130428 -22.752342
-1.8547573 -5.56427 -22.513866
-1.8649518 -6.5273314 -22.258999
-1.8763524 -7.5054088 -21.973984
-1.8915552 -8.512001 -21.593916
-1.9086008 -9.5430059 -21.167772
-1.9289 -10.608952 -20.660294
-1.952054 -11.712324 -20.081446
-1.9779139 -12.856442 -19.434948
-2.0146194 -14.102338 -18.517313
-2.0557942 -15.418457 -17.487938
-2.1102607 -16.882088 -16.126276
-2.1860905 -18.581768 -14.230538
-2.3336227 -21.002605 -10.542229
-1.1755444 21.159798 -10.105578
-1.1156282 18.965681 -13.101382
-1.0615658 16.985048 -15.804513
-1.0222 15.333 -17.772795
-1.0028399 14.039759 -18.740799
-0.98591214 12.816855 -19.587191
-0.97229391 11.667527 -20.268099
-0.96141899 10.575609 -20.811844
-0.95161122 9.5161095 -21.302233
-0.94353712 8.4918346 -21.70594
-0.93629569 7.4903646 -22.068012
-0.93118626 6.5183048 -22.323483
-0.92636156 5.5581675 -22.564716
-0.92169482 4.6084719 -22.798054
-0.91866916 3.674675 -22.949337
-0.91628635 2.7488594 -23.068478
-0.91442746 1.8288555 -23.161421
-0.91357344 0.91357231 -23.204124
-0.9135164 -9.5367432e-07 -23.206974
-0.91350091 -0.91349983 -23.207752
-0.91416508 -1.8283329 -23.174541
-0.91664392 -2.7499342 -23.050598
-0.9193936 -3.6775742 -22.913122
-0.92230499 -4.6115246 -22.767546
-0.92697531 -5.5618534 -22.534031
-0.93169582 -6.521872 -22.298008
-0.93703997 -7.4963217 -22.030802
-0.94505548 -8.505497 -21.630022
-0.95356518 -9.5356531 -21.204536
-0.96322894 -10.595521 -20.721346
-0.97529936 -11.703594 -20.117826
-0.98876852 -12.853994 -19.444366
-1.0061696 -14.086374 -18.574314
-1.0254996 -15.382496 -17.607819
-1.0535725 -16.857161 -16.20417
-1.0918585 -18.561594 -14.289872
-1.1581197 -20.846153 -10.976812
0 21.41021 -9.4099884
0 19.178225 -12.47625
0 17.166418 -15.237733
0 15.339918 -17.749733
0 14.046455 -18.716883
0 12.82495 -19.556061
0 11.674826 -20.237682
0 10.576209 -20.809116
0 9.5149574 -21.308001
0 8.4896183 -21.718246
0 7.4933944 -22.049074
0 6.5186224 -22.321192
0 5.5579443 -22.566584
0 4.6083422 -22.799374
0 3.674571 -22.950649
0 2.7501507 -23.046944
0 1.8297119 -23.139977
0 0.91361141 -23.202175
0 -1.9073486e-06 -23.205029
0 -0.9137373 -23.195953
0 -1.8290033 -23.157784
0 -2.7507076 -23.037672
0 -3.677784 -22.910492
0 -4.611064 -22.772167
0 -5.5600114 -22.549379
0 -6.5250645 -22.275202
0 -7.5023055 -21.993393
0 -8.5094728 -21.607948
0 -9.5351162 -21.20722
0 -10.591239 -20.740799
0 -11.706749 -20.104671
0 -12.854702 -19.441633
0 -14.089018 -18.564877
0 -15.401682 -17.543854
0 -16.865885 -16.176907
0 -18.560083 -14.294317
0 -20.906113 -10.810258
1.2037194 21.66695 -8.696825
1.1409249 19.395721 -11.83655
1.0844668 17.351467 -14.659454
1.03326 15.498898 -17.219801
1.0039755 14.055655 -18.684019
0.98759121 12.838685 -19.503233
0.97404188 11.688501 -20.180702
0.96245122 10.586964 -20.760233
0.95301461 9.5301456 -21.232067
0.94461441 8.5015297 -21.652073
0.93746573 7.4997258 -22.009508
0.93146658 6.5202656 -22.309469
0.92729044 5.5637407 -22.518272
0.92315161 4.6157598 -22.725216
0.91973776 3.6789513 -22.895912
0.91760051 2.7528009 -23.002773
0.91547054 1.8309393 -23.109268
0.91365129 0.91365242 -23.200232
0.91427946 -0 -23.168827
0.91492403 -0.91492462 -23.136593
0.91556954 -1.8311405 -23.104321
0.91780984 -2.7534294 -22.992306
0.92022955 -3.6809177 -22.871321
0.92296624 -4.6148329 -22.73448
0.92755502 -5.5653334 -22.505043
0.93301928 -6.5311346 -22.231831
0.93866611 -7.5093303 -21.949493
0.94608623 -8.5147772 -21.578487
0.95496303 -9.5496311 -21.134645
0.96462351 -10.610857 -20.651623
0.97691286 -11.722955 -20.037153
0.98961681 -12.865018 -19.401957
1.008604 -14.120456 -18.452595
1.0279628 -15.419443 -17.484657
1.056398 -16.902369 -16.062893
1.0953741 -18.621357 -14.114092
1.1653031 -20.975452 -10.617644
2.4366667 21.93 -7.9661255
2.3081162 19.618986 -11.179892
2.192569 17.54055 -14.06857
2.087992 15.659937 -16.682997
2.0142221 14.099554 -18.527243
1.9806041 12.873926 -19.367695
1.9531261 11.718757 -20.054642
1.9293222 10.611269 -20.649744
1.9091386 9.5456924 -21.154331
1.893826 8.5222149 -21.537148
1.8799422 7.5197687 -21.884241
1.8671592 6.5350552 -22.203819
1.8581145 5.5743427 -22.429935
1.8492792 4.6231947 -22.65082
1.8416702 3.6833391 -22.841042
1.8374486 2.7561722 -22.946581
1.8344269 1.8344259 -23.022125
1.8314204 0.9157095 -23.097284
1.8319573 -9.5367432e-07 -23.083862
1.8325623 -0.91628075 -23.068735
1.8335282 -1.8335285 -23.044592
1.8376845 -2.7565269 -22.940681
1.8440024 -3.6880026 -22.782738
1.8503691 -4.6259222 -22.623571
1.8591878 -5.5775642 -22.403101
1.869567 -6.5434861 -22.14362
1.8802661 -7.5210638 -21.876143
1.8956945 -8.5306282 -21.490437
1.9138787 -9.5693932 -21.035828
1.9328214 -10.63052 -20.56226
1.9580339 -11.748202 -19.93195
1.9863803 -12.911474 -19.223289
2.0215161 -14.150611 -18.344893
2.0621636 -15.466226 -17.328711
2.1185889 -16.948713 -15.91807
2.2034829 -18.729605 -13.795724
2.3719344 -21.34741 -9.5844402
3.6998913 22.199347 -7.2179375
3.5024405 19.847157 -10.508791
3.325088 17.733801 -13.464665
3.1646028 15.823013 -16.13942
3.0331981 14.154923 -18.329491
2.9825988 12.924595 -19.172819
2.9385974 11.754389 -19.906172
2.9039323 10.647751 -20.483927
2.8734753 9.578249 -20.991541
2.8497527 8.5492544 -21.386921
2.8280411 7.5414414 -21.748783
2.80758 6.5510197 -22.089794
2.7939551 5.5879078 -22.316883
2.7808938 4.6348219 -22.534565
2.7692962 3.6923943 -22.727861
2.7635887 2.763587 -22.822987
2.758882 1.8392534 -22.901428
2.7543488 0.91811371 -22.976986
2.7544272 9.5367432e-07 -22.975676
2.7553391 -0.91844559 -22.960478
2.7581255 -1.8387489 -22.914036
2.7644196 -2.7644215 -22.809134
2.7727396 -3.6969843 -22.670467
2.782232 -4.6370525 -22.512262
2.7949255 -5.5898499 -22.300705
2.8121023 -6.5615726 -22.014425
2.8305202 -7.5480518 -21.707462
2.8535175 -8.5605526 -21.324173
2.8795259 -9.5984192 -20.890701
2.9073689 -10.660355 -20.426647
2.9475417 -11.790167 -19.757101
2.9903769 -12.958301 -19.043179
3.0430167 -14.200747 -18.165855
3.1115983 -15.557993 -17.022827
3.1977553 -17.054697 -15.586872
3.3268983 -18.852421 -13.434494
4.7248201 20.080484 -9.8225422
4.4828548 17.931421 -12.847107
4.2642813 15.991055 -15.579278
4.0670462 14.234659 -18.04472
4.0001535 13.000501 -18.880875
3.9388101 11.816429 -19.647673
3.8865924 10.688128 -20.300392
3.8472278 9.6180687 -20.79245
3.8143401 8.582262 -21.203547
3.784467 7.5689321 -21.576956
3.7560556 6.5730953 -21.932106
3.7379508 5.6069231 -22.158413
3.7221713 4.6527128 -22.355659
3.7065239 3.7065229 -22.551249
3.6980376 2.7735271 -22.657328
3.6903942 1.8451967 -22.752871
3.6827927 0.92069626 -22.847889
3.6833932 -1.9073486e-06 -22.840382
3.687149 -0.92178822 -22.793432
3.6909022 -1.8454523 -22.746521
3.698792 -2.7740955 -22.647892
3.7099636 -3.7099648 -22.508253
3.7217193 -4.6521521 -22.361309
3.7397101 -5.6095667 -22.136419
3.7628846 -6.5850487 -21.846739
3.7876294 -7.5752611 -21.537428
3.8180847 -8.5906925 -21.156734
3.856055 -9.6401367 -20.682106
3.8972056 -10.717316 -20.167727
3.9491169 -11.847353 -19.518835
4.0049577 -13.016111 -18.820827
4.080699 -14.282448 -17.874058
4.1735468 -15.650804 -16.713461
4.2994456 -17.197783 -15.139727
4.5075459 -19.15707 -12.53847
5.9762383 20.319208 -9.1204147
5.6666961 18.133427 -12.215836
5.3876224 16.162867 -15.006573
5.1349263 14.377795 -17.533531
5.0278459 13.0724 -18.604338
4.9528971 11.886953 -19.353825
4.887116 10.751654 -20.011635
4.8333454 9.6666889 -20.549343
4.7890258 8.620245 -20.992537
4.753418 7.6054654 -21.348618
4.7193184 6.6070452 -21.68961
4.6938233 5.6325865 -21.944565
4.6720996 4.6720972 -22.1618
4.6510463 3.7208347 -22.372334
4.6396608 2.7837973 -22.486187
4.6321812 1.8528748 -22.560982
4.6254306 0.92508411 -22.62849
4.6244998 9.5367432e-07 -22.637794
4.6274791 -0.9254961 -22.608006
4.6305017 -1.8522015 -22.577778
4.639915 -2.7839518 -22.483646
4.6568341 -3.7254667 -22.314453
4.6738772 -4.6738787 -22.144024
4.6968513 -5.6362219 -21.914286
4.7261381 -6.6165924 -21.621418
4.7550335 -7.6080551 -21.332464
4.7950339 -8.6310635 -20.932457
4.8443165 -9.688633 -20.439632
4.8976622 -10.774858 -19.906172
4.9613113 -11.907147 -19.269686
5.0379043 -13.098553 -18.503752
5.1387143 -14.3884 -17.495655
5.2703648 -15.811096 -16.17915
5.4384613 -17.403078 -14.498182
5.7412615 -19.520288 -11.470182
7.2577963 20.563755 -8.4011593
6.8773427 18.339579 -11.571606
6.5350547 16.337637 -14.424006
6.225584 14.526361 -17.002928
6.0914469 13.198133 -18.120739
5.9903092 11.980616 -18.963552
5.9055042 10.826758 -19.670258
5.836885 9.7281408 -20.242092
5.7788897 8.6683331 -20.725382
5.7330275 7.6440353 -21.107567
5.6929851 6.6418152 -21.44125
5.6597128 5.6597118 -21.718525
5.633081 4.6942348 -21.940456
5.609304 3.7395353 -22.138596
5.5938182 2.7969084 -22.267643
5.5847745 1.8615913 -22.34301
5.5779505 0.92965984 -22.399876
5.5766134 -9.5367432e-07 -22.411022
5.5787077 -0.92978477 -22.393562
5.5838218 -1.8612757 -22.350948
5.5958447 -2.797924 -22.250757
5.6143112 -3.7428741 -22.09687
5.6368961 -4.6974144 -21.908665
5.6633978 -5.6633983 -21.687817
5.6988153 -6.6486187 -21.392668
5.7374735 -7.6499672 -21.070518
5.7860932 -8.679142 -20.665354
5.8479505 -9.7465849 -20.149874
5.9186096 -10.850784 -19.561049
6.0034952 -12.006989 -18.85367
6.0982761 -13.212932 -18.063828
6.2337642 -14.545452 -16.934763
6.4011931 -16.002983 -15.53952
6.6503587 -17.734293 -13.463138
8.1157455 18.550274 -10.913186
7.7077312 16.516562 -13.827579
7.3382521 14.676502 -16.466711
7.1723723 13.32012 -17.651567
7.0500422 12.085787 -18.525349
6.9467783 10.916363 -19.262955
6.8647718 9.8068151 -19.848715
6.7958946 8.7375765 -20.340694
6.7414126 7.7044683 -20.729851
6.6894255 6.689425 -21.101185
6.6481867 5.6984453 -21.395752
6.6149607 4.7249708 -21.633076
6.5854139 3.7630939 -21.844124
6.5666208 2.8142643 -21.978359
6.554318 1.8726597 -22.066242
6.5458236 0.93511581 -22.126911
6.5440741 -9.5367432e-07 -22.139408
6.5461087 -0.93515873 -22.124874
6.5544324 -1.872695 -22.065426
6.5687656 -2.8151875 -21.963039
6.5912523 -3.7664299 -21.802425
6.6196065 -4.7282925 -21.599892
6.6534681 -5.7029724 -21.358021
6.6988745 -6.698875 -21.033695
6.7430062 -7.7062941 -20.718464
6.807497 -8.7524977 -20.257818
6.8837762 -9.8339672 -19.712969
6.9673176 -10.948641 -19.116245
7.0730405 -12.125212 -18.361078
7.1953263 -13.362748 -17.487612
7.363678 -14.727357 -16.285099
7.6018476 -16.289673 -14.583885
7.9555354 -18.184082 -12.057543
9.3833103 18.766621 -10.237108
8.9064083 16.699514 -13.217744
8.5051508 14.884014 -15.725606
8.3059206 13.497122 -16.970795
8.1510105 12.226516 -17.938978
8.0259209 11.035641 -18.720795
7.9219532 9.9024391 -19.37059
7.8414869 8.8216724 -19.873503
7.7710495 7.7710485 -20.313734
7.7069392 6.7435708 -20.714426
7.661005 5.74575 -21.001518
7.6224241 4.7640133 -21.242645
7.5849004 3.79245 -21.477169
7.5632424 2.836215 -21.612534
7.5499787 1.8874941 -21.695425
7.5383954 0.94229889 -21.767822
7.5364981 -0 -21.779682
7.5413322 -0.94266891 -21.74947
7.5466151 -1.8866568 -21.71645
7.5644865 -2.8366833 -21.604753
7.5944986 -3.7972488 -21.417183
7.6247492 -4.7654686 -21.228117
7.6680098 -5.751009 -20.957737
7.7189775 -6.7541084 -20.639187
7.7763538 -7.7763567 -20.280582
7.8541408 -8.8359098 -19.794418
7.9382939 -9.9228687 -19.268459
8.0408096 -11.056113 -18.627735
8.1794443 -12.269167 -17.761271
8.3363638 -13.546594 -16.780518
8.5586147 -14.977577 -15.391453
8.8654051 -16.622633 -13.474017
9.5862989 -19.172596 -8.9684334
10.185454 16.975756 -12.29694
9.7613535 15.184326 -14.653057
9.4986029 13.720202 -16.11278
9.2903318 12.38711 -17.269844
9.1354704 11.165573 -18.130184
9.0108185 10.012016 -18.822697
8.9112368 8.9112358 -19.375919
8.8318939 7.8505716 -19.816719
8.7539511 6.8086286 -20.249737
8.695529 5.7970185 -20.574303
8.6536245 4.8075676 -20.807106
8.6121464 3.8276205 -21.037537
8.5872774 2.8624258 -21.175697
8.5668564 1.9037437 -21.289148
8.5470381 0.94967079 -21.39925
8.5475426 -0 -21.39645
8.5575428 -0.95083714 -21.340893
8.5675411 -1.9038963 -21.285343
8.5902071 -2.8634033 -21.159426
8.6202211 -3.8312111 -20.992678
8.650445 -4.8058057 -20.824766
8.7035246 -5.802351 -20.529884
8.7699871 -6.8211031 -20.160646
8.837472 -7.8555331 -19.785727
8.9310484 -8.9310474 -19.265862
9.0369081 -10.041007 -18.677753
9.1704102 -11.208279 -17.936071
9.3244572 -12.43261 -17.080257
9.5397425 -13.77963 -15.884228
9.8019848 -15.247533 -14.427325
10.269817 -17.116364 -11.828257
11.147704 15.606784 -13.144277
10.771891 14.003456 -15.023346
10.507004 12.608405 -16.347776
10.309727 11.340698 -17.33416
10.151803 10.151802 -18.123779
10.025275 9.022747 -18.756416
9.9256516 7.9405203 -19.254539
9.8366709 6.8856702 -19.69944
9.7735491 5.8641286 -20.015049
9.7150726 4.8575354 -20.30743
9.6586256 3.8634481 -20.58967
9.6340199 2.8902044 -20.712696
9.6147356 1.9229479 -20.809113
9.5955286 0.95955372 -20.905151
9.5953865 -0 -20.905869
9.5992498 -0.9599247 -20.886549
9.6090231 -1.9218044 -20.837681
9.6373672 -2.8912106 -20.695965
9.6774464 -3.8709779 -20.495569
9.7187986 -4.8593988 -20.288803
9.7827892 -5.8696752 -19.968853
9.8518171 -6.8962712 -19.623709
9.9297562 -7.9438062 -19.234015
10.050227 -9.0452061 -18.63166
10.175653 -10.175652 -18.004536
10.344623 -11.379086 -17.159685
10.547569 -12.657084 -16.144947
10.833279 -14.083263 -14.7164
11.254364 -15.756107 -12.610977
12.934579 16.462189 -10.089261
12.195181 14.412484 -13.450156
11.814439 12.888476 -15.180801
11.553405 11.553405 -16.367319
11.354777 10.322525 -17.270176
11.196014 9.1603718 -17.991823
11.06496 8.0472431 -18.587523
10.961728 6.9756446 -19.056759
10.884178 5.9368258 -19.409254
10.82057 4.9184394 -19.698387
10.759368 3.9124966 -19.976582
10.726213 2.9253302 -20.127281
10.693262 1.9442301 -20.277058
10.670603 0.97005367 -20.380053
10.674432 -2.8610229e-06 -20.362652
10.682937 -0.97117615 -20.323997
10.69281 -1.944149 -20.279112
10.729171 -2.9261389 -20.113836
10.767647 -3.9155097 -19.93895
10.815446 -4.9161119 -19.72168
10.897279 -5.9439716 -19.349709
10.987074 -6.9917769 -18.941553
11.094122 -8.0684528 -18.454966
11.225304 -9.1843395 -17.858692
11.383329 -10.348482 -17.140388
11.599817 -11.599814 -16.156355
11.867669 -12.94655 -14.938844
12.248812 -14.475868 -13.206376
13.292272 -16.917435 -8.4633827
14.018915 15.187157 -10.470649
13.282785 13.282782 -13.537859
12.912482 11.836442 -15.080789
12.639809 10.533173 -16.216927
12.43333 9.3249969 -17.077255
12.278957 8.1859703 -17.720472
12.154941 7.0903816 -18.237209
12.062118 6.0310588 -18.623968
11.970703 4.9877911 -19.004866
11.89717 3.9657211 -19.311256
11.863145 2.9657869 -19.453026
11.829568 1.971591 -19.59293
11.803247 0.98360348 -19.702599
11.802166 -0 -19.707104
11.808372 -0.98403263 -19.681244
11.825583 -1.9709311 -19.609528
11.867848 -2.9669595 -19.43343
11.918135 -3.972713 -19.223906
11.982291 -4.9926233 -18.956583
12.072186 -6.0360937 -18.58202
12.16344 -7.0953388 -18.201797
12.308858 -8.2059088 -17.595888
12.479534 -9.3596525 -16.884739
12.687646 -10.57304 -16.017601
12.973514 -11.892389 -14.826489
13.388096 -13.388099 -13.099064
14.222644 -15.40786 -9.6217842
15.244545 14.071885 -10.249933
14.477822 12.250463 -13.198865
14.075586 10.827375 -14.74592
13.797305 9.5519791 -15.816236
13.585344 8.3602104 -16.631468
13.420315 7.2263222 -17.266201
13.297893 6.1374888 -17.737057
13.196012 5.0753903 -18.128902
13.12168 4.0374398 -18.414795
13.063827 3.01473 -18.637306
13.008624 2.0013266 -18.849621
12.989762 0.99921131 -18.922171
12.991417 -1.9073486e-06 -18.91581
12.996058 -0.99969673 -18.897963
13.021175 -2.0032549 -18.801353
13.065621 -3.0151448 -18.630402
13.11987 -4.0368819 -18.421759
13.206759 -5.0795245 -18.087566
13.323554 -6.149334 -17.638351
13.451079 -7.2428899 -17.147877
13.629292 -8.3872557 -16.462442
13.834031 -9.5774059 -15.674984
14.145115 -10.880858 -14.478509
14.578874 -12.335971 -12.810205
15.501546 -14.309122 -9.2614613
16.866581 13.252311 -8.6450071
15.790621 11.279016 -12.487719
15.327569 9.8534355 -14.141479
15.039319 8.593895 -15.170943
14.813301 7.4066501 -15.978148
14.63693 6.2729683 -16.608044
14.508494 5.1816039 -17.066746
14.411641 4.1176105 -17.412645
14.347896 3.0745497 -17.640312
14.285753 2.0408211 -17.862251
14.268245 1.0191612 -17.924778
14.252944 -9.5367432e-07 -17.979425
14.252627 -1.0180454 -17.980556
14.299762 -2.0428224 -17.812216
14.35919 -3.0769682 -17.599974
14.427055 -4.1220169 -17.357599
14.542444 -5.1937323 -16.945496
14.659743 -6.2827492 -16.526569
14.846151 -7.4230762 -15.860829
15.080798 -8.6176004 -15.022801
15.408819 -9.905674 -13.8513
15.853462 -11.323899 -12.263291
17.426479 10.455887 -10.794531
16.738195 8.9270382 -13.088813
16.40922 7.6576352 -14.185394
16.162109 6.4648433 -15.0091
15.972537 5.3241777 -15.641006
15.830485 4.2214608 -16.114511
15.739438 3.1478868 -16.418005
15.678504 2.0904636 -16.621115
15.649076 1.0432725 -16.719208
15.637265 9.5367432e-07 -16.758579
15.654354 -1.0436234 -16.701614
15.700583 -2.0934114 -16.547518
15.748064 -3.1496139 -16.389246
15.860079 -4.2293568 -16.015865
16.014185 -5.3380642 -15.502184
16.197685 -6.479075 -14.890514
16.480085 -7.6907067 -13.94918
16.849607 -8.9864597 -12.717433
17.483976 -10.490386 -10.602872
18.617479 8.1451445 -10.703173
18.009312 6.7534904 -12.603697
17.714462 5.535769 -13.525101
17.500612 4.3751531 -14.193388
17.362118 3.2553954 -14.626176
17.273125 2.1591415 -14.90428
17.223091 1.0764427 -15.060634
17.196461 -1.9073486e-06 -15.143854
17.226894 -1.0766821 -15.04875
17.262066 -2.1577578 -14.938845
17.370787 -3.2570219 -14.59909
17.554247 -4.3885627 -14.025777
17.767641 -5.5523872 -13.358918
18.123981 -6.7964945 -12.245354
18.710091 -8.1856651 -10.413763
19.853645 4.6714454 -10.489724
19.510681 3.4430585 -11.498436
19.25856 2.2657123 -12.239971
19.201109 1.129477 -12.40895
19.181116 -1.4305115e-06 -12.46775
19.162506 -1.1272068 -12.522485
19.299934 -2.2705808 -12.118284
19.527605 -3.4460518 -11.448668
19.945641 -4.6930933 -10.219152
