# .PCD v0.7 - Point Cloud Data file format
VERSION 0.7
FIELDS x y z
SIZE 4 4 4
TYPE F F F
COUNT 1 1 1
WIDTH 1075
HEIGHT 1
VIEWPOINT 0 0 0 1 0 0 0
POINTS 1075
DATA ascii
-22.217747 2.3387094 -10.415041
-21.859846 1.150516 -11.356884
-21.914371 -9.5367432e-07 -11.213392
-22.021074 -1.1590052 -10.932604
-22.229055 -2.3399 -10.385284
-20.725258 6.9084158 -11.31264
-20.192326 5.6089797 -12.793005
-19.876461 4.4169903 -13.670406
-19.667332 3.2778888 -14.25132
-19.528563 2.1698384 -14.636787
-19.445965 1.0803304 -14.866231
-19.406097 -0 -14.976974
-19.462036 -1.0812278 -14.821587
-19.526129 -2.1695704 -14.643551
-19.633404 -3.2722363 -14.345564
-19.885672 -4.4190364 -13.644821
-20.158667 -5.599627 -12.886499
-20.839855 -6.9466181 -10.994308
-19.295374 9.0801735 -12.131698
-18.745134 7.7185812 -13.750048
-18.378836 6.4866481 -14.827395
-18.158987 5.3408771 -15.474009
-17.96195 4.2263393 -16.05353
-17.84536 3.1491795 -16.396442
-17.758013 2.0891771 -16.653345
-17.708065 1.0416474 -16.800251
-17.713167 -1.9073486e-06 -16.785246
-17.718332 -1.0422573 -16.770058
-17.74419 -2.087553 -16.694
-17.862373 -3.1521845 -16.346403
-17.982141 -4.2310939 -15.994146
-18.151999 -5.3388247 -15.494568
-18.423147 -6.5022917 -14.697066
-18.764164 -7.7264214 -13.694077
-19.343401 -9.1027775 -11.990442
-18.276115 11.422568 -11.769937
-17.62919 9.9164171 -13.791574
-17.232487 8.6162434 -15.031275
-16.920086 7.4025364 -16.007524
-16.71516 6.2681832 -16.647921
-16.51943 5.1623216 -17.259575
-16.429825 4.1074553 -17.539597
-16.345491 3.0647788 -17.803137
-16.274971 2.0343704 -18.02351
-16.242886 1.0151806 -18.123781
-16.222927 2.8610229e-06 -18.186148
-16.237507 -1.0148458 -18.140585
-16.290367 -2.0362968 -17.975397
-16.343519 -3.0644107 -17.809296
-16.434858 -4.1087151 -17.523865
-16.578894 -5.1809068 -17.073753
-16.730421 -6.2739091 -16.600229
-16.972454 -7.4254503 -15.843872
-17.257727 -8.6288633 -14.952404
-17.705631 -9.9594173 -13.552701
-18.454407 -11.534005 -11.212772
-16.785046 12.309031 -12.932646
-16.25074 10.833826 -14.713665
-15.906118 9.5436707 -15.862398
-15.624865 8.3332624 -16.799911
-15.446578 7.2084012 -17.394199
-15.279373 6.1117463 -17.951555
-15.162513 5.0541716 -18.341087
-15.057096 4.0152245 -18.692474
-14.967184 2.9934359 -18.992188
-14.941381 1.9921846 -19.078196
-14.917233 0.99448013 -19.158688
-14.898082 -1.9073486e-06 -19.222527
-14.909585 -0.99397182 -19.184179
-14.948089 -1.9930792 -19.055836
-14.996011 -2.9992037 -18.896097
-15.069176 -4.018446 -18.65221
-15.170232 -5.0567465 -18.315351
-15.303156 -6.1212659 -17.872278
-15.457509 -7.2135081 -17.357763
-15.681561 -8.3634987 -16.610931
-15.940732 -9.5644388 -15.747021
-16.331335 -10.887561 -14.44501
-16.928253 -12.414053 -12.455288
-15.564033 13.340599 -13.296965
-15.056959 11.83047 -15.107937
-14.721196 10.515141 -16.307095
-14.45863 9.2948313 -17.244833
-14.267116 8.1526337 -17.928816
-14.093204 7.0466037 -18.549923
-13.971147 5.9876337 -18.985844
-13.883325 4.9583282 -19.299492
-13.798079 3.9423075 -19.603947
-13.749234 2.9462633 -19.778387
-13.700735 1.9572496 -19.951595
-13.663756 0.97598362 -20.083668
-13.674124 9.5367432e-07 -20.046637
-13.685254 -0.97751999 -20.006886
-13.697487 -1.9567852 -19.9632
-13.741603 -2.9446297 -19.805645
-13.814535 -3.9470081 -19.545174
-13.888288 -4.9601035 -19.281765
-13.974311 -5.9889894 -18.974545
-14.125148 -7.0625744 -18.435835
-14.279234 -8.1595612 -17.885534
-14.487221 -9.3132162 -17.142721
-14.75074 -10.536244 -16.201584
-15.116925 -11.877584 -14.893774
-15.66795 -13.429671 -12.925833
-14.403357 14.403355 -13.485271
-13.901095 12.831779 -15.417049
-13.591613 11.500593 -16.607363
-13.344379 10.264907 -17.558264
-13.158204 9.1095228 -18.274321
-12.995129 7.9969997 -18.901531
-12.877571 6.9340749 -19.353674
-12.773149 5.8952994 -19.755299
-12.672786 4.8741484 -20.141314
-12.618777 3.8826981 -20.349041
-12.578939 2.9028311 -20.502258
-12.539353 1.9291286 -20.654514
-12.52209 0.96323586 -20.720917
-12.51123 -9.5367432e-07 -20.762682
-12.522239 -0.96325207 -20.720339
-12.546009 -1.9301558 -20.628914
-12.581928 -2.9035244 -20.490768
-12.627575 -3.8854089 -20.315205
-12.693894 -4.8822665 -20.060123
-12.784702 -5.9006329 -19.710865
-12.885742 -6.9384766 -19.322248
-13.02069 -8.0127344 -18.803223
-13.17789 -9.1231556 -18.198605
-13.387163 -10.297818 -17.393705
-13.634089 -11.536538 -16.443993
-13.991048 -12.91481 -15.071074
-14.517713 -14.517712 -13.045447
-13.414929 15.650751 -12.987256
-12.889941 13.964103 -15.174707
-12.557894 12.557893 -16.558239
-12.288688 11.264631 -17.679932
-12.090516 10.075426 -18.505646
-11.929399 8.9470482 -19.176964
-11.814549 7.8763633 -19.655504
-11.709697 6.8306532 -20.092396
-11.625589 5.8127947 -20.442839
-11.561031 4.8170958 -20.711834
-11.504002 3.8346663 -20.949457
-11.451809 2.8629513 -21.166927
-11.431131 1.9051886 -21.253082
-11.4192 0.95159721 -21.302795
-11.409181 -1.9073486e-06 -21.344543
-11.406282 -0.95052242 -21.356621
-11.437123 -1.9061852 -21.228115
-11.469732 -2.8674345 -21.092243
-11.502528 -3.834177 -20.955597
-11.558921 -4.816216 -20.720627
-11.639815 -5.8199096 -20.38356
-11.721851 -6.8377452 -20.041746
-11.818274 -7.8788509 -19.639988
-11.96551 -8.9741325 -19.026501
-12.116501 -10.097085 -18.397377
-12.327521 -11.300226 -17.518126
-12.573185 -12.573187 -16.494526
-12.942688 -14.021246 -14.954933
-13.503726 -15.754345 -12.617274
-12.483833 17.023407 -12.138102
-11.881929 15.122457 -14.874025
-11.531764 13.628448 -16.465685
-11.27087 12.295493 -17.651569
-11.077043 11.07704 -18.5326
-10.923338 9.9303055 -19.231258
-10.78615 8.8250332 -19.854837
-10.684516 7.770555 -20.316814
-10.598279 6.7443576 -20.708801
-10.534634 5.7461638 -20.998096
-10.477638 4.7625628 -21.257168
-10.426842 3.7915773 -21.48806
-10.392802 2.8344002 -21.642784
-10.365294 1.8845997 -21.767822
-10.35647 0.94149685 -21.807934
-10.349627 -1.9073486e-06 -21.839039
-10.358985 -0.94172668 -21.796501
-10.36836 -1.8851576 -21.753885
-10.396435 -2.835393 -21.626278
-10.43597 -3.794899 -21.446564
-10.483596 -4.7652717 -21.230091
-10.541598 -5.7499614 -20.966444
-10.614994 -6.7549992 -20.632822
-10.707785 -7.7874818 -20.211048
-10.817561 -8.8507328 -19.712065
-10.949082 -9.9537106 -19.114243
-11.103587 -11.103587 -18.411945
-11.3167 -12.345492 -17.443251
-11.569376 -13.6729 -16.294724
-11.922265 -15.173794 -14.690681
-12.58238 -17.157791 -11.690157
-11.765242 18.824387 -10.056589
-10.935838 16.403753 -14.203609
-10.563322 14.788651 -16.066185
-10.302994 13.393894 -17.367825
-10.102377 12.122852 -18.370911
-9.9335871 10.926945 -19.214863
-9.8071747 9.8071737 -19.846922
-9.6978006 8.7280216 -20.393793
-9.6172934 7.6938348 -20.796331
-9.5474205 6.6831937 -21.145695
-9.4785566 5.6871347 -21.490015
-9.4229393 4.7114706 -21.768101
-9.3947716 3.7579079 -21.908937
-9.3671255 2.8101377 -22.047165
-9.3421917 1.8684368 -22.171837
-9.3173895 0.93173885 -22.295847
-9.3229227 -0 -22.268183
-9.3320599 -0.9332056 -22.222496
-9.3412151 -1.8682442 -22.17672
-9.3554449 -2.806633 -22.105576
-9.3970203 -3.7588062 -21.89769
-9.4390793 -4.7195415 -21.687401
-9.4815159 -5.6889091 -21.475216
-9.5470524 -6.6829386 -21.147533
-9.6302433 -7.7041965 -20.731577
-9.7153368 -8.7438059 -20.30611
-9.8262196 -9.8262196 -19.751701
-9.9659166 -10.962507 -19.053209
-10.122873 -12.147449 -18.268433
-10.336748 -13.43777 -17.199057
-10.605757 -14.848061 -15.854015
-11.013418 -16.52013 -13.815705
-10.070292 17.902737 -12.93673
-9.623867 16.039776 -15.416871
-9.3432865 14.534 -16.975651
-9.1441517 13.208218 -18.081955
-8.9816742 11.975565 -18.984608
-8.8488388 10.815247 -19.72258
-8.7415075 9.7127857 -20.318863
-8.6399946 8.6399937 -20.882826
-8.5779696 7.6248608 -21.227413
-8.5168295 6.6241994 -21.567081
-8.4589739 5.6393147 -21.888496
-8.4184322 4.6769047 -22.113731
-8.383029 3.72579 -22.31041
-8.3589573 2.7863178 -22.444145
-8.3401594 1.8533659 -22.54858
-8.3318348 0.92575741 -22.59483
-8.3245068 -1.9073486e-06 -22.635536
-8.3326015 -0.92584229 -22.590565
-8.3422012 -1.8538237 -22.537235
-8.3630123 -2.7876711 -22.421618
-8.3868647 -3.7274952 -22.289101
-8.4240875 -4.6800508 -22.082308
-8.467802 -5.6452026 -21.839451
-8.5193338 -6.6261516 -21.553162
-8.5877619 -7.6335669 -21.17301
-8.6611538 -8.6611557 -20.765272
-8.7499838 -9.7222042 -20.271774
-8.8689432 -10.839819 -19.610888
-8.9931917 -11.990921 -18.920618
-9.1671009 -13.24137 -17.954456
-9.3647652 -14.56741 -16.856329
-9.6643915 -16.107319 -15.19173
-10.153249 -18.050222 -12.475861
-9.3637886 19.898052 -10.359113
-8.7222319 17.44446 -14.368847
-8.4130468 15.77446 -16.301254
-8.1954832 14.342093 -17.661028
-8.0209198 13.033994 -18.752048
-7.9030824 11.854622 -19.488529
-7.793963 10.716698 -20.17053
-7.7044253 9.6305313 -20.730137
-7.6281829 8.5817051 -21.206654
-7.5609765 7.5609751 -21.62669
-7.5053439 6.5671759 -21.974392
-7.4691353 5.6018486 -22.200705
-7.4335952 4.645997 -22.422827
-7.3986044 3.6993008 -22.641518
-7.3752065 2.7657013 -22.787754
-7.3678617 1.8419666 -22.83366
-7.3606153 0.92007637 -22.87895
-7.3538036 9.5367432e-07 -22.921522
-7.3487873 -0.91859818 -22.952873
-7.3656483 -1.8414135 -22.847494
-7.3839211 -2.7689734 -22.733288
-7.4022632 -3.7011328 -22.618652
-7.4284906 -4.6428061 -22.454727
-7.4731026 -5.6048293 -22.175903
-7.5182319 -6.5784526 -21.89385
-7.5653763 -7.5653768 -21.599199
-7.6375961 -8.5922976 -21.14782
-7.7168722 -9.6460896 -20.652344
-7.8052568 -10.732226 -20.099939
-7.9205399 -11.880812 -19.379425
-8.0507669 -13.082499 -18.565506
-8.2264357 -14.396262 -17.467575
-8.4505186 -15.84472 -16.067055
-8.7779608 -17.555923 -14.020536
-7.8666105 19.104622 -12.692724
-7.5021558 17.147781 -15.295974
-7.2702603 15.579126 -16.952366
-7.0990295 14.198057 -18.175446
-6.9646034 12.934263 -19.135626
-6.8531809 11.748309 -19.931503
-6.7643466 10.629688 -20.566032
-6.6937985 9.5625687 -21.069948
-6.6305175 8.524951 -21.521961
-6.5737681 7.512876 -21.927307
-6.5280123 6.5280113 -22.254135
-6.4944954 5.5667086 -22.493546
-6.4641566 4.6172533 -22.710251
-6.43925 3.6795721 -22.888153
-6.4208779 2.7518044 -23.019381
-6.4074373 1.8306961 -23.115387
-6.4012656 0.9144659 -23.159473
-6.3968844 -1.9073486e-06 -23.190762
-6.4004831 -0.91435432 -23.16506
-6.4085126 -1.8310051 -23.107708
-6.4244123 -2.7533188 -22.994135
-6.4403915 -3.6802235 -22.880001
-6.4654555 -4.6181812 -22.700972
-6.4994602 -5.5709682 -22.458076
-6.5378637 -6.5378652 -22.183767
-6.5800476 -7.5200534 -21.882458
-6.6367874 -8.5330124 -21.477171
-6.7036386 -9.5766277 -20.999664
-6.7718706 -10.641511 -20.512295
-6.8688951 -11.775249 -19.819263
-6.9775033 -12.958223 -19.043488
-7.114543 -14.229086 -18.064629
-7.2868395 -15.614657 -16.833944
-7.5406013 -17.235662 -15.021358
-7.9660282 -19.346069 -11.982594
-6.602222 18.706293 -13.864284
-6.3351445 16.893715 -16.089928
-6.1614203 15.403551 -17.537628
-6.0336223 14.07845 -18.602612
-5.9260201 12.839708 -19.499292
-5.8377848 11.67557 -20.234591
-5.7642608 10.56781 -20.847292
-5.697319 9.4955301 -21.40514
-5.6498761 8.4748135 -21.800495
-5.6078873 7.4771805 -22.150402
-5.5703392 6.4987288 -22.463299
-5.5348139 5.534812 -22.75935
-5.5101905 4.5918264 -22.96454
-5.4945111 3.6630058 -23.095201
-5.4789057 2.7394524 -23.225248
-5.4634037 1.8211355 -23.354431
-5.4577675 0.90962791 -23.401398
-5.4608235 -0 -23.375935
-5.4638829 -0.91065025 -23.350437
-5.4669461 -1.8223152 -23.324913
-5.4764504 -2.738224 -23.245708
-5.495872 -3.6639137 -23.083864
-5.5171967 -4.5976648 -22.906157
-5.5388618 -5.5388641 -22.725611
-5.5720592 -6.5007362 -22.448967
-5.6135278 -7.484705 -22.103399
-5.6556182 -8.483429 -21.752644
-5.7101908 -9.5169868 -21.297874
-5.774241 -10.586107 -20.764122
-5.8474369 -11.694874 -20.154156
-5.9389067 -12.867631 -19.391911
-6.045012 -14.105028 -18.507694
-6.1884928 -15.471235 -17.312021
-6.3781676 -17.008448 -15.731401
-6.6710138 -18.901207 -13.291011
-5.8538799 21.073965 -10.344001
-5.4288836 18.458202 -14.593961
-5.2377868 16.760918 -16.504929
-5.0958662 15.287598 -17.924133
-4.9893551 13.970193 -18.989246
-4.9073858 12.759203 -19.808939
-4.8383594 11.612061 -20.499207
-4.7794104 10.5147 -21.088696
-4.7279153 9.4558287 -21.603643
-4.6858001 8.4344387 -22.024799
-4.6511402 7.4418249 -22.371393
-4.6212196 6.4697046 -22.670603
-4.5956941 5.5148306 -22.925854
-4.5738659 4.5738659 -23.144135
-4.560204 3.6481609 -23.280758
-4.5474324 2.7284584 -23.40847
-4.5379424 1.815177 -23.503368
-4.5319996 0.90639973 -23.562799
-4.5328422 -1.9073486e-06 -23.554379
-4.535295 -0.90705776 -23.529846
-4.5377378 -1.8150959 -23.505417
-4.545095 -2.7270594 -23.43185
-4.5617938 -3.6494341 -23.264858
-4.5792546 -4.5792561 -23.09025
-4.5968628 -5.5162354 -22.914169
-4.6234636 -6.4728518 -22.648159
-4.6571307 -7.4514098 -22.311493
-4.6913052 -8.4443493 -21.969746
-4.731349 -9.462698 -21.569305
-4.7876296 -10.532785 -21.006504
-4.8452649 -11.628635 -20.430149
-4.9176893 -12.785992 -19.705904
-5.0068045 -14.019051 -18.814753
-5.1151104 -15.345333 -17.731689
-5.255527 -16.817686 -16.327528
-5.4706702 -18.600281 -14.176094
-4.5589805 20.515411 -11.895544
-4.2982826 18.267702 -15.154263
-4.1599655 16.639862 -16.883224
-4.0559745 15.209904 -18.183115
-3.9741588 13.909554 -19.205814
-3.9081497 12.701483 -20.030924
-3.8505764 11.551726 -20.750591
-3.8094187 10.475901 -21.265062
-3.7707655 9.4269123 -21.748226
-3.7362368 8.4065323 -22.179836
-3.7050838 7.4101667 -22.569248
-3.685766 6.4500895 -22.810719
-3.6666594 5.4999895 -23.049555
-3.6498179 4.5622721 -23.260071
-3.6336741 3.6336746 -23.46187
-3.6258447 2.7193813 -23.55974
-3.6211021 1.8105516 -23.619019
-3.6163819 0.9040947 -23.678024
-3.612211 -9.5367432e-07 -23.730156
-3.6148586 -0.90371609 -23.697063
-3.6216524 -1.8108273 -23.612144
-3.6284609 -2.7213449 -23.527033
-3.6374421 -3.6374426 -23.414766
-3.6513295 -4.5641623 -23.241179
-3.6684566 -5.5026855 -23.02709
-3.6875081 -6.4531384 -22.788942
-3.7130885 -7.426177 -22.469194
-3.7403946 -8.4158878 -22.127865
-3.7737942 -9.4344864 -21.710367
-3.815527 -10.492699 -21.188709
-3.8603568 -11.581072 -20.628338
-3.9153054 -12.724745 -19.941475
-3.9849107 -13.947188 -19.071411
-4.0645676 -15.24213 -18.075699
-4.1747108 -16.698845 -16.69891
-4.3309646 -18.406599 -14.745743
-4.6161828 -20.772825 -11.180511
-3.3714983 20.228991 -12.691153
-3.204325 18.157839 -15.47738
-3.1016619 16.542196 -17.188431
-3.0268934 15.134466 -18.434572
-2.9702663 13.861241 -19.378357
-2.9219313 12.661699 -20.183945
-2.8812444 11.524977 -20.862057
-2.8476176 10.441265 -21.422501
-2.819452 9.3981733 -21.891926
-2.7956133 8.3868408 -22.289238
-2.7746203 7.398984 -22.639126
-2.7568653 6.4326868 -22.93504
-2.7429786 5.4859533 -23.166487
-2.7304425 4.5507355 -23.375422
-2.719085 3.6254454 -23.564718
-2.7134452 2.7134447 -23.65871
-2.7098732 1.8065825 -23.718243
-2.7063107 0.90210247 -23.777617
-2.70384 -0 -23.818798
-2.7058709 -0.90196037 -23.78495
-2.7107937 -1.8071966 -23.7029
-2.715735 -2.7157354 -23.620548
-2.7207782 -3.6277056 -23.536491
-2.7311068 -4.5518446 -23.364349
-2.7451777 -5.4903545 -23.129831
-2.7593946 -6.4385886 -22.892887
-2.7754099 -7.4010954 -22.625965
-2.798985 -8.3969564 -22.233046
-2.8239217 -9.4130735 -21.817432
-2.8516128 -10.455914 -21.355915
-2.8875954 -11.550381 -20.756207
-2.9275661 -12.686119 -20.090031
-2.9773834 -13.894457 -19.259737
-3.0377984 -15.188992 -18.252827
-3.1167109 -16.622458 -16.937614
-3.2268796 -18.285652 -15.101467
-3.4216952 -20.53017 -11.854547
-2.2366064 20.129457 -12.967638
-2.1255081 18.066816 -15.745091
-2.0605593 16.484472 -17.368818
-2.0122638 15.091976 -18.576202
-1.9733235 13.813261 -19.549709
-1.944347 12.638254 -20.27412
-1.918185 11.509108 -20.928171
-1.8943833 10.419106 -21.523214
-1.8759423 9.3797112 -21.984238
-1.8612416 8.3755856 -22.351757
-1.847554 7.3902159 -22.693945
-1.8345523 6.4209318 -23.018986
-1.8243762 5.4731283 -23.27339
-1.816955 4.542387 -23.45892
-1.8101538 3.620306 -23.628952
-1.8060297 2.7090435 -23.732056
-1.8030548 1.8030539 -23.806423
-1.80145 0.90072632 -23.846542
-1.8014046 -9.5367432e-07 -23.847677
-1.8013644 -0.90068436 -23.84869
-1.8040251 -1.8040266 -23.782173
-1.8073075 -2.7109613 -23.700108
-1.8121567 -3.6243143 -23.57888
-1.8183204 -4.5458021 -23.424786
-1.8275411 -5.4826241 -23.194267
-1.836856 -6.4289975 -22.961395
-1.8477077 -7.3908296 -22.690102
-1.8629762 -8.3833923 -22.308392
-1.8792671 -9.3963356 -21.901123
-1.8963367 -10.429853 -21.474377
-1.921036 -11.526217 -20.856895
-1.9472411 -12.657065 -20.201771
-1.9789416 -13.852592 -19.409254
-2.0198159 -15.148619 -18.387398
-2.0704019 -16.563215 -17.122749
-2.1372099 -18.166281 -15.452555
-2.2582011 -20.323807 -12.427771
-1.1144191 20.059542 -13.161843
-1.0616533 18.048109 -15.800131
-1.0288172 16.461075 -17.441935
-1.004361 15.065413 -18.664749
-0.98625654 13.807591 -19.569969
-0.97062534 12.618128 -20.351528
-0.95777094 11.493252 -20.994247
-0.94634491 10.409794 -21.565548
-0.93714356 9.3714352 -22.025616
-0.92937648 8.3643856 -22.413973
-0.92268318 7.381465 -22.748638
-0.91659951 6.4161959 -23.052818
-0.91187799 5.4712667 -23.288898
-0.90790093 4.5395021 -23.487755
-0.90463936 3.618557 -23.650829
-0.90234637 2.7070389 -23.765476
-0.90031177 1.800622 -23.86721
-0.90023124 0.90023041 -23.871237
-0.90015817 9.5367432e-07 -23.874886
-0.90010786 -0.90010738 -23.877407
-0.90044785 -1.8008966 -23.860409
-0.90320998 -2.7096319 -23.722301
-0.90599161 -3.6239672 -23.583214
-0.90878797 -4.5439396 -23.443398
-0.91276765 -5.4766073 -23.244415
-0.91793555 -6.4255514 -22.986021
-0.92385387 -7.3908296 -22.690102
-0.93061006 -8.375494 -22.352293
-0.93873996 -9.3873997 -21.945797
-0.94845062 -10.432959 -21.460266
-0.95983332 -11.518002 -20.891129
-0.97285533 -12.647121 -20.240032
-0.98874116 -13.842376 -19.445736
-1.0089519 -15.134276 -18.435205
-1.033884 -16.542147 -17.188597
-1.0677859 -18.152363 -15.493503
-1.1248345 -20.247019 -12.641073
0 20.048988 -13.191156
0 18.054953 -15.779989
0 16.467812 -17.420877
0 15.078684 -18.620514
0 13.819195 -19.528524
0 12.619615 -20.345818
0 11.490379 -21.006218
0 10.407895 -21.574177
0 9.3719549 -22.023022
0 8.35886 -22.444679
0 7.3788824 -22.764771
0 6.4134007 -23.072783
0 5.4711742 -23.289675
0 4.5387726 -23.495049
0 3.6197081 -23.636456
0 2.7075844 -23.756367
0 1.8017168 -23.839863
0 0.90027142 -23.869221
0 -9.5367432e-07 -23.872749
0 -0.90027809 -23.869097
0 -1.8025112 -23.820059
0 -2.7102757 -23.711521
0 -3.6244593 -23.577091
0 -4.5440969 -23.441858
0 -5.4730825 -23.273777
0 -6.4255681 -22.985888
0 -7.3908734 -22.689837
0 -8.3686886 -22.390072
0 -9.3891811 -21.936895
0 -10.436094 -21.446007
0 -11.509796 -20.925316
0 -12.654963 -20.209867
0 -13.846931 -19.429478
0 -15.138167 -18.422232
0 -16.537466 -17.203207
0 -18.179201 -15.414557
0 -20.289856 -12.522091
1.1209792 20.177624 -12.833837
1.0637307 18.083422 -15.696261
1.03091 16.494558 -17.337299
1.0071899 15.107846 -18.5233
0.98809457 13.833324 -19.478067
0.97264951 12.644441 -20.250322
0.95922112 11.510653 -20.92174
0.94731158 10.420424 -21.517221
0.93828297 9.3828297 -21.968649
0.93008554 8.3707685 -22.378517
0.92347747 7.3878183 -22.708923
0.91746974 6.422287 -23.009312
0.912866 5.4771948 -23.239494
0.908593 4.542964 -23.453148
0.90572393 3.6228933 -23.5966
0.90295905 2.7088757 -23.734844
0.90140617 1.8028107 -23.812487
0.90046042 0.90045834 -23.859776
0.90049309 -0 -23.858139
0.90147436 -0.90147305 -23.809076
0.90245771 -1.8049154 -23.759911
0.90379333 -2.711381 -23.69313
0.90648413 -3.6259384 -23.55859
0.90990818 -4.5495424 -23.387386
0.913755 -5.4825306 -23.195049
0.91904432 -6.4333129 -22.93058
0.92488402 -7.3990736 -22.638594
0.93154204 -8.3838806 -22.305693
0.94014138 -9.401413 -21.875732
0.94983345 -10.448169 -21.391127
0.96033168 -11.52398 -20.866211
0.97480309 -12.672441 -20.142643
0.99024719 -13.863462 -19.370436
1.0107708 -15.161562 -18.344261
1.0350678 -16.561087 -17.129408
1.0717971 -18.220551 -15.292941
1.1320436 -20.376785 -12.280617
2.2577417 20.319674 -12.439256
2.1388929 18.180588 -15.410474
2.0700822 16.560658 -17.130737
2.0219798 15.164846 -18.333303
1.9807807 13.865465 -19.363277
1.94937 12.670904 -20.148546
1.9228898 11.537338 -20.810553
1.8990672 10.444866 -21.406118
1.8802881 9.4014397 -21.875593
1.8635964 8.3861847 -22.292885
1.8498213 7.3992844 -22.637264
1.8379732 6.4329042 -22.933464
1.8285224 5.4855652 -23.169735
1.8206246 4.5515614 -23.36718
1.8146755 3.6293497 -23.515907
1.8093296 2.7139921 -23.649555
1.806425 1.8064241 -23.722172
1.8039593 0.90197849 -23.783813
1.8042021 -9.5367432e-07 -23.777744
1.805984 -0.9029932 -23.733196
1.8077694 -1.8077688 -23.68856
1.8095584 -2.7143373 -23.643833
1.8158581 -3.6317158 -23.486343
1.8235182 -4.558795 -23.294842
1.831238 -5.4937162 -23.101845
1.8403275 -6.4411469 -22.874607
1.8532619 -7.4130492 -22.551247
1.8676902 -8.4046059 -22.190544
1.8835014 -9.41751 -21.795258
1.9035151 -10.469334 -21.29492
1.9268328 -11.560997 -20.711973
1.9543954 -12.70357 -20.022915
1.987607 -13.91325 -19.192621
2.0286906 -15.215177 -18.165535
2.0812407 -16.649925 -16.851782
2.1559947 -18.325953 -14.982933
2.2941635 -20.647474 -11.528708
3.4371412 20.622849 -11.597108
3.2762094 18.565187 -14.279308
3.1323233 16.705725 -16.677406
3.0441484 15.220743 -18.146984
2.98317 13.921459 -19.163296
2.9326794 12.708277 -20.004807
2.8922319 11.568924 -20.67893
2.8577659 10.478476 -21.253363
2.8283641 9.4278784 -21.743397
2.8043182 8.4129562 -22.144159
2.782994 7.4213171 -22.499565
2.7655201 6.452879 -22.790791
2.750339 5.5006771 -23.043808
2.7382331 4.5637207 -23.245583
2.7281356 3.6375141 -23.413866
2.7201345 2.7201338 -23.547224
2.7156508 1.8104334 -23.621946
2.7125533 0.90418339 -23.673576
2.7125075 -2.8610229e-06 -23.674339
2.7147727 -0.90492535 -23.636585
2.7179518 -1.8119707 -23.583597
2.723664 -2.7236643 -23.488392
2.7311609 -3.6415491 -23.363445
2.7423007 -4.5705042 -23.177784
2.7535317 -5.5070629 -22.990604
2.766717 -6.4556732 -22.770847
2.7876303 -7.433682 -22.422291
2.809026 -8.4270782 -22.065699
2.8307526 -9.4358425 -21.703587
2.8643622 -10.502663 -21.143429
2.8995717 -11.598288 -20.556601
2.9397786 -12.73904 -19.88649
2.9941885 -13.972881 -18.979654
3.0538254 -15.269129 -17.985706
3.1400247 -16.746798 -16.549051
3.260289 -18.474972 -14.544647
3.5013351 -21.008013 -10.527205
4.4873085 19.07106 -12.791441
4.2850337 17.140135 -15.319874
4.1002474 15.375929 -17.629702
3.9999671 13.999886 -18.883204
3.9310877 12.776033 -19.744198
3.8738787 11.621635 -20.459311
3.8275411 10.525736 -21.038534
3.7863817 9.465951 -21.553026
3.7532959 8.444912 -21.966599
3.7224185 7.4448352 -22.352562
3.6996956 6.4744654 -22.6366
3.6786566 5.5179825 -22.89959
3.6638205 4.5797777 -23.085037
3.6499112 3.649909 -23.258904
3.6407344 2.7305498 -23.373619
3.6332536 1.8166256 -23.467123
3.6292691 0.90731621 -23.51693
3.6273365 -9.5367432e-07 -23.541092
3.6289523 -0.90723896 -23.520897
3.6365893 -1.8182945 -23.425426
3.644249 -2.7331858 -23.329685
3.6519508 -3.6519489 -23.23341
3.6664295 -4.5830393 -23.052427
3.6855445 -5.5283146 -22.81349
3.7053611 -6.4843817 -22.565786
3.7309849 -7.4619689 -22.245487
3.7597303 -8.4593964 -21.886162
3.7943501 -9.4858761 -21.453421
3.8371706 -10.552219 -20.918167
3.8839538 -11.651861 -20.33337
3.9423079 -12.812502 -19.603947
4.0151134 -14.052898 -18.69388
4.101933 -15.382248 -17.608635
4.2201343 -16.880537 -16.131119
4.4063625 -18.727043 -13.803266
5.7662377 19.605209 -11.220418
5.4995198 17.598463 -13.887598
5.256093 15.768279 -16.321863
5.0333505 14.09338 -18.549294
4.9458184 12.859129 -19.424612
4.8705783 11.689385 -20.177015
4.8102708 10.582594 -20.780088
4.7566357 9.5132713 -21.316441
4.7145205 8.4861374 -21.737595
4.6771512 7.4834418 -22.111286
4.6465335 6.5051451 -22.417461
4.6197467 5.5436954 -22.685328
4.5988727 4.5988703 -22.89407
4.5800233 3.6640167 -23.082561
4.5689569 2.7413731 -23.193228
4.5590539 1.8236227 -23.292255
4.5570655 0.91141129 -23.312141
4.5566268 9.5367432e-07 -23.316526
4.5561752 -0.91123581 -23.321045
4.5650425 -1.8260164 -23.232374
4.5739832 -2.7443905 -23.142969
4.5841336 -3.6673088 -23.041458
4.6037412 -4.6037426 -22.845387
4.6275454 -5.5530543 -22.607342
4.6523776 -6.51333 -22.35902
4.68156 -7.490499 -22.067194
4.7243619 -8.5038509 -21.639179
4.7683206 -9.5366411 -21.199591
4.8195491 -10.603009 -20.687302
4.887012 -11.728828 -20.012674
4.9587731 -12.892808 -19.295063
5.0569506 -14.159462 -18.31329
5.1718292 -15.51549 -17.164505
5.3435564 -17.099382 -15.447229
5.5856347 -18.991159 -13.026449
7.1192393 20.171177 -9.5558014
6.7804079 18.081089 -12.379397
6.4724717 16.181177 -14.945532
6.1915884 14.44704 -17.286226
5.9809022 12.958621 -19.041943
5.88766 11.775319 -19.818964
5.8105559 10.652685 -20.461496
5.746335 9.5772247 -20.996674
5.6910558 8.536581 -21.457333
5.6444755 7.5259662 -21.845501
5.6042576 6.5382996 -22.180649
5.5742788 5.5742769 -22.430471
5.5480289 4.6233568 -22.649225
5.5284433 3.6856298 -22.812435
5.5129275 2.756464 -22.941734
5.4992056 1.833066 -23.056084
5.4977026 0.91628456 -23.068607
5.4966698 -2.8610229e-06 -23.077215
5.4961376 -0.91602612 -23.081648
5.5026064 -1.8342018 -23.02774
5.5169129 -2.7584572 -22.908524
5.5338144 -3.6892099 -22.767677
5.5542369 -4.6285324 -22.597488
5.5831113 -5.5831108 -22.356869
5.6138053 -6.5494423 -22.101086
5.6527371 -7.5369849 -21.776651
5.7043543 -8.55653 -21.346512
5.7569394 -9.5949001 -20.908298
5.8239803 -10.677298 -20.349625
5.9073472 -11.814693 -19.654905
5.995666 -12.99061 -18.918909
6.1257095 -14.293322 -17.835222
6.2701797 -15.675449 -16.631298
6.4906816 -17.308485 -14.793782
6.8990397 -19.547281 -11.390797
8.1338835 18.591732 -10.783628
7.7542925 16.616339 -13.494997
7.4090137 14.818026 -15.961269
7.0932398 13.173161 -18.216795
6.9366393 11.891382 -19.335373
6.8362322 10.742649 -20.052567
6.7556043 9.6508617 -20.628479
6.6855946 8.5957642 -21.128551
6.6325479 7.5800519 -21.507458
6.5842786 6.5842757 -21.852238
6.5462046 5.6110306 -22.124193
6.5103168 4.6502247 -22.380535
6.4914074 3.7093763 -22.515598
6.4751005 2.7750406 -22.63208
6.4588938 1.845397 -22.747845
6.4516792 0.92166615 -22.799374
6.4499426 -1.9073486e-06 -22.811775
6.4493704 -0.9213419 -22.815865
6.4576159 -1.8450327 -22.756969
6.4760494 -2.7754507 -22.625298
6.4949069 -3.7113762 -22.490606
6.5150242 -4.6535892 -22.346909
6.5542221 -5.617908 -22.066923
6.597352 -6.5973525 -21.758856
6.6410332 -7.5897512 -21.446848
6.7013054 -8.6159649 -21.016331
6.7732954 -9.6761379 -20.502113
6.852994 -10.768991 -19.932842
6.9539189 -11.921005 -19.211946
7.0736399 -13.13676 -18.356792
7.2299418 -14.459883 -17.240358
7.4266 -15.914141 -15.835658
7.743711 -17.699913 -13.570579
9.5660315 19.132063 -9.0950966
9.1074781 17.076521 -11.961057
8.6906996 15.208724 -14.565923
8.3113899 13.506009 -16.936607
8.0060787 12.009117 -18.844801
7.8863068 10.843668 -19.593382
7.7911797 9.7389736 -20.18792
7.7112789 8.6751862 -20.687305
7.6417451 7.6417451 -21.121891
7.5823092 6.6345191 -21.493366
7.5368509 5.6526356 -21.777481
7.5002284 4.6876411 -22.006371
7.4737749 3.736887 -22.1717
7.4531999 2.7949495 -22.300301
7.4327369 1.858182 -22.42819
7.418345 0.92729282 -22.518139
7.4233284 -0 -22.486992
7.4282975 -0.92853928 -22.455936
7.4333591 -1.8583403 -22.424301
7.4547319 -2.7955227 -22.290722
7.4770308 -3.738513 -22.151354
7.5067668 -4.6917305 -21.965504
7.5508428 -5.6631327 -21.690029
7.599071 -6.6491871 -21.388601
7.6480784 -7.6480765 -21.082306
7.725718 -8.691433 -20.597061
7.8099456 -9.7624321 -20.070637
7.9010215 -10.863903 -19.501415
8.0362415 -12.054363 -18.656282
8.1761456 -13.286238 -17.781885
8.3867378 -14.676791 -16.465687
8.6481667 -16.215313 -14.831757
9.1748228 -18.349646 -11.540157
10.537635 17.562725 -10.340377
10.041838 15.620636 -13.094807
9.5921869 13.855376 -15.592873
9.1800022 12.240002 -17.882786
8.9831505 10.979407 -18.976402
8.862566 9.8472948 -19.646318
8.7628231 8.7628231 -20.200443
8.6790094 7.7146764 -20.666073
8.6139135 6.6997099 -21.027718
8.5559502 5.7039652 -21.349743
8.5110226 4.7283459 -21.599339
8.471468 3.7650938 -21.819088
8.452136 2.817378 -21.926487
8.4355698 1.8745689 -22.01852
8.4190683 0.9354496 -22.110195
8.4218588 -9.5367432e-07 -22.094692
8.4252148 -0.93613434 -22.076048
8.4285736 -1.8730192 -22.057386
8.4534683 -2.8178234 -21.919081
8.4872561 -3.7721128 -21.731379
8.5213385 -4.7340765 -21.542023
8.5681753 -5.7121191 -21.281826
8.6294661 -6.7118053 -20.941317
8.6980095 -7.7315655 -20.560518
8.7853889 -8.785388 -20.075081
8.8866577 -9.8740654 -19.512474
9.0084915 -11.01038 -18.835619
9.1645203 -12.219361 -17.968794
9.3553572 -13.513295 -16.908588
9.6058979 -14.942508 -15.5167
10.010428 -16.68405 -13.269302
12.05076 18.076139 -8.6289892
11.468243 16.055538 -11.541587
10.940559 14.22273 -14.179998
10.459946 12.551935 -16.583067
10.124496 11.136944 -18.260313
9.9763279 9.976326 -19.001156
9.8559208 8.8703289 -19.603189
9.7583466 7.806675 -20.091063
9.6727924 6.7709527 -20.518837
9.611146 5.7666879 -20.827065
9.5623131 4.7811556 -21.071228
9.5139742 3.8055887 -21.312923
9.4863234 2.8458977 -21.45118
9.4638109 1.8927593 -21.56374
9.4437332 0.94437218 -21.664131
9.4408512 -1.9073486e-06 -21.678539
9.4516649 -0.94516754 -21.624472
9.4640894 -1.8928194 -21.562351
9.4893999 -2.8468199 -21.435797
9.5248432 -3.8099365 -21.258579
9.5613194 -4.7806582 -21.076199
9.6207438 -5.7724428 -20.779081
9.6947336 -6.7863154 -20.409128
9.7711163 -7.8168945 -20.027216
9.8771248 -8.88941 -19.497171
10.00735 -10.00735 -18.846045
10.147546 -11.162301 -18.145067
10.353774 -12.424529 -17.113922
10.587508 -13.763762 -15.945253
10.963294 -15.348613 -14.066328
11.847927 -17.771889 -9.6431637
12.977394 16.516684 -9.894639
12.362895 14.610695 -12.687816
11.805614 12.878851 -15.220915
11.333076 11.333075 -17.368818
11.158395 10.143992 -18.162819
11.004697 9.0038414 -18.861444
10.875619 7.9095397 -19.448166
10.78188 6.8611965 -19.874252
10.707072 5.8402205 -20.214287
10.645799 4.8389997 -20.492802
10.586679 3.8497 -20.761532
10.548005 2.8767271 -20.937317
10.526458 1.9138994 -21.035259
10.508897 0.95535564 -21.115084
10.505123 -0 -21.132233
10.51464 -0.95588017 -21.08898
10.525739 -1.9137678 -21.038532
10.550017 -2.8772793 -20.928173
10.600183 -3.8546124 -20.700146
10.652686 -4.8421326 -20.461498
10.718126 -5.8462515 -20.164036
10.801784 -6.8738627 -19.783779
10.901373 -7.9282727 -19.3311
11.032821 -9.0268517 -18.733612
11.180562 -10.164145 -18.062059
11.362649 -11.36265 -17.234392
11.633324 -12.6909 -16.004053
11.993476 -14.174109 -14.366998
12.640382 -16.087757 -11.426517
13.864955 15.02037 -11.112149
13.223569 13.223566 -13.784595
12.643575 11.58994 -16.201237
12.415343 10.346117 -17.152203
12.215418 9.1615639 -17.985222
12.061403 8.0409336 -18.626951
11.941314 6.965765 -19.127323
11.838743 5.9193716 -19.554697
11.77453 4.906054 -19.822252
11.711045 3.9036808 -20.086773
11.661961 2.9154902 -20.291294
11.636589 1.9394302 -20.397007
11.614297 0.96785545 -20.489895
11.605502 9.5367432e-07 -20.526539
11.617686 -0.96814156 -20.475769
11.636624 -1.9394379 -20.396862
11.669784 -2.9174461 -20.258698
11.722634 -3.9075437 -20.038486
11.777799 -4.9074178 -19.808638
11.853932 -5.926971 -19.491411
11.962842 -6.9783273 -19.037621
12.084727 -8.0564861 -18.529766
12.238761 -9.1790714 -17.88796
12.4409 -10.36742 -17.045712
12.703004 -11.644421 -15.953611
13.049131 -13.049134 -14.511415
13.682513 -14.822721 -11.872324
14.718792 13.586577 -12.272056
14.131546 11.957462 -14.530696
13.779582 10.599674 -15.884402
13.533752 9.3695221 -16.829905
13.329966 8.2030535 -17.613701
13.17955 7.0966816 -18.192215
13.054086 6.0249591 -18.674778
12.957579 4.9836831 -19.045956
12.879672 3.962975 -19.345592
12.829986 2.9607649 -19.536697
12.79166 1.9679461 -19.684103
12.767574 0.98212147 -19.776739
12.759008 -0 -19.809687
12.771239 -0.98240376 -19.762648
12.797647 -1.9688692 -19.661076
12.835456 -2.9620299 -19.515657
12.889355 -3.9659586 -19.308357
12.969107 -4.9881167 -19.001619
13.070683 -6.0326223 -18.610937
13.209427 -7.1127682 -18.077305
13.370221 -8.227829 -17.45887
13.580935 -9.4021883 -16.648432
13.845431 -10.650331 -15.631141
14.232937 -12.043256 -14.140736
14.868977 -13.725208 -11.694426
16.079031 12.63352 -11.457687
15.408082 11.00577 -13.853936
15.001663 9.6439257 -15.305429
14.735351 8.4202003 -16.256542
14.529923 7.2649612 -16.990211
14.3733 6.1599855 -17.549585
14.258987 5.092495 -17.957842
14.162934 4.0465531 -18.300888
14.088754 3.0190167 -18.565819
14.046632 2.0066605 -18.716257
14.009376 1.0006685 -18.849314
13.99106 -0 -18.914722
14.018355 -1.0013103 -18.817245
14.04882 -2.0069742 -18.708435
14.099731 -3.0213699 -18.526611
14.178176 -4.0509076 -18.246452
14.266934 -5.095335 -17.929459
14.406112 -6.1740508 -17.432394
14.569485 -7.2847428 -16.848921
14.774247 -8.4424257 -16.117626
15.077972 -9.6929836 -15.032898
15.501061 -11.072187 -13.521864
16.283936 -12.794521 -10.725883
16.82811 10.096867 -12.789093
16.362335 8.7265768 -14.341684
16.055141 7.4923987 -15.365658
15.831317 6.3325276 -16.11174
15.682885 5.2276254 -16.606516
15.555935 4.1482496 -17.029678
15.452661 3.0905323 -17.373928
15.39957 2.0532756 -17.550896
15.363743 1.0242462 -17.670319
15.352554 1.9073486e-06 -17.707617
15.371914 -1.0247927 -17.643087
15.393873 -2.0525179 -17.569883
15.46459 -3.0929184 -17.334162
15.568126 -4.1515007 -16.989044
15.679879 -5.2266273 -16.616531
15.879487 -6.3517938 -15.95117
16.105116 -7.5157232 -15.199074
16.44623 -8.7713223 -14.062035
16.90312 -10.141871 -12.539061
18.852987 9.4264956 -9.967205
17.965704 7.8599939 -12.739971
17.577436 6.5915375 -13.953308
17.312092 5.4100251 -14.782509
17.125883 4.2814717 -15.36441
16.996264 3.186799 -15.769472
16.932325 2.11654 -15.969276
16.868813 1.0543008 -16.167755
16.865112 -9.5367432e-07 -16.179325
16.878544 -1.0549068 -16.137344
16.90259 -2.1128263 -16.062202
17.029486 -3.1930308 -15.665657
17.171343 -4.2928367 -15.222349
17.364168 -5.4263029 -14.619776
17.664692 -6.6242599 -13.680636
18.087311 -7.9132004 -12.35995
19.665813 5.7840614 -11.042169
19.181116 4.5132046 -12.467752
18.94132 3.3425875 -13.173032
18.790264 2.2106175 -13.617311
18.719929 1.101172 -13.824186
18.703735 -0 -13.871809
18.68751 -1.0992656 -13.919535
18.804537 -2.2122993 -13.575329
18.992014 -3.351532 -13.023928
19.253275 -4.5301819 -12.255521
19.766207 -5.813591 -10.746895
