# .PCD v0.7 - Point Cloud Data file format
VERSION 0.7
FIELDS x y z
SIZE 4 4 4
TYPE F F F
COUNT 1 1 1
WIDTH 1057
HEIGHT 1
VIEWPOINT 0 0 0 1 0 0 0
POINTS 1057
DATA ascii
-23.496035 -2.6226044e-06 -7.0511274
-21.982679 7.3275552 -7.8198009
-20.78788 5.7744098 -11.138685
-20.384815 4.5299563 -12.25831
-20.081169 3.3468604 -13.101772
-19.969027 2.2187805 -13.413275
-19.882805 1.1046023 -13.652782
-19.851599 -2.8610229e-06 -13.739468
-19.906513 -1.1059179 -13.586924
-19.991011 -2.2212238 -13.352213
-20.139395 -3.3565655 -12.940033
-20.393354 -4.5318565 -12.234588
-20.846529 -5.7907028 -10.975771
-19.890165 9.3600779 -10.382307
-19.221819 7.9148645 -12.348033
-18.810551 6.6390162 -13.557648
-18.532484 5.4507298 -14.37549
-18.330742 4.3131151 -14.968845
-18.207998 3.2131753 -15.329857
-18.096821 2.1290359 -15.656857
-18.067476 1.0627933 -15.743162
-18.052691 -0 -15.786648
-18.066641 -1.0627456 -15.745619
-18.115934 -2.1312847 -15.600636
-18.209696 -3.2134786 -15.324867
-18.357683 -4.3194566 -14.88961
-18.571299 -5.4621472 -14.261332
-18.816374 -6.6410742 -13.540521
-19.286192 -7.9413729 -12.158705
-20.12044 -9.468442 -9.7050381
-19.095171 11.934484 -9.2103882
-18.018133 10.135199 -12.576126
-17.61014 8.805069 -13.851114
-17.286985 7.5630555 -14.860968
-17.051647 6.3943682 -15.5964
-16.874783 5.2733712 -16.149096
-16.742279 4.1855698 -16.563173
-16.632391 3.1185718 -16.906574
-16.57852 2.0723124 -17.074921
-16.541348 1.0338335 -17.191086
-16.509844 -0 -17.289536
-16.531681 -1.0332308 -17.221294
-16.573397 -2.0716777 -17.090927
-16.64212 -3.1203985 -16.876167
-16.748978 -4.1872454 -16.542238
-16.889229 -5.2778845 -16.103956
-17.064814 -6.3993053 -15.555252
-17.319021 -7.5770736 -14.760853
-17.639156 -8.8195763 -13.760436
-18.160288 -10.215164 -12.131897
-17.275251 12.668516 -11.298626
-16.638332 11.092221 -13.421687
-16.234564 9.740736 -14.767591
-15.936733 8.4995899 -15.760355
-15.722163 7.3370099 -16.475588
-15.551726 6.2206893 -17.043709
-15.427475 5.1424909 -17.457882
-15.310047 4.0826778 -17.849306
-15.246606 3.0493188 -18.060776
-15.188131 2.0250835 -18.255692
-15.148383 1.0098906 -18.388187
-15.161323 -2.8610229e-06 -18.345051
-15.174287 -1.0116186 -18.301842
-15.202816 -2.0270424 -18.206745
-15.257448 -3.0514908 -18.024635
-15.335386 -4.089437 -17.764843
-15.437539 -5.1458468 -17.42433
-15.574756 -6.2299008 -16.966942
-15.751558 -7.3507276 -16.377602
-15.978669 -8.5219574 -15.620565
-16.280718 -9.7684288 -14.613734
-16.719585 -11.146389 -13.150842
-17.423019 -12.77688 -10.806065
-15.994781 13.709807 -11.758584
-15.367353 12.074347 -13.999395
-15.019516 10.728222 -15.241668
-14.740027 9.4757309 -16.239841
-14.525754 8.3004303 -17.005102
-14.356811 7.1784058 -17.608469
-14.225089 6.096467 -18.078907
-14.109489 5.0391026 -18.491762
-14.041159 4.0117569 -18.7358
-13.977995 2.9952841 -18.961386
-13.929939 1.9899883 -19.133011
-13.912003 0.99371147 -19.197071
-13.905605 -1.9073486e-06 -19.219921
-13.900887 -0.99292278 -19.236774
-13.925979 -1.9894238 -19.14716
-13.983896 -2.9965539 -18.940311
-14.047638 -4.0136104 -18.712662
-14.123067 -5.0439539 -18.443268
-14.233088 -6.099896 -18.050343
-14.376646 -7.1883221 -17.53763
-14.55419 -8.3166809 -16.903549
-14.749389 -9.4817505 -16.206408
-15.049517 -10.749652 -15.134522
-15.418099 -12.114221 -13.818154
-16.105988 -13.805131 -11.361409
-14.806723 14.806723 -11.933861
-14.246069 13.150217 -14.090219
-13.873759 11.739334 -15.522182
-13.578115 10.444702 -16.659281
-13.390334 9.2702312 -17.381512
-13.212599 8.1308308 -18.065109
-13.094124 7.0506816 -18.520782
-12.978199 5.9899364 -18.966648
-12.895155 4.9596758 -19.286045
-12.828215 3.9471416 -19.543507
-12.763174 2.9453449 -19.793667
-12.739583 1.9599352 -19.884399
-12.723427 0.97872257 -19.946537
-12.713104 -1.9073486e-06 -19.98624
-12.729893 -0.97922325 -19.921673
-12.753913 -1.9621401 -19.829285
-12.787126 -2.9508734 -19.701546
-12.823457 -3.9456801 -19.561806
-12.906214 -4.9639292 -19.243513
-13.003005 -6.001389 -18.871239
-13.111935 -7.0602727 -18.45228
-13.226507 -8.1393909 -18.011612
-13.419454 -9.29039 -17.26951
-13.638133 -10.490872 -16.428438
-13.903404 -11.764418 -15.408162
-14.297285 -13.197494 -13.893236
-14.928185 -14.928186 -11.466698
-13.774162 16.069853 -11.490455
-13.165236 14.262336 -14.027646
-12.784247 12.784248 -15.615097
-12.532993 11.488576 -16.661991
-12.321622 10.268018 -17.542706
-12.158882 9.1191597 -18.220785
-12.015619 8.0104122 -18.817711
-11.912252 6.9488139 -19.248411
-11.816538 5.9082689 -19.647221
-11.747847 4.8949356 -19.933437
-11.692466 3.8974895 -20.164186
-11.643677 2.9109182 -20.367477
-11.619574 1.9365959 -20.467907
-11.596232 0.96635056 -20.565163
-11.588056 1.9073486e-06 -20.599234
-11.595222 -0.96626759 -20.56937
-11.615379 -1.9358978 -20.485378
-11.646029 -2.9115076 -20.357677
-11.698559 -3.8995214 -20.138802
-11.757216 -4.8988414 -19.894394
-11.82048 -5.9102397 -19.630795
-11.91104 -6.9481068 -19.253462
-12.03783 -8.0252228 -18.72517
-12.174176 -9.1306343 -18.157066
-12.336737 -10.280614 -17.479733
-12.548346 -11.50265 -16.598022
-12.824579 -12.82458 -15.447052
-13.21244 -14.313477 -13.830964
-13.90339 -16.220623 -10.952005
-12.918106 17.615599 -10.164133
-12.136024 15.445846 -13.719052
-11.778627 13.920198 -15.343576
-11.498167 12.543455 -16.618401
-11.280028 11.280027 -17.609941
-11.112057 10.101868 -18.373449
-10.974676 8.9792805 -18.99791
-10.863304 7.9005857 -19.504143
-10.775677 6.8572488 -19.902447
-10.689484 5.8306265 -20.294231
-10.637801 4.8353634 -20.529152
-10.591176 3.8513346 -20.741085
-10.550961 2.877533 -20.923885
-10.534477 1.9153576 -20.998812
-10.519858 0.95635128 -21.065262
-10.514858 -9.5367432e-07 -21.087986
-10.521139 -0.95646954 -21.059433
-10.530905 -1.9147129 -21.015049
-10.556908 -2.879158 -20.896854
-10.599675 -3.8544292 -20.702456
-10.64977 -4.8408079 -20.474752
-10.710182 -5.8419185 -20.200153
-10.789043 -6.8657546 -19.841688
-10.882071 -7.9142342 -19.418835
-11.00032 -9.0002623 -18.88134
-11.131239 -10.119308 -18.286257
-11.303259 -11.303259 -17.504351
-11.532103 -12.580477 -16.464149
-11.795505 -13.940143 -15.26687
-12.214284 -15.545455 -13.363324
-13.191377 -17.988239 -8.9219933
-11.211901 16.81785 -12.823293
-10.781056 15.093476 -14.977515
-10.483593 13.62867 -16.464832
-10.286035 12.343242 -17.45262
-10.11136 11.122494 -18.326
-9.9849949 9.984992 -18.957821
-9.8665266 8.8798733 -19.550163
-9.7784195 7.8227344 -19.9907
-9.6999636 6.7899733 -20.382978
-9.627593 5.7765546 -20.744835
-9.5710154 4.7855062 -21.027718
-9.5324888 3.8129959 -21.22035
-9.5066385 2.8519926 -21.349598
-9.4858198 1.8971624 -21.453697
-9.4655371 0.94655323 -21.555115
-9.465147 -2.8610229e-06 -21.557064
-9.4768257 -0.94768333 -21.498669
-9.4885044 -1.8977003 -21.440271
-9.5133553 -2.8540096 -21.316017
-9.542098 -3.8168421 -21.172306
-9.5743475 -4.7871747 -21.011063
-9.6397619 -5.7838573 -20.683983
-9.7086248 -6.7960391 -20.339668
-9.7857342 -7.8285856 -19.954126
-9.8665571 -8.8799019 -19.550011
-9.9982719 -9.9982729 -18.891438
-10.141054 -11.155161 -18.177523
-10.300323 -12.360386 -17.381184
-10.524907 -13.682378 -16.258265
-10.823188 -15.152462 -14.766862
-11.272023 -16.908035 -12.522682
-10.368565 18.433002 -11.279665
-9.8337002 16.389498 -14.251131
-9.5297613 14.82407 -15.93968
-9.3054943 13.441269 -17.185606
-9.1416121 12.188816 -18.096064
-8.9981928 10.997791 -18.892838
-8.8882666 9.8758488 -19.503536
-8.7866411 8.7866392 -20.068123
-8.7152042 7.7468505 -20.464991
-8.6451521 6.7240081 -20.854172
-8.5863619 5.7242422 -21.180788
-8.5427771 4.7459841 -21.422922
-8.5111485 3.782732 -21.59864
-8.4919081 2.8306351 -21.705524
-8.4736481 1.8830299 -21.806969
-8.4558868 0.93954277 -21.905647
-8.4560843 -1.9073486e-06 -21.904552
-8.4575167 -0.93972492 -21.896591
-8.4644871 -1.8810005 -21.857872
-8.4895191 -2.8298407 -21.718801
-8.5204363 -3.7868624 -21.547035
-8.5539541 -4.7521963 -21.360828
-8.5995665 -5.7330451 -21.107428
-8.6511688 -6.7286882 -20.820749
-8.7200327 -7.7511396 -20.438171
-8.8056612 -8.8056641 -19.962458
-8.8986979 -9.8874426 -19.445583
-9.0154171 -11.018844 -18.797144
-9.1530514 -12.204071 -18.032509
-9.3296232 -13.476124 -17.051556
-9.5680418 -14.883621 -15.727014
-9.8790464 -16.465076 -13.999207
-10.482263 -18.635136 -10.648007
-8.9178228 17.835646 -13.1464
-8.5866165 16.099905 -15.216442
-8.3541632 14.619783 -16.669279
-8.1702557 13.276664 -17.818697
-8.0317297 12.047592 -18.68449
-7.9204416 10.890607 -19.380032
-7.8279681 9.7849617 -19.957994
-7.7473154 8.7157288 -20.462078
-7.6840525 7.6840525 -20.857471
-7.6238461 6.6708646 -21.233761
-7.5811701 5.6858768 -21.500484
-7.5412436 4.7132788 -21.750019
-7.5086498 3.7543221 -21.953735
-7.4929595 2.8098593 -22.051798
-7.4773564 1.869339 -22.149319
-7.4675536 0.93344212 -22.210587
-7.4688101 -0 -22.202736
-7.4706306 -0.93382931 -22.191357
-7.4759016 -1.8689756 -22.158407
-7.4933081 -2.8099918 -22.049618
-7.51788 -3.7589388 -21.896044
-7.5483632 -4.7177286 -21.705528
-7.5883203 -5.6912427 -21.455795
-7.6321855 -6.6781631 -21.181637
-7.6874938 -7.6874933 -20.83596
-7.7623811 -8.7326813 -20.367914
-7.8427525 -9.803442 -19.865593
-7.9279537 -10.900936 -19.333084
-8.0554514 -12.08318 -18.536222
-8.200469 -13.325763 -17.629866
-8.3723106 -14.651546 -16.555857
-8.6133327 -16.149998 -15.04947
-8.9871483 -17.974297 -12.713121
-8.1464138 19.784147 -10.694125
-7.6631851 17.51585 -14.145763
-7.3954415 15.847375 -16.05821
-7.2250953 14.450189 -17.274979
-7.0857439 13.159237 -18.270342
-6.9738312 11.955138 -19.069715
-6.8791513 10.810095 -19.745996
-6.8020501 9.7172146 -20.296722
-6.7338958 8.6578655 -20.783537
-6.6792712 7.6334519 -21.173717
-6.633348 6.6333475 -21.501736
-6.5951505 5.6529837 -21.774582
-6.561801 4.6870003 -22.012787
-6.5368204 3.7353239 -22.191221
-6.5182853 2.7935505 -22.32362
-6.4998732 1.8571043 -22.455132
-6.4937835 0.92768383 -22.498627
-6.4956565 9.5367432e-07 -22.485252
-6.4975295 -0.9282198 -22.47187
-6.5077782 -1.8593655 -22.398666
-6.5228338 -2.7955017 -22.29113
-6.5379782 -3.7359915 -22.182953
-6.5602727 -4.6859112 -22.023705
-6.5991879 -5.6564484 -21.745739
-6.6385865 -6.6385903 -21.464319
-6.6867652 -7.6420169 -21.12019
-6.7377424 -8.6628113 -20.756062
-6.8056874 -9.7224102 -20.270744
-6.891736 -10.829874 -19.656107
-6.984036 -11.972634 -18.996824
-7.1025882 -13.190521 -18.150026
-7.2413521 -14.482706 -17.158852
-7.4408021 -15.944576 -15.73421
-7.698328 -17.596176 -13.89474
-8.2593718 -20.058472 -9.8872871
-6.7869859 19.22979 -12.324586
-6.4698911 17.253044 -14.967037
-6.2785387 15.696345 -16.561642
-6.1426239 14.332787 -17.694267
-6.0250936 13.054369 -18.673679
-5.9347811 11.869562 -19.426289
-5.8531446 10.730763 -20.106594
-5.7928629 9.6547699 -20.608938
-5.734066 8.6010971 -21.098911
-5.6926498 7.5901957 -21.44405
-5.6539459 6.5962667 -21.766582
-5.620472 5.62047 -22.045532
-5.5978398 4.6648684 -22.234127
-5.5758243 3.7172146 -22.417595
-5.5600901 2.7800436 -22.548714
-5.5493999 1.8497982 -22.637798
-5.5432668 0.92387581 -22.68891
-5.5393863 9.5367432e-07 -22.721241
-5.5368452 -0.92280769 -22.74242
-5.5503092 -1.8501053 -22.630222
-5.5638227 -2.7819128 -22.517605
-5.5774026 -3.7182693 -22.404442
-5.6005192 -4.6671 -22.211805
-5.6251054 -5.6251068 -22.006916
-5.6566787 -6.5994587 -21.743809
-5.6984286 -7.5979061 -21.395889
-5.7447963 -8.6171951 -21.009495
-5.7978549 -9.6630917 -20.567339
-5.8689241 -10.759694 -19.975098
-5.9466429 -11.893288 -19.327438
-6.0298729 -13.064726 -18.633854
-6.1593566 -14.371831 -17.554827
-6.3004384 -15.751095 -16.379147
-6.5023971 -17.339727 -14.696153
-6.8446274 -19.393108 -11.844234
-5.5617723 18.910023 -13.265073
-5.3346105 17.070755 -15.536692
-5.1888905 15.566667 -16.993898
-5.0792503 14.2219 -18.090294
-4.9864483 12.964763 -19.018312
-4.9172535 11.801405 -19.710262
-4.8539758 10.678746 -20.343039
-4.8049417 9.6098843 -20.833376
-4.7588725 8.5659676 -21.294073
-4.7237239 7.5579567 -21.645557
-4.6904573 6.566638 -21.978222
-4.6642447 5.5970936 -22.240349
-4.6430478 4.6430492 -22.452316
-4.6244869 3.6995907 -22.637928
-4.6146464 2.7687855 -22.736336
-4.6072602 1.8429031 -22.810192
-4.6017532 0.92034912 -22.865269
-4.5985575 9.5367432e-07 -22.897223
-4.601069 -0.92021465 -22.872108
-4.6066275 -1.8426504 -22.816525
-4.6147389 -2.7688465 -22.735409
-4.6290231 -3.7032213 -22.592564
-4.6491785 -4.6491785 -22.39101
-4.6698084 -5.6037707 -22.184715
-4.6923995 -6.5693607 -21.958797
-4.7276235 -7.5641975 -21.606564
-4.766922 -8.5804596 -21.213573
-4.8117094 -9.6234198 -20.765701
-4.8597369 -10.691424 -20.285425
-4.9243112 -11.818348 -19.63969
-5.0025864 -13.006727 -18.856936
-5.0938015 -14.262647 -17.94478
-5.2090974 -15.627292 -16.791822
-5.3659377 -17.171003 -15.223421
-5.6008968 -19.043045 -12.873832
-4.7661219 21.447544 -9.3062773
-4.3945394 18.676792 -13.951055
-4.2351427 16.940571 -15.943512
-4.122993 15.461223 -17.345385
-4.0391755 14.137115 -18.393101
-3.9730914 12.912544 -19.219154
-3.9181776 11.754531 -19.905579
-3.8690472 10.639878 -20.519711
-3.8295338 9.5738344 -21.013626
-3.7955024 8.5398779 -21.439014
-3.7665069 7.5330129 -21.80146
-3.7420363 6.5485649 -22.107342
-3.7215037 5.5822563 -22.363998
-3.7046359 4.6307945 -22.574848
-3.6898441 3.6898432 -22.759745
-3.6803393 2.7602549 -22.878553
-3.6721294 1.8360634 -22.981174
-3.6674011 0.91685009 -23.040287
-3.6691258 -1.9073486e-06 -23.018726
-3.671124 -0.91778278 -22.993744
-3.675369 -1.8376846 -22.940681
-3.6800344 -2.7600269 -22.88237
-3.6903729 -3.6903715 -22.753136
-3.7068546 -4.6335697 -22.54711
-3.723506 -5.5852599 -22.33897
-3.7449973 -6.5537457 -22.070332
-3.7691317 -7.5382643 -21.76865
-3.7973499 -8.5440378 -21.415922
-3.8336394 -9.5840988 -20.962301
-3.8739955 -10.653488 -20.457853
-3.9223318 -11.766996 -19.853645
-3.9843805 -12.949236 -19.078041
-4.0513282 -14.179649 -18.241194
-4.1417232 -15.531461 -17.111259
-4.2571177 -17.028469 -15.668827
-4.4259057 -18.810099 -13.558978
-3.4802957 20.881771 -10.877871
-3.2724559 18.543915 -14.341866
-3.1597452 16.851973 -16.220375
-3.0807297 15.403646 -17.537302
-3.0174146 14.081269 -18.592552
-2.9684947 12.863476 -19.407887
-2.9285607 11.714241 -20.073454
-2.8919981 10.603992 -20.682831
-2.8631983 9.5439949 -21.162823
-2.8379748 8.5139256 -21.583216
-2.8160803 7.5095458 -21.948124
-2.7996018 6.532402 -22.222765
-2.7837484 5.5674963 -22.486992
-2.7719436 4.6199045 -22.683733
-2.7626319 3.6835098 -22.83893
-2.7552288 2.7552299 -22.962313
-2.7486637 1.8324413 -23.071737
-2.7453496 0.91511822 -23.126968
-2.7445924 -9.5367432e-07 -23.139587
-2.7460835 -0.91536236 -23.114738
-2.7491646 -1.832777 -23.063389
-2.7561886 -2.7561913 -22.946321
-2.7638893 -3.6851864 -22.817974
-2.7721505 -4.6202507 -22.680286
-2.7843022 -5.5686054 -22.477758
-2.802088 -6.5382056 -22.18133
-2.8203664 -7.5209765 -21.87669
-2.8394773 -8.5184345 -21.558172
-2.867527 -9.558424 -21.090681
-2.898536 -10.627964 -20.573866
-2.9339092 -11.73564 -19.98431
-2.9751356 -12.892256 -19.297203
-3.0281942 -14.131574 -18.412895
-3.0915315 -15.45766 -17.357269
-3.1772141 -16.945145 -15.929226
-3.2981451 -18.689489 -13.913715
-3.5506787 -21.304073 -9.7048187
-2.3051486 20.746336 -11.254081
-2.1713264 18.456272 -14.599636
-2.1004546 16.803635 -16.371435
-2.0481014 15.36076 -17.68026
-2.0074315 14.052018 -18.697014
-1.9741163 12.831755 -19.529888
-1.9473706 11.684224 -20.19853
-1.9238265 10.581047 -20.787132
-1.906001 9.5300035 -21.232775
-1.8890127 8.5005541 -21.657482
-1.8747075 7.4988289 -22.015108
-1.8629062 6.5201731 -22.310141
-1.8513004 5.5538988 -22.600286
-1.8447845 4.6119595 -22.76318
-1.8386031 3.6772041 -22.917715
-1.8334812 2.7502213 -23.045771
-1.8306807 1.8306789 -23.11578
-1.8287407 0.91436863 -23.16428
-1.8278214 -0 -23.187262
-1.8269083 -0.91345501 -23.210087
-1.830233 -1.8302355 -23.126968
-1.8349029 -2.7523556 -23.010227
-1.8400066 -3.6800137 -22.882631
-1.8454932 -4.6137333 -22.745462
-1.8533634 -5.5600905 -22.548712
-1.8648168 -6.5268579 -22.262379
-1.877031 -7.5081272 -21.957022
-1.8916942 -8.5126228 -21.590445
-1.907922 -9.5396099 -21.184748
-1.9277735 -10.602757 -20.688457
-1.9517286 -11.710369 -20.089584
-1.9781023 -12.857664 -19.430239
-2.0150292 -14.105205 -18.507063
-2.0559518 -15.419639 -17.483999
-2.1094103 -16.875282 -16.147541
-2.1869001 -18.58865 -14.210297
-2.3349011 -21.014107 -10.510274
-1.1483015 20.669424 -11.467724
-1.0844924 18.436371 -14.658172
-1.0480794 16.769268 -16.478828
-1.0229473 15.344206 -17.735435
-1.0027368 14.038316 -18.745953
-0.98617798 12.820314 -19.573895
-0.97274649 11.672958 -20.245472
-0.96137309 10.575103 -20.814144
-0.9523406 9.5234032 -21.26577
-0.94415992 8.4974394 -21.674797
-0.93700719 7.4960551 -22.03244
-0.9311108 6.5177736 -22.327255
-0.9259991 5.555994 -22.582844
-0.92205399 4.6102695 -22.780098
-0.91829956 3.6731968 -22.967815
-0.91572326 2.7471676 -23.096634
-0.91463542 1.8292685 -23.151026
-0.9136253 0.9136219 -23.20153
-0.91316646 9.5367432e-07 -23.224472
-0.91315091 -0.91314983 -23.225248
-0.91436768 -1.8287354 -23.16441
-0.91617686 -2.7485323 -23.073952
-0.91871113 -3.6748457 -22.947239
-0.92204875 -4.6102448 -22.780357
-0.92596978 -5.55582 -22.584305
-0.93112963 -6.5179071 -22.326311
-0.93723369 -7.4978724 -22.021114
-0.94520265 -8.5068245 -21.622665
-0.95335054 -9.5335045 -21.215267
-0.96235335 -10.585886 -20.765129
-0.97537619 -11.704515 -20.113983
-0.98923963 -12.860118 -19.420813
-1.0056415 -14.078981 -18.600725
-1.026147 -15.392206 -17.575447
-1.0535483 -16.856773 -16.205378
-1.0905968 -18.540144 -14.352959
-1.1607094 -20.892769 -10.847326
0 20.660063 -11.493731
0 18.429165 -14.679363
0 16.781897 -16.439375
0 15.337627 -17.75737
0 14.042381 -18.731424
0 12.825775 -19.552887
0 11.67204 -20.249294
0 10.578072 -20.800644
0 9.5168152 -21.298716
0 8.4965906 -21.679508
0 7.4938951 -22.045938
0 6.5180025 -22.32564
0 5.5580578 -22.565649
0 4.6113119 -22.769661
0 3.6745272 -22.951176
0 2.7475843 -23.089729
0 1.8285084 -23.170124
0 0.91287804 -23.238848
0 -0 -23.241047
0 -0.91300774 -23.232376
0 -1.8286266 -23.167137
0 -2.748414 -23.075907
0 -3.6748114 -22.947632
0 -4.610693 -22.775867
0 -5.5568748 -22.575512
0 -6.5195289 -22.314726
0 -7.4990072 -22.014015
0 -8.507575 -21.618504
0 -9.5351744 -21.206936
0 -10.599326 -20.704044
0 -11.702778 -20.121225
0 -12.862607 -19.411232
0 -14.067417 -18.642014
0 -15.413338 -17.505007
0 -16.852859 -16.217613
0 -18.557941 -14.300611
0 -20.892769 -10.847326
1.1535659 20.764181 -11.204508
1.0879754 18.495581 -14.484026
1.0503644 16.805826 -16.364582
1.0245594 15.36839 -17.654829
1.0042262 14.059163 -18.671488
0.98797631 12.84369 -19.48398
0.97403008 11.688361 -20.18129
0.96328086 10.596088 -20.718756
0.95286787 9.5286789 -21.239401
0.9446283 8.5016537 -21.651382
0.93723369 7.4978666 -22.021114
0.93155009 6.5208483 -22.305286
0.92669231 5.5601549 -22.548176
0.92252713 4.6126337 -22.756441
0.91913885 3.6765537 -22.925858
0.91650039 2.7494984 -23.057777
0.91513211 1.8302641 -23.126188
0.91379654 0.91379547 -23.192968
0.91383809 -1.9073486e-06 -23.190891
0.91404051 -0.91404152 -23.180771
0.91532737 -1.8306541 -23.11643
0.91704881 -2.7511463 -23.030355
0.91964048 -3.6785622 -22.900772
0.92293185 -4.6146603 -22.736202
0.9270848 -5.5625062 -22.528557
0.93212479 -6.5248756 -22.276554
0.93831033 -7.5064826 -21.967278
0.94544971 -8.5090475 -21.610313
0.95457214 -9.5457239 -21.154188
0.96491271 -10.61404 -20.637163
0.9754827 -11.705791 -20.10866
0.99066782 -12.87868 -19.349407
1.0077891 -14.109047 -18.49334
1.0289718 -15.434575 -17.434206
1.0551062 -16.881701 -16.127485
1.0963892 -18.638617 -14.063338
1.1728454 -21.111217 -10.24053
2.3430862 21.087776 -10.305639
2.1864469 18.584797 -14.221624
2.1103575 16.88286 -16.123854
2.0552561 15.414421 -17.501392
2.014323 14.10026 -18.524723
1.9810612 12.876896 -19.356266
1.9528773 11.717261 -20.060863
1.9310817 10.620949 -20.605751
1.9103001 9.5514984 -21.125292
1.8923559 8.5156012 -21.573895
1.8787185 7.5148735 -21.914833
1.8661793 6.5316257 -22.228313
1.8562925 5.5688782 -22.475483
1.8480738 4.6201839 -22.68095
1.8417439 3.683486 -22.839197
1.836332 2.7544975 -22.974499
1.8332617 1.8332615 -23.051249
1.8302799 0.9151392 -23.125797
1.8302226 -0 -23.127228
1.8306807 -0.91534233 -23.11578
1.8334394 -1.8334398 -23.046814
1.8369608 -2.7554445 -22.958775
1.8422133 -3.6844282 -22.827465
1.8490348 -4.6225863 -22.656927
1.8576372 -5.5729117 -22.441868
1.8679124 -6.5376935 -22.184986
1.8806398 -7.5225611 -21.866802
1.8952702 -8.5287161 -21.501043
1.9131335 -9.5656681 -21.054459
1.9341689 -10.637929 -20.528574
1.9575217 -11.74513 -19.944752
1.9866316 -12.913106 -19.217007
2.0219288 -14.153502 -18.334574
2.0608165 -15.456123 -17.362385
2.1227183 -16.981749 -15.814838
2.2028041 -18.723835 -13.812694
2.3817647 -21.435883 -9.3386812
3.6228659 21.737192 -8.5016994
3.3093596 18.753036 -13.726802
3.183773 16.980124 -15.819912
3.0985363 15.492682 -17.240522
3.0343897 14.160486 -18.309631
2.9828289 12.925592 -19.16898
2.9399128 11.759651 -19.884251
2.903522 10.646247 -20.490767
2.8736377 9.5787916 -20.988831
2.8468704 8.5406122 -21.434958
2.8256822 7.535152 -21.788095
2.8065925 6.5487127 -22.106255
2.7922337 5.584466 -22.345566
2.7785568 4.6309261 -22.573515
2.7689228 3.6918964 -22.734083
2.7612412 2.7612419 -22.862108
2.7568574 1.8379021 -22.935173
2.7528017 0.91760063 -23.002773
2.7528329 -1.9073486e-06 -23.002251
2.7535002 -0.91783428 -22.991125
2.7574873 -1.8383274 -22.924675
2.7625213 -2.7625208 -22.840778
2.7708061 -3.6944084 -22.702694
2.7805974 -4.6343298 -22.539507
2.7941895 -5.5883789 -22.312973
2.8093121 -6.5550618 -22.060928
2.8299146 -7.5464396 -21.717556
2.8537283 -8.5611858 -21.320656
2.8779378 -9.5931253 -20.917168
2.9090772 -10.666617 -20.398176
2.9480188 -11.792075 -19.749151
2.9880078 -12.948036 -19.082664
3.0451567 -14.210734 -18.130184
3.1114578 -15.55729 -17.025166
3.2035172 -17.085423 -15.490847
3.3390832 -18.921473 -13.231411
4.4686475 18.991753 -13.024702
4.2828097 17.131237 -15.347675
4.1604633 15.601734 -16.877008
4.0685887 14.240059 -18.02544
3.997992 12.993474 -18.907894
3.9377375 11.813212 -19.661076
3.8881769 10.692487 -20.280582
3.8470666 9.6176662 -20.794462
3.8107719 8.5742359 -21.24815
3.7827656 7.5655313 -21.598225
3.7560339 6.5730581 -21.932375
3.7353911 5.6030846 -22.190407
3.7183542 4.6479435 -22.403366
3.7050517 3.7050524 -22.569649
3.6939945 2.7704973 -22.707863
3.6874554 1.8437262 -22.789606
3.681371 0.92034245 -22.865662
3.6817496 -9.5367432e-07 -22.860924
3.682266 -0.92056656 -22.854473
3.6880891 -1.8440447 -22.781679
3.694917 -2.7711859 -22.696331
3.7068336 -3.7068357 -22.54738
3.7199986 -4.6499977 -22.382816
3.7387433 -5.6081147 -22.148506
3.7586985 -6.5777225 -21.899065
3.7882535 -7.5765076 -21.529625
3.8202488 -8.595561 -21.129688
3.8527889 -9.6319733 -20.722933
3.8964977 -10.71537 -20.176573
3.9494803 -11.848444 -19.514292
4.0077753 -13.02527 -18.785603
4.0863986 -14.302396 -17.802809
4.1782203 -15.668325 -16.655041
4.3096938 -17.238777 -15.011623
4.5114951 -19.173859 -12.489103
5.7060409 19.400534 -11.822392
5.4164753 17.332718 -14.718043
5.2468729 15.740615 -16.414074
5.126534 14.354296 -17.617455
5.0321536 13.083597 -18.561258
4.9517388 11.884171 -19.365412
4.885736 10.748617 -20.025436
4.8338246 9.6676474 -20.544554
4.7880855 8.6185513 -21.001944
4.7538671 7.6061878 -21.344122
4.7192907 6.6070061 -21.68989
4.6909633 5.6291552 -21.973162
4.668128 4.668128 -22.201515
4.6502261 3.7201767 -22.380533
4.6372538 2.7823505 -22.510258
4.6291561 1.8516645 -22.591232
4.622972 0.92459488 -22.653072
4.6220956 -1.9073486e-06 -22.661842
4.6230116 -0.92460251 -22.652676
4.6300354 -1.8520155 -22.582441
4.6387515 -2.7832537 -22.495281
4.6540327 -3.7232285 -22.342468
4.6708789 -4.6708784 -22.174007
4.6946583 -5.6335897 -21.936211
4.7214923 -6.6100898 -21.667871
4.7555957 -7.608953 -21.326841
4.7959342 -8.6326828 -20.923454
4.8456879 -9.6913748 -20.425917
4.8972154 -10.773876 -19.910645
4.9649849 -11.915964 -19.232944
5.0467687 -13.1216 -18.415112
5.1422119 -14.398193 -17.460676
5.2721949 -15.816587 -16.160843
5.455184 -17.456589 -14.330957
5.777957 -19.645052 -11.10323
7.0544252 19.987539 -10.095917
6.6014314 17.603817 -13.870866
6.3702765 15.925693 -15.797154
6.2096281 14.489132 -17.135899
6.0902748 13.195596 -18.130503
5.9862609 11.972519 -18.997292
5.9042587 10.824472 -19.680641
5.8369551 9.7282572 -20.241501
5.7795467 8.6693211 -20.719906
5.7354455 7.6472611 -21.087416
5.693069 6.6419115 -21.440554
5.6588006 5.6588001 -21.726128
5.6324239 4.6936865 -21.94593
5.6110811 3.7407198 -22.123787
5.5944991 2.7972469 -22.261971
5.5831437 1.8610477 -22.356598
5.5739732 0.92899513 -22.433018
5.5734744 -0 -22.437176
5.5755343 -0.92925644 -22.420008
5.58429 -1.8614311 -22.347046
5.5954552 -2.7977295 -22.253998
5.6136584 -3.7424383 -22.10231
5.6348395 -4.6957016 -21.9258
5.6638131 -5.6638122 -21.684353
5.6984453 -6.6481862 -21.395752
5.7388716 -7.6518292 -21.058865
5.7921505 -8.6882257 -20.614878
5.853446 -9.755743 -20.104082
5.9160709 -10.846129 -19.582205
6.0051756 -12.010353 -18.839664
6.1061058 -13.229896 -17.998583
6.2357569 -14.5501 -16.918154
6.4057589 -16.014399 -15.501474
6.6565266 -17.750736 -13.411743
7.87957 18.010445 -12.600155
7.546133 16.170282 -14.98185
7.3300858 14.660173 -16.525038
7.1713448 13.318209 -17.658909
7.075551 12.129517 -18.343147
6.9927506 10.988607 -18.934578
6.9120145 9.8743057 -19.511263
6.8333292 8.7857056 -20.073303
6.7564149 7.7216144 -20.622694
6.6843448 6.6843419 -21.13748
6.6460686 5.6966314 -21.410877
6.6117382 4.7226696 -21.656096
6.5866461 3.7637987 -21.835321
6.5665445 2.8142309 -21.978907
6.5533066 1.8723698 -22.07346
6.5455189 0.93507576 -22.129084
6.5468888 -1.9073486e-06 -22.119305
6.5503917 -0.93577099 -22.094284
6.5549283 -1.872839 -22.061884
6.5702219 -2.8158092 -21.952641
6.5902495 -3.7658567 -21.809587
6.618576 -4.7275534 -21.607256
6.65172 -5.7014766 -21.370512
6.6976395 -6.6976399 -21.042517
6.7501593 -7.714467 -20.667376
6.8067155 -8.7514915 -20.263403
6.879488 -9.8278389 -19.743599
6.9686322 -10.950708 -19.106852
7.0705323 -12.120914 -18.378998
7.2034473 -13.377833 -17.429596
7.3609347 -14.72187 -16.304689
7.5894523 -16.263111 -14.672423
7.950902 -18.173492 -12.090637
9.3542967 18.708593 -10.418438
8.7939415 16.488638 -13.920663
8.5089169 14.890604 -15.702065
8.3366346 13.547029 -16.778831
8.2367783 12.355167 -17.402931
8.1384888 11.190422 -18.017241
8.0429945 10.053741 -18.614079
7.9497652 8.9434834 -19.196762
7.8586965 7.858695 -19.765947
7.7696896 6.7984772 -20.322239
7.6826305 5.7619724 -20.866352
7.6130252 4.7581406 -21.30139
7.5841851 3.7920895 -21.48164
7.5572262 2.8339586 -21.650133
7.5439401 1.8859844 -21.733171
7.5319343 0.94149017 -21.808208
7.5349541 -9.5367432e-07 -21.789335
7.5404491 -0.94255543 -21.75499
7.5467262 -1.8866835 -21.715759
7.5636196 -2.83636 -21.61017
7.5862856 -3.7931452 -21.468513
7.6212506 -4.7632828 -21.249981
7.6599336 -5.7449493 -21.008213
7.7191396 -6.7542486 -20.638176
7.7799263 -7.7799244 -20.258259
7.8434691 -8.823904 -19.861116
7.9410362 -9.9262953 -19.25132
8.0450058 -11.061882 -18.601513
8.1706705 -12.256007 -17.816103
8.3390913 -13.551024 -16.763475
8.5535822 -14.968769 -15.422907
8.8531199 -16.599598 -13.5508
9.5361624 -19.072327 -9.2817802
10.198257 16.997093 -12.225814
9.7649736 15.189958 -14.632945
9.5587263 13.807048 -15.778763
9.4418154 12.589084 -16.428267
9.3273697 11.400118 -17.064075
9.2158699 10.239853 -17.683517
9.1070337 9.1070328 -18.288164
9.0008211 8.0007277 -18.878235
8.8970585 6.9199328 -19.454695
8.7955799 5.8637185 -20.018463
8.6963387 4.8312969 -20.569805
8.6029634 3.8235397 -21.088554
8.5802565 2.8600836 -21.214705
8.5638428 1.9030781 -21.305891
8.5472393 0.94969463 -21.398132
8.5475426 -0 -21.39645
8.5544596 -0.95049667 -21.358025
8.5681753 -1.9040394 -21.281826
8.5826721 -2.8608923 -21.201286
8.6118908 -3.827508 -21.038956
8.6502647 -4.8057013 -20.825771
8.7010145 -5.8006778 -20.543829
8.7643347 -6.8167057 -20.192047
8.8408709 -7.858552 -19.76685
8.9272776 -8.9272785 -19.286814
9.0347939 -10.038659 -18.689499
9.1684361 -11.20587 -17.947037
9.3247871 -12.433051 -17.078423
9.5404959 -13.780716 -15.880039
9.8162699 -15.269752 -14.347967
10.309882 -17.183138 -11.605676
11.147858 15.607 -13.143506
10.828613 14.077199 -14.739727
10.693435 12.832121 -15.415622
10.561658 11.617825 -16.074509
10.433022 10.433019 -16.717686
10.307415 9.2766724 -17.345718
10.184991 8.147994 -17.957838
10.06541 7.0457845 -18.55575
9.9485416 5.9691257 -19.140087
9.8343267 4.9171615 -19.711166
9.7226458 3.8890581 -20.269569
9.6230154 2.8869047 -20.767719
9.6011105 1.9202232 -20.877239
9.5874395 0.9587431 -20.945602
9.5824432 -1.9073486e-06 -20.970581
9.5930405 -0.95930481 -20.917591
9.6102285 -1.9220476 -20.831656
9.6296387 -2.8888931 -20.734604
9.6677065 -3.867084 -20.54426
9.7134304 -4.8567166 -20.315643
9.7732229 -5.863935 -20.016682
9.8468437 -6.8927894 -19.648579
9.9427328 -7.9541855 -19.169134
10.040476 -9.0364285 -18.680418
10.178098 -10.178099 -17.992306
10.3407 -11.37477 -17.179295
10.545288 -12.654346 -16.156355
10.820276 -14.066359 -14.781415
11.262201 -15.76708 -12.571795
12.90812 16.428513 -10.209528
12.183639 14.398843 -13.50262
11.994492 13.0849 -14.362378
11.843966 11.843964 -15.046588
11.696978 10.633616 -15.714718
11.553367 9.4527512 -16.367493
11.41357 8.3007774 -17.002928
11.27701 7.1762776 -17.623665
11.143678 6.0783706 -18.229717
11.013495 5.006135 -18.821449
10.886188 3.9586153 -19.400127
10.762016 2.9350939 -19.964542
10.684226 1.9425859 -20.318134
10.669092 0.9699173 -20.386925
10.665717 -9.5367432e-07 -20.402264
10.672244 -0.97020435 -20.372597
10.687032 -1.9430971 -20.305378
10.718418 -2.9232054 -20.16271
10.757961 -3.9119859 -19.982975
10.824606 -4.9202757 -19.680042
10.897044 -5.9438424 -19.350779
10.976581 -6.9850979 -18.989246
11.091551 -8.0665836 -18.46666
11.222883 -9.1823578 -17.869692
11.384501 -10.349547 -17.135067
11.597918 -11.597919 -16.164995
11.866914 -12.945724 -14.942278
12.247329 -14.474114 -13.21312
13.281748 -16.904045 -8.5112114
13.951458 15.114077 -10.751725
13.348069 13.348068 -13.265842
13.177231 12.079126 -13.977673
13.010446 10.842037 -14.672606
12.847531 9.6356468 -15.351414
12.689105 8.459403 -16.011524
12.534335 7.3116922 -16.656399
12.383415 6.1917071 -17.285234
12.236085 5.0983701 -17.899109
12.092107 4.0307002 -18.49902
11.951662 2.9879141 -19.084208
11.814297 1.9690504 -19.656557
11.797767 0.98314571 -19.725435
11.797551 -9.5367432e-07 -19.726336
11.796614 -0.98305416 -19.73024
11.818889 -1.9698143 -19.637426
11.852405 -2.9631004 -19.49778
11.907001 -3.9690018 -19.270296
11.984895 -4.9937057 -18.945738
12.065095 -6.0325494 -18.611565
12.168998 -7.0985794 -18.17864
12.313058 -8.208704 -17.578392
12.46777 -9.3508301 -16.933756
12.693734 -10.578115 -15.992232
12.962236 -11.882051 -14.87348
13.378912 -13.378911 -13.137327
14.215575 -15.400208 -9.6512318
15.197531 14.028489 -10.430754
14.564461 12.323775 -12.865641
14.376482 11.058832 -13.588634
14.192909 9.8258591 -14.294683
14.01434 8.6242094 -14.981486
13.83998 7.4522963 -15.652102
13.670218 6.30933 -16.305035
13.50457 5.1940632 -16.942139
13.342761 4.1054659 -17.564484
13.184908 3.0426707 -18.171608
13.030585 2.0047035 -18.765163
12.987546 0.99904251 -18.930702
12.984402 -0 -18.942791
12.982869 -0.99868488 -18.948681
13.009475 -2.001461 -18.846355
13.054248 -3.0125179 -18.67415
13.107292 -4.0330138 -18.470133
13.206926 -5.079587 -18.086927
13.31321 -6.1445599 -17.678143
13.436175 -7.2348633 -17.205194
13.624899 -8.3845539 -16.47934
13.821554 -9.5687685 -15.722971
14.136034 -10.873873 -14.513432
14.558023 -12.31833 -12.890396
15.520524 -14.32664 -9.1884747
16.851757 13.240664 -8.6979523
15.798263 11.284474 -12.46043
15.592418 10.023697 -13.195587
15.392185 8.7955341 -13.91071
15.196875 7.5984373 -14.608243
15.00686 6.4315104 -15.286869
14.821587 5.2934213 -15.948561
14.640688 4.183054 -16.594624
14.464199 3.0994692 -17.224939
14.291598 2.041657 -17.841372
14.254387 1.0181704 -17.974272
14.253394 -1.9073486e-06 -17.977818
14.252222 -1.0180178 -17.982002
14.280998 -2.040143 -17.87923
14.333198 -3.0713992 -17.692801
14.417637 -4.119328 -17.391235
14.536533 -5.1916208 -16.966608
14.66991 -6.2871056 -16.490263
14.8532 -7.426599 -15.835657
15.088778 -8.62216 -14.994305
15.40803 -9.90516 -13.85412
15.862057 -11.330041 -12.232594
17.331755 10.399052 -11.110282
16.825823 8.9737692 -12.796721
16.607996 7.7503958 -13.522817
16.39629 6.5585151 -14.228494
16.18997 5.3966565 -14.916229
15.988566 4.263618 -15.587574
15.792111 3.1584196 -16.242426
15.661108 2.0881448 -16.679102
15.627192 1.0418124 -16.792158
15.61799 -9.5367432e-07 -16.822834
15.633972 -1.0422645 -16.769552
15.66248 -2.0883327 -16.67453
15.74755 -3.1495118 -16.390961
15.84982 -4.2266202 -16.050058
15.981368 -5.3271227 -15.61157
16.194588 -6.4778357 -14.900839
16.470133 -7.6860619 -13.982354
16.853786 -8.9886856 -12.703511
17.478281 -10.486967 -10.621864
18.558231 8.1192245 -10.888325
18.011391 6.7542706 -12.597201
17.696321 5.5300994 -13.581793
17.48332 4.3708286 -14.247421
17.333538 3.2500396 -14.71549
17.260618 2.1575785 -14.943363
17.188654 1.0742908 -15.168255
17.188711 -9.5367432e-07 -15.168075
17.220039 -1.0762539 -15.070175
17.277588 -2.1596985 -14.890333
17.363405 -3.2556396 -14.622152
17.509359 -4.3773403 -14.166048
17.736856 -5.5427685 -13.455116
18.069159 -6.7759352 -12.416674
18.730099 -8.1944189 -10.351236
19.777426 4.6535082 -10.7139
19.429337 3.4287071 -11.737686
19.249752 2.2646775 -12.265882
19.130545 1.1253233 -12.616489
19.105227 1.4305115e-06 -12.690958
19.139311 -1.125843 -12.590702
19.249954 -2.2646999 -12.265285
19.490179 -3.4394445 -11.558743
19.818333 -4.6631355 -10.593581
