# .PCD v0.7 - Point Cloud Data file format
VERSION 0.7
FIELDS x y z
SIZE 4 4 4
TYPE F F F
COUNT 1 1 1
WIDTH 1054
HEIGHT 1
VIEWPOINT 0 0 0 1 0 0 0
POINTS 1054
DATA ascii
-23.128109 1.2172687 -8.019351
-23.044693 -2.3841858e-06 -8.2388678
-21.859907 7.2866354 -8.1608257
-20.76545 5.7681789 -11.20099
-20.358095 4.5240197 -12.332537
-20.138905 3.3564858 -12.941397
-19.985632 2.2206235 -13.367152
-19.869165 1.1038413 -13.69067
-19.849966 -1.4305115e-06 -13.744003
-19.902617 -1.1057019 -13.597757
-19.976603 -2.2196236 -13.392232
-20.166527 -3.3610902 -12.864665
-20.397663 -4.5328159 -12.22262
-20.869963 -5.7972116 -10.910678
-19.94026 9.3836536 -10.234972
-19.191141 7.9022322 -12.438265
-18.787298 6.6308088 -13.626041
-18.537004 5.4520607 -14.362194
-18.345926 4.3166866 -14.924191
-18.19383 3.2106757 -15.371529
-18.102448 2.1296997 -15.640304
-18.06831 1.0628419 -15.740705
-18.035492 -4.7683716e-07 -15.837229
-18.052034 -1.0618839 -15.788572
-18.124937 -2.1323471 -15.574158
-18.208485 -3.2132597 -15.328432
-18.371799 -4.3227758 -14.848092
-18.565248 -5.4603696 -14.279125
-18.860287 -6.6565733 -13.411361
-19.256933 -7.9293242 -12.244757
-20.02844 -9.425148 -9.9756203
-19.022722 11.889202 -9.4367905
-18.073092 10.166115 -12.404385
-17.588425 8.7942114 -13.91897
-17.287914 7.5634604 -14.858068
-17.044085 6.3915296 -15.620035
-16.843102 5.2634697 -16.248108
-16.740211 4.1850533 -16.569635
-16.641529 3.1202865 -16.878017
-16.565294 2.0706587 -17.116255
-16.533752 1.0333605 -17.214823
-16.526323 -0 -17.238037
-16.534601 -1.0334134 -17.212168
-16.582205 -2.0727758 -17.063408
-16.646641 -3.1212463 -16.862043
-16.72504 -4.181263 -16.617041
-16.889894 -5.2780919 -16.101879
-17.074038 -6.4027638 -15.526431
-17.322809 -7.5787292 -14.74902
-17.652822 -8.8264132 -13.717726
-18.162979 -10.216679 -12.12349
-19.339439 -12.08715 -8.4470434
-17.308016 12.692542 -11.189411
-16.648603 11.099069 -13.387449
-16.246473 9.7478819 -14.727886
-15.921542 8.4914885 -15.810988
-15.732359 7.3417645 -16.441601
-15.565064 6.2260242 -16.999249
-15.426538 5.1421795 -17.461002
-15.310679 4.0828485 -17.847202
-15.244728 3.048943 -18.067038
-15.194441 2.0259247 -18.234657
-15.156706 1.0104446 -18.360445
-15.16337 -3.8146973e-06 -18.338226
-15.170042 -1.0113392 -18.31599
-15.191238 -2.0255013 -18.245338
-15.261066 -3.0522165 -18.012577
-15.3426 -4.091362 -17.740795
-15.431469 -5.1438241 -17.444567
-15.580789 -6.2323174 -16.946835
-15.733076 -7.342104 -16.439209
-15.977347 -8.5212517 -15.624972
-16.268373 -9.7610226 -14.654884
-16.715359 -11.143575 -13.164929
-17.394392 -12.75589 -10.90149
-16.007397 13.720624 -11.713527
-15.374694 12.080117 -13.973171
-15.001363 10.715258 -15.306501
-14.741185 9.4764767 -16.235708
-14.527581 8.3014736 -16.998581
-14.340452 7.1702251 -17.666895
-14.219971 6.0942712 -18.097185
-14.120057 5.0428782 -18.454018
-14.033986 4.0097094 -18.761417
-13.977432 2.9951639 -18.963398
-13.938342 1.991189 -19.103003
-13.908095 0.99343395 -19.211025
-13.887861 9.5367432e-07 -19.283293
-13.911403 -0.99367046 -19.199219
-13.939075 -1.9912968 -19.100384
-13.971754 -2.993947 -18.983675
-14.040677 -4.0116205 -18.737518
-14.12723 -5.0454407 -18.428404
-14.234032 -6.1003008 -18.04697
-14.382475 -7.1912394 -17.516813
-14.540802 -8.3090305 -16.951359
-14.773957 -9.4975433 -16.118662
-15.031591 -10.736851 -15.198542
-15.450298 -12.139519 -13.70316
-16.081959 -13.784533 -11.44723
-14.826452 14.826449 -11.857978
-14.24704 13.151114 -14.086488
-13.85841 11.726347 -15.581218
-13.592186 10.455525 -16.605156
-13.388321 9.268836 -17.389259
-13.22814 8.1403923 -18.005337
-13.09228 7.0496874 -18.527874
-12.984643 5.9929113 -18.941862
-12.901518 4.9621191 -19.261576
-12.827862 3.9470325 -19.544868
-12.763563 2.9454365 -19.792168
-12.745598 1.9608593 -19.861265
-12.728149 0.97908497 -19.928375
-12.71693 -9.5367432e-07 -19.971529
-12.72811 -0.97908401 -19.928524
-12.751153 -1.9617186 -19.839897
-12.781929 -2.9496756 -19.721529
-12.83778 -3.9500885 -19.506716
-12.913343 -4.9666743 -19.216089
-12.995008 -5.9976964 -18.901995
-13.107086 -7.057662 -18.470924
-13.239105 -8.1471424 -17.96316
-13.402129 -9.2783985 -17.336142
-13.635289 -10.488684 -16.439379
-13.906454 -11.767002 -15.39643
-14.276355 -13.178175 -13.973736
-14.927173 -14.927173 -11.470591
-13.791181 16.089712 -11.419542
-13.154833 14.251066 -14.070996
-12.779848 12.779847 -15.633432
-12.532749 11.488353 -16.663006
-12.309446 10.257873 -17.593435
-12.150237 9.1126776 -18.256809
-12.019772 8.0131788 -18.800419
-11.906229 6.9452977 -19.273508
-11.80433 5.9021626 -19.69809
-11.746274 4.8942828 -19.939987
-11.692821 3.8976068 -20.162712
-11.647785 2.9119444 -20.350361
-11.615135 1.9358549 -20.486397
-11.601806 0.96681595 -20.541939
-11.595501 -1.9073486e-06 -20.568211
-11.589168 -0.965765 -20.594597
-11.616813 -1.9361343 -20.47941
-11.653233 -2.9133101 -20.327656
-11.689883 -3.8966269 -20.17495
-11.751993 -4.8966656 -19.916157
-11.824533 -5.9122648 -19.613905
-11.909424 -6.9471655 -19.260197
-12.03693 -8.0246191 -18.72892
-12.17314 -9.1298542 -18.161381
-12.346478 -10.288733 -17.43914
-12.550099 -11.504258 -16.590715
-12.832846 -12.832846 -15.412603
-13.221984 -14.323817 -13.791196
-13.903991 -16.221323 -10.949501
-12.873618 17.554935 -10.36635
-12.155568 15.470721 -13.630216
-11.761995 13.900537 -15.419178
-11.486974 12.531242 -16.669275
-11.279058 11.279058 -17.614349
-11.123334 10.112122 -18.322187
-10.971886 8.9769974 -19.010586
-10.868774 7.9045634 -19.479279
-10.783094 6.8619699 -19.868729
-10.705873 5.8395677 -20.219734
-10.639496 4.836132 -20.521454
-10.595265 3.8528233 -20.7225
-10.557065 2.8791971 -20.896139
-10.521358 1.9129725 -21.058437
-10.515514 0.95595455 -21.085003
-10.515951 -1.9073486e-06 -21.083017
-10.517951 -0.9561758 -21.073927
-10.534289 -1.9153233 -20.999664
-10.56491 -2.8813381 -20.860481
-10.59574 -3.8529978 -20.720337
-10.643974 -4.8381696 -20.501097
-10.716245 -5.8452249 -20.172592
-10.792267 -6.8678074 -19.82704
-10.884279 -7.9158411 -19.408802
-10.999637 -8.9997044 -18.884449
-11.1175 -10.106821 -18.348701
-11.30965 -11.30965 -17.475296
-11.513574 -12.560264 -16.548367
-11.800891 -13.946509 -15.242382
-12.227657 -15.562477 -13.302533
-13.121019 -17.8923 -9.2417974
-11.197583 16.796373 -12.894879
-10.769079 15.07671 -15.037403
-10.506318 13.658211 -16.351208
-10.274049 12.328858 -17.51255
-10.115555 11.127109 -18.305021
-9.9808455 9.9808426 -18.978571
-9.8678579 8.8810711 -19.543505
-9.7698994 7.8159184 -20.033297
-9.6960478 6.7872343 -20.402557
-9.6305027 5.7783012 -20.730282
-9.5712719 4.785634 -21.026436
-9.5380259 3.8152103 -21.192665
-9.5114441 2.8534327 -21.325581
-9.4880285 1.8976059 -21.442652
-9.4725027 0.94725037 -21.520287
-9.4728928 -9.5367432e-07 -21.518333
-9.4783602 -0.94783783 -21.490993
-9.4850368 -1.8970079 -21.457611
-9.5088301 -2.8526497 -21.338644
-9.5460043 -3.8184052 -21.152773
-9.5851545 -4.7925797 -20.957022
-9.6410046 -5.7846036 -20.677776
-9.7052584 -6.7936821 -20.356503
-9.7721548 -7.8177257 -20.022024
-9.8803396 -8.8923054 -19.481098
-9.9976816 -9.9976826 -18.894386
-10.138434 -11.152281 -18.190622
-10.309958 -12.371952 -17.333004
-10.527316 -13.685513 -16.246212
-10.812715 -15.137801 -14.819224
-11.251255 -16.876884 -12.626518
-10.345565 18.392117 -11.407431
-9.8363714 16.39395 -14.236293
-9.5223675 14.812571 -15.980757
-9.3017883 13.435916 -17.206192
-9.1259432 12.167923 -18.183113
-8.9904842 10.988369 -18.935661
-8.884532 9.8717022 -19.524288
-8.7935505 8.7935505 -20.029739
-8.7057486 7.7384424 -20.517527
-8.6460037 6.724669 -20.849442
-8.5968103 5.7312069 -21.122738
-8.5515041 4.7508326 -21.374439
-8.5127239 3.783432 -21.589888
-8.4893951 2.8297968 -21.719492
-8.4717655 1.8826122 -21.817436
-8.4541836 0.93935204 -21.91511
-8.4508791 -1.9073486e-06 -21.933472
-8.4580851 -0.93978977 -21.893436
-8.46805 -1.8817902 -21.838076
-8.4865093 -2.8288393 -21.735521
-8.5191088 -3.786272 -21.554417
-8.551959 -4.751091 -21.371914
-8.5895185 -5.726346 -21.163248
-8.6566505 -6.7329497 -20.790297
-8.7248392 -7.7554116 -20.411467
-8.8041086 -8.8041058 -19.971083
-8.9033756 -9.8926392 -19.419598
-9.0075951 -11.009282 -18.840603
-9.1540346 -12.205381 -18.027042
-9.3193569 -13.461294 -17.108593
-9.5610619 -14.872762 -15.765793
-9.8890982 -16.481829 -13.943363
-10.46885 -18.61129 -10.722519
-8.908042 17.816082 -13.207535
-8.5791769 16.085957 -15.262938
-8.3462276 14.605898 -16.71887
-8.1700745 13.276371 -17.81983
-8.0322304 12.048344 -18.681358
-7.9227328 10.893757 -19.365715
-7.8288965 9.7861195 -19.952192
-7.7506032 8.7194271 -20.441528
-7.6850157 7.6850157 -20.85145
-7.6262622 6.6729784 -21.218658
-7.5835376 5.6876507 -21.485687
-7.5465932 4.7166195 -21.716587
-7.5099854 3.7549925 -21.945385
-7.48908 2.8084049 -22.076046
-7.4781599 1.8695383 -22.144295
-7.4672723 0.93340778 -22.212345
-7.4632239 -0 -22.237644
-7.4719315 -0.93399048 -22.183224
-7.4815931 -1.8704004 -22.122837
-7.4944644 -2.8104248 -22.042397
-7.5200982 -3.7600489 -21.882183
-7.5490713 -4.7181711 -21.701099
-7.5867772 -5.6900845 -21.465437
-7.6372795 -6.682621 -21.149799
-7.6946163 -7.6946192 -20.791443
-7.7546654 -8.7240019 -20.416138
-7.8379059 -9.7973833 -19.895887
-7.9345264 -10.909976 -19.292006
-8.0529823 -12.079475 -18.551655
-8.1981449 -13.321986 -17.644392
-8.3781137 -14.661698 -16.519588
-8.6077738 -16.139576 -15.084206
-8.9639301 -17.92786 -12.858232
-8.1210117 19.722454 -10.875571
-7.6652708 17.520618 -14.130862
-7.4059205 15.869831 -15.983362
-7.2268567 14.453712 -17.262394
-7.078352 13.145508 -18.323139
-6.9728599 11.953474 -19.076653
-6.8825769 10.815477 -19.721529
-6.7946234 9.706604 -20.349771
-6.7330914 8.6568298 -20.789289
-6.6800036 7.6342888 -21.168484
-6.6277661 6.6277652 -21.541607
-6.5907121 5.6491795 -21.806282
-6.5637131 4.688364 -21.99913
-6.5374842 3.7357063 -22.186478
-6.5170593 2.793025 -22.332371
-6.5075903 1.8593092 -22.400011
-6.500042 0.92857742 -22.453926
-6.4943266 -9.5367432e-07 -22.494749
-6.497848 -0.92826462 -22.469595
-6.5081539 -1.8594742 -22.395985
-6.5192852 -2.7939806 -22.316479
-6.5348487 -3.7341986 -22.205309
-6.5666208 -4.690443 -21.978359
-6.5992265 -5.6564822 -21.745464
-6.6354389 -6.6354389 -21.486805
-6.6848798 -7.6398625 -21.133652
-6.7398801 -8.6655598 -20.740799
-6.808382 -9.7262611 -20.251501
-6.8930435 -10.831928 -19.646769
-6.9822826 -11.969627 -19.00935
-7.1033492 -13.191934 -18.144587
-7.2341433 -14.468285 -17.210342
-7.4365282 -15.935416 -15.764738
-7.7104745 -17.623943 -13.807979
-8.229682 -19.986372 -10.099356
-6.7832417 19.219183 -12.355779
-6.4781389 17.275038 -14.898306
-6.2753553 15.688389 -16.588165
-6.1388159 14.323901 -17.726
-6.0245862 13.053268 -18.67791
-5.9344163 11.868832 -19.429325
-5.8581161 10.73988 -20.065159
-5.7927761 9.654623 -20.609663
-5.7392468 8.6088696 -21.055738
-5.6946979 7.5929289 -21.426981
-5.6546082 6.5970416 -21.761061
-5.6216502 5.6216497 -22.035711
-5.5987329 4.6656103 -22.226692
-5.578208 3.7188053 -22.39773
-5.5589218 2.779459 -22.558449
-5.5477581 1.8492527 -22.651482
-5.5429006 0.92381573 -22.691957
-5.5380363 -9.5367432e-07 -22.732494
-5.5385761 -0.9230957 -22.727995
-5.5504045 -1.8501368 -22.629421
-5.5623002 -2.7811518 -22.530293
-5.5757599 -3.7171745 -22.418133
-5.6006489 -4.6672096 -22.210724
-5.6271219 -5.6271243 -21.990112
-5.6546082 -6.5970459 -21.761063
-5.6988993 -7.5985355 -21.391966
-5.7484732 -8.6227112 -20.978853
-5.7989345 -9.6648912 -20.55834
-5.869174 -10.760154 -19.973013
-5.9411359 -11.882271 -19.373331
-6.0377159 -13.081718 -18.568497
-6.154429 -14.360332 -17.595888
-6.3051901 -15.762975 -16.339542
-6.501215 -17.336571 -14.706007
-6.8359046 -19.368397 -11.916924
-5.5569515 18.893635 -13.313281
-5.3408432 17.090694 -15.474367
-5.1894422 15.568326 -16.988373
-5.0809822 14.226749 -18.072971
-4.9922647 12.979888 -18.960144
-4.9112802 11.78707 -19.769997
-4.8570671 10.685545 -20.312124
-4.8068366 9.6136694 -20.814432
-4.757648 8.5637627 -21.306314
-4.7226148 7.5561814 -21.656651
-4.6935768 6.5710068 -21.947029
-4.6648803 5.5978546 -22.233994
-4.6435971 4.6435957 -22.446827
-4.6275721 3.7020559 -22.607075
-4.6134558 2.7680731 -22.748241
-4.6039782 1.841588 -22.843018
-4.6022792 0.92045689 -22.860001
-4.600595 -0 -22.876846
-4.6007924 -0.92016029 -22.874872
-4.6087251 -1.8434906 -22.795544
-4.6187921 -2.7712774 -22.694874
-4.6308885 -3.7047081 -22.573914
-4.6474195 -4.6474209 -22.4086
-4.6692929 -5.6031547 -22.189865
-4.6966181 -6.5752673 -21.916616
-4.7284017 -7.565443 -21.59878
-4.7680664 -8.5825195 -21.202133
-4.8084455 -9.61689 -20.798346
-4.8606176 -10.693359 -20.276621
-4.9271607 -11.825186 -19.611191
-5.0014668 -13.003815 -18.86813
-5.0956407 -14.267792 -17.926394
-5.2076983 -15.623094 -16.805813
-5.3610034 -17.155212 -15.272763
-5.5968251 -19.029203 -12.914549
-4.7384553 21.32305 -9.6521034
-4.4042215 18.717941 -13.830026
-4.2402902 16.961163 -15.879165
-4.1301093 15.487908 -17.256432
-4.037693 14.131926 -18.411629
-3.9747601 12.917971 -19.198296
-3.916425 11.749275 -19.927481
-3.8701522 10.642916 -20.505896
-3.8301036 9.5752602 -21.0065
-3.7928188 8.5338421 -21.472561
-3.7654605 7.53092 -21.814545
-3.7424169 6.5492325 -22.102581
-3.7196651 5.5794945 -22.386982
-3.7029524 4.6286888 -22.595894
-3.6923945 3.6923943 -22.727861
-3.6821287 2.7615957 -22.856186
-3.6734707 1.8367338 -22.964411
-3.6708729 0.91771698 -22.996883
-3.6702452 -9.5367432e-07 -23.004734
-3.6706216 -0.91765785 -23.000023
-3.673775 -1.8368883 -22.960609
-3.6827188 -2.7620401 -22.848808
-3.6923313 -3.6923342 -22.728659
-3.7022388 -4.6277981 -22.604813
-3.7232046 -5.5848079 -22.342737
-3.7449431 -6.5536504 -22.071007
-3.7669368 -7.5338726 -21.796089
-3.798022 -8.5455494 -21.407518
-3.8338335 -9.5845871 -20.959877
-3.8743687 -10.654515 -20.45319
-3.9260285 -11.778085 -19.807442
-3.9803028 -12.935986 -19.129013
-4.0528975 -14.185142 -18.221586
-4.1362934 -15.511103 -17.179127
-4.2579203 -17.031681 -15.658796
-4.4302921 -18.828743 -13.504142
-3.4842269 20.905357 -10.812353
-3.278512 18.578232 -14.240931
-3.1603348 16.855122 -16.210545
-3.0836618 15.418305 -17.488432
-3.0199628 14.09316 -18.550081
-2.9710066 12.87436 -19.36602
-2.9294581 11.71783 -20.058495
-2.8913312 10.601547 -20.693945
-2.8641074 9.5470209 -21.147678
-2.839803 8.5194073 -21.552748
-2.8166473 7.5110569 -21.938675
-2.7994637 6.5320826 -22.225063
-2.7848403 5.5696793 -22.468792
-2.7714026 4.6190033 -22.692755
-2.7626319 3.6835098 -22.83893
-2.7556851 2.7556858 -22.954712
-2.749227 1.832818 -23.062344
-2.7449906 0.91499615 -23.132954
-2.7452168 -1.9073486e-06 -23.129181
-2.745662 -0.91522312 -23.121765
-2.7474198 -1.8316145 -23.092464
-2.7555199 -2.7555189 -22.957466
-2.7639053 -3.6852093 -22.817709
-2.7728751 -4.6214561 -22.668213
-2.7863753 -5.572751 -22.443205
-2.8020475 -6.5381103 -22.182007
-2.8182588 -7.5153565 -21.911818
-2.8417506 -8.5252533 -21.520288
-2.869163 -9.5638781 -21.063414
-2.8972485 -10.623247 -20.59532
-2.9345422 -11.738169 -19.973759
-2.9739625 -12.887173 -19.316755
-3.0282416 -14.131797 -18.412102
-3.0924227 -15.462116 -17.342417
-3.1759915 -16.93862 -15.949608
-3.2972665 -18.684507 -13.928356
-3.5397565 -21.238539 -9.8868561
-2.3039935 20.735937 -11.282962
-2.1721983 18.463686 -14.577838
-2.1012361 16.809885 -16.351894
-2.0501173 15.375878 -17.629864
-2.0093992 14.065791 -18.647818
-1.974407 12.833646 -19.522619
-1.9486972 11.692183 -20.165367
-1.9247354 10.586046 -20.764408
-1.9065033 9.5325165 -21.220211
-1.8901553 8.5057001 -21.62891
-1.8741288 7.4965162 -22.029572
-1.862626 6.5191889 -22.31715
-1.8536088 5.5608263 -22.542574
-1.8446788 4.6116982 -22.765825
-1.8375114 3.6750221 -22.945011
-1.8335333 2.7502985 -23.044462
-1.8301394 1.8301382 -23.129311
-1.8271469 0.91357231 -23.204124
-1.8281745 -0 -23.178434
-1.8292032 -0.91460323 -23.152718
-1.8307902 -1.8307896 -23.113043
-1.8347669 -2.7521505 -23.013628
-1.840338 -3.6806784 -22.874344
-1.8467324 -4.6168289 -22.714487
-1.8542818 -5.5628452 -22.525757
-1.8646871 -6.5264049 -22.265619
-1.8773431 -7.5093737 -21.949215
-1.8913772 -8.511198 -21.598364
-1.9092349 -9.546175 -21.151924
-1.9274328 -10.600882 -20.696972
-1.9511486 -11.706894 -20.10408
-1.9807259 -12.874721 -19.364647
-2.0141528 -14.09907 -18.528976
-2.0558598 -15.418949 -17.486298
-2.1097629 -16.878101 -16.138725
-2.1864023 -18.584421 -14.222739
-2.3305049 -20.974545 -10.620176
-1.1448048 20.606489 -11.642552
-1.0837657 18.424015 -14.694512
-1.0498641 16.797827 -16.389591
-1.0223331 15.334996 -17.766138
-1.0036124 14.050571 -18.702179
-0.98649848 12.824478 -19.557875
-0.97383261 11.685992 -20.191164
-0.96224397 10.584682 -20.770596
-0.95205325 9.5205326 -21.280136
-0.94389963 8.4950943 -21.687813
-0.93692803 7.4954224 -22.036392
-0.93090349 6.5163231 -22.337622
-0.92636156 5.5581675 -22.564716
-0.92186385 4.6093168 -22.789604
-0.91834414 3.6733761 -22.965588
-0.91664135 2.7499247 -23.050732
-0.91496819 1.8299351 -23.134384
-0.91365129 0.91365242 -23.200232
-0.91346973 -9.5367432e-07 -23.209309
-0.91409504 -0.91409588 -23.178043
-0.91498643 -1.8299751 -23.133476
-0.91626287 -2.7487888 -23.069649
-0.91925174 -3.6770086 -22.92021
-0.9224425 -4.6122141 -22.760672
-0.92565554 -5.5539331 -22.600023
-0.93159056 -6.5211358 -22.303268
-0.937922 -7.503376 -21.986698
-0.94434279 -8.4990845 -21.665657
-0.95305693 -9.530571 -21.22995
-0.96349722 -10.598469 -20.707939
-0.97508663 -11.701042 -20.128464
-0.98958647 -12.864624 -19.403473
-1.0048815 -14.068342 -18.638723
-1.0265365 -15.398047 -17.555969
-1.0534657 -16.855452 -16.209513
-1.0882881 -18.5009 -14.46839
-1.1625501 -20.925903 -10.755293
0 20.624094 -11.593643
0 18.428171 -14.682284
0 16.788841 -16.417662
0 15.345963 -17.72958
0 14.056314 -18.681669
0 12.835417 -19.515804
0 11.680406 -20.214432
0 10.58329 -20.776924
0 9.5140858 -21.312363
0 8.4982128 -21.670506
0 7.5001831 -22.006643
0 6.5162668 -22.338028
0 5.556921 -22.575111
0 4.6119995 -22.762787
0 3.6754837 -22.939238
0 2.7495384 -23.057129
0 1.8301029 -23.13022
0 0.91373158 -23.196083
0 -9.5367432e-07 -23.240143
0 -0.91368961 -23.198418
0 -1.8293152 -23.149857
0 -2.7479677 -23.083342
0 -3.6771107 -22.9189
0 -4.6145554 -22.737259
0 -5.5603647 -22.546442
0 -6.524024 -22.282627
0 -7.5052814 -21.974804
0 -8.5021305 -21.648748
0 -9.5374079 -21.195774
0 -10.605295 -20.676907
0 -11.697672 -20.142494
0 -12.860434 -19.419596
0 -14.075463 -18.613289
0 -15.41378 -17.503529
0 -16.847454 -16.234505
0 -18.556305 -14.305423
0 -20.909889 -10.799775
1.1508433 20.715176 -11.340635
1.0876591 18.490206 -14.499836
1.0512186 16.819496 -16.321865
1.0246768 15.370152 -17.648956
1.0046337 14.064871 -18.65111
0.98830092 12.847914 -19.467749
0.97427779 11.691332 -20.168907
0.96370786 10.600784 -20.697405
0.95358783 9.5358753 -21.203403
0.94529974 8.5076981 -21.617807
0.93840331 7.507226 -21.962627
0.93160671 6.5212469 -22.302456
0.92663366 5.559803 -22.551113
0.92300075 4.6150017 -22.732758
0.91944343 3.6777725 -22.910625
0.91645598 2.7493658 -23.059998
0.91548103 1.8309593 -23.108746
0.91455483 0.9145546 -23.155056
0.9137758 -9.5367432e-07 -23.194008
0.91484344 -0.91484642 -23.140629
0.91614288 -1.8322878 -23.075651
0.91767645 -2.753027 -22.998978
0.92032427 -3.6812983 -22.866585
0.92396528 -4.6198263 -22.68453
0.92799634 -5.5679798 -22.482977
0.93264353 -6.5285039 -22.250622
0.93895364 -7.5116305 -21.935114
0.94637275 -8.5173569 -21.564157
0.954759 -9.5475912 -21.144844
0.96504003 -10.615443 -20.630795
0.97554183 -11.706502 -20.105705
0.99085385 -12.881102 -19.340101
1.0080006 -14.112009 -18.482765
1.0291628 -15.437441 -17.424662
1.0546706 -16.874729 -16.149269
1.0948263 -18.612047 -14.141479
1.1683999 -21.031197 -10.462803
2.1868258 18.588017 -14.212155
2.1093755 16.875004 -16.148407
2.0567141 15.42535 -17.464951
2.0146508 14.102555 -18.516525
1.9803116 12.872026 -19.375008
1.9534758 11.720856 -20.045898
1.9314525 10.622988 -20.596481
1.9115484 9.5577393 -21.094088
1.8928679 8.5179062 -21.561096
1.8795029 7.518012 -21.89522
1.8679991 6.5379944 -22.182819
1.8571869 5.5715599 -22.453121
1.8498902 4.6247253 -22.63554
1.8426877 3.6853752 -22.815601
1.8370972 2.7556419 -22.955368
1.8348504 1.8348503 -23.011536
1.8330269 0.91651249 -23.057125
1.8318217 -1.9073486e-06 -23.087254
1.8326564 -0.91633129 -23.066391
1.8354522 -1.8354521 -22.996492
1.8387345 -2.7581005 -22.914433
1.8427511 -3.685504 -22.814016
1.8504487 -4.6261253 -22.621576
1.8585383 -5.5756173 -22.419338
1.8668071 -6.5338278 -22.212616
1.8812499 -7.5249996 -21.851551
1.8961413 -8.5326366 -21.479267
1.9115539 -9.5577707 -21.093948
1.9338201 -10.636011 -20.537291
1.9581888 -11.749132 -19.928078
1.9873861 -12.918009 -19.198145
2.0214336 -14.150037 -18.346956
2.0636444 -15.477335 -17.291687
2.1211934 -16.969549 -15.852962
2.2023594 -18.720055 -13.823811
2.3833961 -21.450567 -9.2978916
3.3078177 18.744299 -13.752504
3.1842139 16.982471 -15.812564
3.0999093 15.499547 -17.21764
3.0351338 14.163956 -18.297234
2.9823682 12.923595 -19.176659
2.9399128 11.759651 -19.884251
2.9037051 10.646919 -20.487709
2.8746388 9.5821304 -20.972147
2.8472228 8.5416679 -21.429081
2.827925 7.541132 -21.75071
2.8102114 6.5571594 -22.045937
2.7930658 5.5861311 -22.331699
2.7806935 4.6344881 -22.537903
2.7719278 3.6959028 -22.684002
2.7635016 2.7635002 -22.824436
2.7581413 1.8387575 -22.913778
2.7559841 0.91865826 -22.94973
2.7541678 -0 -22.979996
2.7534609 -0.91782188 -22.991779
2.7582595 -1.8388405 -22.911808
2.763747 -2.7637472 -22.820347
2.7701464 -3.6935282 -22.713692
2.7829218 -4.6382027 -22.500767
2.7966824 -5.5933657 -22.271423
2.811177 -6.5594139 -22.029846
2.8309684 -7.5492492 -21.699993
2.8529694 -8.5589085 -21.333305
2.8778348 -9.5927811 -20.91888
2.9117882 -10.676558 -20.352995
2.9483068 -11.793231 -19.744349
2.9899788 -12.956576 -19.049818
3.045666 -14.213108 -18.1217
3.1134646 -15.567323 -16.99172
3.2000024 -17.066681 -15.549421
3.3373404 -18.911594 -13.260462
4.465795 18.979628 -13.060361
4.2817698 17.127075 -15.360673
4.1583529 15.593824 -16.903381
4.0711231 14.248929 -17.993755
3.9967382 12.9894 -18.923565
3.9385085 11.815525 -19.65144
3.8895514 10.696267 -20.263401
3.8459861 9.6149626 -20.80797
3.8123183 8.5777149 -21.228821
3.7844007 7.5688009 -21.577791
3.7601371 6.5802374 -21.881084
3.7361717 5.6042566 -22.180649
3.71945 4.649313 -22.389668
3.7076662 3.7076654 -22.536968
3.6959672 2.7719746 -22.683205
3.6866317 1.8433142 -22.799902
3.6856711 0.92141724 -22.811907
3.6847217 1.9073486e-06 -22.823772
3.6843526 -0.92108917 -22.828388
3.6916957 -1.8458519 -22.736599
3.7000678 -2.7750502 -22.631947
3.7094719 -3.7094727 -22.514397
3.7242172 -4.6552715 -22.330078
3.7429829 -5.6144748 -22.09551
3.7629836 -6.5852213 -21.845501
3.7872508 -7.5745006 -21.542164
3.8196707 -8.5942593 -21.136909
3.8551083 -9.6377697 -20.693943
3.8983386 -10.720428 -20.153564
3.9471433 -11.841429 -19.543507
4.0077004 -13.025025 -18.786539
4.0877094 -14.306982 -17.78643
4.1761603 -15.660603 -16.680794
4.3085113 -17.234045 -15.026407
4.5059214 -19.150162 -12.558784
5.4110661 17.315413 -14.772135
5.2480874 15.744264 -16.40192
5.1241016 14.347482 -17.641781
5.0317922 13.082656 -18.564878
4.9507942 11.881905 -19.374855
4.8887935 10.755344 -19.994858
4.8337951 9.6675901 -20.544842
4.7893252 8.6207838 -20.989544
4.74792 7.5966721 -21.403597
4.7208967 6.6092553 -21.673828
4.6953297 5.6343918 -21.929497
4.6706753 4.6706753 -22.176043
4.6558099 3.7246475 -22.324696
4.6417618 2.785058 -22.465176
4.6305952 1.8522358 -22.576847
4.6280909 0.92561817 -22.601883
4.6271596 -1.9073486e-06 -22.6112
4.627399 -0.92548084 -22.608805
4.6335282 -1.8534117 -22.547514
4.6447768 -2.7868652 -22.43503
4.6569419 -3.7255535 -22.313379
4.6724658 -4.6724663 -22.158136
4.6971116 -5.6365352 -21.911682
4.7226701 -6.6117387 -21.656096
4.7546821 -7.6074929 -21.335976
4.7980218 -8.6364403 -20.90258
4.8421593 -9.6843195 -20.461201
4.8975878 -10.774693 -19.906919
4.9695086 -11.926823 -19.187712
5.044332 -13.115265 -18.439476
5.1455169 -14.40745 -17.427626
5.2695189 -15.808558 -16.187609
5.4493461 -17.437908 -14.389336
5.760664 -19.58626 -11.276155
6.596808 17.59149 -13.909393
6.3704028 15.926005 -15.796107
6.2089691 14.487594 -17.141388
6.0874143 13.189395 -18.154346
5.9884143 11.976828 -18.979343
5.9076362 10.830664 -19.652493
5.8378553 9.7297611 -20.234001
5.7819176 8.6728745 -20.700148
5.7345595 7.6460781 -21.094799
5.6984119 6.6481457 -21.396032
5.6653585 5.6653566 -21.671474
5.634182 4.6951494 -21.931278
5.6132016 3.7421331 -22.106117
5.5995932 2.7997961 -22.219519
5.586051 1.8620167 -22.332375
5.579143 0.92985439 -22.389938
5.5791912 9.5367432e-07 -22.389534
5.5794816 -0.92991352 -22.387115
5.5833054 -1.8611031 -22.355255
5.5989928 -2.7994967 -22.224525
5.6166954 -3.7444639 -22.077002
5.6359911 -4.6966619 -21.916206
5.6701832 -5.6701856 -21.631273
5.7049274 -6.6557484 -21.341736
5.7419605 -7.6559501 -21.033125
5.7946362 -8.6919556 -20.594162
5.8521333 -9.7535553 -20.115017
5.9219494 -10.856907 -19.533218
6.008801 -12.017602 -18.809456
6.0982375 -13.212851 -18.064146
6.2404528 -14.561054 -16.879025
6.3993688 -15.998423 -15.554725
6.6518478 -17.738262 -13.450727
7.8765669 18.003578 -12.621606
7.5476751 16.173588 -14.970832
7.3361726 14.672346 -16.48156
7.1728516 13.321009 -17.648144
7.0531983 12.091195 -18.502806
6.9459429 10.915052 -19.268917
6.8682451 9.811779 -19.8239
6.7944388 8.7357082 -20.351089
6.7366548 7.6990352 -20.763832
6.690558 6.6905575 -21.093094
6.6515036 5.7012863 -21.372055
6.6167679 4.7262621 -21.620167
6.5902691 3.7658701 -21.809446
6.5733275 2.8171406 -21.930458
6.5564733 1.8732767 -22.050846
6.5461473 0.93516445 -22.124601
6.5491157 -0 -22.103397
6.5520868 -0.93601322 -22.082172
6.5565686 -1.8733072 -22.050163
6.5773768 -2.8188753 -21.901531
6.5987625 -3.7707224 -21.748777
6.6218052 -4.7298627 -21.584187
6.6590934 -5.7077947 -21.317846
6.7016444 -6.7016449 -21.013908
6.7452879 -7.7089 -20.702168
6.8082581 -8.7534771 -20.252378
6.883019 -9.8328838 -19.718374
6.9623647 -10.940861 -19.151619
7.073462 -12.125936 -18.358065
7.1999946 -13.371418 -17.454266
7.3696518 -14.739304 -16.242424
7.5840106 -16.251451 -14.711293
7.9293537 -18.124233 -12.244558
8.7994118 16.498896 -13.886473
8.5188837 14.908046 -15.639774
8.3080645 13.500603 -16.957394
8.1480446 12.222066 -17.95752
8.0265217 11.036466 -18.717037
7.9211245 9.9014034 -19.375767
7.8372378 8.8168907 -19.900061
7.769877 7.7698765 -20.321066
7.703918 6.7409248 -20.733311
7.6622133 5.7466588 -20.993963
7.6241617 4.7651014 -21.231785
7.5876942 3.7938471 -21.459709
7.5680447 2.8380165 -21.582516
7.5518618 1.8879623 -21.683662
7.5374026 0.942173 -21.774033
7.5399189 -0 -21.758305
7.5446253 -0.94307899 -21.728891
7.5500674 -1.8875179 -21.694874
7.5694237 -2.8385353 -21.573896
7.5958428 -3.7979221 -21.408777
7.6225591 -4.7640986 -21.241798
7.662282 -5.7467146 -20.993534
7.7188387 -6.7539854 -20.640055
7.7772236 -7.777225 -20.275148
7.8538771 -8.8356104 -19.796062
7.9405704 -9.9257145 -19.254229
8.0412617 -11.056734 -18.624912
8.1833439 -12.275016 -17.736897
8.3309155 -13.537738 -16.814573
8.560009 -14.980019 -15.382736
8.8539114 -16.601082 -13.545852
9.6188536 -19.237709 -8.7649603
10.190005 16.983341 -12.271658
9.7794466 15.212472 -14.552536
9.4974194 13.718493 -16.119356
9.2945948 12.392792 -17.246159
9.1399679 11.17107 -18.105202
9.0113783 10.012642 -18.819578
8.9146109 8.9146099 -19.357182
8.8342104 7.8526311 -19.803848
8.7583981 6.8120861 -20.225029
8.7006226 5.8004141 -20.546005
8.6529007 4.8071642 -20.811127
8.6057243 3.8247652 -21.073215
8.5815535 2.8605165 -21.2075
8.5649576 1.9033222 -21.299704
8.5484257 0.94982147 -21.391546
8.546382 -0 -21.402897
8.5525904 -0.95028782 -21.368406
8.5621977 -1.9027109 -21.315037
8.5853176 -2.8617735 -21.186588
8.6213245 -3.8316994 -20.986553
8.6581249 -4.8100715 -20.782101
8.7075014 -5.8050003 -20.507788
8.7729883 -6.8234372 -20.14397
8.8420315 -7.8595839 -19.760401
8.926424 -8.9264221 -19.29155
9.0392771 -10.043642 -18.664593
9.1607227 -11.196441 -17.989891
9.3258686 -12.434491 -17.072418
9.5351257 -13.772959 -15.909875
9.8255262 -15.284151 -14.296539
10.317632 -17.196053 -11.562623
11.158294 15.621609 -13.091327
10.770556 14.001722 -15.030012
10.510023 12.612027 -16.33268
10.307878 11.338664 -17.343405
10.155776 10.155774 -18.103918
10.022091 9.0198784 -18.772343
9.9277039 7.9421601 -19.24428
9.8378134 6.8864703 -19.693727
9.761632 5.8569784 -20.074635
9.7155132 4.8577538 -20.305233
9.6698275 3.8679295 -20.533661
9.6359816 2.8907928 -20.70289
9.6156845 1.9231339 -20.804379
9.5981331 0.95981312 -20.892132
9.5939274 -1.9073486e-06 -20.913162
9.6051235 -0.96051311 -20.857182
9.617753 -1.9235506 -20.794033
9.6390114 -2.8917055 -20.687738
9.6800365 -3.8720136 -20.482615
9.7237034 -4.8618531 -20.264282
9.774766 -5.8648629 -20.008965
9.8512144 -6.8958516 -19.626726
9.9352436 -7.9481936 -19.206579
10.045648 -9.0410824 -18.65456
10.181833 -10.181836 -17.973629
10.333329 -11.366664 -17.216148
10.56138 -12.673658 -16.075895
10.802516 -14.04327 -14.870217
11.262556 -15.767581 -12.570017
12.974113 16.512506 -9.9095526
12.194173 14.411295 -13.454737
11.816727 12.890972 -15.170404
11.555969 11.555966 -16.355665
11.365313 10.332102 -17.222286
11.206327 9.1688118 -17.944942
11.076038 8.0552998 -18.537169
10.975526 6.9844255 -18.994041
10.880031 5.9345627 -19.42811
10.820735 4.9185143 -19.697636
10.762115 3.9134932 -19.964094
10.715564 2.9224272 -20.17569
10.696752 1.9448605 -20.261198
10.680229 0.97092724 -20.336304
10.66832 9.5367432e-07 -20.39043
10.682292 -0.97111702 -20.326927
10.697431 -1.9449873 -20.258108
10.714947 -2.9222603 -20.178492
10.766959 -3.9152575 -19.942072
10.825434 -4.920651 -19.676277
10.889937 -5.9399676 -19.383076
10.991543 -6.9946194 -18.92124
11.097113 -8.0706301 -18.441372
11.221318 -9.1810808 -17.876804
11.392891 -10.357172 -17.096931
11.584027 -11.584027 -16.22813
11.880693 -12.960757 -14.879642
12.2714 -14.502565 -13.103705
13.112125 -16.68816 -9.2822227
13.975793 15.140441 -10.650327
13.287583 13.287583 -13.517863
12.925361 11.848248 -15.027127
12.649248 10.54104 -16.177595
12.453217 9.3399105 -16.994398
12.280637 8.1870899 -17.713472
12.161716 7.0943336 -18.208979
12.045076 6.0225368 -18.694977
11.967513 4.986465 -19.018158
11.910636 3.9702106 -19.255148
11.854297 2.9635725 -19.489895
11.830329 1.9717216 -19.589756
11.809745 0.9841423 -19.675529
11.793227 -0 -19.744349
11.813538 -0.98446274 -19.659721
11.836421 -1.9727392 -19.564377
11.861614 -2.9654045 -19.459398
11.923507 -3.9745016 -19.201517
11.990848 -4.9961872 -18.920929
12.060047 -6.0300241 -18.632603
12.176134 -7.102747 -18.148907
12.30423 -8.2028198 -17.61517
12.474535 -9.3559008 -16.905565
12.690399 -10.575331 -16.006138
12.967895 -11.887239 -14.849903
13.364838 -13.36484 -13.195972
14.212279 -15.396637 -9.6649628
15.21411 14.043793 -10.366986
14.5 12.269232 -13.113562
14.081603 10.832001 -14.722781
13.81521 9.564373 -15.747374
13.593291 8.365099 -16.60091
13.436132 7.2348385 -17.205364
13.303982 6.1402979 -17.713638
13.198011 5.076159 -18.121218
13.121845 4.0374875 -18.414162
13.051641 3.0119157 -18.684174
13.015423 2.0023708 -18.823477
12.998763 0.99990273 -18.887554
12.982104 -3.8146973e-06 -18.951626
12.996744 -0.99975109 -18.895321
13.024784 -2.0038147 -18.787477
13.052945 -3.0122194 -18.679165
13.119459 -4.0367575 -18.423342
13.212223 -5.0816231 -18.066555
13.307875 -6.1420965 -17.698664
13.465019 -7.2503943 -17.094261
13.630669 -8.3881054 -16.45715
13.829459 -9.5742397 -15.69257
14.135318 -10.873321 -14.516191
14.581364 -12.338077 -12.800628
15.462817 -14.273369 -9.4104252
16.833057 13.225974 -8.7647333
15.809682 11.29263 -12.419647
15.353894 9.8703575 -14.047462
15.048612 8.599206 -15.137753
14.815981 7.4079876 -15.968579
14.652734 6.2797446 -16.551601
14.501117 5.1789689 -17.093096
14.420452 4.1201282 -17.381182
14.345612 3.0740576 -17.648468
14.294137 2.0420179 -17.832308
14.272584 1.0194702 -17.909279
14.254025 -9.5367432e-07 -17.975561
14.269781 -1.0192709 -17.919291
14.310163 -2.0443106 -17.775068
14.352695 -3.0755796 -17.623171
14.437225 -4.1249232 -17.321278
14.544041 -5.1943007 -16.939795
14.653355 -6.2800117 -16.549387
14.854668 -7.4273338 -15.830412
15.095603 -8.6260586 -14.969931
15.40629 -9.9040451 -13.860332
15.881906 -11.344218 -12.161703
17.388878 10.433328 -10.919866
16.795792 8.9577522 -12.896825
16.403589 7.6550064 -14.204166
16.177004 6.4707994 -14.959452
15.966673 5.3222232 -15.660553
15.850809 4.2268844 -16.046764
15.744366 3.1488714 -16.401577
15.663548 2.0884709 -16.670969
15.640608 1.042706 -16.747433
15.619 2.8610229e-06 -16.81946
15.630936 -1.0420628 -16.779676
15.692163 -2.0922918 -16.575586
15.753974 -3.1507945 -16.369553
15.8751 -4.2333603 -15.965796
16.029499 -5.3431673 -15.451135
16.192739 -6.4770985 -14.906997
16.460697 -7.6816587 -14.013804
16.84267 -8.9827576 -12.74056
17.534719 -10.52083 -10.43373
18.558231 8.1192245 -10.888325
18.05731 6.7714887 -12.453705
17.706484 5.5332718 -13.550037
17.519783 4.3799443 -14.13347
17.367212 3.2563519 -14.610258
17.245358 2.1556697 -14.991054
17.221018 1.0763116 -15.067116
17.19738 -1.9073486e-06 -15.140987
17.210081 -1.0756292 -15.101287
17.280893 -2.1601129 -14.880005
17.352346 -3.2535648 -14.656713
17.547606 -4.3869023 -14.046526
17.792936 -5.5602932 -13.279871
18.100855 -6.7878218 -12.317626
18.749193 -8.2027721 -10.291564
19.865396 4.6742096 -10.455163
19.509708 3.4428883 -11.501303
19.236553 2.2631221 -12.304702
19.169891 1.1276398 -12.500761
19.124928 -9.5367432e-07 -12.63301
19.156132 -1.1268325 -12.541233
19.321472 -2.2731171 -12.054935
19.499416 -3.4410748 -11.53157
19.974623 -4.699914 -10.133907
