# .PCD v0.7 - Point Cloud Data file format
VERSION 0.7
FIELDS x y z
SIZE 4 4 4
TYPE F F F
COUNT 1 1 1
WIDTH 1059
HEIGHT 1
VIEWPOINT 0 0 0 1 0 0 0
POINTS 1059
DATA ascii
-23.347647 1.2288232 -7.4416227
-22.936037 -4.7683716e-07 -8.5248032
-21.662413 7.2208023 -8.7094269
-20.751539 5.764317 -11.239632
-20.380585 4.5290179 -12.270061
-20.066282 3.3443794 -13.143118
-19.974398 2.2193751 -13.398355
-19.907883 1.1059885 -13.583124
-19.874825 -1.4305115e-06 -13.674953
-19.874208 -1.1041245 -13.676658
-19.993494 -2.2215018 -13.345312
-20.125401 -3.3542356 -12.978905
-20.40679 -4.5348449 -12.19727
-20.821728 -5.7838154 -11.044664
-21.81381 -7.2712722 -8.2888784
-19.903625 9.3664112 -10.342719
-19.192488 7.9027872 -12.434304
-18.793945 6.6331553 -13.606491
-18.512104 5.4447355 -14.435434
-18.338791 4.3150096 -14.945173
-18.19825 3.2114553 -15.358537
-18.111977 2.1308217 -15.612276
-18.053762 1.0619845 -15.783491
-18.052988 -0 -15.785772
-18.077745 -1.0633969 -15.712961
-18.114256 -2.1310887 -15.605576
-18.210241 -3.2135754 -15.323263
-18.361628 -4.3203864 -14.878011
-18.530224 -5.4500656 -14.382137
-18.852814 -6.6539354 -13.433348
-19.269684 -7.9345765 -12.207253
-20.016056 -9.4193211 -10.012042
-19.060041 11.912523 -9.3201656
-18.058449 10.157876 -12.450139
-17.577257 8.7886248 -13.953868
-17.267044 7.5543294 -14.923286
-17.042616 6.3909802 -15.624619
-16.869642 5.2717619 -16.165165
-16.734879 4.1837196 -16.586296
-16.6238 3.116962 -16.933422
-16.565027 2.0706277 -17.117085
-16.530727 1.0331697 -17.224276
-16.515669 -9.5367432e-07 -17.271336
-16.536724 -1.0335455 -17.20553
-16.588242 -2.0735326 -17.044548
-16.652023 -3.1222553 -16.845222
-16.751211 -4.1878028 -16.535257
-16.89843 -5.2807593 -16.075201
-17.058538 -6.3969545 -15.574864
-17.319778 -7.577405 -14.758486
-17.613995 -8.8070002 -13.839063
-18.139879 -10.203682 -12.195674
-17.366295 12.735283 -10.995144
-16.611996 11.074663 -13.509481
-16.253092 9.7518559 -14.705825
-15.943523 8.503212 -15.737719
-15.736462 7.3436818 -16.427923
-15.541262 6.2165027 -17.07859
-15.419197 5.1397305 -17.485477
-15.329397 4.0878382 -17.784809
-15.246992 3.0493965 -18.059494
-15.19186 2.0255823 -18.243267
-15.169661 1.0113087 -18.317261
-15.163323 -0 -18.338387
-15.160371 -1.0106936 -18.348228
-15.186125 -2.0248194 -18.262381
-15.257111 -3.051424 -18.025761
-15.328813 -4.0876851 -17.786755
-15.438478 -5.1461606 -17.421207
-15.583001 -6.2332015 -16.939455
-15.737026 -7.3439474 -16.426041
-15.97904 -8.5221567 -15.61933
-16.267715 -9.7606316 -14.657076
-16.710384 -11.140257 -13.181517
-17.485624 -12.822792 -10.597383
-15.994496 13.709567 -11.759595
-15.386665 12.089522 -13.930418
-15.008658 10.720468 -15.280445
-14.708076 9.4551926 -16.353949
-14.525894 8.3005104 -17.004602
-14.35114 7.1755714 -17.628723
-14.228772 6.0980449 -18.065752
-14.113379 5.040494 -18.477871
-14.022107 4.0063171 -18.803844
-13.972967 2.9942064 -18.979345
-13.929853 1.9899788 -19.133322
-13.895527 0.99253654 -19.255913
-13.903332 9.5367432e-07 -19.228041
-13.9163 -0.99402523 -19.181725
-13.937652 -1.9910936 -19.105463
-13.983027 -2.9963655 -18.943413
-14.051932 -4.0148368 -18.697323
-14.126079 -5.0450301 -18.432516
-14.236191 -6.1012259 -18.039261
-14.378482 -7.1892424 -17.531076
-14.536017 -8.3062973 -16.968449
-14.767662 -9.4934998 -16.141148
-15.048964 -10.749261 -15.136499
-15.449874 -12.139189 -13.704675
-16.104376 -13.80375 -11.367167
-14.805046 14.805044 -11.94031
-14.222292 13.128269 -14.181672
-13.863369 11.730541 -15.562143
-13.604474 10.464978 -16.557899
-13.395221 9.2736149 -17.362713
-13.211596 8.1302147 -18.06896
-13.091338 7.049181 -18.531498
-12.987908 5.9944162 -18.929306
-12.896746 4.9602842 -19.27993
-12.828569 3.9472523 -19.542145
-12.779352 2.9490795 -19.731441
-12.745598 1.9608593 -19.861265
-12.72633 0.97894764 -19.935375
-12.708741 -0 -20.003025
-12.72424 -0.97878647 -19.943413
-12.744007 -1.9606171 -19.867384
-12.772291 -2.9474535 -19.758598
-12.836836 -3.9497962 -19.510353
-12.910236 -4.965477 -19.228039
-12.98823 -5.9945679 -18.928062
-13.113208 -7.0609584 -18.447382
-13.245728 -8.1512175 -17.937687
-13.41528 -9.2875023 -17.285566
-13.625607 -10.481239 -16.476612
-13.909276 -11.769388 -15.385585
-14.265597 -13.168244 -14.015115
-14.896612 -14.896608 -11.588137
-13.787734 16.08569 -11.433904
-13.158866 14.255436 -14.05419
-12.786914 12.786914 -15.603989
-12.51642 11.473386 -16.731045
-12.306308 10.255257 -17.606508
-12.154787 9.1160898 -18.237846
-12.020706 8.0138054 -18.796518
-11.898049 6.940527 -19.307592
-11.810503 5.9052505 -19.672367
-11.749097 4.8954582 -19.928226
-11.688361 3.896121 -20.18129
-11.632559 2.9081373 -20.413803
-11.614471 1.9357452 -20.489164
-11.600411 0.96670151 -20.547745
-11.588716 -1.9073486e-06 -20.596481
-11.597799 -0.96648598 -20.558632
-11.62461 -1.9374342 -20.44692
-11.654499 -2.9136257 -20.32238
-11.691723 -3.897243 -20.167284
-11.757933 -4.899137 -19.891415
-11.83091 -5.9154577 -19.587339
-11.916185 -6.9511085 -19.232025
-12.037792 -8.0251951 -18.725325
-12.164819 -9.1236172 -18.196051
-12.339337 -10.282781 -17.468889
-12.549324 -11.503548 -16.593943
-12.843387 -12.843386 -15.368684
-13.231044 -14.333632 -13.753449
-13.934896 -16.25738 -10.820732
-12.926407 17.626917 -10.126401
-12.142017 15.453475 -13.691807
-11.759456 13.897538 -15.430723
-11.494023 12.538933 -16.637236
-11.279345 11.279346 -17.613047
-11.113871 10.103517 -18.365202
-10.977636 8.9817028 -18.984449
-10.868807 7.9045849 -19.47913
-10.78014 6.8600874 -19.882162
-10.69937 5.8360186 -20.249294
-10.639751 4.8362484 -20.52029
-10.594504 3.8525476 -20.72596
-10.559742 2.8799295 -20.883972
-10.529214 1.914403 -21.022736
-10.516639 0.95605755 -21.079891
-10.515858 -0 -21.083441
-10.515358 -0.95594406 -21.085716
-10.533192 -1.9151268 -21.00465
-10.562105 -2.8805761 -20.873232
-10.591176 -3.8513384 -20.741087
-10.641862 -4.8372116 -20.510696
-10.711511 -5.8426418 -20.194111
-10.782307 -6.8614683 -19.872313
-10.883376 -7.9151812 -19.412909
-10.998406 -8.9986954 -18.890041
-11.130644 -10.118766 -18.288963
-11.308494 -11.308496 -17.480551
-11.521218 -12.568603 -16.513622
-11.800852 -13.946461 -15.242565
-12.217993 -15.550176 -13.346459
-13.150508 -17.932514 -9.1077576
-11.207879 16.811815 -12.843405
-10.774848 15.084785 -15.008558
-10.488547 13.635108 -16.440062
-10.277527 12.333031 -17.495159
-10.11794 11.129736 -18.293095
-9.9774723 9.9774723 -18.995434
-9.8574305 8.871685 -19.595644
-9.774559 7.8196473 -20.010002
-9.6982098 6.7887459 -20.391748
-9.6263256 5.775794 -20.751167
-9.5724678 4.786232 -21.020458
-9.5408545 3.8163404 -21.178528
-9.5094204 2.8528233 -21.335693
-9.4782209 1.8956442 -21.491692
-9.4692688 0.94692802 -21.536453
-9.4704952 -1.9073486e-06 -21.530321
-9.4717493 -0.94717598 -21.524048
-9.4827175 -1.8965454 -21.46921
-9.5141716 -2.8542557 -21.311939
-9.5460892 -3.8184357 -21.152348
-9.5818443 -4.7909198 -20.973576
-9.64398 -5.786387 -20.662897
-9.7090063 -6.7963057 -20.337769
-9.78267 -7.826138 -19.969444
-9.885438 -8.8968945 -19.455605
-9.9948874 -9.9948874 -18.908361
-10.137605 -11.151367 -18.194773
-10.301444 -12.361734 -17.375574
-10.532726 -13.692544 -16.219168
-10.822277 -15.151187 -14.77141
-11.282614 -16.92392 -12.469729
-10.327454 18.359917 -11.508055
-9.8283939 16.380657 -14.280604
-9.5278797 14.821145 -15.95013
-9.300952 13.434706 -17.21084
-9.1302004 12.173599 -18.159462
-8.9915733 10.989698 -18.929613
-8.8780499 9.8644981 -19.560295
-8.7848291 8.7848301 -20.078186
-8.7036028 7.7365346 -20.529446
-8.6426497 6.7220602 -20.868074
-8.5855722 5.7237129 -21.185173
-8.544693 4.7470503 -21.412281
-8.5121737 3.7831869 -21.592945
-8.4864349 2.8288126 -21.735935
-8.4706011 1.8823547 -21.823904
-8.4556894 0.93951988 -21.906746
-8.4568005 -0 -21.900572
-8.4615936 -0.94017887 -21.873943
-8.4702291 -1.8822765 -21.825966
-8.4919081 -2.8306389 -21.705526
-8.5218153 -3.7874746 -21.539379
-8.5530443 -4.7516942 -21.365881
-8.5969372 -5.7312913 -21.12203
-8.6559 -6.7323666 -20.794462
-8.7156763 -7.7472696 -20.462368
-8.7988129 -8.7988138 -20.000504
-8.8951178 -9.8834667 -19.465473
-9.006279 -11.007674 -18.847912
-9.1599121 -12.213216 -17.994396
-9.334794 -13.483591 -17.022827
-9.5607138 -14.872223 -15.767718
-9.8859921 -16.476654 -13.960617
-10.455359 -18.587303 -10.79747
-8.9095831 17.819166 -13.197902
-8.5710945 16.070801 -15.313455
-8.3414154 14.597477 -16.748951
-8.1637268 13.266056 -17.859501
-8.0302515 12.045376 -18.693726
-7.9179087 10.887125 -19.395866
-7.8208823 9.776104 -20.002283
-7.7460332 8.7142868 -20.470089
-7.6781855 7.678184 -20.894135
-7.6244555 6.6713996 -21.229948
-7.5764408 5.6823301 -21.530041
-7.540184 4.7126131 -21.756645
-7.507905 3.753952 -21.958387
-7.4930682 2.8099012 -22.051117
-7.4783993 1.8696003 -22.142803
-7.4645438 0.93306732 -22.229393
-7.4605427 9.5367432e-07 -22.254404
-7.4680953 -0.93351269 -22.207203
-7.4756627 -1.8689156 -22.159901
-7.4870763 -2.8076553 -22.08857
-7.5178146 -3.7589111 -21.896456
-7.5487843 -4.7179899 -21.702898
-7.5830679 -5.6872997 -21.488621
-7.637506 -6.6828175 -21.148384
-7.692915 -7.6929164 -20.802078
-7.7589188 -8.7287827 -20.389557
-7.8448553 -9.8060722 -19.852451
-7.9346485 -10.910143 -19.291241
-8.0553255 -12.082989 -18.53701
-8.1843061 -13.2995 -17.730879
-8.3742437 -14.654928 -16.54377
-8.6154079 -16.153889 -15.036503
-8.9925156 -17.985031 -12.679575
-8.1103106 19.696468 -10.952003
-7.6505113 17.486881 -14.23629
-7.3982592 15.85341 -16.03809
-7.2192836 14.438566 -17.316486
-7.0779295 13.144725 -18.326157
-6.9607735 11.932754 -19.162989
-6.8717027 10.79839 -19.799206
-6.7931681 9.704525 -20.360165
-6.7271595 8.6492043 -20.831657
-6.6729398 7.626215 -21.218941
-6.6256418 6.6256409 -21.556782
-6.5893435 5.6480083 -21.816059
-6.5571027 4.6836433 -22.046349
-6.5339384 3.7336798 -22.211803
-6.5179081 2.7933865 -22.326309
-6.505147 1.858613 -22.417461
-6.4960494 0.92800522 -22.482443
-6.4922862 -1.9073486e-06 -22.509319
-6.4996104 -0.92851448 -22.457005
-6.5069318 -1.8591251 -22.404709
-6.5183797 -2.7935915 -22.322943
-6.5421925 -3.7383947 -22.152847
-6.569283 -4.6923437 -21.959347
-6.5981822 -5.6555853 -21.752922
-6.6400151 -6.6400132 -21.454117
-6.6890087 -7.6445818 -21.10416
-6.7396774 -8.6652994 -20.742239
-6.8120465 -9.731493 -20.225325
-6.8900924 -10.82729 -19.66785
-6.9834294 -11.971595 -19.001156
-7.102118 -13.189646 -18.153387
-7.2506285 -14.501257 -17.092592
-7.4312539 -15.924118 -15.802411
-7.7055168 -17.61261 -13.843391
-8.2761517 -20.099224 -9.7674351
-6.7734628 19.191473 -12.437278
-6.4685469 17.249456 -14.978237
-6.2750902 15.687724 -16.590378
-6.1327515 14.309754 -17.776531
-6.0213361 13.046229 -18.704994
-5.9291139 11.858227 -19.473513
-5.8528428 10.73021 -20.109108
-5.7899971 9.6499939 -20.63282
-5.7337933 8.6006889 -21.101185
-5.6901836 7.5869098 -21.4646
-5.6505208 6.5922732 -21.79512
-5.6199813 5.6199799 -22.049618
-5.5918908 4.6599083 -22.283707
-5.5718822 3.7145872 -22.450445
-5.5541406 2.77707 -22.598291
-5.5486822 1.8495588 -22.643774
-5.5441103 0.92401791 -22.681877
-5.5395455 -2.8610229e-06 -22.719919
-5.5429006 -0.92381668 -22.691957
-5.5516658 -1.8505554 -22.618919
-5.5616918 -2.7808485 -22.535368
-5.5771446 -3.7180977 -22.40659
-5.6010222 -4.6675196 -22.207609
-5.6255317 -5.6255345 -22.003365
-5.6553864 -6.5979514 -21.754574
-5.6976385 -7.5968513 -21.402475
-5.7413802 -8.612071 -21.037962
-5.7983422 -9.6639051 -20.563276
-5.8660717 -10.754467 -19.998865
-5.9394908 -11.878983 -19.387039
-6.0397935 -13.086222 -18.551182
-6.1532326 -14.357546 -17.605856
-6.302001 -15.755002 -16.366121
-6.5047412 -17.345974 -14.676625
-6.8406029 -19.381706 -11.877775
-5.5531926 18.880856 -13.350867
-5.3383274 17.082645 -15.499526
-5.1872511 15.56175 -17.010288
-5.073709 14.206382 -18.145706
-4.9859228 12.963401 -19.023565
-4.9134994 11.792397 -19.747801
-4.8502598 10.670568 -20.380199
-4.800312 9.600626 -20.879675
-4.7558765 8.5605774 -21.324032
-4.7187648 7.5500231 -21.69515
-4.6889539 6.5645361 -21.993256
-4.6632309 5.5958767 -22.250484
-4.6431818 4.6431808 -22.450979
-4.6280646 3.7024508 -22.60215
-4.6137991 2.76828 -22.744801
-4.6067195 1.8426876 -22.815601
-4.6020818 0.92041397 -22.861975
-4.5974407 -1.9073486e-06 -22.90839
-4.5981107 -0.91962433 -22.901691
-4.6067986 -1.8427181 -22.814808
-4.61552 -2.769311 -22.727596
-4.6259489 -3.7007599 -22.623306
-4.647903 -4.6479034 -22.40377
-4.6700926 -5.6041126 -22.181871
-4.69344 -6.570816 -21.948399
-4.7300696 -7.5681119 -21.5821
-4.7675014 -8.5815039 -21.207783
-4.8106446 -9.6212893 -20.776348
-4.8665862 -10.70649 -20.216936
-4.9252453 -11.820591 -19.630342
-5.0028973 -13.007535 -18.853825
-5.0875206 -14.245055 -18.007593
-5.211493 -15.634479 -16.767864
-5.3672619 -17.17524 -15.210178
-5.6107979 -19.076714 -12.774815
-4.7382984 21.322342 -9.654067
-4.3917508 18.66494 -13.98591
-4.2349057 16.939625 -15.946469
-4.1227417 15.460281 -17.348522
-4.0391378 14.13698 -18.393576
-3.9706528 12.90462 -19.249638
-3.9140079 11.742023 -19.957695
-3.8664556 10.632751 -20.552101
-3.8258462 9.5646172 -21.059719
-3.792897 8.5340157 -21.471584
-3.7629068 7.5258126 -21.846462
-3.7396448 6.5443783 -22.137234
-3.7174418 5.5761614 -22.414776
-3.7041028 4.6301298 -22.581509
-3.6925218 3.6925211 -22.726273
-3.6811709 2.7608776 -22.868162
-3.6729047 1.8364515 -22.971483
-3.6692092 0.91730022 -23.017681
-3.6687806 -9.5367432e-07 -23.023041
-3.6689167 -0.9172287 -23.021339
-3.6758413 -1.837923 -22.934776
-3.6830034 -2.7622538 -22.845255
-3.6919076 -3.6919069 -22.73395
-3.7076662 -4.6345835 -22.53697
-3.7255425 -5.588315 -22.313513
-3.7441478 -6.5522614 -22.080948
-3.7706218 -7.5412455 -21.750021
-3.800848 -8.5519085 -21.372192
-3.8317907 -9.5794773 -20.985413
-3.8764338 -10.660196 -20.427376
-3.9230971 -11.769291 -19.844084
-3.980758 -12.937464 -19.123322
-4.0533438 -14.186702 -18.216002
-4.1451106 -15.544165 -17.068914
-4.2575397 -17.030161 -15.663545
-4.4231834 -18.798531 -13.593005
-3.4765232 20.85914 -10.940739
-3.2742538 18.554104 -14.311902
-3.1588459 16.847179 -16.235359
-3.078824 15.394117 -17.569069
-3.0158122 14.07379 -18.619259
-2.9669712 12.856873 -19.433277
-2.9269447 11.707778 -20.10038
-2.8915997 10.602531 -20.689468
-2.8610349 9.5367804 -21.198883
-2.8361659 8.5084991 -21.613365
-2.8150623 7.5068316 -21.965096
-2.7975008 6.527503 -22.257782
-2.7827773 5.5655537 -22.50317
-2.7717288 4.619545 -22.687317
-2.7628453 3.6837921 -22.835373
-2.7540264 2.7540255 -22.982355
-2.7468023 1.8312016 -23.102757
-2.7462087 0.91540337 -23.112652
-2.7460289 -1.9073486e-06 -23.11565
-2.7458415 -0.91527939 -23.118769
-2.7497125 -1.8331432 -23.054256
-2.7561808 -2.7561836 -22.946453
-2.7628293 -3.6837721 -22.83564
-2.7727954 -4.6213255 -22.66954
-2.7864878 -5.5729747 -22.441332
-2.800365 -6.5341849 -22.210047
-2.8181517 -7.5150709 -21.913601
-2.8409729 -8.5229216 -21.533247
-2.8651526 -9.5505075 -21.130253
-2.8975267 -10.624266 -20.590685
-2.9334903 -11.73396 -19.991293
-2.9754655 -12.893684 -19.2917
-3.0275958 -14.12878 -18.422869
-3.0917099 -15.458549 -17.3543
-3.1698391 -16.905811 -16.052141
-3.2932851 -18.661945 -13.994717
-3.5612216 -21.367332 -9.5291004
-2.3239164 20.915249 -10.784883
-2.206898 18.758631 -13.71035
-2.1007903 16.806322 -16.363033
-2.0476062 15.357046 -17.69264
-2.0072184 14.050529 -18.702333
-1.9746917 12.835494 -19.515505
-1.9488505 11.693104 -20.161531
-1.9241027 10.582565 -20.78023
-1.9049349 9.5246754 -21.259424
-1.8880929 8.496417 -21.680475
-1.8742653 7.4970598 -22.026163
-1.8617584 6.5161524 -22.338837
-1.8520088 5.5560236 -22.582577
-1.8436062 4.6090164 -22.792641
-1.8383932 3.6767845 -22.922966
-1.8341341 2.7512026 -23.029442
-1.8298948 1.8298931 -23.135426
-1.8286055 0.91429901 -23.167658
-1.8280134 -2.8610229e-06 -23.182457
-1.8274218 -0.91371155 -23.19725
-1.8298063 -1.8298082 -23.137636
-1.8343799 -2.7515717 -23.023298
-1.8389761 -3.6779518 -22.908392
-1.8451971 -4.6129932 -22.752869
-1.8550138 -5.5650411 -22.507448
-1.8649356 -6.5272756 -22.259405
-1.876626 -7.5065036 -21.967146
-1.8924506 -8.5160303 -21.571533
-1.9087085 -9.543541 -21.165089
-1.9291024 -10.610065 -20.655237
-1.953144 -11.718864 -20.054199
-1.9798061 -12.868739 -19.387648
-2.0137432 -14.096205 -18.539213
-2.0554595 -15.41595 -17.496309
-2.1103301 -16.882639 -16.124546
-2.1886995 -18.603945 -14.16531
-2.3338175 -21.004356 -10.537363
-1.1755657 21.160183 -10.104509
-1.1156901 18.966732 -13.098289
-1.0614817 16.983706 -15.808715
-1.0221415 15.332123 -17.775717
-1.0028305 14.039626 -18.74127
-0.986175 12.820274 -19.574047
-0.97352338 11.682279 -20.206631
-0.96124387 10.573683 -20.820602
-0.95143116 9.5143118 -21.311237
-0.94307816 8.4877052 -21.728889
-0.93639648 7.4911728 -22.062973
-0.93061274 6.514287 -22.35216
-0.92597783 5.5558653 -22.583906
-0.92161566 4.6080761 -22.802011
-0.91886067 3.6754408 -22.939766
-0.91653693 2.7496099 -23.05595
-0.91441965 1.8288393 -23.16181
-0.91330642 0.91330528 -23.217476
-0.91329604 1.9073486e-06 -23.217991
-0.91374463 -0.91374493 -23.195564
-0.91469514 -1.8293934 -23.148037
-0.91698086 -2.7509451 -23.033754
-0.91942769 -3.6777105 -22.911411
-0.92224956 -4.6112471 -22.770319
-0.92715418 -5.5629268 -22.525085
-0.93220317 -6.5254226 -22.272638
-0.93756133 -7.5004921 -22.004732
-0.94548023 -8.5093203 -21.608784
-0.95367831 -9.5367823 -21.198885
-0.96326351 -10.5959 -20.719618
-0.97537327 -11.704477 -20.114132
-0.98799151 -12.843891 -19.483221
-1.0061413 -14.085979 -18.575729
-1.0266184 -15.399279 -17.551876
-1.0537208 -16.859535 -16.196751
-1.0911292 -18.549196 -14.326334
-1.1577531 -20.839558 -10.995144
0 21.410845 -9.4082241
0 19.179567 -12.4723
0 17.164816 -15.24274
0 15.340844 -17.746647
0 14.046062 -18.718288
0 12.824871 -19.556364
0 11.683764 -20.200445
0 10.583735 -20.77491
0 9.518446 -21.290554
0 8.4924288 -21.70262
0 7.4906058 -22.066513
0 6.5162096 -22.338432
0 5.558857 -22.558983
0 4.6105585 -22.777191
0 3.6755695 -22.938187
0 2.7496576 -23.055164
0 1.8286123 -23.167398
0 0.91322803 -23.221233
0 -3.8146973e-06 -23.209568
0 -0.91391373 -23.18713
0 -1.8289747 -23.158434
0 -2.7505741 -23.039894
0 -3.6780062 -22.907738
0 -4.6108007 -22.774811
0 -5.5610843 -22.54044
0 -6.5236092 -22.285597
0 -7.496778 -22.027939
0 -8.5033531 -21.641954
0 -9.5325737 -21.219929
0 -10.591112 -20.741377
0 -11.70622 -20.10689
0 -12.85178 -19.452875
0 -14.086727 -18.573061
0 -15.382592 -17.607492
0 -16.853464 -16.215719
0 -18.5742 -14.252803
0 -20.900606 -10.825553
1.203751 21.667515 -8.6952515
1.1410139 19.397236 -11.832101
1.0843866 17.350183 -14.663472
1.0332334 15.4985 -17.221127
1.0039223 14.054911 -18.68668
0.98757309 12.838449 -19.504141
0.97441053 11.692925 -20.16227
0.96307039 10.593773 -20.729275
0.95240259 9.5240231 -21.262667
0.94452298 8.5007076 -21.656649
0.93753946 7.5003133 -22.005825
0.93203843 6.5242691 -22.280872
0.9273653 5.5641918 -22.51453
0.92273873 4.6136904 -22.745861
0.91903389 3.676137 -22.931103
0.9173677 2.7521009 -23.014412
0.91570765 1.8314152 -23.097414
0.9143132 0.91431046 -23.167139
0.91445863 -1.9073486e-06 -23.159863
0.91460162 -0.91460323 -23.152718
0.91490835 -1.8298178 -23.137375
0.91740954 -2.7522287 -23.012318
0.92016113 -3.680644 -22.874741
0.92294776 -4.6147404 -22.735409
0.92767531 -5.5660548 -22.499029
0.93311942 -6.5318389 -22.226826
0.93866611 -7.5093303 -21.949493
0.94653982 -8.5188599 -21.555809
0.95518696 -9.5518713 -21.123449
0.9645772 -10.610349 -20.653936
0.97731334 -11.72776 -20.01713
0.99052757 -12.876861 -19.356417
1.0078744 -14.110242 -18.489077
1.0279562 -15.419344 -17.484983
1.0570573 -16.91292 -16.02993
1.0962808 -18.636772 -14.068757
1.1650078 -20.970139 -10.632406
2.436722 21.930496 -7.9647446
2.3082404 19.620043 -11.176786
2.1924348 17.539474 -14.07193
2.0879242 15.65943 -16.68469
2.0141277 14.098893 -18.529606
1.980598 12.873886 -19.367847
1.9530966 11.718578 -20.055382
1.9287728 10.608251 -20.663473
1.9097674 9.5488358 -21.138613
1.892573 8.5165787 -21.56847
1.8781155 7.5124631 -21.929909
1.8663903 6.5323648 -22.223036
1.8573692 5.5721064 -22.448566
1.8493854 4.6234627 -22.648159
1.8421183 3.6842375 -22.829838
1.8381306 2.7571974 -22.929527
1.834223 1.8342228 -23.02722
1.8309098 0.91545391 -23.110046
1.8310869 1.9073486e-06 -23.105621
1.832677 -0.91634178 -23.065868
1.8342961 -1.8342962 -23.025393
1.83885 -2.758275 -22.911547
1.8443776 -3.688755 -22.773357
1.8503637 -4.6259117 -22.623707
1.859376 -5.5781279 -22.398399
1.8703495 -6.5462251 -22.12406
1.8815799 -7.5263214 -21.8433
1.8968676 -8.5359058 -21.461103
1.914391 -9.5719566 -21.02302
1.932659 -10.629626 -20.566322
1.9583853 -11.750314 -19.923164
1.9849344 -12.902076 -19.259434
2.0215416 -14.150793 -18.344257
2.0633731 -15.4753 -17.298468
2.1216478 -16.973183 -15.841605
2.201802 -18.715317 -13.837746
2.4048574 -21.643719 -8.7613659
3.6999764 22.199858 -7.2165198
3.5025928 19.848026 -10.506248
3.3248932 17.732763 -13.467907
3.1647375 15.823689 -16.137169
3.0330744 14.154346 -18.331558
2.9825988 12.924595 -19.172819
2.9384632 11.753853 -19.908409
2.9036441 10.646694 -20.488728
2.8730049 9.5766821 -20.99938
2.8483989 8.5451956 -21.409481
2.8274696 7.5399184 -21.758305
2.8072701 6.5502958 -22.094963
2.7939065 5.5878096 -22.31769
2.7816069 4.6360102 -22.522682
2.7697487 3.692997 -22.720314
2.7637391 2.7637386 -22.820478
2.757755 1.838501 -22.920212
2.7534294 0.91781139 -22.992304
2.7537909 -1.9073486e-06 -22.986282
2.7557559 -0.91858768 -22.953533
2.7581885 -1.8387947 -22.912991
2.7643483 -2.7643499 -22.810326
2.7732415 -3.6976566 -22.662104
2.7822883 -4.6371489 -22.511322
2.7951195 -5.5902381 -22.29747
2.8118484 -6.5609794 -22.018656
2.8287702 -7.5433869 -21.736626
2.8511665 -8.5535002 -21.363358
2.8784356 -9.5947838 -20.908871
2.9070013 -10.659004 -20.432774
2.9482257 -11.792904 -19.745699
2.9906826 -12.959626 -19.038082
3.0459828 -14.214587 -18.116413
3.1065822 -15.53291 -17.106428
3.2026987 -17.081059 -15.504484
3.3395798 -18.924282 -13.223136
4.7250457 20.081444 -9.8197231
4.482605 17.930418 -12.850232
4.2643948 15.991476 -15.577868
4.0668659 14.23403 -18.046968
4.001298 13.004215 -18.866577
3.9381833 11.814548 -19.655506
3.8884943 10.693357 -20.276619
3.846446 9.6161137 -20.802221
3.8134811 8.5803308 -21.214279
3.7851796 7.5703578 -21.568054
3.7578428 6.5762243 -21.90976
3.7389061 5.6083593 -22.146469
3.7211275 4.6514091 -22.368704
3.7039113 3.7039108 -22.583904
3.696445 2.7723331 -22.677237
3.6907432 1.8453703 -22.748505
3.6850593 0.92126369 -22.819553
3.6848588 1.9073486e-06 -22.82206
3.6865683 -0.92164326 -22.800694
3.6882792 -1.8441401 -22.779305
3.6968908 -2.7726698 -22.671665
3.7094934 -3.7094917 -22.514133
3.7221925 -4.6527433 -22.355389
3.7399924 -5.6099887 -22.132893
3.7638419 -6.5867257 -21.834774
3.7880197 -7.5760393 -21.532549
3.8198292 -8.5946178 -21.13493
3.857511 -9.6437778 -20.663908
3.8963561 -10.71498 -20.178343
3.951966 -11.855898 -19.483223
4.0091982 -13.029895 -18.767815
4.0842853 -14.294998 -17.829229
4.1778812 -15.667055 -16.659279
4.3097372 -17.238949 -15.011082
4.5030208 -19.137838 -12.595037
5.9765935 20.320419 -9.1168594
5.6664166 18.13253 -12.21863
5.3875866 16.162758 -15.006933
5.1344676 14.376506 -17.538122
5.0336022 13.087364 -18.546772
4.9520583 11.884939 -19.362209
4.8873534 10.752176 -20.009262
4.8342748 9.6685467 -20.540051
4.7917638 8.6251726 -20.965158
4.7539239 7.6062751 -21.343563
4.7166762 6.6033459 -21.716036
4.692646 5.631175 -21.956337
4.6728592 4.6728582 -22.154205
4.6532388 3.7225895 -22.35041
4.6417756 2.7850657 -22.465042
4.6323414 1.8529367 -22.559383
4.6237159 0.9247427 -22.645638
4.6226134 -2.8610229e-06 -22.656662
4.6277184 -0.92554379 -22.60561
4.6329012 -1.8531618 -22.553782
4.6434765 -2.7860861 -22.448032
4.6593828 -3.7275076 -22.288971
4.6757512 -4.6757507 -22.125284
4.698113 -5.6377344 -21.901669
4.7282348 -6.6195297 -21.600449
4.7588444 -7.6141543 -21.294353
4.7990522 -8.6382961 -20.892275
4.8468413 -9.6936836 -20.414385
4.8962317 -10.771709 -19.920479
4.9664869 -11.919569 -19.217926
5.0388193 -13.100931 -18.494602
5.1459451 -14.408646 -17.423346
5.2697086 -15.809127 -16.185709
5.4410911 -17.411491 -14.471886
5.7645645 -19.599516 -11.237154
7.2582603 20.565069 -8.397295
6.8771954 18.33919 -11.572831
6.535099 16.337744 -14.42364
6.2250624 14.525146 -17.007277
6.092639 13.200717 -18.110807
5.9898076 11.979612 -18.967735
5.9061546 10.827949 -19.664841
5.838367 9.7306118 -20.229738
5.7822638 8.6733952 -20.697262
5.7388716 7.6518302 -21.058865
5.696126 6.6454787 -21.415085
5.6642118 5.6642141 -21.68103
5.6365995 4.6971636 -21.911133
5.6121902 3.741456 -22.114548
5.5974669 2.7987328 -22.23724
5.5869236 1.8623047 -22.3251
5.5784984 0.92974854 -22.395313
5.577354 -9.5367432e-07 -22.404842
5.5806589 -0.93011093 -22.377306
5.586843 -1.8622818 -22.325775
5.5992684 -2.7996359 -22.222225
5.6189513 -3.7459669 -22.058207
5.6388545 -4.6990461 -21.892342
5.6657743 -5.6657739 -21.668011
5.7024002 -6.652802 -21.362795
5.7395029 -7.6526718 -21.053606
5.7898231 -8.6847343 -20.634272
5.8517256 -9.7528763 -20.118416
5.9174671 -10.848689 -19.570574
6.0094557 -12.018911 -18.804001
6.1043682 -13.226133 -18.013058
6.2364216 -14.551651 -16.912615
6.4056101 -16.014027 -15.502712
6.6502218 -17.733921 -13.464284
8.115921 18.550674 -10.911935
7.7077312 16.516562 -13.827579
7.3385868 14.677173 -16.464321
7.1717553 13.318974 -17.65597
7.0506382 12.086806 -18.521095
6.9495001 10.92064 -19.243513
6.8659015 9.8084297 -19.840645
6.8000998 8.7429838 -20.310658
6.7426233 7.7058525 -20.721203
6.6892076 6.6892071 -21.102747
6.6507773 5.7006636 -21.377247
6.6183615 4.7274008 -21.60878
6.5888038 3.7650299 -21.819912
6.5700498 2.8157349 -21.953873
6.5589161 1.8739767 -22.03339
6.5489635 0.93556595 -22.104486
6.547574 -0 -22.11441
6.5514774 -0.93592644 -22.086531
6.5567975 -1.8733711 -22.048527
6.5724454 -2.8167629 -21.93676
6.5970812 -3.769762 -21.760788
6.6219025 -4.7299304 -21.583494
6.6564765 -5.7055526 -21.336538
6.7023816 -6.702384 -21.00864
6.7489858 -7.7131295 -20.675753
6.813076 -8.7596722 -20.217964
6.8864489 -9.8377829 -19.693878
6.9683523 -10.950268 -19.108852
7.0777068 -12.133211 -18.327744
7.1955328 -13.363132 -17.486134
7.3686638 -14.737328 -16.249483
7.5953889 -16.275833 -14.630017
7.9557319 -18.184532 -12.056138
9.3835497 18.767094 -10.235618
8.9063168 16.699343 -13.218321
8.5047855 14.883374 -15.727886
8.3052778 13.496074 -16.974813
8.1505203 12.225779 -17.942039
8.0233698 11.032133 -18.736738
7.9212213 9.9015255 -19.375158
7.8364267 8.815979 -19.905128
7.7716599 7.7716608 -20.309923
7.7079539 6.7444601 -20.70808
7.6593862 5.7445397 -21.011627
7.6227169 4.7641973 -21.240814
7.5884323 3.7942152 -21.455093
7.5670877 2.8376551 -21.588497
7.5505104 1.8876257 -21.692108
7.5340056 0.94174957 -21.795259
7.5331683 -0 -21.800495
7.5422382 -0.94277954 -21.743807
7.5513301 -1.8878345 -21.686983
7.570715 -2.839016 -21.565828
7.5987568 -3.7993793 -21.390566
7.62746 -4.7671628 -21.211172
7.6696315 -5.752223 -20.947598
7.7227974 -6.7574496 -20.615311
7.7768478 -7.7768507 -20.2775
7.8543324 -8.8361244 -19.793219
7.9394937 -9.924367 -19.260963
8.0391273 -11.053802 -18.638248
8.1763792 -12.264569 -17.780426
8.3378763 -13.549049 -16.771072
8.5432787 -14.950739 -15.487302
8.8696499 -16.630598 -13.44748
9.4924946 -18.984989 -9.5547047
10.184988 16.974979 -12.299525
9.7611237 15.183971 -14.654332
9.4985409 13.720113 -16.113127
9.2903013 12.387068 -17.270008
9.143343 11.175197 -18.086447
9.0133419 10.014826 -18.808674
8.910223 8.910224 -19.381557
8.8278561 7.8469825 -19.839149
8.7543478 6.8089375 -20.24753
8.7000999 5.8000641 -20.548906
8.6524086 4.8068933 -20.813854
8.6052637 3.8245611 -21.075771
8.5825195 2.8608379 -21.202133
8.56744 1.9038754 -21.285908
8.5523882 0.95026493 -21.369528
8.551302 -0 -21.375563
8.5558233 -0.95064831 -21.350441
8.5613365 -1.9025192 -21.319813
8.5849113 -2.8616381 -21.188847
8.6169643 -3.8297644 -21.010775
8.649231 -4.8051267 -20.831512
8.701746 -5.8011665 -20.539759
8.7662973 -6.8182335 -20.181145
8.8318138 -7.8505025 -19.817169
8.9322882 -8.9322882 -19.258972
9.0379229 -10.042136 -18.672115
9.172617 -11.210976 -17.923811
9.3335619 -12.444748 -17.029678
9.5366011 -13.775091 -15.901677
9.8218613 -15.278451 -14.316899
10.266105 -17.110172 -11.848886
11.148707 15.608188 -13.13926
10.771998 14.003597 -15.022802
10.512873 12.615448 -16.318428
10.320141 11.352156 -17.282089
10.156033 10.156029 -18.102636
10.022778 9.0204992 -18.768908
9.9158964 7.9327173 -19.303314
9.8323736 6.8826609 -19.720928
9.7673197 5.8603897 -20.046194
9.7160416 4.8580203 -20.302593
9.6652975 3.8661184 -20.556313
9.6368761 2.8910627 -20.698418
9.6112614 1.9222488 -20.826488
9.5905533 0.95905495 -20.930031
9.5914392 -1.9073486e-06 -20.925598
9.6011972 -0.96012306 -20.87681
9.6115484 -1.9223118 -20.825054
9.6414948 -2.8924503 -20.675322
9.6794834 -3.8717937 -20.485378
9.7185354 -4.8592687 -20.290123
9.785079 -5.871048 -19.957399
9.8581543 -6.9007082 -19.592022
9.9390478 -7.9512386 -19.187557
10.055692 -9.0501223 -18.604336
10.17562 -10.175624 -18.004696
10.342528 -11.376784 -17.170155
10.535312 -12.642376 -16.206238
10.825772 -14.073504 -14.753936
11.259719 -15.76361 -12.584206
12.910003 16.430912 -10.200968
12.193081 14.410002 -13.459702
11.816214 12.890416 -15.172731
11.56862 11.568617 -16.298164
11.3515 10.319546 -17.285069
11.19389 9.158638 -18.001478
11.068488 8.0498104 -18.571484
10.962781 6.9763136 -19.051975
10.889133 5.9395242 -19.386734
10.81647 4.916575 -19.717022
10.75048 3.9092655 -20.016977
10.723191 2.9245052 -20.14102
10.698012 1.9450941 -20.255468
10.672984 0.97027111 -20.369232
10.674819 -1.9073486e-06 -20.360895
10.679616 -0.97087383 -20.339081
10.691259 -1.9438658 -20.28616
10.730146 -2.926403 -20.109402
10.770858 -3.916676 -19.924353
10.814719 -4.915782 -19.724983
10.8954 -5.942945 -19.358248
10.977296 -6.9855504 -18.985998
11.081204 -8.0590572 -18.513687
11.225765 -9.1847191 -17.85659
11.38267 -10.347882 -17.143385
11.608528 -11.60853 -16.116762
11.872207 -12.951499 -14.91822
12.26957 -14.500405 -13.112018
13.349261 -16.989971 -8.2043343
13.965432 15.129217 -10.693496
13.29202 13.292021 -13.499376
12.907001 11.831415 -15.103628
12.647259 10.539383 -16.185879
12.443345 9.3325071 -17.035528
12.279778 8.1865177 -17.717054
12.149856 7.0874157 -18.2584
12.054626 6.0273128 -18.65519
11.974675 4.989449 -18.988319
11.905862 3.9686189 -19.275036
11.862453 2.9656096 -19.45591
11.820843 1.9701395 -19.629288
11.799028 0.98325157 -19.720181
11.80148 -0 -19.709961
11.809094 -0.98409367 -19.678238
11.823991 -1.9706659 -19.616169
11.869416 -2.9673576 -19.426893
11.918428 -3.9728079 -19.222679
11.982514 -4.9927139 -18.955654
12.077812 -6.0389075 -18.558582
12.176095 -7.1027241 -18.149067
12.318909 -8.2126055 -17.554008
12.480986 -9.3607388 -16.878687
12.68994 -10.574949 -16.008049
12.956452 -11.87675 -14.897578
13.378819 -13.378821 -13.137712
14.22804 -15.413708 -9.5992956
15.223577 14.052532 -10.330577
14.465158 12.239746 -13.247575
14.068583 10.821989 -14.772864
13.792028 9.5483274 -15.836529
13.583008 8.3587723 -16.640461
13.416054 7.2240281 -17.282585
13.279363 6.1289334 -17.808325
13.182873 5.0703349 -18.17944
13.109468 4.0336828 -18.461761
13.063787 3.0147195 -18.637465
13.01838 2.0028257 -18.812105
12.993595 0.99950409 -18.907429
12.987061 -3.8146973e-06 -18.93256
12.992628 -0.99943447 -18.911152
13.021622 -2.0033274 -18.799637
13.069663 -3.0160747 -18.614862
13.119006 -4.0366149 -18.425081
13.207426 -5.0797801 -18.085003
13.313507 -6.1446977 -17.677002
13.428758 -7.2308698 -17.233728
13.626584 -8.3855915 -16.472858
13.831653 -9.575758 -15.684135
14.155452 -10.888811 -14.438745
14.554428 -12.315287 -12.904227
15.504074 -14.311458 -9.2517424
16.828405 13.222319 -8.7813501
15.789736 11.278382 -12.49088
15.34234 9.8629322 -14.088728
15.027983 8.5874176 -15.21143
14.799969 7.399981 -16.025764
14.637929 6.2733979 -16.604475
14.504384 5.1801357 -17.081425
14.425207 4.1214852 -17.364199
14.34689 3.0743313 -17.643902
14.269375 2.0384803 -17.920746
14.261065 1.0186481 -17.950424
14.259483 -9.5367432e-07 -17.956068
14.257904 -1.018425 -17.961708
14.301441 -2.0430641 -17.806213
14.358504 -3.0768237 -17.602428
14.4259 -4.121686 -17.361723
14.547704 -5.19561 -16.926714
14.675549 -6.2895241 -16.470123
14.862411 -7.4312067 -15.80276
15.084131 -8.6195011 -15.010902
15.403814 -9.9024525 -13.869173
15.891766 -11.35126 -12.126495
17.393391 10.436033 -10.904833
16.767323 8.9425726 -12.991719
16.40214 7.6543293 -14.208998
16.144003 6.4575996 -15.069452
15.972325 5.3241105 -15.641709
15.839784 4.2239418 -16.083519
15.739079 3.1478143 -16.419201
15.682579 2.0910082 -16.607533
15.652984 1.0435305 -16.706184
15.6235 1.9073486e-06 -16.804464
15.632607 -1.042172 -16.774111
15.689459 -2.0919285 -16.584595
15.746728 -3.1493483 -16.393703
15.864562 -4.2305493 -16.000925
16.014185 -5.3380642 -15.502184
16.202467 -6.4809875 -14.874571
16.486219 -7.6935706 -13.928732
16.855492 -8.9895973 -12.697824
17.491325 -10.494795 -10.578376
18.587774 8.1321507 -10.795999
18.049778 6.7686653 -12.477242
17.688965 5.527802 -13.60478
17.484388 4.3710961 -14.244081
17.359308 3.254868 -14.634956
17.28159 2.1601977 -14.877829
17.204563 1.0752811 -15.11854
17.182917 -9.5367432e-07 -15.186178
17.224186 -1.0765133 -15.057215
17.265711 -2.158215 -14.92745
17.370377 -3.2569456 -14.600368
17.530043 -4.3825121 -14.101408
17.736061 -5.5425239 -13.457601
18.132597 -6.799727 -12.218431
18.713217 -8.1870346 -10.403992
19.90377 4.6832409 -10.342297
19.495943 3.4404573 -11.54179
19.27953 2.2681785 -12.178293
19.159687 1.1270366 -12.530773
19.156265 -1.9073486e-06 -12.540836
19.152914 -1.1266413 -12.550699
19.303066 -2.2709508 -12.109072
19.528511 -3.4462078 -11.445998
19.993675 -4.7043948 -10.077874
