# .PCD v0.7 - Point Cloud Data file format
VERSION 0.7
FIELDS x y z
SIZE 4 4 4
TYPE F F F
COUNT 1 1 1
WIDTH 1076
HEIGHT 1
VIEWPOINT 0 0 0 1 0 0 0
POINTS 1076
DATA ascii
-22.140596 2.3305883 -10.618063
-21.942999 1.1548939 -11.138065
-21.896402 4.7683716e-07 -11.260684
-22.009264 -1.1583829 -10.963678
-22.234228 -2.3404455 -10.371669
-20.719845 6.9066129 -11.327671
-20.190002 5.6083298 -12.799458
-19.86937 4.4154148 -13.690102
-19.672276 3.2787113 -14.237589
-19.525009 2.1694431 -14.646658
-19.421843 1.0789895 -14.933233
-19.429462 -9.5367432e-07 -14.912065
-19.464979 -1.081389 -14.813412
-19.538773 -2.1709757 -14.608425
-19.680296 -3.2800508 -14.215311
-19.908018 -4.424005 -13.582743
-20.15502 -5.5986185 -12.896629
-20.78952 -6.9298415 -11.134129
-19.253206 9.0603313 -12.255718
-18.740253 7.7165751 -13.764399
-18.401274 6.4945664 -14.761398
-18.159107 5.3409133 -15.473657
-17.964369 4.2269096 -16.046417
-17.845243 3.1491575 -16.396786
-17.757668 2.089139 -16.654366
-17.71076 1.0418086 -16.792328
-17.701706 -1.9073486e-06 -16.818956
-17.716438 -1.0421419 -16.775629
-17.770933 -2.0906973 -16.615343
-17.866165 -3.1528544 -16.335251
-17.992254 -4.2334743 -15.964403
-18.179684 -5.3469658 -15.413137
-18.429356 -6.5044789 -14.678814
-18.760818 -7.7250443 -13.70392
-19.30327 -9.0838947 -12.10847
-18.333834 11.458645 -11.589563
-17.643507 9.9244728 -13.746838
-17.218657 8.6093273 -15.074492
-16.9389 7.4107661 -15.948737
-16.69684 6.2613144 -16.705172
-16.547247 5.1710114 -17.172649
-16.423956 4.105989 -17.557938
-16.33341 3.0625134 -17.840889
-16.280632 2.035078 -18.005821
-16.242937 1.0151815 -18.123621
-16.222416 9.5367432e-07 -18.187744
-16.241142 -1.0150738 -18.129223
-16.276619 -2.0345798 -18.018364
-16.334551 -3.0627279 -17.837326
-16.444359 -4.1110911 -17.494173
-16.572651 -5.1789532 -17.093266
-16.719774 -6.2699142 -16.633503
-16.975868 -7.4269409 -15.833209
-17.257668 -8.6288319 -14.952583
-17.704838 -9.9589729 -13.555175
-18.471621 -11.544764 -11.158987
-16.790125 12.312758 -12.915714
-16.251286 10.834191 -14.711843
-15.906172 9.5437031 -15.862225
-15.628659 8.3352842 -16.787268
-15.44648 7.2083554 -17.394529
-15.286631 6.1146507 -17.927362
-15.150474 5.0501566 -18.381214
-15.058695 4.0156517 -18.687149
-14.981071 2.996212 -18.945892
-14.93417 1.9912224 -19.102234
-14.905993 0.99373436 -19.196148
-14.902635 -2.8610229e-06 -19.20735
-14.909539 -0.99397182 -19.184332
-14.948876 -1.9931831 -19.053211
-15.004026 -3.0008092 -18.869373
-15.069035 -4.0184112 -18.652678
-15.151758 -5.0505862 -18.376936
-15.302331 -6.1209326 -17.875029
-15.455976 -7.2127881 -17.362879
-15.667157 -8.3558178 -16.658939
-15.941732 -9.5650387 -15.743687
-16.344828 -10.896552 -14.400039
-16.952686 -12.43197 -12.37384
-15.578509 13.353006 -13.245264
-15.071264 11.841706 -15.056853
-14.725334 10.518095 -16.292318
-14.460532 9.2960548 -17.238039
-14.267251 8.1527138 -17.928329
-14.09338 7.046689 -18.549294
-13.971061 5.987596 -18.986153
-13.88358 4.9584212 -19.298576
-13.80518 3.9443359 -19.578583
-13.739172 2.9441061 -19.814323
-13.699361 1.9570503 -19.956509
-13.679688 0.97711849 -20.026772
-13.676698 -1.9073486e-06 -20.037451
-13.685838 -0.97756195 -20.00481
-13.695655 -1.9565229 -19.969746
-13.742022 -2.9447193 -19.804148
-13.816188 -3.9474835 -19.53927
-13.894242 -4.9622321 -19.260506
-13.991755 -5.9964685 -18.912239
-14.126477 -7.0632372 -18.431091
-14.283216 -8.1618366 -17.871307
-14.49841 -9.3204041 -17.10276
-14.75156 -10.536831 -16.19865
-15.108814 -11.871213 -14.922746
-15.648741 -13.413208 -12.994437
-14.430831 14.430832 -13.379599
-13.924552 12.85343 -15.326831
-13.584065 11.49421 -16.636391
-13.348465 10.268049 -17.542545
-13.153446 9.1062336 -18.29262
-13.005269 8.0032406 -18.862532
-12.873689 6.9319859 -19.368608
-12.772252 5.8948855 -19.758747
-12.673016 4.8742366 -20.140427
-12.618663 3.8826647 -20.34948
-12.579317 2.9029207 -20.500805
-12.546047 1.9301605 -20.628773
-12.518155 0.96293259 -20.736048
-12.499641 -9.5367432e-07 -20.807251
-12.524564 -0.9634285 -20.711399
-12.549584 -1.9307089 -20.615166
-12.582307 -2.9036102 -20.489307
-12.627422 -3.8853612 -20.31579
-12.699444 -4.8844042 -20.03878
-12.77861 -5.8978233 -19.734295
-12.868185 -6.9290242 -19.389782
-13.01761 -8.0108376 -18.815067
-13.170589 -9.1180992 -18.226683
-13.37159 -10.28584 -17.453609
-13.634312 -11.536722 -16.443138
-13.99985 -12.922936 -15.037222
-14.541023 -14.541023 -12.955783
-13.4126 15.648033 -12.996964
-12.892307 13.966665 -15.164846
-12.541662 12.54166 -16.625872
-12.306543 11.280997 -17.60553
-12.091349 10.076122 -18.502174
-11.938324 8.9537411 -19.139782
-11.800182 7.8667855 -19.71537
-11.712999 6.832582 -20.078632
-11.629126 5.8145614 -20.428104
-11.558194 4.8159132 -20.723652
-11.5027 3.8342314 -20.95488
-11.451504 2.862875 -21.168201
-11.429135 1.9048567 -21.261398
-11.420112 0.95167446 -21.298998
-11.414441 -9.5367432e-07 -21.322624
-11.413496 -0.95112419 -21.326561
-11.435024 -1.905839 -21.236862
-11.466259 -2.8665657 -21.106716
-11.501261 -3.8337526 -20.960875
-11.55854 -4.816062 -20.722212
-11.641045 -5.8205242 -20.378445
-11.727405 -6.8409853 -20.01861
-11.831163 -7.8874435 -19.586285
-11.964807 -8.9736032 -19.029438
-12.120303 -10.100252 -18.381533
-12.333545 -11.305752 -17.493025
-12.572326 -12.572326 -16.498108
-12.924624 -14.001678 -15.030194
-13.507267 -15.758478 -12.602514
-12.47609 17.012848 -12.173298
-11.861466 15.096411 -14.967041
-11.525007 13.620459 -16.496403
-11.285926 12.311916 -17.583136
-11.079539 11.079535 -18.521255
-10.914717 9.9224672 -19.270451
-10.79569 8.8328342 -19.811483
-10.696428 7.7792206 -20.262667
-10.602405 6.7469845 -20.690044
-10.524142 5.740438 -21.045788
-10.475219 4.7614622 -21.268162
-10.430436 3.7928829 -21.471725
-10.390697 2.8338251 -21.652349
-10.364869 1.8845224 -21.769753
-10.356742 0.9415226 -21.806694
-10.35338 -2.8610229e-06 -21.821976
-10.352503 -0.94113636 -21.82597
-10.361805 -1.8839674 -21.783682
-10.399061 -2.8361101 -21.614336
-10.438432 -3.7957926 -21.435379
-10.483657 -4.7653008 -21.229809
-10.541409 -5.7498631 -20.967299
-10.61993 -6.7581391 -20.610386
-10.703867 -7.7846313 -20.228853
-10.807026 -8.8421135 -19.759949
-10.95064 -9.9551277 -19.107161
-11.098157 -11.098159 -18.436626
-11.308675 -12.336737 -17.479729
-11.568922 -13.672365 -16.296785
-11.941006 -15.197645 -14.605499
-12.575854 -17.148895 -11.719822
-11.765972 18.825554 -10.052932
-10.950126 16.425186 -14.132169
-10.569288 14.797004 -16.036352
-10.301707 13.39222 -17.374258
-10.097781 12.117334 -18.393892
-9.9392939 10.933222 -19.186331
-9.8038588 9.8038568 -19.863504
-9.7080107 8.7372084 -20.342747
-9.623188 7.6985488 -20.766853
-9.5401468 6.6781015 -21.18206
-9.4792261 5.6875324 -21.486668
-9.4298973 4.7149477 -21.733311
-9.3899746 3.75599 -21.932922
-9.3637733 2.8091307 -22.063927
-9.3403206 1.868063 -22.181194
-9.3169842 0.93169689 -22.297873
-9.3231926 -9.5367432e-07 -22.266832
-9.3331156 -0.93331242 -22.21722
-9.345582 -1.8691149 -22.154881
-9.3613501 -2.8084078 -22.076046
-9.396637 -3.7586546 -21.899611
-9.438055 -4.7190266 -21.69252
-9.4798126 -5.6878872 -21.483738
-9.5472794 -6.6830945 -21.1464
-9.6307621 -7.7046103 -20.728985
-9.7183294 -8.7464962 -20.291149
-9.8322239 -9.8322239 -19.72168
-9.9602108 -10.956234 -19.081741
-10.125294 -12.150353 -18.256332
-10.337811 -13.439153 -17.193747
-10.607889 -14.851048 -15.84335
-10.994193 -16.491289 -13.911834
-10.08186 17.923304 -12.872465
-9.6251459 16.041908 -15.409764
-9.3504648 14.545165 -16.935772
-9.1414957 13.204382 -18.096704
-8.9817305 11.975641 -18.984295
-8.8513269 10.818287 -19.708759
-8.7372093 9.7080097 -20.342747
-8.6481981 8.6481991 -20.83725
-8.573678 7.6210475 -21.251247
-8.5153761 6.6230702 -21.575146
-8.4650307 5.6433535 -21.854847
-8.4153004 4.6751671 -22.131126
-8.3777437 3.7234411 -22.339779
-8.3599949 2.7866621 -22.438381
-8.3423214 1.8538465 -22.536568
-8.3297014 0.92551994 -22.606678
-8.3242435 -0 -22.636999
-8.3330326 -0.92589378 -22.588169
-8.3452539 -1.8545027 -22.520279
-8.358861 -2.7862873 -22.444679
-8.3798037 -3.7243557 -22.328329
-8.4243574 -4.6801996 -22.080811
-8.4694118 -5.6462746 -21.830509
-8.519084 -6.6259561 -21.554554
-8.5885258 -7.6342463 -21.168764
-8.6668301 -8.6668329 -20.733738
-8.7487955 -9.7208853 -20.278379
-8.8657675 -10.835939 -19.628532
-8.9999819 -11.999978 -18.882893
-9.1676235 -13.242124 -17.951555
-9.3641901 -14.566518 -16.859524
-9.6764021 -16.127338 -15.125007
-10.153854 -18.051298 -12.472495
-9.366787 19.904421 -10.340378
-8.7144976 17.428993 -14.417187
-8.4070854 15.763281 -16.338516
-8.1902952 14.333016 -17.693451
-8.0307026 13.049891 -18.690908
-7.8971677 11.845749 -19.525497
-7.7962995 10.719908 -20.155924
-7.7055087 9.6318855 -20.723364
-7.6262622 8.579545 -21.218655
-7.5584459 7.5584435 -21.642509
-7.5120454 6.5730371 -21.932512
-7.4684634 5.601347 -22.204901
-7.43012 4.6438236 -22.444546
-7.4021573 3.7010775 -22.619316
-7.3782077 2.7668266 -22.768995
-7.3627205 1.8406782 -22.865791
-7.3573132 0.91966343 -22.899588
-7.3521662 -3.8146973e-06 -22.931763
-7.3487453 -0.91859436 -22.953138
-7.3651428 -1.8412876 -22.850655
-7.3842387 -2.7690897 -22.731304
-7.4053507 -3.7026758 -22.599354
-7.4349475 -4.6468439 -22.414373
-7.4748168 -5.6061144 -22.165195
-7.5189118 -6.5790486 -21.889595
-7.5651531 -7.5651546 -21.600588
-7.6343355 -8.588625 -21.168201
-7.7123179 -9.6403961 -20.680807
-7.8038144 -10.730246 -20.108959
-7.9184933 -11.877744 -19.392214
-8.040534 -13.065865 -18.629463
-8.2281179 -14.39921 -17.457058
-8.4515724 -15.846699 -16.060467
-8.7630224 -17.526043 -14.113908
-7.8782744 19.132954 -12.609402
-7.5042295 17.152525 -15.281157
-7.269908 15.578375 -16.95488
-7.0965915 14.193184 -18.192854
-6.964087 12.933304 -19.139317
-6.8541822 11.750027 -19.924355
-6.7647734 10.630357 -20.562986
-6.6898828 9.5569744 -21.097921
-6.6308098 8.5253239 -21.519871
-6.5770502 7.5166292 -21.903862
-6.5276909 6.527689 -22.256432
-6.4896312 5.5625381 -22.52829
-6.46527 4.6180506 -22.702297
-6.4410911 3.6806231 -22.875004
-6.417275 2.7502623 -23.045116
-6.4035401 1.8295794 -23.143227
-6.4010653 0.91443634 -23.160904
-6.3985744 -2.8610229e-06 -23.178694
-6.3994102 -0.91420364 -23.172722
-6.4085126 -1.8310051 -23.107708
-6.4250355 -2.7535868 -22.989687
-6.4441681 -3.6823807 -22.853024
-6.464138 -4.6172419 -22.710382
-6.4947577 -5.566937 -22.491673
-6.5357585 -6.5357575 -22.198807
-6.580317 -7.5203643 -21.880535
-6.6369438 -8.5332127 -21.476055
-6.7051148 -9.5787354 -20.989119
-6.7783089 -10.651628 -20.466303
-6.8704867 -11.777977 -19.807892
-6.9812441 -12.965168 -19.016768
-7.1211333 -14.242267 -18.017561
-7.2865801 -15.614104 -16.835796
-7.5393395 -17.232779 -15.030369
-7.9649858 -19.343536 -11.99004
-6.6106524 18.730183 -13.794024
-6.3433437 16.915583 -16.021597
-6.1658473 15.414614 -17.50074
-6.030118 14.070271 -18.631817
-5.9270573 12.841957 -19.490652
-5.8389497 11.677896 -20.224884
-5.7604775 10.560873 -20.878819
-5.700397 9.5006609 -21.379488
-5.6503558 8.4755344 -21.796497
-5.6064382 7.4752502 -22.162481
-5.567946 6.4959364 -22.483246
-5.5359087 5.5359077 -22.750225
-5.5133214 4.5944338 -22.93845
-5.4930577 3.6620378 -23.107315
-5.4772582 2.7386284 -23.238977
-5.466095 1.822031 -23.332006
-5.460144 0.91002369 -23.381596
-5.458045 -2.8610229e-06 -23.399088
-5.4621058 -0.9103508 -23.365248
-5.4662805 -1.8220921 -23.330458
-5.4766369 -2.7383194 -23.244154
-5.493464 -3.6623116 -23.10393
-5.5148487 -4.5957079 -22.925722
-5.5384488 -5.5384474 -22.729053
-5.5757599 -6.5050554 -22.418131
-5.6142783 -7.4857082 -22.097141
-5.6553864 -8.483079 -21.754578
-5.710917 -9.5181942 -21.291822
-5.7733607 -10.584496 -20.771458
-5.8402567 -11.680515 -20.213991
-5.9387603 -12.867314 -19.393126
-6.0406437 -14.094835 -18.544098
-6.1875405 -15.468851 -17.319956
-6.3793259 -17.011538 -15.721743
-6.6686873 -18.894615 -13.310403
-5.8466268 21.047855 -10.416527
-5.4261374 18.448864 -14.621424
-5.2301598 16.736511 -16.581196
-5.0993705 15.298111 -17.889091
-4.9896646 13.971056 -18.986155
-4.9064283 12.756714 -19.818512
-4.8382282 11.611748 -20.500513
-4.7796659 10.515265 -21.08614
-4.7294717 9.4589405 -21.588079
-4.6814508 8.4266109 -22.068283
-4.6518126 7.4429002 -22.364666
-4.622839 6.4719744 -22.654404
-4.597178 5.5166121 -22.911016
-4.5722933 4.5722923 -23.159863
-4.5576463 3.6461153 -23.306332
-4.5483708 2.729023 -23.399086
-4.5391202 1.8156471 -23.491592
-4.5299201 0.90598297 -23.583595
-4.5292063 -9.5367432e-07 -23.590736
-4.5333657 -0.90667629 -23.549141
-4.5380836 -1.8152342 -23.501966
-4.5447993 -2.726881 -23.434799
-4.5620785 -3.649662 -23.262011
-4.5801539 -4.5801554 -23.081255
-4.6001215 -5.5201454 -22.88158
-4.6247263 -6.4746165 -22.635536
-4.6571169 -7.4513893 -22.311625
-4.6910591 -8.4439068 -21.972204
-4.7310429 -9.4620876 -21.572365
-4.7874441 -10.532377 -21.008354
-4.8459506 -11.630283 -20.423288
-4.9199595 -12.791895 -19.683199
-5.0033484 -14.009376 -18.849314
-5.1183481 -15.355045 -17.699316
-5.2548404 -16.815491 -16.334393
-5.4619236 -18.570543 -14.263555
-4.5595131 20.517809 -11.888881
-4.3014135 18.281006 -15.115128
-4.1574402 16.629761 -16.914797
-4.0566649 15.212491 -18.174488
-3.9754596 13.914105 -19.189554
-3.9054465 12.692699 -20.064716
-3.8537118 11.561134 -20.711397
-3.808337 10.472925 -21.278587
-3.7694516 9.4236307 -21.76465
-3.7362907 8.4066544 -22.179161
-3.7076876 7.4153762 -22.536701
-3.6849432 6.4486485 -22.821005
-3.6649683 5.4974527 -23.070694
-3.6484733 4.5605879 -23.276882
-3.6348133 3.6348143 -23.447632
-3.627459 2.7205935 -23.539558
-3.6201344 1.8100653 -23.631115
-3.6148791 0.90371799 -23.69681
-3.6131032 -2.8610229e-06 -23.719006
-3.6168494 -0.90421104 -23.672178
-3.6206028 -1.8103027 -23.625259
-3.6278985 -2.7209234 -23.534061
-3.6373911 -3.637393 -23.415409
-3.6520855 -4.5651073 -23.231728
-3.6680906 -5.5021381 -23.031666
-3.6842365 -6.4474125 -22.829842
-3.7112899 -7.4225807 -22.491673
-3.7417536 -8.4189453 -22.110876
-3.7736728 -9.4341812 -21.711887
-3.8159909 -10.493977 -21.182911
-3.8629401 -11.588821 -20.596046
-3.9150791 -12.72401 -19.944305
-3.9853549 -13.948742 -19.065859
-4.0672007 -15.252003 -18.042793
-4.1733303 -16.693323 -16.716166
-4.3355007 -18.42588 -14.689035
-4.615438 -20.769474 -11.189823
-3.377502 20.265009 -12.591098
-3.2021358 18.145433 -15.513865
-3.0996008 16.531204 -17.222784
-3.0287831 15.143915 -18.403078
-2.9697638 13.858896 -19.386732
-2.9222584 12.663116 -20.178492
-2.8812618 11.525047 -20.861767
-2.8464005 10.436804 -21.442789
-2.8205805 9.4019337 -21.873119
-2.7963259 8.3889771 -22.277363
-2.7739427 7.3971815 -22.650417
-2.755213 6.4288292 -22.962578
-2.743376 5.4867506 -23.159864
-2.731756 4.5529251 -23.353529
-2.7212844 3.6283789 -23.528057
-2.7125609 2.7125587 -23.67345
-2.7085581 1.8057032 -23.740162
-2.7068267 0.90227509 -23.76902
-2.7050974 -1.9073486e-06 -23.797836
-2.7052946 -0.90176678 -23.794554
-2.7094777 -1.8063183 -23.724834
-2.7149866 -2.7149858 -23.63302
-2.7205253 -3.627367 -23.540707
-2.7305815 -4.550972 -23.373102
-2.7448657 -5.4897327 -23.135033
-2.7594497 -6.4387174 -22.891968
-2.7771664 -7.4057755 -22.596691
-2.7999184 -8.3997564 -22.217489
-2.82412 -9.4137344 -21.814129
-2.8515959 -10.455855 -21.356197
-2.8869047 -11.547617 -20.767719
-2.924613 -12.673323 -20.139246
-2.9769428 -13.892401 -19.267082
-3.0341706 -15.170853 -18.31329
-3.1180596 -16.629654 -16.915131
-3.2278721 -18.291277 -15.084927
-3.4249849 -20.54991 -11.799717
-2.2334476 20.101025 -13.046609
-2.1285517 18.092688 -15.669003
-2.061516 16.492125 -17.344893
-2.0117354 15.088013 -18.589413
-1.9748129 13.823688 -19.512474
-1.9437716 12.634514 -20.288509
-1.9169568 11.50174 -20.958876
-1.8944 10.419199 -21.522797
-1.8760628 9.380312 -21.981228
-1.860311 8.3713999 -22.375021
-1.8461444 7.3845778 -22.729187
-1.8344687 6.4206381 -23.02108
-1.8257682 5.4773035 -23.23859
-1.8182434 4.5456066 -23.426712
-1.8112847 3.62257 -23.600677
-1.805123 2.7076845 -23.754721
-1.8032871 1.8032856 -23.800617
-1.8020754 0.90103626 -23.83091
-1.8008654 -1.9073486e-06 -23.861164
-1.8000495 -0.90002441 -23.881557
-1.8035246 -1.8035269 -23.794682
-1.807678 -2.7115173 -23.690842
-1.8119169 -3.6238365 -23.584871
-1.8182486 -4.5456209 -23.426584
-1.827754 -5.483264 -23.18895
-1.8377002 -6.431951 -22.940289
-1.8481004 -7.3924022 -22.680286
-1.8625072 -8.3812847 -22.320114
-1.8786747 -9.3933735 -21.915932
-1.8962474 -10.429359 -21.476614
-1.9214031 -11.528418 -20.847721
-1.9483373 -12.664192 -20.174362
-1.9804395 -13.863077 -19.371807
-2.0197906 -15.14843 -18.388029
-2.0723283 -16.578629 -17.074587
-2.1369472 -18.164053 -15.459116
-2.2639995 -20.375996 -12.282808
-1.1132433 20.038382 -13.220628
-1.0618213 18.050964 -15.791723
-1.0289061 16.462496 -17.437494
-1.0050447 15.075669 -18.630562
-0.98587584 13.802261 -19.589001
-0.97007245 12.610941 -20.379175
-0.95717847 11.486141 -21.023874
-0.94631159 10.409426 -21.567219
-0.93671811 9.367178 -22.046894
-0.92901963 8.3611774 -22.43181
-0.9219166 7.3753347 -22.786961
-0.91636473 6.4145527 -23.06456
-0.91149056 5.4689436 -23.308268
-0.90781122 4.5390558 -23.492231
-0.90479189 3.6191664 -23.6432
-0.90224773 2.7067394 -23.770412
-0.90078044 1.8015594 -23.843773
-0.90017581 0.90017414 -23.874004
-0.89982843 -9.5367432e-07 -23.891371
-0.9003244 -0.90032578 -23.866577
-0.90119922 -1.8023977 -23.822836
-0.90327328 -2.7098227 -23.719128
-0.90582591 -3.6233044 -23.591503
-0.90870583 -4.5435314 -23.447502
-0.9127987 -5.4767923 -23.242863
-0.91788578 -6.4251995 -22.988508
-0.9230749 -7.3845992 -22.729052
-0.93012327 -8.3711081 -22.376637
-0.93914539 -9.3914528 -21.925526
-0.94850653 -10.433571 -21.457472
-0.95992213 -11.519065 -20.886692
-0.9735086 -12.655611 -20.207365
-0.98813105 -13.833834 -19.476244
-1.0090531 -15.135794 -18.430143
-1.0333229 -16.533167 -17.216646
-1.0677823 -18.1523 -15.493682
-1.1240605 -20.233089 -12.679773
0 20.048851 -13.191541
0 18.056265 -15.776134
0 16.468916 -17.417423
0 15.078117 -18.622398
0 13.806702 -19.573141
0 12.617104 -20.35548
0 11.48778 -21.01704
0 10.413008 -21.550938
0 9.3687601 -22.038984
0 8.3637609 -22.417459
0 7.3771734 -22.775475
0 6.417696 -23.04211
0 5.4706173 -23.294325
0 4.5402193 -23.480579
0 3.6189308 -23.646126
0 2.7068186 -23.769142
0 1.8011007 -23.855242
0 0.89963055 -23.90118
0 -1.9073486e-06 -23.8764
0 -0.90062428 -23.851585
0 -1.8022442 -23.826748
0 -2.7085056 -23.741047
0 -3.6227856 -23.598001
0 -4.5428743 -23.454046
0 -5.4728508 -23.275717
0 -6.4265037 -22.979212
0 -7.3926353 -22.678829
0 -8.3740139 -22.3605
0 -9.3938122 -21.913736
0 -10.437786 -21.438316
0 -11.509695 -20.925741
0 -12.647043 -20.240326
0 -13.840085 -19.453936
0 -15.13931 -18.418434
0 -16.524574 -17.243507
0 -18.182705 -15.404253
0 -20.270683 -12.575338
1.1210104 20.178188 -12.832273
1.0638431 18.085331 -15.690639
1.0309496 16.495193 -17.335318
1.0071836 15.107753 -18.523617
0.98747915 13.824707 -19.508839
0.97143692 12.628681 -20.310949
0.95845836 11.501499 -20.959877
0.94770211 10.424721 -21.497692
0.93787283 9.3787251 -21.989157
0.93011791 8.3710604 -22.376904
0.92295307 7.3836222 -22.735142
0.91746444 6.4222517 -23.009573
0.91239238 5.4743528 -23.263176
0.90885472 4.5442724 -23.440065
0.90544611 3.6217823 -23.610489
0.90334433 2.7100334 -23.71558
0.9015426 1.8030834 -23.805668
0.90066952 0.90066719 -23.849319
0.90095955 -9.5367432e-07 -23.83482
0.90138596 -0.90138721 -23.813499
0.90184313 -1.803688 -23.790638
0.90362078 -2.7108622 -23.701756
0.90675998 -3.6270409 -23.544796
0.90992105 -4.5496054 -23.386742
0.91368759 -5.4821234 -23.198418
0.91911256 -6.4337883 -22.927164
0.92524302 -7.4019456 -22.620644
0.9316445 -8.3848019 -22.300571
0.93967193 -9.396719 -21.899204
0.94932073 -10.442531 -21.416759
0.96034032 -11.524084 -20.86578
0.97506297 -12.675819 -20.129648
0.99109495 -13.875329 -19.328051
1.0107771 -15.161659 -18.343941
1.0361942 -16.579107 -17.073086
1.0715759 -18.216793 -15.304002
1.1344498 -20.420101 -12.1603
2.2577813 20.32003 -12.438265
2.1390281 18.181738 -15.407097
2.0701754 16.561403 -17.128407
2.0219734 15.164799 -18.333464
1.9807686 13.865379 -19.363581
1.9483373 12.664192 -20.17436
1.921208 11.527246 -20.852596
1.8992466 10.445853 -21.401634
1.8800905 9.4004517 -21.880535
1.8640066 8.388031 -22.282627
1.8502201 7.4008799 -22.627293
1.8386662 6.4353304 -22.916142
1.8285848 5.485755 -23.168175
1.8207895 4.5519724 -23.363062
1.8138317 3.6276627 -23.536999
1.8092533 2.7138796 -23.651463
1.8051381 1.8051395 -23.754341
1.8042071 0.90210247 -23.777617
1.8038532 -9.5367432e-07 -23.786467
1.8050824 -0.90254211 -23.755733
1.8079828 -1.8079824 -23.683228
1.8108922 -2.7163372 -23.610487
1.8163501 -3.632699 -23.474045
1.8233117 -4.55828 -23.300007
1.8310817 -5.4932489 -23.105753
1.8403118 -6.4410906 -22.875004
1.8528512 -7.4114046 -22.561516
1.8664229 -8.3989058 -22.222227
1.8829725 -9.4148636 -21.808481
1.9045347 -10.474939 -21.269428
1.9270002 -11.562002 -20.707794
1.9547218 -12.705692 -20.014753
1.987251 -13.910759 -19.201517
2.0264869 -15.198651 -18.220625
2.0792503 -16.634005 -16.901535
2.1571362 -18.335659 -14.954391
2.2864377 -20.577942 -11.721853
3.4383652 20.630192 -11.576706
3.2758756 18.563295 -14.284866
3.1318862 16.703392 -16.68469
3.0442829 15.221414 -18.144747
2.983216 13.921675 -19.162529
2.9327149 12.708431 -20.004213
2.8920412 11.568165 -20.682104
2.8582988 10.480429 -21.244482
2.8287868 9.429287 -21.736349
2.8034956 8.4104862 -22.157869
2.7823043 7.4194789 -22.511059
2.7641108 6.4495916 -22.814281
2.7500648 5.5001278 -23.048378
2.7377748 4.5629568 -23.253216
2.7286291 3.6381712 -23.405642
2.7214148 2.7214136 -23.525883
2.7160635 1.810708 -23.615074
2.7133994 0.90446568 -23.659473
2.7114105 -2.8610229e-06 -23.692619
2.7144902 -0.90482998 -23.641293
2.7185106 -1.8123436 -23.574287
2.722827 -2.7228279 -23.502346
2.7288914 -3.6385231 -23.401274
2.7404947 -4.5674896 -23.207884
2.7531233 -5.5062466 -22.997406
2.766495 -6.4551544 -22.774549
2.788049 -7.4347973 -22.415314
2.8102033 -8.4306078 -22.046076
2.8334441 -9.4448137 -21.65873
2.8657479 -10.507743 -21.120329
2.9000421 -11.600168 -20.548765
2.9392774 -12.73687 -19.89484
2.994133 -13.972618 -18.980581
3.0567939 -15.283972 -17.936234
3.1392899 -16.742878 -16.5613
3.2626688 -18.488457 -14.504985
3.5112038 -21.067223 -10.362732
4.7889943 21.550472 -9.0203657
4.4869332 19.069462 -12.796134
4.2845345 17.138136 -15.326115
4.0996861 15.373822 -17.636723
3.9997561 13.999144 -18.885847
3.9309678 12.775646 -19.745697
3.8738322 11.621497 -20.45989
3.8268244 10.523765 -21.047493
3.7872062 9.4680128 -21.542721
3.7521036 8.4422321 -21.981503
3.7244759 7.4489508 -22.326851
3.699281 6.4737406 -22.641785
3.6802552 5.5203819 -22.879604
3.6622574 4.5778217 -23.10458
3.6496317 3.6496325 -23.2624
3.6387482 2.7290602 -23.398445
3.6339412 1.8169718 -23.458534
3.6320338 0.90800571 -23.482372
3.6301286 -1.9073486e-06 -23.506184
3.6311429 -0.90778732 -23.493515
3.6365383 -1.8182697 -23.426069
3.6426094 -2.7319555 -23.350182
3.6520028 -3.6520052 -23.232761
3.6684566 -4.5855732 -23.02709
3.6855338 -5.5283022 -22.813622
3.7051265 -6.4839702 -22.568718
3.7312875 -7.4625735 -22.241703
3.7615874 -8.4635735 -21.862957
3.79283 -9.4820766 -21.47242
3.8335023 -10.542131 -20.964018
3.8851497 -11.655447 -20.318428
3.9423323 -12.812579 -19.603643
4.0174441 -14.061053 -18.664747
4.0998559 -15.37446 -17.6346
4.2221828 -16.888729 -16.105511
4.4016166 -18.706871 -13.862591
5.7658863 19.60401 -11.223933
5.4987683 17.596056 -13.895116
5.255475 15.766427 -16.328043
5.0334134 14.093554 -18.548664
4.94559 12.858534 -19.426895
4.8705635 11.689348 -20.177164
4.8104868 10.583069 -20.777927
4.75983 9.5196571 -21.2845
4.7142715 8.4856882 -21.740078
4.6767702 7.4828334 -22.115089
4.6445084 6.5023088 -22.437712
4.6201053 5.5441256 -22.681744
4.5986362 4.5986328 -22.896435
4.5826192 3.6660967 -23.056602
4.5684376 2.7410622 -23.198418
4.5623503 1.8249407 -23.259295
4.5594029 0.91187954 -23.288769
4.5564718 -0 -23.318073
4.5540476 -0.91080952 -23.342319
4.562777 -1.8251114 -23.255028
4.5745678 -2.7447414 -23.137114
4.5864201 -3.6691341 -23.018593
4.6039252 -4.6039238 -22.843544
4.6273856 -5.5528636 -22.608936
4.6521754 -6.5130463 -22.36104
4.6817508 -7.4908013 -22.065292
4.7226286 -8.5007324 -21.656509
4.7674022 -9.5348034 -21.208771
4.8227267 -10.610003 -20.655525
4.8886752 -11.732821 -19.996046
4.9583607 -12.891738 -19.299191
5.0543938 -14.152302 -18.338865
5.1690712 -15.507213 -17.192083
5.3332314 -17.066339 -15.55048
5.6047397 -19.056116 -12.835399
7.1187148 20.169691 -9.5601749
6.7798128 18.079496 -12.384361
6.4718642 16.179661 -14.950593
6.1910324 14.445741 -17.290859
5.9808283 12.958461 -19.042561
5.8875523 11.775102 -19.81986
5.8105912 10.652749 -20.461205
5.7503567 9.5839252 -20.963161
5.6956887 8.5435314 -21.418722
5.6451521 7.5268683 -21.839863
5.6070237 6.5415258 -22.157597
5.5739574 5.5739565 -22.433151
5.5469608 4.622467 -22.658121
5.5246158 3.683074 -22.844334
5.510159 2.7550793 -22.964804
5.4999418 1.833313 -23.04995
5.496388 0.91606331 -23.079561
5.4937143 -9.5367432e-07 -23.101845
5.4953561 -0.91589451 -23.088165
5.504128 -1.8347111 -23.015064
5.5174012 -2.7587013 -22.904449
5.5307236 -3.6871471 -22.793434
5.5494957 -4.6245813 -22.636997
5.5818844 -5.5818853 -22.367088
5.6146703 -6.5504489 -22.093878
5.6525221 -7.5366979 -21.778446
5.7059216 -8.5588856 -21.333445
5.7611823 -9.6019678 -20.872946
5.8250871 -10.679329 -20.340401
5.9061003 -11.812202 -19.665293
5.9952192 -12.989643 -18.922634
6.1288786 -14.300719 -17.808811
6.2762938 -15.690736 -16.580349
6.5028567 -17.340952 -14.692322
6.92137 -19.610548 -11.204714
8.1333551 18.590525 -10.787403
7.7537322 16.615139 -13.498997
7.4085021 14.817003 -15.964927
7.0932178 13.173119 -18.216955
6.9365749 11.89127 -19.335831
6.8362947 10.742745 -20.052122
6.7597599 9.6567974 -20.598801
6.6939974 8.6065674 -21.068529
6.6304784 7.5776887 -21.522242
6.5830665 6.583065 -21.860893
6.5432568 5.6085052 -22.145245
6.5141573 4.6529694 -22.3531
6.4872384 3.7069941 -22.545376
6.4703393 2.7730017 -22.666088
6.4542489 1.8440704 -22.781021
6.4488907 0.92126942 -22.81929
6.4507189 9.5367432e-07 -22.806232
6.4526772 -0.9218111 -22.792244
6.4585972 -1.845314 -22.749962
6.4742446 -2.7746773 -22.638195
6.4955063 -3.7117176 -22.486324
6.5187378 -4.6562424 -22.320385
6.5570455 -5.6203275 -22.046755
6.5977387 -6.5977411 -21.756096
6.6406217 -7.5892839 -21.44978
6.7031798 -8.6183739 -21.002941
6.7690821 -9.6701183 -20.532206
6.8475986 -10.760512 -19.971378
6.9579134 -11.927853 -19.183411
7.0730405 -13.135646 -18.361078
7.2328196 -14.465641 -17.219799
7.4242744 -15.909161 -15.852263
7.7374868 -17.685686 -13.615031
9.5660667 19.132132 -9.0948782
9.1065121 17.074709 -11.967096
8.6906996 15.208724 -14.565923
8.3110952 13.505529 -16.938452
8.0061045 12.009153 -18.844646
7.8863311 10.843704 -19.593231
7.7911558 9.7389431 -20.18807
7.7162943 8.6808281 -20.65596
7.6475782 7.6475778 -21.08543
7.5855927 6.6373892 -21.472843
7.5375352 5.6531506 -21.773205
7.4979782 4.6862345 -22.02043
7.4683771 3.7341871 -22.205441
7.4519048 2.7944632 -22.308388
7.4355059 1.8588734 -22.410885
7.4237995 0.92797279 -22.484047
7.4243774 -0 -22.480436
7.4249554 -0.92812157 -22.476822
7.4276762 -1.8569212 -22.45982
7.4521208 -2.794549 -22.307041
7.4785075 -3.739254 -22.142124
7.5051041 -4.6906891 -21.975899
7.5469255 -5.6601934 -21.714512
7.5960221 -6.6465187 -21.407658
7.6482148 -7.6482148 -21.081457
7.7274103 -8.6933384 -20.586479
7.8148046 -9.7685041 -20.040266
7.9107561 -10.877287 -19.440571
8.0402575 -12.060385 -18.631187
8.1753407 -13.284931 -17.786917
8.3932447 -14.68818 -16.425018
8.663619 -16.244287 -14.735172
9.1516027 -18.303207 -11.68528
10.536294 17.56049 -10.347834
10.042291 15.62134 -13.092295
9.5919638 13.855058 -15.594103
9.1808748 12.241163 -17.877941
8.9831228 10.979372 -18.976559
8.8621588 9.8468418 -19.648577
8.7642288 8.7642279 -20.192638
8.6846304 7.7196708 -20.634848
8.6070032 6.694334 -21.066113
8.5562029 5.704134 -21.348337
8.5094223 4.7274551 -21.608229
8.4766741 3.7674103 -21.790161
8.4552202 2.8184061 -21.909351
8.4338989 1.8741999 -22.027802
8.4139805 0.93488693 -22.138458
8.4169397 -0 -22.122021
8.4253368 -0.93614864 -22.075365
8.4337769 -1.8741732 -22.028482
8.4569483 -2.818985 -21.89975
8.4849682 -3.7711 -21.744083
8.5179806 -4.7322106 -21.560677
8.5702543 -5.7135048 -21.270275
8.6324501 -6.7141294 -20.92474
8.697958 -7.7315183 -20.560808
8.7869081 -8.7869081 -20.066641
8.8885937 -9.8762159 -19.501719
8.9972429 -10.996632 -18.898113
9.1666956 -12.222261 -17.956711
9.3525486 -13.509235 -16.924198
9.6222363 -14.967922 -15.425928
10.031995 -16.719994 -13.149489
12.049994 18.074987 -8.6328278
11.468937 16.056511 -11.538109
10.940522 14.222676 -14.180189
10.460252 12.552299 -16.581537
10.124434 11.136873 -18.26063
9.9758644 9.9758654 -19.003475
9.8555889 8.8700304 -19.604853
9.7528172 7.8022518 -20.118715
9.6761951 6.7733355 -20.501823
9.6083345 5.7649999 -20.841124
9.5530605 4.7765284 -21.117493
9.5074825 3.8029919 -21.345387
9.4801474 2.8440409 -21.482059
9.4628649 1.8925743 -21.568474
9.4460058 0.94460106 -21.652767
9.44559 -9.5367432e-07 -21.654846
9.4518595 -0.94518566 -21.623501
9.4587488 -1.8917513 -21.589054
9.48174 -2.8445244 -21.474098
9.5241671 -3.8096657 -21.261963
9.5669756 -4.7834868 -21.04792
9.6231594 -5.7738957 -20.766994
9.6960478 -6.7872367 -20.402557
9.7710867 -7.8168693 -20.027363
9.8749428 -8.8874493 -19.50808
10.009466 -10.00947 -18.835463
10.158501 -11.174349 -18.090294
10.361208 -12.433452 -17.076756
10.586673 -13.762676 -15.949432
10.98571 -15.379994 -13.954243
11.710145 -17.56522 -10.332067
12.977346 16.516624 -9.8948555
12.363111 14.610949 -12.686835
11.806322 12.879625 -15.217693
11.334636 11.334634 -17.361723
11.164624 10.149656 -18.134506
11.003261 9.0026684 -18.867973
10.880733 7.9132609 -19.424915
10.780271 6.8601718 -19.881565
10.698982 5.8358083 -20.251057
10.644198 4.8382683 -20.50008
10.58994 3.8508873 -20.7467
10.552155 2.8778591 -20.918453
10.527804 1.9141474 -21.02914
10.506963 0.95517731 -21.123873
10.500978 9.5367432e-07 -21.151073
10.51158 -0.95559883 -21.102886
10.528149 -1.9142103 -21.027575
10.556088 -2.8789358 -20.900574
10.600309 -3.85466 -20.69957
10.644902 -4.838594 -20.496876
10.713716 -5.8438478 -20.184093
10.807818 -6.8777046 -19.756351
10.90463 -7.9306393 -19.316296
11.037292 -9.0305119 -18.713287
11.190529 -10.173208 -18.016758
11.366735 -11.366735 -17.215816
11.642467 -12.700875 -15.962488
12.002299 -14.184535 -14.326889
12.655248 -16.106682 -11.358944
13.866349 15.021874 -11.106344
13.224248 13.224249 -13.781763
12.641878 11.588387 -16.208307
12.421931 10.35161 -17.124746
12.216577 9.1624298 -17.980392
12.063776 8.0425167 -18.617062
11.939763 6.9648609 -19.133783
11.848768 5.9243851 -19.512928
11.778157 4.907567 -19.80714
11.708383 3.9027939 -20.097868
11.659319 2.9148293 -20.302299
11.634311 1.9390497 -20.406506
11.6151 0.96792316 -20.486546
11.60735 -0 -20.518835
11.619993 -0.96833515 -20.46616
11.634767 -1.9391279 -20.404602
11.663016 -2.9157543 -20.286892
11.722385 -3.9074621 -20.039526
11.786389 -4.910995 -19.772842
11.867593 -5.9337959 -19.434492
11.974712 -6.9852481 -18.988165
12.084727 -8.0564861 -18.529766
12.249708 -9.1872826 -17.842348
12.455826 -10.379856 -16.983521
12.719321 -11.659377 -15.885627
13.043842 -13.04384 -14.533449
13.696295 -14.837654 -11.814904
14.71988 13.587582 -12.267874
14.131212 11.957175 -14.531985
13.779175 10.599363 -15.885973
13.535285 9.3705788 -16.824009
13.336552 8.2071075 -17.588369
13.17623 7.0948906 -18.20499
13.055063 6.0254111 -18.671017
12.9718 4.9891515 -18.991257
12.898693 3.9688268 -19.272438
12.836086 2.9621735 -19.513229
12.804266 1.9698868 -19.63562
12.775333 0.98271847 -19.746899
12.763719 -9.5367432e-07 -19.791569
12.780757 -0.98313332 -19.726034
12.806461 -1.9702263 -19.627174
12.844639 -2.9641466 -19.480341
12.909718 -3.9722214 -19.230034
12.975462 -4.9905629 -18.977179
13.0818 -6.0377569 -18.56818
13.223122 -7.1201439 -18.024637
13.367488 -8.2261486 -17.469383
13.589052 -9.4078054 -16.617214
13.822742 -10.632878 -15.718406
14.245925 -12.054243 -14.090777
14.864907 -13.721455 -11.710074
16.081442 12.635416 -11.449076
15.409188 11.00656 -13.849983
15.002111 9.6442146 -15.303823
14.734243 8.4195671 -16.2605
14.531141 7.2655721 -16.985863
14.363357 6.155724 -17.585098
14.260974 5.0932031 -17.950748
14.160041 4.0457253 -18.31122
14.073834 3.015821 -18.619102
14.046412 2.0066271 -18.717041
14.019053 1.001359 -18.814753
14.005674 -0 -18.862534
14.023983 -1.0017138 -18.797142
14.042341 -2.0060482 -18.731579
14.087255 -3.0187001 -18.571173
14.178712 -4.0510626 -18.244541
14.271363 -5.0969162 -17.913641
14.405099 -6.1736169 -17.436014
14.563128 -7.2815614 -16.871628
14.77638 -8.4436464 -16.110014
15.094743 -9.7037649 -14.973001
15.481355 -11.058111 -13.592243
16.284113 -12.794659 -10.72525
16.852608 10.111565 -12.707436
16.40069 8.7470322 -14.213825
16.072889 7.5006824 -15.306499
15.83007 6.3320284 -16.115894
15.663598 5.2211981 -16.670801
15.543414 4.1449108 -17.071415
15.453551 3.0907083 -17.37096
15.402665 2.0536876 -17.540577
15.352164 1.0234747 -17.708918
15.333924 9.5367432e-07 -17.769714
15.367852 -1.0245218 -17.656624
15.401928 -2.0535913 -17.543034
15.471033 -3.0942078 -17.312683
15.569884 -4.151967 -16.983185
15.689103 -5.2297006 -16.585785
15.892609 -6.3570433 -15.907433
16.106512 -7.5163741 -15.194421
16.445837 -8.7711134 -14.063339
16.944296 -10.166578 -12.40181
18.803009 9.4015045 -10.123396
17.995214 7.8729057 -12.647754
17.576897 6.5913353 -13.954992
17.309649 5.409265 -14.790146
17.117628 4.2794061 -15.390208
17.016203 3.1905355 -15.707161
16.928263 2.116034 -15.981976
16.848722 1.0530438 -16.230541
16.851974 9.5367432e-07 -16.220375
16.885408 -1.0553398 -16.115894
16.918974 -2.1148705 -16.011
17.035456 -3.1941504 -15.646996
17.154924 -4.2887316 -15.273655
17.368618 -5.4276948 -14.605862
17.668633 -6.6257372 -13.668322
18.072077 -7.9065332 -12.407557
19.629969 5.7735195 -11.147595
19.186834 4.5145488 -12.450935
18.901337 3.3355298 -13.29063
18.760241 2.2070842 -13.705623
18.681383 1.0989065 -13.937551
18.697792 -0 -13.889292
18.71423 -1.1008363 -13.840946
18.827187 -2.2149625 -13.508717
18.989311 -3.3510547 -13.031878
19.28857 -4.5384893 -12.151707
19.764778 -5.8131714 -10.751091
