# .PCD v0.7 - Point Cloud Data file format
VERSION 0.7
FIELDS x y z
SIZE 4 4 4
TYPE F F F
COUNT 1 1 1
WIDTH 1059
HEIGHT 1
VIEWPOINT 0 0 0 1 0 0 0
POINTS 1059
DATA ascii
-23.153244 -2.3841858e-07 -7.9532132
-21.68536 7.2284527 -8.6456814
-20.768875 5.7691288 -11.191481
-20.400179 4.5333729 -12.215635
-20.080194 3.3466978 -13.104479
-19.967857 2.2186494 -13.416529
-19.907677 1.1059813 -13.583693
-19.869711 4.7683716e-07 -13.689157
-19.900427 -1.1055789 -13.603832
-20.00779 -2.2230897 -13.305605
-20.132324 -3.3553896 -12.959676
-20.423697 -4.5385985 -12.150303
-20.748047 -5.7633486 -11.249334
-19.893639 9.3617125 -10.372094
-19.210684 7.9102812 -12.380787
-18.798141 6.6346369 -13.594145
-18.523636 5.4481254 -14.401513
-18.338791 4.3150096 -14.945173
-18.19722 3.2112718 -15.361564
-18.103107 2.129776 -15.638364
-18.054062 1.0620041 -15.782616
-18.057518 9.5367432e-07 -15.772451
-18.074221 -1.0631895 -15.723324
-18.114855 -2.1311612 -15.603809
-18.228991 -3.2168818 -15.268122
-18.361319 -4.3203111 -14.878922
-18.566572 -5.4607563 -14.275234
-18.822588 -6.6432676 -13.522244
-19.264256 -7.9323406 -12.22322
-20.113558 -9.4652052 -9.7252693
-19.16703 11.979393 -8.9858255
-18.099264 10.180835 -12.322601
-17.606647 8.8033199 -13.862025
-17.248072 7.54603 -14.982571
-17.047638 6.3928633 -15.608927
-16.863565 5.2698641 -16.184155
-16.731998 4.1829982 -16.595301
-16.634972 3.1190567 -16.898514
-16.572598 2.0715747 -17.09343
-16.520967 1.0325623 -17.254774
-16.505398 -9.5367432e-07 -17.303429
-16.54225 -1.0338917 -17.188261
-16.579748 -2.0724707 -17.071083
-16.640024 -3.1200075 -16.882723
-16.758463 -4.1896172 -16.512596
-16.887678 -5.2774005 -16.108803
-17.073641 -6.402616 -15.527667
-17.31052 -7.5733509 -14.787417
-17.658331 -8.8291645 -13.700513
-18.129532 -10.197863 -12.228008
-19.745392 -12.340868 -7.1784515
-17.289356 12.678863 -11.251602
-16.59532 11.063546 -13.565066
-16.250685 9.7504101 -14.713847
-15.952321 8.5079031 -15.708393
-15.732975 7.3420548 -16.439548
-15.53446 6.2137804 -17.101263
-15.426933 5.1423087 -17.45969
-15.324482 4.0865259 -17.801189
-15.243909 3.04878 -18.069763
-15.200661 2.0267534 -18.213924
-15.174954 1.0116615 -18.299618
-15.161751 9.5367432e-07 -18.343622
-15.157276 -1.0104837 -18.358541
-15.201139 -2.0268178 -18.21233
-15.249352 -3.0498743 -18.051624
-15.312475 -4.0833263 -17.841211
-15.436996 -5.1456666 -17.426142
-15.563508 -6.2254009 -17.004435
-15.746934 -7.3485699 -16.393017
-15.986448 -8.5261059 -15.594634
-16.296162 -9.7776995 -14.562254
-16.696108 -11.130737 -13.2291
-17.42692 -12.779742 -10.793065
-15.978897 13.696197 -11.815307
-15.385613 12.088697 -13.934172
-15.01011 10.721507 -15.275264
-14.723409 9.4650488 -16.299191
-14.528938 8.3022509 -16.993725
-14.3564 7.1781979 -17.609943
-14.225313 6.0965629 -18.078108
-14.109181 5.0389919 -18.492867
-14.035122 4.0100327 -18.757359
-13.974223 2.9944744 -18.974855
-13.915655 1.9879503 -19.184025
-13.903889 0.99313545 -19.226049
-13.905263 9.5367432e-07 -19.221144
-13.910629 -0.9936161 -19.201981
-13.936273 -1.9908953 -19.11039
-13.987586 -2.9973402 -18.927134
-14.049171 -4.0140514 -18.707186
-14.127275 -5.045455 -18.428246
-14.243571 -6.1043897 -18.012899
-14.37385 -7.1869264 -17.547621
-14.550664 -8.3146658 -16.91614
-14.753251 -9.4842348 -16.192612
-15.039269 -10.742334 -15.171123
-15.404183 -12.103285 -13.867856
-16.072435 -13.776373 -11.481241
-14.817683 14.817682 -11.891707
-14.211761 13.118547 -14.222181
-13.871229 11.737191 -15.531917
-13.608678 10.46821 -16.541729
-13.38892 9.2692509 -17.386951
-13.21648 8.1332169 -18.050179
-13.099166 7.0533938 -18.501387
-12.983917 5.9925771 -18.944653
-12.894003 4.959229 -19.290482
-12.83093 3.9479771 -19.533068
-12.781812 2.9496479 -19.721981
-12.747929 1.9612179 -19.852303
-12.720719 0.97851467 -19.956955
-12.719018 -9.5367432e-07 -19.963497
-12.730124 -0.97924137 -19.92078
-12.742493 -1.9603853 -19.873207
-12.774903 -2.9480562 -19.748547
-12.835142 -3.9492731 -19.516867
-12.899329 -4.9612813 -19.269991
-12.990328 -5.9955373 -18.919996
-13.108482 -7.058414 -18.465553
-13.231402 -8.1424026 -17.992788
-13.419927 -9.290719 -17.267691
-13.629204 -10.484005 -16.462784
-13.883473 -11.747556 -15.484825
-14.294158 -13.194609 -13.905263
-14.912116 -14.912116 -11.528504
-13.759292 16.052505 -11.552412
-13.154295 14.250485 -14.073236
-12.793692 12.793692 -15.575747
-12.515569 11.472604 -16.734592
-12.319538 10.266283 -17.551386
-12.155362 9.1165199 -18.235456
-12.017528 8.0116825 -18.809769
-11.895997 6.9393291 -19.316141
-11.819938 5.9099698 -19.633055
-11.749025 4.8954258 -19.928526
-11.678959 3.8929844 -20.220467
-11.638904 2.9097271 -20.387363
-11.616219 1.9360352 -20.481888
-11.594596 0.96621704 -20.57198
-11.58392 -2.8610229e-06 -20.616467
-11.602643 -0.96689034 -20.538452
-11.621427 -1.936904 -20.460186
-11.648347 -2.9120865 -20.348013
-11.697921 -3.8993068 -20.14146
-11.757575 -4.8989892 -19.8929
-11.826996 -5.913496 -19.603643
-11.922292 -6.95467 -19.206581
-12.037567 -8.0250435 -18.726265
-12.165778 -9.1243334 -18.192059
-12.342532 -10.285445 -17.455582
-12.532099 -11.487757 -16.66572
-12.83178 -12.831779 -15.417049
-13.223569 -14.325534 -13.784595
-13.91406 -16.23307 -10.907548
-12.913534 17.609364 -10.184912
-12.140436 15.451466 -13.698997
-11.768995 13.908813 -15.387362
-11.497644 12.542883 -16.620779
-11.281573 11.281572 -17.602917
-11.111045 10.100948 -18.378048
-10.987892 8.9900913 -18.937834
-10.867439 7.9035902 -19.485346
-10.776005 6.8574538 -19.900955
-10.705584 5.839407 -20.221054
-10.642758 4.8376188 -20.506622
-10.594346 3.8524885 -20.726681
-10.554012 2.8783655 -20.910017
-10.53454 1.9153709 -20.998526
-10.519295 0.95630074 -21.067818
-10.514671 -9.5367432e-07 -21.088837
-10.518201 -0.95620155 -21.072792
-10.537739 -1.9159536 -20.983984
-10.563554 -2.8809719 -20.866642
-10.589465 -3.8507137 -20.748859
-10.646983 -4.8395367 -20.487417
-10.709081 -5.8413167 -20.20516
-10.774234 -6.8563328 -19.909004
-10.881804 -7.9140415 -19.420053
-10.992805 -8.9941139 -18.915499
-11.131833 -10.119849 -18.28355
-11.313988 -11.313987 -17.45558
-11.528347 -12.57638 -16.481216
-11.8077 -13.954556 -15.211433
-12.209102 -15.53886 -13.386875
-13.145234 -17.925322 -9.1317291
-11.204017 16.806023 -12.862717
-10.783838 15.09737 -14.963608
-10.480589 13.624765 -16.479855
-10.287778 12.345333 -17.443909
-10.116826 11.128508 -18.29866
-9.9784937 9.9784927 -18.99033
-9.8599072 8.8739166 -19.583261
-9.7765779 7.8212609 -19.999907
-9.6976843 6.7883754 -20.394377
-9.6200533 5.7720318 -20.782532
-9.578764 4.789382 -20.988976
-9.5424099 3.8169613 -21.17075
-9.5063028 2.8518887 -21.351284
-9.47649 1.895299 -21.500341
-9.4723902 0.94723797 -21.520844
-9.4686556 -9.5367432e-07 -21.539516
-9.4658985 -0.94658947 -21.553303
-9.4851494 -1.8970327 -21.45705
-9.5129623 -2.8538885 -21.317986
-9.5416737 -3.8166714 -21.174427
-9.5843554 -4.7921772 -20.961021
-9.643055 -5.7858319 -20.667522
-9.7065172 -6.7945619 -20.350212
-9.7840977 -7.8272772 -19.962309
-9.8827972 -8.8945198 -19.468811
-9.9942665 -9.9942684 -18.911463
-10.139521 -11.153473 -18.185188
-10.300289 -12.360347 -17.381348
-10.524046 -13.68126 -16.262568
-10.810427 -15.134597 -14.830665
-11.276881 -16.915325 -12.49839
-10.372277 18.439602 -11.259035
-9.8250599 16.375099 -14.299128
-9.5312347 14.826365 -15.931488
-9.308754 13.445976 -17.167496
-9.1271219 12.169496 -18.176563
-9.0036478 11.004456 -18.862534
-8.8840685 9.8711872 -19.526861
-8.7871218 8.7871208 -20.065456
-8.7164631 7.7479663 -20.457998
-8.647604 6.725914 -20.840549
-8.5929842 5.7286539 -21.143995
-8.5490818 4.7494888 -21.387901
-8.5168543 3.7852678 -21.56694
-8.4859619 2.8286543 -21.73856
-8.4680748 1.8817949 -21.837936
-8.4595919 0.9399519 -21.885065
-8.4571457 9.5367432e-07 -21.898649
-8.4604807 -0.94005394 -21.880123
-8.4687185 -1.8819361 -21.834362
-8.493228 -2.8310757 -21.698191
-8.5218401 -3.7874851 -21.539238
-8.5539036 -4.7521672 -21.361109
-8.5985203 -5.7323494 -21.113243
-8.6578665 -6.7338963 -20.783539
-8.7192192 -7.7504168 -20.442694
-8.8000965 -8.8000975 -19.993372
-8.8987808 -9.8875332 -19.445129
-9.0028639 -11.003501 -18.866886
-9.1599407 -12.213253 -17.994236
-9.3291121 -13.475386 -17.054396
-9.5667458 -14.881607 -15.73421
-9.883462 -16.472437 -13.974674
-10.476233 -18.624414 -10.681498
-8.9398088 17.879616 -13.008993
-8.5790911 16.085794 -15.263473
-8.3465796 14.606514 -16.716673
-8.1763277 13.28653 -17.78075
-8.0349874 12.052483 -18.66412
-7.9220991 10.892887 -19.369675
-7.8313966 9.7892437 -19.936563
-7.7515368 8.72048 -20.43569
-7.678575 7.6785736 -20.891701
-7.6294265 6.6757488 -21.198883
-7.5856819 5.6892586 -21.472284
-7.5424151 4.7140074 -21.742702
-7.5109057 3.7554522 -21.939634
-7.4951406 2.8106747 -22.038166
-7.4794416 1.8698597 -22.136284
-7.4638085 0.93297482 -22.233994
-7.4633107 -0 -22.237103
-7.4705219 -0.93381596 -22.192032
-7.4777474 -1.8694372 -22.146877
-7.4896684 -2.8086243 -22.072372
-7.5174851 -3.7587404 -21.898512
-7.5475006 -4.7171879 -21.71092
-7.5808129 -5.6856103 -21.502716
-7.6359205 -6.6814308 -21.158293
-7.6922483 -7.6922483 -20.806244
-7.7550621 -8.7244453 -20.413658
-7.8432059 -9.8040066 -19.862759
-7.9364829 -10.912663 -19.279778
-8.0561571 -12.084235 -18.531811
-8.1968918 -13.31995 -17.652222
-8.3745165 -14.655405 -16.542068
-8.5997524 -16.124537 -15.134344
-8.9819746 -17.963949 -12.745455
-8.1107779 19.697601 -10.948669
-7.6590161 17.506321 -14.175537
-7.409574 15.877658 -15.957266
-7.2225242 14.445044 -17.293343
-7.0852981 13.158409 -18.273527
-6.9708533 11.950033 -19.090988
-6.8722262 10.79921 -19.795464
-6.8027687 9.7182407 -20.291588
-6.7346811 8.6588764 -20.777931
-6.6762028 7.6299453 -21.195633
-6.6337194 6.6337199 -21.499084
-6.5960383 5.6537476 -21.768238
-6.560101 4.6857853 -22.024933
-6.5343556 3.7339172 -22.208826
-6.5204353 2.7944717 -22.308256
-6.5065937 1.859025 -22.407125
-6.4940271 0.9277153 -22.496889
-6.4928851 -0 -22.505043
-6.4996853 -0.92852783 -22.45647
-6.5064998 -1.8590031 -22.407799
-6.5180211 -2.793438 -22.325504
-6.5411859 -3.7378225 -22.160038
-6.5682297 -4.6915922 -21.966873
-6.5995359 -5.6567478 -21.743256
-6.6383324 -6.6383333 -21.466137
-6.6874003 -7.6427417 -21.11565
-6.7435312 -8.6702547 -20.714714
-6.8086905 -9.7267017 -20.249294
-6.891778 -10.829938 -19.655807
-6.9801621 -11.965991 -19.024496
-7.0987606 -13.183413 -18.177362
-7.2402816 -14.480564 -17.1665
-7.4391317 -15.940995 -15.746145
-7.7084694 -17.619358 -13.822303
-8.23841 -20.007568 -10.037014
-6.7684765 19.177349 -12.478825
-6.4740558 17.264147 -14.932335
-6.284955 15.712386 -16.508169
-6.1386399 14.323492 -17.727465
-6.0229511 13.049728 -18.691534
-5.9356933 11.871385 -19.418686
-5.857903 10.739489 -20.066936
-5.7923937 9.6539898 -20.61285
-5.7398443 8.6097651 -21.050762
-5.6954203 7.5938916 -21.420959
-5.6522908 6.5943394 -21.780375
-5.6209631 5.6209641 -22.041439
-5.5987654 4.6656361 -22.226421
-5.5767422 3.7178259 -22.409945
-5.5587454 2.7793713 -22.559914
-5.5481725 1.849391 -22.648027
-5.5443807 0.92406178 -22.679623
-5.5405946 -3.8146973e-06 -22.711174
-5.5432186 -0.92387104 -22.689306
-5.5508995 -1.8503008 -22.625301
-5.5632777 -2.781641 -22.522148
-5.5765972 -3.7177315 -22.411152
-5.6001778 -4.6668148 -22.214645
-5.6281714 -5.6281729 -21.981365
-5.6564298 -6.5991678 -21.745882
-5.6972013 -7.5962715 -21.406118
-5.7447281 -8.6170959 -21.010061
-5.794549 -9.6575832 -20.594887
-5.8665171 -10.75528 -19.995153
-5.9433484 -11.886697 -19.354893
-6.0398693 -13.086384 -18.550552
-6.1591401 -14.371328 -17.556627
-6.3046551 -15.761639 -16.344002
-6.4924493 -17.313198 -14.77905
-6.8363647 -19.369701 -11.913094
-5.5592937 18.901598 -13.289861
-5.3339915 17.068773 -15.542879
-5.1949372 15.584813 -16.933418
-5.0794425 14.222441 -18.088369
-4.9890766 12.971599 -18.992029
-4.917644 11.802343 -19.706356
-4.856173 10.68358 -20.321066
-4.7995386 9.5990753 -20.887407
-4.7616324 8.5709381 -21.26647
-4.7251248 7.5601983 -21.63155
-4.6891589 6.5648193 -21.991209
-4.6653943 5.5984707 -22.228855
-4.6469226 4.6469221 -22.413567
-4.6285968 3.702879 -22.596825
-4.611393 2.7668333 -22.768864
-4.6060205 1.8424072 -22.822588
-4.602582 0.92051411 -22.856977
-4.5991354 -2.8610229e-06 -22.891439
-4.5963111 -0.91926193 -22.919682
-4.6063371 -1.8425369 -22.819424
-4.6167512 -2.77005 -22.715284
-4.627306 -3.7018452 -22.609737
-4.6452327 -4.6452312 -22.430471
-4.6701603 -5.6041937 -22.181194
-4.6953435 -6.5734816 -21.929361
-4.7267351 -7.5627751 -21.615448
-4.7677555 -8.5819616 -21.205242
-4.8113065 -9.6226139 -20.769732
-4.8637323 -10.700212 -20.245474
-4.9276738 -11.826418 -19.60606
-5.0000367 -13.000098 -18.882427
-5.0952692 -14.266756 -17.930103
-5.2012682 -15.603806 -16.870115
-5.3653646 -17.16917 -15.229146
-5.6045446 -19.055452 -12.83735
-4.7264509 21.269028 -9.8021593
-4.400413 18.701756 -13.877634
-4.2422748 16.969099 -15.854362
-4.1227813 15.46043 -17.34803
-4.0459423 14.160797 -18.308521
-3.9738395 12.914976 -19.209801
-3.9147816 11.744345 -19.948025
-3.8707688 10.644611 -20.498188
-3.8296931 9.5742321 -21.011631
-3.7945964 8.5378408 -21.45034
-3.7656143 7.53123 -21.812614
-3.7424281 6.5492477 -22.102444
-3.7206221 5.5809317 -22.375023
-3.7048492 4.6310616 -22.572182
-3.6907539 3.690753 -22.748371
-3.6816235 2.7612152 -22.862503
-3.6735547 1.8367796 -22.963362
-3.6708207 0.91770458 -22.997536
-3.6680803 -9.5367432e-07 -23.031796
-3.669879 -0.91746998 -23.009312
-3.6748657 -1.8374367 -22.946976
-3.6832354 -2.7624273 -22.842354
-3.6927125 -3.6927118 -22.723888
-3.7054784 -4.6318474 -22.564316
-3.7246912 -5.587038 -22.324154
-3.7457385 -6.5550432 -22.061066
-3.7695179 -7.5390358 -21.763824
-3.7991543 -8.5480976 -21.39337
-3.8353412 -9.588356 -20.941029
-3.8734825 -10.652077 -20.464266
-3.9235034 -11.77051 -19.839001
-3.9808564 -12.937782 -19.122091
-4.0516343 -14.180722 -18.23737
-4.1436696 -15.538761 -17.086927
-4.2600904 -17.040361 -15.631672
-4.4228792 -18.797239 -13.596805
-3.4792922 20.875755 -10.894592
-3.2755311 18.56134 -14.290612
-3.1651423 16.880756 -16.130426
-3.0824215 15.412107 -17.509106
-3.0213521 14.099644 -18.526926
-2.969152 12.866323 -19.396933
-2.9274862 11.709946 -20.091358
-2.8944342 10.612925 -20.642223
-2.8648636 9.5495453 -21.135067
-2.836566 8.5096951 -21.606697
-2.8167622 7.5113659 -21.936756
-2.8003001 6.5340328 -22.211128
-2.7840292 5.5680599 -22.482307
-2.769304 4.6155052 -22.72773
-2.76245 3.6832657 -22.841961
-2.7556221 2.7556219 -22.955759
-2.7488356 1.8325586 -23.068867
-2.7447329 0.91491032 -23.137245
-2.7460134 -0 -23.11591
-2.7475841 -0.91586208 -23.089729
-2.7491567 -1.8327703 -23.06352
-2.7548358 -2.7548361 -22.968863
-2.7640476 -3.6853962 -22.815338
-2.7735841 -4.6226416 -22.656395
-2.7849929 -5.5699863 -22.466248
-2.8017952 -6.5375223 -22.186207
-2.8195345 -7.5187573 -21.890556
-2.8384421 -8.5153255 -21.575428
-2.8675354 -9.5584526 -21.090538
-2.8972397 -10.623213 -20.595467
-2.9330714 -11.732285 -19.998272
-2.9773469 -12.901834 -19.260351
-3.0267322 -14.124753 -18.43726
-3.0948515 -15.474255 -17.301939
-3.1713178 -16.913696 -16.0275
-3.2934422 -18.66284 -13.99209
-3.5327883 -21.196728 -10.002993
-2.3002388 20.702148 -11.376825
-2.1746056 18.484146 -14.517658
-2.1016545 16.813238 -16.341427
-2.0504241 15.37818 -17.622192
-2.0062549 14.043783 -18.726421
-1.9739226 12.830496 -19.534731
-1.9472822 11.683691 -20.200741
-1.9241428 10.582785 -20.779224
-1.9062212 9.531105 -21.227266
-1.8893731 8.5021782 -21.648468
-1.8749478 7.4997916 -22.009102
-1.8639636 6.5238686 -22.283707
-1.8531126 5.5593357 -22.554981
-1.8449008 4.6122522 -22.760273
-1.8391075 3.6782131 -22.905109
-1.8344635 2.7516947 -23.02121
-1.8298428 1.8298397 -23.136726
-1.8273752 0.91368484 -23.198418
-1.8282161 -1.9073486e-06 -23.177395
-1.8291097 -0.91455746 -23.155056
-1.8300041 -1.8300056 -23.132694
-1.8333818 -2.7500753 -23.048248
-1.8397856 -3.6795692 -22.888153
-1.8462344 -4.6155872 -22.726934
-1.8532619 -5.5597878 -22.551247
-1.8649249 -6.5272369 -22.259676
-1.8774637 -7.5098557 -21.946207
-1.8912327 -8.5105476 -21.601978
-1.9088781 -9.5443916 -21.160841
-1.928929 -10.60911 -20.659571
-1.9516574 -11.709944 -20.091358
-1.9801226 -12.870797 -19.379732
-2.0139132 -14.097393 -18.534964
-2.0547116 -15.410339 -17.515009
-2.1097767 -16.878214 -16.138382
-2.1882012 -18.59971 -14.177768
-2.3291049 -20.961941 -10.655174
-1.1449107 20.608393 -11.637257
-1.0852897 18.449924 -14.618312
-1.0478746 16.765991 -16.489067
-1.0240802 15.3612 -17.678795
-1.0033965 14.047548 -18.712973
-0.98627472 12.821571 -19.569059
-0.97303468 11.676418 -20.23106
-0.96141899 10.575609 -20.811844
-0.95261401 9.5261402 -21.252094
-0.94443148 8.4998798 -21.661224
-0.93688166 7.4950514 -22.038712
-0.93060738 6.5142527 -22.352428
-0.92631626 5.5578966 -22.56698
-0.92230767 4.6115389 -22.767412
-0.91846472 3.6738577 -22.95956
-0.91614819 2.7484417 -23.075388
-0.914859 1.8297195 -23.139847
-0.91376019 0.91376305 -23.194786
-0.91329867 -9.5367432e-07 -23.217865
-0.91374463 -0.91374493 -23.195564
-0.91491365 -1.8298273 -23.137115
-0.9165343 -2.7496042 -23.056084
-0.91935676 -3.6774254 -22.914959
-0.92257732 -4.6128893 -22.753927
-0.92683113 -5.5609884 -22.541239
-0.93173623 -6.5221539 -22.295986
-0.93799579 -7.5039697 -21.983006
-0.94531363 -8.507823 -21.617115
-0.95304 -9.5303993 -21.230797
-0.96351737 -10.598692 -20.706928
-0.97485918 -11.698311 -20.139837
-0.98829484 -12.847836 -19.46805
-1.0059086 -14.082722 -18.587366
-1.0263892 -15.395841 -17.563337
-1.0542145 -16.867432 -16.172071
-1.0906337 -18.540777 -14.351106
-1.1588995 -20.860191 -10.93782
0 20.632322 -11.570789
0 18.447811 -14.62453
0 16.800621 -16.380856
0 15.353677 -17.703875
0 14.055349 -18.685114
0 12.816462 -19.588701
0 11.674826 -20.237682
0 10.577629 -20.802656
0 9.5211506 -21.277037
0 8.4975615 -21.674107
0 7.4952273 -22.037621
0 6.5140238 -22.354044
0 5.5588245 -22.55925
0 4.6120157 -22.762653
0 3.6734819 -22.964279
0 2.7484264 -23.075653
0 1.8299294 -23.134516
0 0.91383171 -23.191282
0 -2.8610229e-06 -23.246098
0 -0.91361904 -23.20192
0 -1.8304691 -23.121115
0 -2.7505674 -23.040026
0 -3.6752863 -22.94173
0 -4.6133499 -22.749298
0 -5.5621696 -22.531363
0 -6.5200024 -22.311356
0 -7.5014105 -21.998995
0 -8.5052757 -21.631271
0 -9.52913 -21.237144
0 -10.599487 -20.70332
0 -11.705828 -20.108515
0 -12.855216 -19.439659
0 -14.089944 -18.561571
0 -15.400949 -17.546309
0 -16.856663 -16.205723
0 -18.562416 -14.28746
0 -20.931875 -10.738701
1.1509173 20.716509 -11.336933
1.0890726 18.514231 -14.429169
1.0522119 16.83539 -16.2722
1.0245953 15.368927 -17.653034
1.0056162 14.078627 -18.601982
0.98853165 12.85091 -19.456213
0.9743486 11.692183 -20.165367
0.96289474 10.591841 -20.73806
0.95278329 9.527832 -21.243633
0.94523031 8.5070724 -21.621277
0.9385429 7.5083394 -21.955654
0.93229765 6.526082 -22.267912
0.9271248 5.562747 -22.526556
0.92305106 4.6152534 -22.730244
0.91991651 3.6796656 -22.886969
0.9171167 2.7513494 -23.026958
0.91584045 1.8316803 -23.090771
0.91466397 0.91466236 -23.149597
0.91413921 -1.9073486e-06 -23.175838
0.91457564 -0.91457653 -23.154015
0.91611421 -1.8322306 -23.077087
0.91765803 -2.7529736 -22.999895
0.91966158 -3.6786442 -22.899719
0.92354631 -4.617732 -22.705479
0.92798561 -5.5679131 -22.483513
0.93249214 -6.5274463 -22.25819
0.9387728 -7.5101848 -21.944153
0.94655091 -8.5189571 -21.555252
0.95492053 -9.5492058 -21.136768
0.96468127 -10.611493 -20.648733
0.97682399 -11.721885 -20.041601
0.9906739 -12.87876 -19.3491
1.0074137 -14.103793 -18.51211
1.0282551 -15.423826 -17.470039
1.0567206 -16.90753 -16.046766
1.0935652 -18.590611 -14.204535
1.171701 -21.090618 -10.297747
2.334918 21.014259 -10.50985
2.1908004 18.621803 -14.112787
2.1123731 16.898983 -16.073469
2.0588126 15.441093 -17.412479
2.0159063 14.111345 -18.485132
1.9830143 12.889591 -19.307438
1.9526521 11.715912 -20.066492
1.9308211 10.619516 -20.61227
1.9118038 9.5590172 -21.087702
1.8938037 8.5221157 -21.537708
1.88042 7.5216794 -21.872295
1.8681346 6.5384703 -22.179432
1.8560088 5.5680246 -22.482578
1.8490826 4.6227055 -22.655731
1.8434319 3.6868649 -22.796997
1.8378105 2.7567148 -22.937531
1.8334342 1.8334322 -23.046944
1.832338 0.91616821 -23.074348
1.832291 -9.5367432e-07 -23.07552
1.8322388 -0.91612148 -23.076824
1.8345577 -1.8345575 -23.018856
1.8384824 -2.7577229 -22.920734
1.8439918 -3.6879864 -22.783001
1.8501244 -4.6253099 -22.62969
1.8590269 -5.5770822 -22.407127
1.86973 -6.5440564 -22.139544
1.8812828 -7.5251341 -21.850723
1.8961468 -8.5326633 -21.479126
1.9140608 -9.5703068 -21.031275
1.9326241 -10.629433 -20.567198
1.9571825 -11.743097 -19.953234
1.9862759 -12.910794 -19.225897
2.0208433 -14.145903 -18.361713
2.0649023 -15.486769 -17.260239
2.120697 -16.965578 -15.865371
2.2012899 -18.710968 -13.850546
2.3864803 -21.478323 -9.220787
3.5991502 21.594902 -8.8969584
3.3105395 18.759726 -13.707132
3.1877568 17.001369 -15.753513
3.1027884 15.513942 -17.169657
3.0338655 14.158038 -18.318373
2.9856422 12.937783 -19.122089
2.9410143 11.764055 -19.865891
2.9061701 10.655955 -20.446629
2.8772433 9.5908089 -20.928741
2.8489707 8.5469112 -21.399956
2.8260212 7.536057 -21.78244
2.809639 6.5558233 -22.055481
2.7939551 5.5879078 -22.316883
2.781054 4.635088 -22.531898
2.772254 3.6963358 -22.678562
2.7635095 2.7635078 -22.824305
2.7567 1.8377991 -22.937794
2.7554805 0.91849327 -22.958118
2.7551267 -1.9073486e-06 -22.96402
2.7547808 -0.91826153 -22.96978
2.7565899 -1.8377275 -22.939632
2.7647204 -2.764719 -22.804125
2.7730265 -3.6973686 -22.665688
2.7813826 -4.6356392 -22.526421
2.7945533 -5.5891066 -22.306908
2.8117583 -6.56077 -22.020159
2.8291764 -7.5444703 -21.729858
2.8506277 -8.5518856 -21.372335
2.879689 -9.5989647 -20.887981
2.9095242 -10.668256 -20.390726
2.947578 -11.790313 -19.756498
2.9922214 -12.966295 -19.01244
3.0443597 -14.207014 -18.143467
3.113364 -15.566823 -16.993393
3.1961148 -17.045944 -15.614218
3.3374324 -18.912117 -13.258921
4.4668951 18.984304 -13.046606
4.2895312 17.158123 -15.263658
4.164784 15.61794 -16.822998
4.0746155 14.261152 -17.950104
4.0007505 13.002438 -18.873417
3.9426942 11.828083 -19.599117
3.8903625 10.698496 -20.253262
3.8499889 9.6249714 -20.757933
3.8143852 8.5823669 -21.202982
3.7827325 7.5654626 -21.59864
3.7613237 6.5823145 -21.866253
3.7405684 5.6108503 -22.12569
3.7206435 4.6508045 -22.374752
3.7069721 3.7069702 -22.545643
3.6978571 2.7733917 -22.659584
3.6907749 1.8453884 -22.748108
3.6855762 0.92139339 -22.813095
3.6851015 -1.9073486e-06 -22.819031
3.6862516 -0.92156315 -22.804649
3.6904469 -1.8452253 -22.752209
3.6992917 -2.7744694 -22.641651
3.7101347 -3.7101364 -22.506115
3.7226231 -4.6532793 -22.350006
3.7401989 -5.6102991 -22.130308
3.7637539 -6.5865684 -21.835875
3.7880085 -7.5760179 -21.532688
3.817847 -8.5901566 -21.15971
3.8562398 -9.6406002 -20.679798
3.8994367 -10.723452 -20.139835
3.9464777 -11.839434 -19.551826
4.01021 -13.033183 -18.755169
4.0814366 -14.285028 -17.86484
4.181138 -15.679269 -16.618568
4.3072133 -17.228853 -15.042628
4.5105472 -19.169825 -12.50096
5.6870036 19.335808 -12.012761
5.4174418 17.335814 -14.708375
5.2532277 15.759684 -16.350517
5.131062 14.366973 -17.572174
5.0312099 13.081144 -18.570698
4.9553375 11.892809 -19.32942
4.8908744 10.759922 -19.974054
4.8357129 9.671423 -20.525669
4.7947764 8.6305962 -20.935032
4.754724 7.6075568 -21.335554
4.7207308 6.6090207 -21.675491
4.6949873 5.6339817 -21.932922
4.6698756 4.6698742 -22.184042
4.6514497 3.721159 -22.368301
4.6418824 2.7851267 -22.46397
4.6326079 1.8530426 -22.556719
4.6237292 0.92474365 -22.645504
4.6231713 -0 -22.651081
4.6284504 -0.92569065 -22.598289
4.6337419 -1.8534966 -22.545376
4.6406374 -2.7843828 -22.476421
4.6561737 -3.7249393 -22.32106
4.6764445 -4.676446 -22.118351
4.6969056 -5.6362877 -21.913738
4.7241259 -6.6137772 -21.641537
4.7597594 -7.6156163 -21.285204
4.7974496 -8.6354103 -20.908298
4.8419118 -9.6838236 -20.46368
4.8996606 -10.779257 -19.886189
4.962153 -11.909167 -19.261269
5.04813 -13.125138 -18.401495
5.1471958 -14.41215 -17.410835
5.2714353 -15.814304 -16.168446
5.4454551 -17.425455 -14.42825
5.7651219 -19.601418 -11.231573
7.0560498 19.99214 -10.082382
6.6061521 17.616405 -13.83153
6.3811183 15.952797 -15.70681
6.2143044 14.500042 -17.096928
6.0943503 13.204424 -18.096544
5.9923544 11.984708 -18.946512
5.913806 10.841978 -19.601078
5.8431015 9.7385006 -20.190281
5.7882094 8.682313 -20.64772
5.7388377 7.6517806 -21.059151
5.692163 6.6408539 -21.448105
5.6648932 5.6648941 -21.675354
5.6397772 4.699811 -21.884655
5.6152582 3.7435026 -22.088982
5.5993009 2.7996521 -22.221954
5.5877481 1.8625813 -22.31823
5.579514 0.9299202 -22.386848
5.5770645 9.5367432e-07 -22.407259
5.5828528 -0.93047905 -22.359022
5.588654 -1.8628845 -22.310684
5.5968666 -2.7984333 -22.242241
5.6176105 -3.7450771 -22.069374
5.6418533 -4.7015438 -21.867353
5.6663065 -5.6663055 -21.663576
5.6992359 -6.6491108 -21.389162
5.7454114 -7.6605496 -21.004366
5.7923589 -8.6885395 -20.613138
5.8495092 -9.7491808 -20.136883
5.9242024 -10.861037 -19.514444
6.0075297 -12.015059 -18.820049
6.1064148 -13.230565 -17.996006
6.2363009 -14.551371 -16.913622
6.4001956 -16.00049 -15.547831
6.6541176 -17.744312 -13.431818
7.2609076 -20.572573 -8.3752308
7.8671322 17.982012 -12.688997
7.5465117 16.171097 -14.979137
7.3424616 14.684921 -16.436646
7.1825252 13.338974 -17.579044
7.0564904 12.096841 -18.47929
6.9544344 10.928396 -19.208267
6.8714304 9.8163261 -19.801155
6.7942338 8.7354431 -20.352554
6.7434707 7.7068219 -20.715149
6.6947336 6.6947322 -21.063271
6.6522698 5.7019453 -21.366581
6.6226621 4.7304735 -21.578068
6.5938182 3.7678947 -21.784098
6.5667553 2.8143206 -21.977402
6.5580001 1.8737106 -22.039938
6.5525255 0.9360733 -22.079042
6.5470414 9.5367432e-07 -22.118217
6.5499916 -0.93571568 -22.097141
6.5605021 -1.8744326 -22.022068
6.5762057 -2.8183756 -21.909899
6.5946093 -3.7683477 -21.778442
6.6232457 -4.7308917 -21.573893
6.6583257 -5.7071342 -21.32333
6.6979976 -6.697998 -21.039953
6.7503614 -7.7147007 -20.66593
6.8120871 -8.7584 -20.225027
6.8809381 -9.8299131 -19.733244
6.966908 -10.948 -19.119164
7.0719299 -12.12331 -18.369011
7.1949124 -13.36198 -17.490562
7.3686152 -14.737232 -16.24983
7.5819173 -16.246964 -14.726245
7.9507899 -18.173233 -12.091438
9.3359461 18.671892 -10.533132
8.8135996 16.525497 -13.797797
8.5133057 14.898284 -15.674631
8.307394 13.499516 -16.96158
8.1611652 12.241748 -17.875511
8.0264206 11.036327 -18.717665
7.9320083 9.9150085 -19.307743
7.842227 8.822505 -19.868876
7.7728324 7.7728329 -20.302591
7.7145367 6.7502179 -20.666943
7.6579514 5.7434621 -21.020599
7.6186118 4.7616301 -21.266472
7.5910501 3.7955236 -21.438734
7.5655313 2.8370733 -21.598225
7.5500898 1.8875227 -21.694735
7.5425472 0.94281864 -21.741875
7.5349984 -9.5367432e-07 -21.789057
7.5352407 -0.94190693 -21.787542
7.5525484 -1.8881369 -21.679371
7.5699582 -2.8387337 -21.570557
7.5878959 -3.7939501 -21.45845
7.6243649 -4.7652273 -21.230511
7.6699057 -5.7524309 -20.945883
7.7159705 -6.751472 -20.657984
7.7734661 -7.7734656 -20.298634
7.8538055 -8.8355312 -19.796513
7.9367523 -9.9209404 -19.278095
8.0466652 -11.064167 -18.591137
8.1785088 -12.267762 -17.767117
8.3368769 -13.547427 -16.777315
8.5522747 -14.966482 -15.431078
8.8556776 -16.604395 -13.534812
9.5603838 -19.12077 -9.1303978
10.189396 16.982327 -12.27504
9.7693863 15.196824 -14.608423
9.4962978 13.716875 -16.125584
9.3051949 12.406927 -17.187267
9.1506224 11.184093 -18.046005
9.0202188 10.022465 -18.77047
8.9196072 8.9196053 -19.329422
8.8230162 7.84268 -19.866041
8.7562532 6.8104196 -20.236942
8.6997862 5.7998567 -20.550648
8.6494894 4.8052711 -20.830074
8.6195021 3.8308887 -20.996672
8.5900278 2.8633432 -21.160416
8.5613365 1.9025173 -21.319813
8.5526905 0.95029831 -21.367847
8.5529442 9.5367432e-07 -21.366444
8.5553436 -0.95059586 -21.353111
8.5692396 -1.9042749 -21.275909
8.5891619 -2.8630552 -21.165228
8.6192455 -3.8307762 -20.998096
8.6573229 -4.8096251 -20.786558
8.7093344 -5.8062234 -20.497602
8.7673054 -6.819016 -20.175543
8.8380117 -7.8560104 -19.782736
8.9313793 -8.9313803 -19.264023
9.0400667 -10.044521 -18.660204
9.1622009 -11.198246 -17.981682
9.3297729 -12.439698 -17.050722
9.529542 -13.764892 -15.940899
9.8274937 -15.287211 -14.28561
10.278673 -17.131119 -11.779057
11.154504 15.616303 -13.110278
10.771566 14.003035 -15.024967
10.507244 12.60869 -16.346577
10.313923 11.345312 -17.313183
10.150843 10.150844 -18.128582
10.027742 9.0249691 -18.74408
9.9183111 7.9346466 -19.291245
9.8413639 6.8889523 -19.675978
9.7755976 5.8653569 -20.004807
9.7134304 4.8567123 -20.315641
9.668869 3.8675461 -20.538452
9.6351156 2.8905344 -20.707216
9.6074171 1.9214802 -20.845711
9.5957861 0.95957756 -20.903864
9.5967884 -2.8610229e-06 -20.898857
9.5977612 -0.95977688 -20.893993
9.6034603 -1.9206924 -20.865494
9.6399937 -2.8920002 -20.682829
9.6770678 -3.8708282 -20.497458
9.7143984 -4.8571997 -20.310802
9.7771711 -5.8663058 -19.996937
9.8554373 -6.8988104 -19.605606
9.9349985 -7.9479971 -19.207806
10.04361 -9.0392504 -18.664751
10.182027 -10.182029 -17.972662
10.336649 -11.370314 -17.199554
10.554176 -12.665013 -16.111914
10.8265 -14.074452 -14.750294
11.261255 -15.765755 -12.576525
12.946404 16.477238 -10.035508
12.194887 14.412138 -13.451489
11.817436 12.891747 -15.167179
11.554725 11.554721 -16.361322
11.350554 10.318686 -17.28937
11.197042 9.1612148 -17.987154
11.06541 8.0475693 -18.585482
10.963561 6.9768124 -19.048426
10.88612 5.9378839 -19.400433
10.814983 4.9158993 -19.723782
10.756033 3.9112854 -19.991741
10.727903 2.9257898 -20.119602
10.701699 1.9457617 -20.238708
10.675655 0.97051334 -20.35709
10.675269 9.5367432e-07 -20.358847
10.682162 -0.97110653 -20.327511
10.698206 -1.9451303 -20.254585
10.730863 -2.9265995 -20.106148
10.771645 -3.9169641 -19.92078
10.825234 -4.9205594 -19.677183
10.89738 -5.9440279 -19.349253
10.986699 -6.9915352 -18.943258
11.093323 -8.0678711 -18.458601
11.224627 -9.1837835 -17.861767
11.392597 -10.356907 -17.098265
11.591917 -11.591915 -16.192268
11.875074 -12.954627 -14.905187
12.283535 -14.516907 -13.048545
13.273879 -16.894028 -8.5469818
13.969625 15.133758 -10.676025
13.294399 13.294401 -13.489464
12.910884 11.834976 -15.087444
12.64283 10.535688 -16.204342
12.437814 9.3283596 -17.058571
12.280051 8.1866989 -17.715918
12.150581 7.0878377 -18.255375
12.051955 6.0259762 -18.666313
11.978128 4.9908853 -18.973925
11.910048 3.970016 -19.257595
11.859939 2.9649849 -19.466381
11.828518 1.9714193 -19.597305
11.799316 0.98327541 -19.718977
11.795676 -1.9073486e-06 -19.734144
11.811153 -0.98426056 -19.669659
11.827829 -1.9713087 -19.600174
11.851314 -2.9628286 -19.502321
11.917362 -3.9724545 -19.227121
11.984969 -4.9937367 -18.945429
12.05361 -6.0268044 -18.659424
12.176057 -7.1027012 -18.149227
12.309995 -8.2066631 -17.591145
12.461776 -9.3463297 -16.958735
12.696866 -10.580723 -15.979191
12.975083 -11.893826 -14.81995
13.366087 -13.366089 -13.190769
14.16074 -15.340801 -9.879714
15.213281 14.043028 -10.37018
14.471413 12.245039 -13.223519
14.06617 10.82013 -14.782145
13.799762 9.5536814 -15.806787
13.585301 8.3601856 -16.631638
13.419283 7.2257652 -17.270174
13.288811 6.1332936 -17.771986
13.196303 5.0755024 -18.127781
13.116868 4.0359578 -18.433306
13.049646 3.0114584 -18.691847
13.022675 2.0034876 -18.795586
13.002561 1.0001955 -18.87295
12.983192 -9.5367432e-07 -18.947441
12.996784 -0.99975204 -18.895164
13.026486 -2.0040779 -18.780922
13.065254 -3.0150595 -18.631817
13.130988 -4.0403037 -18.378998
13.211722 -5.08143 -18.06848
13.317999 -6.1467681 -17.659721
13.453459 -7.2441697 -17.138725
13.630936 -8.3882704 -16.45612
13.835037 -9.5781021 -15.671113
14.139712 -10.876701 -14.499287
14.573542 -12.331458 -12.830715
15.580577 -14.382074 -8.9574995
16.864813 13.250922 -8.6513214
15.796545 11.283246 -12.466564
15.345318 9.8648491 -14.078088
15.032495 8.5899963 -15.195314
14.813983 7.406991 -15.975711
14.632416 6.2710328 -16.62417
14.512093 5.1828885 -17.053894
14.425946 4.1216998 -17.361557
14.344287 3.0737762 -17.653198
14.286478 2.0409236 -17.859665
14.260477 1.0186024 -17.952522
14.252673 -0 -17.980394
14.264224 -1.0188723 -17.939138
14.304576 -2.0435114 -17.795031
14.345155 -3.0739617 -17.650101
14.422668 -4.1207623 -17.373266
14.542539 -5.1937656 -16.945158
14.664419 -6.2847528 -16.509872
14.851926 -7.4259639 -15.840204
15.089991 -8.6228542 -14.989972
15.409241 -9.905941 -13.849793
15.907364 -11.362403 -12.070785
17.376423 10.425855 -10.961388
16.797953 8.9589081 -12.889619
16.422842 7.6639915 -14.13999
16.171745 6.4686985 -14.976975
15.983644 5.327878 -15.603988
15.838017 4.2234693 -16.089409
15.760198 3.1520381 -16.348806
15.68319 2.0910926 -16.605495
15.654913 1.0436602 -16.699757
15.640306 -1.9073486e-06 -16.748446
15.627141 -1.0418096 -16.79233
15.689256 -2.0919023 -16.585278
15.767971 -3.153594 -16.322893
15.847428 -4.2259808 -16.058043
16.008024 -5.3360114 -15.522717
16.202795 -6.4811163 -14.873482
16.447798 -7.6756392 -14.056802
16.855787 -8.9897528 -12.696842
17.463043 -10.477829 -10.672657
18.618422 8.1455564 -10.700228
18.015549 6.7558322 -12.584204
17.728796 5.5402489 -13.48031
17.488901 4.3722248 -14.229979
17.361065 3.255197 -14.629471
17.274689 2.1593356 -14.899389
17.207378 1.0754604 -15.109736
17.209564 9.5367432e-07 -15.102905
17.218485 -1.0761533 -15.075033
17.262238 -2.1577816 -14.938301
17.394318 -3.2614355 -14.525555
17.535774 -4.383944 -14.083501
17.753674 -5.5480266 -13.402565
18.118944 -6.7946043 -12.261103
18.673246 -8.1695461 -10.528897
19.879904 4.6776237 -10.412491
19.455317 3.433291 -11.661279
19.301432 2.2707539 -12.113877
19.189323 1.1287837 -12.44361
19.168346 2.8610229e-06 -12.505304
19.200031 -1.1294136 -12.412119
19.25131 -2.2648582 -12.261298
19.551821 -3.4503198 -11.377445
19.962013 -4.6969452 -10.170992
