# .PCD v0.7 - Point Cloud Data file format
VERSION 0.7
FIELDS x y z
SIZE 4 4 4
TYPE F F F
COUNT 1 1 1
WIDTH 1056
HEIGHT 1
VIEWPOINT 0 0 0 1 0 0 0
POINTS 1056
DATA ascii
-23.481958 -4.0531158e-06 -7.0881681
-21.71316 7.2377186 -8.5684671
-20.751465 5.764297 -11.239836
-20.368114 4.5262461 -12.304701
-20.121765 3.3536272 -12.989002
-19.973572 2.2192845 -13.400651
-19.899469 1.1055269 -13.606492
-19.850782 -9.5367432e-07 -13.741732
-19.892773 -1.1051545 -13.625093
-19.97929 -2.2199216 -13.384771
-20.117712 -3.3529553 -13.000263
-20.422544 -4.5383434 -12.153505
-20.853735 -5.7927017 -10.955758
-19.884672 9.3574905 -10.398465
-19.199558 7.9056997 -12.413505
-18.786781 6.6306267 -13.627561
-18.542471 5.4536643 -14.346119
-18.33873 4.3149943 -14.945351
-18.197702 3.2113595 -15.360138
-18.099154 2.129312 -15.64999
-18.069029 1.0628819 -15.738598
-18.049355 2.3841858e-06 -15.796455
-18.062586 -1.0625048 -15.757549
-18.127098 -2.1326041 -15.567799
-18.196251 -3.2111053 -15.36441
-18.363106 -4.3207307 -14.873663
-18.556118 -5.4576836 -14.30598
-18.857492 -6.6555839 -13.419586
-19.284628 -7.9407291 -12.163305
-20.092728 -9.4554005 -9.7865362
-19.122187 11.951366 -9.1259604
-18.093475 10.17758 -12.340681
-17.600086 8.8000422 -13.882524
-17.281416 7.560617 -14.878372
-17.036978 6.388865 -15.642242
-16.868704 5.2714682 -16.1681
-16.740482 4.1851201 -16.568787
-16.640724 3.1201363 -16.880537
-16.542196 2.0677724 -17.188429
-16.528868 1.0330534 -17.23008
-16.527012 -1.9073486e-06 -17.235884
-16.531309 -1.0332084 -17.222452
-16.584341 -2.0730429 -17.056732
-16.651808 -3.1222167 -16.845894
-16.753664 -4.1884155 -16.527596
-16.895271 -5.2797699 -16.085079
-17.064022 -6.3990092 -15.55773
-17.327065 -7.5805902 -14.73572
-17.629433 -8.8147144 -13.790819
-18.15984 -10.214912 -12.133298
-17.316521 12.698782 -11.161057
-16.646538 11.097689 -13.39434
-16.242266 9.7453585 -14.741918
-15.943418 8.5031528 -15.738071
-15.722674 7.3372488 -16.473881
-15.567675 6.2270699 -16.990547
-15.41575 5.1385841 -17.496964
-15.313835 4.0836906 -17.836678
-15.255857 3.0511684 -18.029942
-15.198317 2.0264425 -18.221745
-15.171519 1.0114317 -18.311062
-15.159276 -0 -18.351873
-15.147099 -1.0098076 -18.392467
-15.195207 -2.0260262 -18.232107
-15.253302 -3.050663 -18.038454
-15.322438 -4.0859857 -17.808002
-15.442676 -5.1475592 -17.407215
-15.567675 -6.2270699 -16.990551
-15.748371 -7.3492393 -16.388222
-15.962344 -8.5132484 -15.674986
-16.2833 -9.7699823 -14.605128
-16.71455 -11.143035 -13.167632
-17.4513 -12.79762 -10.711794
-15.988649 13.704555 -11.780478
-15.370289 12.076653 -13.98891
-15.006709 10.719075 -15.287405
-14.726297 9.4669037 -16.288881
-14.527159 8.3012333 -17.000088
-14.335341 7.1676707 -17.685148
-14.223158 6.0956378 -18.085804
-14.122669 5.0438075 -18.444693
-14.035604 4.0101724 -18.755638
-13.976131 2.9948845 -18.968044
-13.92116 1.9887362 -19.16437
-13.900844 0.9929142 -19.236927
-13.905605 -1.9073486e-06 -19.219921
-13.910414 -0.99360275 -19.202747
-13.941318 -1.9916182 -19.092373
-13.984504 -2.9966807 -18.938141
-14.037965 -4.0108504 -18.747208
-14.134721 -5.0481138 -18.401655
-14.236551 -6.1013803 -18.037973
-14.378023 -7.1890135 -17.532715
-14.55198 -8.3154182 -16.91144
-14.767033 -9.4930935 -16.143391
-15.059678 -10.756914 -15.098234
-15.42998 -12.123557 -13.775726
-16.089367 -13.790884 -11.420774
-14.841916 14.841914 -11.798507
-14.245391 13.149592 -14.092829
-13.864103 11.731163 -15.559319
-13.607084 10.466985 -16.547857
-13.391919 9.271328 -17.375412
-13.22609 8.1391315 -18.013222
-13.090805 7.0488958 -18.533545
-12.989965 5.9953675 -18.921394
-12.89444 4.9593992 -19.288799
-12.818389 3.9441195 -19.581303
-12.782476 2.9498005 -19.719427
-12.748667 1.9613304 -19.849464
-12.725014 0.9788456 -19.940437
-12.721609 -0 -19.953533
-12.718204 -0.97832394 -19.966619
-12.73842 -1.9597569 -19.888874
-12.781616 -2.9496078 -19.722733
-12.827783 -3.9470081 -19.545174
-12.905538 -4.9636674 -19.246117
-12.995856 -5.9980879 -18.898735
-13.098019 -7.0527782 -18.5058
-13.244974 -8.1507549 -17.94059
-13.397666 -9.2753105 -17.353312
-13.62543 -10.4811 -16.477293
-13.896109 -11.758245 -15.436227
-14.306965 -13.206431 -13.856005
-14.940928 -14.940926 -11.417696
-13.78739 16.085285 -11.435338
-13.161781 14.258595 -14.042043
-12.77934 12.779339 -15.635543
-12.530025 11.485854 -16.67436
-12.312586 10.260488 -17.580355
-12.147715 9.1107864 -18.267319
-12.020183 8.0134535 -18.7987
-11.89827 6.9406538 -19.306675
-11.812778 5.9063888 -19.662886
-11.748847 4.8953505 -19.929268
-11.685568 3.8951864 -20.192932
-11.64905 2.912262 -20.345087
-11.613074 1.9355116 -20.494984
-11.584891 0.96540642 -20.612415
-11.593412 -0 -20.576912
-11.601911 -0.96682739 -20.541504
-11.616288 -1.9360495 -20.481594
-11.65362 -2.9134092 -20.326048
-11.698771 -3.8995914 -20.137918
-11.750849 -4.8961878 -19.920929
-11.828554 -5.9142776 -19.597155
-11.922991 -6.9550786 -19.203669
-12.032054 -8.0213699 -18.749237
-12.174713 -9.1310339 -18.154825
-12.342256 -10.285213 -17.45673
-12.552384 -11.506352 -16.5812
-12.83033 -12.83033 -15.423088
-13.215242 -14.316516 -13.819287
-13.871628 -16.183565 -11.084344
-12.870623 17.550848 -10.379964
-12.159284 15.47545 -13.613325
-11.754653 13.891863 -15.452555
-11.497383 12.542599 -16.621965
-11.276866 11.276865 -17.624313
-11.12288 10.111706 -18.324253
-10.982063 8.985323 -18.964327
-10.86834 7.9042454 -19.481251
-10.777875 6.8586488 -19.892454
-10.705873 5.8395677 -20.219734
-10.644294 4.838315 -20.499641
-10.584431 3.8488827 -20.771746
-10.554012 2.8783655 -20.910017
-10.535731 1.9155874 -20.993109
-10.519546 0.95632267 -21.066681
-10.513953 -9.5367432e-07 -21.092102
-10.522515 -0.95659351 -21.053181
-10.536798 -1.9157848 -20.988262
-10.552974 -2.8780851 -20.914736
-10.596598 -3.8533096 -20.716446
-10.643238 -4.8378372 -20.504442
-10.699695 -5.8361983 -20.247822
-10.786216 -6.8639565 -19.854542
-10.874148 -7.9084744 -19.454845
-10.99086 -8.9925232 -18.924341
-11.129209 -10.117464 -18.295483
-11.304089 -11.304089 -17.500576
-11.520694 -12.568031 -16.516008
-11.807858 -13.954741 -15.210714
-12.20401 -15.532374 -13.410026
-13.070299 -17.823135 -9.4723463
-11.201715 16.802572 -12.87422
-10.775281 15.08539 -15.006395
-10.501484 13.651929 -16.375378
-10.275723 12.330866 -17.504185
-10.117718 11.129489 -18.294207
-9.9804115 9.9804096 -18.980736
-9.8557997 8.8702183 -19.603794
-9.7751818 7.8201432 -20.006887
-9.6970406 6.7879276 -20.397594
-9.6289186 5.7773509 -20.738205
-9.5776806 4.7888393 -20.994392
-9.539299 3.8157196 -21.186304
-9.5063591 2.8519068 -21.351006
-9.4900436 1.8980083 -21.432575
-9.4767694 0.94767761 -21.498947
-9.4642563 -0 -21.561514
-9.4675417 -0.94675541 -21.54509
-9.4883089 -1.8976612 -21.441252
-9.5091677 -2.8527508 -21.33696
-9.536726 -3.8146906 -21.199167
-9.576313 -4.7881556 -21.001232
-9.6350012 -5.7810035 -20.707794
-9.709445 -6.7966132 -20.335569
-9.7883234 -7.8306589 -19.941177
-9.8809156 -8.8928261 -19.478216
-9.9997625 -9.9997635 -18.88398
-10.132466 -11.145711 -18.220467
-10.307845 -12.369415 -17.343571
-10.516515 -13.671472 -16.30022
-10.819839 -15.147775 -14.7836
-11.281981 -16.922976 -12.472891
-10.364408 18.425613 -11.302749
-9.8248606 16.374763 -14.300242
-9.5332737 14.829537 -15.920162
-9.3011312 13.434966 -17.209845
-9.1415825 12.188775 -18.096226
-8.999032 10.998816 -18.888174
-8.8869028 9.8743343 -19.51111
-8.7916288 8.7916279 -20.040415
-8.71628 7.7478042 -20.459019
-8.6442747 6.7233257 -20.859043
-8.5875072 5.7250042 -21.174427
-8.553196 4.7517757 -21.36504
-8.51966 3.7865152 -21.551353
-8.4875298 2.8291731 -21.729858
-8.4637442 1.8808308 -21.861996
-8.4574919 0.93972015 -21.89673
-8.4560099 -0 -21.904961
-8.4580851 -0.93978977 -21.893436
-8.4758558 -1.8835249 -21.794708
-8.4941998 -2.8314009 -21.692797
-8.5147514 -3.7843351 -21.578625
-8.5481224 -4.7489552 -21.393229
-8.5921173 -5.7280755 -21.148808
-8.6535978 -6.7305789 -20.807251
-8.7239456 -7.7546177 -20.416431
-8.7955265 -8.7955284 -20.018757
-8.9016247 -9.8906965 -19.429327
-9.0119114 -11.014559 -18.816622
-9.1613607 -12.215151 -17.986349
-9.3301935 -13.476947 -17.048388
-9.5581274 -14.868197 -15.782089
-9.8819447 -16.46991 -13.983102
-10.459134 -18.594017 -10.776491
-8.9363327 17.872665 -13.030717
-8.5791483 16.085903 -15.263118
-8.3491507 14.611015 -16.7006
-8.1766644 13.28708 -17.778641
-8.0374708 12.056207 -18.648602
-7.9177628 10.886923 -19.39678
-7.8311825 9.7889767 -19.937906
-7.7479439 8.7164364 -20.458145
-7.679698 7.6796961 -20.884689
-7.6321402 6.6781206 -21.181923
-7.585146 5.688858 -21.475636
-7.5444479 4.7152786 -21.729996
-7.5154886 3.7577429 -21.910997
-7.4914117 2.8092794 -22.061474
-7.4739699 1.8684902 -22.170483
-7.4705658 0.93382072 -22.191761
-7.4688535 -0 -22.202463
-7.4675536 -0.93344307 -22.210587
-7.4793768 -1.8698444 -22.136694
-7.4950099 -2.8106308 -22.038984
-7.5107083 -3.7553568 -21.940868
-7.5462174 -4.7163858 -21.718939
-7.5861964 -5.6896462 -21.469069
-7.6303301 -6.676538 -21.193232
-7.6917887 -7.6917901 -20.809116
-7.7551556 -8.7245522 -20.413074
-7.8392901 -9.7991133 -19.887234
-7.9320326 -10.906547 -19.307592
-8.0476208 -12.071432 -18.585165
-8.1879768 -13.305462 -17.707943
-8.379858 -14.664754 -16.508677
-8.6228523 -16.167847 -14.989971
-8.9898777 -17.979755 -12.69606
-8.1284542 19.740526 -10.822412
-7.6570897 17.501919 -14.189297
-7.4040704 15.865866 -15.996578
-7.2289433 14.457886 -17.247484
-7.0849414 13.157745 -18.276073
-6.9722338 11.952398 -19.081125
-6.8777237 10.80785 -19.756199
-6.8018856 9.7169781 -20.297899
-6.7315421 8.6548386 -20.800354
-6.6778255 7.6317997 -21.184042
-6.6366892 6.6366873 -21.477869
-6.5960579 5.6537638 -21.768101
-6.5560536 4.6828957 -22.053844
-6.536365 3.7350626 -22.194473
-6.5212092 2.7948027 -22.302727
-6.5061049 1.8588877 -22.410616
-6.4974542 0.92820454 -22.472406
-6.4955997 -0 -22.485649
-6.4937463 -0.92767811 -22.498894
-6.502274 -1.8577929 -22.437979
-6.5206814 -2.7945766 -22.306503
-6.5392113 -3.7366943 -22.174145
-6.5651288 -4.6893787 -21.989021
-6.5994973 -5.656714 -21.74353
-6.6389785 -6.6389794 -21.461525
-6.6858916 -7.6410203 -21.126425
-6.7409687 -8.6669626 -20.733021
-6.8108306 -9.7297602 -20.234001
-6.8892708 -10.825996 -19.673721
-6.9864402 -11.976752 -18.979652
-7.0997896 -13.185325 -18.170013
-7.2447057 -14.489413 -17.134901
-7.4266486 -15.914247 -15.835308
-7.7024074 -17.605501 -13.8656
-8.2728081 -20.091106 -9.7913103
-6.7942686 19.250427 -12.263889
-6.4799218 17.279791 -14.88345
-6.2752333 15.688086 -16.589184
-6.141139 14.329321 -17.706642
-6.0185022 13.040085 -18.728609
-5.9356022 11.871203 -19.419445
-5.8556828 10.735418 -20.08544
-5.7916818 9.6528025 -20.618782
-5.7425241 8.6137848 -21.028429
-5.6941772 7.5922356 -21.43132
-5.6536312 6.5959039 -21.769203
-5.622354 5.6223536 -22.029844
-5.5977755 4.6648121 -22.234669
-5.5759211 3.7172785 -22.41679
-5.5623322 2.7811642 -22.530025
-5.5487943 1.849596 -22.642849
-5.536099 0.92268181 -22.748638
-5.5399747 -2.8610229e-06 -22.716343
-5.5438714 -0.92398071 -22.68387
-5.5506282 -1.8502102 -22.62756
-5.56214 -2.7810726 -22.531628
-5.5783048 -3.7188711 -22.396923
-5.6006818 -4.6672344 -22.210449
-5.6241717 -5.6241708 -22.014702
-5.6587009 -6.6018167 -21.726955
-5.6974368 -7.5965834 -21.404156
-5.741158 -8.6117373 -21.03981
-5.8002758 -9.6671286 -20.547165
-5.8618155 -10.746662 -20.034334
-5.9455442 -11.891088 -19.336597
-6.0368857 -13.07992 -18.575417
-6.1581388 -14.368989 -17.564978
-6.2981362 -15.745341 -16.398323
-6.498414 -17.329103 -14.729344
-6.8445301 -19.392839 -11.845039
-5.5604463 18.905512 -13.278337
-5.3414812 17.092739 -15.467983
-5.1943173 15.582949 -16.939627
-5.0802126 14.224592 -18.080673
-4.9913669 12.977553 -18.969124
-4.9192829 11.806278 -19.689968
-4.8539467 10.678682 -20.343332
-4.8041959 9.6083908 -20.840839
-4.7635074 8.5743103 -21.247725
-4.7235017 7.557601 -21.647778
-4.6889815 6.5645723 -21.992981
-4.6674376 5.6009226 -22.20842
-4.6468825 4.6468801 -22.413971
-4.6267338 3.7013845 -22.615458
-4.6134953 2.768096 -22.747845
-4.6060472 1.8424177 -22.822325
-4.6008582 0.92016983 -22.874214
-4.5990305 1.9073486e-06 -22.89249
-4.602253 -0.92045307 -22.860266
-4.6082764 -1.8433113 -22.800032
-4.6156392 -2.7693825 -22.726406
-4.6268268 -3.7014637 -22.614527
-4.6457019 -4.6457043 -22.425776
-4.666923 -5.6003084 -22.213566
-4.6945624 -6.5723886 -21.937168
-4.7278738 -7.5645986 -21.604061
-4.7640572 -8.575305 -21.242222
-4.8109756 -9.6219521 -20.773041
-4.8604417 -10.692973 -20.278381
-4.9257579 -11.821817 -19.625217
-4.9949927 -12.98698 -18.932871
-5.091948 -14.257452 -17.96332
-5.2047338 -15.614201 -16.835459
-5.3575759 -17.144247 -15.307034
-5.5982857 -19.034174 -12.89994
-4.7586164 21.413774 -9.4000912
-4.4037399 18.715891 -13.836051
-4.2372336 16.948933 -15.917374
-4.1278048 15.479268 -17.285233
-4.0425243 14.148833 -18.351242
-3.9747107 12.917809 -19.19891
-3.9146743 11.744022 -19.949364
-3.8713741 10.646276 -20.49062
-3.8294542 9.5736332 -21.014622
-3.7939479 8.5363827 -21.45845
-3.7663198 7.5326376 -21.803802
-3.7422323 6.5489054 -22.104893
-3.7216005 5.5824013 -22.362787
-3.7049453 4.6311808 -22.570984
-3.6891251 3.6891241 -22.768732
-3.6793401 2.7595034 -22.891045
-3.6749182 1.8374557 -22.94632
-3.6709671 0.91773987 -22.995705
-3.6689689 -0 -23.020687
-3.6677876 -0.91694736 -23.035452
-3.6729259 -1.836463 -22.971224
-3.6814866 -2.7611179 -22.864212
-3.6914313 -3.691433 -22.739906
-3.7067482 -4.6334362 -22.548445
-3.7236354 -5.5854535 -22.337355
-3.7447906 -6.5533853 -22.072914
-3.7698157 -7.5396304 -21.760098
-3.7996254 -8.5491543 -21.387482
-3.8342676 -9.5856705 -20.954453
-3.8750918 -10.656502 -20.444151
-3.9249392 -11.774818 -19.821058
-3.9804871 -12.936586 -19.126707
-4.0487671 -14.170686 -18.273205
-4.1359482 -15.509803 -17.183447
-4.2515922 -17.006367 -15.737894
-4.4216185 -18.791878 -13.612564
-3.4971249 20.982748 -10.597385
-3.278935 18.580633 -14.233878
-3.1634829 16.87191 -16.158081
-3.0819786 15.409891 -17.516485
-3.0216358 14.100965 -18.522202
-2.9702206 12.870954 -19.379122
-2.9274151 11.709661 -20.092545
-2.8953977 10.616457 -20.626167
-2.8640647 9.5468826 -21.148384
-2.8367991 8.5103979 -21.60281
-2.818193 7.5151801 -21.912914
-2.7999916 6.5333138 -22.21627
-2.782232 5.5644646 -22.512259
-2.7712038 4.6186724 -22.696068
-2.762948 3.6839275 -22.833664
-2.7553942 2.7553921 -22.95956
-2.7487888 1.8325253 -23.069649
-2.7459743 0.91532421 -23.116562
-2.7444835 -1.9073486e-06 -23.141405
-2.7455838 -0.91519356 -23.123066
-2.7495167 -1.8330126 -23.057518
-2.756094 -2.7560968 -22.947895
-2.7638261 -3.6851034 -22.819029
-2.7731299 -4.6218843 -22.663961
-2.7853384 -5.5706787 -22.460487
-2.8016491 -6.5371819 -22.188644
-2.8181517 -7.5150709 -21.913601
-2.8410649 -8.5231962 -21.531715
-2.8663263 -9.5544224 -21.110687
-2.8964314 -10.62025 -20.608938
-2.9331427 -11.732572 -19.997087
-2.9740541 -12.887568 -19.315228
-3.0241346 -14.112627 -18.480556
-3.0888512 -15.444255 -17.401943
-3.1709948 -16.911972 -16.032885
-3.2916119 -18.65247 -14.022594
-3.5554512 -21.332706 -9.6252728
-2.298399 20.685591 -11.422823
-2.1712165 18.455338 -14.602386
-2.1019154 16.815323 -16.334908
-2.050457 15.378426 -17.621376
-2.0084774 14.059341 -18.67086
-1.9761225 12.844793 -19.479734
-1.9493051 11.695829 -20.150169
-1.9254438 10.589938 -20.746704
-1.9059898 9.5299482 -21.233055
-1.8897946 8.504076 -21.637928
-1.8755925 7.5023699 -21.992981
-1.8633969 6.5218849 -22.297873
-1.8521688 5.5565062 -22.578579
-1.8448693 4.6121693 -22.761068
-1.8393809 3.6787596 -22.898275
-1.8343745 2.7515593 -23.023432
-1.8297127 1.8297119 -23.139977
-1.8270639 0.9135313 -23.206194
-1.8279772 -0 -23.183367
-1.8288965 -0.91444874 -23.160383
-1.8309879 -1.8309908 -23.108099
-1.8340559 -2.7510834 -23.031403
-1.8393967 -3.6787939 -22.897882
-1.845578 -4.6139431 -22.743347
-1.8526912 -5.5580759 -22.565517
-1.8643684 -6.5252905 -22.273584
-1.8761885 -7.5047531 -21.978086
-1.891094 -8.5099211 -21.60545
-1.9081255 -9.5406284 -21.179657
-1.9264234 -10.595331 -20.722212
-1.9503504 -11.702104 -20.124035
-1.9781387 -12.857902 -19.429329
-2.0116222 -14.081358 -18.592237
-2.0538132 -15.403601 -17.537464
-2.1077731 -16.862185 -16.188469
-2.1814227 -18.542095 -14.347226
-2.3328867 -20.995983 -10.560619
-1.1481949 20.667509 -11.473049
-1.0854142 18.45204 -14.612086
-1.049248 16.787968 -16.420399
-1.0240932 15.361393 -17.678141
-1.0028056 14.039276 -18.742519
-0.98727924 12.834629 -19.518837
-0.97386795 11.686415 -20.189398
-0.96100563 10.571062 -20.832514
-0.9523688 9.5236874 -21.264357
-0.9442541 8.4982891 -21.670088
-0.9363066 7.4904518 -22.067469
-0.93052661 6.5136843 -22.356468
-0.92537338 5.5522404 -22.614128
-0.92166054 4.6083031 -22.799768
-0.91839916 3.6735954 -22.962841
-0.91591084 2.7477322 -23.08725
-0.9141885 1.8283749 -23.17337
-0.91316903 0.91316509 -23.224342
-0.91324425 -9.5367432e-07 -23.220585
-0.91370571 -0.91370678 -23.197512
-0.91479135 -1.8295832 -23.143227
-0.91587698 -2.747632 -23.088947
-0.91877413 -3.6750965 -22.94409
-0.92253244 -4.6126623 -22.756176
-0.92659628 -5.5595775 -22.552982
-0.93184149 -6.522891 -22.290728
-0.9377498 -7.5020013 -21.995304
-0.94507766 -8.5056992 -21.628914
-0.95340139 -9.5340147 -21.212727
-0.96252608 -10.587786 -20.756493
-0.97436631 -11.692393 -20.164484
-0.98785806 -12.842156 -19.489895
-1.0050195 -14.070273 -18.631819
-1.0257807 -15.38671 -17.59376
-1.0520227 -16.832365 -16.281658
-1.0897844 -18.526335 -14.393579
-1.1624241 -20.923634 -10.761591
0 20.688248 -11.415438
0 18.473783 -14.548133
0 16.799469 -16.384453
0 15.359 -17.686127
0 14.053771 -18.690752
0 12.83321 -19.524284
0 11.684153 -20.198826
0 10.58573 -20.765848
0 9.5253496 -21.256042
0 8.4989109 -21.666626
0 7.4924345 -22.055069
0 6.5152111 -22.345566
0 5.5533876 -22.604546
0 4.6087246 -22.795547
0 3.6733027 -22.966509
0 2.747818 -23.085817
0 1.8282261 -23.177135
0 0.91300201 -23.232632
0 -9.5367432e-07 -23.240013
0 -0.91300583 -23.232634
0 -1.8289385 -23.15934
0 -2.7482405 -23.078777
0 -3.6762753 -22.929398
0 -4.6137199 -22.745594
0 -5.5616608 -22.535635
0 -6.5222301 -22.295444
0 -7.5011005 -22.000906
0 -8.5048504 -21.633631
0 -9.5274677 -21.245466
0 -10.592447 -20.735325
0 -11.691441 -20.168465
0 -12.849491 -19.461678
0 -14.07445 -18.616903
0 -15.384552 -17.600952
0 -16.843706 -16.246212
0 -18.520754 -14.409996
0 -20.920536 -10.770199
1.1561891 20.811403 -11.073339
1.0898656 18.52771 -14.389524
1.0520606 16.832966 -16.279768
1.0250618 15.375929 -17.629702
1.0054277 14.075987 -18.611408
0.98870474 12.853161 -19.447557
0.97421294 11.690556 -20.17215
0.96367317 10.600405 -20.699137
0.95335907 9.5335884 -21.214848
0.94455898 8.50103 -21.65485
0.93748486 7.499877 -22.008556
0.93153673 6.5207548 -22.305962
0.92650294 5.5590172 -22.557648
0.9225536 4.6127663 -22.755119
0.91927016 3.6770792 -22.919292
0.91685283 2.750556 -23.040155
0.91514778 1.8302937 -23.125408
0.91403532 0.9140358 -23.18103
0.91385365 -2.8610229e-06 -23.190117
0.91398084 -0.91398144 -23.183758
0.91531694 -1.8306351 -23.116951
0.91670662 -2.7501192 -23.047466
0.91954327 -3.678175 -22.905632
0.92296624 -4.6148329 -22.73448
0.92729312 -5.5637574 -22.518141
0.93220586 -6.5254402 -22.272503
0.93801224 -7.5040984 -21.982185
0.94555807 -8.5100241 -21.604893
0.95390725 -9.539072 -21.187437
0.96398777 -10.603868 -20.683405
0.97553295 -11.706396 -20.106148
0.98978728 -12.867236 -19.393433
1.0067079 -14.093909 -18.547405
1.0275788 -15.413684 -17.503855
1.0545254 -16.872406 -16.156527
1.0936283 -18.591682 -14.201381
1.165282 -20.975077 -10.618696
2.3524547 21.172089 -10.071427
2.1895931 18.61154 -14.142969
2.1135175 16.90814 -16.044855
2.0575621 15.431714 -17.443743
2.0163424 14.114394 -18.474239
1.9826356 12.887131 -19.316904
1.9544131 11.726477 -20.022469
1.9316498 10.624073 -20.591553
1.9106745 9.5533714 -21.115932
1.8934137 8.520359 -21.547459
1.8789872 7.5159483 -21.908115
1.8667098 6.5334854 -22.215054
1.8564477 5.5693407 -22.471603
1.8482596 4.6206465 -22.676308
1.8414541 3.682909 -22.846437
1.8365939 2.7548885 -22.967949
1.8330632 1.8330612 -23.05621
1.8306704 0.91533279 -23.116039
1.8302538 9.5367432e-07 -23.12645
1.8306442 -0.9153223 -23.116688
1.8336743 -1.8336763 -23.040937
1.836746 -2.7551212 -22.964149
1.8425192 -3.6850405 -22.81982
1.8494705 -4.6236773 -22.646034
1.8571227 -5.5713701 -22.454731
1.8676794 -6.5368772 -22.190815
1.8803101 -7.5212417 -21.875042
1.8940266 -8.523119 -21.532131
1.9121275 -9.5606384 -21.079607
1.9313599 -10.62248 -20.598799
1.9558978 -11.735388 -19.98535
1.9846284 -12.900085 -19.267084
2.0192394 -14.134676 -18.401812
2.0620246 -15.465184 -17.332182
2.1185262 -16.948212 -15.919638
2.1985381 -18.687574 -13.919344
2.379493 -21.415436 -9.3954754
3.6381421 21.828854 -8.2470932
3.3135505 18.776781 -13.656956
3.1890416 17.008221 -15.732102
3.1016419 15.508212 -17.188759
3.0383241 14.178844 -18.244062
2.9831884 12.927149 -19.162987
2.9433186 11.773273 -19.827486
2.904675 10.650475 -20.471544
2.875067 9.5835552 -20.965014
2.8509054 8.5527153 -21.367706
2.8271384 7.5390329 -21.763824
2.8074903 6.5508089 -22.091293
2.79246 5.584919 -22.341797
2.7794209 4.6323671 -22.559114
2.7697411 3.6929884 -22.720448
2.76196 2.7619581 -22.85013
2.7570071 1.8380041 -22.932678
2.7535002 0.91783142 -22.991127
2.7529037 -2.8610229e-06 -23.001072
2.7533667 -0.91778755 -22.993351
2.7574244 -1.8382845 -22.925724
2.7619286 -2.7619286 -22.850655
2.7720392 -3.6960545 -22.682144
2.7829218 -4.6382027 -22.500767
2.7942946 -5.5885906 -22.311222
2.8088217 -6.5539188 -22.069099
2.8282897 -7.5421057 -21.744637
2.8505352 -8.5516043 -21.373878
2.8762574 -9.5875282 -20.945171
2.9078417 -10.662088 -20.418764
2.944243 -11.776973 -19.81208
2.9886644 -12.950881 -19.071718
3.0409367 -14.191037 -18.200518
3.1125813 -15.562905 -17.006443
3.1972685 -17.052101 -15.594988
3.327827 -18.857689 -13.419011
4.4761057 19.023447 -12.931477
4.2900319 17.160124 -15.257402
4.1653094 15.619908 -16.816429
4.0756736 14.264856 -17.93688
3.9999549 12.999851 -18.88336
3.9430928 11.829276 -19.594135
3.8902686 10.698238 -20.254438
3.8489184 9.6222973 -20.771315
3.8164434 8.5869951 -21.177254
3.7845118 7.5690212 -21.576405
3.7563732 6.5736523 -21.928127
3.7364538 5.604681 -22.177124
3.7185047 4.6481314 -22.401485
3.7053716 3.7053709 -22.565647
3.6942279 2.770669 -22.704948
3.6874132 1.8437052 -22.790133
3.6823606 0.92058945 -22.853287
3.681834 -9.5367432e-07 -22.859871
3.6819708 -0.92049313 -22.85816
3.6884379 -1.8442221 -22.777325
3.6949277 -2.7711964 -22.696198
3.7079334 -3.7079344 -22.53363
3.7222462 -4.6528082 -22.354717
3.7384067 -5.6076117 -22.152712
3.7594011 -6.5789528 -21.890284
3.7857025 -7.5714059 -21.561514
3.8174846 -8.5893421 -21.164238
3.8512676 -9.6281681 -20.741951
3.894105 -10.708788 -20.206484
3.9451714 -11.835512 -19.568153
4.0033755 -13.010972 -18.840599
4.0801558 -14.280546 -17.880848
4.1795092 -15.67316 -16.638933
4.3040166 -17.216066 -15.082586
4.5050855 -19.146614 -12.569232
5.7077208 19.40625 -11.805591
5.4229007 17.353283 -14.653787
5.2561274 15.76838 -16.321522
5.127841 14.357954 -17.604385
5.0368323 13.095762 -18.514473
4.9554133 11.89299 -19.328659
4.8910227 10.760249 -19.972567
4.8396254 9.6792507 -20.486542
4.7911358 8.6240435 -20.971434
4.7512426 7.6019855 -21.370373
4.7176166 6.6046624 -21.706631
4.6919346 5.6303205 -21.963451
4.6684127 4.6684122 -22.198671
4.6523104 3.7218456 -22.359694
4.6373878 2.7824326 -22.508921
4.6293297 1.8517303 -22.5895
4.6227994 0.92455673 -22.654804
4.6223345 -9.5367432e-07 -22.659451
4.623105 -0.92462158 -22.651749
4.6303153 -1.8521271 -22.579643
4.6390991 -2.7834606 -22.49181
4.6538038 -3.7230434 -22.344759
4.6706753 -4.6706772 -22.176041
4.6934671 -5.6321602 -21.948124
4.7209244 -6.6092963 -21.673552
4.7570014 -7.6112013 -21.312782
4.7972641 -8.6350746 -20.910158
4.8378792 -9.6757584 -20.504004
4.8952184 -10.769482 -19.930611
4.9605618 -11.90535 -19.27718
5.0394506 -13.102571 -18.488291
5.1389441 -14.389042 -17.493355
5.269053 -15.807159 -16.192263
5.4383144 -17.402605 -14.499655
5.7595091 -19.582329 -11.287704
7.0669212 20.022942 -9.991786
6.615386 17.641029 -13.754579
6.3777881 15.944468 -15.734561
6.2156839 14.503263 -17.085428
6.0938306 13.2033 -18.100874
5.9933209 11.986639 -18.938454
5.9085402 10.832323 -19.64496
5.8460917 9.7434855 -20.165367
5.7849321 8.6773949 -20.675032
5.7340999 7.6454668 -21.098629
5.6938415 6.6428146 -21.434116
5.6604924 5.6604919 -21.712025
5.6316681 4.6930571 -21.952232
5.6115704 3.741044 -22.119709
5.5935912 2.7967958 -22.269531
5.5833211 1.861105 -22.355122
5.5746489 0.92910767 -22.427387
5.57444 -9.5367432e-07 -22.429131
5.5751162 -0.92918491 -22.423496
5.5843058 -1.8614368 -22.346914
5.5951638 -2.7975826 -22.256433
5.6126466 -3.741766 -22.110739
5.635119 -4.6959314 -21.92347
5.6629658 -5.6629653 -21.691414
5.697084 -6.6465998 -21.407097
5.7385306 -7.6513739 -21.061707
5.7873764 -8.6810646 -20.654659
5.8442869 -9.7404785 -20.180403
5.9135885 -10.84158 -19.60289
5.9984231 -11.996846 -18.895941
6.103056 -13.223291 -18.023991
6.2258449 -14.526973 -17.000757
6.3945584 -15.986396 -15.594811
6.6394968 -17.705324 -13.553651
7.8838162 18.020151 -12.56982
7.5591478 16.198172 -14.888887
7.3372245 14.674449 -16.474049
7.1861682 13.345739 -17.553024
7.0564461 12.096765 -18.479607
6.9578705 10.933794 -19.18372
6.8705707 9.8150988 -19.807293
6.7981706 8.7405033 -20.324436
6.7439151 7.7073326 -20.711975
6.6914921 6.691493 -21.086424
6.6477356 5.6980572 -21.398975
6.6148639 4.7249022 -21.633766
6.5877829 3.7644453 -21.827209
6.5680189 2.8148632 -21.968376
6.5537834 1.8725061 -22.070057
6.5455008 0.93507099 -22.129221
6.5431051 -9.5367432e-07 -22.14633
6.5462422 -0.93517685 -22.123922
6.5544324 -1.872695 -22.065426
6.569839 -2.8156462 -21.955378
6.5895748 -3.7654734 -21.814404
6.6171761 -4.7265573 -21.617254
6.6494226 -5.6995063 -21.386921
6.6904187 -6.6904192 -21.09409
6.7659926 -7.7325621 -20.554279
6.8432512 -8.7984676 -20.002432
6.9223156 -9.8890247 -19.437683
7.0030327 -11.004767 -18.861132
7.0856323 -12.146799 -18.271137
7.1901817 -13.353196 -17.524353
7.3557434 -14.711488 -16.341772
7.5713167 -16.224251 -14.801964
7.9299951 -18.125706 -12.23997
9.3726521 18.745304 -10.303722
8.7993813 16.49884 -13.886659
8.5169954 14.904739 -15.651578
8.318614 13.517745 -16.891459
8.1509848 12.226478 -17.939137
8.0324812 11.044661 -18.67979
7.9288082 9.9110126 -19.327744
7.8344474 8.8137531 -19.917503
7.7726917 7.7726908 -20.303471
7.712018 6.7480159 -20.682686
7.6542854 5.7407136 -21.04351
7.6170568 4.7606592 -21.276188
7.5837383 3.7918692 -21.484432
7.5611544 2.8354321 -21.625582
7.5434313 1.8858566 -21.736351
7.5341158 0.94176197 -21.794571
7.5311852 -0 -21.812889
7.5353947 -0.94192505 -21.786579
7.5473013 -1.8868265 -21.712164
7.5663986 -2.8373985 -21.592804
7.5861292 -3.7930641 -21.469488
7.6175976 -4.7610002 -21.272814
7.6932364 -5.7699294 -20.800068
7.7806315 -6.8080544 -20.253851
7.8700581 -7.8700581 -19.694929
7.9615407 -8.9567356 -19.123167
8.0550737 -10.068841 -18.538586
8.1508055 -11.207357 -17.940266
8.2487335 -12.373101 -17.328217
8.3492327 -13.567505 -16.700092
8.5390005 -14.943251 -15.514046
8.842782 -16.580215 -13.615413
9.5596733 -19.11935 -9.1348324
10.180872 16.968117 -12.322398
9.7689581 15.196154 -14.610807
9.508831 13.734978 -16.05596
9.3022661 12.403021 -17.203537
9.1514034 11.185045 -18.04167
9.0206957 10.022993 -18.767817
8.9169159 8.9169149 -19.344372
8.8307362 7.8495421 -19.823151
8.7562008 6.8103762 -20.237238
8.6945372 5.7963557 -20.579811
8.6454105 4.8030043 -20.852737
8.6077452 3.8256636 -21.061991
8.5794687 2.8598213 -21.219082
8.5575171 1.9016705 -21.341034
8.5467358 0.94963837 -21.400936
8.5406113 -0 -21.434956
8.5474911 -0.94972324 -21.396732
8.5590353 -1.9020071 -21.332603
8.5836897 -2.8612299 -21.195633
8.6114044 -3.8272924 -21.04166
8.7085485 -4.8380809 -20.501968
8.8079643 -5.8719749 -19.949661
8.9098396 -6.9298735 -19.383686
9.0140991 -8.0125322 -18.804464
9.1207991 -9.1207991 -18.211693
9.2298489 -10.255389 -17.605856
9.341629 -11.417549 -16.984858
9.4560261 -12.608033 -16.349319
9.5734491 -13.828314 -15.696968
9.8188648 -15.27379 -14.333548
10.276922 -17.128204 -11.788782
11.188436 15.663807 -12.940621
10.770737 14.001957 -15.029112
10.505117 12.60614 -16.35721
10.319877 11.351862 -17.283413
10.157795 10.157793 -18.093819
10.028774 9.0258961 -18.738924
9.9312572 7.9450049 -19.226509
9.835619 6.8849335 -19.7047
9.7661648 5.8596978 -20.051975
9.7063999 4.8531985 -20.350796
9.6631203 3.8652477 -20.567196
9.6278238 2.8883457 -20.743679
9.6055813 1.921114 -20.854889
9.591239 0.95912457 -20.926598
9.5873823 -1.9073486e-06 -20.945889
9.5916681 -0.95916748 -20.924458
9.6062126 -1.9212427 -20.851734
9.6269302 -2.8880806 -20.748142
9.7365294 -3.8946147 -20.20015
9.8483505 -4.9241757 -19.641041
9.9628935 -5.9777374 -19.068329
10.080195 -7.0561399 -18.481819
10.200325 -8.1602612 -17.881172
10.323385 -9.2910461 -17.265867
10.44901 -10.449009 -16.637747
10.578009 -11.63581 -15.992753
10.710052 -12.852066 -15.332531
10.845582 -14.099257 -14.654885
11.232367 -15.725313 -12.720963
12.937082 16.465378 -10.07787
12.19808 14.415912 -13.436975
11.818146 12.892523 -15.163948
11.550162 11.550163 -16.382057
11.359113 10.326468 -17.250465
11.203349 9.1663761 -17.958487
11.075345 8.0547943 -18.540319
10.963902 6.9770274 -19.046883
10.888397 5.9391246 -19.390083
10.815974 4.9163518 -19.719278
10.752569 3.9100246 -20.007481
10.712581 2.9216099 -20.189247
10.684096 1.942564 -20.318718
10.667806 0.9698019 -20.392769
10.664978 -9.5367432e-07 -20.405624
10.669092 -0.96991825 -20.386925
10.685644 -1.9428453 -20.311686
10.777153 -2.9392242 -19.895737
10.90181 -3.9642968 -19.329117
11.029349 -5.0133405 -18.749393
11.160154 -6.087358 -18.154825
11.293991 -7.1870861 -17.546474
11.431114 -8.3135395 -16.923189
11.571304 -9.4674301 -16.285957
11.715055 -10.650051 -15.632551
11.86254 -11.862541 -14.962161
12.013623 -13.10577 -14.27542
12.242755 -14.468711 -13.233911
13.198754 -16.798412 -8.8884583
14.040321 15.210347 -10.381455
13.319021 13.319018 -13.386877
12.925966 11.848802 -15.024604
12.657207 10.547673 -16.144432
12.439898 9.3299227 -17.049889
12.275095 8.1833954 -17.736568
12.146339 7.0853648 -18.273046
12.051918 6.0259566 -18.666473
11.972076 4.9883623 -18.999146
11.901826 3.9672737 -19.291853
11.858556 2.9646406 -19.472149
11.820517 1.9700842 -19.630646
11.796758 0.98306465 -19.729637
11.787971 -4.7683716e-06 -19.766247
11.795857 -0.98298931 -19.733389
11.830873 -1.9718094 -19.587492
11.968848 -2.9922123 -19.012596
12.109927 -4.0366416 -18.424767
12.25414 -5.1058922 -17.823881
12.402146 -6.2010741 -17.20719
12.553731 -7.323009 -16.575588
12.709066 -8.4727116 -15.928358
12.867566 -9.6506767 -15.267941
13.030771 -10.858975 -14.587915
13.198125 -12.098283 -13.890608
13.369741 -13.369741 -13.175539
14.193007 -15.375758 -9.7452679
15.28565 14.109828 -10.091838
14.480678 12.252878 -13.187881
14.096217 10.843245 -14.666575
13.794348 9.5499306 -15.827614
13.600096 8.3692894 -16.574739
13.411754 7.2217107 -17.299128
13.292061 6.1347971 -17.759483
13.185822 5.0714684 -18.168095
13.103311 4.0317869 -18.485447
13.041633 3.0096083 -18.722668
13.003449 2.0005302 -18.869532
12.979648 0.99843407 -18.961077
12.970151 9.5367432e-07 -18.997601
12.982024 -0.99861622 -18.951935
13.04932 -2.0075865 -18.6931
13.204175 -3.0471177 -18.097511
13.362535 -4.1115522 -17.48843
13.524958 -5.2019095 -16.863724
13.691422 -6.3191171 -16.223475
13.861991 -7.4641495 -15.567445
14.03691 -8.6380987 -14.894682
14.215284 -9.8413544 -14.208625
14.399143 -11.076263 -13.501474
14.587821 -12.343538 -12.775792
15.402418 -14.217619 -9.6427269
15.80386 11.288473 -12.44044
15.36248 9.8758793 -14.016796
15.058923 8.6050968 -15.100931
14.828025 7.4140115 -15.925565
14.653974 6.280273 -16.547176
14.520838 5.1860132 -17.022659
14.404732 4.1156363 -17.437332
14.341045 3.0730777 -17.664778
14.285662 2.0408068 -17.862576
14.243301 1.0173779 -18.013865
14.234302 -1.9073486e-06 -18.046009
14.246183 -1.0175838 -18.003572
14.3128 -2.0446873 -17.765656
14.486057 -3.1041565 -17.146877
14.662796 -4.1893721 -16.515665
14.844489 -5.3016014 -15.866766
15.03074 -6.4417477 -15.201582
15.221672 -7.6108398 -14.519679
15.41736 -8.8099184 -13.820794
15.61728 -10.039681 -13.106797
15.839639 -11.314027 -12.312654
17.388628 10.433176 -10.920701
16.788666 8.9539537 -12.920583
16.437494 7.6708302 -14.091149
16.163029 6.4652104 -15.006031
15.965141 5.3217111 -15.665659
15.837706 4.2233877 -16.090446
15.736873 3.1473746 -16.426556
15.663039 2.0884066 -16.672667
15.621073 1.0414042 -16.812555
15.614554 -1.9073486e-06 -16.83428
15.624056 -1.041604 -16.802614
15.664513 -2.0886011 -16.667753
15.816222 -3.1632447 -16.162054
16.013334 -4.2702227 -15.505016
16.215639 -5.4052153 -14.830663
16.423067 -6.5692282 -14.139248
16.635923 -7.7634335 -13.429715
16.853313 -8.9884329 -12.70508
17.457991 -10.474794 -10.689497
18.62866 8.1500397 -10.668233
18.028038 6.7605152 -12.545176
17.707153 5.5334854 -13.547945
17.488487 4.3721204 -14.231279
17.349773 3.2530808 -14.664753
17.247149 2.15589 -14.98546
17.18762 1.0742226 -15.171482
17.1607 -0 -15.255613
17.193361 -1.0745831 -15.153546
17.263281 -2.1579099 -14.935045
17.368559 -3.2566066 -14.606048
17.504776 -4.3761964 -14.180372
17.724401 -5.5388746 -13.494043
18.05579 -6.7709227 -12.458454
18.659376 -8.163476 -10.572249
19.778568 4.6537771 -10.710533
19.4585 3.4338512 -11.651917
19.236418 2.2631083 -12.305098
19.131214 1.1253653 -12.614521
19.116508 -2.3841858e-06 -12.657777
19.129072 -1.1252398 -12.620818
19.275116 -2.2676616 -12.191279
19.478727 -3.4374244 -11.592421
19.941422 -4.6920986 -10.231553
