# .PCD v0.7 - Point Cloud Data file format
VERSION 0.7
FIELDS x y z
SIZE 4 4 4
TYPE F F F
COUNT 1 1 1
WIDTH 1059
HEIGHT 1
VIEWPOINT 0 0 0 1 0 0 0
POINTS 1059
DATA ascii
-22.986219 -1.4305115e-06 -8.392746
-23.399916 -1.2315736 -7.3040695
-21.803303 7.2677641 -8.3180714
-20.771406 5.7698336 -11.184444
-20.357521 4.5238934 -12.334126
-20.108006 3.3513327 -13.027224
-19.989908 2.2211008 -13.355276
-19.874346 1.1041307 -13.676279
-19.846973 -3.8146973e-06 -13.752316
-19.912809 -1.1062698 -13.569439
-19.98184 -2.2202053 -13.377689
-20.104935 -3.3508229 -13.035755
-20.420746 -4.5379457 -12.158504
-20.846304 -5.7906413 -10.976395
-19.889009 9.3595314 -10.38571
-19.196461 7.9044247 -12.422618
-18.812038 6.6395411 -13.553272
-18.49777 5.4405217 -14.477587
-18.346048 4.3167148 -14.92383
-18.207273 3.2130466 -15.331998
-18.10742 2.1302834 -15.625677
-18.062048 1.0624704 -15.759127
-18.050844 -4.7683716e-07 -15.79208
-18.060497 -1.0623832 -15.763685
-18.114975 -2.1311717 -15.603458
-18.228626 -3.2168159 -15.26919
-18.343649 -4.3161521 -14.930884
-18.544985 -5.4544096 -14.338722
-18.839893 -6.6493769 -13.471346
-19.285172 -7.9409552 -12.161705
-20.087418 -9.4529028 -9.8021584
-19.039251 11.899531 -9.3851366
-18.094557 10.178187 -12.337305
-17.571798 8.7858973 -13.970926
-17.288378 7.5636663 -14.856617
-17.039347 6.3897533 -15.634841
-16.87578 5.2736797 -16.145985
-16.718199 4.1795492 -16.638426
-16.62874 3.1178875 -16.917988
-16.579535 2.0724421 -17.071754
-16.530621 1.033165 -17.224609
-16.515457 -1.9073486e-06 -17.271996
-16.541348 -1.0338354 -17.191086
-16.581938 -2.0727415 -17.064243
-16.628365 -3.1178164 -16.919161
-16.747345 -4.1868362 -16.547348
-16.900093 -5.2812805 -16.07
-17.069847 -6.4011941 -15.53952
-17.307089 -7.5718527 -14.798148
-17.622253 -8.8111286 -13.813255
-18.134832 -10.200844 -12.211445
-17.344894 12.719587 -11.066487
-16.654175 11.102782 -13.368876
-16.224686 9.7348108 -14.800507
-15.949739 8.506525 -15.717003
-15.717812 7.3349771 -16.490093
-15.555333 6.2221317 -17.031683
-15.423088 5.1410279 -17.472504
-15.328131 4.0875006 -17.789026
-15.253061 3.050611 -18.039259
-15.178771 2.0238342 -18.286892
-15.160942 1.0107279 -18.346325
-15.162275 -0 -18.341877
-15.16361 -1.0109072 -18.337433
-15.185837 -2.0247784 -18.263338
-15.265603 -3.0531225 -17.997456
-15.347673 -4.0927153 -17.723888
-15.43369 -5.1445632 -17.437166
-15.566218 -6.2264886 -16.995399
-15.761896 -7.3555498 -16.343143
-15.982002 -8.523736 -15.609458
-16.294127 -9.776475 -14.569039
-16.680302 -11.120201 -13.281793
-17.509533 -12.840326 -10.517682
-16.00205 13.716045 -11.732611
-15.377213 12.082094 -13.964181
-15.002212 10.715862 -15.303467
-14.737423 9.4740553 -16.249142
-14.510456 8.2916889 -17.059738
-14.358459 7.1792278 -17.602589
-14.223248 6.0956774 -18.08548
-14.113556 5.0405555 -18.477242
-14.036959 4.0105586 -18.750797
-13.975004 2.9946442 -18.972069
-13.934721 1.990674 -19.115934
-13.910844 0.99363041 -19.201214
-13.896599 -0 -19.252087
-13.907408 -0.99338627 -19.21348
-13.946152 -1.9923086 -19.075111
-13.985068 -2.9967995 -18.936125
-14.030446 -4.0086994 -18.774057
-14.12816 -5.0457697 -18.425081
-14.243841 -6.1045036 -18.011934
-14.373208 -7.1866031 -17.549915
-14.548314 -8.3133268 -16.924532
-14.736508 -9.4734669 -16.252411
-15.049165 -10.749405 -15.135778
-15.450138 -12.139397 -13.703731
-16.10714 -13.806124 -11.357299
-14.805571 14.805569 -11.938295
-14.234921 13.139926 -14.133099
-13.864243 11.731283 -15.558787
-13.597797 10.459843 -16.583578
-13.391233 9.270853 -17.378052
-13.226759 8.1395435 -18.010645
-13.090928 7.0489602 -18.533072
-12.979608 5.9905877 -18.961229
-12.902313 4.9624295 -19.258512
-12.827036 3.9467778 -19.548046
-12.767886 2.946434 -19.775541
-12.747346 1.9611273 -19.854542
-12.72784 0.97906303 -19.929565
-12.710554 -0 -19.996046
-12.722654 -0.97866631 -19.949511
-12.751698 -1.9617996 -19.837807
-12.786813 -2.9508018 -19.702747
-12.837623 -3.9500389 -19.507324
-12.905816 -4.963779 -19.245043
-13.001105 -6.0005102 -18.878544
-13.104747 -7.0564013 -18.479921
-13.231193 -8.142271 -17.993593
-13.419756 -9.2905998 -17.268353
-13.633822 -10.487555 -16.445019
-13.904975 -11.76575 -15.402122
-14.273726 -13.175748 -13.983851
-14.908449 -14.908452 -11.542604
-13.789753 16.088041 -11.425493
-13.152906 14.248979 -14.079025
-12.795981 12.795979 -15.566213
-12.523442 11.479822 -16.701788
-12.317181 10.264318 -17.561209
-12.148861 9.1116447 -18.262543
-12.019023 8.0126801 -18.803535
-11.900469 6.9419379 -19.297506
-11.813899 5.9069476 -19.658215
-11.748025 4.8950071 -19.932693
-11.684436 3.8948116 -20.197647
-11.649366 2.912343 -20.343769
-11.61517 1.9358625 -20.486252
-11.592125 0.96600914 -20.582275
-11.596581 -0 -20.563711
-11.60749 -0.96729279 -20.518253
-11.618665 -1.9364433 -20.471691
-11.638027 -2.9095068 -20.39102
-11.696504 -3.8988371 -20.147367
-11.757324 -4.8988857 -19.893948
-11.818745 -5.9093714 -19.638027
-11.913575 -6.949585 -19.242901
-12.036667 -8.0244465 -18.730017
-12.173025 -9.1297703 -18.161861
-12.329765 -10.274804 -17.508778
-12.547123 -11.501532 -16.603115
-12.83097 -12.830972 -15.420423
-13.216056 -14.317396 -13.815893
-13.913459 -16.232367 -10.910055
-12.891996 17.579994 -10.282815
-12.156111 15.471414 -13.627745
-11.770482 13.91057 -15.380605
-11.487795 12.532138 -16.66555
-11.286069 11.286067 -17.582479
-11.110592 10.100536 -18.380108
-10.980224 8.9838181 -18.972687
-10.872278 7.9071107 -19.463348
-10.779778 6.8598576 -19.883804
-10.706716 5.8400264 -20.215906
-10.634669 4.8339415 -20.543388
-10.58918 3.8506107 -20.75016
-10.560876 2.8802357 -20.878817
-10.532722 1.9150391 -21.00679
-10.51414 0.95583248 -21.091248
-10.5108 -2.8610229e-06 -21.106434
-10.521171 -0.9564724 -21.059292
-10.531563 -1.9148273 -21.012058
-10.564626 -2.8812618 -20.861771
-10.599421 -3.8543329 -20.703611
-10.647047 -4.8395667 -20.487129
-10.709761 -5.8416905 -20.202066
-10.79151 -6.8673272 -19.830479
-10.880532 -7.913115 -19.425831
-10.994 -8.9950924 -18.910069
-11.1339 -10.121726 -18.274162
-11.304991 -11.304993 -17.496473
-11.526395 -12.574252 -16.490091
-11.800104 -13.94558 -15.245959
-12.200309 -15.527666 -13.426847
-13.159698 -17.945047 -9.0659838
-11.196064 16.794096 -12.902472
-10.771205 15.079688 -15.026769
-10.495388 13.644002 -16.405857
-10.280383 12.33646 -17.480877
-10.119118 11.131027 -18.28721
-9.9807529 9.980751 -18.979031
-9.8687658 8.8818874 -19.538967
-9.7613659 7.8090897 -20.07597
-9.6956968 6.7869849 -20.404312
-9.6350298 5.7810192 -20.707649
-9.577424 4.7887106 -20.995676
-9.5404015 3.8161602 -21.180788
-9.5071726 2.8521519 -21.346931
-9.4820747 1.8964157 -21.47242
-9.4772444 0.94772243 -21.496574
-9.4736452 -9.5367432e-07 -21.51457
-9.4702444 -0.94702435 -21.531574
-9.4826059 -1.8965235 -21.469769
-9.513833 -2.8541479 -21.313625
-9.5452681 -3.8181086 -21.156454
-9.576911 -4.7884574 -20.998241
-9.6355486 -5.7813301 -20.705053
-9.7076006 -6.7953181 -20.344793
-9.7849302 -7.8279438 -19.958141
-9.8696737 -8.8827057 -19.53443
-9.9951048 -9.9951057 -18.907276
-10.137956 -11.151756 -18.193014
-10.298378 -12.358055 -17.390907
-10.521019 -13.677324 -16.277702
-10.821331 -15.149864 -14.776142
-11.281862 -16.922794 -12.473487
-10.361183 18.41988 -11.320667
-9.8321972 16.386995 -14.259476
-9.5259686 14.818173 -15.960747
-9.3074379 13.444077 -17.174809
-9.1411209 12.18816 -18.098789
-8.9880295 10.985369 -18.949301
-8.8871765 9.8746357 -19.509598
-8.7948322 8.7948322 -20.022617
-8.7142611 7.7460079 -20.470236
-8.6491537 6.727118 -20.831944
-8.5897226 5.7264805 -21.162117
-8.548728 4.7492933 -21.389864
-8.5159273 3.7848587 -21.572088
-8.484745 2.8282471 -21.745327
-8.4633245 1.8807383 -21.864326
-8.4603329 0.94003677 -21.880947
-8.4582081 -0 -21.892754
-8.4572945 -0.93969917 -21.897827
-8.4730787 -1.8829069 -21.810137
-8.4889469 -2.829649 -21.721979
-8.5161533 -3.7849579 -21.570837
-8.5499134 -4.7499533 -21.383274
-8.5929842 -5.7286568 -21.143993
-8.6501608 -6.7279024 -20.826345
-8.7131338 -7.745007 -20.4765
-8.7954464 -8.7954483 -20.019203
-8.8922234 -9.880249 -19.481556
-9.0070076 -11.008563 -18.843868
-9.1498995 -12.199868 -18.050022
-9.3277597 -13.473433 -17.061907
-9.5620079 -14.874237 -15.760529
-9.8811026 -16.468504 -13.987787
-10.431148 -18.544264 -10.931978
-8.9224281 17.844856 -13.117621
-8.5846977 16.096308 -15.228433
-8.353323 14.618314 -16.674526
-8.1684666 13.273758 -17.829878
-8.0401068 12.06016 -18.632132
-7.9230986 10.89426 -19.36343
-7.8299685 9.7874603 -19.945499
-7.7456603 8.7138653 -20.472422
-7.684557 7.6845574 -20.854313
-7.6294484 6.6757674 -21.198738
-7.5775332 5.6831512 -21.523212
-7.5441165 4.7150736 -21.732067
-7.5175953 3.7587976 -21.897831
-7.4912586 2.8092222 -22.062428
-7.4793329 1.869832 -22.136963
-7.46907 0.9336319 -22.201107
-7.4596133 -1.9073486e-06 -22.260216
-7.4667521 -0.93334484 -22.215595
-7.4806151 -1.8701553 -22.128948
-7.4954028 -2.8107767 -22.03653
-7.5112123 -3.7556076 -21.937719
-7.545023 -4.7156391 -21.726406
-7.5815725 -5.6861792 -21.497972
-7.6313705 -6.6774516 -21.186728
-7.6853595 -7.6853609 -20.849297
-7.7552729 -8.7246809 -20.412342
-7.8324451 -9.790556 -19.930012
-7.9309335 -10.905033 -19.314463
-8.04669 -12.070037 -18.590981
-8.1836567 -13.298442 -17.734943
-8.3655367 -14.639689 -16.59819
-8.6037178 -16.131973 -15.109556
-8.9653349 -17.93067 -12.849453
-8.1189337 19.717411 -10.890411
-7.6677489 17.526281 -14.113159
-7.3989639 15.854921 -16.033056
-7.2279468 14.455891 -17.254608
-7.0872149 13.16197 -18.25983
-6.9705296 11.949479 -19.0933
-6.8792777 10.810293 -19.7451
-6.8004694 9.7149563 -20.308018
-6.7308583 8.6539593 -20.805237
-6.6797261 7.6339703 -21.170464
-6.6336994 6.6336975 -21.499226
-6.5944357 5.6523743 -21.779682
-6.5641913 4.6887083 -21.995712
-6.5342422 3.7338524 -22.209637
-6.5155706 2.7923851 -22.34301
-6.5070262 1.859148 -22.404037
-6.4994044 0.92848396 -22.458481
-6.4918189 -0 -22.512661
-6.4971361 -0.92816162 -22.474682
-6.5071392 -1.8591833 -22.403233
-6.5199261 -2.7942562 -22.311893
-6.5368395 -3.7353382 -22.191086
-6.5612473 -4.6866045 -22.016743
-6.5938182 -5.6518459 -21.784096
-6.6319032 -6.631906 -21.512058
-6.6791525 -7.633317 -21.174566
-6.7355671 -8.6600151 -20.771603
-6.8018856 -9.716979 -20.297897
-6.8828292 -10.815876 -19.719727
-6.9751053 -11.957324 -19.060616
-7.0928383 -13.172413 -18.219669
-7.2427959 -14.48559 -17.14854
-7.4216571 -15.903551 -15.870958
-7.6823139 -17.559572 -14.009127
-8.2290201 -19.984764 -10.10408
-6.7951298 19.252867 -12.256715
-6.4807262 17.281935 -14.876742
-6.2853436 15.71336 -16.504929
-6.135675 14.316571 -17.752174
-6.0274076 13.05938 -18.654404
-5.9282765 11.856553 -19.480492
-5.8585253 10.740628 -20.061752
-5.7946711 9.6577854 -20.59387
-5.7407312 8.6110973 -21.043365
-5.6945801 7.592773 -21.427959
-5.6504054 6.5921378 -21.796087
-5.6219449 5.6219444 -22.033257
-5.5980511 4.66504 -22.232372
-5.5745044 3.7163353 -22.428596
-5.5590339 2.7795143 -22.557518
-5.5490494 1.8496809 -22.64072
-5.5425825 0.92376137 -22.694611
-5.5404196 -2.8610229e-06 -22.712631
-5.5450015 -0.92416763 -22.67445
-5.5495915 -1.849864 -22.636198
-5.5559468 -2.7779722 -22.583241
-5.5746818 -3.7164564 -22.427116
-5.594677 -4.6622334 -22.260483
-5.6239915 -5.6239924 -22.016199
-5.6548066 -6.5972743 -21.759407
-5.6956387 -7.5941854 -21.41914
-5.7408166 -8.6112289 -21.042656
-5.797698 -9.6628323 -20.568642
-5.862349 -10.747642 -20.029886
-5.9391437 -11.878287 -19.389931
-6.0343575 -13.074441 -18.596483
-6.1530366 -14.357087 -17.607492
-6.2986503 -15.746628 -16.394043
-6.4965997 -17.324265 -14.744469
-6.8285313 -19.347504 -11.978371
-5.566833 18.927229 -13.214469
-5.3404355 17.089392 -15.478443
-5.1935458 15.580638 -16.947334
-5.0765581 14.21436 -18.117216
-4.9933028 12.982585 -18.949764
-4.9178247 11.802778 -19.704548
-4.8573461 10.686159 -20.309338
-4.8006272 9.6012516 -20.876526
-4.7604775 8.5688591 -21.278023
-4.7247086 7.5595326 -21.635712
-4.6904984 6.5666962 -21.977814
-4.6660705 5.5992832 -22.222092
-4.6461177 4.6461163 -22.421619
-4.6268401 3.7014713 -22.614395
-4.61695 2.7701674 -22.713297
-4.6071019 1.8428383 -22.811775
-4.5972962 0.91945839 -22.909836
-4.5982552 -0 -22.900246
-4.6029115 -0.92058277 -22.853683
-4.6075768 -1.8430319 -22.807024
-4.6158643 -2.7695217 -22.724155
-4.6301155 -3.7040901 -22.581642
-4.6455007 -4.6455011 -22.42779
-4.6665716 -5.5998864 -22.217083
-4.6924682 -6.5694571 -21.958115
-4.7235575 -7.5576921 -21.647221
-4.7609 -8.569622 -21.273798
-4.8067503 -9.6135006 -20.815292
-4.8577566 -10.687065 -20.305231
-4.921916 -11.8126 -19.663639
-4.9971952 -12.99271 -18.910845
-5.0862985 -14.241636 -18.01981
-5.2008309 -15.602493 -16.874485
-5.3540645 -17.133007 -15.342152
-5.5908551 -19.008907 -12.974244
-4.7579303 21.410683 -9.4086685
-4.3988938 18.695299 -13.896621
-4.2351985 16.940794 -15.942813
-4.1310902 15.491588 -17.244169
-4.04462 14.156168 -18.325048
-3.9727359 12.911391 -19.223597
-3.9167829 11.750348 -19.92301
-3.87028 10.643269 -20.504295
-3.8274958 9.5687389 -21.039101
-3.7950661 8.5388966 -21.444469
-3.7666502 7.5332994 -21.799671
-3.7417862 6.5481243 -22.110466
-3.7223542 5.5835295 -22.353371
-3.7031226 4.6289034 -22.593761
-3.6890402 3.6890373 -22.769791
-3.682013 2.7615099 -22.857634
-3.675149 1.837574 -22.943436
-3.6687806 0.91719341 -23.023039
-3.6690211 -9.5367432e-07 -23.020033
-3.6698577 -0.91746426 -23.009571
-3.6735651 -1.8367815 -22.96323
-3.6827927 -2.7620945 -22.847893
-3.6941326 -3.6941357 -22.706139
-3.7057879 -4.6322365 -22.56045
-3.7203856 -5.5805812 -22.377979
-3.742635 -6.5496116 -22.099863
-3.7667935 -7.5335884 -21.797878
-3.7970252 -8.5433073 -21.419981
-3.8309584 -9.5773954 -20.995817
-3.871933 -10.647816 -20.483633
-3.9209106 -11.762733 -19.871418
-3.9774618 -12.926749 -19.164528
-4.0481052 -14.168369 -18.281481
-4.1369715 -15.513642 -17.170654
-4.2500901 -17.000359 -15.756671
-4.4214363 -18.791103 -13.614845
-3.4863029 20.917816 -10.777752
-3.2759867 18.563925 -14.283016
-3.1643019 16.876274 -16.14443
-3.0818803 15.4094 -17.518127
-3.0211062 14.098495 -18.531025
-2.9695446 12.868023 -19.390388
-2.9283831 11.713533 -20.07641
-2.8946252 10.613625 -20.639044
-2.8644557 9.5481844 -21.141869
-2.8397112 8.5191345 -21.554276
-2.8153906 7.5077052 -21.959621
-2.7985144 6.5298653 -22.240891
-2.7850733 5.5701456 -22.464907
-2.7717526 4.619586 -22.68692
-2.7619128 3.6825476 -22.850918
-2.7543488 2.7543459 -22.97699
-2.749227 1.832818 -23.062344
-2.7460368 0.91534519 -23.115517
-2.7462165 -0 -23.112522
-2.7463961 -0.9154644 -23.109526
-2.7473965 -1.8315992 -23.092857
-2.755276 -2.7552738 -22.961529
-2.7640951 -3.685461 -22.814543
-2.7729707 -4.6216183 -22.666618
-2.7844548 -5.5689106 -22.475214
-2.7998047 -6.5328774 -22.219387
-2.8173869 -7.5130296 -21.926346
-2.8393435 -8.5180302 -21.560402
-2.8645151 -9.5483837 -21.140879
-2.8957539 -10.617767 -20.620234
-2.9313526 -11.72541 -20.02692
-2.9732664 -12.884157 -19.328354
-3.0251482 -14.117359 -18.463655
-3.0888314 -15.44416 -17.402271
-3.1711409 -16.912752 -16.030453
-3.2948246 -18.670673 -13.969053
-3.5275736 -21.165443 -10.089905
-2.3020074 20.718063 -11.332611
-2.1767602 18.502462 -14.463786
-2.1015313 16.812246 -16.344517
-2.0489295 15.366971 -17.659559
-2.0096815 14.06777 -18.640762
-1.9758799 12.843218 -19.4858
-1.9495234 11.69714 -20.144711
-1.9244592 10.584524 -20.771315
-1.9055438 9.5277176 -21.2442
-1.8899777 8.5048981 -21.633354
-1.8747677 7.4990668 -22.013607
-1.8633863 6.5218506 -22.298141
-1.8538064 5.5614166 -22.537636
-1.8449538 4.6123857 -22.758953
-1.8392863 3.6785717 -22.900642
-1.8342544 2.7513809 -23.026438
-1.8293124 1.8293104 -23.149988
-1.8276138 0.91380501 -23.192448
-1.8282057 -1.9073486e-06 -23.177658
-1.8287977 -0.91440201 -23.162851
-1.8305349 -1.8305378 -23.119423
-1.8347721 -2.7521582 -23.013496
-1.8390287 -3.6780567 -22.907078
-1.8445784 -4.6114473 -22.768337
-1.8532673 -5.5598011 -22.551117
-1.8633753 -6.5218134 -22.298412
-1.8759096 -7.5036387 -21.985058
-1.890233 -8.5060511 -21.626966
-1.9072435 -9.5362167 -21.20171
-1.9269367 -10.59815 -20.709381
-1.949494 -11.696963 -20.145445
-1.9779139 -12.856442 -19.434948
-2.0119116 -14.083381 -18.585005
-2.0527391 -15.395542 -17.56432
-2.1136496 -16.909197 -16.041561
-2.2207637 -18.876492 -13.363706
-2.3394413 -21.054972 -10.396767
-1.148326 20.669868 -11.466495
-1.085861 18.459637 -14.589746
-1.0495902 16.793442 -16.403286
-1.0234646 15.351965 -17.709572
-1.0038878 14.05443 -18.688402
-0.98632908 12.822276 -19.566343
-0.97370595 11.684469 -20.197498
-0.96184713 10.580317 -20.790438
-0.95224762 9.5224724 -21.270418
-0.94428188 8.4985352 -21.668705
-0.93678081 7.4942441 -22.043756
-0.93139112 6.5197344 -22.313244
-0.92606038 5.5563612 -22.579779
-0.92117512 4.605875 -22.824039
-0.91887379 3.6754951 -22.939106
-0.91666484 2.7499943 -23.049557
-0.9144665 1.8289318 -23.159473
-0.91374981 0.91374874 -23.195301
-0.91330385 -0 -23.217602
-0.91340238 -0.91340542 -23.212681
-0.91473675 -1.8294744 -23.145956
-0.91686589 -2.750597 -23.039501
-0.9192071 -3.6768284 -22.922441
-0.9222073 -4.6110363 -22.772434
-0.92656958 -5.5594177 -22.554316
-0.93124831 -6.5187383 -22.320383
-0.93726093 -7.498086 -22.019749
-0.94397444 -8.4957695 -21.684078
-0.95263934 -9.5263929 -21.250826
-0.96245992 -10.587061 -20.759804
-0.97420412 -11.69045 -20.172596
-0.98820078 -12.846611 -19.472757
-1.005233 -14.073261 -18.621143
-1.0252219 -15.378326 -17.621702
-1.0680481 -17.088772 -15.480391
-1.1227742 -19.087164 -12.744083
-1.1834986 -21.302979 -9.7078638
0 20.668837 -11.469362
0 18.465557 -14.572337
0 16.809067 -16.354464
0 15.344206 -17.735435
0 14.059078 -18.671801
0 12.832344 -19.527618
0 11.687722 -20.183945
0 10.583261 -20.777065
0 9.5285072 -21.240252
0 8.4966908 -21.678953
0 7.4918027 -22.059021
0 6.5194168 -22.315533
0 5.5583925 -22.562849
0 4.609726 -22.785511
0 3.6758909 -22.934122
0 2.7494211 -23.059082
0 1.8287344 -23.16441
0 0.91391945 -23.186745
0 -3.8146973e-06 -23.209181
0 -0.91327763 -23.219028
0 -1.8291416 -23.154274
0 -2.7506924 -23.037933
0 -3.6769552 -22.920866
0 -4.6135368 -22.747448
0 -5.5624318 -22.529224
0 -6.5206261 -22.306904
0 -7.4981322 -22.019476
0 -8.5014038 -21.652769
0 -9.5303993 -21.230797
0 -10.590542 -20.743965
0 -11.692115 -20.165661
0 -12.843967 -19.48292
0 -14.064651 -18.651896
0 -15.43142 -17.444733
0 -17.272141 -14.90736
0 -19.303001 -12.109273
0 -21.557133 -9.0018768
1.1563803 20.814844 -11.063782
1.0893011 18.518122 -14.417738
1.0523977 16.838362 -16.262911
1.0248333 15.372499 -17.641129
1.0065725 14.092015 -18.554173
0.989039 12.857507 -19.430847
0.97553885 11.706466 -20.105854
0.96240515 10.586456 -20.762537
0.95363873 9.5363846 -21.200861
0.94535249 8.5081692 -21.615171
0.93794936 7.503593 -21.985331
0.93219501 6.5253668 -22.273045
0.9272424 5.5634518 -22.520679
0.92306155 4.6153088 -22.729713
0.92008215 3.6803284 -22.878685
0.91712201 2.7513638 -23.026699
0.91487199 1.8297443 -23.139198
0.91464317 0.91464329 -23.150639
0.91450024 -1.9073486e-06 -23.157785
0.9143573 -0.91435814 -23.16493
0.91597086 -1.8319426 -23.084251
0.91762924 -2.7528896 -23.001331
0.91929638 -3.6771898 -22.917978
0.92336619 -4.6168289 -22.714487
0.92799634 -5.5679798 -22.482977
0.93267047 -6.5286942 -22.249271
0.9383322 -7.5066586 -21.966187
0.94553578 -8.5098248 -21.606003
0.95344096 -9.5344133 -21.210749
0.96400803 -10.60409 -20.682396
0.97579914 -11.709592 -20.092836
0.98973554 -12.866564 -19.396015
1.006626 -14.092762 -18.5515
1.0393969 -15.590954 -16.912954
1.091218 -17.45949 -14.321894
1.1484448 -19.523565 -11.460554
1.2120837 -21.817507 -8.2786102
2.3319571 20.987612 -10.583868
2.191427 18.627129 -14.097121
2.1132886 16.906307 -16.050585
2.056931 15.426985 -17.459522
2.0162854 14.113997 -18.47566
1.9819641 12.882765 -19.333694
1.9559097 11.735456 -19.985052
1.9301784 10.61598 -20.628338
1.9111793 9.5558949 -21.103313
1.8945451 8.5254507 -21.519173
1.880085 7.5203395 -21.880672
1.8682972 6.5390415 -22.175365
1.8566566 5.5699692 -22.466381
1.8485461 4.6213627 -22.66914
1.8433105 3.6866198 -22.800034
1.8381044 2.7571564 -22.930183
1.8342177 1.8342171 -23.027349
1.8326042 0.91630173 -23.067696
1.8311703 -0 -23.103539
1.8314308 -0.91571712 -23.097023
1.8347615 -1.8347597 -23.013758
1.8387345 -2.7581005 -22.914433
1.8427247 -3.6854506 -22.814678
1.8504753 -4.6261902 -22.620911
1.8584633 -5.5753927 -22.421215
1.8676468 -6.5367651 -22.191624
1.8799202 -7.5196829 -21.88479
1.894768 -8.5264587 -21.513592
1.9121844 -9.5609236 -21.078186
1.932247 -10.627358 -20.576622
1.9555353 -11.733213 -19.99441
1.984292 -12.897898 -19.275497
2.0184097 -14.128868 -18.42255
2.1005025 -15.753768 -16.370235
2.2063684 -17.650944 -13.723589
2.3234718 -19.749512 -10.796
2.4538524 -22.084671 -7.536489
3.6523178 21.913906 -8.0108337
3.3091102 18.751623 -13.730962
3.1881886 17.00367 -15.74632
3.0983672 15.491835 -17.243343
3.0373492 14.174294 -18.260311
2.984581 12.933183 -19.139782
2.9401007 11.760401 -19.881119
2.9056802 10.654159 -20.454792
2.8766947 9.5889816 -20.937887
2.8482897 8.5448675 -21.411301
2.8264513 7.5372052 -21.77527
2.8100233 6.5567207 -22.049074
2.793777 5.5875521 -22.319845
2.7812543 4.6354218 -22.528557
2.7712038 3.6949368 -22.696066
2.7632802 2.763278 -22.828129
2.7580781 1.8387175 -22.914825
2.7556379 0.91854572 -22.955498
2.7538221 -0 -22.98576
2.7541208 -0.91804123 -22.980783
2.7586536 -1.8391018 -22.905237
2.7646413 -2.7646408 -22.805443
2.7712991 -3.6950674 -22.694477
2.7832348 -4.6387262 -22.495552
2.7956944 -5.5913911 -22.287891
2.809778 -6.556149 -22.053162
2.8301632 -7.5471005 -21.713409
2.851217 -8.5536489 -21.362514
2.876703 -9.5890141 -20.937744
2.9073515 -10.660289 -20.426941
2.9448626 -11.779451 -19.80175
2.988276 -12.949196 -19.078197
3.0401897 -14.187551 -18.212969
3.1838467 -15.919233 -15.818689
3.3462467 -17.846649 -13.11202
3.5259504 -19.980389 -10.116959
4.4747834 19.017826 -12.948008
4.2809725 17.123892 -15.37064
4.1600461 15.600172 -16.882217
4.0726819 14.254386 -17.974274
4.0009246 13.003004 -18.871241
3.9401841 11.820552 -19.630493
3.8882124 10.692582 -20.280142
3.8506224 9.6265564 -20.750015
3.8142607 8.5820875 -21.204535
3.7841668 7.5683322 -21.580711
3.7600269 6.5800467 -21.882458
3.7382224 5.6073322 -22.155016
3.721859 4.6523218 -22.359562
3.7083602 3.7083588 -22.52829
3.6951821 2.7713842 -22.69302
3.6883111 1.8441534 -22.778904
3.6866 0.92164707 -22.800295
3.6848903 9.5367432e-07 -22.821667
3.6859772 -0.92149448 -22.808081
3.691664 -1.8458319 -22.736994
3.6973684 -2.7730284 -22.665691
3.706001 -3.7060013 -22.557785
3.7235274 -4.6544123 -22.338701
3.7413404 -5.612011 -22.116041
3.7614334 -6.5825081 -21.86488
3.7888336 -7.5776682 -21.522379
3.8172808 -8.5888824 -21.166788
3.8532388 -9.6330986 -20.717312
3.8967338 -10.716021 -20.173622
3.9438901 -11.83167 -19.584169
4.0044217 -13.014372 -18.827522
4.0902162 -14.315758 -17.755095
4.2905178 -16.089443 -15.251324
4.5116849 -18.046741 -12.486731
4.7568755 -20.216721 -9.421854
5.7038765 19.393179 -11.844032
5.4229374 17.353395 -14.653425
5.2458291 15.737487 -16.424503
5.1266317 14.354568 -17.616474
5.0282855 13.073542 -18.599941
4.9521198 11.885085 -19.361601
4.8872495 10.751947 -20.010302
4.8367596 9.6735191 -20.515202
4.7911787 8.6241217 -20.971008
4.7528706 7.6045928 -21.354092
4.7213817 6.6099329 -21.668982
4.6902933 5.6283503 -21.979864
4.6706619 4.6706581 -22.176178
4.655581 3.7244625 -22.326986
4.6408782 2.784524 -22.474012
4.6314077 1.8525639 -22.568714
4.6268401 0.92536926 -22.614391
4.6226535 -0 -22.656261
4.6248722 -0.9249754 -22.634075
4.6333413 -1.8533401 -22.549381
4.6422172 -2.7853327 -22.460625
4.6551366 -3.7241116 -22.331427
4.6748958 -4.6748962 -22.133841
4.6951656 -5.6342006 -21.931143
4.721395 -6.6099548 -21.668842
4.7580285 -7.6128469 -21.302515
4.7952194 -8.6313953 -20.930603
4.8412995 -9.6825981 -20.469801
4.8962317 -10.771709 -19.920479
4.9604244 -11.90502 -19.278555
5.0392141 -13.101957 -18.49066
5.165288 -14.462807 -17.229914
5.4209275 -16.262785 -14.673517
5.7036743 -18.25176 -11.846054
6.0172687 -20.458715 -8.710103
7.1096983 20.144146 -9.6353111
6.5973721 17.592991 -13.904699
6.3768616 15.942151 -15.742286
6.2156444 14.503169 -17.085762
6.0916777 13.198633 -18.118816
5.9911828 11.982364 -18.956272
5.9057751 10.827252 -19.668005
5.8390203 9.731699 -20.224293
5.7801352 8.6702023 -20.715002
5.7321424 7.6428552 -21.114941
5.6935897 6.6425195 -21.436214
5.6584024 5.6584015 -21.729443
5.6315365 4.6929464 -21.953325
5.6132178 3.7421436 -22.10598
5.5957475 2.7978725 -22.251568
5.5852265 1.8617401 -22.339239
5.5779181 0.92965221 -22.400146
5.5739574 -1.9073486e-06 -22.433153
5.5765972 -0.92943287 -22.411154
5.5856957 -1.8618994 -22.335335
5.5980997 -2.7990494 -22.231966
5.6137075 -3.7424707 -22.101902
5.6373568 -4.6977978 -21.904821
5.6623683 -5.6623683 -21.696398
5.6962266 -6.6455979 -21.414242
5.7385645 -7.6514201 -21.061422
5.7863879 -8.6795845 -20.662895
5.8454366 -9.7423944 -20.170822
5.9165602 -10.847029 -19.578127
5.9975839 -11.995172 -18.902927
6.0992589 -13.215059 -18.055641
6.2626758 -14.612912 -16.69383
6.576005 -16.440012 -14.082758
6.9232559 -18.462017 -11.188994
7.3082294 -20.706654 -7.9808831
7.896944 18.050158 -12.476054
7.5586405 16.197084 -14.892508
7.3429399 14.685879 -16.433226
7.1775136 13.329665 -17.614841
7.0566015 12.097027 -18.478504
6.9460711 10.915253 -19.268002
6.8717446 9.8167763 -19.798908
6.8006744 8.743722 -20.306553
6.740202 7.7030888 -20.738495
6.6914129 6.691412 -21.086988
6.6454997 5.6961432 -21.414942
6.6126313 4.7233076 -21.649719
6.5898252 3.7656145 -21.812613
6.5679231 2.8148241 -21.969059
6.5549283 1.8728352 -22.061882
6.5451584 0.93502235 -22.131668
6.5423069 -9.5367432e-07 -22.152033
6.5454435 -0.93506622 -22.129631
6.5549855 -1.8728533 -22.061474
6.5711036 -2.8161869 -21.946346
6.5906925 -3.7661114 -21.806419
6.6202683 -4.728765 -21.595165
6.6509933 -5.7008514 -21.375702
6.6930037 -6.6930046 -21.075632
6.7485814 -7.7126651 -20.678642
6.8056259 -8.7500896 -20.271187
6.8796983 -9.8281403 -19.742096
6.9645171 -10.944242 -19.136246
7.0664291 -12.113879 -18.408306
7.1935797 -13.359504 -17.500084
7.3820643 -14.764132 -16.153763
7.7566147 -16.621321 -13.478401
8.1710863 -18.676771 -10.517892
9.3745966 18.749193 -10.291561
8.8164072 16.530762 -13.780255
8.5221548 14.913771 -15.619329
8.3171091 13.515301 -16.900864
8.1630278 12.244543 -17.863865
8.0256453 11.035261 -18.722513
7.9313245 9.914155 -19.312019
7.8419404 8.8221798 -19.87067
7.7687049 7.7687035 -20.328392
7.7123876 6.7483373 -20.680374
7.6582928 5.7437172 -21.018467
7.6188145 4.7617579 -21.265202
7.5921021 3.7960491 -21.432159
7.5660429 2.8372669 -21.59503
7.549027 1.8872547 -21.701376
7.5403161 0.94253826 -21.755821
7.5323305 -9.5367432e-07 -21.805729
7.5364318 -0.94205475 -21.780098
7.5520835 -1.8880215 -21.682278
7.5678 -2.8379288 -21.584049
7.5919232 -3.7959642 -21.433275
7.6269622 -4.76685 -21.214279
7.6653161 -5.7489872 -20.974575
7.7165484 -6.7519817 -20.654369
7.780302 -7.780304 -20.255909
7.8451185 -8.825758 -19.850809
7.9329858 -9.9162331 -19.301634
8.0376472 -11.051764 -18.647501
8.1649179 -12.247376 -17.852055
8.3262272 -13.530119 -16.843876
8.5330572 -14.932852 -15.55119
8.9635248 -16.806606 -12.860765
9.4777126 -18.955425 -9.6470871
10.21855 17.030914 -12.113078
9.7797108 15.212883 -14.551067
9.51161 13.738994 -16.040514
9.3168087 12.422411 -17.122749
9.1476746 11.18049 -18.062382
9.0205841 10.022871 -18.768442
8.9166412 8.9166393 -19.3459
8.824091 7.8436356 -19.860069
8.7606497 6.8138371 -20.212517
8.7014332 5.8009534 -20.541502
8.6527452 4.8070774 -20.811989
8.6166048 3.8296013 -21.012768
8.5807905 2.860261 -21.211739
8.5608053 1.9024019 -21.322765
8.5560513 0.95067024 -21.349178
8.5514784 -0 -21.37458
8.5549393 -0.95054913 -21.355354
8.5700254 -1.9044533 -21.271542
8.5851393 -2.8617144 -21.187576
8.6117878 -3.8274632 -21.039524
8.6590834 -4.8106046 -20.776779
8.7068996 -5.8045998 -20.511131
8.7642021 -6.8166022 -20.192785
8.8382273 -7.8562021 -19.781532
8.922904 -8.922905 -19.311104
9.0271063 -10.030117 -18.732206
9.1588974 -11.194211 -18.000031
9.3189669 -12.425289 -17.110758
9.5196447 -13.750598 -15.995882
9.8076935 -15.256413 -14.395609
10.269927 -17.116547 -11.82765
11.18004 15.652057 -12.982594
10.789514 14.026368 -14.935223
10.509543 12.61145 -16.335079
10.324677 11.357141 -17.259411
10.159944 10.159943 -18.083076
10.037251 9.0335245 -18.696545
9.9260197 7.9408159 -19.252697
9.8462715 6.8923893 -19.651438
9.7689219 5.8613496 -20.038191
9.7069263 4.8534622 -20.348162
9.6706991 3.8682804 -20.529297
9.6366453 2.8909922 -20.69957
9.6110897 1.9222155 -20.827351
9.6006813 0.96006584 -20.879391
9.5914965 -1.9073486e-06 -20.925316
9.5932693 -0.95932961 -20.916451
9.6151381 -1.9230309 -20.807106
9.6409178 -2.8922758 -20.678207
9.6725016 -3.8690009 -20.52029
9.7233801 -4.861691 -20.2659
9.7747965 -5.8648772 -20.008816
9.8435917 -6.8905125 -19.664843
9.926755 -7.9414058 -19.249025
10.037063 -9.0333557 -18.697483
10.169061 -10.169063 -18.037493
10.328952 -11.361849 -17.238037
10.536656 -12.643988 -16.199511
10.815404 -14.060023 -14.80578
11.221478 -15.710069 -12.775407
12.95939 16.493769 -9.9764776
12.217867 14.439295 -13.347036
11.831338 12.906912 -15.103987
11.573196 11.573195 -16.277359
11.357582 10.325072 -17.257423
11.209841 9.1716843 -17.928976
11.065997 8.0479965 -18.582809
10.969642 6.9806781 -19.020786
10.890205 5.9401135 -19.381861
10.813958 4.9154344 -19.728437
10.767385 3.9154148 -19.940138
10.723971 2.9247208 -20.13747
10.69055 1.9437361 -20.289389
10.678811 0.97080135 -20.342743
10.675172 -9.5367432e-07 -20.359283
10.676654 -0.97060394 -20.352551
10.701926 -1.9458046 -20.237679
10.727318 -2.9256325 -20.122259
10.757863 -3.9119506 -19.983419
10.826592 -4.9211817 -19.671013
10.899225 -5.9450316 -19.340862
10.974505 -6.9837756 -18.99868
11.083598 -8.0608006 -18.502808
11.213143 -9.1743927 -17.913965
11.370971 -10.337242 -17.196566
11.575921 -11.575921 -16.264977
11.854953 -12.932675 -14.99665
12.238564 -14.463759 -13.25296
13.145527 -16.730675 -9.1303978
14.041189 15.211287 -10.377842
13.321548 13.321545 -13.376349
12.922722 11.84583 -15.038121
12.661524 10.551268 -16.126448
12.45169 9.338768 -17.000753
12.2971 8.1980658 -17.644878
12.16367 7.0954719 -18.200842
12.060499 6.0302491 -18.630716
11.965734 4.9857211 -19.025578
11.906633 3.9688749 -19.271826
11.860777 2.9651937 -19.462893
11.819286 1.9698801 -19.635771
11.80877 0.9840641 -19.679586
11.801877 -0 -19.708309
11.799389 -0.98328304 -19.718676
11.825511 -1.9709215 -19.609833
11.868906 -2.9672279 -19.429022
11.91262 -3.9708748 -19.24688
11.985713 -4.9940467 -18.942326
12.065585 -6.0327921 -18.609522
12.166352 -7.0970407 -18.189663
12.297256 -8.1981707 -17.644226
12.466402 -9.3497992 -16.939457
12.676693 -10.563911 -16.06324
12.949805 -11.870656 -14.925278
13.354346 -13.354348 -13.239684
14.149586 -15.328719 -9.9261942
15.225406 14.054219 -10.323547
14.492316 12.262728 -13.143123
14.104247 10.849418 -14.63569
13.804817 9.5571795 -15.787349
13.603413 8.3713274 -16.561983
13.409863 7.2206941 -17.306402
13.304277 6.1404371 -17.7125
13.201634 5.077549 -18.107283
13.119829 4.036871 -18.421917
13.06395 3.0147557 -18.636837
13.015829 2.0024347 -18.821918
12.992183 0.99939632 -18.912863
12.988593 -0 -18.92667
12.995129 -0.99962616 -18.901531
13.024864 -2.0038261 -18.787165
13.07056 -3.0162835 -18.611408
13.116579 -4.0358715 -18.434414
13.196344 -5.07552 -18.127621
13.293033 -6.1352458 -17.755745
13.435831 -7.2346768 -17.206526
13.609607 -8.3751411 -16.538153
13.826076 -9.5719023 -15.70558
14.114906 -10.857622 -14.59469
14.538497 -12.301805 -12.965503
15.445806 -14.257665 -9.4758549
16.939953 13.309962 -8.3829651
15.813787 11.295564 -12.404982
15.373593 9.8830252 -13.977107
15.058973 8.6051273 -15.10075
14.832321 7.4161592 -15.910227
14.658073 6.2820306 -16.532534
14.523272 5.1868834 -17.013964
14.397642 4.1136107 -17.462646
14.342186 3.0733275 -17.660702
14.295952 2.0422764 -17.825825
14.258898 1.0184927 -17.95816
14.260523 -9.5367432e-07 -17.95236
14.262102 -1.0187197 -17.946716
14.279957 -2.0399961 -17.88295
14.357954 -3.0767031 -17.604385
14.436762 -4.1247883 -17.322931
14.517469 -5.1848106 -17.034693
14.658598 -6.2822585 -16.530661
14.827635 -7.4138165 -15.926962
15.05842 -8.6048117 -15.10273
15.3853 -9.8905487 -13.9353
15.861945 -11.329961 -12.23299
17.377048 10.426229 -10.959303
16.781021 8.9498749 -12.946065
16.434416 7.6693926 -14.101412
16.168226 6.4672904 -14.988709
15.989678 5.3298907 -15.583868
15.856745 4.2284636 -16.026981
15.753306 3.1506605 -16.371777
15.690888 2.0921197 -16.579838
15.628912 1.0419254 -16.786423
15.628101 -0 -16.789122
15.657553 -1.0438356 -16.690952
15.687165 -2.0916224 -16.592247
15.750838 -3.1501679 -16.380003
15.854245 -4.2277975 -16.035313
15.994287 -5.3314304 -15.568502
16.169363 -6.4677472 -14.984919
16.440348 -7.6721601 -14.081635
16.824123 -8.9728689 -12.802389
17.541729 -10.525036 -10.410366
18.592741 8.134326 -10.780478
18.054333 6.7703743 -12.463002
17.691517 5.5285988 -13.596802
17.525032 4.3812585 -14.117074
17.372955 3.2574291 -14.59231
17.280603 2.1600742 -14.880915
17.226723 1.0766678 -15.04929
17.179077 -1.4305115e-06 -15.198184
17.215088 -1.0759425 -15.085644
17.293139 -2.161643 -14.841738
17.371899 -3.2572317 -14.595608
17.512037 -4.3780117 -14.157675
17.720863 -5.5377712 -13.505097
18.111233 -6.7917128 -12.285196
18.663027 -8.1650743 -10.560835
19.901815 4.6827798 -10.348045
19.497471 3.4407296 -11.537293
19.307426 2.2714601 -12.096248
19.185419 1.1285524 -12.45509
19.163649 4.7683716e-07 -12.519128
19.174797 -1.1279292 -12.486336
19.309607 -2.2717185 -12.089832
19.524677 -3.445534 -11.457276
19.983597 -4.7020226 -10.107516
