# .PCD v0.7 - Point Cloud Data file format
VERSION 0.7
FIELDS x y z
SIZE 4 4 4
TYPE F F F
COUNT 1 1 1
WIDTH 1056
HEIGHT 1
VIEWPOINT 0 0 0 1 0 0 0
POINTS 1056
DATA ascii
-23.509403 -1.2373385 -7.0159431
-21.918135 7.3060455 -7.9990892
-20.809237 5.7803407 -11.079361
-20.369406 4.5265341 -12.301121
-20.135544 3.3559203 -12.950729
-19.927467 2.2141638 -13.528717
-19.893524 1.1051955 -13.623005
-19.859697 -1.4305115e-06 -13.716972
-19.882874 -1.1046033 -13.652594
-19.998947 -2.2221036 -13.330166
-20.164492 -3.3607497 -12.870319
-20.386106 -4.5302491 -12.254723
-20.852909 -5.7924762 -10.958054
-22.293495 -7.4311633 -6.956419
-19.895592 9.3626289 -10.36635
-19.193026 7.9030094 -12.432722
-18.814432 6.6403856 -13.546232
-18.539078 5.4526696 -14.356098
-18.337994 4.3148193 -14.947523
-18.18494 3.209106 -15.397674
-18.116533 2.1313577 -15.598873
-18.0487 1.0616856 -15.798384
-18.040012 4.7683716e-07 -15.823938
-18.07213 -1.063067 -15.72947
-18.111797 -2.1308017 -15.612805
-18.212061 -3.2138939 -15.317915
-18.366003 -4.3214121 -14.865139
-18.571928 -5.4623303 -14.259476
-18.838987 -6.6490555 -13.474016
-19.259712 -7.9304695 -12.236584
-20.101145 -9.459362 -9.7617846
-18.936953 11.835593 -9.7048206
-18.070362 10.164581 -12.412907
-17.586803 8.7933998 -13.924038
-17.284954 7.5621672 -14.867315
-17.050236 6.3938346 -15.600812
-16.874674 5.273334 -16.149441
-16.731073 4.1827674 -16.59819
-16.646156 3.1211524 -16.863558
-16.573877 2.0717363 -17.089428
-16.533646 1.0333529 -17.215153
-16.525793 -0 -17.239697
-16.537363 -1.0335832 -17.203537
-16.574839 -2.0718551 -17.086426
-16.65127 -3.1221147 -16.84758
-16.750177 -4.1875448 -16.538492
-16.883913 -5.2762265 -16.120567
-17.061478 -6.398056 -15.565681
-17.326481 -7.5803375 -14.737541
-17.638733 -8.8193674 -13.761759
-18.140902 -10.204258 -12.192476
-19.358635 -12.099146 -8.3870602
-17.271481 12.665749 -11.311197
-16.660267 11.106845 -13.348572
-16.237785 9.7426701 -14.756849
-15.940784 8.5017529 -15.746843
-15.716992 7.3345942 -16.492821
-15.561252 6.2244983 -17.011959
-15.4126 5.1375318 -17.507467
-15.326818 4.0871511 -17.793406
-15.250796 3.0501599 -18.04681
-15.187175 2.0249567 -18.258879
-15.168945 1.0112629 -18.319645
-15.162609 -9.5367432e-07 -18.340769
-15.15999 -1.0106649 -18.349497
-15.196404 -2.0261898 -18.228123
-15.264782 -3.052958 -18.000193
-15.333827 -4.0890217 -17.770037
-15.431765 -5.1439204 -17.443581
-15.585366 -6.2341471 -16.931576
-15.753356 -7.3515692 -16.371605
-15.956644 -8.5102119 -15.693982
-16.28863 -9.7731752 -14.587364
-16.727467 -11.151642 -13.124579
-17.491707 -12.827251 -10.577109
-15.985984 13.702269 -11.789998
-15.399971 12.099975 -13.882902
-15.000264 10.714476 -15.310423
-14.743163 9.4777451 -16.228645
-14.521213 8.2978363 -17.02132
-14.362303 7.1811514 -17.588856
-14.215573 6.0923891 -18.112888
-14.120811 5.0431452 -18.45133
-14.036479 4.0104203 -18.752518
-13.963223 2.9921169 -19.014141
-13.935454 1.990777 -19.113319
-13.907752 0.99340916 -19.212254
-13.88679 -9.5367432e-07 -19.287119
-13.911403 -0.99367046 -19.199219
-13.941491 -1.991643 -19.091759
-13.971711 -2.9939384 -18.983828
-14.034073 -4.0097346 -18.761103
-14.134721 -5.0481138 -18.401655
-14.236865 -6.1015143 -18.03685
-14.359327 -7.1796637 -17.599483
-14.552261 -8.3155785 -16.910435
-14.762919 -9.4904509 -16.158081
-15.051828 -10.751307 -15.126264
-15.436906 -12.128997 -13.750994
-16.113592 -13.811649 -11.334255
-14.836916 14.836915 -11.817732
-14.229982 13.135369 -14.152092
-13.860568 11.728173 -15.572918
-13.599388 10.461065 -16.577457
-13.375566 9.260006 -17.438316
-13.227302 8.1398773 -18.008554
-13.092361 7.0497327 -18.527557
-12.98138 5.9914069 -18.954414
-12.902989 4.962687 -19.255913
-12.828176 3.9471297 -19.543659
-12.776895 2.948513 -19.740898
-12.74824 1.9612665 -19.851105
-12.725208 0.97886276 -19.93969
-12.71747 1.9073486e-06 -19.969444
-12.724008 -0.97876835 -19.944304
-12.74991 -1.9615259 -19.844683
-12.782242 -2.9497471 -19.720329
-12.841288 -3.9511633 -19.493229
-12.905656 -4.9637146 -19.245659
-12.995814 -5.9980679 -18.898893
-13.107908 -7.0581083 -18.467762
-13.245184 -8.1508827 -17.939785
-13.41997 -9.2907505 -17.267521
-13.605712 -10.465933 -16.553133
-13.914595 -11.77389 -15.365125
-14.287862 -13.188798 -13.929483
-14.90489 -14.904893 -11.556291
-13.74925 16.040789 -11.594258
-13.157207 14.253642 -14.061097
-12.800901 12.800902 -15.545708
-12.526083 11.482242 -16.690786
-12.321032 10.267525 -17.545166
-12.155285 9.1164618 -18.235773
-12.017977 8.0119839 -18.807896
-11.902156 6.9429245 -19.29048
-11.821711 5.910852 -19.625669
-11.743094 4.8929563 -19.953234
-11.685355 3.8951187 -20.193817
-11.648734 2.9121838 -20.346405
-11.612376 1.9353943 -20.497894
-11.589864 0.96582222 -20.591698
-11.59571 -1.9073486e-06 -20.567337
-11.601876 -0.96682549 -20.541649
-11.609618 -1.9349365 -20.509384
-11.645678 -2.9114218 -20.359138
-11.698948 -3.8996487 -20.13718
-11.752744 -4.8969774 -19.913027
-11.814477 -5.9072399 -19.655807
-11.921445 -6.954175 -19.210106
-12.033779 -8.022521 -18.742052
-12.154634 -9.1159782 -18.238485
-12.343874 -10.286564 -17.449991
-12.559078 -11.512488 -16.553303
-12.819469 -12.819469 -15.468341
-13.20887 -14.30961 -13.845842
-13.90449 -16.221905 -10.947417
-12.902991 17.59499 -10.232834
-12.164382 15.481936 -13.590157
-11.770561 13.910661 -15.380249
-11.483918 12.527909 -16.683168
-11.284631 11.284632 -17.58902
-11.102368 10.093061 -18.417484
-10.982063 8.985323 -18.964327
-10.864371 7.9013605 -19.499294
-10.776169 6.857563 -19.900208
-10.705292 5.8392506 -20.222382
-10.635341 4.8342466 -20.540342
-10.592 3.8516331 -20.737343
-10.561222 2.880331 -20.877239
-10.530622 1.9146585 -21.016327
-10.516732 0.95606613 -21.079466
-10.513453 -1.9073486e-06 -21.094374
-10.520358 -0.95639896 -21.062988
-10.535135 -1.9154825 -20.995819
-10.564342 -2.8811846 -20.863058
-10.597359 -3.8535833 -20.712986
-10.645478 -4.8388543 -20.494259
-10.714883 -5.8444815 -20.178783
-10.788419 -6.865356 -19.844532
-10.883376 -7.9151812 -19.412909
-10.996835 -8.9974098 -18.897182
-11.137682 -10.125167 -18.256966
-11.304341 -11.304342 -17.499428
-11.518069 -12.565167 -16.527935
-11.807622 -13.954464 -15.211788
-12.207797 -15.537198 -13.392809
-13.092147 -17.85293 -9.3730316
-11.192949 16.789423 -12.91805
-10.774668 15.084533 -15.009459
-10.498709 13.64832 -16.389252
-10.284128 12.340954 -17.462152
-10.11724 11.128963 -18.296595
-9.9820843 9.9820814 -18.97238
-9.8698854 8.8828964 -19.533369
-9.7728672 7.8182917 -20.018461
-9.6991158 6.7893791 -20.387218
-9.6328087 5.7796822 -20.718754
-9.5805321 4.7902651 -20.980139
-9.5413628 3.8165426 -21.17598
-9.5055161 2.8516531 -21.355215
-9.4841423 1.8968267 -21.462084
-9.4769373 0.94769192 -21.49811
-9.4697428 -1.9073486e-06 -21.534084
-9.4625311 -0.94625568 -21.570141
-9.4871616 -1.8974323 -21.446985
-9.5141153 -2.8542356 -21.312222
-9.5412216 -3.8164892 -21.176691
-9.5770254 -4.7885127 -20.997669
-9.6411486 -5.7846894 -20.677052
-9.7062531 -6.7943783 -20.35153
-9.7722435 -7.8177977 -20.021576
-9.8793688 -8.8914337 -19.485952
-9.9975262 -9.9975243 -18.895166
-10.13237 -11.145608 -18.220943
-10.301543 -12.361849 -17.375082
-10.536001 -13.696802 -16.202787
-10.813622 -15.139071 -14.814682
-11.282337 -16.923508 -12.471113
-10.370532 18.436497 -11.268734
-9.8386765 16.397795 -14.223483
-9.5356903 14.833295 -15.906738
-9.3044481 13.439756 -17.19142
-9.1393042 12.185738 -18.108885
-8.9943924 10.993143 -18.913948
-8.887558 9.8750629 -19.507477
-8.7832575 8.7832565 -20.08692
-8.7111416 7.743237 -20.487564
-8.6460295 6.7246895 -20.849297
-8.5819855 5.721323 -21.205099
-8.5481472 4.7489672 -21.393089
-8.515276 3.784565 -21.575705
-8.4826326 2.8275414 -21.757063
-8.466218 1.881382 -21.848251
-8.4614449 0.94015789 -21.874767
-8.4566765 -0 -21.901257
-8.4591961 -0.93991089 -21.88726
-8.4709978 -1.8824463 -21.821703
-8.4917841 -2.830596 -21.706219
-8.5157518 -3.7847776 -21.573063
-8.5565319 -4.7536287 -21.346512
-8.5984182 -5.7322779 -21.113808
-8.6545038 -6.7312822 -20.802219
-8.7234211 -7.7541513 -20.41935
-8.8062229 -8.8062267 -19.959332
-8.8953915 -9.8837681 -19.463953
-9.0074272 -11.009079 -18.841534
-9.1432562 -12.19101 -18.086926
-9.3273401 -13.472824 -17.064245
-9.5553837 -14.863931 -15.79733
-9.8853846 -16.475643 -13.963994
-10.460457 -18.596371 -10.769146
-8.9126368 17.82527 -13.178819
-8.5722361 16.072941 -15.306322
-8.3475542 14.608217 -16.710585
-8.1739912 13.282733 -17.795353
-8.035615 12.05342 -18.660204
-7.9224892 10.893423 -19.367237
-7.8317304 9.7896605 -19.934479
-7.7486672 8.7172489 -20.453625
-7.686255 7.6862535 -20.843704
-7.6300139 6.6762595 -21.19521
-7.5823755 5.6867819 -21.492945
-7.5455756 4.7159853 -21.722946
-7.5167613 3.7583799 -21.903042
-7.4928503 2.8098164 -22.052481
-7.4793768 1.8698425 -22.136692
-7.4659295 0.93324089 -22.220737
-7.4608235 -0 -22.252651
-7.4704137 -0.9338007 -22.192709
-7.4807673 -1.8701916 -22.127998
-7.4911504 -2.8091812 -22.063108
-7.5144353 -3.7572174 -21.917578
-7.5510864 -4.7194281 -21.688507
-7.5881639 -5.6911221 -21.456772
-7.6261721 -6.6729002 -21.219223
-7.6916966 -7.6916981 -20.809692
-7.7617955 -8.7320213 -20.371571
-7.8390751 -9.7988462 -19.888578
-7.9359207 -10.91189 -19.283293
-8.0476208 -12.071432 -18.585165
-8.1895132 -13.307957 -17.698339
-8.3727188 -14.652257 -16.553307
-8.6174259 -16.157675 -15.023887
-8.9823818 -17.964766 -12.742908
-8.1191092 19.717834 -10.889163
-7.6691589 17.529505 -14.103091
-7.4142809 15.887744 -15.923646
-7.2218523 14.443707 -17.298134
-7.0868578 13.161304 -18.262383
-6.9700336 11.948627 -19.096842
-6.8811688 10.813264 -19.731592
-6.7991352 9.7130489 -20.317549
-6.7362318 8.6608677 -20.766855
-6.6800828 7.634378 -21.167919
-6.6295614 6.6295581 -21.528788
-6.5954204 5.6532164 -21.772652
-6.5628529 4.6877508 -22.005276
-6.5319681 3.7325535 -22.225878
-6.517663 2.7932844 -22.32806
-6.5067635 1.8590736 -22.405918
-6.4965177 0.92807102 -22.479099
-6.4915009 -9.5367432e-07 -22.514935
-6.4986725 -0.92838192 -22.463703
-6.5085297 -1.8595819 -22.393295
-6.5184169 -2.7936058 -22.322674
-6.5400848 -3.7371941 -22.167904
-6.5665636 -4.6904049 -21.978769
-6.598588 -5.6559329 -21.750025
-6.6384888 -6.6384902 -21.465015
-6.6876783 -7.6430597 -21.113667
-6.7391539 -8.6646252 -20.745983
-6.8053994 -9.722003 -20.2728
-6.8938031 -10.83312 -19.641346
-6.9845119 -11.973453 -18.993423
-7.096838 -13.17984 -18.191101
-7.2460337 -14.492069 -17.125412
-7.4297833 -15.920966 -15.812913
-7.7060962 -17.613934 -13.839251
-8.230794 -19.989071 -10.091408
-6.7752686 19.196594 -12.422222
-6.4669871 17.245298 -14.991236
-6.2827063 15.706764 -16.526913
-6.1377425 14.321398 -17.734943
-6.0236845 13.051315 -18.685431
-5.9308438 11.861688 -19.459099
-5.8568015 10.737469 -20.076117
-5.7872725 9.6454544 -20.655527
-5.7393494 8.6090221 -21.054888
-5.6923141 7.5897503 -21.446846
-5.6507854 6.5925803 -21.792917
-5.6240735 5.624074 -22.015518
-5.5976291 4.6646891 -22.235888
-5.5740376 3.7160225 -22.432484
-5.5592093 2.779604 -22.556049
-5.5504847 1.8501577 -22.628757
-5.5418029 0.92363262 -22.701105
-5.5421848 9.5367432e-07 -22.697924
-5.543776 -0.9239645 -22.684666
-5.5486026 -1.8495369 -22.64444
-5.5613551 -2.7806797 -22.538168
-5.5802717 -3.7201815 -22.380531
-5.5993009 -4.6660843 -22.221956
-5.6211758 -5.6211767 -22.039663
-5.6609406 -6.6044316 -21.708292
-5.7016087 -7.6021457 -21.369387
-5.7452579 -8.6178875 -21.005648
-5.8003454 -9.6672421 -20.546583
-5.8675685 -10.757212 -19.986389
-5.944263 -11.888527 -19.347271
-6.0372252 -13.080656 -18.572584
-6.1539192 -14.359146 -17.600136
-6.2989998 -15.747499 -16.391136
-6.5090823 -17.357553 -14.640444
-6.8337512 -19.362297 -11.934869
-5.5639839 18.917543 -13.242958
-5.3415346 17.092909 -15.467451
-5.1929593 15.578876 -16.953203
-5.0818648 14.229222 -18.064146
-4.990067 12.974173 -18.982128
-4.9183207 11.803968 -19.699591
-4.8575072 10.686514 -20.307726
-4.8052578 9.6105137 -20.830219
-4.7624078 8.5723333 -21.25872
-4.7235436 7.5576687 -21.647362
-4.6934261 6.5707941 -21.948536
-4.6667743 5.6001263 -22.215054
-4.6449242 4.6449223 -22.433552
-4.6292496 3.7033987 -22.590302
-4.6166854 2.7700081 -22.715946
-4.6041756 1.84167 -22.841038
-4.5990171 0.91980171 -22.892624
-4.6003189 -9.5367432e-07 -22.879606
-4.6022401 -0.92044735 -22.860397
-4.6043472 -1.8417397 -22.839329
-4.6155066 -2.7693043 -22.727726
-4.6316481 -3.7053223 -22.566317
-4.647903 -4.6479034 -22.40377
-4.6686158 -5.6023407 -22.19664
-4.6960697 -6.5744953 -21.922098
-4.7268043 -7.5628858 -21.614752
-4.763916 -8.5750484 -21.243637
-4.8132205 -9.6264439 -20.750591
-4.8635707 -10.699858 -20.247089
-4.9213738 -11.811298 -19.669056
-5.0025864 -13.006727 -18.856936
-5.0931888 -14.260929 -17.950905
-5.2061987 -15.618596 -16.820808
-5.3612175 -17.155897 -15.270619
-5.5917878 -19.012079 -12.96492
-4.7284303 21.277935 -9.7774181
-4.4045081 18.719154 -13.826448
-4.2434216 16.973682 -15.840031
-4.1273947 15.477732 -17.290359
-4.0440226 14.154078 -18.33251
-3.973521 12.91394 -19.213789
-3.9185236 11.755569 -19.901255
-3.8676522 10.63604 -20.537146
-3.8303313 9.5758247 -21.003654
-3.7948201 8.5383425 -21.447544
-3.764348 7.528697 -21.828445
-3.7423956 6.5491934 -22.102854
-3.7207081 5.5810614 -22.373943
-3.7009082 4.6261358 -22.621445
-3.6913784 3.6913776 -22.740568
-3.6822131 2.7616587 -22.855133
-3.6731038 1.8365536 -22.968996
-3.6690314 0.91725445 -23.019901
-3.6692827 -9.5367432e-07 -23.016766
-3.6709569 -0.91773987 -22.995836
-3.6746035 -1.8373013 -22.950253
-3.6829402 -2.7622061 -22.846046
-3.6921513 -3.6921492 -22.730907
-3.7050624 -4.6313295 -22.569519
-3.7250466 -5.5875726 -22.319712
-3.7466106 -6.5565696 -22.050163
-3.768878 -7.5377574 -21.771824
-3.7970364 -8.5433302 -21.419844
-3.8352156 -9.5880394 -20.9426
-3.8753483 -10.657209 -20.440941
-3.9232287 -11.769687 -19.842438
-3.9824204 -12.942869 -19.102537
-4.0468578 -14.164003 -18.297073
-4.1422029 -15.533262 -17.105261
-4.2550912 -17.020367 -15.694156
-4.4300632 -18.827768 -13.507002
-3.4757726 20.854633 -10.953255
-3.2781558 18.576214 -14.246868
-3.1641257 16.875334 -16.147371
-3.0813394 15.406694 -17.527143
-3.0200007 14.093334 -18.549452
-2.9695446 12.868023 -19.390388
-2.928987 11.71595 -20.066343
-2.8916602 10.602755 -20.688457
-2.8646171 9.5487251 -21.139175
-2.8383338 8.5149994 -21.577236
-2.816031 7.5094166 -21.948944
-2.8002269 6.5338621 -22.212345
-2.7845993 5.5691957 -22.472809
-2.7716572 4.6194267 -22.688509
-2.7620075 3.6826744 -22.84934
-2.7551661 2.7551661 -22.963364
-2.7491255 1.8327494 -23.064043
-2.7473261 0.91577435 -23.094028
-2.7455213 -2.8610229e-06 -23.124107
-2.7451468 -0.91504765 -23.130352
-2.749963 -1.8333092 -23.050076
-2.7561886 -2.7561913 -22.946321
-2.7624974 -3.6833296 -22.841171
-2.7709889 -4.6183147 -22.69965
-2.7864478 -5.5728965 -22.442001
-2.8023484 -6.5388117 -22.176992
-2.8189993 -7.517333 -21.899475
-2.8429387 -8.5288162 -21.500483
-2.8672884 -9.5576267 -21.094658
-2.8952675 -10.615983 -20.628338
-2.9345245 -11.7381 -19.974052
-2.9767592 -12.89929 -19.270145
-3.0272067 -14.126964 -18.429352
-3.0920167 -15.460085 -17.349182
-3.1736634 -16.926205 -15.988409
-3.2961857 -18.678387 -13.946366
-3.5294175 -21.176508 -10.059172
-2.2990637 20.691572 -11.406203
-2.1739519 18.478588 -14.534
-2.1035092 16.82807 -16.295069
-2.0503328 15.377495 -17.624479
-2.0091546 14.064081 -18.653933
-1.9766504 12.848227 -19.466534
-1.9491751 11.69505 -20.153416
-1.9261295 10.59371 -20.729563
-1.9067181 9.5335884 -21.214848
-1.8892455 8.501605 -21.651657
-1.8758603 7.5034399 -21.986286
-1.8634886 6.5222101 -22.295578
-1.8531072 5.5593195 -22.555115
-1.8458374 4.6145916 -22.736862
-1.8392073 3.6784124 -22.902611
-1.8326249 2.7489357 -23.067173
-1.8297908 1.829792 -23.138025
-1.8287822 0.91438961 -23.16324
-1.8279513 -9.5367432e-07 -23.184017
-1.8275256 -0.91376495 -23.194653
-1.8305297 -1.8305292 -23.119553
-1.8349603 -2.7524405 -23.008789
-1.8394125 -3.6788254 -22.897488
-1.8466529 -4.6166334 -22.716473
-1.8551636 -5.5654922 -22.503708
-1.8637586 -6.5231547 -22.288837
-1.8761775 -7.5047097 -21.978357
-1.8922614 -8.5151777 -21.576262
-1.9086404 -9.5432014 -21.166786
-1.9276003 -10.601801 -20.692789
-1.9518706 -11.711226 -20.086035
-1.9778652 -12.856125 -19.436163
-2.0142663 -14.099865 -18.526138
-2.0557287 -15.417965 -17.489582
-2.1094034 -16.875227 -16.147715
-2.1839318 -18.563423 -14.284498
-2.3256295 -20.930668 -10.742059
-1.1455384 20.61969 -11.605877
-1.0837291 18.423395 -14.696337
-1.0488206 16.781128 -16.441771
-1.0240768 15.36115 -17.678957
-1.0028962 14.040547 -18.737988
-0.98741555 12.836401 -19.512018
-0.97285235 11.674229 -20.240177
-0.96224684 10.584714 -20.770451
-0.95223635 9.5223598 -21.270981
-0.94360077 8.492404 -21.702759
-0.93719548 7.4975629 -22.023026
-0.93087381 6.5161152 -22.339108
-0.92528826 5.5517263 -22.618385
-0.92217559 4.6108751 -22.774021
-0.91908115 3.6763239 -22.928741
-0.9160099 2.7480297 -23.082298
-0.91448987 1.8289795 -23.158302
-0.9138121 0.91380882 -23.19219
-0.91339976 -1.9073486e-06 -23.212811
-0.91380948 -0.91381073 -23.192318
-0.91502547 -1.8300543 -23.131523
-0.91635942 -2.7490788 -23.064823
-0.91877669 -3.6751051 -22.943962
-0.92299014 -4.6149492 -22.73329
-0.92725039 -5.5635028 -22.520275
-0.93155557 -6.5208888 -22.305019
-0.93780446 -7.5024357 -21.992575
-0.94495279 -8.5045757 -21.635157
-0.9531219 -9.5312195 -21.226702
-0.9636789 -10.600471 -20.698849
-0.97542059 -11.705046 -20.111767
-0.98856503 -12.851347 -19.454544
-1.0059243 -14.082941 -18.58658
-1.0250717 -15.376076 -17.629215
-1.0534794 -16.855673 -16.208824
-1.0891353 -18.515301 -14.426035
-1.1578946 -20.842104 -10.988063
0 20.664263 -11.482059
0 18.468546 -14.56354
0 16.784081 -16.432539
0 15.365648 -17.66396
0 14.044924 -18.722357
0 12.839355 -19.500656
0 11.67691 -20.229
0 10.58674 -20.761244
0 9.5243893 -21.260838
0 8.4943991 -21.691689
0 7.4996152 -22.010195
0 6.5191145 -22.317692
0 5.5572586 -22.572315
0 4.6108646 -22.774151
0 3.6763134 -22.928875
0 2.7493849 -23.059736
0 1.8301487 -23.129051
0 0.91369152 -23.198154
0 -9.5367432e-07 -23.241695
0 -0.91385841 -23.189983
0 -1.8301764 -23.128401
0 -2.7494774 -23.058167
0 -3.6753492 -22.940945
0 -4.6133909 -22.748903
0 -5.5616431 -22.535767
0 -6.5222502 -22.295309
0 -7.5071397 -21.963175
0 -8.5061998 -21.626135
0 -9.5272694 -21.246452
0 -10.599102 -20.705053
0 -11.698878 -20.137474
0 -12.86233 -19.412296
0 -14.088667 -18.566133
0 -15.387297 -17.591801
0 -16.845911 -16.239326
0 -18.518684 -14.416081
0 -20.835583 -11.006179
1.153417 20.761507 -11.211946
1.0895778 18.52282 -14.403914
1.0522635 16.836216 -16.269619
1.0260324 15.390486 -17.581173
1.0057074 14.079903 -18.597425
0.98898435 12.856794 -19.433582
0.97511321 11.701358 -20.127136
0.96352023 10.598721 -20.706783
0.95350587 9.535059 -21.2075
0.94549972 8.5094948 -21.607809
0.93809146 7.5047312 -21.978222
0.93193322 6.52353 -22.286137
0.92742407 5.5645466 -22.511593
0.92325753 4.6162882 -22.719917
0.91912836 3.6765127 -22.92638
0.91704881 2.7511454 -23.030354
0.91581446 1.8316307 -23.092073
0.91463798 0.91463566 -23.150898
0.91387433 9.5367432e-07 -23.189075
0.91462505 -0.91462326 -23.151546
0.9160282 -1.832057 -23.081387
0.91743571 -2.7523117 -23.011011
0.92049271 -3.6819725 -22.858162
0.92384064 -4.6192045 -22.690765
0.92721033 -5.5632625 -22.52228
0.93247324 -6.5273132 -22.259134
0.93928796 -7.5143046 -21.9184
0.94620305 -8.5158272 -21.572647
0.95485252 -9.5485249 -21.140171
0.96506602 -10.615726 -20.629494
0.97566301 -11.707958 -20.099644
0.9903264 -12.874244 -19.366478
1.0067739 -14.094835 -18.544098
1.0275886 -15.41383 -17.503365
1.0550336 -16.880537 -16.131119
1.0931789 -18.584042 -14.223852
1.1664476 -20.996061 -10.560412
2.3417222 21.0755 -10.339737
2.1912553 18.625671 -14.101408
2.1115553 16.892441 -16.093912
2.056668 15.42501 -17.466097
2.0164309 14.115014 -18.472029
1.9813844 12.879 -19.348185
1.9543182 11.725908 -20.024843
1.9310064 10.620534 -20.607635
1.9094728 9.5473633 -21.145977
1.8943666 8.5246496 -21.523628
1.8794975 7.5179911 -21.895359
1.8658493 6.5304718 -22.236563
1.8578732 5.5736179 -22.435968
1.8499594 4.624897 -22.633808
1.8421183 3.6842375 -22.829838
1.8375955 2.7563934 -22.942913
1.8346937 1.8346939 -23.015457
1.832338 0.91616821 -23.074348
1.8319364 -1.9073486e-06 -23.084385
1.8328962 -0.91644859 -23.06039
1.8339409 -1.8339415 -23.034275
1.8376426 -2.7564669 -22.94173
1.8443512 -3.6887016 -22.774019
1.8512417 -4.6281052 -22.601751
1.8581896 -5.5745697 -22.428059
1.8695074 -6.5432758 -22.145111
1.8810189 -7.5240765 -21.857323
1.8946677 -8.5260057 -21.516104
1.9140723 -9.570364 -21.030991
1.9341747 -10.637961 -20.528427
1.9567244 -11.740347 -19.964685
1.98439 -12.898536 -19.273048
2.019366 -14.135561 -18.398645
2.0627978 -15.470985 -17.312847
2.1199007 -16.959208 -15.885275
2.1983204 -18.68572 -13.924791
3.6873295 22.123978 -7.4273067
3.3169544 18.796074 -13.600222
3.18999 17.013277 -15.716297
3.1029878 15.514938 -17.166332
3.0385633 14.17996 -18.240078
2.98507 12.935303 -19.13163
2.9422512 11.769005 -19.845276
2.9068961 10.658617 -20.434525
2.8746731 9.582243 -20.971579
2.8503582 8.551075 -21.376823
2.8283889 7.5423684 -21.742981
2.8092384 6.5548887 -22.062155
2.7938418 5.5876818 -22.318768
2.7816792 4.6361303 -22.521481
2.7711561 3.6948719 -22.696861
2.7646492 2.7646475 -22.805311
2.7581728 1.8387794 -22.913254
2.7531075 0.91770172 -22.997669
2.754215 -3.8146973e-06 -22.979214
2.7560391 -0.9186821 -22.948811
2.7581568 -1.8387728 -22.913513
2.7636282 -2.7636309 -22.822327
2.7721665 -3.6962214 -22.680019
2.7825449 -4.6375742 -22.507051
2.7953384 -5.5906768 -22.293825
2.8125036 -6.56251 -22.007734
2.8303208 -7.5475235 -21.710781
2.8501227 -8.5503674 -21.380753
2.8783069 -9.5943556 -20.911018
2.9075966 -10.661188 -20.422855
2.9452398 -11.78096 -19.795465
2.9880633 -12.948276 -19.081739
3.0422399 -14.197118 -18.178801
3.1097441 -15.548719 -17.053726
3.1961572 -17.046171 -15.613512
3.327311 -18.854763 -13.427614
4.4782081 19.032381 -12.9052
4.2889595 17.15584 -15.270796
4.1624408 15.60915 -16.852291
4.0759315 14.265759 -17.933653
3.9996443 12.998844 -18.887245
3.9434552 11.830364 -19.589603
3.8919976 10.702993 -20.232826
3.8508415 9.6271048 -20.747278
3.815516 8.5849094 -21.188847
3.7837996 7.5675988 -21.585297
3.7601917 6.5803347 -21.8804
3.7395036 5.6092548 -22.139
3.7190416 4.6487999 -22.394773
3.706001 3.7059984 -22.557785
3.6981971 2.7736464 -22.655334
3.6904366 1.8452148 -22.752342
3.6844368 0.92110825 -22.827335
3.6842473 -9.5367432e-07 -22.829706
3.6870856 -0.92177391 -22.794226
3.6899285 -1.8449631 -22.758686
3.6998763 -2.77491 -22.634342
3.7104554 -3.7104559 -22.502106
3.7212994 -4.6516256 -22.366554
3.7393513 -5.6090279 -22.1409
3.7633247 -6.5858192 -21.841236
3.7876074 -7.575213 -21.537706
3.8161831 -8.5864134 -21.180504
3.8514173 -9.6285439 -20.740078
3.8953304 -10.71216 -20.191164
3.9456911 -11.837074 -19.561655
4.0051446 -13.01672 -18.818491
4.0813589 -14.284758 -17.86581
4.1722622 -15.645981 -16.729525
4.3000197 -17.200083 -15.132545
4.4954729 -19.105762 -12.689387
5.7107997 19.416718 -11.774801
5.4235954 17.355503 -14.646844
5.2497654 15.749299 -16.385139
5.1332717 14.373158 -17.550077
5.0293856 13.076404 -18.588938
4.9575663 11.898158 -19.307135
4.8883481 10.754364 -19.999313
4.8368611 9.6737204 -20.514183
4.7928486 8.6271257 -20.954311
4.7496438 7.5994315 -21.386358
4.720952 6.6093316 -21.673275
4.6960011 5.6351995 -21.922783
4.6713262 4.6713257 -22.169535
4.6545711 3.7236557 -22.337086
4.6419764 2.7851849 -22.463032
4.6321945 1.8528786 -22.56085
4.6272793 0.925457 -22.610003
4.626308 -0 -22.619713
4.6253242 -0.92506504 -22.629553
4.6305418 -1.8522177 -22.577379
4.6443343 -2.786602 -22.439455
4.6585331 -3.7268257 -22.29747
4.6734972 -4.6734982 -22.147823
4.6987987 -5.6385579 -21.89481
4.7243619 -6.6141076 -21.639179
4.7526317 -7.6042099 -21.356482
4.7947907 -8.6306248 -20.934887
4.8399453 -9.6798887 -20.483341
4.8961272 -10.771482 -19.921522
4.960638 -11.905532 -19.276413
5.0427513 -13.111154 -18.455284
5.1390262 -14.389275 -17.492533
5.2646742 -15.794025 -16.236053
5.4418268 -17.413847 -14.464525
7.0968423 20.107718 -9.7424469
6.6124635 17.633232 -13.778934
6.375998 15.939995 -15.749478
6.2183466 14.509473 -17.063242
6.0934658 13.202507 -18.103918
5.9958148 11.991627 -18.917671
5.9114523 10.837663 -19.620693
5.8445697 9.7409496 -20.178047
5.7883654 8.6825457 -20.64642
5.7374396 7.6499186 -21.070805
5.6992192 6.6490884 -21.389303
5.6642952 5.6642962 -21.68034
5.6351852 4.6959877 -21.922922
5.6169896 3.7446594 -22.074551
5.5989113 2.7994556 -22.225201
5.5817876 1.8605947 -22.367897
5.5793362 0.92989063 -22.388325
5.579772 -9.5367432e-07 -22.384697
5.5802069 -0.93003559 -22.381069
5.5875382 -1.8625126 -22.319977
5.5999179 -2.7999601 -22.216812
5.6157317 -3.743824 -22.085032
5.6383772 -4.6986475 -21.896318
5.669817 -5.6698165 -21.634327
5.7028546 -6.6533327 -21.359007
5.7400489 -7.6534004 -21.049055
5.7888684 -8.6833038 -20.642225
5.8457556 -9.7429256 -20.168167
5.9175758 -10.848889 -19.569666
5.999187 -11.998375 -18.889572
6.1019764 -13.22095 -18.032991
6.2260056 -14.527347 -16.99942
6.3955321 -15.988832 -15.586693
6.6465821 -17.724218 -13.494614
7.8937893 18.042946 -12.498587
7.5465875 16.171261 -14.978596
7.3421502 14.684299 -16.438866
7.1782913 13.331113 -17.609289
7.0596747 12.102297 -18.456549
6.9505291 10.922258 -19.236162
6.874198 9.820282 -19.781382
6.7995658 8.7422981 -20.314468
6.739779 7.7026029 -20.74152
6.6945739 6.6945734 -21.064411
6.6500316 5.7000246 -21.382574
6.6133304 4.7238054 -21.644726
6.5936637 3.7678051 -21.7852
6.5741334 2.8174849 -21.924704
6.5563016 1.8732281 -22.052073
6.5502582 0.93575001 -22.09524
6.5485826 9.5367432e-07 -22.107204
6.5490971 -0.93558788 -22.103535
6.5620303 -1.8748655 -22.011147
6.5766668 -2.818572 -21.906605
6.5929685 -3.7674122 -21.790161
6.6213183 -4.7295156 -21.587662
6.6567516 -5.70579 -21.334572
6.6957684 -6.6957674 -21.05588
6.7431479 -7.7064571 -20.717457
6.8037758 -8.7477112 -20.284401
6.877912 -9.8255901 -19.75485
6.9572692 -10.932852 -19.188017
7.0674486 -12.115625 -18.401022
7.190434 -13.353662 -17.522552
7.3573766 -14.714756 -16.330103
7.5794935 -16.241774 -14.743553
7.9225769 -18.108749 -12.292958
9.3731976 18.746397 -10.300307
8.8063345 16.511873 -13.843207
8.523819 14.91668 -15.608929
8.3160076 13.513512 -16.907747
8.1625366 12.243804 -17.866941
8.0280476 11.038565 -18.707499
7.9305911 9.9132385 -19.316601
7.8439951 8.8244944 -19.85783
7.7692437 7.7692447 -20.32502
7.7135892 6.7493896 -20.672863
7.6636043 5.7477031 -20.985268
7.6231456 4.7644644 -21.238132
7.5912514 3.7956247 -21.437477
7.5660648 2.8372736 -21.594891
7.5494037 1.887351 -21.69902
7.5423927 0.94279671 -21.742844
7.5353947 -0 -21.786579
7.5331459 -0.94164467 -21.800636
7.5522385 -1.8880625 -21.681309
7.5714273 -2.8392849 -21.561375
7.5917439 -3.7958736 -21.434397
7.6294036 -4.7683787 -21.199022
7.6674161 -5.7505617 -20.961447
7.7124338 -6.7483816 -20.680088
7.7784448 -7.7784467 -20.267513
7.8460507 -8.8268089 -19.844978
7.9341841 -9.9177303 -19.294147
8.0407343 -11.05601 -18.628206
8.1664724 -12.249709 -17.842346
8.3294058 -13.535282 -16.824009
8.5410404 -14.946821 -15.501296
8.8449078 -16.584202 -13.602122
10.228943 17.048235 -12.05534
9.7854605 15.221828 -14.519128
9.5013762 13.724207 -16.097378
9.3083353 12.411113 -17.169823
9.1463461 11.178867 -18.069763
9.0255032 10.028337 -18.741114
8.9152422 8.9152393 -19.353674
8.8325949 7.8511944 -19.812826
8.7608881 6.8140225 -20.211197
8.6942759 5.7961845 -20.581261
8.6519442 4.8066339 -20.816442
8.6154003 3.8290663 -21.019459
8.5808916 2.8602943 -21.211174
8.5618429 1.9026299 -21.317001
8.5568094 0.95075703 -21.344967
8.5517817 -9.5367432e-07 -21.372896
8.5556717 -0.95063019 -21.351284
8.5702543 -1.904501 -21.270271
8.5848856 -2.8616295 -21.18899
8.6122494 -3.8276653 -21.036966
8.6594458 -4.810801 -20.774765
8.7071352 -5.8047557 -20.509823
8.7682085 -6.8197184 -20.170528
8.8443537 -7.8616486 -19.747499
8.9251318 -8.9251328 -19.298733
9.0259533 -10.028835 -18.738615
9.1591291 -11.19449 -17.998743
9.3171082 -12.422812 -17.121082
9.5264702 -13.760458 -15.957961
9.8087568 -15.258065 -14.389705
10.275793 -17.12632 -11.795064
11.192521 15.669525 -12.920192
10.785789 14.021526 -14.953848
10.526731 12.632076 -16.24914
10.313395 11.344732 -17.315826
10.165816 10.165816 -18.053715
10.030306 9.0272732 -18.731266
9.9260807 7.940865 -19.252392
9.8465729 6.892601 -19.649933
9.7683287 5.8609958 -20.041157
9.7132845 4.8566394 -20.316376
9.6727047 3.8690815 -20.519272
9.6344814 2.8903446 -20.710388
9.614994 1.9229994 -20.807823
9.5991917 0.95991611 -20.886833
9.5887537 -9.5367432e-07 -20.93903
9.5990772 -0.95990753 -20.887405
9.6187592 -1.9237528 -20.789001
9.6392717 -2.8917828 -20.686438
9.6763401 -3.8705387 -20.501099
9.7220583 -4.8610291 -20.272507
9.7681799 -5.8609071 -20.041897
9.8495855 -6.8947105 -19.634865
9.9397535 -7.9518037 -19.184025
10.037126 -9.0334148 -18.69717
10.174655 -10.174654 -18.009521
10.330709 -11.363781 -17.229252
10.539935 -12.647923 -16.183121
10.81246 -14.056199 -14.820496
11.227939 -15.719114 -12.743105
12.910473 16.431513 -10.198825
12.192325 14.409109 -13.46314
11.835848 12.911833 -15.083489
11.561668 11.561665 -16.329762
11.370934 10.337212 -17.196732
11.203597 9.1665783 -17.957355
11.081724 8.0594349 -18.511322
10.970968 6.981523 -19.014759
10.8809 5.9350367 -19.424156
10.822059 4.919117 -19.69162
10.763882 3.9141388 -19.956062
10.711608 2.9213448 -20.19367
10.695815 1.9446926 -20.265457
10.682421 0.97112656 -20.326344
10.669027 -9.5367432e-07 -20.387215
10.68168 -0.97106075 -20.329712
10.6963 -1.9447842 -20.263252
10.719359 -2.9234629 -20.158432
10.770398 -3.916512 -19.926439
10.829077 -4.9223075 -19.659723
10.892819 -5.9415412 -19.36998
10.988608 -6.9927506 -18.934576
11.090473 -8.0657978 -18.471556
11.227012 -9.1857395 -17.850924
11.388419 -10.353109 -17.11725
11.584823 -11.584825 -16.22451
11.859678 -12.93783 -14.975167
12.263365 -14.493068 -13.140225
13.095053 -16.666428 -9.359827
14.037362 15.20714 -10.393789
13.319572 13.319569 -13.384581
12.92242 11.845551 -15.039383
12.674072 10.561726 -16.07416
12.453054 9.3397903 -16.995066
12.290447 8.1936293 -17.6726
12.16685 7.0973277 -18.187584
12.0503 6.0251508 -18.67321
11.975121 4.9896312 -18.986462
11.913502 3.9711652 -19.24321
11.858955 2.9647388 -19.470482
11.829858 1.9716406 -19.591721
11.805809 0.9838171 -19.691925
11.796614 -2.8610229e-06 -19.73024
11.811804 -0.98431778 -19.666945
11.832903 -1.9721489 -19.579033
11.862526 -2.9656324 -19.455605
11.91898 -3.9729943 -19.220377
11.975938 -4.9899726 -18.983059
12.060763 -6.0303845 -18.629622
12.177554 -7.1035743 -18.142986
12.29663 -8.1977539 -17.646839
12.478163 -9.3586226 -16.890448
12.674862 -10.562387 -16.070868
12.968809 -11.888076 -14.846092
13.35758 -13.35758 -13.226215
14.122058 -15.298895 -10.04089
15.254772 14.081327 -10.210594
14.470811 12.244533 -13.225828
14.075304 10.827155 -14.747017
13.80468 9.5570869 -15.787874
13.615719 8.3789043 -16.514645
13.435011 7.2342367 -17.209677
13.296624 6.1368999 -17.741936
13.20455 5.0786724 -18.096064
13.113701 4.0349846 -18.44548
13.04928 3.0113697 -18.693256
13.02146 2.0032997 -18.800261
12.995573 0.99965954 -18.899818
12.984643 -2.8610229e-06 -18.94186
12.997107 -0.99977779 -18.893923
13.018056 -2.0027809 -18.813351
13.060687 -3.0140057 -18.649387
13.132719 -4.0408373 -18.372339
13.209136 -5.0804381 -18.07843
13.321306 -6.1482973 -17.647001
13.455968 -7.2455215 -17.129074
13.621704 -8.3825865 -16.491629
13.848776 -9.5876169 -15.618269
14.129637 -10.86895 -14.538039
14.547597 -12.309505 -12.930502
15.401171 -14.216463 -9.6475258
17.101469 13.436868 -7.8061233
15.785144 11.275102 -12.507281
15.356144 9.8718071 -14.039426
15.054897 8.6027975 -15.115307
14.821538 7.4107661 -15.948737
14.65183 6.2793565 -16.554832
14.521025 5.1860814 -17.021988
14.42276 4.1207886 -17.37294
14.346525 3.0742555 -17.645206
14.29754 2.0425062 -17.820156
14.254521 1.018177 -17.973789
14.249518 -9.5367432e-07 -17.991659
14.271544 -1.0193987 -17.912998
14.297267 -2.042469 -17.821127
14.356583 -3.0764098 -17.609287
14.431676 -4.1233349 -17.341095
14.515224 -5.1840072 -17.042707
14.67507 -6.2893167 -16.471834
14.838817 -7.4194088 -15.887019
15.084383 -8.6196489 -15.009999
15.386297 -9.8911924 -13.931731
15.880898 -11.3435 -12.165302
17.418053 10.450832 -10.822618
16.782246 8.950531 -12.94198
16.396011 7.6514721 -14.229422
16.14287 6.4571471 -15.073234
15.99291 5.3309679 -15.573099
15.84982 4.2266169 -16.05006
15.743237 3.1486464 -16.405342
15.691857 2.092247 -16.576609
15.646945 1.0431299 -16.726311
15.640608 -9.5367432e-07 -16.747435
15.653033 -1.0435348 -16.706015
15.667665 -2.0890236 -16.657246
15.759529 -3.1519089 -16.351036
15.866179 -4.2309842 -15.995537
15.990896 -5.3302975 -15.579809
16.197794 -6.479115 -14.890152
16.43766 -7.670908 -14.09059
16.848785 -8.9860163 -12.720179
17.487207 -10.492326 -10.592104
18.675144 8.1703749 -10.522974
18.007675 6.7528758 -12.608814
17.727697 5.5399013 -13.483744
17.492525 4.3731298 -14.218653
17.335464 3.2504001 -14.709473
17.250557 2.1563177 -14.974804
17.183891 1.0739899 -15.183132
17.175238 -0 -15.210176
17.208931 -1.0755591 -15.104885
17.256224 -2.1570272 -14.957099
17.347086 -3.2525787 -14.673152
17.51198 -4.3779955 -14.157861
17.741072 -5.5440855 -13.441944
18.111677 -6.7918806 -12.283802
18.672367 -8.1691599 -10.531649
19.888721 4.679698 -10.386559
19.478106 3.4373107 -11.594254
19.302725 2.2709069 -12.110074
19.19013 1.1288304 -12.441237
19.166533 4.7683716e-07 -12.510637
19.194979 -1.129117 -12.426976
19.255375 -2.2653413 -12.249344
19.550213 -3.4500394 -11.382172
19.948185 -4.6936936 -10.211666
