# .PCD v0.7 - Point Cloud Data file format
VERSION 0.7
FIELDS x y z
SIZE 4 4 4
TYPE F F F
COUNT 1 1 1
WIDTH 1077
HEIGHT 1
VIEWPOINT 0 0 0 1 0 0 0
POINTS 1077
DATA ascii
-22.107937 2.3271513 -10.704016
-21.991928 1.1574693 -11.009299
-21.902363 -2.3841858e-06 -11.244997
-21.965937 -1.1561022 -11.0777
-22.190172 -2.3358088 -10.487602
-20.719994 6.9066629 -11.327255
-20.161753 5.6004848 -12.877922
-19.879257 4.4176111 -13.66264
-19.653587 3.275599 -14.289499
-19.52705 2.1696725 -14.640991
-19.461447 1.0811901 -14.823219
-19.42588 -9.5367432e-07 -14.92202
-19.426727 -1.0792632 -14.919666
-19.54352 -2.171505 -14.595241
-19.689726 -3.2816205 -14.189112
-19.909729 -4.424387 -13.577994
-20.236977 -5.6213841 -12.668972
-20.870564 -6.9568534 -10.909009
-19.230198 9.0495033 -12.323393
-18.727938 7.7115016 -13.800627
-18.39447 6.492166 -14.781415
-18.149109 5.3379726 -15.503068
-17.975348 4.2294917 -16.014128
-17.855261 3.1509275 -16.367321
-17.760204 2.0894332 -16.646904
-17.712538 1.041913 -16.787096
-17.70709 -2.8610229e-06 -16.803116
-17.729929 -1.0429382 -16.735943
-17.752884 -2.0885758 -16.66843
-17.850134 -3.1500263 -16.382402
-18.002495 -4.2358837 -15.934279
-18.168695 -5.3437338 -15.445456
-18.435377 -6.5066061 -14.661098
-18.786329 -7.7355461 -13.628886
-19.363461 -9.1122179 -11.931444
-18.351019 11.469386 -11.535861
-17.626596 9.9149609 -13.79968
-17.19784 8.598918 -15.139549
-16.93656 7.4097438 -15.956047
-16.69906 6.2621479 -16.698233
-16.557037 5.1740732 -17.142057
-16.429144 4.1072817 -17.541725
-16.32559 3.0610452 -17.865324
-16.279911 2.0349884 -18.008072
-16.247704 1.0154829 -18.108727
-16.215672 -0 -18.20882
-16.233873 -1.0146189 -18.151941
-16.289747 -2.0362215 -17.977331
-16.350319 -3.0656838 -17.78805
-16.440105 -4.1100287 -17.507465
-16.563215 -5.1760058 -17.122747
-16.717548 -6.2690802 -16.640461
-16.971447 -7.4250107 -15.847023
-17.254198 -8.6271029 -14.963427
-17.703379 -9.9581499 -13.55974
-18.45282 -11.533012 -11.217735
-16.843494 12.351894 -12.737813
-16.278248 10.852165 -14.621968
-15.91283 9.547699 -15.840027
-15.63995 8.3413067 -16.749632
-15.436602 7.2037458 -17.427458
-15.283292 6.1133151 -17.938492
-15.136508 5.0455008 -18.427773
-15.059728 4.0159259 -18.683708
-14.993541 2.9987087 -18.904324
-14.927889 1.990386 -19.123169
-14.901209 0.99341297 -19.212101
-14.90871 -9.5367432e-07 -19.187096
-14.916172 -0.99441338 -19.16222
-14.939854 -1.9919825 -19.083282
-14.99126 -2.9982543 -18.91193
-15.068564 -4.0182853 -18.654247
-15.173332 -5.0577774 -18.305025
-15.304514 -6.1218066 -17.86775
-15.456965 -7.2132502 -17.359579
-15.674024 -8.3594799 -16.636049
-15.925954 -9.5555725 -15.796278
-16.305355 -10.870237 -14.531612
-16.923267 -12.410398 -12.471904
-15.53784 13.318147 -13.390512
-15.064008 11.836005 -15.082769
-14.714273 10.510196 -16.33182
-14.466522 9.2999058 -17.216648
-14.262644 8.1500816 -17.944782
-14.109842 7.0549197 -18.490499
-13.975437 5.9894729 -18.97052
-13.882127 4.9579015 -19.303776
-13.800909 3.9431181 -19.593834
-13.742063 2.9447269 -19.803997
-13.70557 1.9579391 -19.93433
-13.679812 0.97712898 -20.026325
-13.676241 -1.9073486e-06 -20.039078
-13.680143 -0.97715282 -20.025139
-13.703194 -1.9575996 -19.942818
-13.751207 -2.9466906 -19.771343
-13.814747 -3.9470692 -19.544415
-13.883666 -4.9584527 -19.298275
-13.98624 -5.9941034 -18.93194
-14.119659 -7.0598326 -18.455442
-14.277558 -8.1586065 -17.891518
-14.495098 -9.3182793 -17.114592
-14.746974 -10.533552 -16.215033
-15.115303 -11.876308 -14.899571
-15.653959 -13.417677 -12.975798
-14.447475 14.447474 -13.315585
-13.941674 12.869236 -15.260973
-13.600847 11.508408 -16.571848
-13.347359 10.267199 -17.546801
-13.152247 9.1054001 -18.297232
-12.999531 7.9997106 -18.884602
-12.850595 6.9195509 -19.457426
-12.76968 5.8936992 -19.768646
-12.690892 4.8811121 -20.071674
-12.613031 3.8809357 -20.371132
-12.569038 2.9005451 -20.54034
-12.544806 1.9299698 -20.633545
-12.520665 0.96312809 -20.726391
-12.498446 -9.5367432e-07 -20.811848
-12.521078 -0.96316147 -20.724806
-12.548569 -1.9305506 -20.619076
-12.576218 -2.9022055 -20.51273
-12.625746 -3.8848429 -20.322237
-12.694974 -4.8826828 -20.055975
-12.779274 -5.8981276 -19.731739
-12.889951 -6.940742 -19.306065
-13.023486 -8.014452 -18.792465
-13.172164 -9.1191893 -18.220623
-13.376549 -10.289652 -17.434534
-13.613726 -11.519306 -16.522314
-13.973477 -12.898596 -15.138652
-14.517611 -14.51761 -13.045832
-13.403849 15.637822 -13.033428
-12.886114 13.959955 -15.190659
-12.541378 12.541378 -16.627058
-12.30376 11.278444 -17.617132
-12.100896 10.084082 -18.462391
-11.948407 8.9613037 -19.097767
-11.814911 7.876606 -19.653999
-11.71474 6.8335958 -20.071381
-11.624785 5.8123932 -20.44619
-11.554045 4.8141851 -20.740944
-11.505784 3.8352613 -20.942028
-11.46289 2.8657217 -21.120756
-11.431842 1.9053049 -21.250122
-11.413867 0.95115566 -21.325016
-11.41407 -1.9073486e-06 -21.324175
-11.416702 -0.95139408 -21.313204
-11.43858 -1.9064312 -21.222046
-11.460508 -2.8651257 -21.130676
-11.503042 -3.8343477 -20.953453
-11.567126 -4.8196373 -20.686438
-11.641079 -5.8205404 -20.3783
-11.724379 -6.8392215 -20.031223
-11.816358 -7.8775702 -19.647974
-11.956249 -8.9671879 -19.06509
-12.114562 -10.095469 -18.405457
-12.334727 -11.306834 -17.488102
-12.579615 -12.579616 -16.467735
-12.939305 -14.01758 -14.969028
-13.493582 -15.74251 -12.65954
-12.466775 17.000147 -12.215635
-11.891869 15.135104 -14.82885
-11.528385 13.624454 -16.481047
-11.288481 12.314707 -17.571522
-11.08051 11.080509 -18.51684
-10.932986 9.9390755 -19.187405
-10.789371 8.8276672 -19.840197
-10.692293 7.7762113 -20.281464
-10.608505 6.7508659 -20.662315
-10.526677 5.7418222 -21.034264
-10.470727 4.7594204 -21.288584
-10.432158 3.7935114 -21.463898
-10.39384 2.8346815 -21.638069
-10.359985 1.8836355 -21.791952
-10.354712 0.94133854 -21.81592
-10.353562 -2.8610229e-06 -21.821152
-10.352805 -0.94116402 -21.824591
-10.362018 -1.8840027 -21.782719
-10.400252 -2.8364325 -21.608919
-10.439201 -3.796072 -21.431877
-10.482944 -4.7649727 -21.233055
-10.533067 -5.7453079 -21.005219
-10.61423 -6.7545114 -20.636295
-10.70853 -7.7880249 -20.207661
-10.810426 -8.8448944 -19.744497
-10.933594 -9.9396324 -19.184641
-11.103414 -11.103414 -18.412737
-11.312288 -12.340678 -17.463305
-11.56537 -13.668167 -16.312935
-11.918092 -15.16848 -14.709653
-12.618979 -17.207699 -11.523801
-11.801223 18.881954 -9.8766861
-10.916882 16.37532 -14.29839
-10.564363 14.790105 -16.060987
-10.304511 13.395864 -17.360239
-10.100253 12.1203 -18.381533
-9.9448833 10.939372 -19.158379
-9.816987 9.8169851 -19.797859
-9.7062826 8.7356548 -20.351381
-9.6173506 7.6938796 -20.796043
-9.5433435 6.6803417 -21.166077
-9.4825783 5.6895428 -21.46991
-9.4322739 4.7161379 -21.721426
-9.3917007 3.7566776 -21.924292
-9.3593893 2.8078165 -22.085848
-9.3431683 1.8686323 -22.166958
-9.3270292 0.93270302 -22.247646
-9.3258944 -1.9073486e-06 -22.253323
-9.3274345 -0.93274307 -22.245619
-9.3440628 -1.8688107 -22.162479
-9.3624115 -2.8087225 -22.070736
-9.3967743 -3.7587109 -21.898926
-9.4353714 -4.7176867 -21.70594
-9.4864349 -5.6918612 -21.450621
-9.5505657 -6.6853957 -21.129967
-9.6339626 -7.7071695 -20.712984
-9.7191801 -8.747263 -20.286892
-9.8207321 -9.8207331 -19.779135
-9.9572525 -10.952976 -19.096535
-10.122491 -12.14699 -18.270342
-10.32736 -13.425571 -17.245993
-10.606911 -14.849677 -15.848245
-11.010328 -16.515491 -13.831156
-10.072814 17.907223 -12.92272
-9.631259 16.052095 -15.375803
-9.3496494 14.543899 -16.940296
-9.1434584 13.207216 -18.085804
-8.9839029 11.978537 -18.972221
-8.8501635 10.816866 -19.715221
-8.7387381 9.7097073 -20.334251
-8.6552277 8.6552277 -20.798201
-8.5733232 7.6207304 -21.253222
-8.5071478 6.6166682 -21.620863
-8.4621372 5.6414242 -21.870922
-8.4181137 4.6767273 -22.115498
-8.3746424 3.7220612 -22.357002
-8.3574371 2.7858114 -22.452585
-8.3426809 1.8539305 -22.534565
-8.328145 0.92534924 -22.615326
-8.3190308 -1.9073486e-06 -22.665955
-8.3335361 -0.92594814 -22.585371
-8.3481159 -1.8551359 -22.504374
-8.3641472 -2.7880497 -22.41531
-8.3802891 -3.7245731 -22.325638
-8.421443 -4.6785793 -22.097006
-8.4712696 -5.6475143 -21.820187
-8.5217152 -6.6279988 -21.539934
-8.5828762 -7.6292253 -21.200153
-8.6579952 -8.6579952 -20.782818
-8.7500105 -9.7222338 -20.271626
-8.8672323 -10.837728 -19.620392
-9.0010166 -12.001358 -18.877146
-9.163969 -13.236842 -17.971857
-9.3796244 -14.590527 -16.773773
-9.6708136 -16.118021 -15.156059
-10.165043 -18.07119 -12.410332
-9.4364452 20.052444 -9.9050159
-8.7081308 17.416262 -14.456977
-8.4031343 15.755875 -16.363207
-8.1987457 14.347805 -17.640636
-8.0233946 13.038014 -18.736582
-7.9047322 11.857099 -19.478216
-7.7904487 10.711867 -20.192492
-7.7026734 9.6283426 -20.741087
-7.6313028 8.5852165 -21.187153
-7.5616875 7.5616856 -21.62225
-7.5105991 6.5717745 -21.941551
-7.4686151 5.6014605 -22.203951
-7.43012 4.6438236 -22.444546
-7.4022632 3.7011299 -22.618649
-7.3791804 2.7671919 -22.762917
-7.3662601 1.8415661 -22.843674
-7.3533416 0.91916847 -22.924408
-7.3541188 -9.5367432e-07 -22.919552
-7.3553796 -0.9194231 -22.911674
-7.3667865 -1.8416986 -22.840382
-7.3806186 -2.7677317 -22.753929
-7.4058194 -3.7029095 -22.596426
-7.4337673 -4.6461058 -22.421751
-7.4739051 -5.6054296 -22.170889
-7.5175295 -6.5778375 -21.898241
-7.5656648 -7.5656662 -21.597391
-7.6361241 -8.5906391 -21.157022
-7.7158546 -9.6448193 -20.658703
-7.8085947 -10.736818 -20.079077
-7.9112177 -11.866829 -19.437683
-8.0480232 -13.078039 -18.582649
-8.2162228 -14.378391 -17.531399
-8.4361753 -15.817829 -16.1567
-8.7571812 -17.514364 -14.150414
-7.8880124 19.156601 -12.539849
-7.503705 17.151325 -15.284904
-7.2692747 15.577016 -16.959402
-7.1006403 14.201277 -18.163939
-6.9671454 12.938983 -19.117474
-6.8585639 11.757537 -19.893053
-6.7688794 10.63681 -20.533659
-6.6938381 9.5626249 -21.069664
-6.6269088 8.5203114 -21.547733
-6.5771084 7.516695 -21.90345
-6.5329347 6.5329332 -22.218977
-6.4893503 5.5622978 -22.530294
-6.4615984 4.6154261 -22.728523
-6.4409623 3.6805515 -22.875923
-6.420476 2.7516308 -23.022255
-6.4027567 1.8293591 -23.148815
-6.4011741 0.91444969 -23.160126
-6.4022837 -1.9073486e-06 -23.152199
-6.4033756 -0.91476822 -23.144398
-6.4045048 -1.8298578 -23.136333
-6.4204574 -2.751626 -23.022385
-6.4443154 -3.6824665 -22.851973
-6.4684997 -4.6203575 -22.679226
-6.4928665 -5.5653157 -22.50518
-6.533958 -6.5339608 -22.211668
-6.583374 -7.5238562 -21.858696
-6.6382737 -8.5349236 -21.466557
-6.6987152 -9.5695934 -21.034834
-6.7754145 -10.647083 -20.48698
-6.8661942 -11.77062 -19.838552
-6.9802923 -12.963402 -19.023567
-7.1168814 -14.233765 -18.04793
-7.293138 -15.628153 -16.788954
-7.5396671 -17.233528 -15.028028
-7.9512672 -19.310223 -12.08803
-6.6167011 18.747316 -13.743626
-6.3427396 16.913971 -16.02663
-6.1700239 15.425058 -17.465931
-6.028367 14.06619 -18.646406
-5.9268208 12.841442 -19.492622
-5.8298182 11.659636 -20.300978
-5.7650695 10.569292 -20.840549
-5.7029057 9.5048428 -21.358583
-5.6461754 8.4692612 -21.831333
-5.6074471 7.4765954 -22.15407
-5.5706124 6.4990463 -22.461025
-5.5354323 5.5354319 -22.754192
-5.5118895 4.5932417 -22.950384
-5.4944329 3.6629553 -23.095852
-5.4770718 2.7385349 -23.240528
-5.4651046 1.8217001 -23.340256
-5.4592333 0.90987015 -23.389183
-5.4601903 -9.5367432e-07 -23.381208
-5.4611478 -0.91019154 -23.37323
-5.467689 -1.822566 -23.318722
-5.4788589 -2.7394285 -23.225639
-5.4957309 -3.6638222 -23.085037
-5.5160146 -4.5966816 -22.916006
-5.5398474 -5.5398474 -22.717403
-5.5724936 -6.5012431 -22.445351
-5.6118965 -7.4825296 -22.116995
-5.6567616 -8.4851456 -21.743116
-5.7069845 -9.5116405 -21.324594
-5.7694621 -10.577349 -20.803946
-5.8491373 -11.698277 -20.139986
-5.9393086 -12.868504 -19.388559
-6.0444827 -14.103793 -18.51211
-6.1835184 -15.458798 -17.353474
-6.3699193 -16.986452 -15.800133
-6.6532693 -18.850929 -13.43889
-5.8826208 21.177429 -10.056593
-5.4346409 18.477776 -14.536386
-5.2339706 16.748703 -16.543091
-5.1012621 15.303787 -17.870173
-4.9926057 13.979294 -18.956738
-4.9103212 12.766834 -19.779587
-4.8381119 11.611469 -20.501678
-4.7807164 10.517573 -21.07563
-4.7294159 9.4588318 -21.588634
-4.6887217 8.4396992 -21.995577
-4.6513691 7.4421887 -22.369106
-4.6209407 6.4693165 -22.673386
-4.5974011 5.5168819 -22.908787
-4.5766368 4.5766354 -23.11643
-4.5586276 3.6469002 -23.29652
-4.5459037 2.72754 -23.423759
-4.5402598 1.8161039 -23.480196
-4.5346303 0.90692425 -23.536491
-4.5290146 -1.9073486e-06 -23.592648
-4.5311956 -0.90623951 -23.570839
-4.5404139 -1.8161659 -23.478661
-4.5496569 -2.7297935 -23.386227
-4.5589504 -3.6471615 -23.293289
-4.5754914 -4.5754938 -23.12788
-4.6004243 -5.5205107 -22.878551
-4.6265874 -6.4772234 -22.616922
-4.6556487 -7.4490376 -22.326313
-4.6866326 -8.4359379 -22.016474
-4.7358747 -9.4717493 -21.524048
-4.7870026 -10.531406 -21.012772
-4.8456731 -11.629617 -20.426062
-4.9164119 -12.782671 -19.718674
-5.0013266 -14.003713 -18.86953
-5.1149149 -15.344747 -17.733644
-5.2502623 -16.800842 -16.380173
-5.4602003 -18.56468 -14.280794
-4.5789104 20.605091 -11.64642
-4.3084536 18.310926 -15.02713
-4.1632214 16.652885 -16.842525
-4.0547099 15.20516 -18.198923
-3.9762945 13.917031 -19.179113
-3.9074738 12.699287 -20.039377
-3.8562284 11.568684 -20.679941
-3.8074584 10.470509 -21.289568
-3.768635 9.421587 -21.774857
-3.7379401 8.4103632 -22.158548
-3.707741 7.4154801 -22.536034
-3.6822762 6.4439831 -22.854343
-3.6658344 5.4987488 -23.059866
-3.6495385 4.561924 -23.263565
-3.6333869 3.6333876 -23.465458
-3.625814 2.7193594 -23.56012
-3.6214585 1.8107281 -23.614567
-3.6171136 0.9042778 -23.668877
-3.6130021 -0 -23.720272
-3.6153157 -0.90382957 -23.691351
-3.6211734 -1.8105879 -23.61813
-3.6284916 -2.7213678 -23.526649
-3.636076 -3.6360769 -23.431847
-3.650532 -4.5631647 -23.251146
-3.6675367 -5.5013046 -23.038588
-3.6876454 -6.4533815 -22.787228
-3.7107227 -7.4214458 -22.49876
-3.7402101 -8.415472 -22.130173
-3.7738607 -9.4346523 -21.709538
-3.8134472 -10.486983 -21.214705
-3.8595812 -11.578744 -20.638031
-3.9132941 -12.718209 -19.966619
-3.9845898 -13.946065 -19.075422
-4.0678043 -15.254265 -18.035242
-4.1711936 -16.684776 -16.742872
-4.3226748 -18.37137 -14.849358
-4.6246734 -20.811031 -11.074379
-3.3833725 20.300234 -12.493254
-3.2050271 18.161821 -15.465675
-3.1046543 16.558153 -17.138563
-3.0272446 15.136224 -18.428717
-2.9702845 13.861327 -19.378052
-2.9199252 12.653008 -20.217377
-2.8833354 11.53334 -20.827206
-2.8476512 10.441386 -21.421944
-2.8191476 9.3971558 -21.897005
-2.7966256 8.3898773 -22.272369
-2.7744608 7.3985615 -22.641783
-2.7573221 6.4337502 -22.927429
-2.7433136 5.4866257 -23.1609
-2.7311456 4.5519085 -23.363707
-2.7212384 3.6283169 -23.528824
-2.7144597 2.7144585 -23.6418
-2.7084515 1.8056345 -23.741936
-2.7052112 0.90173626 -23.795942
-2.705431 -9.5367432e-07 -23.79228
-2.7071605 -0.90238953 -23.763454
-2.7088923 -1.8059292 -23.734591
-2.713346 -2.7133446 -23.660364
-2.7226963 -3.6302614 -23.504524
-2.7332022 -4.555336 -23.32943
-2.7449439 -5.4898863 -23.133734
-2.7567866 -6.4325018 -22.936354
-2.7767749 -7.4047341 -22.603214
-2.7992284 -8.397687 -22.228989
-2.8238392 -9.4127998 -21.81881
-2.8497021 -10.448908 -21.38776
-2.8863263 -11.545305 -20.777355
-2.9276814 -12.686624 -20.088102
-2.9761996 -13.888932 -19.279472
-3.0369954 -15.184978 -18.266201
-3.1113174 -16.593693 -17.027504
-3.2196054 -18.244429 -15.222707
-3.4085882 -20.45153 -12.072992
-2.2379439 20.141493 -12.9342
-2.1294603 18.10041 -15.646289
-2.0644388 16.515511 -17.27183
-2.0145059 15.108791 -18.520149
-1.9760194 13.832134 -19.482311
-1.9445291 12.639439 -20.269569
-1.9180707 11.508423 -20.93103
-1.8955549 10.425552 -21.493923
-1.8773539 9.3867702 -21.948944
-1.8603487 8.3715668 -22.374081
-1.8468277 7.3873072 -22.712105
-1.8361328 6.426465 -22.979473
-1.8255663 5.4766989 -23.243641
-1.8167807 4.5419512 -23.46328
-1.8121567 3.6243105 -23.578878
-1.8076526 2.7114782 -23.691477
-1.8032366 1.803236 -23.801884
-1.8000191 0.90001011 -23.882313
-1.8011022 -9.5367432e-07 -23.85524
-1.8023127 -0.90115833 -23.824982
-1.8035246 -1.8035269 -23.794682
-1.8058169 -2.708724 -23.737377
-1.8122333 -3.6244688 -23.576962
-1.8191942 -4.5479851 -23.402943
-1.8268151 -5.4804468 -23.212421
-1.8357558 -6.4251475 -22.988899
-1.8479095 -7.3916388 -22.685059
-1.8622109 -8.3799477 -22.327522
-1.8782086 -9.3910446 -21.92758
-1.8968453 -10.432651 -21.461666
-1.9202166 -11.521297 -20.877384
-1.9472822 -12.657337 -20.200741
-1.9788748 -13.852123 -19.410931
-2.0174294 -15.130722 -18.447063
-2.0683262 -16.54661 -17.174639
-2.1373515 -18.167486 -15.449005
-2.2535679 -20.282108 -12.543598
-1.1161854 20.091335 -13.073525
-1.0634143 18.078043 -15.712082
-1.0296236 16.47398 -17.401613
-1.006415 15.096227 -18.562042
-0.9860208 13.804292 -19.581753
-0.97148091 12.629251 -20.30875
-0.95736641 11.488394 -21.014477
-0.94680989 10.414907 -21.542303
-0.93780726 9.3780727 -21.992437
-0.92903584 8.3613205 -22.431007
-0.92264879 7.3811903 -22.750357
-0.91739118 6.4217367 -23.013235
-0.91219586 5.4731712 -23.273003
-0.90793675 4.5396814 -23.485958
-0.90534937 3.6213961 -23.615326
-0.90317196 2.7095146 -23.724201
-0.90100241 1.8020058 -23.832676
-0.90030926 0.90030861 -23.867334
-0.89981335 -9.5367432e-07 -23.892128
-0.90029418 -0.90029526 -23.86809
-0.90099734 -1.8019962 -23.832928
-0.90247548 -2.707427 -23.759022
-0.90520674 -3.6208277 -23.622459
-0.90823144 -4.5411558 -23.471226
-0.91213381 -5.4728069 -23.276104
-0.91700703 -6.4190507 -23.03245
-0.92281806 -7.3825455 -22.74189
-0.92993778 -8.3694401 -22.385908
-0.93791378 -9.379137 -21.987106
-0.94752908 -10.42282 -21.506342
-0.958781 -11.505373 -20.943745
-0.97174788 -12.63272 -20.295406
-0.98809457 -13.833324 -19.478065
-1.0076755 -15.115134 -18.499018
-1.032683 -16.522928 -17.248646
-1.0664625 -18.129864 -15.559671
-1.1233975 -20.221153 -12.712923
0 20.105911 -13.033041
0 18.083422 -15.696261
0 16.473715 -17.402437
0 15.100001 -18.549452
0 13.810807 -19.558479
0 12.633142 -20.293789
0 11.494412 -20.989405
0 10.417789 -21.529207
0 9.3812962 -21.976309
0 8.3671894 -22.398399
0 7.3849373 -22.726936
0 6.421958 -23.011662
0 5.4733458 -23.271584
0 4.543952 -23.443272
0 3.6219378 -23.608578
0 2.7076607 -23.755102
0 1.8022146 -23.827379
0 0.90060997 -23.852219
0 9.5367432e-07 -23.877028
0 -0.8996172 -23.901937
0 -1.8016129 -23.84251
0 -2.7075853 -23.756367
0 -3.6207361 -23.623604
0 -4.5425415 -23.45738
0 -5.4746027 -23.261105
0 -6.4225297 -23.00761
0 -7.3845162 -22.729582
0 -8.3724651 -22.369106
0 -9.3807507 -21.979042
0 -10.426996 -21.487364
0 -11.506949 -20.937174
0 -12.649378 -20.231354
0 -13.834007 -19.475639
0 -15.118068 -18.489237
0 -16.519058 -17.260735
0 -18.136171 -15.541115
0 -20.239805 -12.661116
1.123621 20.225174 -12.701746
1.067053 18.1399 -15.530143
1.032998 16.527966 -17.232899
1.0081521 15.122284 -18.475185
0.98888403 13.844374 -19.438597
0.97257304 12.643448 -20.254147
0.95942986 11.513155 -20.911304
0.94864345 10.435077 -21.450621
0.93845528 9.3845539 -21.96003
0.93080378 8.3772335 -22.342604
0.92422003 7.3937578 -22.671795
0.91772866 6.4240999 -22.996361
0.91298252 5.4778948 -23.233669
0.9096691 4.5483427 -23.399345
0.90647137 3.625885 -23.559227
0.90329617 2.7098894 -23.717987
0.90181035 1.8036194 -23.792278
0.90138352 0.90138435 -23.813622
0.90095699 -1.9073486e-06 -23.834946
0.90077794 -0.90077782 -23.843897
0.90180022 -1.8035984 -23.792786
0.90363097 -2.7108927 -23.70125
0.90589976 -3.6235971 -23.587807
0.90933752 -4.5466871 -23.415926
0.91292816 -5.4775696 -23.236389
0.9181633 -6.4271445 -22.97463
0.92371863 -7.3897481 -22.696865
0.9311108 -8.3799973 -22.327255
0.93890429 -9.3890438 -21.937582
0.94899315 -10.438925 -21.433136
0.96011686 -11.521402 -20.876957
0.97452557 -12.668831 -20.156517
0.98982984 -13.857618 -19.391302
1.0091828 -15.137741 -18.423658
1.0359774 -16.575638 -17.083927
1.0697664 -18.186028 -15.394478
1.1320077 -20.376139 -12.282411
2.2669179 20.40226 -12.209847
2.1437087 18.221521 -15.290081
2.0728221 16.582577 -17.062241
2.0203803 15.15285 -18.373291
1.9825929 13.878146 -19.317978
1.9494113 12.671173 -20.147514
1.9226716 11.536029 -20.816008
1.9013109 10.457211 -21.350021
1.8804255 9.4021282 -21.872158
1.8650167 8.3925743 -22.257376
1.8520194 7.4080772 -22.582308
1.8392022 6.4372072 -22.90274
1.8295672 5.4887018 -23.143616
1.8221451 4.5553617 -23.32917
1.81573 3.6314602 -23.489544
1.8106377 2.7159567 -23.616852
1.8077339 1.8077326 -23.689449
1.8048395 0.90241909 -23.761806
1.8038481 -9.5367432e-07 -23.786592
1.8044246 -0.9022131 -23.772181
1.8055989 -1.8055992 -23.742821
1.8099095 -2.7148666 -23.635059
1.8145374 -3.6290741 -23.519363
1.8218201 -4.5545521 -23.337292
1.8296973 -5.4890938 -23.140366
1.8401433 -6.4405012 -22.879215
1.8518063 -7.407228 -22.587635
1.8660008 -8.3970013 -22.232777
1.8821685 -9.410841 -21.828581
1.9020021 -10.461012 -21.332745
1.9239243 -11.543547 -20.784687
1.9523145 -12.690045 -20.07493
1.9845428 -13.891801 -19.269226
2.0247529 -15.185646 -18.263975
2.0790222 -16.632179 -16.907244
2.1495361 -18.271057 -15.144395
2.2840605 -20.556543 -11.781286
3.4636645 20.78199 -11.155049
3.2430191 18.377104 -14.832482
3.1278176 16.681692 -16.752501
3.0475407 15.2377 -18.090454
2.9866028 13.937479 -19.106081
2.9365327 12.724976 -19.940584
2.8955021 11.582008 -20.624428
2.8610773 10.490614 -21.198177
2.8306446 9.435482 -21.705387
2.8067312 8.4201908 -22.103943
2.7849045 7.4264126 -22.46772
2.7663603 6.4548388 -22.776793
2.7531154 5.5062313 -22.99754
2.7399893 4.5666475 -23.216309
2.7277889 3.6370497 -23.419647
2.7224355 2.7224331 -23.508871
2.718174 1.8121128 -23.579899
2.7141623 0.90472031 -23.646761
2.7117608 -9.5367432e-07 -23.686783
2.7138875 -0.90462875 -23.651337
2.7165601 -1.8110428 -23.606794
2.7224047 -2.7224064 -23.509384
2.7296939 -3.6395912 -23.387897
2.7393208 -4.5655336 -23.227449
2.7517424 -5.5034876 -23.020424
2.7664316 -6.4550095 -22.775602
2.7848001 -7.4261346 -22.469461
2.8067477 -8.4202461 -22.10367
2.8320894 -9.4402981 -21.681309
2.8624005 -10.495467 -21.176121
2.8972397 -11.588961 -20.595467
2.9394562 -12.737643 -19.891859
2.9895067 -13.951032 -19.057688
3.0521648 -15.260827 -18.01338
3.1496334 -16.798044 -16.388906
3.2951059 -18.672268 -13.964367
3.4983416 -20.990046 -10.577108
4.7794819 21.507669 -9.1392717
4.3727899 18.584352 -14.222926
4.2066059 16.826422 -16.30022
4.0873718 15.327645 -17.790648
4.005867 14.020534 -18.809456
3.9320724 12.779234 -19.73189
3.8794127 11.638237 -20.390139
3.8287024 10.528931 -21.024017
3.7887778 9.471941 -21.523075
3.7566366 8.4524326 -21.924841
3.7250466 7.4500909 -22.319712
3.7006423 6.4761229 -22.624769
3.6834986 5.5252466 -22.839062
3.6665235 4.5831547 -23.05125
3.6510499 3.6510496 -23.244673
3.6416612 2.731245 -23.362032
3.636076 1.818038 -23.43185
3.6306918 0.90767479 -23.499146
3.630569 -0 -23.500685
3.6324847 -0.90812206 -23.476736
3.6344028 -1.8172035 -23.452765
3.640168 -2.7301273 -23.380699
3.651288 -3.6512909 -23.241695
3.664645 -4.5808048 -23.074738
3.6826661 -5.5240011 -22.84947
3.7024517 -6.479291 -22.60215
3.7280025 -7.4560061 -22.282763
3.7563953 -8.4518929 -21.927853
3.791724 -9.4793091 -21.486248
3.8313918 -10.536328 -20.9904
3.8808746 -11.642626 -20.371864
3.939256 -12.802584 -19.642097
4.008337 -14.029181 -18.778585
4.1224775 -15.459291 -17.351826
4.3093328 -17.237335 -15.016131
4.5138998 -19.184078 -12.459045
5.5574312 18.895266 -13.308482
5.3164916 17.012775 -15.717877
5.1526518 15.457954 -17.356279
5.0444431 14.124437 -18.438368
4.9473238 12.863041 -19.409557
4.8778272 11.706785 -20.104523
4.8143582 10.591586 -20.739216
4.7609982 9.5219975 -21.27281
4.7195673 8.4952202 -21.687122
4.6803207 7.488513 -22.079586
4.6496081 6.5094509 -22.386711
4.6229191 5.5475035 -22.653606
4.6015162 4.6015139 -22.867638
4.5852046 3.6681595 -23.030748
4.573359 2.7440147 -23.149204
4.561574 1.8246298 -23.267052
4.5545764 0.91091537 -23.337036
4.5570655 -1.9073486e-06 -23.312141
4.5600357 -0.91200733 -23.282438
4.5629969 -1.8251991 -23.252827
4.569891 -2.7419329 -23.183884
4.584682 -3.6677465 -23.035973
4.6008453 -4.6008453 -22.874344
4.6232777 -5.5479326 -22.650021
4.6477013 -6.5067816 -22.405785
4.6813831 -7.4902124 -22.068966
4.7184877 -8.4932785 -21.697918
4.7649603 -9.5299215 -21.233192
4.8159575 -10.595107 -20.723221
4.8805051 -11.713213 -20.077747
4.9545894 -12.881935 -19.336899
5.0603223 -14.168904 -18.279572
5.2853212 -15.855965 -16.029583
5.531507 -17.700819 -13.567729
5.8013706 -19.724663 -10.869087
6.8325181 19.358799 -11.945147
6.4654284 17.241138 -15.004229
6.2555747 15.638935 -16.753006
6.1068206 14.249245 -17.992628
5.9891572 12.976506 -18.973152
5.8962717 11.792543 -19.7472
5.8152108 10.661222 -20.422705
5.7530632 9.588439 -20.940599
5.6956215 8.5434322 -21.419283
5.6459608 7.5279446 -21.833122
5.6119776 6.547308 -22.116314
5.5786109 5.5786095 -22.394371
5.5457983 4.6214952 -22.667812
5.5293932 3.6862612 -22.80452
5.5160775 2.7580376 -22.915482
5.5028257 1.8342752 -23.025913
5.495481 0.91591358 -23.08712
5.4938393 -1.9073486e-06 -23.100801
5.4971547 -0.91619492 -23.073174
5.5015402 -1.833848 -23.036629
5.5117159 -2.7558584 -22.951828
5.5274782 -3.6849852 -22.82048
5.5499744 -4.62498 -22.633009
5.578208 -5.5782118 -22.397726
5.6116357 -6.5469103 -22.119167
5.650835 -7.5344477 -21.792501
5.6974702 -8.5462055 -21.403877
5.7527552 -9.587924 -20.943172
5.8196797 -10.669414 -20.385464
5.904078 -11.808155 -19.682148
5.9937677 -12.986497 -18.934732
6.2253232 -14.525755 -17.005102
6.5094337 -16.273582 -14.637516
6.8210773 -18.189545 -12.040482
7.1640091 -20.298027 -9.1827164
7.6831522 17.561489 -14.003137
7.3905654 15.836923 -16.093046
7.2152367 14.430472 -17.345387
7.0505061 13.093797 -18.522041
6.9407854 11.898489 -19.305758
6.8344278 10.739813 -20.065456
6.7616868 9.6595535 -20.585032
6.694674 8.6074381 -21.063698
6.6322546 7.5797153 -21.50955
6.590095 6.5900936 -21.81069
6.5521255 5.616107 -22.081898
6.5160418 4.654314 -22.339643
6.493166 3.7103815 -22.50304
6.4727559 2.7740383 -22.648825
6.4571157 1.8448877 -22.76054
6.4528804 0.92184067 -22.790794
6.4509587 -0 -22.80452
6.4493337 -0.92133522 -22.816128
6.4564681 -1.8447065 -22.765167
6.4727931 -2.7740526 -22.64856
6.4908466 -3.709053 -22.519609
6.5180774 -4.6557713 -22.325098
6.5477266 -5.6123362 -22.113323
6.5885916 -6.5885911 -21.821424
6.6363187 -7.5843654 -21.480524
6.696166 -8.6093588 -21.053036
6.7638793 -9.6626873 -20.569368
6.8465581 -10.758879 -19.978811
6.9440589 -11.904101 -19.282375
7.1314125 -13.244052 -17.944138
7.4504738 -14.900946 -15.665131
7.799799 -16.713858 -13.169947
8.1840582 -18.706421 -10.425236
9.0402889 18.080578 -12.380986
8.6205416 16.163515 -15.004407
8.3500175 14.61253 -16.695185
8.1664724 13.270517 -17.842344
8.0198202 12.02973 -18.758921
7.8955932 10.856438 -19.535337
7.8010945 9.7513676 -20.12595
7.7179589 8.682703 -20.645548
7.6481237 7.6481233 -21.082024
7.59302 6.6438918 -21.426422
7.5402718 5.6552038 -21.756096
7.5024137 4.6890097 -21.99271
7.4758582 3.7379274 -22.158684
7.4495115 2.7935638 -22.323349
7.4273973 1.8568497 -22.461559
7.4254484 0.92818069 -22.473743
7.42487 -9.5367432e-07 -22.477356
7.4242916 -0.92803669 -22.480972
7.4380617 -1.8595171 -22.394909
7.4544725 -2.7954273 -22.292343
7.4709773 -3.7354889 -22.189186
7.5033317 -4.6895809 -21.986973
7.5434313 -5.6575751 -21.736347
7.5927062 -6.6436191 -21.428379
7.6496921 -7.6496916 -21.072226
7.7176123 -8.6823158 -20.647718
7.8028445 -9.7535553 -20.115017
7.9036403 -10.867506 -19.485043
8.0223694 -12.033554 -18.742989
8.3569832 -13.580098 -16.651653
8.7406797 -15.296192 -14.253542
9.162611 -17.179897 -11.616477
9.6267662 -19.253532 -8.7155094
9.9553785 16.592297 -13.575142
9.5762978 14.896465 -15.681139
9.3178282 13.459083 -17.117088
9.143199 12.190931 -18.087248
8.9805603 10.97624 -18.990791
8.8726387 9.8584862 -19.590361
8.7673054 8.7673054 -20.175541
8.6832504 7.7184434 -20.642515
8.6224022 6.7063117 -20.98056
8.5623999 5.7082682 -21.313908
8.5141001 4.7300539 -21.582241
8.4822598 3.7698946 -21.759129
8.454258 2.8180857 -21.914696
8.4334574 1.8740988 -22.030256
8.4250431 0.93611336 -22.077
8.4166212 -9.5367432e-07 -22.123787
8.4168911 -0.93521214 -22.122295
8.4371176 -1.8749151 -22.00992
8.4584303 -2.819478 -21.891514
8.4800739 -3.7689247 -21.771273
8.5154266 -4.7307925 -21.574871
8.5629826 -5.7086558 -21.310675
8.6166048 -6.7018065 -21.01277
8.6919804 -7.7262034 -20.594017
8.7741041 -8.7741051 -20.13777
8.8754387 -9.861599 -19.574802
8.9965153 -10.995742 -18.902153
9.2297611 -12.306349 -17.606348
9.6464319 -13.933735 -15.291512
10.101163 -15.712917 -12.76523
10.602749 -17.671249 -9.9786358
11.601068 17.4016 -10.877456
10.924181 15.293855 -14.261886
10.552861 13.718718 -16.118492
10.32428 12.389134 -17.261398
10.135433 11.148975 -18.205629
9.9878769 9.9878769 -18.943411
9.8687353 8.8818607 -19.539122
9.7669353 7.8135481 -20.04812
9.6828909 6.7780242 -20.468342
9.6142187 5.7685304 -20.811703
9.5623417 4.7811699 -21.071083
9.5197153 3.8078833 -21.28422
9.4774675 2.8432388 -21.495461
9.4583874 1.8916769 -21.59086
9.4519148 0.94519138 -21.623222
9.445673 -1.9073486e-06 -21.65443
9.4488344 -0.94488335 -21.638624
9.4655647 -1.8931141 -21.554972
9.4836111 -2.8450832 -21.464737
9.512681 -3.8050747 -21.319391
9.5599556 -4.7799773 -21.083019
9.6172066 -5.7703247 -20.796764
9.6860094 -6.7802057 -20.452751
9.764801 -7.8118415 -20.05879
9.8706121 -8.8835526 -19.529734
9.9948874 -9.9948874 -18.908361
10.142844 -11.157128 -18.168573
10.517856 -12.621428 -16.29352
11.003853 -14.305012 -13.86353
11.538181 -16.153454 -11.191891
12.127369 -18.191051 -8.2459526
12.5277 15.944345 -11.938699
11.912236 14.078094 -14.736268
11.588654 12.642167 -16.2071
11.340156 11.340155 -17.336639
11.161526 10.146841 -18.148588
11.006716 9.0054922 -18.852268
10.886053 7.9171271 -19.400738
10.791707 6.8674507 -19.829582
10.701117 5.8369722 -20.241356
10.639976 4.8363514 -20.519276
10.595646 3.8529625 -20.72077
10.551715 2.877738 -20.920454
10.527178 1.914031 -21.031988
10.51055 0.95550442 -21.107567
10.50101 -2.8610229e-06 -21.150932
10.510082 -0.95546246 -21.109695
10.5315 -1.9148178 -21.012344
10.555837 -2.8788652 -20.901718
10.597295 -3.8535614 -20.713276
10.651789 -4.8417215 -20.465576
10.706846 -5.8400984 -20.215315
10.796973 -6.8708048 -19.805645
10.899594 -7.9269767 -19.339188
11.015553 -9.0127239 -18.812103
11.170366 -10.154879 -18.108406
11.357036 -11.357036 -17.259909
11.872526 -12.951846 -14.916772
12.43638 -14.69754 -12.353793
13.058825 -16.620319 -9.5245075
13.604095 14.737769 -12.199069
13.022116 13.022118 -14.62398
12.672824 11.616755 -16.079359
12.418017 10.348345 -17.141056
12.212366 9.1592712 -17.997936
12.063361 8.0422392 -18.618786
11.951958 6.9719748 -19.082973
11.851859 5.92593 -19.500051
11.774351 4.9059772 -19.823002
11.713745 3.904582 -20.075523
11.658158 2.9145393 -20.307137
11.633679 1.9389458 -20.40913
11.618455 0.96820354 -20.472569
11.605745 -0 -20.52552
11.616953 -0.96808147 -20.478828
11.637607 -1.9396009 -20.392773
11.663686 -2.9159241 -20.284105
11.717797 -3.9059353 -20.058643
11.785562 -4.9106545 -19.776289
11.86023 -5.9301167 -19.465172
11.961434 -6.9775043 -19.043488
12.080645 -8.0537624 -18.546774
12.235311 -9.1764841 -17.90234
12.432769 -10.360643 -17.079594
12.708188 -11.649173 -15.932013
13.301313 -13.301311 -13.460655
13.949744 -15.112223 -10.758863
14.772531 13.636181 -12.065373
14.175693 11.994817 -14.360897
13.793848 10.610649 -15.829535
13.547907 9.3793182 -16.775457
13.332259 8.2044678 -17.604876
13.193308 7.1040897 -18.139307
13.059912 6.0276499 -18.652367
12.959385 4.9843779 -19.039009
12.881259 3.9634619 -19.339493
12.825502 2.9597301 -19.553944
12.790253 1.9677324 -19.689514
12.769991 0.98230553 -19.767447
12.764653 -0 -19.787975
12.77389 -0.9826088 -19.752451
12.7953 -1.9685059 -19.670111
12.832543 -2.9613571 -19.526859
12.888719 -3.9657621 -19.310799
12.968503 -4.9878864 -19.003939
13.074768 -6.0345101 -18.595226
13.207218 -7.111578 -18.085804
13.361255 -8.2223139 -17.493353
13.562445 -9.3893862 -16.719545
13.82434 -10.634109 -15.712259
14.186557 -12.004009 -14.319119
14.806304 -13.667356 -11.935473
16.076105 12.631227 -11.468133
15.41409 11.010065 -13.832475
15.044089 9.6711998 -15.153903
14.749533 8.4283047 -16.205891
14.554941 7.277472 -16.900864
14.382889 6.1640944 -17.515339
14.257138 5.091835 -17.964447
14.166452 4.0475583 -18.288326
14.076913 3.01648 -18.608109
14.039016 2.0055723 -18.743458
14.017788 1.0012703 -18.819271
14.005369 -9.5367432e-07 -18.863623
14.019402 -1.0013847 -18.813507
14.048645 -2.0069485 -18.709061
14.078804 -3.0168858 -18.601357
14.173315 -4.0495186 -18.263815
14.273623 -5.0977211 -17.905569
14.380409 -6.1630316 -17.524189
14.549019 -7.2745113 -16.922014
14.762532 -8.4357347 -16.159464
15.054244 -9.6777287 -15.11764
15.450458 -11.036043 -13.702595
16.230556 -12.752581 -10.916528
16.878653 10.127193 -12.62062
16.408718 8.7513151 -14.187068
16.081724 7.5048041 -15.27705
15.86357 6.345428 -16.004227
15.677078 5.2256923 -16.625868
15.55789 4.1487689 -17.023163
15.461768 3.0923538 -17.343571
15.399816 2.0533104 -17.550076
15.3657 1.0243778 -17.663797
15.333049 -9.5367432e-07 -17.772635
15.360566 -1.0240383 -17.680912
15.411123 -2.0548182 -17.512386
15.462065 -3.0924139 -17.342583
15.559345 -4.149159 -17.018312
15.680286 -5.2267632 -16.615175
15.852476 -6.3409901 -16.041212
16.085154 -7.5064063 -15.265618
16.416531 -8.7554836 -14.161026
16.921251 -10.15275 -12.478625
18.88715 9.4435749 -9.8604546
18.042566 7.893621 -12.499775
17.619118 6.6071687 -13.823053
17.33453 5.417038 -14.712389
17.142817 4.2857022 -15.311495
17.023066 3.191824 -15.685716
16.916807 2.1146021 -16.017776
16.883802 1.0552349 -16.120913
16.850927 -9.5367432e-07 -16.223646
16.857437 -1.0535932 -16.203306
16.942076 -2.1177583 -15.938808
17.030159 -3.1931539 -15.663547
17.138367 -4.2845907 -15.325399
17.335346 -5.4172955 -14.709839
17.62183 -6.6081867 -13.814573
18.05864 -7.9006557 -12.44955
19.077343 -9.5386724 -9.2661037
19.758711 5.8113847 -10.768937
19.23493 4.5258646 -12.309476
18.965746 3.3468962 -13.101189
18.809517 2.212883 -13.560689
18.712948 1.1007628 -13.844713
18.696514 -1.9073486e-06 -13.893049
18.680044 -1.0988278 -13.941492
18.779236 -2.209321 -13.649752
18.940598 -3.3424592 -13.175153
19.228912 -4.5244493 -12.327171
19.701647 -5.7946024 -10.936775
