# .PCD v0.7 - Point Cloud Data file format
VERSION 0.7
FIELDS x y z
SIZE 4 4 4
TYPE F F F
COUNT 1 1 1
WIDTH 1060
HEIGHT 1
VIEWPOINT 0 0 0 1 0 0 0
POINTS 1060
DATA ascii
-23.04504 1.2128968 -8.2379532
-22.927008 -9.5367432e-07 -8.548564
-23.103292 -1.2159669 -8.0846605
-21.58806 7.1960192 -8.9159603
-20.710291 5.7528591 -11.354214
-20.318821 4.5152917 -12.441629
-20.085276 3.3475428 -13.090361
-19.925343 2.2139249 -13.534622
-19.856361 1.1031332 -13.726234
-19.858879 -2.3841858e-06 -13.71924
-19.888813 -1.1049342 -13.636096
-19.94565 -2.2161837 -13.478212
-20.119249 -3.35321 -12.995993
-20.335796 -4.5190659 -12.394473
-20.800793 -5.777997 -11.102814
-19.855158 9.3436012 -10.485273
-19.161163 7.8898897 -12.526432
-18.814821 6.6405249 -13.545088
-18.574955 5.463222 -14.250574
-18.341129 4.315558 -14.938301
-18.169722 3.2064199 -15.44244
-18.094963 2.1288157 -15.662314
-18.027826 1.060462 -15.859778
-18.009607 -4.7683716e-07 -15.913364
-18.052691 -1.0619254 -15.786648
-18.114197 -2.131084 -15.605751
-18.178295 -3.2079358 -15.417223
-18.337378 -4.3146801 -14.94933
-18.52326 -5.448019 -14.40262
-18.838661 -6.6489415 -13.47497
-19.214798 -7.9119797 -12.368683
-20.051489 -9.4359961 -9.9078245
-18.983309 11.864568 -9.5599556
-18.046299 10.151042 -12.488116
-17.811831 8.9059124 -13.220825
-17.583439 7.6927543 -13.934549
-17.360889 6.5103316 -14.63002
-17.143787 5.3574343 -15.30846
-16.932104 4.2330246 -15.969971
-16.725586 3.1360464 -16.615345
-16.539009 2.0673728 -17.198393
-16.505821 1.0316124 -17.302105
-16.495775 -2.8610229e-06 -17.333504
-16.507832 -1.0317402 -17.295822
-16.559328 -2.0699196 -17.134899
-16.626001 -3.1173754 -16.926544
-16.725586 -4.1813965 -16.615343
-16.877439 -5.2742009 -16.140802
-17.032469 -6.3871746 -15.656329
-17.307728 -7.5721321 -14.796148
-17.602795 -8.8013954 -13.874063
-18.157597 -10.213651 -12.140303
-19.410082 -12.131301 -8.2262974
-17.280941 12.672688 -11.279663
-16.79772 11.198479 -12.890396
-16.580387 9.9482307 -13.614844
-16.36927 8.7302761 -14.318564
-16.163464 7.5429506 -15.004587
-15.962924 6.385169 -15.673048
-15.767044 5.255681 -16.325985
-15.575962 4.1535892 -16.962921
-15.389505 3.0779023 -17.584442
-15.207365 2.027648 -18.191582
-15.158228 1.0105476 -18.35537
-15.156991 9.5367432e-07 -18.359493
-15.155754 -1.0103846 -18.363619
-15.18364 -2.0244861 -18.27066
-15.236982 -3.0473976 -18.092861
-15.323558 -4.0862823 -17.804268
-15.443021 -5.1476736 -17.406063
-15.571692 -6.2286782 -16.977156
-15.752483 -7.35116 -16.374517
-15.977295 -8.5212221 -15.625149
-16.281267 -9.7687635 -14.611903
-16.70969 -11.139794 -13.18383
-17.480244 -12.818845 -10.615324
-15.936509 13.659864 -11.966696
-15.566775 12.231037 -13.28717
-15.366514 10.97608 -14.00239
-15.171953 9.7533989 -14.697247
-14.982506 8.5614328 -15.373842
-14.797733 7.3988652 -16.033751
-14.617698 6.2647257 -16.676731
-14.441621 5.1577215 -17.305576
-14.269781 4.0770769 -17.919292
-14.102071 3.0218697 -18.518259
-13.938084 1.9911537 -19.103928
-13.900972 0.99292469 -19.236469
-13.899815 9.5367432e-07 -19.240601
-13.898657 -0.99276447 -19.244736
-13.920687 -1.9886703 -19.166059
-13.964435 -2.9923797 -19.009811
-14.028175 -4.0080509 -18.782171
-14.125237 -5.0447307 -18.43552
-14.238125 -6.102057 -18.032351
-14.366286 -7.1831436 -17.574631
-14.548455 -8.3134012 -16.924028
-14.754363 -9.4849491 -16.188644
-15.053238 -10.752314 -15.121233
-15.424698 -12.119404 -13.794591
-16.054396 -13.760913 -11.545671
-14.78579 14.78579 -12.014365
-14.352464 13.248425 -13.681017
-14.169548 11.989614 -14.384539
-13.991702 10.762849 -15.068554
-13.817628 9.5660477 -15.738071
-13.648366 8.3989944 -16.38908
-13.483376 7.2602782 -17.023663
-13.32224 6.1487241 -17.643414
-13.164745 5.0633626 -18.249161
-13.01089 4.0033507 -18.840912
-12.860708 2.9678555 -19.418533
-12.72691 1.9579849 -19.93314
-12.707852 0.97752571 -20.006439
-12.70519 -2.8610229e-06 -20.016682
-12.706116 -0.97739697 -20.013119
-12.73811 -1.9597092 -19.890068
-12.774709 -2.9480114 -19.7493
-12.824322 -3.9459438 -19.558479
-12.908244 -4.9647107 -19.235699
-12.993272 -5.9968963 -18.908672
-13.090641 -7.0488091 -18.534176
-13.244471 -8.150445 -17.942524
-13.401958 -9.2782784 -17.336805
-13.626097 -10.481613 -16.474733
-13.894355 -11.75676 -15.442971
-14.299485 -13.199525 -13.884782
-14.958073 -14.958076 -11.351746
-13.731212 16.019743 -11.669416
-13.155235 14.251502 -14.069317
-12.989441 12.989439 -14.760127
-12.826921 11.758009 -15.437291
-12.668959 10.557464 -16.095467
-12.514352 9.3857622 -16.739662
-12.36391 8.2426043 -17.366508
-12.21735 7.1267891 -17.977171
-12.073921 6.0369601 -18.574787
-11.933713 4.9723783 -19.158993
-11.796685 3.9322281 -19.729939
-11.662841 2.9157114 -20.287628
-11.603444 1.9339066 -20.53511
-11.587534 0.96562576 -20.601408
-11.582842 -1.9073486e-06 -20.620956
-11.591255 -0.96593571 -20.585903
-11.604421 -1.9340715 -20.531044
-11.640132 -2.9100332 -20.382248
-11.685072 -3.8950238 -20.194996
-11.749132 -4.8954716 -19.928076
-11.827033 -5.9135189 -19.603493
-11.91464 -6.9502068 -19.238461
-12.031605 -8.0210667 -18.75111
-12.16823 -9.126173 -18.181833
-12.341506 -10.284587 -17.459854
-12.554465 -11.50826 -16.572525
-12.830671 -12.830669 -15.421666
-13.217007 -14.318426 -13.811936
-13.913859 -16.232836 -10.908385
-12.840093 17.509216 -10.518739
-12.12775 15.435317 -13.756659
-11.824897 13.974876 -15.133267
-11.678263 12.739922 -15.799783
-11.535597 11.535597 -16.448263
-11.395752 10.359771 -17.083927
-11.259292 9.2121449 -17.704197
-11.12648 8.0919857 -18.307882
-10.996938 6.9980483 -18.896719
-10.870142 5.9291692 -19.473061
-10.746173 4.8846231 -20.03656
-10.624903 3.8635998 -20.587786
-10.548477 2.8768559 -20.935175
-10.525707 1.913764 -21.03867
-10.507992 0.95527172 -21.119198
-10.502661 -9.5367432e-07 -21.143429
-10.51489 -0.95590019 -21.087843
-10.532753 -1.9150486 -21.006641
-10.551275 -2.8776217 -20.922457
-10.588895 -3.8505106 -20.751455
-10.634317 -4.8337836 -20.544987
-10.699435 -5.8360605 -20.249001
-10.779319 -6.8595676 -19.885893
-10.884446 -7.9159617 -19.408039
-10.991611 -8.9931355 -18.920929
-11.130573 -10.118705 -18.289278
-11.306543 -11.306543 -17.489416
-11.507361 -12.553488 -16.576607
-11.800537 -13.94609 -15.243993
-12.232983 -15.569249 -13.278336
-13.169538 -17.958462 -9.0212564
-11.176623 16.764933 -12.999681
-10.759897 15.063857 -15.083307
-10.545081 13.708603 -16.157393
-10.416712 12.500053 -16.79924
-10.291956 11.321151 -17.423016
-10.169318 10.169315 -18.036207
-10.049788 9.0448112 -18.633856
-9.933526 7.9468193 -19.215168
-9.8198328 6.8738804 -19.783632
-9.7086248 5.8251758 -20.339668
-9.5997934 4.7998962 -20.883827
-9.5274658 3.8109846 -21.245468
-9.4993439 2.8498039 -21.386078
-9.4822989 1.8964586 -21.471304
-9.4637833 0.94637775 -21.563881
-9.4674025 -9.5367432e-07 -21.545784
-9.4750118 -0.94750404 -21.507736
-9.4874411 -1.8974876 -21.445589
-9.5044498 -2.8513355 -21.36055
-9.5363588 -3.8145428 -21.201002
-9.5794201 -4.7897105 -20.985697
-9.6327515 -5.7796507 -20.719036
-9.7044973 -6.7931471 -20.36031
-9.7813921 -7.8251138 -19.975838
-9.8758221 -8.8882389 -19.503687
-9.9962225 -9.9962234 -18.901688
-10.133008 -11.146307 -18.217754
-10.305039 -12.366049 -17.357601
-10.527937 -13.686319 -16.243113
-10.824533 -15.154349 -14.760126
-11.269023 -16.903534 -12.53768
-10.340837 18.383711 -11.433697
-9.8125448 16.35424 -14.368657
-9.5138588 14.799335 -16.028019
-9.3130646 13.452205 -17.143551
-9.2020798 12.269438 -17.760132
-9.0935946 11.114391 -18.362823
-8.9871922 9.9857655 -18.953949
-8.8834963 8.8834953 -19.530037
-8.7826185 7.8067679 -20.090473
-8.6837978 6.754065 -20.639477
-8.5871248 5.7247505 -21.176544
-8.5401831 4.7445459 -21.437336
-8.5073729 3.7810535 -21.619612
-8.4795771 2.8265247 -21.774033
-8.463522 1.8807821 -21.863232
-8.4516916 0.93907547 -21.928949
-8.4544554 -2.8610229e-06 -21.913601
-8.4589987 -0.93989086 -21.888361
-8.4635715 -1.8807964 -21.862957
-8.4823589 -2.8274517 -21.758579
-8.5076227 -3.7811651 -21.618225
-8.5458775 -4.7477131 -21.405699
-8.5882711 -5.7255111 -21.170181
-8.6552019 -6.7318211 -20.798344
-8.7234468 -7.7541771 -20.419203
-8.7927771 -8.7927761 -20.034039
-8.8986712 -9.8874121 -19.445736
-9.0146885 -11.017954 -18.801197
-9.1463461 -12.195127 -18.069765
-9.3310957 -13.478251 -17.043373
-9.5525789 -14.859566 -15.812915
-9.883091 -16.471821 -13.976734
-10.471424 -18.615862 -10.708221
-8.9280281 17.856054 -13.082623
-8.5672159 16.06353 -15.337697
-8.3391724 14.593552 -16.76297
-8.1635981 13.265848 -17.86031
-8.0315037 12.047252 -18.6859
-7.93822 10.915052 -19.268917
-7.8469834 9.8087282 -19.839149
-7.7581468 8.7279139 -20.394375
-7.6733112 7.6733112 -20.924599
-7.6198072 6.6673307 -21.259001
-7.5763292 5.6822443 -21.530739
-7.5373583 4.7108479 -21.774307
-7.5091972 3.7545977 -21.950314
-7.4855309 2.8070726 -22.09823
-7.4703708 1.8675919 -22.192982
-7.4615154 0.93268871 -22.248325
-7.4629211 -2.8610229e-06 -22.239538
-7.4665356 -0.93331814 -22.216948
-7.4741659 -1.8685427 -22.169262
-7.4906707 -2.8090019 -22.066105
-7.5140843 -3.7570438 -21.919769
-7.5448904 -4.7155561 -21.727232
-7.583046 -5.6872845 -21.488762
-7.6324797 -6.6784201 -21.179798
-7.6908469 -7.6908488 -20.815002
-7.7579131 -8.7276535 -20.39584
-7.8404121 -9.8005142 -19.880222
-7.9350886 -10.910748 -19.28849
-8.0528059 -12.079208 -18.552759
-8.1958742 -13.318298 -17.658581
-8.3754148 -14.656976 -16.536451
-8.6095018 -16.142817 -15.073412
-9.0062304 -18.012465 -12.593853
-8.1259918 19.734549 -10.840002
-7.6444879 17.473112 -14.279312
-7.3989882 15.854973 -16.032883
-7.2148447 14.429687 -17.348196
-7.083159 13.154438 -18.288803
-6.9633551 11.93718 -19.144548
-6.8701305 10.795918 -19.810432
-6.7937627 9.7053747 -20.355921
-6.7272201 8.6492825 -20.831226
-6.6778455 7.6318231 -21.183901
-6.6287808 6.628778 -21.534363
-6.5878019 5.6466866 -21.827068
-6.5568166 4.6834402 -22.048389
-6.5317984 3.7324533 -22.227097
-6.5138369 2.7916451 -22.355389
-6.5010357 1.8574381 -22.446827
-6.4913697 0.92733574 -22.515869
-6.4899111 9.5367432e-07 -22.526287
-6.4906964 -0.92724228 -22.520679
-6.5005856 -1.8573132 -22.450043
-6.5127449 -2.7911787 -22.36319
-6.5342798 -3.7338762 -22.209366
-6.5582676 -4.6844797 -22.038029
-6.5917344 -5.6500597 -21.798979
-6.6306734 -6.6306734 -21.520844
-6.6782022 -7.6322312 -21.181355
-6.739799 -8.6654558 -20.741375
-6.8110166 -9.7300243 -20.232679
-6.8837342 -10.817296 -19.713266
-6.9827156 -11.970368 -19.006258
-7.0990968 -13.184035 -18.174967
-7.2433543 -14.486709 -17.144548
-7.4384437 -15.939523 -15.751055
-7.6990118 -17.597744 -13.889852
-8.2455864 -20.024994 -9.985754
-6.7885361 19.234186 -12.311663
-6.4687204 17.249918 -14.976792
-6.2740507 15.685123 -16.599043
-6.132616 14.309437 -17.777668
-6.019834 13.042973 -18.717508
-5.9287314 11.857464 -19.4767
-5.8500056 10.72501 -20.13275
-5.7886086 9.6476803 -20.644392
-5.7342191 8.6013279 -21.097635
-5.6931701 7.5908918 -21.439713
-5.6519265 6.5939121 -21.783405
-5.6186895 5.6186886 -22.060385
-5.5926518 4.6605415 -22.277367
-5.5717378 3.7144918 -22.451649
-5.5536137 2.7768059 -22.602684
-5.5451131 1.8483706 -22.673519
-5.5377979 0.922966 -22.734478
-5.5375123 -1.9073486e-06 -22.736864
-5.5383062 -0.92305088 -22.730244
-5.5468016 -1.8489342 -22.659451
-5.5570817 -2.7785416 -22.57378
-5.5753574 -3.7169065 -22.421482
-5.5953097 -4.6627617 -22.255215
-5.6238604 -5.6238623 -22.017292
-5.6552539 -6.597796 -21.75568
-5.6975713 -7.5967612 -21.403036
-5.745822 -8.6187325 -21.000946
-5.8009901 -9.6683207 -20.54121
-5.8641653 -10.750969 -20.014751
-5.9441714 -11.888344 -19.348032
-6.0393591 -13.085279 -18.554804
-6.154449 -14.360381 -17.595724
-6.2986708 -15.746676 -16.393873
-6.5149684 -17.373247 -14.591398
-6.8561716 -19.425819 -11.748034
-5.5492668 18.867508 -13.390127
-5.3357072 17.074261 -15.525726
-5.184042 15.552126 -17.042372
-5.075037 14.210102 -18.132427
-4.9868503 12.965809 -19.014296
-4.9128246 11.790779 -19.754549
-4.8514004 10.67308 -20.368793
-4.8009281 9.6018543 -20.873514
-4.7557082 8.5602722 -21.325718
-4.7202597 7.5524154 -21.680201
-4.6885033 6.5639038 -21.997765
-4.6631365 5.5957632 -22.251434
-4.6404233 4.6404228 -22.478563
-4.6249919 3.6999931 -22.632879
-4.6116042 2.766964 -22.76675
-4.6035962 1.8414373 -22.846832
-4.5965214 0.91930485 -22.917583
-4.5966921 9.5367432e-07 -22.915874
-4.5969939 -0.91940022 -22.912857
-4.6038332 -1.8415356 -22.844467
-4.6117496 -2.7670517 -22.765297
-4.6260157 -3.7008142 -22.622639
-4.6424313 -4.6424332 -22.458481
-4.665597 -5.5987167 -22.226824
-4.6904573 -6.5666428 -21.978224
-4.7277627 -7.5644236 -21.605171
-4.7676287 -8.5817318 -21.206512
-4.8081727 -9.6163454 -20.801071
-4.86097 -10.694137 -20.273094
-4.9269342 -11.824644 -19.613451
-4.995954 -12.989482 -18.923254
-5.0956726 -14.267886 -17.926069
-5.2088275 -15.626482 -16.794521
-5.3622179 -17.159098 -15.260617
-5.6109347 -19.077181 -12.773447
-4.7436585 21.346462 -9.58706
-4.3975568 18.689613 -13.913341
-4.2328591 16.931433 -15.972061
-4.1235075 15.463153 -17.338949
-4.0375161 14.131305 -18.413845
-3.9712038 12.906414 -19.242744
-3.9138889 11.741665 -19.959187
-3.8678379 10.636551 -20.534822
-3.8263466 9.5658646 -21.053465
-3.7914226 8.5307016 -21.490013
-3.7635555 7.5271125 -21.838348
-3.7374408 6.5405169 -22.164787
-3.7189987 5.5784969 -22.395313
-3.701515 4.626894 -22.613861
-3.6885436 3.6885433 -22.776001
-3.6772063 2.757906 -22.917715
-3.6717839 1.8358898 -22.985498
-3.6663878 0.91659546 -23.05295
-3.6666174 -2.8610229e-06 -23.050079
-3.6675889 -0.91689682 -23.037933
-3.6728208 -1.8364115 -22.972534
-3.6798131 -2.759861 -22.885128
-3.6905737 -3.6905766 -22.750622
-3.7039323 -4.6299162 -22.583641
-3.7216866 -5.5825319 -22.361712
-3.7420254 -6.5485435 -22.107477
-3.7681718 -7.5363441 -21.780651
-3.7995467 -8.5489779 -21.388462
-3.8321559 -9.5803909 -20.980848
-3.8743567 -10.65448 -20.453335
-3.9248075 -11.774423 -19.822701
-3.9799211 -12.934746 -19.133785
-4.0518384 -14.181434 -18.234818
-4.1376228 -15.516088 -17.16251
-4.2615991 -17.046396 -15.612807
-4.4304142 -18.829262 -13.502619
-3.4898815 20.939291 -10.718101
-3.2728553 18.546177 -14.335212
-3.1600969 16.853848 -16.214516
-3.0776656 15.388327 -17.588367
-3.018122 14.084568 -18.580763
-2.9680018 12.86134 -19.4161
-2.9266076 11.706429 -20.106003
-2.8940785 10.611621 -20.648151
-2.8628759 9.5429173 -21.168201
-2.8362324 8.5086956 -21.612255
-2.815686 7.5084953 -21.954693
-2.797533 6.5275764 -22.25724
-2.7819595 5.5639172 -22.516804
-2.7697647 4.6162729 -22.720051
-2.7606649 3.6808863 -22.871714
-2.7526209 2.7526207 -23.005781
-2.7480221 1.8320131 -23.082432
-2.7439063 0.91463566 -23.151028
-2.7438984 9.5367432e-07 -23.151157
-2.7440543 -0.91468334 -23.148556
-2.7480299 -1.8320217 -23.0823
-2.7530527 -2.7530537 -22.998587
-2.7607124 -3.6809521 -22.870924
-2.7709253 -4.6182098 -22.700706
-2.7837 -5.5674 -22.487793
-2.7990823 -6.5311933 -22.231426
-2.8178639 -7.5143046 -21.9184
-2.8390682 -8.5172062 -21.564993
-2.8670585 -9.5568619 -21.098488
-2.8985531 -10.628029 -20.573574
-2.9319046 -11.72762 -20.017719
-2.9769704 -12.900206 -19.266623
-3.0293155 -14.136803 -18.394209
-3.0895729 -15.447865 -17.389915
-3.1769633 -16.943806 -15.933409
-3.2985506 -18.691786 -13.906953
-3.5521548 -21.312933 -9.6802139
-2.3015959 20.714359 -11.3429
-2.1727338 18.468233 -14.564455
-2.099016 16.79213 -16.407393
-2.0475345 15.356507 -17.694431
-2.0067742 14.04742 -18.713442
-1.9746796 12.835417 -19.515804
-1.9462576 11.677546 -20.226353
-1.9248737 10.586805 -20.760954
-1.9040332 9.5201645 -21.281965
-1.8883198 8.4974394 -21.674797
-1.8733544 7.4934173 -22.048937
-1.8627229 6.5195293 -22.314724
-1.8531233 5.55937 -22.554714
-1.8447899 4.6119728 -22.76305
-1.837863 3.6757269 -22.936222
-1.8320616 2.7480898 -23.081257
-1.8292552 1.8292542 -23.151417
-1.8266284 0.91331387 -23.217085
-1.8268669 -0 -23.211124
-1.8273026 -0.91365242 -23.200233
-1.8298324 -1.8298321 -23.136986
-1.8334132 -2.7501192 -23.047466
-1.8385717 -3.6771421 -22.918503
-1.8452659 -4.6131649 -22.751152
-1.8534648 -5.5603938 -22.546179
-1.8636559 -6.5227966 -22.291401
-1.8759205 -7.5036802 -21.984785
-1.8907772 -8.5084991 -21.613367
-1.9081594 -9.5407953 -21.17881
-1.9288249 -10.608538 -20.662172
-1.9502795 -11.701677 -20.125809
-1.9793555 -12.86581 -19.398909
-2.0132077 -14.092457 -18.552599
-2.0568783 -15.426588 -17.460838
-2.1086295 -16.869038 -16.167063
-2.1891613 -18.607872 -14.153767
-2.3325486 -20.992935 -10.56908
-1.1478468 20.661243 -11.490453
-1.0841929 18.431278 -14.673154
-1.0484856 16.775768 -16.458515
-1.0224338 15.336504 -17.761106
-1.0028118 14.039363 -18.742207
-0.98615384 12.82 -19.575106
-0.97269946 11.672392 -20.247826
-0.96137881 10.575166 -20.813856
-0.95192933 9.5192909 -21.286331
-0.94409901 8.4968891 -21.677845
-0.93679172 7.4943333 -22.043213
-0.9310112 6.5170765 -22.332237
-0.92621499 5.5572872 -22.572048
-0.92218614 4.6109285 -22.773491
-0.91845417 3.6738148 -22.960087
-0.91576231 2.7472858 -23.094681
-0.91419625 1.8283911 -23.172981
-0.91315871 0.91315746 -23.224861
-0.91294366 -9.5367432e-07 -23.235609
-0.91296959 -0.91297054 -23.234318
-0.91413403 -1.828269 -23.176098
-0.91579616 -2.7473898 -23.092985
-0.91840702 -3.6736317 -22.962444
-0.92184007 -4.6092005 -22.790791
-0.92582858 -5.5549707 -22.591368
-0.93108124 -6.5175667 -22.328737
-0.93713266 -7.4970646 -22.026161
-0.94522476 -8.5070238 -21.621555
-0.95345509 -9.5345516 -21.210045
-0.96307337 -10.593807 -20.72913
-0.97528464 -11.703415 -20.118565
-0.98935825 -12.861657 -19.414883
-1.0046432 -14.065004 -18.650639
-1.0270278 -15.405419 -17.531403
-1.0528247 -16.845196 -16.241564
-1.0898914 -18.528152 -14.388227
-1.1600317 -20.880569 -10.881217
0 20.698229 -11.387717
0 18.442276 -14.640809
0 16.780087 -16.445019
0 15.348844 -17.719982
0 14.038008 -18.747049
0 12.823221 -19.562714
0 11.675321 -20.23562
0 10.577347 -20.803946
0 9.5258865 -21.253361
0 8.4977646 -21.672997
0 7.4971046 -22.02589
0 6.5186806 -22.320787
0 5.5552092 -22.589371
0 4.6098747 -22.784058
0 3.6732836 -22.966766
0 2.7479677 -23.083344
0 1.8298006 -23.137764
0 0.91390514 -23.187649
0 -9.5367432e-07 -23.210476
0 -0.91325855 -23.219936
0 -1.8290176 -23.157394
0 -2.7499647 -23.050079
0 -3.6767864 -22.922966
0 -4.6115398 -22.767412
0 -5.557435 -22.570848
0 -6.5199466 -22.311758
0 -7.5001411 -22.006914
0 -8.5089989 -21.610588
0 -9.535511 -21.20524
0 -10.588673 -20.752462
0 -11.705191 -20.111176
0 -12.859205 -19.424313
0 -14.088799 -18.565662
0 -15.401881 -17.543198
0 -16.863678 -16.183811
0 -18.547375 -14.331697
0 -20.938154 -10.721258
1.1541864 20.775352 -11.173479
1.0874461 18.48658 -14.510497
1.0513114 16.820982 -16.317228
1.0247681 15.371521 -17.64439
1.0044988 14.062984 -18.65785
0.98766404 12.839631 -19.499596
0.97435451 11.692252 -20.165073
0.96241665 10.586582 -20.761965
0.95324892 9.532486 -21.220352
0.94475031 8.5027504 -21.645279
0.93748486 7.499877 -22.008556
0.93176055 6.5223246 -22.294769
0.92638558 5.5583115 -22.563515
0.92298752 4.6149359 -22.733421
0.91989279 3.6795721 -22.888153
0.91736513 2.7520952 -23.014542
0.91560596 1.831212 -23.102493
0.91465104 0.91465187 -23.150248
0.91419107 -0 -23.173241
0.91385621 -0.91385841 -23.189983
0.91559297 -1.8311882 -23.103148
0.91793031 -2.7537909 -22.986286
0.92048746 -3.6819515 -22.858423
0.92323369 -4.616168 -22.721107
0.92696458 -5.5617867 -22.534567
0.93300313 -6.5310225 -22.232641
0.93911809 -7.5129433 -21.926895
0.94608897 -8.514802 -21.57835
0.95442778 -9.5442753 -21.161407
0.96473336 -10.612066 -20.646128
0.97665203 -11.719826 -20.050196
0.9890238 -12.857307 -19.431606
1.0082216 -14.115104 -18.471712
1.028689 -15.430334 -17.448349
1.0558436 -16.893497 -16.090618
1.0956688 -18.626369 -14.099357
1.1723113 -21.101604 -10.267233
2.3433251 21.089924 -10.299667
2.1871154 18.590479 -14.204909
2.1100118 16.880093 -16.132502
2.0566943 15.425207 -17.465439
2.0133779 14.093641 -18.548351
1.9818115 12.881773 -19.337509
1.9548762 11.729254 -20.010895
1.9304389 10.617414 -20.621822
1.910992 9.5549603 -21.107994
1.8941436 8.5236444 -21.529207
1.8793768 7.5175071 -21.898376
1.8681291 6.5384512 -22.179565
1.8576747 5.5730238 -22.440928
1.8492686 4.6231699 -22.651085
1.842941 3.6858807 -22.809269
1.8380729 2.7571087 -22.930973
1.83369 1.8336897 -23.040545
1.8307954 0.91539574 -23.112915
1.8315403 -2.8610229e-06 -23.094292
1.8325363 -0.91627026 -23.069389
1.8345942 -1.8345957 -23.017941
1.8384142 -2.7576246 -22.922441
1.843564 -3.6871281 -22.793697
1.8496246 -4.6240625 -22.642181
1.8579214 -5.5737638 -22.434761
1.8697193 -6.5440178 -22.139814
1.8817503 -7.5270009 -21.839037
1.8939372 -8.5227184 -21.534363
1.9133838 -9.5669203 -21.048203
1.9340934 -10.637512 -20.530464
1.9575278 -11.745168 -19.944603
1.9867052 -12.913586 -19.215168
2.0202091 -14.141466 -18.377569
2.0647035 -15.485276 -17.265205
2.1220396 -16.976316 -15.831809
2.2032492 -18.727619 -13.801569
2.3940072 -21.546064 -9.0326128
3.6452713 21.871626 -8.1282768
3.3092234 18.752266 -13.729073
3.1847391 16.985275 -15.803808
3.0981884 15.490941 -17.246323
3.0356874 14.166541 -18.288006
2.9843318 12.932105 -19.14393
2.9430134 11.772053 -19.832575
2.9054792 10.653423 -20.458143
2.8761973 9.5873241 -20.946171
2.8498788 8.5496368 -21.384817
2.8283808 7.5423498 -21.743114
2.8091404 6.5546608 -22.063789
2.7939065 5.5878096 -22.31769
2.7812302 4.6353827 -22.528957
2.769161 3.6922159 -22.73011
2.7623394 2.7623386 -22.843803
2.7579365 1.838624 -22.917191
2.7544742 0.91815758 -22.974888
2.7545764 -2.8610229e-06 -22.973188
2.7560782 -0.9186945 -22.948156
2.7593157 -1.8395424 -22.894201
2.7626398 -2.762639 -22.8388
2.7711561 -3.6948757 -22.696859
2.7835717 -4.639287 -22.489935
2.7960992 -5.5922003 -22.281145
2.8112588 -6.5596051 -22.028479
2.829392 -7.5450468 -21.726265
2.8525479 -8.557642 -21.340332
2.8796461 -9.5988216 -20.888699
2.9083061 -10.663787 -20.41103
2.9465523 -11.786208 -19.773594
2.9932511 -12.970756 -18.995279
3.0436304 -14.203609 -18.155626
3.1118691 -15.559344 -17.018316
3.2003844 -17.068718 -15.543058
3.3320076 -18.881376 -13.349337
4.4773355 19.028673 -12.916103
4.2819548 17.127817 -15.35836
4.1640162 15.615057 -16.832598
4.0752215 14.263277 -17.942524
3.9972968 12.991213 -18.916586
3.9396896 11.819071 -19.636671
3.8887291 10.694004 -20.273682
3.8493905 9.6234751 -20.765415
3.8114603 8.5757847 -21.239546
3.7836885 7.5673771 -21.586689
3.7569983 6.5747442 -21.920317
3.7358356 5.6037512 -22.184853
3.7209125 4.6511393 -22.371393
3.7060971 3.7060947 -22.556583
3.6968908 2.7726679 -22.671661
3.6909761 1.8454866 -22.745594
3.6866739 0.92166615 -22.799374
3.6840997 -0 -22.831551
3.6845844 -0.9211483 -22.825489
3.6893473 -1.8446741 -22.765955
3.6983032 -2.7737265 -22.654003
3.7085421 -3.7085438 -22.52602
3.7247019 -4.6558771 -22.32402
3.7410142 -5.6115222 -22.120117
3.7574699 -6.575572 -21.914423
3.7880976 -7.5761976 -21.531576
3.8196366 -8.5941811 -21.137339
3.8553045 -9.6382627 -20.69149
3.8968399 -10.71631 -20.1723
3.9480875 -11.844263 -19.531704
4.0087485 -13.028436 -18.773434
4.0866842 -14.303396 -17.799242
4.1795907 -15.673466 -16.637917
4.3082371 -17.232946 -15.029837
4.5112586 -19.172848 -12.492071
5.692214 19.353529 -11.960655
5.4220786 17.350651 -14.66201
5.2486525 15.745956 -16.396271
5.1338944 14.374905 -17.543854
5.035965 13.093506 -18.523146
4.958972 11.901533 -19.293076
4.8910823 10.760378 -19.971975
4.8390431 9.6780853 -20.492369
4.7900381 8.6220703 -20.982416
4.7539096 7.6062541 -21.3437
4.7215199 6.6101274 -21.667599
4.6938505 5.6326189 -21.944292
4.6731443 4.6731424 -22.151352
4.6549749 3.723978 -22.333046
4.641829 2.7850952 -22.464508
4.6309948 1.8523979 -22.572849
4.626029 0.92520428 -22.622505
4.6227865 -0 -22.654934
4.6237292 -0.92474651 -22.645502
4.6335154 -1.853405 -22.547646
4.6447363 -2.7868414 -22.435429
4.6560931 -3.7248755 -22.321865
4.6738634 -4.6738634 -22.144157
4.6964126 -5.635694 -21.918673
4.7243481 -6.6140866 -21.63932
4.7589989 -7.6143994 -21.292805
4.7951479 -8.6312675 -20.931316
4.841722 -9.6834431 -20.465576
4.9026909 -10.785919 -19.855885
4.9678826 -11.922918 -19.203976
5.0412979 -13.107374 -18.469818
5.1475749 -14.413209 -17.407047
5.2729378 -15.818815 -16.153418
5.4458051 -17.426577 -14.424745
5.743454 -19.527746 -11.448256
7.1116357 20.149633 -9.6191664
6.6064677 17.617247 -13.828896
6.3764615 15.941152 -15.74562
6.2131047 14.497244 -17.106922
6.0918312 13.198966 -18.117537
5.9939537 11.987908 -18.93318
5.9128098 10.840149 -19.609379
5.8444991 9.7408295 -20.178638
5.7863188 8.6794777 -20.663473
5.739264 7.6523514 -21.055595
5.6977396 6.6473627 -21.401634
5.6652756 5.6652756 -21.672167
5.6355467 4.6962881 -21.919907
5.613234 3.7421551 -22.105844
5.5973048 2.7986507 -22.23859
5.582643 1.8608818 -22.360767
5.5786757 0.92978001 -22.393831
5.5802717 -1.9073486e-06 -22.380533
5.5818844 -0.93031406 -22.367088
5.5888638 -1.8629541 -22.308929
5.6018348 -2.8009195 -22.200838
5.6148663 -3.743247 -22.092247
5.6357279 -4.6964436 -21.9184
5.6689844 -5.6689844 -21.641258
5.7028885 -6.6533704 -21.358725
5.7440271 -7.6587038 -21.015902
5.7917686 -8.6876545 -20.618059
5.8509984 -9.7516651 -20.124477
5.9216771 -10.856405 -19.535488
6.0044098 -12.008821 -18.846046
6.1111884 -13.240909 -17.956226
6.226768 -14.529129 -16.993059
6.4083948 -16.020987 -15.479506
6.6510234 -17.736061 -13.457603
7.8972754 18.050915 -12.473684
7.5584626 16.196707 -14.893773
7.3471551 14.69431 -16.403118
7.1819754 13.337953 -17.58297
7.0564241 12.096727 -18.479767
6.9508076 10.922699 -19.234169
6.868434 9.812048 -19.822552
6.7959352 8.7376289 -20.340405
6.740303 7.7032003 -20.737774
6.6855745 6.685575 -21.128693
6.6485395 5.6987467 -21.393227
6.614922 4.7249451 -21.63335
6.5883222 3.7647552 -21.823355
6.5743251 2.817565 -21.923332
6.5605783 1.8744497 -22.021526
6.549706 0.9356699 -22.09918
6.5507913 -0 -22.091427
6.551897 -0.93598938 -22.083534
6.5541077 -1.8726053 -22.067739
6.5725412 -2.8168049 -21.936073
6.596386 -3.7693663 -21.765753
6.6228371 -4.730598 -21.576817
6.6579914 -5.7068477 -21.325718
6.6935201 -6.6935201 -21.071938
6.7473288 -7.7112341 -20.687593
6.813262 -8.7599096 -20.21664
6.8843441 -9.8347797 -19.70891
6.9595256 -10.936398 -19.171902
7.0747957 -12.12822 -18.348547
7.2031255 -13.377233 -17.431902
7.3688321 -14.737664 -16.24828
7.5733275 -16.228558 -14.7876
7.9298282 -18.12532 -12.241171
9.3769531 18.753902 -10.276842
8.8252001 16.547253 -13.725287
8.5166855 14.9042 -15.65351
8.3131075 13.508801 -16.925873
8.1640377 12.246056 -17.857557
8.0315285 11.043352 -18.685741
7.9330106 9.9162636 -19.301479
7.8390985 8.818985 -19.888428
7.7751327 7.7751322 -20.288216
7.7126875 6.7486029 -20.678497
7.6576099 5.743206 -21.022736
7.613903 4.758688 -21.295902
7.5881414 3.7940702 -21.456913
7.569602 2.8386011 -21.572783
7.5531244 1.8882809 -21.67577
7.5370054 0.94212341 -21.776512
7.5345573 -1.9073486e-06 -21.791817
7.5396538 -0.94245815 -21.75996
7.5488949 -1.8872242 -21.702208
7.5693793 -2.8385181 -21.574173
7.5948796 -3.7974405 -21.414799
7.6244106 -4.7652564 -21.23023
7.6651788 -5.7488866 -20.97543
7.7186074 -6.7537813 -20.6415
7.7787037 -7.7787056 -20.265898
7.8518891 -8.8333778 -19.808487
7.9392729 -9.9240923 -19.262339
8.0505905 -11.069565 -18.566608
8.1722527 -12.258381 -17.806217
8.3401451 -13.552735 -16.756891
8.5557423 -14.972548 -15.409408
8.8665047 -16.624695 -13.467146
9.5580769 -19.116158 -9.1448174
10.197934 16.996555 -12.227608
9.7827835 15.217659 -14.534001
9.5084562 13.734438 -16.058037
9.3017292 12.402304 -17.206526
9.1430254 11.174809 -18.088207
9.0244064 10.027117 -18.747206
8.9168892 8.9168873 -19.344526
8.833025 7.8515768 -19.810436
8.7622137 6.8150525 -20.203833
8.694746 5.7964964 -20.578651
8.6469584 4.8038673 -20.844135
8.6071815 3.8254156 -21.065117
8.5802565 2.8600836 -21.214705
8.5636406 1.9030285 -21.307018
8.5518579 0.9502058 -21.372475
8.5489798 9.5367432e-07 -21.388462
8.5575933 -0.95084381 -21.340611
8.5682001 -1.9040451 -21.281685
8.5901556 -2.8633862 -21.159708
8.6161947 -3.8294191 -21.015047
8.6494122 -4.8052311 -20.830505
8.7082348 -5.8054919 -20.503716
8.7710495 -6.8219266 -20.154747
8.8411684 -7.8588147 -19.765196
8.9206781 -8.920681 -19.323471
9.0389948 -10.043325 -18.666161
9.1694813 -11.207145 -17.941235
9.3310957 -12.441461 -17.043375
9.5328655 -13.769695 -15.922431
9.8274603 -15.28716 -14.285796
10.320461 -17.200771 -11.546894
11.177711 15.648794 -12.994245
10.79545 14.034082 -14.905547
10.527247 12.632698 -16.246555
10.324876 11.357363 -17.258417
10.161964 10.161964 -18.072971
10.033214 9.0298901 -18.716726
9.9220409 7.937633 -19.272589
9.8423262 6.889626 -19.671162
9.7638826 5.8583274 -20.063385
9.7140465 4.8570209 -20.312561
9.6712809 3.8685102 -20.526398
9.6332121 2.8899632 -20.716734
9.6141615 1.9228287 -20.811989
9.6007681 0.96007538 -20.87896
9.5953865 -0 -20.905869
9.60114 -0.96011448 -20.8771
9.6069002 -1.9213791 -20.848293
9.6348848 -2.8904676 -20.70837
9.6780281 -3.8712111 -20.492657
9.7248192 -4.8624105 -20.258698
9.7767563 -5.8660555 -19.999016
9.8461809 -6.8923268 -19.65189
9.9443607 -7.9554911 -19.160994
10.054121 -9.0487108 -18.612196
10.172597 -10.1726 -18.019812
10.342927 -11.377221 -17.168161
10.555665 -12.6668 -16.104471
10.828613 -14.077198 -14.73973
11.251098 -15.751539 -12.627309
12.970928 16.508451 -9.9240313
12.218838 14.440443 -13.342627
11.809828 12.883446 -15.201765
11.570095 11.570093 -16.291456
11.366444 10.333128 -17.217146
11.212149 9.1735744 -17.918484
11.07583 8.05515 -18.538113
10.977432 6.9856372 -18.985378
10.887493 5.9386315 -19.394192
10.821827 4.919013 -19.692675
10.766468 3.9150772 -19.944305
10.720041 2.923646 -20.155333
10.697721 1.9450407 -20.256788
10.675494 0.97050095 -20.357821
10.66334 -1.9073486e-06 -20.413074
10.681936 -0.97108459 -20.328537
10.7006 -1.9455662 -20.24371
10.727675 -2.9257278 -20.120636
10.770923 -3.9167004 -19.924055
10.826096 -4.9209538 -19.673271
10.893791 -5.9420662 -19.365562
10.981654 -6.988327 -18.966185
11.093045 -8.0676699 -18.459867
11.220606 -9.1804981 -17.880039
11.392854 -10.357141 -17.097095
11.591576 -11.591577 -16.193819
11.871052 -12.950241 -14.923467
12.247329 -14.474114 -13.21312
13.218122 -16.823067 -8.8004227
14.038332 15.208191 -10.389748
13.318975 13.318976 -13.387067
12.936749 11.858686 -14.97968
12.65414 10.545115 -16.157219
12.454421 9.3408127 -16.989378
12.272014 8.1813383 -17.749413
12.154787 7.0902901 -18.237846
12.046165 6.0230813 -18.690439
11.963212 4.9846711 -19.036077
11.90601 3.968668 -19.274424
11.849895 2.962472 -19.508232
11.826597 1.9710999 -19.605301
11.811515 0.98429012 -19.668154
11.803464 -0 -19.701694
11.810034 -0.98416901 -19.674324
11.8337 -1.9722834 -19.575708
11.864676 -2.9661708 -19.446646
11.902926 -3.9676404 -19.28727
11.984634 -4.9935961 -18.946819
12.075092 -6.0375457 -18.56991
12.178554 -7.1041565 -18.138826
12.298196 -8.1987972 -17.64031
12.479614 -9.3597126 -16.884399
12.687355 -10.572795 -16.01882
12.973514 -11.892389 -14.826489
13.378866 -13.378867 -13.137522
14.235435 -15.421721 -9.5684862
15.260838 14.086926 -10.187269
14.506185 12.274463 -13.08978
14.093557 10.841196 -14.676805
13.806776 9.5585375 -15.779814
13.607793 8.3740253 -16.545135
13.431561 7.2323766 -17.22295
13.307409 6.1418815 -17.700455
13.201217 5.0773888 -18.108887
13.123698 4.0380597 -18.407036
13.066398 3.0153203 -18.627422
13.016881 2.0025959 -18.817867
12.993071 0.9994669 -18.909447
12.988633 -0 -18.926512
12.984884 -0.99883652 -18.940931
13.01757 -2.0027046 -18.81522
13.073338 -3.0169272 -18.600725
13.135565 -4.0417132 -18.361397
13.206594 -5.0794582 -18.088209
13.303516 -6.1400857 -17.715427
13.461293 -7.2483907 -17.108591
13.632223 -8.3890619 -16.45117
13.82891 -9.5738621 -15.694684
14.142773 -10.879053 -14.487518
14.55615 -12.316742 -12.897606
15.504533 -14.311876 -9.2499743
16.919214 13.293669 -8.4570284
15.829177 11.306554 -12.350019
15.37354 9.8829899 -13.977298
15.049316 8.5996065 -15.135242
14.827048 7.4135218 -15.929052
14.636076 6.272604 -16.611101
14.517938 5.1849747 -17.03302
14.401646 4.1147542 -17.448345
14.340954 3.0730596 -17.665104
14.29518 2.0421667 -17.828583
14.257814 1.0184145 -17.962029
14.259981 -9.5367432e-07 -17.954294
14.273895 -1.0195656 -17.904602
14.302123 -2.043159 -17.803783
14.338855 -3.0726128 -17.672602
14.428256 -4.1223559 -17.35331
14.543384 -5.194066 -16.942139
14.678273 -6.2906895 -16.460392
14.827048 -7.4135251 -15.929052
15.093075 -8.6246147 -14.978961
15.391449 -9.8945026 -13.913337
15.917085 -11.369348 -12.036065
17.42522 10.455131 -10.798726
16.796669 8.9582233 -12.893905
16.405094 7.6557097 -14.19915
16.184759 6.4739032 -14.933598
15.983644 5.327878 -15.603988
15.861279 4.2296724 -16.011871
15.754128 3.1508241 -16.369036
15.681254 2.0908298 -16.61195
15.649685 1.0433121 -16.717182
15.619152 -1.9073486e-06 -16.818956
15.641267 -1.0427542 -16.745237
15.702269 -2.0936365 -16.541897
15.773329 -3.1546659 -16.305035
15.858673 -4.2289791 -16.020554
15.991796 -5.3305993 -15.576807
16.213352 -6.4853411 -14.838291
16.468166 -7.6851444 -13.988911
16.867153 -8.9958191 -12.658955
17.5082 -10.504923 -10.522126
18.546133 8.1139307 -10.926134
18.05617 6.7710609 -12.457266
17.746881 5.5458999 -13.423788
17.522287 4.3805699 -14.125645
17.383629 3.2594304 -14.558954
17.283909 2.1604867 -14.87058
17.214455 1.0759044 -15.087624
17.206747 -1.9073486e-06 -15.111714
17.220558 -1.0762868 -15.068554
17.237736 -2.1547174 -15.014872
17.3895 -3.2605295 -14.540609
17.543961 -4.3859901 -14.057924
17.762186 -5.5506849 -13.375965
18.120028 -6.7950106 -12.257713
18.684563 -8.1744986 -10.493538
19.864819 4.6740751 -10.456861
19.489206 3.4392686 -11.561604
19.307358 2.2714534 -12.096449
19.186026 1.1285887 -12.453308
19.166334 -2.3841858e-06 -12.51123
19.173386 -1.1278486 -12.490486
19.28286 -2.2685733 -12.1685
19.555313 -3.4509389 -11.367167
19.836512 -4.6674166 -10.540113
