# .PCD v0.7 - Point Cloud Data file format
VERSION 0.7
FIELDS x y z
SIZE 4 4 4
TYPE F F F
COUNT 1 1 1
WIDTH 1060
HEIGHT 1
VIEWPOINT 0 0 0 1 0 0 0
POINTS 1060
DATA ascii
-22.952827 1.2080412 -8.4806194
-23.094042 9.5367432e-07 -8.1090012
-23.331434 -1.2279692 -7.4842892
-21.725292 7.2417603 -8.5347614
-20.740767 5.761322 -11.269555
-20.346081 4.521349 -12.365904
-20.141914 3.356987 -12.933033
-19.958364 2.2175975 -13.442898
-19.868212 1.1037874 -13.693319
-19.875233 1.4305115e-06 -13.673817
-19.899265 -1.1055169 -13.60706
-19.980186 -2.2200212 -13.382281
-20.173199 -3.3622003 -12.846132
-20.381086 -4.5291328 -12.26867
-20.823524 -5.7843151 -11.039673
-19.841549 9.3371992 -10.525302
-19.154253 7.887044 -12.546756
-18.778204 6.6276021 -13.652782
-18.509161 5.4438696 -14.44409
-18.308046 4.3077769 -15.035599
-18.187601 3.2095747 -15.389854
-18.107302 2.1302719 -15.626029
-18.063717 1.062572 -15.754215
-18.03359 -1.9073486e-06 -15.842825
-18.073088 -1.0631251 -15.726659
-18.126019 -2.132473 -15.570982
-18.211454 -3.2137866 -15.319695
-18.376675 -4.3239264 -14.833752
-18.549826 -5.4558339 -14.324485
-18.846254 -6.6516199 -13.452637
-19.221346 -7.9146709 -12.349425
-20.050314 -9.4354439 -9.9112835
-19.093399 11.933375 -9.2159214
-18.04162 10.148409 -12.502738
-17.566103 8.7830515 -13.988721
-17.259403 7.5509868 -14.947161
-17.026331 6.3848734 -15.675512
-16.844864 5.264019 -16.242599
-16.729389 4.1823463 -16.603455
-16.638626 3.1197448 -16.887091
-16.56588 2.070734 -17.114422
-16.53492 1.033433 -17.211172
-16.515615 -0 -17.271498
-16.528337 -1.0330219 -17.231737
-16.583111 -2.0728879 -17.06057
-16.638304 -3.1196795 -16.8881
-16.741028 -4.1852584 -16.567083
-16.884577 -5.2764339 -16.11849
-17.031851 -6.3869462 -15.658265
-17.319778 -7.577405 -14.758486
-17.63958 -8.8197889 -13.759112
-18.164387 -10.217468 -12.119086
-19.387571 -12.117231 -8.2966347
-17.289978 12.679317 -11.249539
-16.623207 11.082137 -13.472106
-16.21101 9.7266045 -14.846093
-15.930264 8.4961414 -15.781917
-15.710088 7.3313732 -16.515839
-15.543764 6.217504 -17.07025
-15.413633 5.1378798 -17.504019
-15.327254 4.087265 -17.791946
-15.244679 3.048934 -18.067196
-15.185837 2.0247746 -18.263336
-15.16742 1.011158 -18.324728
-15.159704 9.5367432e-07 -18.350449
-15.155705 -1.0103798 -18.363775
-15.197025 -2.0262723 -18.226051
-15.258412 -3.0516853 -18.02142
-15.320348 -4.0854292 -17.814972
-15.446529 -5.1488457 -17.394363
-15.581543 -6.2326188 -16.944321
-15.759375 -7.3543744 -16.351551
-15.994021 -8.5301456 -15.569388
-16.285332 -9.7711973 -14.598356
-16.686874 -11.124584 -13.259884
-17.438629 -12.788328 -10.754036
-15.940625 13.663393 -11.951995
-15.361328 12.069615 -14.020913
-14.988487 10.70606 -15.352482
-14.707836 9.4550381 -16.354809
-14.502095 8.2869091 -17.089594
-14.341684 7.1708422 -17.662495
-14.209701 6.0898705 -18.133867
-14.104013 5.0371461 -18.51132
-14.029398 4.0083985 -18.777805
-13.977779 2.9952354 -18.96216
-13.929207 1.9898853 -19.13563
-13.896985 0.99264145 -19.25071
-13.900887 -2.8610229e-06 -19.236774
-13.910715 -0.99362278 -19.201672
-13.93666 -1.9909515 -19.109007
-13.98776 -2.9973807 -18.926514
-14.043566 -4.0124474 -18.727201
-14.130952 -5.0467687 -18.41511
-14.243752 -6.1044636 -18.012257
-14.359877 -7.1799417 -17.597521
-14.545966 -8.3119812 -16.93292
-14.7435 -9.4779654 -16.22744
-15.061893 -10.758497 -15.090322
-15.442831 -12.133653 -13.729827
-16.089251 -13.790787 -11.421186
-14.789868 14.789866 -11.998687
-14.213498 13.120152 -14.215495
-13.860109 11.727783 -15.574687
-13.583845 10.449112 -16.637238
-13.37689 9.2609253 -17.433216
-13.210929 8.1298027 -18.071529
-13.072766 7.0391798 -18.602924
-12.984924 5.9930415 -18.940781
-12.899329 4.9612799 -19.269991
-12.821649 3.9451208 -19.56876
-12.775178 2.9481173 -19.747501
-12.744394 1.9606752 -19.865892
-12.718322 0.97833252 -19.966171
-12.720952 -9.5367432e-07 -19.956062
-12.72362 -0.97874355 -19.945793
-12.731481 -1.9586897 -19.915562
-12.783063 -2.9499388 -19.717176
-12.835575 -3.9494076 -19.5152
-12.898176 -4.9608359 -19.274427
-13.001065 -6.0004911 -18.8787
-13.106225 -7.0571976 -18.474239
-13.250384 -8.1540833 -17.919775
-13.424578 -9.2939386 -17.249804
-13.635244 -10.488647 -16.439547
-13.908304 -11.768566 -15.389321
-14.294062 -13.19452 -13.905638
-14.9268 -14.926802 -11.472024
-13.75253 16.044617 -11.580587
-13.12876 14.222824 -14.179627
-12.779594 12.779594 -15.634488
-12.523726 11.480082 -16.700602
-12.309134 10.25761 -17.59474
-12.140154 9.1051149 -18.298824
-12.006879 8.0045834 -18.854137
-11.89816 6.9405904 -19.307133
-11.817985 5.9089918 -19.641193
-11.740096 4.891705 -19.965729
-11.678359 3.892787 -20.222969
-11.646345 2.9115858 -20.356358
-11.615206 1.9358654 -20.486111
-11.588124 0.96567726 -20.598944
-11.589168 -0 -20.594597
-11.601736 -0.96681213 -20.542229
-11.614332 -1.9357224 -20.489748
-11.654324 -2.913579 -20.323114
-11.698346 -3.8994479 -20.13969
-11.745703 -4.894043 -19.942373
-11.831562 -5.915782 -19.584621
-11.920084 -6.9533815 -19.215778
-12.025273 -8.0168495 -18.777493
-12.167579 -9.1256866 -18.184551
-12.320088 -10.266743 -17.549093
-12.561774 -11.514963 -16.54207
-12.828966 -12.828967 -15.428767
-13.216328 -14.317691 -13.814762
-13.906295 -16.224007 -10.939905
-12.907837 17.601593 -10.21081
-12.130285 15.438544 -13.745134
-11.752741 13.889605 -15.461242
-11.484776 12.528847 -16.679272
-11.284019 11.284018 -17.591801
-11.106374 10.096703 -18.399279
-10.971546 8.976717 -19.012133
-10.859904 7.8981099 -19.519594
-10.764602 6.8501978 -19.952789
-10.699629 5.8361607 -20.248117
-10.643686 4.8380365 -20.502403
-10.588293 3.8502874 -20.754189
-10.555931 2.8788881 -20.901287
-10.531719 1.914855 -21.011347
-10.513141 0.95574093 -21.095791
-10.513235 -9.5367432e-07 -21.095367
-10.518826 -0.95625877 -21.06995
-10.5289 -1.9143476 -21.024162
-10.560151 -2.880043 -20.882109
-10.602405 -3.8554211 -20.690046
-10.644998 -4.8386374 -20.496441
-10.714947 -5.8445196 -20.17849
-10.794997 -6.8695464 -19.814627
-10.879529 -7.9123878 -19.430389
-11.006579 -9.0053854 -18.852888
-11.137648 -10.125134 -18.257126
-11.314024 -11.314023 -17.455418
-11.513462 -12.560142 -16.54888
-11.80837 -13.955344 -15.208388
-12.206871 -15.536017 -13.397017
-13.156373 -17.940512 -9.0811024
-11.210026 16.815037 -12.832666
-10.760582 15.064816 -15.079888
-10.47646 13.6194 -16.500492
-10.268673 12.322408 -17.539431
-10.102662 11.112926 -18.369484
-9.9703321 9.9703302 -19.031136
-9.8571587 8.8714428 -19.597002
-9.7728958 7.8183155 -20.018316
-9.6923094 6.7846165 -20.421247
-9.6318569 5.7791138 -20.723507
-9.579277 4.7896395 -20.98641
-9.5316982 3.8126764 -21.224302
-9.5051231 2.8515348 -21.35718
-9.4867144 1.8973427 -21.449223
-9.4701052 0.94700813 -21.532276
-9.4681273 9.5367432e-07 -21.542164
-9.4734497 -0.94734287 -21.515545
-9.4849253 -1.8969851 -21.45817
-9.510376 -2.8531151 -21.330917
-9.5457783 -3.8183136 -21.153904
-9.5814734 -4.7907376 -20.97543
-9.6362982 -5.7817788 -20.7013
-9.7034445 -6.7924104 -20.365576
-9.7715311 -7.8172269 -20.025137
-9.8767309 -8.8890581 -19.499142
-9.9929628 -9.9929638 -18.91798
-10.136391 -11.150032 -18.200838
-10.313791 -12.376553 -17.313839
-10.530348 -13.689452 -16.231058
-10.814604 -15.140447 -14.809776
-11.28028 -16.920418 -12.481397
-10.510982 18.68619 -10.488453
-9.9778757 16.629791 -13.450154
-9.5076141 14.78962 -16.062719
-9.295042 13.426171 -17.243671
-9.1264029 12.168535 -18.180557
-8.9918795 10.990074 -18.927912
-8.8777237 9.8641376 -19.562107
-8.788188 8.7881851 -20.059532
-8.7135525 7.7453775 -20.474171
-8.6407681 6.7205963 -20.878531
-8.5893154 5.7262077 -21.164379
-8.5505953 4.7503271 -21.37949
-8.5122232 3.7832098 -21.592663
-8.4882002 2.829401 -21.726124
-8.4696598 1.8821468 -21.82913
-8.4531479 0.93923569 -21.920864
-8.4512978 -9.5367432e-07 -21.931145
-8.4605551 -0.94006252 -21.879713
-8.4707241 -1.8823862 -21.823215
-8.4918842 -2.8306284 -21.705666
-8.5234203 -3.7881851 -21.530462
-8.5556469 -4.7531371 -21.351425
-8.6019678 -5.7346473 -21.09409
-8.6614132 -6.7366543 -20.763832
-8.7219229 -7.7528219 -20.427666
-8.8073215 -8.8073196 -19.953236
-8.9024725 -9.8916359 -19.424616
-9.0120516 -11.01473 -18.815844
-9.1543245 -12.205766 -18.02544
-9.3227463 -13.466188 -17.089762
-9.5565186 -14.865695 -15.791026
-9.8794165 -16.465694 -13.997149
-10.488487 -18.6462 -10.613422
-9.2356443 18.471283 -11.160023
-8.7725477 16.448526 -14.054374
-8.3542175 14.619879 -16.668938
-8.1690111 13.274644 -17.826473
-8.0309277 12.046391 -18.689499
-7.9145498 10.882505 -19.416862
-7.8223314 9.7779131 -19.993223
-7.7476182 8.7160702 -20.460186
-7.6834559 7.6834559 -20.861195
-7.6259913 6.6727405 -21.220352
-7.5825772 5.6869316 -21.49169
-7.5454879 4.7159309 -21.723499
-7.5087371 3.7543669 -21.95319
-7.4896684 2.8086233 -22.072372
-7.478334 1.8695812 -22.143209
-7.4670119 0.93337631 -22.21397
-7.4654536 -9.5367432e-07 -22.223713
-7.4698935 -0.93373871 -22.195963
-7.4743609 -1.8685894 -22.168041
-7.4895811 -2.8085947 -22.072916
-7.5175729 -3.7587872 -21.897964
-7.5457749 -4.7161093 -21.721701
-7.5843635 -5.6882753 -21.480524
-7.6365771 -6.6820059 -21.15419
-7.6894913 -7.6894908 -20.823473
-7.7611876 -8.7313347 -20.375376
-7.8446169 -9.8057709 -19.853947
-7.9359694 -10.911957 -19.28299
-8.0600414 -12.090064 -18.507536
-8.1914148 -13.311052 -17.686451
-8.377923 -14.661366 -16.520779
-8.6271858 -16.175976 -14.962884
-8.9879637 -17.975929 -12.708021
-8.4296618 20.472033 -8.670927
-7.9893069 18.261272 -11.816319
-7.5932131 16.271168 -14.645566
-7.2347474 14.469494 -17.206028
-7.0841165 13.156218 -18.28196
-6.9649482 11.939913 -19.133165
-6.8723521 10.799408 -19.794567
-6.7938452 9.705492 -20.355335
-6.7304559 8.6534405 -20.808111
-6.6788754 7.6329989 -21.176548
-6.6292491 6.6292472 -21.531017
-6.5924282 5.6506548 -21.79402
-6.5627766 4.6876965 -22.005825
-6.5351334 3.7343607 -22.203274
-6.5183797 2.7935896 -22.322943
-6.5050902 1.8585958 -22.417862
-6.4931097 0.92758751 -22.503441
-6.4917998 -2.8610229e-06 -22.512794
-6.498692 -0.92838573 -22.46357
-6.5059738 -1.8588514 -22.411556
-6.520587 -2.7945385 -22.307177
-6.5432758 -3.7390165 -22.145111
-6.5663915 -4.6902809 -21.98
-6.5977578 -5.6552215 -21.755955
-6.6402893 -6.6402898 -21.45216
-6.6834121 -7.6381874 -21.144135
-6.7401819 -8.6659508 -20.738638
-6.8075795 -9.7251148 -20.257229
-6.8797607 -10.811053 -19.741646
-6.9863534 -11.976605 -18.98027
-7.0963011 -13.178846 -18.194931
-7.2471762 -14.494352 -17.117256
-7.4285827 -15.91839 -15.82149
-7.6972494 -17.593718 -13.902442
-8.2559204 -20.050095 -9.911932
-7.140089 20.230253 -9.3820553
-6.7710161 18.056044 -12.457659
-6.4390602 16.097651 -15.223958
-6.138113 14.322262 -17.731857
-6.0248871 13.05392 -18.675406
-5.9290771 11.858156 -19.473818
-5.8506083 10.726115 -20.127728
-5.7893028 9.6488342 -20.638607
-5.7388716 8.6083069 -21.058867
-5.6936402 7.5915198 -21.435795
-5.6509175 6.5927343 -21.791817
-5.621274 5.6212721 -22.038847
-5.5968018 4.6640015 -22.242783
-5.5733461 3.7155638 -22.438248
-5.5599461 2.779973 -22.549911
-5.5491767 1.8497238 -22.63966
-5.5406103 0.92343426 -22.711044
-5.5396886 -9.5367432e-07 -22.718727
-5.5430918 -0.92385197 -22.690365
-5.5492883 -1.8497639 -22.638727
-5.5620761 -2.7810383 -22.53216
-5.5811105 -3.7207394 -22.373547
-5.6004863 -4.6670742 -22.212074
-5.6273022 -5.6273036 -21.988609
-5.6632981 -6.6071844 -21.688644
-5.6998587 -7.5998135 -21.383976
-5.7479086 -8.6218643 -20.983559
-5.8049488 -9.6749163 -20.508224
-5.8638449 -10.750381 -20.017424
-5.9478154 -11.895631 -19.317669
-6.0342445 -13.074196 -18.597425
-6.1563716 -14.364869 -17.579699
-6.302186 -15.755467 -16.36458
-6.5020905 -17.338907 -14.698709
-6.8377681 -19.37368 -11.901392
-5.880127 19.992432 -10.081526
-5.5798435 17.855495 -13.084364
-5.3092475 15.927741 -15.790324
-5.0725098 14.203024 -18.157703
-4.9902368 12.974614 -18.980429
-4.9122849 11.789482 -19.759951
-4.8526001 10.675719 -20.356796
-4.7995248 9.5990486 -20.887548
-4.7588863 8.5659962 -21.293934
-4.7243199 7.5589094 -21.639597
-4.6902523 6.5663528 -21.980272
-4.6671939 5.6006336 -22.210857
-4.6450448 4.6450443 -22.43235
-4.6239285 3.6991396 -22.643509
-4.6140242 2.7684155 -22.742554
-4.6069174 1.8427668 -22.813622
-4.5998321 0.91996765 -22.884472
-4.5998979 9.5367432e-07 -22.883816
-4.6020293 -0.92040539 -22.862503
-4.6041622 -1.8416643 -22.841171
-4.6140509 -2.7684288 -22.742287
-4.6290765 -3.7032604 -22.592031
-4.6442943 -4.6442938 -22.439856
-4.6663818 -5.5996599 -22.218975
-4.6960831 -6.5745163 -21.921959
-4.7261519 -7.5618448 -21.621277
-4.7657504 -8.578351 -21.225292
-4.8126736 -9.6253481 -20.756062
-4.8608527 -10.693876 -20.274271
-4.9300742 -11.832178 -19.582056
-5.0013266 -13.003449 -18.869526
-5.094543 -14.264722 -17.937363
-5.2048011 -15.614405 -16.834784
-5.3684793 -17.179136 -15.198003
-5.6050129 -19.057043 -12.832666
-4.9105506 22.097475 -7.500916
-4.6496964 19.761208 -10.761591
-4.414916 17.659662 -13.696345
-4.2030349 15.76138 -16.344862
-4.037415 14.130951 -18.415112
-3.9693305 12.900323 -19.266163
-3.913532 11.740597 -19.963646
-3.8653526 10.629718 -20.565887
-3.8264947 9.5662365 -21.051613
-3.7927742 8.533741 -21.47312
-3.7645681 7.5291367 -21.825691
-3.737864 6.5412607 -22.159492
-3.7210629 5.5815945 -22.369513
-3.7050409 4.6313 -22.569782
-3.6897066 3.6897058 -22.761465
-3.6817076 2.761281 -22.86145
-3.6737435 1.8368721 -22.961002
-3.6660852 0.91652107 -23.056736
-3.6677248 9.5367432e-07 -23.036236
-3.6709671 -0.91774178 -22.995705
-3.6742046 -1.8371019 -22.955236
-3.6827607 -2.7620745 -22.848282
-3.6943021 -3.6943026 -22.704021
-3.7063427 -4.6329298 -22.553516
-3.7237861 -5.5856791 -22.335472
-3.7459564 -6.5554242 -22.058342
-3.7684917 -7.5369849 -21.776651
-3.7985828 -8.5468111 -21.400517
-3.8338106 -9.5845261 -20.960163
-3.8697217 -10.641736 -20.511276
-3.923157 -11.769472 -19.843336
-3.9795275 -12.933465 -19.138706
-4.0527697 -14.184695 -18.223175
-4.1361475 -15.510552 -17.180954
-4.2555976 -17.02239 -15.687824
-4.4341378 -18.845085 -13.456076
-3.6384575 21.830744 -8.2418404
-3.4473891 19.535206 -11.426311
-3.2751088 17.467247 -14.29765
-3.1197021 15.598507 -16.887762
-3.0176032 14.082148 -18.589407
-2.967792 12.860431 -19.419596
-2.9263504 11.7054 -20.110291
-2.8916602 10.602755 -20.688457
-2.8615861 9.5386181 -21.189697
-2.8359244 8.5077705 -21.61739
-2.8153248 7.5075321 -21.960716
-2.7982872 6.5293341 -22.244675
-2.784246 5.5684919 -22.478695
-2.7712674 4.6187773 -22.695007
-2.76072 3.6809597 -22.870794
-2.7547493 2.7547474 -22.970306
-2.7497597 1.8331738 -23.053471
-2.7449751 0.91499233 -23.133213
-2.7454042 -0 -23.12606
-2.7464976 -0.91550064 -23.107838
-2.7489216 -1.8326139 -23.067434
-2.7560077 -2.7560062 -22.949337
-2.7642851 -3.6857157 -22.81138
-2.7730343 -4.6217251 -22.665558
-2.7867935 -5.573586 -22.436237
-2.8031702 -6.5407314 -22.163292
-2.8199792 -7.5199456 -21.883146
-2.8431733 -8.5295219 -21.496576
-2.8693249 -9.5644188 -21.060715
-2.8970139 -10.622381 -20.599232
-2.9354522 -11.741811 -19.958591
-2.9752183 -12.892612 -19.295828
-3.02827 -14.131927 -18.411631
-3.0908585 -15.454294 -17.368486
-3.1781764 -16.950275 -15.913187
-3.2960505 -18.677624 -13.948616
-3.5582292 -21.349373 -9.5789776
-2.3969674 21.572702 -8.9586143
-2.27228 19.314381 -12.075796
-2.1599667 17.27973 -14.883634
-2.0585229 15.438921 -17.419725
-2.0065365 14.045754 -18.719385
-1.9740862 12.831558 -19.530643
-1.9481132 11.688679 -20.179964
-1.9254552 10.590002 -20.746414
-1.9042079 9.521039 -21.277601
-1.8883309 8.497488 -21.674522
-1.8739979 7.4959888 -22.032848
-1.8632134 6.5212469 -22.302456
-1.8538758 5.5616255 -22.535902
-1.8448479 4.6121178 -22.761599
-1.837821 3.6756401 -22.937271
-1.8336797 2.7505169 -23.040806
-1.8303684 1.8303671 -23.123589
-1.8278162 0.9139061 -23.187391
-1.8281018 -9.5367432e-07 -23.180252
-1.8283874 -0.91419697 -23.173111
-1.8289381 -1.8289385 -23.15934
-1.8338051 -2.7507076 -23.037672
-1.8390918 -3.6781836 -22.905502
-1.8444146 -4.6110363 -22.772434
-1.8538492 -5.5615492 -22.536568
-1.8647196 -6.5265198 -22.264807
-1.8757457 -7.5029812 -21.989159
-1.8916608 -8.5124741 -21.591276
-1.9089121 -9.5445604 -21.159992
-1.9278429 -10.603136 -20.686724
-1.9532803 -11.719682 -20.050789
-1.9796112 -12.867475 -19.392515
-2.0144868 -14.101409 -18.520622
-2.0531254 -15.39844 -17.554661
-2.11132 -16.890562 -16.0998
-2.1897421 -18.612808 -14.139248
-2.3265457 -20.938911 -10.719158
-1.1843828 21.31889 -9.6636581
-1.1234249 19.098221 -12.711555
-1.0685339 17.096539 -15.456102
-1.0220538 15.330807 -17.780102
-1.0032369 14.045318 -18.720949
-0.9862535 12.821296 -19.570118
-0.97359991 11.683196 -20.202803
-0.96181554 10.579969 -20.792023
-0.95169002 9.5168991 -21.298294
-0.94329101 8.4896183 -21.718246
-0.93601793 7.4881415 -22.081902
-0.93069351 6.5148535 -22.348125
-0.92628956 5.5577364 -22.568319
-0.92192727 4.6096344 -22.786436
-0.91887897 3.6755152 -22.938847
-0.91654211 2.7496233 -23.055691
-0.91421449 1.8284273 -23.17207
-0.91295403 0.91295242 -23.235092
-0.91340238 -1.9073486e-06 -23.212679
-0.91385102 -0.91385365 -23.190247
-0.91456521 -1.8291292 -23.154537
-0.91685027 -2.7505512 -23.040281
-0.91947234 -3.6778917 -22.90918
-0.92213321 -4.6106653 -22.776133
-0.92694324 -5.5616608 -22.535635
-0.93204111 -6.5242887 -22.280739
-0.93719548 -7.4975653 -22.023022
-0.94506657 -8.5056019 -21.629467
-0.95325452 -9.5325451 -21.22007
-0.96249437 -10.58744 -20.758076
-0.97484744 -11.69817 -20.140427
-0.9878763 -12.842389 -19.488987
-1.0059305 -14.083031 -18.586264
-1.0259246 -15.388868 -17.586569
-1.0529487 -16.847178 -16.235365
-1.0912403 -18.551083 -14.320786
-1.1598728 -20.877708 -10.889159
0 21.070591 -10.353369
0 18.886852 -13.33323
0 16.917248 -16.016388
0 15.340405 -17.748108
0 14.037397 -18.749237
0 12.823731 -19.560745
0 11.68408 -20.199121
0 10.573587 -20.821033
0 9.5171261 -21.297169
0 8.4900169 -21.716038
0 7.493176 -22.050438
0 6.5146465 -22.349602
0 5.5555296 -22.586704
0 4.6071539 -22.811245
0 3.6754513 -22.939632
0 2.750205 -23.046028
0 1.8292332 -23.151937
0 0.91367722 -23.198807
0 9.5367432e-07 -23.213589
0 -0.91368389 -23.198681
0 -1.8295479 -23.144138
0 -2.7511797 -23.029835
0 -3.6775961 -22.912857
0 -4.6119099 -22.763712
0 -5.5637293 -22.518406
0 -6.5261021 -22.26778
0 -7.5027437 -21.990658
0 -8.5117493 -21.595306
0 -9.5393257 -21.186165
0 -10.601198 -20.695534
0 -11.709873 -20.091654
0 -12.8532 -19.447407
0 -14.087785 -18.569281
0 -15.405517 -17.531078
0 -16.868153 -16.169827
0 -18.56884 -14.268564
0 -20.816792 -11.05838
1.1570455 20.826815 -11.030523
1.0988599 18.680616 -13.939803
1.0503231 16.80517 -16.366638
1.0244745 15.367119 -17.659069
1.004176 14.058465 -18.673992
0.98790658 12.842785 -19.487467
0.97487688 11.698521 -20.138952
0.96273047 10.590034 -20.746271
0.95292145 9.529213 -21.236723
0.94454509 8.500906 -21.655539
0.93742478 7.4993968 -22.011559
0.93116742 6.5181704 -22.324425
0.9264949 5.5589685 -22.558052
0.92259055 4.6129541 -22.753265
0.91964048 3.6785593 -22.900772
0.91726571 2.7517948 -23.019508
0.91514778 1.8302937 -23.125408
0.91467702 0.91467571 -23.148947
0.91438073 -9.5367432e-07 -23.163761
0.91412616 -0.9141264 -23.176487
0.91526484 -1.8305292 -23.119553
0.91746444 -2.7523937 -23.009571
0.91967469 -3.6786985 -22.899063
0.9227308 -4.6136532 -22.746258
0.92764056 -5.5658445 -22.500765
0.93260026 -6.528203 -22.252785
0.93859488 -7.5087576 -21.953051
0.94651192 -8.5186081 -21.557201
0.95460898 -9.546092 -21.152349
0.96503419 -10.615377 -20.631086
0.97701967 -11.724237 -20.031815
0.9906221 -12.878089 -19.351692
1.0076156 -14.106617 -18.502016
1.0282156 -15.423235 -17.47201
1.0557084 -16.891336 -16.097374
1.0956277 -18.625671 -14.101412
1.1740218 -21.132393 -10.181704
2.3334959 21.001461 -10.545403
2.1848884 18.571548 -14.260592
2.1090853 16.872684 -16.155661
2.0556171 15.417126 -17.492371
2.0138881 14.097216 -18.535595
1.9798243 12.868855 -19.387192
1.9523915 11.71435 -20.073008
1.9290966 10.610031 -20.65538
1.9086745 9.5433702 -21.165936
1.8928958 8.5180292 -21.560402
1.8784717 7.5138884 -21.921001
1.8667964 6.5337858 -22.212891
1.8565067 5.56952 -22.470131
1.8494014 4.6235037 -22.64776
1.8434741 3.6869469 -22.79594
1.8375849 2.7563772 -22.943171
1.8325727 1.832571 -23.068474
1.8321972 0.9161005 -23.077866
1.832072 -9.5367432e-07 -23.080997
1.831947 -0.91597271 -23.084122
1.8349289 -1.8349285 -23.009571
1.838971 -2.7584572 -22.908524
1.843411 -3.6868219 -22.797523
1.8505127 -4.6262827 -22.61998
1.8595746 -5.5787234 -22.393433
1.8688451 -6.5409594 -22.161665
1.8811729 -7.5246935 -21.853472
1.8963312 -8.533493 -21.474514
1.9117355 -9.5586777 -21.089405
1.9330304 -10.631668 -20.557037
1.956653 -11.739919 -19.966473
1.9853876 -12.905019 -19.248106
2.0214908 -14.150434 -18.34553
2.0654058 -15.490542 -17.247648
2.1177526 -16.94202 -15.938984
2.1980951 -18.683811 -13.930419
2.3929927 -21.536934 -9.0579767
3.5891955 21.53517 -9.0628719
3.3050094 18.728384 -13.799309
3.1863577 16.993906 -15.776833
3.0983276 15.491639 -17.244001
3.0344851 14.160931 -18.308041
2.9830594 12.92659 -19.16514
2.940047 11.760185 -19.882011
2.9036965 10.646886 -20.487852
2.8734241 9.5780773 -20.992397
2.8479199 8.5437574 -21.417461
2.8254755 7.5346007 -21.791538
2.8074658 6.5507526 -22.091702
2.790781 5.5815601 -22.36978
2.7807577 4.634594 -22.536837
2.7721746 3.696228 -22.67989
2.7636518 2.7636509 -22.82193
2.7581806 1.8387842 -22.91312
2.7554021 0.91846371 -22.959431
2.7536731 -1.9073486e-06 -22.988247
2.7543724 -0.91812515 -22.976595
2.7595761 -1.8397188 -22.889862
2.7647917 -2.7647943 -22.802937
2.7712276 -3.694972 -22.695669
2.7837403 -4.6395693 -22.487125
2.7970469 -5.5940952 -22.265348
2.8110216 -6.5590515 -22.032438
2.8317323 -7.5512857 -21.687263
2.8543274 -8.5629835 -21.310677
2.8784442 -9.5948162 -20.908726
2.9120078 -10.677362 -20.349333
2.947119 -11.788477 -19.764147
2.9914241 -12.962838 -19.025728
3.0446863 -14.208537 -18.138025
3.1154339 -15.577167 -16.9589
3.2032938 -17.084234 -15.494567
3.3356338 -18.901926 -13.288898
4.466198 18.981342 -13.055322
4.2839069 17.135628 -15.333956
4.1614313 15.605366 -16.864906
4.0695405 14.243389 -18.013542
3.99721 12.990931 -18.917673
3.9376531 11.812956 -19.66213
3.8865688 10.688066 -20.300686
3.8467562 9.6168909 -20.798342
3.8109527 8.5746422 -21.245892
3.7818213 7.5636415 -21.610033
3.757086 6.5749006 -21.919222
3.7365944 5.6048908 -22.175362
3.7195575 4.6494455 -22.388325
3.7062681 3.7062683 -22.554449
3.6947582 2.7710705 -22.698322
3.6900871 1.8450441 -22.756702
3.686357 0.92158985 -22.803329
3.683151 -1.9073486e-06 -22.84341
3.6839943 -0.92100143 -22.832872
3.6906056 -1.8453045 -22.750225
3.6972413 -2.772933 -22.667278
3.7056062 -3.7056055 -22.562716
3.7223434 -4.6529274 -22.353504
3.7401228 -5.6101871 -22.131258
3.7597415 -6.5795479 -21.886028
3.7891233 -7.578248 -21.518753
3.8189797 -8.5927048 -21.145554
3.8548889 -9.6372232 -20.696686
3.8997912 -10.724427 -20.135408
3.9466469 -11.839941 -19.549709
4.0106101 -13.034484 -18.750174
4.0776229 -14.271681 -17.912512
4.1784105 -15.669039 -16.652668
4.3085256 -17.234102 -15.026228
4.5150084 -19.188787 -12.445192
5.6991091 19.376972 -11.891704
5.4160743 17.331436 -14.722054
5.2489095 15.746728 -16.393703
5.1249342 14.349813 -17.633459
5.0312257 13.081188 -18.570539
4.9523177 11.885561 -19.359619
4.8889422 10.755672 -19.993372
4.8349719 9.6699429 -20.533077
4.7881422 8.6186543 -21.001373
4.7507095 7.6011362 -21.375702
4.7162337 6.602726 -21.720459
4.6908951 5.6290712 -21.973846
4.6662197 4.6662188 -22.2206
4.651423 3.721138 -22.36857
4.6386175 2.7831669 -22.49662
4.6313815 1.8525524 -22.568983
4.6275454 0.92550755 -22.607342
4.6237292 -9.5367432e-07 -22.645504
4.6278648 -0.92557144 -22.604145
4.634316 -1.8537245 -22.539637
4.6426859 -2.7856102 -22.455935
4.657104 -3.7256842 -22.311762
4.6767979 -4.6767998 -22.11482
4.6973033 -5.6367655 -21.90976
4.7239456 -6.6135254 -21.643341
4.759182 -7.6146908 -21.290976
4.7950907 -8.6311655 -20.931887
4.843019 -9.686039 -20.452608
4.8982286 -10.776103 -19.900509
4.9612808 -11.907076 -19.269987
5.0480032 -13.12481 -18.402761
5.1468172 -14.411089 -17.414623
5.272316 -15.816948 -16.159637
5.4508414 -17.442692 -14.374384
5.7468591 -19.539318 -11.414207
7.075233 20.04649 -9.9225225
6.597981 17.594614 -13.899626
6.3714542 15.928634 -15.78735
6.2116051 14.493744 -17.119421
6.0876637 13.189937 -18.152264
5.9872446 11.974487 -18.989094
5.907474 10.830368 -19.653851
5.8381023 9.7301674 -20.231945
5.7821083 8.6731606 -20.698561
5.7342191 7.6456232 -21.097635
5.6937408 6.6426992 -21.434956
5.660841 5.660841 -21.70912
5.6333599 4.6944656 -21.938126
5.6118636 3.7412415 -22.117264
5.5991225 2.7995596 -22.223442
5.58812 1.8627033 -22.31513
5.577177 0.92952728 -22.406322
5.575438 -1.9073486e-06 -22.420815
5.5817394 -0.93029022 -22.368298
5.5880394 -1.8626814 -22.315802
5.5968018 -2.7984009 -22.242783
5.619082 -3.7460527 -22.057114
5.6421666 -4.7018032 -21.86474
5.6669378 -5.6669393 -21.658314
5.7051463 -6.6560044 -21.339909
5.7469678 -7.6626272 -20.991398
5.7915597 -8.6873407 -20.619797
5.8553982 -9.7589998 -20.087809
5.922658 -10.858206 -19.527315
6.0065579 -12.013117 -18.828146
6.1056228 -13.228851 -18.002604
6.2389803 -14.557622 -16.891293
6.4016814 -16.004202 -15.535456
6.6443634 -17.718304 -13.513103
7.8676543 17.98321 -12.685264
7.5461073 16.170229 -14.982029
7.3392324 14.678462 -16.459711
7.172029 13.319482 -17.654015
7.0515208 12.088323 -18.51479
6.9507003 10.922529 -19.234936
6.864646 9.8066359 -19.849613
6.7972679 8.7393456 -20.330879
6.7356272 7.6978598 -20.771172
6.6887503 6.6887484 -21.106007
6.6445394 5.6953182 -21.421803
6.6129999 4.7235699 -21.647083
6.5848365 3.7627602 -21.848251
6.5724835 2.8167772 -21.936483
6.5602727 1.8743601 -22.023705
6.5480881 0.93543911 -22.110741
6.5455189 9.5367432e-07 -22.129086
6.5519919 -0.93599892 -22.082851
6.5586491 -1.8739004 -22.035301
6.5708542 -2.816083 -21.948124
6.5946479 -3.7683716 -21.778164
6.6188674 -4.7277603 -21.605171
6.6511507 -5.7009859 -21.37458
6.6990337 -6.6990328 -21.032558
6.747591 -7.7115331 -20.685715
6.8085461 -8.7538462 -20.250324
6.8841972 -9.8345671 -19.709961
6.9629893 -10.94184 -19.147161
7.0731068 -12.125326 -18.360603
7.1931896 -13.358781 -17.502872
7.3642797 -14.728559 -16.280798
7.5842657 -16.251997 -14.70947
7.9459386 -18.162142 -12.126095
9.3503227 18.700644 -10.44328
8.816165 16.530308 -13.781764
8.5220985 14.913674 -15.61968
8.3120613 13.507099 -16.932413
8.1533861 12.230078 -17.924135
8.0299253 11.041143 -18.695763
7.9243913 9.905489 -19.35535
7.8375235 8.8172159 -19.898272
7.7675095 7.7675085 -20.335861
7.7084851 6.7449217 -20.704765
7.6572909 5.7429647 -21.024731
7.6182513 4.7614079 -21.268723
7.591095 3.7955475 -21.438457
7.5662432 2.8373413 -21.593781
7.5487175 1.8871775 -21.703314
7.5382853 0.94228649 -21.768511
7.5392566 -0 -21.76244
7.5416198 -0.9427042 -21.747675
7.549315 -1.887331 -21.699574
7.5718503 -2.8394451 -21.558733
7.5980392 -3.7990189 -21.395046
7.6259685 -4.7662301 -21.220491
7.6690145 -5.7517633 -20.951458
7.721385 -6.7562146 -20.624138
7.7748985 -7.7749 -20.28968
7.8536377 -8.8353424 -19.797562
7.9399586 -9.9249477 -19.258057
8.0422916 -11.058151 -18.618473
8.1790028 -12.268505 -17.76403
8.3443623 -13.55959 -16.730536
8.5504856 -14.963353 -15.44226
8.8649473 -16.621777 -13.476873
9.5737143 -19.147429 -9.0470772
10.204724 17.007874 -12.18988
9.7747278 15.20513 -14.578754
9.5031214 13.726731 -16.087675
9.3028345 12.403777 -17.200386
9.1516638 11.185366 -18.040222
9.0219326 10.024369 -18.760948
8.9054565 8.9054546 -19.408039
8.8327026 7.8512897 -19.812229
8.762558 6.8153229 -20.20192
8.6973572 5.7982373 -20.564148
8.6441202 4.8022861 -20.859905
8.6158361 3.8292589 -21.01704
8.5877104 2.8625698 -21.173294
8.5597677 1.9021721 -21.328527
8.5503683 0.95003986 -21.380751
8.5499897 -1.9073486e-06 -21.382851
8.5498381 -0.9499836 -21.383694
8.5611343 -1.9024734 -21.320938
8.5896206 -2.8632069 -21.162683
8.6182718 -3.8303452 -21.003511
8.6547098 -4.8081717 -20.801073
8.7110367 -5.8073559 -20.488146
8.7693491 -6.8206072 -20.164188
8.8417072 -7.8592949 -19.762197
8.9344921 -8.9344912 -19.246727
9.0335817 -10.037314 -18.696232
9.1702366 -11.208067 -17.93704
9.3139324 -12.418577 -17.138727
9.5370102 -13.775681 -15.899411
9.8239603 -15.281715 -14.305239
10.303794 -17.172991 -11.639498
11.17907 15.650696 -12.987452
10.786802 14.022845 -14.948784
10.522429 12.626913 -16.270653
10.318486 11.350334 -17.290363
10.152188 10.152187 -18.121859
10.035153 9.0316362 -18.707027
9.9288979 7.9431186 -19.238304
9.839859 6.8879018 -19.6835
9.766964 5.8601761 -20.047974
9.7165689 4.858283 -20.299953
9.6667194 3.8666859 -20.549198
9.634799 2.890439 -20.708801
9.6117496 1.922348 -20.824051
9.6002235 0.96002197 -20.88168
9.596159 -0 -20.902004
9.5957003 -0.95957088 -20.904293
9.6169195 -1.9233866 -20.798201
9.6429396 -2.8928852 -20.668098
9.6695948 -3.8678389 -20.534821
9.7186232 -4.8593121 -20.289682
9.7784195 -5.8670549 -19.990698
9.8389864 -6.8872895 -19.687862
9.9363775 -7.9491034 -19.200909
10.041854 -9.0376682 -18.673523
10.173465 -10.173464 -18.015471
10.346252 -11.380877 -17.151535
10.557222 -12.668669 -16.096682
10.821076 -14.0674 -14.777413
11.247127 -15.745977 -12.647167
12.933018 16.460203 -10.096346
12.208935 14.428739 -13.387643
11.826674 12.901825 -15.125188
11.558496 11.558496 -16.344173
11.364546 10.331404 -17.225769
11.204732 9.1675072 -17.9522
11.078153 8.0568371 -18.527555
10.964478 6.9773941 -19.044262
10.879864 5.9344702 -19.428867
10.822521 4.9193282 -19.689516
10.76578 3.9148273 -19.94743
10.712353 2.9215508 -20.190281
10.693101 1.9442005 -20.277794
10.678296 0.97075462 -20.345085
10.665331 -9.5367432e-07 -20.404018
10.678039 -0.97073269 -20.346258
10.702832 -1.9459696 -20.233561
10.729464 -2.926218 -20.112509
10.771152 -3.9167857 -19.923016
10.832224 -4.9237399 -19.645412
10.898956 -5.9448876 -19.342087
10.987278 -6.9919052 -18.94062
11.098992 -8.0719948 -18.432835
11.219646 -9.1797123 -17.884405
11.391021 -10.355474 -17.105427
11.582208 -11.58221 -16.236395
11.875433 -12.95502 -14.903557
12.283492 -14.516855 -13.048736
13.090454 -16.66058 -9.3807335
14.038128 15.20797 -10.3906
13.309381 13.309381 -13.42704
12.933759 11.855946 -14.992138
12.65613 10.546773 -16.148926
12.454501 9.3408756 -16.989044
12.275875 8.1839161 -17.73332
12.160567 7.0936642 -18.213766
12.06389 6.0319433 -18.61659
11.968737 4.9869738 -19.013058
11.900909 3.9669685 -19.295675
11.863364 2.9658403 -19.452114
11.827105 1.9711809 -19.603191
11.808011 0.98399925 -19.682751
11.800219 -1.9073486e-06 -19.715219
11.813176 -0.98443222 -19.661228
11.831634 -1.9719381 -19.584318
11.851787 -2.9629464 -19.500351
11.911995 -3.9706674 -19.249481
11.978054 -4.9908557 -18.974236
12.056169 -6.0280828 -18.648758
12.176633 -7.1030374 -18.146826
12.299528 -8.199687 -17.634766
12.474858 -9.356143 -16.904222
12.688563 -10.573805 -16.013783
12.982454 -11.900583 -14.789235
13.386936 -13.386937 -13.103895
14.246252 -15.433441 -9.5234108
15.218149 14.047522 -10.351451
14.493219 12.263492 -13.139645
14.076677 10.828211 -14.741735
13.804589 9.5570211 -15.788224
13.60496 8.3722801 -16.556028
13.439801 7.236814 -17.191254
13.301105 6.1389689 -17.724701
13.192475 5.0740275 -18.142506
13.116167 4.0357437 -18.435993
13.063093 3.0145578 -18.640131
13.016395 2.0025206 -18.819736
12.976386 0.99818325 -18.973618
12.987464 -9.5367432e-07 -18.931011
12.999652 -0.99997616 -18.884138
13.018016 -2.0027742 -18.813507
13.072726 -3.0167828 -18.603081
13.135895 -4.0418119 -18.360126
13.205676 -5.0791063 -18.091736
13.324828 -6.1499219 -17.633457
13.457699 -7.2464523 -17.122416
13.627161 -8.3859463 -16.470636
13.836548 -9.5791521 -15.665306
14.137229 -10.874795 -14.508842
14.539001 -12.302235 -12.96356
15.509016 -14.316016 -9.2327347
16.989073 13.348556 -8.2075396
15.786362 11.27597 -12.502933
15.361957 9.8755426 -14.018667
15.061289 8.6064501 -15.092481
14.820854 7.4104285 -15.951172
14.648829 6.2780685 -16.565552
14.51644 5.1844416 -17.038364
14.419852 4.1199579 -17.383322
14.335023 3.0717921 -17.686285
14.286115 2.0408702 -17.860958
14.271588 1.0193987 -17.91283
14.263005 -1.9073486e-06 -17.943491
14.260207 -1.0185862 -17.953487
14.295453 -2.0422082 -17.82761
14.352055 -3.0754414 -17.625456
14.409153 -4.1169024 -17.421534
14.526129 -5.187902 -17.003765
14.663226 -6.2842412 -16.514132
14.835788 -7.4178948 -15.897842
15.094946 -8.6256828 -14.972275
15.422374 -9.914382 -13.802888
15.891821 -11.351299 -12.126295
17.372732 10.423638 -10.973684
16.775013 8.9466734 -12.966082
16.439844 7.6719251 -14.083317
16.17874 6.4714942 -14.953669
15.989573 5.3298559 -15.584222
15.836041 4.2229443 -16.095989
15.754591 3.1509161 -16.367493
15.693795 2.092504 -16.570145
15.65004 1.0433335 -16.715996
15.607991 -0 -16.856157
15.648214 -1.0432143 -16.722086
15.697418 -2.0929894 -16.558064
15.755209 -3.1510425 -16.365437
15.87766 -4.2340455 -15.957269
16.015247 -5.3384166 -15.498638
16.20459 -6.4818387 -14.867498
16.458342 -7.6805573 -14.021662
16.856728 -8.9902554 -12.693704
17.550722 -10.530436 -10.380389
18.584085 8.1305351 -10.807533
18.046867 6.7675734 -12.486337
17.716413 5.536377 -13.519005
17.530102 4.3825235 -14.101226
17.383865 3.2594743 -14.55822
17.260445 2.1575556 -14.943904
17.197552 1.0748472 -15.140446
17.210657 -9.5367432e-07 -15.099491
17.228798 -1.0768003 -15.042809
17.279268 -2.1599097 -14.885082
17.401018 -3.2626934 -14.504618
17.545872 -4.3864675 -14.051944
17.781078 -5.5565853 -13.316929
18.067194 -6.7751961 -12.422818
18.690735 -8.1771975 -10.47425
19.839102 4.6680222 -10.532495
19.519453 3.4446077 -11.472641
19.313084 2.2721252 -12.079611
19.161634 1.1271534 -12.52505
19.130478 -1.9073486e-06 -12.616684
19.216757 -1.1303988 -12.362926
19.318129 -2.2727203 -12.064769
19.541693 -3.4485354 -11.407225
19.910217 -4.6847563 -10.323334
