# .PCD v0.7 - Point Cloud Data file format
VERSION 0.7
FIELDS x y z
SIZE 4 4 4
TYPE F F F
COUNT 1 1 1
WIDTH 1054
HEIGHT 1
VIEWPOINT 0 0 0 1 0 0 0
POINTS 1054
DATA ascii
-22.954809 -2.8610229e-06 -8.4754047
-21.911751 7.303916 -8.0168209
-20.722366 5.7562122 -11.320669
-20.378647 4.5285864 -12.275442
-20.123373 3.3538961 -12.984539
-19.958019 2.2175565 -13.443851
-19.915752 1.1064286 -13.56126
-19.876734 -0 -13.669649
-19.903709 -1.1057606 -13.594713
-20.016846 -2.2240958 -13.280447
-20.131905 -3.3553143 -12.960838
-20.39357 -4.5319057 -12.233992
-20.86673 -5.7963147 -10.919659
-19.932123 9.3798227 -10.258904
-19.176746 7.896307 -12.480604
-18.801888 6.6359606 -13.583124
-18.523386 5.4480515 -14.40225
-18.337994 4.3148193 -14.947523
-18.205757 3.2127767 -15.336451
-18.104725 2.1299696 -15.633608
-18.077745 1.0633984 -15.712959
-18.052811 4.7683716e-07 -15.786297
-18.067415 -1.062789 -15.743339
-18.139961 -2.1341128 -15.529969
-18.214121 -3.2142558 -15.311852
-18.360086 -4.3200197 -14.882544
-18.545424 -5.4545374 -14.337427
-18.836132 -6.6480446 -13.482409
-19.292721 -7.9440613 -12.139501
-20.086016 -9.4522419 -9.8062801
-18.985899 11.866186 -9.5518608
-18.048828 10.152465 -12.480209
-17.591429 8.7957153 -13.90958
-17.276197 7.5583358 -14.894683
-17.041658 6.3906207 -15.627614
-16.852692 5.2664661 -16.218134
-16.738253 4.1845617 -16.575756
-16.628792 3.1178975 -16.91782
-16.560446 2.0700531 -17.131403
-16.539116 1.0336952 -17.198061
-16.519588 -2.8610229e-06 -17.259079
-16.532372 -1.0332737 -17.219135
-16.581778 -2.0727239 -17.064743
-16.631802 -3.1184645 -16.908419
-16.731998 -4.1829996 -16.595303
-16.892775 -5.2789931 -16.092873
-17.057352 -6.3965058 -15.578572
-17.334764 -7.5839581 -14.711658
-17.623941 -8.8119717 -13.807979
-18.171438 -10.221436 -12.097051
-17.322924 12.703474 -11.139723
-16.634892 11.089927 -13.433154
-16.231287 9.7387714 -14.778506
-15.929949 8.4959698 -15.782967
-15.72626 7.3389215 -16.461929
-15.554132 6.221652 -17.035694
-15.410189 5.1367288 -17.515501
-15.32059 4.0854907 -17.814161
-15.241695 3.0483379 -18.077145
-15.191669 2.0255566 -18.243904
-15.168945 1.0112629 -18.319645
-15.146339 -2.8610229e-06 -18.395
-15.165706 -1.0110455 -18.330446
-15.208276 -2.027771 -18.188547
-15.252001 -3.0504003 -18.042793
-15.342795 -4.0914121 -17.740149
-15.453749 -5.1512508 -17.370302
-15.568929 -6.2275729 -16.986362
-15.756133 -7.3528614 -16.362352
-15.972167 -8.5184898 -15.642239
-16.287586 -9.7725506 -14.590845
-16.71837 -11.145578 -13.154896
-17.508709 -12.839721 -10.520436
-15.944404 13.666633 -11.938495
-15.38882 12.091215 -13.922725
-14.995372 10.710979 -15.327896
-14.737858 9.4743366 -16.247591
-14.505692 8.2889633 -17.076756
-14.355988 7.1779914 -17.611412
-14.220464 6.0944824 -18.095423
-14.113379 5.040494 -18.477871
-14.037222 4.0106349 -18.749861
-13.97015 2.9936018 -18.989399
-13.934979 1.9907122 -19.115009
-13.914367 0.99388027 -19.188631
-13.896685 -1.9073486e-06 -19.25178
-13.915225 -0.99394608 -19.185562
-13.944295 -1.9920425 -19.081741
-13.974266 -2.9944868 -18.974699
-14.044311 -4.0126595 -18.724545
-14.125546 -5.0448384 -18.434414
-14.214498 -6.0919285 -18.116735
-14.381053 -7.1905274 -17.521896
-14.555646 -8.3175125 -16.898346
-14.763114 -9.490572 -16.157391
-15.057715 -10.755511 -15.105244
-15.422321 -12.117537 -13.803079
-16.108406 -13.807203 -11.352774
-14.777749 14.77775 -12.045301
-14.205873 13.113111 -14.244824
-13.847905 11.717457 -15.621623
-13.600228 10.461712 -16.574228
-13.392134 9.2714748 -17.374588
-13.222913 8.1371746 -18.02544
-13.09564 7.0514989 -18.514948
-12.975743 5.988801 -18.976093
-12.896348 4.9601331 -19.281456
-12.825895 3.9464307 -19.552431
-12.765355 2.9458504 -19.78528
-12.74323 1.9604959 -19.870369
-12.721222 0.97855663 -19.955021
-12.700754 -1.9073486e-06 -20.033741
-12.725129 -0.97885704 -19.939991
-12.749599 -1.9614763 -19.845875
-12.775606 -2.9482174 -19.74585
-12.844244 -3.9520726 -19.481857
-12.915338 -4.9674387 -19.20842
-12.991174 -5.9959264 -18.916739
-13.114154 -7.0614672 -18.443745
-13.243003 -8.1495399 -17.948168
-13.400756 -9.2774458 -17.341429
-13.629869 -10.484515 -16.460222
-13.890158 -11.753212 -15.459116
-14.310391 -13.209593 -13.842827
-14.969045 -14.969048 -11.309547
-13.777453 16.073696 -11.476736
-13.136933 14.231679 -14.145575
-12.773338 12.773337 -15.660555
-12.506409 11.464208 -16.772758
-12.315492 10.26291 -17.568245
-12.144353 9.108263 -18.281326
-12.012855 8.0085697 -18.829235
-11.907991 6.9463248 -19.266167
-11.809312 5.9046535 -19.677334
-11.745309 4.8938785 -19.944008
-11.688609 3.896203 -20.180256
-11.641922 2.9104767 -20.37479
-11.618665 1.9364424 -20.471693
-11.60076 0.96672916 -20.546293
-11.590803 -0 -20.587784
-11.604979 -0.96708107 -20.528721
-11.621357 -1.9368954 -20.460474
-11.642904 -2.9107275 -20.370695
-11.694378 -3.8981252 -20.156219
-11.747489 -4.8947883 -19.934929
-11.813755 -5.9068809 -19.658819
-11.92336 -6.9552922 -19.202133
-12.035991 -8.0239983 -18.732832
-12.170761 -9.1280718 -18.171293
-12.341586 -10.284655 -17.459524
-12.547123 -11.501532 -16.603115
-12.829223 -12.829222 -15.427702
-13.219584 -14.321218 -13.801193
-13.913509 -16.232428 -10.909845
-12.845823 17.517033 -10.492691
-12.132945 15.441933 -13.733038
-11.752468 13.889279 -15.462488
-11.475469 12.51869 -16.721577
-11.275214 11.275212 -17.631826
-11.104388 10.094896 -18.408304
-10.973893 8.9786367 -19.001465
-10.873915 7.9083018 -19.455912
-10.775874 6.8573747 -19.901554
-10.697528 5.8350143 -20.257671
-10.640519 4.8365974 -20.5168
-10.5907 3.8511629 -20.743246
-10.556718 2.8791056 -20.897713
-10.534571 1.9153776 -20.998379
-10.512829 0.95571136 -21.097212
-10.510831 -0 -21.106291
-10.523047 -0.95664024 -21.050762
-10.535982 -1.9156342 -20.99197
-10.561475 -2.8804026 -20.876097
-10.606058 -3.8567495 -20.673443
-10.65307 -4.8423047 -20.459747
-10.710831 -5.8422737 -20.197206
-10.793352 -6.8684978 -19.822105
-10.878928 -7.9119482 -19.433126
-10.988745 -8.9907894 -18.93396
-11.135581 -10.123259 -18.266521
-11.287617 -11.287618 -17.575447
-11.533981 -12.582523 -16.455608
-11.795937 -13.940654 -15.264903
-12.233362 -15.569734 -13.276608
-13.16518 -17.95252 -9.041069
-11.184508 16.776762 -12.960255
-10.778493 15.089889 -14.990335
-10.480657 13.624853 -16.479511
-10.272705 12.327244 -17.519274
-10.10501 11.115511 -18.357748
-9.9700851 9.9700842 -19.03237
-9.863019 8.8767166 -19.567699
-9.7767563 7.8214045 -19.999014
-9.6931858 6.7852297 -20.41687
-9.633069 5.7798405 -20.717453
-9.5804186 4.790206 -20.980707
-9.5318108 3.8127232 -21.223738
-9.5060215 2.8518057 -21.352688
-9.4876661 1.8975325 -21.444469
-9.469408 0.94694138 -21.535755
-9.4688511 -0 -21.53854
-9.475709 -0.94757175 -21.50425
-9.4826059 -1.8965235 -21.469769
-9.5043373 -2.8513002 -21.361111
-9.5420418 -3.8168154 -21.172585
-9.5820723 -4.7910337 -20.972433
-9.6381168 -5.7828708 -20.692211
-9.7103243 -6.7972264 -20.331175
-9.785615 -7.8284941 -19.95472
-9.8801575 -8.8921432 -19.48201
-9.996439 -9.9964399 -18.9006
-10.130106 -11.143119 -18.232267
-10.310223 -12.372268 -17.331682
-10.518645 -13.67424 -16.28957
-10.83419 -15.167869 -14.711842
-11.295127 -16.942688 -12.407166
-9.8154707 16.359116 -14.352403
-9.5251226 14.816855 -15.965449
-9.2956982 13.42712 -17.240026
-9.1291647 12.172218 -18.165218
-8.9914894 10.989597 -18.93008
-8.8779411 9.864378 -19.560902
-8.786108 8.786108 -20.071083
-8.7091255 7.7414432 -20.498768
-8.6365681 6.7173305 -20.901861
-8.5933666 5.7289114 -21.141869
-8.5508232 4.750453 -21.378227
-8.5124235 3.7832985 -21.591557
-8.4904652 2.8301544 -21.713547
-8.4702044 1.882267 -21.826105
-8.4551458 0.93945789 -21.90976
-8.4589987 -2.8610229e-06 -21.888363
-8.4636202 -0.94040394 -21.862682
-8.4697094 -1.8821602 -21.828857
-8.4934025 -2.8311338 -21.697224
-8.5222673 -3.7876759 -21.536871
-8.5521603 -4.7512026 -21.370794
-8.597805 -5.7318678 -21.11721
-8.6537018 -6.7306561 -20.806675
-8.7153358 -7.7469664 -20.464266
-8.802022 -8.802022 -19.982676
-8.8988075 -9.8875637 -19.444979
-9.0046825 -11.005726 -18.856777
-9.1635637 -12.218085 -17.974113
-9.3287516 -13.474865 -17.056396
-9.5596094 -14.870505 -15.773856
-9.8809338 -16.468224 -13.988722
-10.475968 -18.623947 -10.68297
-8.9213457 17.842691 -13.124386
-8.5756626 16.079363 -15.284909
-8.3379297 14.591375 -16.770733
-8.1669645 13.271315 -17.83927
-8.0290737 12.043608 -18.701084
-7.9145985 10.882572 -19.416557
-7.8245659 9.7807064 -19.979259
-7.7409558 8.7085743 -20.501825
-7.6790791 7.6790781 -20.888554
-7.6280923 6.6745796 -21.207218
-7.583693 5.687768 -21.484711
-7.5398088 4.7123795 -21.758995
-7.5109496 3.755475 -21.939362
-7.4916949 2.8093853 -22.059702
-7.4727125 1.8681765 -22.178345
-7.4608889 0.93261051 -22.252241
-7.4642196 -0 -22.231422
-7.4675965 -0.93344975 -22.210314
-7.4738836 -1.8684702 -22.171021
-7.4975414 -2.8115797 -22.023161
-7.5213504 -3.7606764 -21.874355
-7.5474343 -4.7171469 -21.711334
-7.5914974 -5.6936255 -21.435934
-7.6392732 -6.6843638 -21.137337
-7.6888947 -7.6888962 -20.827204
-7.7574687 -8.7271528 -20.398617
-7.8423944 -9.8029938 -19.867832
-7.9339886 -10.909236 -19.295368
-8.0509176 -12.076378 -18.564562
-8.1908426 -13.310119 -17.690035
-8.3836241 -14.671344 -16.485142
-8.5996666 -16.124376 -15.134882
-8.9885597 -17.977119 -12.704298
-7.64781 17.480707 -14.255584
-7.394835 15.846073 -16.06255
-7.2163 14.432598 -17.337795
-7.0770402 13.143075 -18.332512
-6.9656153 11.941055 -19.128399
-6.8725829 10.799774 -19.792917
-6.7937012 9.7052879 -20.356359
-6.7303152 8.6532593 -20.809118
-6.6731176 7.6264172 -21.21767
-6.6323719 6.6323714 -21.508713
-6.5956521 5.6534157 -21.771
-6.5599861 4.6857042 -22.025755
-6.5368581 3.7353477 -22.190948
-6.5199261 2.7942524 -22.311897
-6.5041895 1.8583403 -22.424301
-6.4978294 0.9282608 -22.46973
-6.4973798 -1.9073486e-06 -22.472942
-6.4977174 -0.92824745 -22.470531
-6.5036068 -1.8581753 -22.428459
-6.5203032 -2.7944164 -22.3092
-6.5374279 -3.7356749 -22.186886
-6.5592222 -4.6851606 -22.031208
-6.5988975 -5.6561971 -21.747814
-6.6390562 -6.6390557 -21.460966
-6.6829963 -7.637711 -21.14711
-6.7441573 -8.6710587 -20.710247
-6.8069005 -9.724144 -20.262081
-6.889102 -10.825735 -19.674925
-6.9898434 -11.982588 -18.955345
-7.0943789 -13.175278 -18.208658
-7.2482715 -14.496544 -17.109423
-7.4324551 -15.926689 -15.793828
-7.699091 -17.597923 -13.88929
-8.2395849 -20.01042 -10.028622
-6.7662477 19.171034 -12.497403
-6.466619 17.244318 -14.994304
-6.2735209 15.683799 -16.603458
-6.1322255 14.308526 -17.780914
-6.0216365 13.046879 -18.702488
-5.925457 11.850912 -19.50399
-5.8544044 10.733074 -20.096092
-5.7881742 9.6469564 -20.64801
-5.7342873 8.6014309 -21.097069
-5.6896472 7.5861945 -21.46907
-5.6536145 6.5958829 -21.769341
-5.6230416 5.6230412 -22.024113
-5.5951638 4.6626358 -22.256432
-5.5774026 3.7182684 -22.404442
-5.5597539 2.7798748 -22.551512
-5.5457983 1.8485975 -22.667814
-5.5442376 0.92403793 -22.680817
-5.5427895 -9.5367432e-07 -22.692883
-5.5429645 -0.92382431 -22.691425
-5.5516973 -1.8505678 -22.618652
-5.5647206 -2.782361 -22.51012
-5.5792561 -3.7195044 -22.388996
-5.5992036 -4.6660032 -22.222767
-5.6282372 -5.6282358 -21.98082
-5.6583858 -6.6014524 -21.72958
-5.6937075 -7.5916114 -21.435234
-5.7461982 -8.6192989 -20.997812
-5.7996488 -9.6660805 -20.552391
-5.8625808 -10.748063 -20.027958
-5.9468994 -11.893798 -19.325302
-6.037508 -13.08127 -18.570225
-6.1583152 -14.369404 -17.563499
-6.2954054 -15.738513 -16.421082
-6.5102677 -17.360716 -14.630568
-6.8542728 -19.420441 -11.763855
-5.5533462 18.881372 -13.349338
-5.3304753 17.057522 -15.578042
-5.1861138 15.558341 -17.021656
-5.0762858 14.2136 -18.119936
-4.9861703 12.964042 -19.021095
-4.9143701 11.794489 -19.739094
-4.8521757 10.674784 -20.361044
-4.8012147 9.6024265 -20.870653
-4.7578731 8.5641708 -21.304062
-4.7240014 7.5584006 -21.642784
-4.6937547 6.5712557 -21.94525
-4.6638794 5.596653 -22.243999
-4.6423378 4.6423368 -22.459415
-4.6281443 3.7025137 -22.601353
-4.6140509 2.7684269 -22.742287
-4.6030827 1.8412342 -22.851971
-4.6000428 0.92000771 -22.882366
-4.5980844 -0 -22.901955
-4.5972695 -0.91945457 -22.910099
-4.607564 -1.8430271 -22.807159
-4.6179967 -2.7707996 -22.702827
-4.6293426 -3.703476 -22.589367
-4.6488562 -4.6488571 -22.394236
-4.671896 -5.606276 -22.163836
-4.6967959 -6.5755172 -21.914833
-4.7281375 -7.5650201 -21.601418
-4.7662868 -8.5793171 -21.219929
-4.8104143 -9.6208315 -20.778648
-4.8654237 -10.703932 -20.228558
-4.9262404 -11.822979 -19.620392
-4.9967761 -12.991619 -18.915033
-5.097012 -14.271634 -17.912674
-5.2084904 -15.625473 -16.79789
-5.3621645 -17.158926 -15.26115
-5.6020274 -19.046894 -12.862519
-4.3956947 18.681704 -13.936609
-4.2355051 16.942019 -15.938982
-4.1238642 15.464488 -17.334494
-4.0402279 14.140797 -18.37995
-3.9691715 12.899805 -19.268154
-3.9138889 11.741665 -19.959187
-3.8682332 10.63764 -20.529881
-3.8285882 9.5714712 -21.025442
-3.7903285 8.5282393 -21.503693
-3.765923 7.5318437 -21.808762
-3.7428415 6.5499716 -22.097279
-3.7200305 5.5800438 -22.382412
-3.7046573 4.6308203 -22.574583
-3.6919501 3.6919479 -22.733421
-3.6807392 2.7605543 -22.873556
-3.6745822 1.8372889 -22.95052
-3.6714175 0.91785431 -22.990078
-3.6690004 -9.5367432e-07 -23.020294
-3.6690421 -0.91726208 -23.019772
-3.6751382 -1.8375702 -22.943565
-3.6817183 -2.7612877 -22.86132
-3.6883218 -3.6883211 -22.778776
-3.7054677 -4.6318331 -22.564449
-3.7237647 -5.5856481 -22.335741
-3.7427435 -6.5498023 -22.098501
-3.7699044 -7.5398073 -21.758993
-3.7991655 -8.5481215 -21.393227
-3.8304112 -9.5760298 -21.002655
-3.8765972 -10.660645 -20.425331
-3.9255497 -11.776649 -19.813427
-3.9821863 -12.942109 -19.105465
-4.0509205 -14.178222 -18.246296
-4.1420298 -15.532612 -17.107426
-4.2573428 -17.029371 -15.66601
-4.4327788 -18.83931 -13.473061
-3.4752095 20.851254 -10.962642
-3.2714136 18.53801 -14.359238
-3.1597037 16.851751 -16.221066
-3.0808477 15.404237 -17.535337
-3.0173767 14.081091 -18.593182
-2.9683759 12.862962 -19.409863
-2.9271045 11.708418 -20.097717
-2.8949029 10.614643 -20.634411
-2.8648551 9.5495167 -21.13521
-2.8380251 8.5140762 -21.582378
-2.8173048 7.5128098 -21.927719
-2.7989364 6.5308495 -22.23386
-2.7835717 5.5671415 -22.489935
-2.772644 4.6210718 -22.672058
-2.7618101 3.6824112 -22.852631
-2.7528722 2.7528725 -23.001595
-2.7500885 1.8333912 -23.047989
-2.7473025 0.91576481 -23.094419
-2.7453263 -0 -23.127361
-2.7473104 -0.91577435 -23.09429
-2.7512796 -1.8341856 -23.028133
-2.7561965 -2.7561979 -22.94619
-2.7629402 -3.6839218 -22.833794
-2.7742536 -4.6237574 -22.645237
-2.7863753 -5.572751 -22.443205
-2.7991393 -6.5313258 -22.230476
-2.8199956 -7.519989 -21.88287
-2.8422945 -8.5268841 -21.511225
-2.8661819 -9.5539389 -21.113098
-2.8970659 -10.622578 -20.598364
-2.9331694 -11.732677 -19.996639
-2.9777601 -12.903628 -19.253462
-3.0289159 -14.134941 -18.400864
-3.0905025 -15.452512 -17.374422
-3.1750932 -16.933832 -15.964579
-3.293678 -18.664173 -13.988159
-3.5485516 -21.291309 -9.7402725
-2.2942452 20.648205 -11.526668
-2.1720004 18.462 -14.582788
-2.1001596 16.801275 -16.378803
-2.0479841 15.359879 -17.683193
-2.0086153 14.060306 -18.667414
-1.9757344 12.842272 -19.489439
-1.9470114 11.682065 -20.207516
-1.9259104 10.592505 -20.735037
-1.9055383 9.5276909 -21.244337
-1.8897448 8.503849 -21.639179
-1.8759698 7.5038795 -21.983551
-1.8625289 6.5188513 -22.319576
-1.8526379 5.5579128 -22.566849
-1.8455199 4.6138 -22.744801
-1.8384562 3.6769123 -22.921394
-1.8328701 2.7493029 -23.061043
-1.8302071 1.8302069 -23.127621
-1.8276607 0.91383171 -23.191282
-1.8259807 -9.5367432e-07 -23.23328
-1.8285744 -0.91428852 -23.168438
-1.8311703 -1.831171 -23.103539
-1.8340819 -2.7511234 -23.03075
-1.8398646 -3.6797314 -22.886181
-1.8471403 -4.6178503 -22.704285
-1.8550406 -5.5651231 -22.506783
-1.8648059 -6.5268221 -22.262646
-1.8771352 -7.5085421 -21.954418
-1.8914773 -8.5116482 -21.59586
-1.9087536 -9.5437679 -21.163956
-1.929299 -10.611145 -20.650322
-1.9504037 -11.702424 -20.122702
-1.9798182 -12.868819 -19.387342
-2.0140457 -14.098318 -18.531654
-2.0571215 -15.428411 -17.454756
-2.1061039 -16.848833 -16.230194
-2.1871898 -18.591118 -14.20305
-2.322365 -20.901289 -10.823666
-1.1449882 20.609783 -11.633389
-1.083919 18.42662 -14.686846
-1.0493951 16.790318 -16.413046
-1.0225117 15.337674 -17.757208
-1.003866 14.054123 -18.689499
-0.98702484 12.831324 -19.531553
-0.97351158 11.682137 -20.207218
-0.96216637 10.58383 -20.774479
-0.95130748 9.513073 -21.317423
-0.94401872 8.4961681 -21.681862
-0.93729919 7.4983931 -22.017836
-0.93077153 6.5153999 -22.344219
-0.92623097 5.5573845 -22.571251
-0.92218345 4.6109161 -22.773621
-0.91865605 3.6746225 -22.949993
-0.91656297 2.7496872 -23.054646
-0.91502029 1.830039 -23.131783
-0.91370314 0.91370201 -23.197639
-0.91308618 -9.5367432e-07 -23.228485
-0.91384065 -0.9138422 -23.190765
-0.91473162 -1.8294649 -23.146215
-0.91562164 -2.7468662 -23.101715
-0.91888696 -3.6755466 -22.938452
-0.92251652 -4.6125822 -22.756969
-0.92625231 -5.5575142 -22.570183
-0.93176323 -6.5223441 -22.294636
-0.93791646 -7.5033345 -21.986971
-0.94415438 -8.4973888 -21.675076
-0.9534353 -9.5343552 -21.211033
-0.96388674 -10.602757 -20.688457
-0.97488874 -11.698665 -20.138363
-0.98938566 -12.862013 -19.413515
-1.0044173 -14.061846 -18.661928
-1.0271918 -15.407879 -17.523205
-1.053152 -16.85043 -16.225199
-1.0903233 -18.535498 -14.366628
-1.161996 -20.915928 -10.782997
0 20.637684 -11.555888
0 18.426003 -14.688671
0 16.802317 -16.375549
0 15.34948 -17.717865
0 14.048774 -18.708595
0 12.824678 -19.557119
0 11.688326 -20.181437
0 10.585192 -20.768291
0 9.5250111 -21.257734
0 8.4990845 -21.665657
0 7.4936361 -22.047573
0 6.5168695 -22.333721
0 5.5586338 -22.56085
0 4.6097021 -22.785774
0 3.673563 -22.96323
0 2.7500668 -23.048378
0 1.8299818 -23.133217
0 0.91362095 -23.201786
0 -0 -23.197765
0 -0.91424942 -23.170385
0 -1.8302822 -23.125801
0 -2.750042 -23.048771
0 -3.6783819 -22.903004
0 -4.6139431 -22.743347
0 -5.5566669 -22.577246
0 -6.5230603 -22.289509
0 -7.50563 -21.972614
0 -8.5024319 -21.647081
0 -9.5362453 -21.201569
0 -10.59593 -20.719475
0 -11.702458 -20.122553
0 -12.868026 -19.390388
0 -14.07986 -18.597586
0 -15.397508 -17.557772
0 -16.858431 -16.200201
0 -18.522381 -14.405202
0 -20.931952 -10.738491
1.1554129 20.79743 -11.11215
1.0886195 18.506527 -14.451826
1.0512289 16.81966 -16.321352
1.0261176 15.391761 -17.57692
1.005434 14.076077 -18.611094
0.9882524 12.847281 -19.470175
0.97485626 11.698273 -20.139984
0.96241379 10.586551 -20.762106
0.9537009 9.5370064 -21.197754
0.94560254 8.5104198 -21.602673
0.9376542 7.5012341 -22.000088
0.93187112 6.523098 -22.28924
0.92735726 5.5641432 -22.514931
0.92288697 4.6144342 -22.738449
0.91949594 3.6779814 -22.907997
0.91733634 2.7520084 -23.01598
0.91518676 1.8303719 -23.123455
0.91380435 0.91380405 -23.192577
0.91431838 -9.5367432e-07 -23.166882
0.91483295 -0.91483307 -23.141148
0.91554874 -1.8310976 -23.105362
0.9178046 -2.7534122 -22.992567
0.92059273 -3.6823711 -22.853157
0.92371339 -4.6185684 -22.697128
0.9277609 -5.5665679 -22.494747
0.93297064 -6.5307941 -22.234264
0.93895084 -7.5116072 -21.935249
0.94627255 -8.5164547 -21.569168
0.95521241 -9.552124 -21.122173
0.96443272 -10.60876 -20.661161
0.97613358 -11.713603 -20.076118
0.99067086 -12.878724 -19.349253
1.0079027 -14.110639 -18.487658
1.0289422 -15.434134 -17.435684
1.0558747 -16.893995 -16.089062
1.0954002 -18.621803 -14.112786
1.1679844 -21.02372 -10.483581
2.3318305 20.986473 -10.587037
2.1907706 18.621552 -14.113527
2.111299 16.890388 -16.100319
2.0584044 15.438032 -17.422686
2.0147834 14.103482 -18.513214
1.9831853 12.890702 -19.303164
1.9549354 11.729612 -20.009407
1.9303694 10.61703 -20.623562
1.910629 9.5531425 -21.117071
1.8944055 8.5248241 -21.522655
1.8796237 7.5184922 -21.892204
1.86814 6.5384884 -22.179295
1.8576694 5.5730057 -22.441063
1.8487002 4.6217489 -22.665291
1.8434215 3.686841 -22.79726
1.838598 2.7578945 -22.917847
1.8342857 1.8342867 -23.02565
1.8320303 0.91601372 -23.082039
1.8320094 -2.8610229e-06 -23.082561
1.8321972 -0.91609859 -23.077866
1.8327868 -1.8327875 -23.063126
1.8378578 -2.7567892 -22.936354
1.843453 -3.6869049 -22.796469
1.8492792 -4.6231995 -22.650818
1.8588282 -5.5764837 -22.412092
1.8692849 -6.5424962 -22.150675
1.8798598 -7.5194387 -21.886303
1.8959346 -8.5317068 -21.484434
1.9143285 -9.5716438 -21.024586
1.9331697 -10.632434 -20.553553
1.9588264 -11.752958 -19.912138
1.9851733 -12.903628 -19.253462
2.020983 -14.146881 -18.358223
2.0638561 -15.478923 -17.286392
2.1212354 -16.969881 -15.851916
2.2026234 -18.722298 -13.817211
2.3791323 -21.412191 -9.4044905
3.5954511 21.572702 -8.9586143
3.3147225 18.783428 -13.637421
3.1882415 17.00395 -15.745442
3.1035964 15.517982 -17.156193
3.0357256 14.166718 -18.287369
2.9848669 12.934423 -19.135012
2.9402797 11.761116 -19.878134
2.9068699 10.658522 -20.434963
2.8767459 9.5891495 -20.937031
2.8472397 8.5417175 -21.428801
2.8268983 7.5383945 -21.767822
2.8095818 6.5556908 -22.056435
2.7924843 5.5849657 -22.341396
2.7797329 4.6328869 -22.553913
2.7718003 3.6957331 -22.686123
2.7639132 2.7639141 -22.817577
2.7573142 1.8382082 -22.927563
2.756228 0.91874123 -22.945665
2.7554884 -0 -22.957989
2.7557795 -0.91859436 -22.953138
2.759032 -1.8393555 -22.898933
2.7654965 -2.7654972 -22.791187
2.7727239 -3.6969671 -22.670734
2.7810781 -4.6351299 -22.531494
2.7958322 -5.5916638 -22.285599
2.812176 -6.5617461 -22.013197
2.8294585 -7.5452218 -21.725161
2.8531296 -8.5593891 -21.330635
2.8777149 -9.5923853 -20.920879
2.9094017 -10.667805 -20.392773
2.9489284 -11.795712 -19.733992
2.9903214 -12.958059 -19.044102
3.0462136 -14.215664 -18.11257
3.1085527 -15.542764 -17.073586
3.2020826 -17.077774 -15.514751
3.3358989 -18.903427 -13.284483
4.4634571 18.96969 -13.089584
4.287931 17.151726 -15.283656
4.1607323 15.602746 -16.873646
4.0751572 14.263048 -17.943331
4.002243 13.007289 -18.854759
3.9389305 11.816791 -19.646166
3.8919036 10.702733 -20.234003
3.8516018 9.6290054 -20.737774
3.8134587 8.5802794 -21.214563
3.7839553 7.5679088 -21.583353
3.7604225 6.5807409 -21.877516
3.7374084 5.6061125 -22.165194
3.7212026 4.6514997 -22.367764
3.7083178 3.7083158 -22.528824
3.6955431 2.7716541 -22.688511
3.6873074 1.8436537 -22.791454
3.685956 0.92148685 -22.808346
3.6845951 -1.9073486e-06 -22.825357
3.6844056 -0.92109966 -22.827728
3.6919501 -1.8459759 -22.733421
3.6998446 -2.7748861 -22.634739
3.7093759 -3.7093754 -22.515604
3.7238507 -4.6548119 -22.334663
3.7414055 -5.6121097 -22.115227
3.76195 -6.5834136 -21.858419
3.7888224 -7.5776448 -21.522514
3.820657 -8.5964775 -21.124584
3.8539195 -9.6348 -20.708801
3.8972409 -10.717415 -20.167286
3.9476516 -11.842957 -19.537151
4.0096607 -13.031397 -18.762041
4.0863857 -14.302352 -17.802975
4.1800652 -15.675244 -16.631977
4.3038154 -17.215258 -15.085109
4.4998569 -19.124393 -12.634583
5.7004213 19.381432 -11.878583
5.4233947 17.35486 -14.64885
5.251976 15.755927 -16.363035
5.1319132 14.369356 -17.563663
5.0312414 13.081227 -18.570381
4.9584522 11.900284 -19.298273
4.8945336 10.767973 -19.93746
4.8350301 9.6700573 -20.532495
4.7922916 8.6261253 -20.959877
4.7550192 7.6080284 -21.332605
4.7191939 6.6068726 -21.690857
4.6932755 5.6319294 -21.950041
4.6741214 4.6741219 -22.141581
4.6564026 3.7251225 -22.318768
4.6402764 2.7841654 -22.480034
4.6324477 1.8529768 -22.558315
4.6279712 0.92559338 -22.603081
4.6239152 -9.5367432e-07 -22.643642
4.6239152 -0.92478466 -22.643646
4.6317811 -1.8527107 -22.564981
4.6415343 -2.7849216 -22.467453
4.652741 -3.7221956 -22.355391
4.6746645 -4.6746645 -22.136147
4.6968102 -5.6361737 -21.914698
4.7197332 -6.6076269 -21.685461
4.7578311 -7.6125317 -21.304485
4.7992954 -8.638732 -20.889843
4.8439083 -9.6878166 -20.443714
4.9027209 -10.785986 -19.855587
4.9638362 -11.913209 -19.244429
5.0446639 -13.116126 -18.436153
5.1412101 -14.395389 -17.470697
5.2724023 -15.817208 -16.158772
5.4510074 -17.443226 -14.37272
5.7492409 -19.547417 -11.390388
7.0614686 20.007492 -10.03723
6.609272 17.624722 -13.80553
6.375598 15.938994 -15.752811
6.2163444 14.504806 -17.079922
6.0886998 13.192183 -18.143627
5.9930983 11.986197 -18.940311
5.9152913 10.8447 -19.588699
5.8405919 9.7343216 -20.211193
5.7856598 8.6784897 -20.668964
5.7399297 7.6532388 -21.050053
5.6949162 6.6440692 -21.425159
5.6620364 5.662034 -21.699162
5.636353 4.6969614 -21.913185
5.6133318 3.7422209 -22.10503
5.597548 2.7987719 -22.236563
5.5894141 1.8631344 -22.304348
5.5822558 0.93037415 -22.363998
5.577322 -9.5367432e-07 -22.405117
5.5824175 -0.93040657 -22.362652
5.5906601 -1.863555 -22.293962
5.6002426 -2.8001232 -22.214104
5.6157808 -3.7438536 -22.084621
5.6409636 -4.7008038 -21.874767
5.6690345 -5.6690373 -21.640844
5.7026191 -6.6530571 -21.36097
5.7452235 -7.6602988 -21.005932
5.788487 -8.6827307 -20.645409
5.8504314 -9.7507172 -20.129206
5.9242206 -10.861073 -19.514292
6.0052881 -12.010576 -18.838734
6.109777 -13.237848 -17.967991
6.2315311 -14.540242 -16.953371
6.4028697 -16.007175 -15.525547
6.6503129 -17.734169 -13.463518
7.27316 -20.607286 -8.2731285
7.8830166 18.018322 -12.575534
7.5588684 16.197577 -14.890877
7.3400931 14.680182 -16.453562
7.1762333 13.327291 -17.623987
7.0519624 12.089077 -18.511639
6.9512577 10.923407 -19.230951
6.8722262 9.8174648 -19.795464
6.8032827 8.747076 -20.287922
6.7411904 7.704215 -20.731434
6.6922674 6.6922641 -21.080887
6.6543727 5.7037468 -21.351566
6.6211433 4.7293863 -21.588915
6.5889578 3.7651186 -21.81881
6.5703559 2.8158646 -21.951683
6.5569119 1.8734007 -22.047712
6.5473456 0.93533325 -22.116039
6.5454435 -0 -22.129627
6.5530972 -0.93615723 -22.074959
6.5608459 -1.874527 -22.019611
6.5721574 -2.8166389 -21.938812
6.5972161 -3.7698412 -21.759823
6.6225648 -4.7304029 -21.578762
6.6532521 -5.7027888 -21.359566
6.7004881 -6.7004881 -21.022167
6.7523437 -7.7169647 -20.651766
6.806736 -8.7515192 -20.263254
6.883019 -9.8328838 -19.718374
6.9615259 -10.939543 -19.157612
7.0725517 -12.124377 -18.364567
7.2013297 -13.373897 -17.444731
7.3677964 -14.735592 -16.255682
7.5806413 -16.244234 -14.735355
7.9474521 -18.165604 -12.115282
9.4030151 18.806028 -10.113953
8.8176146 16.533026 -13.772706
8.5124617 14.896806 -15.679913
8.3189631 13.518314 -16.889275
8.1488695 12.223306 -17.95236
8.0281229 11.038668 -18.707027
7.9270506 9.9088116 -19.33873
7.8453336 8.8259983 -19.849464
7.7652836 7.7652841 -20.349773
7.7077231 6.7442555 -20.709526
7.6637411 5.7478056 -20.984413
7.6220856 4.7638035 -21.244762
7.59058 3.79529 -21.441671
7.5695353 2.8385754 -21.5732
7.5528364 1.8882084 -21.677567
7.5371156 0.94213772 -21.775824
7.5363216 -9.5367432e-07 -21.780788
7.5415754 -0.94269848 -21.747952
7.5468369 -1.8867073 -21.715069
7.5641537 -2.8365593 -21.60684
7.5948796 -3.7974405 -21.414799
7.6258335 -4.7661457 -21.22134
7.6636043 -5.747704 -20.985271
7.7177048 -6.7529907 -20.647141
7.7786565 -7.7786565 -20.266191
7.8541884 -8.8359642 -19.794117
7.9445157 -9.9306479 -19.229574
8.0442257 -11.060812 -18.606379
8.1775999 -12.2664 -17.772795
8.3281393 -13.533225 -16.831926
8.5538378 -14.969217 -15.421309
8.8681536 -16.627789 -13.456839
9.5893688 -19.178738 -8.9492378
10.218117 17.030195 -12.115481
9.7854605 15.221828 -14.519128
9.5152349 13.744229 -16.02038
9.3029232 12.403895 -17.199888
9.1479635 11.180843 -18.060776
9.0255594 10.028399 -18.740799
8.9144182 8.9144192 -19.358248
8.8300629 7.8489447 -19.826889
8.7611532 6.8142304 -20.209724
8.7016945 5.8011298 -20.540051
8.6430111 4.8016701 -20.866066
8.6113281 3.8272572 -21.042088
8.5872517 2.8624153 -21.17584
8.564805 1.9032898 -21.300547
8.5544596 0.95049572 -21.358023
8.5548134 -9.5367432e-07 -21.356058
8.5585289 -0.95094872 -21.335415
8.5652609 -1.9033937 -21.298012
8.5900278 -2.8633442 -21.160419
8.6199646 -3.8310966 -20.994106
8.6554089 -4.8085608 -20.797192
8.7104607 -5.8069735 -20.491346
8.7687397 -6.8201327 -20.16758
8.8311405 -7.8499031 -19.820906
8.9280481 -8.928051 -19.282528
9.034483 -10.038317 -18.691219
9.1700621 -11.207853 -17.938009
9.3303146 -12.44042 -17.047716
9.5407476 -13.781078 -15.878642
9.8167019 -15.270425 -14.345564
10.29526 -17.15877 -11.686905
11.187696 15.662776 -12.944311
10.792264 14.029942 -14.921478
10.516515 12.619816 -16.300224
10.322823 11.355104 -17.268682
10.166298 10.166296 -18.051308
10.027118 9.0244045 -18.747208
9.9237242 7.9389768 -19.264175
9.8443737 6.8910627 -19.660925
9.7715015 5.8629036 -20.025288
9.7155428 4.8577709 -20.305082
9.6729956 3.8691978 -20.517815
9.6379728 2.8913918 -20.692932
9.6032305 1.9206457 -20.866642
9.5949564 0.95949268 -20.908012
9.5930119 -2.8610229e-06 -20.917736
9.593441 -0.95934391 -20.915592
9.6127825 -1.9225588 -20.818882
9.640831 -2.892251 -20.678642
9.6690722 -3.86763 -20.537436
9.7149267 -4.8574624 -20.308163
9.7836514 -5.8701901 -19.964539
9.8533564 -6.8973484 -19.616016
9.9449444 -7.9559574 -19.158072
10.050887 -9.0457993 -18.628366
10.173529 -10.17353 -18.01515
10.338308 -11.372139 -17.191254
10.539556 -12.647467 -16.18502
10.825298 -14.07289 -14.756302
11.254836 -15.756767 -12.60862
13.000747 16.546404 -9.7884884
12.178149 14.392356 -13.527575
11.838896 12.915159 -15.069632
11.575731 11.575729 -16.265837
11.35667 10.324245 -17.261564
11.204838 9.167593 -17.951715
11.081862 8.0595331 -18.510691
10.974981 6.9840789 -18.996517
10.873948 5.931241 -19.455757
10.816173 4.9164429 -19.718376
10.76673 3.9151735 -19.943115
10.722866 2.9244165 -20.142494
10.698368 1.9451571 -20.253849
10.683903 0.97126484 -20.319599
10.678071 -0 -20.346115
10.67733 -0.97066593 -20.34948
10.698045 -1.9450979 -20.255318
10.731741 -2.9268389 -20.102158
10.767057 -3.9152961 -19.941628
10.829905 -4.9226818 -19.655958
10.89349 -5.9419055 -19.366934
10.972294 -6.9823699 -19.00873
11.095757 -8.0696411 -18.447536
11.222029 -9.1816626 -17.873573
11.395018 -10.359108 -17.087261
11.59241 -11.592411 -16.190022
11.87384 -12.95328 -14.910797
12.270507 -14.501509 -13.107766
13.135674 -16.718132 -9.1751842
14.059285 15.230888 -10.302443
13.307868 13.307865 -13.433345
12.929471 11.852013 -15.010001
12.655092 10.545907 -16.153246
12.457032 9.3427715 -16.978497
12.288922 8.1926136 -17.678955
12.153717 7.0896688 -18.242308
12.061063 6.03053 -18.628365
11.979727 4.9915509 -18.96727
11.91093 3.9703093 -19.253922
11.85004 2.9625082 -19.507629
11.823086 1.9705124 -19.619936
11.80617 0.98384666 -19.690418
11.793336 -0 -19.7439
11.810503 -0.98421001 -19.672367
11.831997 -1.9720001 -19.582809
11.854187 -2.9635472 -19.490349
11.914457 -3.9714851 -19.239223
11.990028 -4.9958463 -18.924341
12.066605 -6.0333018 -18.605284
12.182509 -7.1064639 -18.122335
12.306073 -8.2040501 -17.607492
12.468937 -9.3517027 -16.928892
12.683146 -10.569289 -16.03635
12.967154 -11.886555 -14.852987
13.378125 -13.378123 -13.140613
14.21746 -15.402248 -9.643384
15.279174 14.103853 -10.116741
14.46711 12.2414 -13.240068
14.104247 10.849418 -14.63569
13.809327 9.5603056 -15.769999
13.598328 8.3682003 -16.581539
13.433846 7.2336087 -17.214157
13.304446 6.1405134 -17.711849
13.194555 5.0748291 -18.134506
13.109591 4.0337186 -18.461288
13.0655 3.0151148 -18.630873
13.024743 2.0038052 -18.787632
12.996299 0.99971485 -18.897026
12.986941 9.5367432e-07 -18.933029
12.999893 -0.99999332 -18.883205
13.025919 -2.0039902 -18.783108
13.067337 -3.0155396 -18.623814
13.132266 -4.0406981 -18.374083
13.197803 -5.0760784 -18.122021
13.31266 -6.1443062 -17.680262
13.458695 -7.2469916 -17.118586
13.622414 -8.3830252 -16.488897
13.853271 -9.5907288 -15.600988
14.142724 -10.879021 -14.487702
14.532286 -12.296552 -12.989393
15.496264 -14.304245 -9.2817822
15.832126 11.308658 -12.339491
15.343959 9.8639717 -14.082945
15.054444 8.6025391 -15.116922
14.825439 7.4127178 -15.934803
14.656023 6.2811522 -16.539856
14.518358 5.1851277 -17.031515
14.421883 4.1205359 -17.376072
14.349724 3.0749402 -17.633781
14.284937 2.0407052 -17.865164
14.24803 1.0177135 -17.996975
14.254341 -0 -17.974434
14.260658 -1.0186214 -17.951874
14.277287 -2.0396161 -17.892483
14.356262 -3.076345 -17.610434
14.436162 -4.12462 -17.325077
14.538737 -5.1924086 -16.958733
14.68076 -6.2917571 -16.451509
14.834566 -7.417285 -15.902199
15.089283 -8.622447 -14.9925
15.380888 -9.8877144 -13.951052
15.897653 -11.355466 -12.105464
17.389442 10.433664 -10.91799
16.804092 8.962183 -12.869152
16.423233 7.6641731 -14.138687
16.172289 6.4689136 -14.975166
15.989096 5.3296971 -15.585812
15.852528 4.2273383 -16.04104
15.7457 3.1491389 -16.397125
15.679114 2.0905485 -16.619078
15.654405 1.0436249 -16.70145
15.630075 -0 -16.782547
15.640355 -1.0426927 -16.748278
15.701503 -2.0935345 -16.544455
15.764675 -3.1529365 -16.333879
15.854298 -4.2278128 -16.035137
16.005211 -5.3350716 -15.532093
16.181667 -6.4726682 -14.943907
16.475418 -7.6885281 -13.964739
16.828287 -8.9750862 -12.788508
17.50433 -10.502598 -10.535034
18.602549 8.1386147 -10.749832
18.073471 6.7775497 -12.4032
17.751654 5.5473924 -13.408878
17.49847 4.3746176 -14.200076
17.364285 3.2558031 -14.619409
17.281878 2.1602345 -14.876928
17.217505 1.0760927 -15.078091
17.192671 -0 -15.155701
17.233122 -1.0770736 -15.029291
17.273705 -2.1592159 -14.902469
17.361124 -3.255209 -14.629286
17.552452 -4.3881145 -14.031383
17.75049 -5.5470285 -13.41251
18.127491 -6.7978106 -12.234388
18.676838 -8.1711197 -10.51768
19.900585 4.6824894 -10.351664
19.517155 3.4442024 -11.479401
19.251579 2.2648902 -12.260504
19.179838 1.1282225 -12.471507
19.170094 -0 -12.500168
19.165661 -1.1273928 -12.513205
19.286802 -2.2690382 -12.156904
19.517643 -3.4442918 -11.477968
19.919786 -4.6870103 -10.295191
