# .PCD v0.7 - Point Cloud Data file format
VERSION 0.7
FIELDS x y z
SIZE 4 4 4
TYPE F F F
COUNT 1 1 1
WIDTH 1076
HEIGHT 1
VIEWPOINT 0 0 0 1 0 0 0
POINTS 1076
DATA ascii
-22.972488 3.6272333 -8.4288836
-22.112814 2.3276639 -10.691181
-21.928913 1.1541529 -11.175133
-21.863129 -1.9073486e-06 -11.348249
-21.990108 -1.1573753 -11.01409
-22.283087 -2.3455884 -10.243095
-20.660801 6.8869343 -11.491686
-20.12631 5.590641 -12.976379
-19.832771 4.4072838 -13.791765
-19.634535 3.2724228 -14.342419
-19.520142 2.1689029 -14.660183
-19.436504 1.0798068 -14.892508
-19.440613 -1.4305115e-06 -14.881093
-19.44479 -1.080267 -14.86949
-19.501347 -2.1668196 -14.712391
-19.677822 -3.2796369 -14.222183
-19.858335 -4.4129634 -13.720755
-20.239946 -5.6222081 -12.660724
-20.819782 -6.9399261 -11.050068
-19.241085 9.0546284 -12.291366
-18.684063 7.6934357 -13.929669
-18.36058 6.4802036 -14.881092
-18.122715 5.3302083 -15.580691
-17.951225 4.2238183 -16.085075
-17.837681 3.1478267 -16.419029
-17.761703 2.0896111 -16.642494
-17.709728 1.0417476 -16.795364
-17.702335 -0 -16.817104
-17.722406 -1.0424933 -16.758074
-17.746664 -2.0878429 -16.686722
-17.849728 -3.1499519 -16.3836
-17.985746 -4.2319407 -15.983536
-18.148687 -5.337851 -15.504307
-18.428423 -6.5041504 -14.681551
-18.775627 -7.731143 -13.660366
-19.341349 -9.1018143 -11.996473
-18.25124 11.407021 -11.847672
-17.609236 9.9051952 -13.853932
-17.215836 8.6079178 -15.083308
-16.901537 7.3944197 -16.065495
-16.698519 6.2619443 -16.699924
-16.545067 5.1703343 -17.179461
-16.42799 4.106997 -17.545328
-16.330406 3.0619502 -17.850277
-16.277132 2.0346375 -18.016758
-16.230444 1.0143995 -18.162659
-16.217665 -0 -18.202595
-16.243551 -1.0152225 -18.1217
-16.279293 -2.034914 -18.010004
-16.34601 -3.0648785 -17.801517
-16.443834 -4.1109567 -17.495817
-16.546024 -5.17063 -17.176472
-16.745764 -6.2796631 -16.552282
-16.972176 -7.4253292 -15.844748
-17.271851 -8.6359253 -14.908262
-17.677366 -9.9435196 -13.641026
-18.486673 -11.554171 -11.111943
-16.782187 12.306932 -12.942177
-16.233252 10.822167 -14.771955
-15.889418 9.5336494 -15.918072
-15.622944 8.3322353 -16.806316
-15.422792 7.1973009 -17.47349
-15.265506 6.1062012 -17.997778
-15.157562 5.0525198 -18.357588
-15.051697 4.0137839 -18.710472
-14.976191 2.9952354 -18.96216
-14.938652 1.9918194 -19.087292
-14.905442 0.9936924 -19.197992
-14.889718 -1.9073486e-06 -19.250404
-14.910874 -0.99406242 -19.17988
-14.941195 -1.9921608 -19.078812
-14.98763 -2.9975257 -18.924032
-15.070775 -4.0188737 -18.646877
-15.168421 -5.0561447 -18.321392
-15.304902 -6.1219597 -17.866455
-15.47138 -7.2199774 -17.311527
-15.650294 -8.3468227 -16.715149
-15.956856 -9.5741138 -15.693277
-16.324984 -10.883327 -14.466182
-16.904245 -12.396446 -12.535314
-15.691304 13.449687 -12.842428
-15.020066 11.801481 -15.239698
-14.698289 10.498777 -16.388908
-14.453342 9.2914314 -17.263716
-14.243661 8.1392345 -18.012575
-14.09034 7.0451694 -18.560158
-13.958292 5.9821262 -19.031752
-13.875884 4.9556704 -19.326065
-13.798162 3.9423304 -19.603645
-13.732556 2.9426889 -19.837955
-13.702528 1.9575014 -19.945198
-13.679645 0.97711658 -20.02692
-13.668482 -0 -20.066786
-13.68351 -0.97739697 -20.013119
-13.701068 -1.9572954 -19.950407
-13.74089 -2.944478 -19.808189
-13.810046 -3.9457278 -19.561201
-13.882938 -4.9581914 -19.300869
-13.980597 -5.991684 -18.952091
-14.123333 -7.0616665 -18.442322
-14.276292 -8.1578817 -17.896038
-14.503591 -9.3237381 -17.084261
-14.751079 -10.536486 -16.200375
-15.1037 -11.867195 -14.941015
-15.652382 -13.416329 -12.98143
-14.866598 14.866598 -11.703568
-14.1842 13.093107 -14.32818
-13.570496 11.482726 -16.688583
-13.347146 10.267035 -17.547621
-13.144107 9.0997658 -18.328541
-12.983354 7.9897561 -18.946821
-12.857942 6.9235067 -19.429174
-12.762239 5.8902631 -19.797262
-12.68662 4.8794703 -20.088104
-12.620223 3.8831444 -20.343479
-12.57036 2.9008522 -20.535255
-12.54112 1.9294004 -20.64772
-12.51239 0.96248913 -20.758221
-12.505134 -9.5367432e-07 -20.786125
-12.523176 -0.96331978 -20.716732
-12.543113 -1.9297113 -20.640055
-12.57463 -2.9018364 -20.518837
-12.627727 -3.8854556 -20.314615
-12.696092 -4.8831134 -20.05168
-12.782788 -5.8997469 -19.718224
-12.896546 -6.9442954 -19.280693
-13.01433 -8.0088215 -18.827679
-13.176852 -9.1224365 -18.202595
-13.374539 -10.288106 -17.442261
-13.644182 -11.545076 -16.40517
-13.98899 -12.912916 -15.078991
-14.544258 -14.544257 -12.943344
-14.008135 16.342821 -10.515566
-13.352131 14.464806 -13.248919
-12.754861 12.75486 -15.737546
-12.279857 11.256534 -17.71673
-12.100973 10.084143 -18.462076
-11.928257 8.9461899 -19.181725
-11.806892 7.8712587 -19.687412
-11.699444 6.824677 -20.135109
-11.615311 5.8076539 -20.485672
-11.553976 4.8141546 -20.74123
-11.495372 3.83179 -20.985413
-11.456973 2.8642454 -21.145409
-11.434719 1.9057856 -21.238132
-11.414205 0.95118332 -21.323608
-11.409989 -1.9073486e-06 -21.341173
-11.41758 -0.95146751 -21.309547
-11.430184 -1.9050322 -21.25703
-11.461461 -2.8653669 -21.126709
-11.509247 -3.8364162 -20.927599
-11.558644 -4.8161016 -20.721779
-11.625555 -5.8127775 -20.442984
-11.723133 -6.8384924 -20.036411
-11.826706 -7.8844695 -19.604853
-11.96844 -8.9763317 -19.014294
-12.133364 -10.111136 -18.32711
-12.320442 -11.293738 -17.547621
-12.576993 -12.576995 -16.478659
-12.944466 -14.023173 -14.947521
-13.441917 -15.682237 -12.874804
-13.113194 17.881626 -9.2773666
-12.486475 15.891878 -12.126091
-11.917249 14.084018 -14.713487
-11.397182 12.433289 -17.077423
-11.071569 11.07157 -18.55748
-10.917914 9.925374 -19.255915
-10.791543 8.8294411 -19.83033
-10.680519 7.7676492 -20.334984
-10.596914 6.7434912 -20.715004
-10.523798 5.740252 -21.04735
-10.462805 4.7558174 -21.324593
-10.420733 3.7893562 -21.515827
-10.392711 2.8343744 -21.6432
-10.366325 1.8847866 -21.763132
-10.347631 0.9406929 -21.848114
-10.349203 -1.9073486e-06 -21.840961
-10.357742 -0.94161415 -21.802149
-10.368177 -1.8851242 -21.754715
-10.393504 -2.8345928 -21.639593
-10.434371 -3.7943172 -21.453836
-10.481081 -4.7641296 -21.24152
-10.543671 -5.7510939 -20.957024
-10.622001 -6.7594576 -20.600971
-10.703899 -7.784656 -20.228706
-10.812737 -8.8467846 -19.733994
-10.944479 -9.9495258 -19.135168
-11.103901 -11.103901 -18.410521
-11.323832 -12.353272 -17.410835
-11.563821 -13.666335 -16.319975
-11.946163 -15.204209 -14.582052
-12.611517 -17.197523 -11.557723
-12.177847 19.484556 -7.9935579
-11.585491 17.378237 -10.955339
-11.046609 15.465255 -13.649749
-10.555942 13.722725 -16.103086
-10.107009 12.128412 -18.34775
-9.9332504 10.926577 -19.216545
-9.8019476 9.8019476 -19.873056
-9.7017765 8.7315979 -20.373915
-9.6149082 7.6919284 -20.808254
-9.5320091 6.6724062 -21.22275
-9.4748449 5.6849051 -21.508572
-9.4237394 4.7118683 -21.764099
-9.3867159 3.7546854 -21.949221
-9.3630381 2.8089094 -22.067604
-9.3412428 1.868248 -22.176582
-9.3221397 0.93220997 -22.272102
-9.3228683 -0 -22.268456
-9.32903 -0.93290424 -22.237644
-9.338315 -1.8676643 -22.191221
-9.3656816 -2.8097048 -22.05439
-9.3966093 -3.7586441 -21.89975
-9.427742 -4.7138729 -21.744083
-9.4852886 -5.691175 -21.456352
-9.553854 -6.6877003 -21.113525
-9.6249733 -7.6999798 -20.757931
-9.7239676 -8.7515717 -20.262959
-9.8355589 -9.8355589 -19.705002
-9.9559898 -10.95159 -19.102852
-10.121058 -12.14527 -18.277504
-10.321995 -13.418591 -17.272823
-10.615376 -14.86153 -15.805912
-11.001558 -16.502338 -13.875006
-10.646046 18.926304 -9.7380991
-10.141339 16.902231 -12.542023
-9.6820955 15.061039 -15.093376
-9.2627306 13.379498 -17.423182
-8.9706869 11.960915 -19.045649
-8.8400345 10.804485 -19.771494
-8.7371826 9.7079782 -20.342892
-8.6517372 8.6517372 -20.817589
-8.5738811 7.6212296 -21.25012
-8.5070238 6.6165733 -21.621557
-8.4518404 5.6345606 -21.928127
-8.4105358 4.6725206 -22.157597
-8.377986 3.7235489 -22.33843
-8.358161 2.7860546 -22.448568
-8.3398228 1.8532934 -22.550446
-8.329031 0.92544746 -22.610403
-8.3296776 9.5367432e-07 -22.60681
-8.3303242 -0.92559242 -22.603216
-8.3340158 -1.8520041 -22.582706
-8.3604527 -2.7868166 -22.435833
-8.3899984 -3.7288914 -22.271694
-8.4197292 -4.6776295 -22.106527
-8.4669609 -5.6446409 -21.844124
-8.5218906 -6.6281357 -21.53896
-8.5775633 -7.6245012 -21.229668
-8.6587467 -8.6587458 -20.77865
-8.7562532 -9.7291698 -20.236946
-8.8635426 -10.833219 -19.640896
-9.0075397 -12.010052 -18.84091
-9.1582317 -13.228559 -18.003731
-9.3771343 -14.586652 -16.787603
-9.6701994 -16.117001 -15.159466
-10.152074 -18.048132 -12.482385
-9.6658354 20.5399 -8.471323
-9.198391 18.396782 -11.392854
-8.7741919 16.451607 -14.044099
-8.3873386 14.677841 -16.461929
-8.0326557 13.053065 -18.678694
-7.8989363 11.848402 -19.514446
-7.7867498 10.706779 -20.215611
-7.7010603 9.6263218 -20.751167
-7.6267595 8.580101 -21.215553
-7.5546761 7.5546741 -21.666071
-7.5056291 6.5674257 -21.972614
-7.4602184 5.5951624 -22.256433
-7.4261341 4.6413317 -22.469461
-7.395927 3.6979637 -22.658255
-7.3748469 2.7655706 -22.790001
-7.3567038 1.8391743 -22.9034
-7.3522286 0.91902924 -22.931368
-7.354455 -1.9073486e-06 -22.917454
-7.3566613 -0.91958332 -22.90366
-7.3652902 -1.8413239 -22.849731
-7.3831162 -2.7686682 -22.738319
-7.4030085 -3.7015047 -22.613993
-7.4308915 -4.644309 -22.43972
-7.4744697 -5.605854 -22.167364
-7.5195489 -6.5796056 -21.885616
-7.5687561 -7.5687561 -21.578072
-7.6406341 -8.5957117 -21.128834
-7.7155538 -9.6444435 -20.660585
-7.7987795 -10.723322 -20.140427
-7.9194922 -11.87924 -19.385971
-8.0495329 -13.080492 -18.573214
-8.2303276 -14.403075 -17.443251
-8.430789 -15.807728 -16.190371
-8.7622471 -17.524494 -14.118752
-8.2170744 19.95575 -10.189408
-7.8300271 17.897203 -12.954034
-7.4780989 16.024496 -15.467807
-7.1568317 14.313663 -17.762568
-6.9567752 12.919723 -19.191547
-6.8495765 11.74213 -19.957249
-6.7623367 10.626527 -20.580395
-6.6914721 9.5592461 -21.086563
-6.6280198 8.52174 -21.539797
-6.571506 7.5102916 -21.943466
-6.5261779 6.5261755 -22.267239
-6.4881916 5.561307 -22.53857
-6.4568944 4.6120672 -22.762125
-6.4341187 3.6766376 -22.924805
-6.4162154 2.7498055 -23.052689
-6.4055786 1.8301649 -23.128662
-6.4014468 0.9144907 -23.158175
-6.3973022 -2.8610229e-06 -23.187778
-6.3958497 -0.91369438 -23.198158
-6.4076924 -1.8307695 -23.113564
-6.4231668 -2.7527885 -23.003033
-6.4398575 -3.6799212 -22.883814
-6.461895 -4.6156406 -22.726406
-6.4964433 -5.5683799 -22.479633
-6.5335789 -6.5335808 -22.214375
-6.5778956 -7.5175948 -21.897829
-6.6398778 -8.5369892 -21.455093
-6.7036786 -9.576684 -20.999378
-6.7793088 -10.653198 -20.459166
-6.873023 -11.782324 -19.789776
-6.9702282 -12.944709 -19.095455
-7.1201878 -14.240375 -18.024317
-7.2899985 -15.621428 -16.811373
-7.5398188 -17.233871 -15.026949
-7.9615521 -19.335199 -12.014566
-6.8475885 19.401503 -11.819553
-6.5339932 17.423979 -14.432857
-6.2475801 15.618948 -16.81963
-6.0233274 14.05443 -18.688402
-5.9188457 12.824163 -19.559082
-5.8295012 11.659 -20.303619
-5.7584505 10.557159 -20.895706
-5.6976552 9.496088 -21.402336
-5.6432881 8.4649296 -21.855398
-5.6014609 7.4686146 -22.203951
-5.5642076 6.4915743 -22.514399
-5.5350041 5.5350027 -22.757763
-5.508729 4.5906057 -22.976723
-5.4898562 3.6599054 -23.133991
-5.472167 2.7360811 -23.281404
-5.4654603 1.8218193 -23.337292
-5.4621363 0.91035366 -23.364992
-5.4592643 -1.9073486e-06 -23.388927
-5.45786 -0.90964413 -23.400627
-5.4659867 -1.8219957 -23.332909
-5.4798698 -2.7399349 -23.217215
-5.4940267 -3.6626844 -23.099239
-5.5164242 -4.5970192 -22.912596
-5.5435848 -5.5435839 -22.686258
-5.5732493 -6.5021262 -22.439053
-5.6100378 -7.4800515 -22.132483
-5.6562147 -8.4843216 -21.747673
-5.706141 -9.5102348 -21.331619
-5.7732224 -10.584243 -20.772608
-5.8516541 -11.70331 -20.119009
-5.9362774 -12.861937 -19.413818
-6.0505428 -14.117936 -18.461603
-6.1757855 -15.439464 -17.417915
-6.3710332 -16.989422 -15.79085
-6.6788597 -18.923437 -13.225636
-5.8346701 21.004814 -10.536093
-5.5520239 18.876877 -13.362559
-5.3046088 16.974751 -15.836705
-5.0905948 15.271785 -17.976849
-4.9883804 13.967465 -18.998991
-4.903976 12.750338 -19.843037
-4.8339405 11.601459 -20.543388
-4.7759061 10.506994 -21.123734
-4.7266655 9.4533291 -21.616142
-4.683495 8.4302931 -22.047846
-4.64852 7.4376335 -22.397594
-4.617281 6.4641905 -22.709982
-4.5930839 5.5117006 -22.951958
-4.5706439 4.5706444 -23.176357
-4.5559688 3.6447744 -23.323107
-4.5435677 2.7261391 -23.447119
-4.5360622 1.8144264 -23.522175
-4.533021 0.90660572 -23.552588
-4.5306468 9.5367432e-07 -23.576328
-4.5333786 -0.90667439 -23.549011
-4.5400934 -1.8160362 -23.481861
-4.5468416 -2.7281065 -23.414381
-4.5576334 -3.6461077 -23.306461
-4.5787206 -4.578723 -23.095589
-4.6000032 -5.5200043 -22.882767
-4.6236758 -6.4731464 -22.646036
-4.657589 -7.4521408 -22.306908
-4.695097 -8.4511757 -21.931828
-4.7340355 -9.468071 -21.542442
-4.786006 -10.529213 -21.022736
-4.8445644 -11.626956 -20.437149
-4.9165921 -12.783142 -19.716873
-5.0096879 -14.027126 -18.785915
-5.1134686 -15.340405 -17.74811
-5.2605438 -16.833742 -16.277361
-5.4670644 -18.588015 -14.212154
-4.5560441 20.502195 -11.932253
-4.3249698 18.381119 -14.820675
-4.1525178 16.610071 -16.97632
-4.053267 15.199749 -18.216957
-3.9708486 13.89797 -19.247187
-3.9037764 12.687271 -20.08559
-3.8494365 11.548307 -20.764841
-3.8052859 10.464538 -21.316721
-3.7663636 9.4159079 -21.803251
-3.7331595 8.3996067 -22.2183
-3.7059264 7.4118514 -22.558716
-3.6823082 6.4440374 -22.853947
-3.6631536 5.4947281 -23.093378
-3.6470673 4.5588341 -23.294453
-3.6342282 3.6342268 -23.454945
-3.6247725 2.7185755 -23.573137
-3.6169713 1.808486 -23.670654
-3.6134281 0.9033556 -23.714947
-3.6101549 9.5367432e-07 -23.755859
-3.6155286 -0.90388203 -23.688686
-3.6213465 -1.8106747 -23.615963
-3.6271832 -2.7203894 -23.543007
-3.6362402 -3.6362419 -23.429794
-3.651226 -4.5640335 -23.24247
-3.6668055 -5.5002108 -23.047724
-3.6833088 -6.4457908 -22.841438
-3.7122102 -7.4244199 -22.480169
-3.7415905 -8.4185781 -22.112915
-3.7731862 -9.4329653 -21.717972
-3.8164775 -10.495313 -21.17683
-3.8619432 -11.585831 -20.608505
-3.9153411 -12.724859 -19.941031
-3.9828887 -13.940111 -19.096685
-4.0667377 -15.250267 -18.048576
-4.1730599 -16.69224 -16.719545
-4.3363185 -18.429356 -14.678815
-4.6402268 -20.88102 -10.879963
-3.3760612 20.256363 -12.615112
-3.2021463 18.145494 -15.513691
-3.1002579 16.534708 -17.211836
-3.0286787 15.14339 -18.404821
-2.9673996 13.847863 -19.426136
-2.9193246 12.650407 -20.227383
-2.8793969 11.517587 -20.892847
-2.8464925 10.437137 -21.441254
-2.8176913 9.3923006 -21.921278
-2.7938902 8.38167 -22.317959
-2.7728672 7.394309 -22.668346
-2.7557716 6.4301319 -22.953272
-2.7401915 5.4803848 -23.212936
-2.7287216 4.5478678 -23.404099
-2.7180896 3.6241188 -23.581303
-2.7121646 2.7121658 -23.680054
-2.7064927 1.8043261 -23.774586
-2.7046959 0.90156555 -23.804531
-2.7046883 -1.9073486e-06 -23.804661
-2.7059693 -0.90198994 -23.783306
-2.709554 -1.8063698 -23.723564
-2.7139103 -2.7139111 -23.650957
-2.7229345 -3.6305819 -23.500555
-2.7329004 -4.5548344 -23.334454
-2.7445381 -5.4890766 -23.140497
-2.7592921 -6.4383492 -22.894594
-2.7779493 -7.4078646 -22.583643
-2.7971766 -8.391531 -22.263184
-2.821207 -9.4040241 -21.862682
-2.8534837 -10.462772 -21.324734
-2.8869393 -11.547756 -20.767145
-2.9294937 -12.694473 -20.057901
-2.9780264 -13.897456 -19.249023
-3.0360501 -15.180251 -18.281961
-3.1150115 -16.613396 -16.965937
-3.2258554 -18.279848 -15.118541
-3.4193077 -20.515844 -11.894332
-2.2367151 20.130436 -12.964917
-2.1259856 18.070877 -15.733157
-2.060612 16.484894 -17.367498
-2.0123706 15.092781 -18.573528
-1.9739468 13.817627 -19.534124
-1.941854 12.62205 -20.336447
-1.9153082 11.49185 -21.000092
-1.8940545 10.4173 -21.531435
-1.8742435 9.3712187 -22.026709
-1.8591878 8.3663454 -22.403097
-1.8450807 7.3803215 -22.755779
-1.8344373 6.4205303 -23.021862
-1.8241643 5.4724903 -23.27869
-1.8170782 4.542696 -23.455841
-1.8103576 3.6207132 -23.623856
-1.805837 2.7087574 -23.736866
-1.8023429 1.8023405 -23.824223
-1.8003465 0.90017033 -23.874134
-1.8011929 -1.9073486e-06 -23.852972
-1.8020452 -0.901021 -23.831665
-1.8028983 -1.8028965 -23.810341
-1.8061918 -2.7092896 -23.728003
-1.8124629 -3.6249228 -23.571224
-1.8187777 -4.5469437 -23.413357
-1.825991 -5.4779739 -23.233019
-1.8374432 -6.4310522 -22.946714
-1.8495981 -7.3983936 -22.642845
-1.8623886 -8.3807526 -22.323078
-1.879064 -9.3953209 -21.906197
-1.898255 -10.440403 -21.426424
-1.9183165 -11.5099 -20.924887
-1.9484082 -12.664652 -20.172594
-1.9802992 -13.862096 -19.375311
-2.0204372 -15.153282 -18.371861
-2.0698292 -16.558636 -17.137062
-2.141526 -18.202971 -15.344646
-2.2626464 -20.363819 -12.316631
-1.1132972 20.039347 -13.217938
-1.0616182 18.04751 -15.801883
-1.0291561 16.466497 -17.42499
-1.0048909 15.073362 -18.638248
-0.98590004 13.802597 -19.587793
-0.9703151 12.614095 -20.367039
-0.95726383 11.487164 -21.019604
-0.94645065 10.410957 -21.560263
-0.93681628 9.3681641 -22.041985
-0.92916721 8.362504 -22.424435
-0.9220593 7.3764734 -22.779831
-0.91662562 6.416379 -23.051514
-0.91158086 5.4694843 -23.303751
-0.9077754 4.5388746 -23.494026
-0.90446639 3.6178627 -23.659473
-0.902053 2.7061577 -23.780148
-0.90057629 1.8011503 -23.853981
-0.89963979 0.89964008 -23.900806
-0.9000147 -2.8610229e-06 -23.882063
-0.90051079 -0.90051079 -23.857256
-0.90100741 -1.8020163 -23.832428
-0.90292102 -2.7087641 -23.736744
-0.90574425 -3.6229753 -23.595581
-0.9086237 -4.5431194 -23.451611
-0.91215712 -5.4729433 -23.274942
-0.91768157 -6.4237719 -22.998714
-0.92368418 -7.3894734 -22.698586
-0.93026841 -8.3724174 -22.369377
-0.93929338 -9.3929367 -21.918123
-0.94874698 -10.436217 -21.44545
-0.95943558 -11.513229 -20.911016
-0.97309649 -12.650255 -20.227972
-0.98764277 -13.827 -19.500654
-1.0087273 -15.130909 -18.446432
-1.031991 -16.511852 -17.283251
-1.0688995 -18.171295 -15.437821
-1.1231503 -20.216707 -12.725275
0 20.037825 -13.222172
0 18.064791 -15.751057
0 16.469919 -17.414293
0 15.080097 -18.615803
0 13.807421 -19.570572
0 12.616796 -20.356651
0 11.489422 -21.010204
0 10.410804 -21.560959
0 9.3681641 -22.041985
0 8.3630581 -22.421352
0 7.3782282 -22.768867
0 6.4168348 -23.04825
0 5.4714069 -23.287735
0 4.5410538 -23.472256
0 3.620224 -23.629969
0 2.7070999 -23.764465
0 1.8022118 -23.827503
0 0.9005003 -23.857759
0 -0 -23.887974
0 -0.90020943 -23.872246
0 -1.8028183 -23.812363
0 -2.710454 -23.708607
0 -3.6235075 -23.588951
0 -4.5437727 -23.445066
0 -5.4792185 -23.22266
0 -6.4277301 -22.970436
0 -7.3875237 -22.710779
0 -8.3703098 -22.381071
0 -9.3905773 -21.929907
0 -10.432004 -21.464602
0 -11.522571 -20.872086
0 -12.658828 -20.194994
0 -13.844802 -19.437078
0 -15.140542 -18.414322
0 -16.550171 -17.163507
0 -18.140923 -15.52714
0 -20.277781 -12.55563
1.1199493 20.159088 -12.885328
1.0652623 18.109459 -15.619683
1.0315907 16.505447 -17.303263
1.0068275 15.102411 -18.54142
0.9883495 13.836892 -19.465321
0.97270828 12.645208 -20.247383
0.95909536 11.509142 -20.928028
0.94765741 10.424232 -21.499924
0.93884134 9.3884106 -21.940729
0.93088734 8.377985 -22.33843
0.92355168 7.3884134 -22.705214
0.91756129 6.4229288 -23.004732
0.91347492 5.4808483 -23.209049
0.9096716 4.5483561 -23.399216
0.90618801 3.6247511 -23.573395
0.90275639 2.7082691 -23.744972
0.90196955 1.8039389 -23.784317
0.90137589 0.90137577 -23.814001
0.90080065 9.5367432e-07 -23.842762
0.9002412 -0.90024376 -23.870733
0.90197212 -1.8039446 -23.784193
0.90404981 -2.7121506 -23.680309
0.90613705 -3.6245489 -23.575945
0.9095251 -4.5476246 -23.406542
0.91427946 -5.4856768 -23.168827
0.91921234 -6.4344854 -22.92218
0.92441642 -7.3953328 -22.661972
0.93200332 -8.3880291 -22.282629
0.94010007 -9.4010019 -21.87779
0.94837791 -10.432159 -21.4639
0.96099406 -11.531931 -20.833088
0.97441643 -12.667414 -20.161974
0.99100339 -13.874048 -19.332626
1.0102123 -15.153184 -18.372181
1.0372329 -16.595728 -17.021156
1.0712692 -18.211573 -15.319341
1.1352983 -20.435369 -12.117882
2.2597947 20.33815 -12.38793
2.1399169 18.189293 -15.384871
2.0704684 16.563747 -17.121082
2.0226088 15.169561 -18.317581
1.9826722 13.878704 -19.315989
1.9498305 12.673898 -20.137032
1.9224532 11.534719 -20.821468
1.8993921 10.446653 -21.397991
1.882009 9.4100437 -21.832573
1.865687 8.3955898 -22.24062
1.8507414 7.4029646 -22.614258
1.8384562 6.4345942 -22.921391
1.8301029 5.4903078 -23.130224
1.8222741 4.5556822 -23.325947
1.8152845 3.6305656 -23.500683
1.810378 2.7155657 -23.623348
1.8067901 1.8067904 -23.713047
1.8056345 0.90281582 -23.741936
1.8044802 -2.8610229e-06 -23.77079
1.8053609 -0.90267944 -23.748774
1.8077948 -1.8077974 -23.687925
1.8114734 -2.7172108 -23.595963
1.8151667 -3.6303339 -23.503626
1.8223462 -4.5558662 -23.324141
1.8307225 -5.4921675 -23.114737
1.8403591 -6.4412589 -22.873821
1.8530166 -7.4120703 -22.557383
1.8682106 -8.4069481 -22.177532
1.8842789 -9.4213943 -21.775826
1.9036559 -10.470109 -21.291399
1.9271733 -11.563038 -20.703466
1.9515983 -12.685389 -20.09284
1.9873062 -13.911143 -19.20014
2.0260339 -15.195255 -18.231947
2.0813076 -16.650465 -16.850101
2.1575773 -18.339409 -14.943361
2.2910931 -20.619837 -11.605471
3.4459496 20.675695 -11.450305
3.2364419 18.339834 -14.9421
3.1255596 16.669651 -16.790133
3.0480216 15.240108 -18.082436
2.9861596 13.93541 -19.11347
2.932225 12.706308 -20.012379
2.8950157 11.580061 -20.632532
2.8605771 10.488781 -21.206514
2.8306031 9.4353447 -21.706078
2.8044322 8.4132948 -22.142262
2.7846234 7.425663 -22.472404
2.7673275 6.4570971 -22.76067
2.7523072 5.504611 -23.011013
2.7381241 4.5635405 -23.247391
2.729146 3.6388597 -23.39703
2.723618 2.7236166 -23.489159
2.7181203 1.8120785 -23.580791
2.7127819 0.90426064 -23.669769
2.7125838 9.5367432e-07 -23.673069
2.7153988 -0.90513229 -23.626148
2.7182198 -1.8121481 -23.579132
2.7231572 -2.723156 -23.496841
2.7314856 -3.641983 -23.358038
2.7424021 -4.5706701 -23.176096
2.7544351 -5.5088711 -22.975544
2.7667408 -6.4557295 -22.770452
2.7862868 -7.4300976 -22.444683
2.8087237 -8.4261703 -22.070736
2.8325629 -9.4418774 -21.673416
2.8659179 -10.508369 -21.117495
2.9010789 -11.604319 -20.531479
2.9421613 -12.749367 -19.846773
2.9938822 -13.971452 -18.984758
3.0580912 -15.290456 -17.914612
3.1381061 -16.736567 -16.58103
3.2611482 -18.479837 -14.530329
3.5109487 -21.065689 -10.366993
4.3648133 18.550453 -14.322634
4.1991415 16.796564 -16.39353
4.0888391 15.333145 -17.77231
4.0008006 14.002798 -18.872793
3.9349451 12.78857 -19.69598
3.8777533 11.633258 -20.410883
3.829921 10.532284 -21.008781
3.7892573 9.4731426 -21.517078
3.7532084 8.4447174 -21.967691
3.7266321 7.4532642 -22.299892
3.7033889 6.4809303 -22.590433
3.6825504 5.5238256 -22.850916
3.6639771 4.5799713 -23.083082
3.6509359 3.6509361 -23.246096
3.6434855 2.7326136 -23.339226
3.636076 1.818038 -23.43185
3.6291566 0.90729046 -23.518337
3.6290643 9.5367432e-07 -23.519489
3.631839 -0.90795898 -23.484806
3.6346078 -1.8173056 -23.450199
3.6399004 -2.729928 -23.384039
3.6542833 -3.6542864 -23.20425
3.6687806 -4.5859766 -23.023037
3.6846163 -5.526926 -22.825096
3.7062783 -6.4859881 -22.554316
3.7321098 -7.46422 -22.231424
3.7593575 -8.4585552 -21.890827
3.7925057 -9.4812651 -21.476475
3.835227 -10.546875 -20.942459
3.8819747 -11.645926 -20.358114
3.943866 -12.817566 -19.584471
4.0101852 -14.035649 -18.755484
4.105845 -15.396919 -17.559736
4.2215047 -16.886015 -16.113993
4.3852129 -18.637157 -14.067635
5.5426531 18.84502 -13.456265
5.3129811 17.001537 -15.752989
5.1568789 15.470636 -17.314005
5.0414243 14.115986 -18.468555
4.951632 12.874244 -19.366476
4.8770142 11.704832 -20.112652
4.80971 10.581362 -20.785696
4.7608576 9.5217152 -21.27422
4.7189722 8.4941502 -21.693075
4.6816964 7.4907112 -22.065834
4.6466813 6.5053501 -22.415985
4.6202378 5.5442829 -22.68042
4.6031613 4.6031599 -22.851181
4.5861979 3.6689558 -23.020821
4.5704231 2.7422523 -23.178564
4.5610957 1.8244381 -23.271839
4.5583696 0.91167068 -23.299103
4.5566139 -9.5367432e-07 -23.316658
4.5589504 -0.91179085 -23.293293
4.5624533 -1.8249817 -23.258259
4.573307 -2.7439852 -23.149727
4.5872703 -3.6698198 -23.010098
4.6015687 -4.6015701 -22.867107
4.6234636 -5.5481567 -22.648161
4.6546655 -6.5165339 -22.33614
4.6866732 -7.4986792 -22.016062
4.7219772 -8.4995584 -21.663023
4.7702994 -9.5405989 -21.179798
4.8225245 -10.609552 -20.657549
4.8818674 -11.716482 -20.064123
4.9630098 -12.903827 -19.252699
5.0533934 -14.149501 -18.348862
5.1707821 -15.512347 -17.174976
5.3410735 -17.091434 -15.472061
5.6047397 -19.056116 -12.835399
6.8230538 19.331987 -12.024009
6.4706931 17.255178 -14.960355
6.2588797 15.647199 -16.725462
6.1046004 14.244065 -18.011127
5.9884143 12.974894 -18.979345
5.8892584 11.778516 -19.805645
5.8165946 10.663754 -20.411175
5.7509556 9.5849266 -20.958164
5.6961088 8.5441628 -21.415222
5.6491818 7.5322418 -21.806282
5.6080499 6.5427237 -22.149048
5.5756636 5.5756645 -22.418938
5.5532141 4.627677 -22.60601
5.532403 3.6882677 -22.779436
5.5117474 2.7558718 -22.951565
5.5000672 1.8333549 -23.048901
5.496623 0.91610241 -23.077606
5.4944801 -0 -23.095463
5.4939175 -0.91565418 -23.100151
5.5045357 -1.8348446 -23.011663
5.5187578 -2.7593813 -22.89315
5.5349565 -3.6899719 -22.75816
5.5521445 -4.6267853 -22.614925
5.581562 -5.581563 -22.36978
5.6143436 -6.5500689 -22.096596
5.6503391 -7.5337849 -21.79664
5.7023497 -8.553524 -21.363214
5.7610621 -9.6017694 -20.873949
5.8238225 -10.677008 -20.350943
5.9076004 -11.8152 -19.652794
6.0010514 -13.002277 -18.874037
6.1279254 -14.298494 -17.816751
6.2730117 -15.68253 -16.607702
6.4945025 -17.318672 -14.761945
6.935864 -19.651615 -11.083931
7.6732864 17.538937 -14.073611
7.3890867 15.833755 -16.103609
7.2009377 14.401875 -17.447523
7.0574632 13.106716 -18.472345
6.9374728 11.892809 -19.32942
6.8433762 10.753876 -20.001541
6.7621942 9.6602745 -20.581408
6.6924462 8.6045723 -21.079605
6.6301465 7.5773082 -21.524609
6.5913486 6.5913482 -21.801735
6.5530024 5.6168585 -22.075638
6.5151181 4.6536551 -22.346235
6.4904351 3.7088203 -22.522545
6.4732027 2.77423 -22.645636
6.459579 1.8455925 -22.742949
6.4529734 0.92185116 -22.790133
6.4484477 -1.9073486e-06 -22.822456
6.449223 -0.92131901 -22.816917
6.4591708 -1.8454781 -22.745859
6.4748769 -2.7749453 -22.633677
6.4931097 -3.7103491 -22.503441
6.5230222 -4.6593046 -22.28978
6.5577707 -5.6209478 -22.041576
6.5965595 -6.596561 -21.764513
6.6420512 -7.5909162 -21.439573
6.7027211 -8.6177864 -21.006218
6.7657485 -9.6653585 -20.556021
6.8497844 -10.763948 -19.955765
6.9523735 -11.918354 -19.222984
7.0668502 -13.124149 -18.405294
7.2307534 -14.461507 -17.234558
7.4418836 -15.946893 -15.726482
7.7511973 -17.717022 -13.517101
9.0882215 18.176439 -12.081416
8.6280537 16.177601 -14.95746
8.3614616 14.632557 -16.623663
8.1687517 13.274219 -17.828094
8.018322 12.027479 -18.768286
7.8989849 10.861105 -19.514139
7.7898831 9.7373543 -20.196026
7.7166643 8.6812468 -20.653646
7.6499424 7.6499381 -21.07066
7.5914531 6.6425195 -21.436214
7.5464602 5.6598444 -21.717415
7.5019984 4.6887474 -21.995304
7.4691138 3.7345552 -22.200836
7.451129 2.7941723 -22.313244
7.4353342 1.8588305 -22.411957
7.4219165 0.92773914 -22.495815
7.4214239 -1.9073486e-06 -22.498894
7.4292836 -0.92866325 -22.449772
7.4398031 -1.8599491 -22.384026
7.4519701 -2.7944899 -22.307983
7.4721699 -3.7360859 -22.181734
7.5085406 -4.6928387 -21.95442
7.5488062 -5.6616049 -21.702759
7.5944533 -6.6451468 -21.417461
7.6604805 -7.6604815 -21.004795
7.7302642 -8.6965504 -20.568644
7.8089499 -9.7611885 -20.076857
7.9127016 -10.879962 -19.428413
8.0330067 -12.049511 -18.676498
8.1931877 -13.313932 -17.675373
8.3714123 -14.649972 -16.56147
8.6608801 -16.239151 -14.752297
9.1701822 -18.340366 -11.569157
9.9534626 16.5891 -13.585786
9.5802574 14.902621 -15.659143
9.3212461 13.464023 -17.098095
9.135787 12.181048 -18.128424
8.9843769 10.980906 -18.969589
8.8633795 9.8481979 -19.641798
8.7717667 8.7717657 -20.150763
8.694459 7.7284064 -20.580246
8.6187334 6.7034593 -21.000944
8.5564299 5.7042856 -21.347073
8.5181065 4.7322798 -21.559986
8.4819374 3.7697487 -21.760925
8.4550228 2.8183384 -21.910446
8.4337769 1.8741684 -22.028482
8.4175749 0.93528652 -22.118488
8.4161329 -1.9073486e-06 -22.126507
8.4250917 -0.93612289 -22.076729
8.4359627 -1.8746595 -22.016338
8.4561834 -2.8187284 -21.904001
8.4880266 -3.7724562 -21.727093
8.5252771 -4.7362666 -21.520145
8.5631599 -5.7087717 -21.309689
8.6237621 -6.7073698 -20.973005
8.6977482 -7.7313313 -20.56197
8.7767639 -8.776763 -20.122999
8.8878307 -9.8753681 -19.50596
9.0040112 -11.004904 -18.860512
9.1631861 -12.217582 -17.976204
9.3591061 -13.518708 -16.88776
9.6263618 -14.974341 -15.403007
10.019398 -16.698997 -13.219475
11.618954 17.428429 -10.788032
10.92218 15.291049 -14.271899
10.575575 13.748248 -16.004917
10.330908 12.397087 -17.22826
10.139617 11.153577 -18.184713
9.9761734 9.9761705 -19.001928
9.8585472 8.8726921 -19.590059
9.7625198 7.8100147 -20.070192
9.6812305 6.7768612 -20.476645
9.6124668 5.7674785 -20.820457
9.5627689 4.7813835 -21.068956
9.5172939 3.8069172 -21.296326
9.4773283 2.8431978 -21.496155
9.4604731 1.8920956 -21.580433
9.4530535 0.94530296 -21.617529
9.4493618 -0 -21.635986
9.4485846 -0.94485855 -21.639874
9.4539976 -1.8907986 -21.612808
9.4887838 -2.8466339 -21.438873
9.5248432 -3.8099365 -21.258579
9.5657816 -4.7828903 -21.053892
9.6269302 -5.7761579 -20.748146
9.6985312 -6.7889738 -20.390142
9.7755384 -7.8204317 -20.005102
9.8770952 -8.8893871 -19.49732
10.009062 -10.009064 -18.837486
10.159174 -11.175091 -18.086927
10.349214 -12.419056 -17.13673
10.607329 -13.78953 -15.846148
10.980238 -15.372334 -13.981605
11.78191 -17.672867 -9.9732456
12.48991 15.89625 -12.110475
11.931669 14.101064 -14.647938
11.599589 12.654095 -16.157394
11.358857 11.358857 -17.251625
11.151049 10.137316 -18.196211
11.009111 9.0074549 -18.841381
10.886455 7.9174213 -19.398911
10.791839 6.8675323 -19.828983
10.712515 5.8431892 -20.189545
10.641127 4.836875 -20.514038
10.589846 3.8508539 -20.747135
10.551809 2.8777657 -20.920025
10.525519 1.9137287 -21.039526
10.510925 0.9555397 -21.105865
10.50503 -0 -21.132662
10.512111 -0.95564842 -21.100475
10.532942 -1.915081 -21.005787
10.561285 -2.880353 -20.876957
10.590321 -3.8510275 -20.744978
10.644038 -4.8381996 -20.500805
10.720366 -5.8474722 -20.153858
10.799773 -6.8725839 -19.792921
10.907116 -7.9324479 -19.304991
11.030998 -9.0253639 -18.741894
11.176502 -10.160458 -18.080513
11.389372 -11.389372 -17.112925
11.636307 -12.694154 -15.990494
11.975907 -14.153346 -14.446853
12.595228 -16.030293 -11.63176
13.587055 14.719309 -12.270063
13.013909 13.013907 -14.658171
12.656586 11.601869 -16.147024
12.430008 10.358339 -17.091097
12.230582 9.1729364 -17.922035
12.08348 8.0556517 -18.534962
11.950737 6.9712625 -19.08806
11.856008 5.9280019 -19.482769
11.766638 4.9027634 -19.855141
11.70959 3.9031954 -20.092838
11.672923 2.918231 -20.245621
11.640939 1.9401569 -20.378887
11.614926 0.96790791 -20.487272
11.602712 -0 -20.538162
11.617896 -0.96815872 -20.474895
11.641184 -1.9401989 -20.377861
11.671018 -2.9177551 -20.253555
11.725268 -3.9084225 -20.027512
11.791895 -4.9132924 -19.749899
11.865879 -5.9329405 -19.441635
11.961323 -6.9774399 -19.043949
12.100214 -8.0668097 -18.465235
12.243883 -9.1829128 -17.866619
12.451128 -10.37594 -17.003098
12.689732 -11.632254 -16.008917
13.075464 -13.075464 -14.401698
13.687024 -14.827612 -11.853533
14.761585 13.626077 -12.107468
14.179826 11.998311 -14.345008
13.807824 10.621401 -15.775784
13.548347 9.3796234 -16.773771
13.345954 8.2128925 -17.552208
13.187984 7.1012216 -18.159781
13.062685 6.0289292 -18.641701
12.980332 4.9924345 -18.958443
12.905059 3.9707842 -19.247953
12.839278 2.9629107 -19.500957
12.787633 1.967329 -19.699593
12.782711 0.9832859 -19.718527
12.77986 -1.9073486e-06 -19.729488
12.787437 -0.9836483 -19.700342
12.796668 -1.9687214 -19.664841
12.841208 -2.963356 -19.493532
12.906691 -3.9712906 -19.241673
12.979325 -4.9920497 -18.962313
13.088021 -6.0406246 -18.544252
13.214976 -7.115757 -18.055962
13.357416 -8.2199507 -17.508121
13.589141 -9.4078684 -16.616873
13.841171 -10.647055 -15.647526
14.223791 -12.035516 -14.175911
14.848712 -13.706505 -11.772369
16.156466 12.694366 -11.181129
15.441401 11.029572 -13.734931
15.03054 9.6624861 -15.2023
14.759631 8.4340725 -16.169827
14.548361 7.2741799 -16.924364
14.393641 6.1687012 -17.476936
14.261291 5.093318 -17.949619
14.150702 4.0430589 -18.344576
14.096731 3.0207272 -18.537327
14.051801 2.0073996 -18.697796
14.022587 1.0016117 -18.802132
13.998363 2.8610229e-06 -18.888641
14.013079 -1.0009346 -18.836086
14.059517 -2.0085049 -18.670235
14.110727 -3.0237288 -18.487343
14.172334 -4.0492396 -18.267315
14.27394 -5.0978351 -17.904438
14.410583 -6.1759644 -17.416435
14.567835 -7.2839203 -16.854811
14.792244 -8.452714 -16.053356
15.043135 -9.6705875 -15.157312
15.490936 -11.064956 -13.558026
16.270117 -12.783663 -10.775232
16.82946 10.097676 -12.784595
16.380713 8.7363796 -14.280425
16.071497 7.50003 -15.311137
15.83625 6.3344998 -16.095299
15.682528 5.2275071 -16.607704
15.564411 4.1505079 -17.001427
15.468802 3.0937605 -17.320122
15.390388 2.0520492 -17.581501
15.352506 1.0234995 -17.707781
15.35993 9.5367432e-07 -17.683029
15.375879 -1.0250607 -17.629868
15.404533 -2.0539384 -17.534351
15.448211 -3.0896416 -17.388763
15.569983 -4.1519976 -16.982853
15.693694 -5.2312322 -16.570488
15.858932 -6.3435731 -16.019686
16.121252 -7.5232506 -15.145293
16.456154 -8.7766151 -14.028956
16.954473 -10.172685 -12.367888
18.833612 9.4168034 -10.027758
18.026966 7.886797 -12.548528
17.608152 6.603055 -13.857323
17.342587 5.4195566 -14.687213
17.134659 4.2836657 -15.336986
16.99559 3.1866727 -15.771574
16.936615 2.1170759 -15.955873
16.88718 1.0554452 -16.110357
16.85832 -9.5367432e-07 -16.200546
16.843542 -1.0527215 -16.246729
16.934443 -2.1168075 -15.962664
17.026331 -3.1924381 -15.67551
17.137739 -4.2844357 -15.327362
17.38357 -5.4323664 -14.559136
17.64526 -6.6169729 -13.741359
18.114672 -7.9251695 -12.274446
19.681944 5.7888088 -10.994727
19.250294 4.5294805 -12.264288
18.934633 3.3414063 -13.192696
18.788071 2.2103596 -13.623764
18.708405 1.1004944 -13.858074
18.697727 -0 -13.889479
18.711094 -1.1006522 -13.850168
18.765839 -2.2077479 -13.689154
19.010227 -3.3547487 -12.97036
19.261137 -4.5320339 -12.232394
19.852131 -5.8388624 -10.494176
