# .PCD v0.7 - Point Cloud Data file format
VERSION 0.7
FIELDS x y z
SIZE 4 4 4
TYPE F F F
COUNT 1 1 1
WIDTH 1061
HEIGHT 1
VIEWPOINT 0 0 0 1 0 0 0
POINTS 1061
DATA ascii
-23.039396 1.2125978 -8.2528057
-22.92675 -1.9073486e-06 -8.549243
-23.121462 -1.2169192 -8.0368414
-21.582592 7.1941957 -8.9311543
-20.74136 5.7614899 -11.267906
-20.304932 4.5122066 -12.480207
-20.094404 3.3490677 -13.065008
-19.934118 2.2148991 -13.510242
-19.853436 1.1029692 -13.734366
-19.824696 -1.4305115e-06 -13.814199
-19.851122 -1.1028423 -13.740789
-19.95149 -2.2168345 -13.461992
-20.100611 -3.3501034 -13.047768
-20.368687 -4.5263748 -12.303108
-20.783033 -5.7730656 -11.152152
-21.834036 -7.2780142 -8.2326927
-19.923849 9.375927 -10.283244
-19.169287 7.8932357 -12.502541
-18.79685 6.634182 -13.597944
-18.503151 5.4421029 -14.461765
-18.318958 4.3103433 -15.003507
-18.165861 3.2057381 -15.453793
-18.087606 2.1279535 -15.683956
-18.036026 1.0609441 -15.835657
-18.020998 -4.7683716e-07 -15.879863
-18.040251 -1.0611925 -15.823239
-18.087965 -2.127996 -15.682902
-18.179985 -3.2082343 -15.412249
-18.370073 -4.3223696 -14.853168
-18.604263 -5.4718432 -14.164376
-18.844955 -6.6511626 -13.456458
-19.231684 -7.9189305 -12.319017
-19.952332 -9.3893318 -10.199469
-19.143017 11.964382 -9.0608692
-18.085724 10.173218 -12.364911
-17.566942 8.7834711 -13.9861
-17.273067 7.5569668 -14.90446
-17.013899 6.3802118 -15.714363
-16.85948 5.2685866 -16.196924
-16.71261 4.1781516 -16.655888
-16.612484 3.1148372 -16.968786
-16.549269 2.0686579 -17.166332
-16.514769 1.0321712 -17.274147
-16.502913 -3.8146973e-06 -17.311197
-16.516781 -1.0323014 -17.267855
-16.54863 -2.0685797 -17.168325
-16.751102 -3.1408334 -16.535601
-16.958202 -4.239553 -15.888418
-17.170313 -5.3657227 -15.225569
-17.38809 -6.520534 -14.545013
-17.611767 -7.7051487 -13.846028
-17.84127 -8.9206371 -13.12883
-18.090044 -10.175651 -12.351408
-19.244179 -12.027615 -8.7447348
-17.350067 12.723383 -11.049236
-16.650728 11.100484 -13.380367
-16.233852 9.7403107 -14.769954
-15.950054 8.5066957 -15.715946
-15.725953 7.3387799 -16.462952
-15.554883 6.2219529 -17.033186
-15.425651 5.141881 -17.463959
-15.314175 4.0837793 -17.835545
-15.242128 3.0484257 -18.075701
-15.183688 2.0244923 -18.2705
-15.147099 1.0098038 -18.392464
-15.138454 -9.5367432e-07 -18.421282
-15.151188 -1.0100784 -18.378838
-15.229915 -2.0306592 -18.116413
-15.412648 -3.08253 -17.507301
-15.599366 -4.1598325 -16.884907
-15.790976 -5.2636585 -16.246212
-15.987348 -6.3949413 -15.591637
-16.189049 -7.5548892 -14.919305
-16.395845 -8.7444534 -14.229981
-16.607939 -9.9647636 -13.523003
-16.825178 -11.216788 -12.798871
-17.400412 -12.760303 -10.881424
-15.973063 13.691195 -11.836143
-15.36709 12.074142 -14.000327
-15.01136 10.722399 -15.2708
-14.725238 9.4662228 -16.292664
-14.518545 8.2963114 -17.030848
-14.336209 7.1681018 -17.682053
-14.201192 6.086225 -18.164257
-14.100658 5.0359454 -18.523304
-14.023851 4.006815 -18.797607
-13.965259 2.9925556 -19.006878
-13.920214 1.9886036 -19.167751
-13.889444 0.99210262 -19.277637
-13.883838 -9.5367432e-07 -19.297661
-13.893942 -0.99242687 -19.261578
-13.958595 -1.9940853 -19.030672
-14.122847 -3.0263233 -18.444061
-14.290918 -4.0831199 -17.843803
-14.463178 -5.1654215 -17.228588
-14.639594 -6.2741098 -16.59853
-14.820708 -7.4103537 -15.951695
-15.006359 -8.5750628 -15.288654
-15.196671 -9.769289 -14.608972
-15.3915 -10.99393 -13.91315
-15.591447 -12.250422 -13.199059
-16.087873 -13.789607 -11.426109
-14.833076 14.833077 -11.832504
-14.243159 13.147533 -14.101411
-13.858731 11.726615 -15.579988
-13.587816 10.452164 -16.621965
-13.374752 9.2594433 -17.441441
-13.218693 8.1345816 -18.041668
-13.07146 7.0384784 -18.607952
-12.982104 5.9917402 -18.951624
-12.896626 4.9602399 -19.28039
-12.817721 3.9439144 -19.583866
-12.775178 2.9481173 -19.747501
-12.734039 1.9590807 -19.905725
-12.714108 0.97800732 -19.982378
-12.706617 -1.9073486e-06 -20.011189
-12.71461 -0.97804737 -19.980448
-12.732062 -1.9587784 -19.913328
-12.879039 -2.9720883 -19.348032
-13.029977 -4.0092258 -18.767504
-13.184078 -5.0708013 -18.174807
-13.341868 -6.1577854 -17.567919
-13.503743 -7.2712474 -16.945326
-13.669726 -8.4121399 -16.306921
-13.839615 -9.5812731 -15.653509
-14.013778 -10.77983 -14.983654
-14.19214 -12.008735 -14.297649
-14.375495 -13.269689 -13.592438
-14.880345 -14.880347 -11.650697
-13.784043 16.081383 -11.449283
-13.159629 14.256262 -14.051013
-12.771775 12.771776 -15.667067
-12.510622 11.468065 -16.755203
-12.313646 10.26137 -17.575941
-12.148594 9.1114445 -18.263655
-12.017602 8.011735 -18.809456
-11.900909 6.9421945 -19.295673
-11.817696 5.9088464 -19.642399
-11.740489 4.8918681 -19.964096
-11.679276 3.8930893 -20.219143
-11.635327 2.9088326 -20.402266
-11.60585 1.9343061 -20.525085
-11.5851 0.96542168 -20.611546
-11.5818 -0 -20.625296
-11.584823 -0.96540356 -20.612701
-11.605536 -1.9342604 -20.526394
-11.679419 -2.9198561 -20.218554
-11.813755 -3.9379177 -19.658817
-11.950995 -4.9795833 -19.086981
-12.091388 -6.0456963 -18.502018
-12.235349 -7.1372871 -17.902176
-12.382899 -8.2552671 -17.287384
-12.533848 -9.4003859 -16.658432
-12.688772 -10.573977 -16.012913
-12.846975 -11.776398 -15.353731
-13.009569 -13.009569 -14.676257
-13.183574 -14.282206 -13.951241
-13.871131 -16.182983 -11.086419
-12.911745 17.606922 -10.193048
-12.153564 15.468175 -13.639319
-11.751064 13.88762 -15.46887
-11.474092 12.517189 -16.727833
-11.285566 11.285566 -17.584768
-11.109964 10.099968 -18.382959
-10.97876 8.9826202 -18.979343
-10.871879 7.9068174 -19.46517
-10.767024 6.8517418 -19.941776
-10.691776 5.8318768 -20.283812
-10.629049 4.8313837 -20.568935
-10.583987 3.8487215 -20.773758
-10.54832 2.8768129 -20.93589
-10.523829 1.9134216 -21.047207
-10.509864 0.95543957 -21.110687
-10.504251 -0 -21.136204
-10.510644 -0.955513 -21.107143
-10.524393 -1.9135294 -21.044649
-10.5492 -2.8770542 -20.931889
-10.639976 -3.8690815 -20.519276
-10.76146 -4.8915725 -19.967068
-10.885618 -5.9376101 -19.402714
-11.012811 -7.0081544 -18.824564
-11.143117 -8.104085 -18.232269
-11.276435 -9.2261753 -17.626274
-11.41335 -10.375775 -17.003935
-11.552915 -11.552915 -16.369549
-11.696166 -12.759455 -15.718405
-11.843332 -13.996664 -15.049469
-12.215464 -15.546956 -13.357958
-13.054345 -17.801378 -9.5448637
-11.182643 16.77396 -12.969584
-10.77539 15.085543 -15.005852
-10.496346 13.645251 -16.40106
-10.280187 12.336226 -17.481863
-10.114188 11.125607 -18.311857
-9.9807215 9.9807224 -18.979187
-9.8643789 8.8779392 -19.560902
-9.7722139 7.817771 -20.021725
-9.6954927 6.7868423 -20.405333
-9.6256065 5.7753606 -20.754766
-9.5740623 4.7870312 -21.012482
-9.5317831 3.8127136 -21.223881
-9.5016155 2.8504839 -21.374718
-9.477356 1.8954706 -21.496017
-9.4664001 0.94664001 -21.550795
-9.4601946 -9.5367432e-07 -21.581823
-9.4676533 -0.94676685 -21.544529
-9.4814329 -1.8962889 -21.475634
-9.5079031 -2.8523693 -21.343279
-9.5320368 -3.8128157 -21.22261
-9.6132421 -4.8066216 -20.816584
-9.7222338 -5.8333397 -20.271627
-9.8337555 -6.8836269 -19.714018
-9.9479265 -7.9583397 -19.143164
-10.064812 -9.0583324 -18.558739
-10.184766 -10.184764 -17.958967
-10.307152 -11.337866 -17.34704
-10.43238 -12.518855 -16.7209
-10.561069 -13.729388 -16.077456
-10.818057 -15.145279 -14.792509
-11.25964 -16.889462 -12.584599
-10.350409 18.400724 -11.380527
-9.8271933 16.378654 -14.287276
-9.5132666 14.798409 -16.031322
-9.3085442 13.445673 -17.168661
-9.1249371 12.16658 -18.188705
-9.0006819 11.000832 -18.879011
-8.8850222 9.8722448 -19.521561
-8.784483 8.784481 -20.080112
-8.7153091 7.7469392 -20.464409
-8.6472168 6.7256131 -20.842703
-8.5827732 5.7218466 -21.200718
-8.5410395 4.7450228 -21.432577
-8.5047503 3.7798891 -21.634186
-8.4795027 2.826499 -21.774446
-8.4609013 1.8801975 -21.877792
-8.4505091 0.93894291 -21.935526
-8.4478226 -3.8146973e-06 -21.950451
-8.4525309 -0.93917179 -21.92429
-8.4647837 -1.8810625 -21.85622
-8.4846945 -2.8282318 -21.745604
-8.5088224 -3.7817001 -21.611557
-8.5461044 -4.7478375 -21.404436
-8.5989799 -5.7326541 -21.110687
-8.6958427 -6.7634344 -20.572559
-8.7949657 -7.8177481 -20.021875
-8.8964844 -8.8964882 -19.457884
-9.0006256 -10.000696 -18.87932
-9.1068907 -11.130644 -18.288961
-9.2154303 -12.287241 -17.685961
-9.326889 -13.472175 -17.066746
-9.5414085 -14.842189 -15.874976
-9.8670321 -16.445057 -14.065951
-10.454453 -18.585697 -10.802498
-8.9333248 17.866648 -13.049513
-8.5870457 16.10071 -15.213758
-8.3484468 14.609782 -16.705002
-8.1762753 13.286448 -17.781075
-8.0368185 12.055227 -18.652679
-7.9228792 10.893957 -19.364799
-7.830492 9.7881126 -19.942225
-7.7482243 8.7167511 -20.456394
-7.6837544 7.6837511 -20.859333
-7.6261721 6.6728978 -21.219223
-7.5785589 5.683919 -21.516802
-7.540648 4.712904 -21.753748
-7.5112782 3.7556391 -21.937305
-7.4881654 2.8080606 -22.081766
-7.4728637 1.8682156 -22.177401
-7.4626188 0.93282604 -22.241428
-7.4608021 -9.5367432e-07 -22.252785
-7.4633756 -0.93292236 -22.236698
-7.4738183 -1.868453 -22.171429
-7.4898863 -2.8087082 -22.071009
-7.51301 -3.7565079 -21.926483
-7.5422163 -4.7138844 -21.743946
-7.5806789 -5.6855106 -21.503551
-7.6266465 -6.673316 -21.216259
-7.6821036 -7.6821046 -20.86965
-7.7691503 -8.7402945 -20.325607
-7.8585038 -9.8231297 -19.767145
-7.9497156 -10.930859 -19.197073
-8.042819 -12.064228 -18.615175
-8.1876383 -13.304913 -17.710058
-8.3626022 -14.634555 -16.616531
-8.604207 -16.132889 -15.106501
-8.9706144 -17.941227 -12.816457
-8.1306543 19.745874 -10.806692
-7.6687675 17.528608 -14.105888
-7.4075031 15.873222 -15.972056
-7.2200465 14.440094 -17.311033
-7.0848742 13.157625 -18.276548
-6.9691281 11.947073 -19.103312
-6.8749948 10.803562 -19.77569
-6.8024607 9.7178001 -20.293793
-6.731441 8.6547079 -20.801071
-6.6726041 7.6258335 -21.22134
-6.6252322 6.6252308 -21.559708
-6.5879173 5.6467867 -21.826244
-6.5543938 4.6817093 -22.065699
-6.531817 3.7324648 -22.226961
-6.5103354 2.7901421 -22.380398
-6.4995351 1.8570127 -22.457542
-6.4896498 0.92709064 -22.528158
-6.4901357 -1.9073486e-06 -22.524685
-6.4912205 -0.92731667 -22.516937
-6.5019364 -1.8576946 -22.440392
-6.5148544 -2.7920799 -22.348124
-6.5348868 -3.7342215 -22.205038
-6.5609984 -4.6864281 -22.018524
-6.5932775 -5.651381 -21.787956
-6.6306925 -6.630692 -21.520708
-6.6813908 -7.6358762 -21.158577
-6.7385492 -8.6638489 -20.750305
-6.8012905 -9.7161312 -20.302153
-6.8817153 -10.814125 -19.727688
-6.9778919 -11.962103 -19.040707
-7.0932398 -13.173161 -18.216795
-7.2365375 -14.473074 -17.193247
-7.420753 -15.901614 -15.87742
-7.6902337 -17.577677 -13.952557
-8.2522917 -20.041283 -9.9378567
-6.7842908 19.222157 -12.347041
-6.4764876 17.270634 -14.912066
-6.284955 15.712386 -16.508169
-6.1383862 14.322899 -17.72958
-6.0275202 13.059626 -18.653463
-5.9345074 11.869015 -19.428566
-5.8551502 10.734441 -20.08988
-5.793767 9.6562767 -20.601406
-5.7400661 8.6100979 -21.048914
-5.6919112 7.5892148 -21.450203
-5.6506038 6.5923681 -21.794434
-5.6204886 5.6204872 -22.045395
-5.5929437 4.6607847 -22.274937
-5.5732656 3.7155104 -22.438919
-5.5560102 2.7780046 -22.582706
-5.5457501 1.8485842 -22.668209
-5.5384016 0.92306519 -22.72945
-5.5376072 -9.5367432e-07 -22.736069
-5.5380836 -0.92301655 -22.732098
-5.5470881 -1.8490305 -22.657059
-5.5566344 -2.7783203 -22.577513
-5.5746975 -3.716466 -22.426987
-5.5947261 -4.6622734 -22.26008
-5.621994 -5.6219954 -22.032846
-5.6552372 -6.597775 -21.755817
-5.6972685 -7.5963583 -21.405558
-5.7452407 -8.6178637 -21.005789
-5.7933149 -9.6555243 -20.605171
-5.8613529 -10.745813 -20.038191
-5.9377923 -11.875587 -19.401194
-6.0313234 -13.067867 -18.621769
-6.1452041 -14.338807 -17.672762
-6.302659 -15.756648 -16.360636
-6.4979987 -17.327997 -14.732806
-6.8512087 -19.411758 -11.78939
-5.567719 18.930243 -13.205606
-5.3446217 17.102787 -15.436583
-5.1891074 15.567322 -16.991722
-5.0822339 14.230251 -18.060455
-4.9865413 12.965005 -19.017387
-4.918982 11.805557 -19.692974
-4.8532147 10.677069 -20.350651
-4.8033357 9.6066704 -20.849442
-4.7628727 8.5731697 -21.254072
-4.7230859 7.5569367 -21.651936
-4.6875472 6.5625639 -22.007326
-4.6627178 5.5952606 -22.255621
-4.6405573 4.6405544 -22.477226
-4.6242342 3.6993885 -22.640453
-4.6109438 2.7665653 -22.773361
-4.6030431 1.8412161 -22.852364
-4.5970073 0.91939831 -22.912727
-4.5968232 -0 -22.914562
-4.5973616 -0.91946983 -22.90918
-4.6047554 -1.8419018 -22.835243
-4.6128469 -2.7677107 -22.754326
-4.6292496 -3.7033987 -22.590302
-4.6473122 -4.6473112 -22.409678
-4.6663413 -5.5996079 -22.219383
-4.692318 -6.5692458 -21.959621
-4.7237515 -7.5580025 -21.645281
-4.7623935 -8.5723095 -21.25886
-4.8059177 -9.6118355 -20.823616
-4.8588128 -10.689389 -20.29467
-4.9214945 -11.811586 -19.667854
-4.9940004 -12.984403 -18.942791
-5.0881639 -14.246858 -18.001154
-5.2082038 -15.624613 -16.800758
-5.3599496 -17.15184 -15.283298
-5.5899034 -19.005672 -12.983763
-4.7494693 21.372612 -9.514431
-4.3987436 18.69466 -13.898499
-4.2426381 16.970554 -15.849817
-4.1278443 15.479414 -17.284739
-4.0437431 14.1531 -18.336004
-3.9719269 12.90876 -19.233709
-3.9185593 11.755678 -19.900805
-3.8692911 10.64055 -20.516655
-3.8279281 9.5698195 -21.033695
-3.7958047 8.5405569 -21.435238
-3.7648544 7.5297084 -21.822113
-3.7396014 6.5442991 -22.137779
-3.7193856 5.5790777 -22.390476
-3.7023771 4.6279697 -22.603085
-3.689167 3.6891651 -22.768204
-3.6790771 2.7593069 -22.894333
-3.6721609 1.8360825 -22.980782
-3.6675787 0.91689396 -23.038063
-3.6666071 -0 -23.050207
-3.667129 -0.91678143 -23.043682
-3.6725276 -1.8362656 -22.976202
-3.6779523 -2.7584648 -22.90839
-3.6917171 -3.6917171 -22.736336
-3.706193 -4.632741 -22.555382
-3.7213426 -5.582016 -22.366013
-3.7410467 -6.5468311 -22.119713
-3.7669477 -7.5338955 -21.79595
-3.7955475 -8.539979 -21.438454
-3.8308673 -9.5771675 -20.996956
-3.8715603 -10.646793 -20.488291
-3.9196329 -11.758899 -19.887384
-3.9787278 -12.930866 -19.148697
-4.0460691 -14.161242 -18.306932
-4.1402979 -15.526119 -17.129072
-4.2497816 -16.999126 -15.760529
-4.421998 -18.793493 -13.60782
-3.5061545 21.036926 -10.44689
-3.2788239 18.58 -14.235735
-3.1633587 16.871244 -16.160156
-3.0819886 15.409941 -17.516321
-3.0214183 14.099949 -18.525826
-2.9709609 12.874163 -19.366779
-2.9272645 11.709055 -20.095058
-2.8947814 10.614201 -20.636436
-2.8633769 9.5445881 -21.159851
-2.8365824 8.5097446 -21.606422
-2.8153987 7.5077291 -21.959484
-2.797282 6.5269909 -22.261431
-2.7819195 5.563839 -22.517471
-2.7697568 4.6162624 -22.720182
-2.759584 3.6794443 -22.889732
-2.7525268 2.7525272 -23.007347
-2.747498 1.8316641 -23.091164
-2.7440934 0.91469669 -23.147907
-2.7439451 -9.5367432e-07 -23.150375
-2.7444599 -0.91481972 -23.141798
-2.7486401 -1.8324261 -23.072132
-2.7532411 -2.7532434 -22.995445
-2.7618258 -3.6824379 -22.852365
-2.7709572 -4.6182623 -22.700178
-2.783941 -5.5678821 -22.48378
-2.7995613 -6.532311 -22.223444
-2.8179955 -7.5146542 -21.916206
-2.8389847 -8.5169544 -21.566383
-2.8656886 -9.5522938 -21.121325
-2.8943388 -10.612579 -20.643814
-2.9311302 -11.724524 -20.030626
-2.9731019 -12.883439 -19.3311
-3.0254612 -14.118817 -18.458445
-3.0868659 -15.434333 -17.435026
-3.1722975 -16.918919 -16.011177
-3.2895484 -18.640776 -14.056988
-3.5410807 -21.246489 -9.8647814
-2.3064702 20.758228 -11.221043
-2.1760538 18.496454 -14.481452
-2.1016822 16.813456 -16.340742
-2.0487599 15.365697 -17.663799
-2.0096691 14.06768 -18.641073
-1.976256 12.845662 -19.476397
-1.9474001 11.6844 -20.197794
-1.9263427 10.594883 -20.72423
-1.9057357 9.5286789 -21.239401
-1.8888464 8.4998074 -21.66164
-1.8742709 7.4970808 -22.026024
-1.862421 6.5184727 -22.322271
-1.8523021 5.5569029 -22.575249
-1.844478 4.6111937 -22.770847
-1.8378316 3.675663 -22.937008
-1.8330216 2.7495308 -23.057253
-1.8294735 1.8294725 -23.145956
-1.8272974 0.91364765 -23.200363
-1.8268617 -0 -23.211254
-1.826955 -0.9134779 -23.20892
-1.8296243 -1.8296261 -23.142187
-1.8324945 -2.748745 -23.070433
-1.8387293 -3.6774626 -22.914564
-1.8457526 -4.6143818 -22.738979
-1.8543245 -5.562974 -22.524685
-1.8639367 -6.5237799 -22.284382
-1.8751609 -7.5006433 -22.003777
-1.8901998 -8.5058994 -21.627802
-1.9062324 -9.5311613 -21.226986
-1.9270289 -10.59866 -20.707075
-1.949376 -11.696257 -20.148397
-1.97837 -12.859406 -19.42355
-2.0116725 -14.08171 -18.590982
-2.0536101 -15.402077 -17.542543
-2.1067452 -16.853962 -16.214169
-2.1841171 -18.564999 -14.279867
-2.3242941 -20.918646 -10.775442
-1.1489123 20.680418 -11.437184
-1.0862129 18.465616 -14.572157
-1.049443 16.791086 -16.410648
-1.0239953 15.35993 -17.683029
-1.0032494 14.045489 -18.720325
-0.98715812 12.833055 -19.524893
-0.97375017 11.684999 -20.19529
-0.96183854 10.580223 -20.790871
-0.95247304 9.5247307 -21.25914
-0.94425964 8.4983358 -21.669811
-0.93620574 7.4896464 -22.072508
-0.93046743 6.5132685 -22.359425
-0.92521912 5.5513144 -22.621843
-0.9214468 4.607234 -22.810455
-0.91801667 3.6720648 -22.98196
-0.91560596 2.7468166 -23.102499
-0.91395485 1.8279085 -23.185055
-0.91298771 0.91298485 -23.233408
-0.9129644 -1.9073486e-06 -23.234575
-0.91326755 -0.91326809 -23.219418
-0.91437036 -1.828743 -23.164282
-0.91597867 -2.7479372 -23.083862
-0.91890526 -3.6756229 -22.937534
-0.92266464 -4.6133251 -22.749563
-0.92681247 -5.5608773 -22.542173
-0.93162835 -6.5214009 -22.30138
-0.93767333 -7.5013866 -21.999132
-0.94501662 -8.5051517 -21.631962
-0.95298636 -9.5298643 -21.233477
-0.96268731 -10.58956 -20.748434
-0.97431612 -11.691795 -20.16699
-0.98796415 -12.843537 -19.484587
-1.0050855 -14.071198 -18.628521
-1.0253003 -15.379504 -17.617783
-1.0523461 -16.83754 -16.265491
-1.0893601 -18.519121 -14.414789
-1.1623192 -20.921747 -10.766838
0 20.659767 -11.494549
0 18.443892 -14.636053
0 16.793112 -16.404318
0 15.362322 -17.675049
0 14.041771 -18.733612
0 12.836911 -19.510052
0 11.688715 -20.179817
0 10.573429 -20.821753
0 9.5258598 -21.253504
0 8.5004568 -21.658033
0 7.4944 -22.042801
0 6.5155678 -22.343006
0 5.5538349 -22.600821
0 4.6096077 -22.786701
0 3.6755247 -22.938713
0 2.7491636 -23.063389
0 1.8286638 -23.166229
0 0.91327858 -23.218899
0 -9.5367432e-07 -23.206589
0 -0.91398144 -23.183758
0 -1.8301077 -23.130093
0 -2.7484312 -23.075651
0 -3.6748552 -22.947109
0 -4.6122665 -22.760143
0 -5.5587959 -22.559515
0 -6.5237985 -22.284245
0 -7.5030255 -21.988884
0 -8.5062752 -21.625721
0 -9.5364752 -21.200436
0 -10.590004 -20.746414
0 -11.694944 -20.153858
0 -12.845074 -19.478672
0 -14.069792 -18.633541
0 -15.391322 -17.578392
0 -16.838308 -16.263081
0 -18.532232 -14.376226
0 -20.946785 -10.697281
1.1548034 20.786459 -11.142624
1.0880637 18.497082 -14.479614
1.0522807 16.836491 -16.268761
1.0260161 15.390243 -17.581989
1.0053084 14.074316 -18.617374
0.98842847 12.849566 -19.461376
0.97500688 11.700081 -20.13245
0.96362412 10.599863 -20.701591
0.95323759 9.5323772 -21.220917
0.94513875 8.5062466 -21.62586
0.93839782 7.5071812 -21.962902
0.93228954 6.5260258 -22.268318
0.92634827 5.5580893 -22.565384
0.92292136 4.6146069 -22.736732
0.9201743 3.6806955 -22.874084
0.9176659 2.7529984 -22.9995
0.91533256 1.8306627 -23.116169
0.91381985 0.91381836 -23.191799
0.91426897 -0 -23.169346
0.914729 -0.91473198 -23.146349
0.91575968 -1.8315191 -23.09481
0.91765285 -2.7529573 -23.000156
0.92028743 -3.6811495 -22.868425
0.92338473 -4.6169252 -22.71356
0.92702067 -5.5621228 -22.531763
0.93244082 -6.5270844 -22.260756
0.93822557 -7.5058041 -21.971519
0.94579142 -8.5121231 -21.593222
0.95431167 -9.5431194 -21.16721
0.96386361 -10.602501 -20.689611
0.97584647 -11.710158 -20.090475
0.98969901 -12.866088 -19.397848
1.0065976 -14.092369 -18.552914
1.0274247 -15.411369 -17.511566
1.0550508 -16.880814 -16.130253
1.0924886 -18.572308 -14.258366
1.1692744 -21.046942 -10.419073
2.344708 21.102371 -10.265097
2.1918972 18.631126 -14.085366
2.1125534 16.900427 -16.06896
2.0579107 15.43433 -17.435026
2.0167089 14.11696 -18.465078
1.9823608 12.885344 -19.323776
1.9534642 11.720785 -20.046194
1.932073 10.626402 -20.580971
1.9111565 9.5557804 -21.10388
1.8925006 8.5162516 -21.570278
1.8803376 7.5213509 -21.874355
1.8683299 6.5391541 -22.174549
1.8569618 5.5708847 -22.458748
1.8486683 4.6216726 -22.666088
1.842941 3.6858807 -22.809269
1.8378893 2.7568321 -22.935566
1.8343745 1.8343725 -23.023434
1.832458 0.91622925 -23.071346
1.831462 -9.5367432e-07 -23.096243
1.8309515 -0.9154768 -23.109005
1.8342649 -1.8342657 -23.026176
1.8386505 -2.7579784 -22.916534
1.8437331 -3.6874685 -22.789473
1.8503212 -4.6258039 -22.624767
1.8587369 -5.5762124 -22.414375
1.8694965 -6.5432401 -22.145382
1.8810245 -7.5240979 -21.857185
1.8962027 -8.5329113 -21.477732
1.9130822 -9.5654125 -21.05574
1.9334195 -10.63381 -20.54731
1.9579563 -11.74774 -19.933884
1.9855224 -12.905895 -19.244738
2.0185237 -14.129667 -18.419703
2.0621173 -15.465879 -17.329866
2.1169305 -16.935448 -15.959529
2.2005298 -18.704502 -13.869552
2.3897765 -21.507988 -9.1383848
3.6507435 21.904457 -8.0370731
3.3139715 18.779171 -13.649938
3.1855063 16.989365 -15.791026
3.1035964 15.517982 -17.156193
3.0372248 14.173716 -18.262381
2.9861872 12.940145 -19.113008
2.9418209 11.767283 -19.852448
2.9068437 10.658427 -20.435398
2.8753238 9.5844107 -20.960733
2.8501902 8.5505695 -21.379631
2.8272874 7.5394335 -21.761337
2.8091893 6.5547762 -22.062971
2.7946665 5.5893326 -22.305017
2.7821438 4.6369066 -22.513731
2.769733 3.692977 -22.720581
2.7623 2.7623005 -22.844465
2.7589767 1.8393173 -22.899851
2.7559526 0.91864872 -22.950256
2.7544506 -0 -22.975281
2.7547729 -0.91825771 -22.969915
2.7585354 -1.8390245 -22.907209
2.7630033 -2.7630024 -22.832739
2.7703528 -3.6938057 -22.710249
2.7828176 -4.638031 -22.502506
2.7955081 -5.5910192 -22.290993
2.8112016 -6.5594707 -22.029438
2.8308604 -7.5489607 -21.70179
2.8529778 -8.5589352 -21.333164
2.8797748 -9.5992508 -20.886547
2.9100416 -10.670151 -20.382101
2.9480999 -11.792398 -19.747799
2.9896271 -12.955054 -19.055679
3.042892 -14.200163 -18.167934
3.1083224 -15.541611 -17.077423
3.1980205 -17.05611 -15.582453
3.3281138 -18.859314 -13.414232
4.4784417 19.033375 -12.902278
4.2906036 17.162413 -15.250249
4.1659293 15.622234 -16.808681
4.0753379 14.263682 -17.941071
4.0000296 13.000094 -18.882427
3.9432619 11.829786 -19.592022
3.8892224 10.695361 -20.267513
3.8498278 9.6245689 -20.759949
3.8171678 8.588625 -21.168201
3.7850568 7.5701122 -21.569586
3.7556283 6.5723515 -21.937443
3.7391777 5.6087646 -22.143078
3.7228708 4.6535854 -22.346912
3.7067053 3.7067041 -22.548981
3.6973157 2.7729855 -22.666351
3.6885755 1.8442888 -22.775604
3.6843419 0.9210844 -22.828524
3.6845002 -1.9073486e-06 -22.826542
3.6870856 -0.92177391 -22.794226
3.6917803 -1.84589 -22.735538
3.6976979 -2.7732754 -22.661575
3.7079759 -3.7079792 -22.533098
3.7227955 -4.6534958 -22.347851
3.7377446 -5.6066198 -22.160988
3.7602906 -6.5805082 -21.879164
3.7870057 -7.5740089 -21.545227
3.8156176 -8.5851402 -21.187578
3.854254 -9.6356354 -20.70462
3.8937986 -10.707947 -20.21031
3.9465261 -11.839579 -19.551222
4.0045838 -13.014898 -18.8255
4.0854521 -14.299083 -17.814646
4.1768241 -15.663092 -16.672497
4.3000774 -17.20031 -15.131829
4.5071039 -19.155193 -12.543992
5.7008858 19.383011 -11.87394
5.4221702 17.350943 -14.661098
5.2438121 15.731438 -16.444674
5.1333699 14.373436 -17.549093
5.0300775 13.0782 -18.582024
4.9589567 11.901497 -19.293228
4.8920341 10.762473 -19.962456
4.836585 9.6731682 -20.516945
4.793962 8.6291313 -20.943174
4.7535443 7.6056695 -21.347353
4.7222404 6.6111355 -21.660391
4.6934538 5.632143 -21.948259
4.6715841 4.6715832 -22.166954
4.6548672 3.7238932 -22.334122
4.6434898 2.7860937 -22.447895
4.6323414 1.8529367 -22.559383
4.6236758 0.92473507 -22.646034
4.623291 -9.5367432e-07 -22.649887
4.6265473 -0.92531013 -22.617321
4.6320214 -1.852807 -22.562582
4.6435304 -2.7861176 -22.447495
4.6568074 -3.7254496 -22.314724
4.6755204 -4.6755209 -22.127592
4.6969333 -5.6363196 -21.913465
4.7254996 -6.6156979 -21.627802
4.7579155 -7.6126652 -21.303642
4.7957625 -8.6323738 -20.925171
4.8452649 -9.6905327 -20.430147
4.8983035 -10.77627 -19.899759
4.9679437 -11.923065 -19.203363
5.0458665 -13.119255 -18.424131
5.1476574 -14.413442 -17.406225
5.2650189 -15.795056 -16.232607
5.446063 -17.427404 -14.422164
5.7497954 -19.549305 -11.384841
7.1177173 20.166866 -9.5684814
6.6139131 17.637098 -13.766856
6.3790736 15.947685 -15.723848
6.2181458 14.50901 -17.064907
6.0950618 13.205965 -18.090614
5.9919267 11.983852 -18.950075
5.9110723 10.836965 -19.623859
5.846056 9.7434254 -20.165663
5.7824545 8.6736813 -20.695675
5.7372174 7.6496239 -21.072645
5.7018108 6.652112 -21.367706
5.6668382 5.6668358 -21.659143
5.6322923 4.6935768 -21.947027
5.6134787 3.7423182 -22.103806
5.6004214 2.8002119 -22.212616
5.587441 1.8624802 -22.320787
5.5818362 0.93030357 -22.367496
5.5802393 -9.5367432e-07 -22.380802
5.5786271 -0.92977142 -22.394234
5.5841932 -1.8613987 -22.347855
5.5993662 -2.7996826 -22.221413
5.6152911 -3.7435265 -22.088703
5.6392503 -4.6993732 -21.889046
5.6690178 -5.6690183 -21.64098
5.7025852 -6.6530185 -21.361252
5.7449841 -7.6599789 -21.007927
5.7921333 -8.6881981 -20.615021
5.8525767 -9.7542934 -20.111324
5.9214954 -10.856073 -19.537001
6.0057173 -12.011435 -18.835155
6.1039824 -13.225294 -18.016273
6.2321548 -14.541694 -16.948175
6.4033794 -16.008448 -15.521299
6.6470165 -17.72538 -13.490986
7.8824649 18.017061 -12.579478
7.5459809 16.169956 -14.982933
7.3426533 14.685308 -16.435274
7.1810603 13.33625 -17.589514
7.0592766 12.101616 -18.459393
6.9494572 10.920573 -19.243818
6.8745751 9.8208199 -19.778688
6.8012695 8.7444897 -20.302296
6.741291 7.7043324 -20.730715
6.6938381 6.6938386 -21.069664
6.6525254 5.7021627 -21.364758
6.6204624 4.7289 -21.593777
6.594841 3.7684793 -21.776787
6.5701065 2.8157578 -21.953465
6.5534973 1.8724279 -22.0721
6.5519347 0.93598843 -22.083261
6.5507913 -0 -22.091427
6.5496678 -0.93566799 -22.099455
6.5623178 -1.8749485 -22.009102
6.5760908 -2.818326 -21.910723
6.5901723 -3.7658138 -21.810139
6.619101 -4.7279325 -21.603502
6.6527615 -5.7023659 -21.363075
6.6922874 -6.6922884 -21.080746
6.7471266 -7.7110019 -20.689035
6.8028512 -8.746521 -20.291002
6.8783326 -9.8261909 -19.75185
6.9613109 -10.939205 -19.159147
7.0715528 -12.122663 -18.371706
7.1976023 -13.366975 -17.471354
7.3697729 -14.739544 -16.241564
7.5903473 -16.265032 -14.666029
7.958683 -18.191275 -12.03506
9.3968029 18.793604 -10.152776
8.8174028 16.532629 -13.774026
8.5259075 14.92034 -15.595871
8.3172436 13.515521 -16.900024
8.1611137 12.241669 -17.875835
8.0345116 11.047452 -18.667099
7.92627 9.907835 -19.343611
7.8401489 8.8201675 -19.881863
7.7741237 7.7741222 -20.294525
7.7096853 6.7459774 -20.697262
7.6556511 5.7417345 -21.034973
7.6249752 4.7656088 -21.226704
7.5948343 3.7974148 -21.415083
7.5661316 2.8372974 -21.594471
7.5487175 1.8871775 -21.703314
7.5387926 0.94234943 -21.765341
7.5344687 -1.9073486e-06 -21.792366
7.5389256 -0.94236755 -21.764513
7.555119 -1.8887825 -21.6633
7.57165 -2.8393688 -21.559982
7.5911393 -3.7955704 -21.438173
7.6186118 -4.7616348 -21.266472
7.6639466 -5.7479596 -20.983131
7.7202272 -6.7552009 -20.631378
7.7829595 -7.7829618 -20.239298
7.8503089 -8.8316002 -19.818363
7.9449816 -9.9312296 -19.226664
8.0438242 -11.060257 -18.608896
8.1812115 -12.271818 -17.750223
8.3374166 -13.548303 -16.773937
8.542202 -14.948854 -15.494035
8.8658934 -16.623552 -13.470959
9.608551 -19.217102 -8.8293505
10.219703 17.032839 -12.106668
9.7836094 15.218948 -14.52941
9.5089245 13.735111 -16.055439
9.3024158 12.403221 -17.202707
9.1466923 11.179289 -18.067841
9.0237885 10.026429 -18.750643
8.9086609 8.9086599 -19.390234
8.8321095 7.8507628 -19.815523
8.7612057 6.81427 -20.209425
8.7007799 5.8005166 -20.545135
8.6510916 4.8061609 -20.821178
8.6104317 3.8268585 -21.047064
8.5853176 2.8617716 -21.186584
8.5705328 1.904561 -21.268728
8.5580988 0.95090008 -21.337799
8.5467606 -0 -21.400795
8.5534487 -0.95038414 -21.36364
8.5649824 -1.9033308 -21.299562
8.5824938 -2.8608332 -21.202274
8.6118908 -3.827508 -21.038956
8.6517372 -4.8065228 -20.817591
8.7016678 -5.8011127 -20.540197
8.7707834 -6.8217211 -20.156219
8.8420038 -7.8595595 -19.760548
8.9299469 -8.9299469 -19.27198
9.0378094 -10.04201 -18.672739
9.1622009 -11.198246 -17.981682
9.3216658 -12.428888 -17.095764
9.5374489 -13.776317 -15.896967
9.8290939 -15.289701 -14.276716
10.311167 -17.185278 -11.598538
11.17445 15.644231 -13.010547
10.789225 14.02599 -14.93667
10.525286 12.630342 -16.256369
10.322127 11.354338 -17.272161
10.163569 10.163569 -18.064949
10.035498 9.0319462 -18.705309
9.9310732 7.9448581 -19.227427
9.8364906 6.8855419 -19.700342
9.7720661 5.8632393 -20.022469
9.7172441 4.8586211 -20.296577
9.6652975 3.8661184 -20.556313
9.6329241 2.8898773 -20.718178
9.6113482 1.9222708 -20.826057
9.5960732 0.95960712 -20.902433
9.5965014 -2.8610229e-06 -20.900288
9.6035757 -0.96035957 -20.864922
9.6166611 -1.9233351 -20.799496
9.6374245 -2.8912277 -20.695673
9.6763401 -3.8705387 -20.501099
9.7190924 -4.8595476 -20.287333
9.7728367 -5.8637009 -20.018612
9.8516064 -6.8961225 -19.624763
9.9316864 -7.9453497 -19.224365
10.047906 -9.0431156 -18.643269
10.17665 -10.176649 -17.999548
10.344656 -11.379123 -17.159517
10.55165 -12.661982 -16.124546
10.818494 -14.064042 -14.790327
11.248581 -15.748013 -12.639893
12.971119 16.508696 -9.9231682
12.186239 14.401919 -13.490798
11.82865 12.90398 -15.116205
11.566238 11.566238 -16.308983
11.364984 10.331804 -17.223778
11.196687 9.1609221 -17.988766
11.082141 8.0597382 -18.509432
10.969914 6.980854 -19.01955
10.884011 5.9367328 -19.410015
10.81885 4.9176602 -19.706205
10.761657 3.9133282 -19.966175
10.728164 2.9258604 -20.11842
10.695233 1.9445858 -20.268101
10.672791 0.97025108 -20.37011
10.67041 -2.8610229e-06 -20.380932
10.678264 -0.97075081 -20.345234
10.693714 -1.9443111 -20.275002
10.731871 -2.926877 -20.101566
10.772366 -3.9172211 -19.9175
10.824839 -4.9203835 -19.678986
10.899963 -5.9454355 -19.337507
10.985744 -6.9909291 -18.947596
11.095444 -8.0694141 -18.448961
11.225623 -9.1846008 -17.857237
11.391424 -10.355844 -17.103596
11.584064 -11.584067 -16.227955
11.871411 -12.950628 -14.921837
12.286648 -14.520586 -13.034397
13.313716 -16.944729 -8.3659039
14.039148 15.209076 -10.386345
13.306309 13.306308 -13.439841
12.9364 11.858366 -14.981127
12.659739 10.54978 -16.133884
12.458277 9.3437061 -16.973309
12.29076 8.1938362 -17.671299
12.154941 7.0903816 -18.237209
12.062232 6.0311131 -18.623497
11.972967 4.9887328 -18.995434
11.89695 3.9656463 -19.312176
11.860668 2.9651661 -19.463348
11.829134 1.9715214 -19.594738
11.808914 0.9840765 -19.678989
11.805737 2.8610229e-06 -19.692223
11.807109 -0.98392582 -19.686508
11.829496 -1.9715815 -19.593231
11.864639 -2.9661598 -19.446802
11.899992 -3.9666648 -19.299494
11.976866 -4.9903641 -18.979191
12.060273 -6.0301371 -18.631659
12.163248 -7.0952287 -18.202599
12.305916 -8.2039433 -17.608143
12.463625 -9.3477201 -16.951027
12.695029 -10.579194 -15.986842
12.971421 -11.890471 -14.835204
13.373816 -13.373816 -13.158562
14.219187 -15.404119 -9.6361818
15.274934 14.099938 -10.133049
14.483787 12.25551 -13.175923
14.102727 10.848249 -14.641541
13.798397 9.5527353 -15.812037
13.608191 8.3742695 -16.543602
13.427766 7.2303338 -17.237543
13.2973 6.1372142 -17.739334
13.201467 5.0774875 -18.107925
13.121474 4.0373759 -18.415586
13.0655 3.0151148 -18.630873
13.010001 2.0015345 -18.844334
12.984442 0.99880219 -18.942638
12.988956 9.5367432e-07 -18.925274
12.993434 -0.99949455 -18.908047
13.024906 -2.0038328 -18.787008
13.072357 -3.0166974 -18.604494
13.125756 -4.0386944 -18.399117
13.216856 -5.0834069 -18.048733
13.3205 -6.1479235 -17.650101
13.458261 -7.2467556 -17.120251
13.631334 -8.3885126 -16.454586
13.841445 -9.5825386 -15.646468
14.130591 -10.869685 -14.534367
14.583499 -12.339886 -12.792417
15.503213 -14.310658 -9.2550564
16.861279 13.248144 -8.6639442
15.835408 11.311006 -12.327766
15.347356 9.8661575 -14.070807
15.059324 8.6053276 -15.099493
14.805854 7.4029255 -16.004745
14.659982 6.2828469 -16.525721
14.520885 5.1860318 -17.022491
14.409199 4.1169128 -17.42137
14.346479 3.074245 -17.64537
14.291961 2.041708 -17.84008
14.269329 1.0192385 -17.920906
14.257996 -9.5367432e-07 -17.961388
14.256416 -1.0183163 -17.967026
14.300444 -2.042923 -17.809782
14.345795 -3.0741 -17.64782
14.414685 -4.1184845 -17.401779
14.531844 -5.1899438 -16.983351
14.650876 -6.2789459 -16.558237
14.853932 -7.4269676 -15.83303
15.082211 -8.6184072 -15.017752
15.4238 -9.9153004 -13.797798
15.864068 -11.331478 -12.225412
17.409134 10.445476 -10.852352
16.806959 8.9637108 -12.859597
16.431843 7.6681919 -14.109989
16.18655 6.4746199 -14.92763
15.972273 5.3240895 -15.641888
15.851798 4.2271461 -16.043468
15.760969 3.1521916 -16.346233
15.675653 2.0900869 -16.630621
15.644969 1.0429983 -16.732903
15.627647 -0 -16.790638
15.635999 -1.0424013 -16.762802
15.697571 -2.0930109 -16.557558
15.764316 -3.1528645 -16.335081
15.868264 -4.2315392 -15.988584
16.019392 -5.3397965 -15.484822
16.192196 -6.476882 -14.908808
16.465302 -7.6838083 -13.998457
16.8277 -8.9747725 -12.790462
17.530518 -10.518311 -10.44774
18.583616 8.130332 -10.808996
18.070555 6.7764559 -12.412318
17.734108 5.5419073 -13.463709
17.525509 4.3813782 -14.115581
17.371372 3.2571311 -14.597257
17.233122 2.154139 -15.029289
17.218887 1.07618 -15.073773
17.204678 -1.9073486e-06 -15.118179
17.225628 -1.0766039 -15.052711
17.294184 -2.1617737 -14.838471
17.38052 -3.2588468 -14.568674
17.557358 -4.3893385 -14.016047
17.776291 -5.5550909 -13.331892
18.113016 -6.7923803 -12.279623
18.644173 -8.1568298 -10.619753
19.848026 4.6701221 -10.506248
19.517572 3.4442763 -11.47817
19.25036 2.2647486 -12.26409
19.172848 1.1278133 -12.492069
19.165796 9.5367432e-07 -12.51281
19.196594 -1.1292129 -12.422223
19.32946 -2.2740541 -12.031448
19.520288 -3.4447594 -11.470182
19.928421 -4.6890392 -10.269794
