# .PCD v0.7 - Point Cloud Data file format
VERSION 0.7
FIELDS x y z
SIZE 4 4 4
TYPE F F F
COUNT 1 1 1
WIDTH 1054
HEIGHT 1
VIEWPOINT 0 0 0 1 0 0 0
POINTS 1054
DATA ascii
-22.854683 -9.5367432e-07 -8.7388935
-21.866592 7.2888603 -8.1422653
-20.762026 5.7672291 -11.210499
-20.36833 4.5262938 -12.304102
-20.11017 3.3516955 -13.021214
-19.979496 2.219944 -13.384195
-19.850443 1.1027999 -13.74268
-19.851122 -0 -13.740791
-19.903299 -1.1057391 -13.595856
-19.972401 -2.2191563 -13.403906
-20.146748 -3.3577938 -12.919606
-20.417938 -4.5373201 -12.1663
-20.812975 -5.7813816 -11.068978
-19.921309 9.374733 -10.290709
-19.192286 7.9027052 -12.434898
-18.763329 6.6223488 -13.696539
-18.497395 5.4404111 -14.478691
-18.32037 4.3106747 -14.999353
-18.192499 3.2104387 -15.375446
-18.111797 2.1307988 -15.612805
-18.032818 1.0607548 -15.845098
-18.036205 -4.7683716e-07 -15.835133
-18.069267 -1.0628996 -15.737897
-18.111437 -2.1307564 -15.613863
-18.209091 -3.2133698 -15.326651
-18.331049 -4.31319 -14.967942
-18.520124 -5.4470963 -14.41184
-18.834057 -6.6473169 -13.488509
-19.232765 -7.9193759 -12.315836
-20.068701 -9.4440947 -9.8572044
-18.990379 11.868984 -9.5378599
-18.073599 10.166396 -12.402803
-17.575397 8.7876949 -13.959681
-17.265306 7.5535722 -14.928713
-17.027964 6.3854876 -15.67041
-16.873346 5.2729201 -16.153587
-16.721565 4.1803908 -16.627907
-16.624283 3.1170526 -16.931911
-16.574198 2.0717735 -17.088428
-16.527225 1.0329514 -17.235222
-16.51853 -2.8610229e-06 -17.26239
-16.534548 -1.0334091 -17.212334
-16.564814 -2.0706029 -17.117752
-16.642981 -3.1205587 -16.87348
-16.754482 -4.1886196 -16.52504
-16.878214 -5.2744412 -16.138382
-17.070868 -6.4015746 -15.536335
-17.305983 -7.5713682 -14.801599
-17.619177 -8.8095903 -13.822865
-18.115946 -10.190223 -12.270464
-19.316805 -12.073002 -8.5177822
-17.322924 12.703474 -11.139723
-16.61371 11.075804 -13.503764
-16.236256 9.7417526 -14.761948
-15.93547 8.4989176 -15.764562
-15.73718 7.3440151 -16.425529
-15.543414 6.2173638 -17.071419
-15.430236 5.1434107 -17.448679
-15.327303 4.0872808 -17.791784
-15.245691 3.0491362 -18.063829
-15.197886 2.0263872 -18.223177
-15.167325 1.0111561 -18.325045
-15.15918 -9.5367432e-07 -18.352196
-15.173905 -1.0115948 -18.303118
-15.194633 -2.0259533 -18.23402
-15.253302 -3.050663 -18.038454
-15.333049 -4.0888147 -17.772635
-15.423334 -5.1411099 -17.471682
-15.57742 -6.2309685 -16.958065
-15.750016 -7.3500085 -16.382742
-15.969261 -8.5169401 -15.65193
-16.272816 -9.76369 -14.640078
-16.672812 -11.115207 -13.306755
-17.428429 -12.780851 -10.788033
-15.940962 13.66368 -11.950787
-15.36337 12.071218 -14.013615
-15.015612 10.725436 -15.25561
-14.73805 9.4744587 -16.246901
-14.538597 8.3077679 -16.959236
-14.358091 7.1790442 -17.603897
-14.22051 6.0945029 -18.095264
-14.122714 5.0438251 -18.444536
-14.032063 4.0091581 -18.768288
-13.970671 2.9937143 -18.987545
-13.936057 1.9908648 -19.11116
-13.901615 0.99297142 -19.234173
-13.886234 -0 -19.289104
-13.91196 -0.99370956 -19.197224
-13.938256 -1.9911814 -19.103312
-13.97986 -2.9956846 -18.954721
-14.047025 -4.0134354 -18.714851
-14.125192 -5.0447106 -18.435678
-14.238845 -6.1023622 -18.029779
-14.374537 -7.1872697 -17.545162
-14.535596 -8.306057 -16.969955
-14.768534 -9.4940577 -16.138035
-15.036208 -10.740148 -15.182054
-15.448443 -12.138063 -13.709782
-16.060347 -13.76601 -11.524413
-14.80185 14.801849 -11.9526
-14.243354 13.147711 -14.100667
-13.84511 11.715091 -15.632374
-13.604827 10.46525 -16.556538
-13.374924 9.2595596 -17.440784
-13.224125 8.1379204 -18.020777
-13.091378 7.0492015 -18.53134
-12.965971 5.9842906 -19.013678
-12.899329 4.9612799 -19.269991
-12.83337 3.9487295 -19.523682
-12.773032 2.9476223 -19.755749
-12.743385 1.9605188 -19.869772
-12.727259 0.97902012 -19.931801
-12.714649 -2.8610229e-06 -19.980299
-12.730977 -0.97930622 -19.9175
-12.747346 -1.9611292 -19.854542
-12.774201 -2.9478941 -19.751249
-12.83589 -3.9495044 -19.513988
-12.906412 -4.9640045 -19.242748
-12.991256 -5.9959655 -18.916428
-13.112675 -7.0606689 -18.449434
-13.240111 -8.1477604 -17.959291
-13.417862 -9.2892876 -17.275637
-13.627783 -10.482913 -16.468246
-13.893202 -11.755787 -15.447408
-14.257236 -13.160526 -14.047274
-14.888078 -14.888079 -11.62096
-13.765815 16.060116 -11.525232
-13.142209 14.237392 -14.123594
-12.795727 12.795725 -15.567268
-12.522955 11.479373 -16.703819
-12.31777 10.264809 -17.558754
-12.151766 9.1138229 -18.250435
-12.019584 8.0130539 -18.801197
-11.909093 6.9469705 -19.261578
-11.813719 5.906858 -19.658966
-11.749204 4.8954992 -19.927776
-11.68631 3.8954363 -20.189838
-11.637816 2.9094534 -20.391891
-11.617617 1.9362688 -20.476063
-11.598356 0.96652699 -20.556313
-11.582981 9.5367432e-07 -20.620375
-11.596162 -0.96634865 -20.565453
-11.621042 -1.9368401 -20.461788
-11.645994 -2.9114962 -20.357822
-11.696539 -3.8988481 -20.147217
-11.754282 -4.8976202 -19.906618
-11.818671 -5.9093356 -19.63833
-11.922071 -6.9545422 -19.207502
-12.027296 -8.018198 -18.769064
-12.166774 -9.1250792 -18.187906
-12.338549 -10.282125 -17.472176
-12.538568 -11.493689 -16.638762
-12.81071 -12.81071 -15.50484
-13.189786 -14.288934 -13.925353
-13.861222 -16.171425 -11.127699
-12.891996 17.579994 -10.282815
-12.156444 15.471837 -13.626231
-11.757425 13.895139 -15.439954
-11.495964 12.541051 -16.628414
-11.269579 11.269577 -17.657442
-11.118339 10.107579 -18.344891
-10.972226 8.9772739 -19.009041
-10.867239 7.9034457 -19.486256
-10.7806 6.8603811 -19.880074
-10.695331 5.8338151 -20.267662
-10.640135 4.8364248 -20.518547
-10.598057 3.853837 -20.709812
-10.556341 2.8790007 -20.899429
-10.533192 1.9151239 -21.00465
-10.517827 0.95616245 -21.074495
-10.511642 -0 -21.102604
-10.520483 -0.95640945 -21.06242
-10.538523 -1.9160976 -20.980419
-10.560308 -2.8800859 -20.881393
-10.597835 -3.8537588 -20.710823
-10.647655 -4.8398433 -20.484362
-10.705647 -5.8394461 -20.22076
-10.78855 -6.8654432 -19.843933
-10.886923 -7.9177642 -19.396778
-10.990075 -8.9918823 -18.927908
-11.124907 -10.113556 -18.315035
-11.299217 -11.299218 -17.522715
-11.50624 -12.552262 -16.581709
-11.788866 -13.932294 -15.297043
-12.185442 -15.508744 -13.494424
-11.203158 16.804735 -12.867007
-10.782681 15.095752 -14.96939
-10.49573 13.644448 -16.404146
-10.2838 12.340558 -17.463797
-10.11441 11.125849 -18.310747
-9.9814024 9.9814014 -18.975784
-9.8677673 8.8809881 -19.543961
-9.7753305 7.8202624 -20.006145
-9.6962814 6.7873969 -20.401386
-9.6298399 5.7779026 -20.733597
-9.5814734 4.7907362 -20.975428
-9.5411367 3.8164549 -21.177113
-9.5011663 2.8503475 -21.376965
-9.4814329 1.896287 -21.475636
-9.4754028 0.94754124 -21.505783
-9.4698544 -9.5367432e-07 -21.533525
-9.4719725 -0.94719791 -21.522936
-9.4880571 -1.8976135 -21.442513
-9.5082407 -2.8524723 -21.341593
-9.5384216 -3.8153696 -21.190685
-9.5876102 -4.7938061 -20.944744
-9.6402531 -5.7841516 -20.681528
-9.7039709 -6.7927833 -20.362942
-9.7875786 -7.8300662 -19.944899
-9.8744583 -8.8870144 -19.510506
-9.9868851 -9.986886 -18.948372
-10.123096 -11.135405 -18.267319
-10.297785 -12.357343 -17.393871
-10.509475 -13.662317 -16.335423
-10.803677 -15.125146 -14.864417
-11.241705 -16.86256 -12.674273
-10.336188 18.375444 -11.459531
-9.8286943 16.381155 -14.27894
-9.5327406 14.828705 -15.923128
-9.3019381 13.436131 -17.205364
-9.1398811 12.186504 -18.105682
-8.9892559 10.986868 -18.942482
-8.8876123 9.8751249 -19.507174
-8.7909355 8.7909336 -20.04427
-8.7071095 7.7396502 -20.50997
-8.6504965 6.7281647 -20.824478
-8.5945911 5.7297258 -21.135069
-8.5479212 4.7488413 -21.394352
-8.514801 3.7843533 -21.57835
-8.4894695 2.8298225 -21.719078
-8.4691391 1.8820305 -21.832024
-8.461297 0.94014263 -21.875591
-8.4534435 -0 -21.91922
-8.4531221 -0.93923855 -21.921003
-8.4728308 -1.8828497 -21.811516
-8.4942999 -2.8314323 -21.692245
-8.5158768 -3.7848349 -21.572365
-8.5567083 -4.7537284 -21.34553
-8.5992088 -5.7328076 -21.109411
-8.6436815 -6.7228622 -20.862343
-8.718956 -7.7501826 -20.444151
-8.7960072 -8.7960062 -20.016088
-8.8905859 -9.8784294 -19.490652
-9.007287 -11.008905 -18.842312
-9.1484251 -12.197902 -18.058207
-9.3195667 -13.461597 -17.107426
-9.544961 -14.847717 -15.855236
-9.8604479 -16.43408 -14.102529
-8.9257069 17.85141 -13.097134
-8.5661612 16.061552 -15.34429
-8.3518324 14.615705 -16.683842
-8.173914 13.282607 -17.795837
-8.0393286 12.05899 -18.636997
-7.9202709 10.890373 -19.3811
-7.8323021 9.7903767 -19.930906
-7.7489238 8.7175388 -20.452023
-7.6827683 7.6827674 -20.865498
-7.6313705 6.6774487 -21.186728
-7.5806789 5.6855087 -21.503551
-7.5402503 4.7126551 -21.756233
-7.5159049 3.7579527 -21.908392
-7.4937015 2.8101377 -22.047165
-7.4719529 1.8679876 -22.183088
-7.4667954 0.93334961 -22.215324
-7.46738 9.5367432e-07 -22.211668
-7.4679651 -0.93349552 -22.208012
-7.4808545 -1.8702154 -22.127457
-7.497498 -2.8115616 -22.023434
-7.5142159 -3.7571087 -21.918945
-7.5457749 -4.7161093 -21.721701
-7.5896621 -5.6922474 -21.447407
-7.6340642 -6.6798048 -21.169899
-7.6864843 -7.6864839 -20.842272
-7.7515836 -8.7205315 -20.435398
-7.8353534 -9.7941933 -19.911839
-7.9280028 -10.901006 -19.332779
-8.0452318 -12.067845 -18.600098
-8.1865969 -13.30322 -17.716568
-8.363471 -14.636076 -16.611101
-8.6044655 -16.133375 -15.104887
-8.9720526 -17.944105 -12.807469
-8.1306248 19.745804 -10.806901
-7.6685324 17.528074 -14.107564
-7.4050441 15.867949 -15.989624
-7.2290363 14.458074 -17.24682
-7.0834265 13.154934 -18.286894
-6.9745655 11.956395 -19.064472
-6.8767161 10.806267 -19.763397
-6.7989707 9.7128124 -20.31872
-6.7368565 8.6616726 -20.762396
-6.6765594 7.6303535 -21.193089
-6.6321959 6.6321959 -21.509968
-6.5955749 5.6533499 -21.771547
-6.5608077 4.6862879 -22.019886
-6.5393252 3.7367544 -22.173328
-6.5183225 2.7935638 -22.323349
-6.5019178 1.8576918 -22.440525
-6.4973421 0.92819118 -22.473211
-6.4959745 -9.5367432e-07 -22.482979
-6.4958057 -0.92797375 -22.48418
-6.5027437 -1.8579283 -22.434628
-6.5205112 -2.7945042 -22.307714
-6.5405025 -3.7374325 -22.164923
-6.5648608 -4.689187 -21.990936
-6.600522 -5.657588 -21.736212
-6.6375499 -6.6375508 -21.471724
-6.6794691 -7.6336823 -21.172302
-6.7380857 -8.6632519 -20.753613
-6.8018451 -9.7169209 -20.298193
-6.8840704 -10.817826 -19.710863
-6.9781513 -11.962545 -19.038855
-7.0926819 -13.172123 -18.220785
-7.2376299 -14.475261 -17.18544
-7.4222932 -15.904913 -15.866419
-7.6930432 -17.584103 -13.932483
-6.7951055 19.2528 -12.256912
-6.4770741 17.272196 -14.907177
-6.271585 15.678962 -16.619589
-6.1390495 14.32445 -17.724049
-6.0193276 13.041878 -18.721731
-5.9352922 11.870583 -19.422029
-5.85357 10.731545 -20.103043
-5.7932105 9.6553507 -20.606043
-5.7399125 8.6098661 -21.050194
-5.6876025 7.5834689 -21.486105
-5.6541939 6.596559 -21.764513
-5.6243849 5.624383 -22.012924
-5.594872 4.6623917 -22.258865
-5.5737638 3.7158422 -22.434761
-5.5616918 2.7808447 -22.53537
-5.5499902 1.8499966 -22.632877
-5.5429168 0.92381573 -22.691826
-5.5417552 -9.5367432e-07 -22.701506
-5.5422802 -0.92371178 -22.697126
-5.5481563 -1.8493891 -22.648163
-5.5640154 -2.7820072 -22.516003
-5.5807395 -3.7204933 -22.376635
-5.5978074 -4.6648388 -22.2344
-5.6271877 -5.6271882 -21.989567
-5.6578722 -6.6008492 -21.733864
-5.6944628 -7.592618 -21.428938
-5.7407827 -8.6111736 -21.04294
-5.7963405 -9.6605692 -20.57996
-5.8631859 -10.749178 -20.022915
-5.9372263 -11.874454 -19.405909
-6.0346971 -13.075175 -18.593657
-6.1484127 -14.346297 -17.646023
-6.2934766 -15.733692 -16.437153
-6.4956598 -17.321762 -14.752295
-5.5639648 18.917477 -13.243148
-5.3444085 17.102106 -15.438711
-5.1912169 15.57365 -16.970625
-5.0824265 14.230795 -18.058527
-4.9903607 12.974939 -18.979187
-4.919313 11.806353 -19.689665
-4.8574047 10.68629 -20.308752
-4.8051143 9.6102276 -20.831656
-4.7611113 8.5700016 -21.271683
-4.7238207 7.5581131 -21.644588
-4.6934123 6.570776 -21.948669
-4.6676273 5.6011486 -22.206524
-4.6431818 4.6431808 -22.450979
-4.6272659 3.7018127 -22.610134
-4.6163802 2.7698259 -22.718992
-4.6059151 1.8423643 -22.823645
-4.5974536 0.91949081 -22.908257
-4.5995035 -9.5367432e-07 -22.887758
-4.6030431 -0.92061043 -22.852365
-4.6065874 -1.8426361 -22.816919
-4.6177716 -2.7706633 -22.705082
-4.6309681 -3.7047749 -22.573116
-4.644227 -4.6442289 -22.440527
-4.6678438 -5.6014137 -22.204361
-4.6977286 -6.5768228 -21.905508
-4.7279987 -7.5647988 -21.60281
-4.7627034 -8.5728674 -21.25576
-4.8073106 -9.6146221 -20.80969
-4.8592086 -10.69026 -20.29071
-4.9233317 -11.815994 -19.649481
-4.9957056 -12.988838 -18.925737
-5.0890813 -14.249429 -17.991985
-5.2027645 -15.608296 -16.855148
-5.3543315 -17.133862 -15.339477
-5.5861773 -18.993002 -13.021018
-4.7309847 21.289429 -9.7454872
-4.4056387 18.723963 -13.812312
-4.240109 16.960432 -15.881436
-4.127964 15.479863 -17.283247
-4.0438704 14.153545 -18.334414
-3.9728096 12.911631 -19.222679
-3.9168425 11.750526 -19.922268
-3.8698494 10.642085 -20.509678
-3.8262103 9.5655222 -21.05517
-3.7956929 8.540309 -21.436634
-3.766474 7.532948 -21.801872
-3.7402208 6.5453854 -22.130035
-3.7213962 5.5820923 -22.365341
-3.7055316 4.6319132 -22.56365
-3.690722 3.6907215 -22.748768
-3.682066 2.761548 -22.856976
-3.6734393 1.8367205 -22.964802
-3.6685088 0.9171257 -23.026436
-3.6691258 -1.9073486e-06 -23.018726
-3.6710508 -0.91776466 -22.994661
-3.6729677 -1.8364859 -22.970703
-3.6796765 -2.7597561 -22.886841
-3.6933904 -3.6933899 -22.715412
-3.7072177 -4.6340227 -22.542572
-3.723043 -5.5845647 -22.344757
-3.7458692 -6.5552731 -22.059429
-3.7689879 -7.5379777 -21.770445
-3.7950327 -8.5388241 -21.444887
-3.8336279 -9.5840721 -20.962446
-3.8734243 -10.651918 -20.464994
-3.9204206 -11.761261 -19.877539
-3.9780765 -12.92875 -19.156843
-4.0497093 -14.173985 -18.261427
-4.1368518 -15.513194 -17.172152
-4.2533059 -17.013224 -15.716475
-4.4202824 -18.7862 -13.629265
-3.4915349 20.949207 -10.690548
-3.2770875 18.570164 -14.264668
-3.1629333 16.868979 -16.167236
-3.0814869 15.407432 -17.524681
-3.0218153 14.101805 -18.519207
-2.9694715 12.86771 -19.391605
-2.9291737 11.716692 -20.063234
-2.8942609 10.612288 -20.645115
-2.8625276 9.5417576 -21.174
-2.8396528 8.5189581 -21.555252
-2.8173869 7.5130315 -21.926348
-2.7971928 6.5267839 -22.262917
-2.7845592 5.5691175 -22.473476
-2.7724211 4.6207018 -22.675776
-2.7606807 3.6809072 -22.87145
-2.7538536 2.7538528 -22.985233
-2.7503157 1.8335447 -23.044203
-2.7467787 0.91559219 -23.103149
-2.7455447 -1.9073486e-06 -23.123714
-2.7469821 -0.91566277 -23.099762
-2.7498536 -1.8332348 -23.051903
-2.7546079 -2.7546082 -22.972664
-2.7645938 -3.6861267 -22.806234
-2.7747397 -4.6245661 -22.637131
-2.7851455 -5.5702934 -22.463703
-2.8011775 -6.5360827 -22.196503
-2.8199544 -7.5198822 -21.883556
-2.8407304 -8.522191 -21.537289
-2.868643 -9.5621433 -21.072079
-2.8989885 -10.629626 -20.566322
-2.931958 -11.727833 -20.016832
-2.9744849 -12.889435 -19.308048
-3.0241914 -14.112893 -18.479609
-3.0896025 -15.448013 -17.389423
-3.1740491 -16.928265 -15.981974
-3.2906022 -18.646748 -14.039424
-2.3006334 20.705702 -11.366959
-2.1767602 18.502462 -14.463786
-2.1020801 16.816643 -16.33079
-2.0508227 15.381168 -17.61223
-2.0095372 14.06676 -18.644365
-1.9769601 12.850241 -19.458794
-1.9486972 11.692183 -20.165367
-1.9262216 10.594215 -20.727257
-1.9062155 9.5310783 -21.227409
-1.8897393 8.5038261 -21.639317
-1.8757018 7.5028067 -21.99025
-1.8633969 6.5218849 -22.297873
-1.8539399 5.56182 -22.534296
-1.8456097 4.6140242 -22.74255
-1.8381517 3.676302 -22.929005
-1.8336587 2.7504864 -23.041328
-1.8308837 1.830883 -23.110699
-1.828133 0.91406631 -23.179474
-1.8261827 -3.8146973e-06 -23.228231
-1.8285486 -0.91427708 -23.169086
-1.8313473 -1.8313465 -23.09911
-1.8341603 -2.7512398 -23.02879
-1.8397436 -3.6794891 -22.889206
-1.8464251 -4.6160631 -22.722172
-1.8534914 -5.5604763 -22.545509
-1.8642226 -6.5247788 -22.277229
-1.8777429 -7.510973 -21.93922
-1.8915608 -8.512023 -21.593777
-1.908069 -9.5403423 -21.181072
-1.9286226 -10.607427 -20.667233
-1.9497834 -11.698702 -20.138212
-1.9798791 -12.869215 -19.38582
-2.0131826 -14.09228 -18.55323
-2.0534987 -15.401241 -17.545328
-2.1077592 -16.862074 -16.188814
-2.1819553 -18.546619 -14.333918
-2.3252008 -20.926809 -10.752775
-1.1466362 20.63945 -11.550983
-1.0851946 18.448307 -14.623069
-1.0478302 16.765282 -16.491283
-1.0237576 15.356361 -17.69492
-1.0025963 14.036345 -18.752985
-0.98713988 12.832818 -19.525801
-0.97231448 11.667771 -20.267075
-0.96202254 10.582245 -20.781672
-0.95204198 9.5204182 -21.280697
-0.94344026 8.4909611 -21.710779
-0.93721181 7.497694 -22.022205
-0.93106776 6.5174751 -22.329411
-0.92575663 5.5545387 -22.594959
-0.9221729 4.6108646 -22.774151
-0.91908115 3.6763239 -22.928741
-0.91623944 2.7487183 -23.070824
-0.91485637 1.8297119 -23.139977
-0.91347492 0.91347218 -23.209049
-0.91303951 -3.8146973e-06 -23.23082
-0.91383809 -0.91383839 -23.190893
-0.91505402 -1.8301077 -23.130093
-0.9162733 -2.7488194 -23.06913
-0.91857219 -3.6742907 -22.954185
-0.92279434 -4.6139717 -22.743082
-0.9270581 -5.5623503 -22.529894
-0.93153125 -6.5207205 -22.306232
-0.93817353 -7.5053883 -21.974121
-0.94490838 -8.5041752 -21.637379
-0.95257735 -9.525774 -21.253927
-0.96360099 -10.59961 -20.702745
-0.97509843 -11.70118 -20.127874
-0.98909372 -12.85822 -19.42811
-1.0061791 -14.086507 -18.573843
-1.025261 -15.378919 -17.619741
-1.053021 -16.848335 -16.231747
-1.0892606 -18.517431 -14.419767
-1.1575365 -20.835659 -11.005972
0 20.627033 -11.585484
0 18.440039 -14.647388
0 16.798702 -16.38685
0 15.367262 -17.658583
0 14.045841 -18.719074
0 12.840854 -19.494896
0 11.68203 -20.207661
0 10.588102 -20.755054
0 9.5253782 -21.255901
0 8.4949455 -21.688648
0 7.4997678 -22.009239
0 6.5180206 -22.325504
0 5.5538988 -22.600286
0 4.611577 -22.767017
0 3.6763353 -22.928612
0 2.7480373 -23.082169
0 1.8288832 -23.160645
0 0.91402912 -23.18129
0 -0 -23.202049
0 -0.9137907 -23.193226
0 -1.8300152 -23.132435
0 -2.7503405 -23.043808
0 -3.676013 -22.932678
0 -4.6155872 -22.726934
0 -5.5642242 -22.514267
0 -6.5217195 -22.299086
0 -7.5006657 -22.003637
0 -8.5085459 -21.613089
0 -9.5357113 -21.204252
0 -10.600979 -20.696543
0 -11.707355 -20.102158
0 -12.847242 -19.470329
0 -14.082986 -18.586424
0 -15.391764 -17.57692
0 -16.860086 -16.195026
0 -18.514046 -14.429724
0 -20.867785 -10.916735
1.152042 20.736757 -11.280693
1.0891205 18.515047 -14.426774
1.0528625 16.845802 -16.239668
1.0257512 15.386269 -17.595234
1.0053587 14.07502 -18.614862
0.98872906 12.853476 -19.446344
0.97524023 11.702881 -20.120783
0.96337312 10.597105 -20.714136
0.95392704 9.5392685 -21.186445
0.94518036 8.5066223 -21.623775
0.93820632 7.5056496 -21.972479
0.93236786 6.5265732 -22.2644
0.92717022 5.5630217 -22.524284
0.92328137 4.6164074 -22.718727
0.91996384 3.6798544 -22.884604
0.91704357 2.7511292 -23.030619
0.91544974 1.8309011 -23.11031
0.91484863 0.91484928 -23.140366
0.91424829 -2.8610229e-06 -23.170385
0.91377842 -0.91377926 -23.193876
0.91568416 -1.8313694 -23.098587
0.91790146 -2.753705 -22.98772
0.92012691 -3.6805096 -22.87645
0.92345363 -4.6172686 -22.710115
0.92771018 -5.5662622 -22.49729
0.93257588 -6.5280323 -22.254
0.93867975 -7.5094399 -21.948809
0.94664282 -8.5197849 -21.550659
0.95477039 -9.5477047 -21.144279
0.9638983 -10.60288 -20.687883
0.97653645 -11.718437 -20.055977
0.99016798 -12.872186 -19.374397
1.0078585 -14.110022 -18.489868
1.0289159 -15.433738 -17.437
1.0553519 -16.88563 -16.115206
1.0944912 -18.60635 -14.158234
1.1674844 -21.014719 -10.508575
2.3339105 21.00519 -10.535038
2.1897719 18.613062 -14.138498
2.1125047 16.90004 -16.070171
2.0574768 15.431073 -17.445883
2.0160327 14.112228 -18.481976
1.9816833 12.880939 -19.340715
1.9543241 11.725945 -20.024693
1.9288654 10.608759 -20.661161
1.9108844 9.5544186 -21.110691
1.8933356 8.520009 -21.549402
1.8786199 7.5144777 -21.917301
1.8680696 6.5382423 -22.181057
1.8576372 5.5729094 -22.441868
1.8484985 4.6212473 -22.670334
1.8429675 3.6859322 -22.808609
1.8383985 2.757596 -22.922834
1.8338678 1.8338671 -23.036106
1.8326615 0.91632938 -23.066257
1.8314569 -0 -23.096375
1.8321137 -0.91605759 -23.079952
1.8348033 -1.8348055 -23.012711
1.8389604 -2.758441 -22.908783
1.8431312 -3.686264 -22.80452
1.8489604 -4.6224022 -22.658787
1.8594619 -5.5783844 -22.396252
1.8701212 -6.5454245 -22.129766
1.8812169 -7.5248694 -21.852373
1.8964987 -8.5342436 -21.470327
1.9129801 -9.5649014 -21.058294
1.9329433 -10.631187 -20.559214
1.9583199 -11.749922 -19.924797
1.9870179 -12.915616 -19.20735
2.0195878 -14.137115 -18.393099
2.0643528 -15.482645 -17.273981
2.1191609 -16.953285 -15.903773
2.2025704 -18.721853 -13.81853
2.3733687 -21.360319 -9.5485802
3.6180868 21.708519 -8.5813484
3.3164189 18.793037 -13.60915
3.1909072 17.018171 -15.701006
3.1021605 15.510803 -17.180122
3.0384674 14.179515 -18.241673
2.9847286 12.933823 -19.13732
2.9433544 11.773417 -19.826891
2.9058814 10.654899 -20.451439
2.8766432 9.5888062 -20.938745
2.8499377 8.5498123 -21.383835
2.826766 7.5380406 -21.770031
2.8102605 6.5572748 -22.04512
2.7939551 5.5879078 -22.316883
2.7795889 4.6326456 -22.556316
2.7716651 3.6955538 -22.688375
2.7641585 2.7641582 -22.81349
2.7572589 1.8381729 -22.928478
2.753736 0.91790962 -22.987198
2.7550008 1.9073486e-06 -22.966114
2.7562592 -0.91875458 -22.945141
2.7582042 -1.8388023 -22.912727
2.764467 -2.7644682 -22.808348
2.7728114 -3.6970835 -22.669275
2.7825208 -4.637536 -22.50745
2.7965527 -5.5931082 -22.273584
2.8128397 -6.5632925 -22.002136
2.829566 -7.5455103 -21.723362
2.8510318 -8.5530949 -21.365602
2.8805997 -9.6020002 -20.872803
2.9107876 -10.672889 -20.369671
2.9453926 -11.781571 -19.792919
2.9909792 -12.960907 -19.033144
3.0429013 -14.200207 -18.167774
3.112752 -15.563762 -17.003597
3.1994298 -17.063625 -15.558968
3.3341708 -18.893635 -13.313285
4.4689422 18.993002 -13.021019
4.2845058 17.138023 -15.32647
4.1653361 15.620008 -16.816093
4.0740609 14.259214 -17.957033
4.0003157 13.001021 -18.878857
3.9417527 11.825256 -19.610888
3.8929276 10.705551 -20.221203
3.8494365 9.6235914 -20.764839
3.8160248 8.5860567 -21.182486
3.7848344 7.5696688 -21.572369
3.7593904 6.5789309 -21.890419
3.7393842 5.6090727 -22.140495
3.7218482 4.6523085 -22.359694
3.7081256 3.7081251 -22.531227
3.6980484 2.7735348 -22.657192
3.6892729 1.8446341 -22.766886
3.6846373 0.9211607 -22.824831
3.6856921 -1.9073486e-06 -22.811644
3.6867478 -0.92168617 -22.798447
3.687804 -1.8439045 -22.785248
3.6973259 -2.772995 -22.666218
3.7102737 -3.7102718 -22.504375
3.7233124 -4.6541414 -22.341394
3.7385914 -5.6078882 -22.150406
3.7618949 -6.5833173 -21.859108
3.7887554 -7.5775104 -21.523354
3.8172922 -8.5889101 -21.166645
3.856679 -9.6416969 -20.674309
3.8970876 -10.716992 -20.169201
3.9454253 -11.836279 -19.56498
4.01056 -13.034318 -18.750799
4.0850244 -14.297585 -17.819994
4.1753201 -15.657451 -16.691296
4.3062339 -17.224937 -15.054872
4.4996052 -19.123325 -12.63773
5.6944499 19.361128 -11.938297
5.4221334 17.350826 -14.661461
5.2580509 15.774151 -16.302286
5.1310782 14.367017 -17.572014
5.0354295 13.092113 -18.528503
4.9558868 11.894125 -19.323929
4.8930011 10.764601 -19.952787
4.832881 9.66576 -20.553989
4.7922206 8.6259947 -20.96059
4.7524352 7.6038971 -21.358444
4.7170353 6.6038499 -21.71244
4.6942616 5.6331129 -21.940184
4.6721401 4.6721392 -22.161394
4.650979 3.7207842 -22.373007
4.6410255 2.7846127 -22.472542
4.6337419 1.8534956 -22.545376
4.6264677 0.92529202 -22.618118
4.6253376 -9.5367432e-07 -22.629421
4.6266675 -0.92533588 -22.616123
4.6332216 -1.8532887 -22.550583
4.6423645 -2.7854185 -22.459152
4.6581688 -3.7265329 -22.301107
4.6740942 -4.6740952 -22.141853
4.695138 -5.6341643 -21.931417
4.7265406 -6.6171589 -21.617392
4.7609 -7.6174407 -21.273796
4.797421 -8.6353569 -20.908587
4.8413286 -9.6826582 -20.469509
4.902452 -10.785393 -19.858278
4.9667015 -11.920084 -19.21578
5.0433993 -13.112838 -18.448805
5.1455007 -14.407401 -17.42779
5.2688632 -15.806588 -16.194166
5.4501767 -17.440565 -14.381028
5.7437 -19.52858 -11.445795
7.0760369 20.048769 -9.915823
6.6144571 17.63855 -13.762325
6.382679 15.956697 -15.693805
6.2164044 14.504942 -17.079426
6.0953312 13.206549 -18.088371
5.9927449 11.985487 -18.943258
5.9142046 10.842705 -19.597761
5.8449769 9.7416267 -20.174656
5.7879491 8.6819229 -20.649887
5.7395883 7.6527824 -21.052895
5.6974201 6.6469908 -21.404297
5.6657577 5.6657572 -21.668148
5.6377187 4.6980982 -21.901804
5.6132994 3.742197 -22.105301
5.5989275 2.7994623 -22.225065
5.5888801 1.8629599 -22.308796
5.5788851 0.92981339 -22.392086
5.5731688 -0 -22.43972
5.5816426 -0.93027592 -22.369106
5.590126 -1.8633728 -22.298412
5.5986352 -2.7993183 -22.227501
5.6154051 -3.7436018 -22.087753
5.6414909 -4.7012434 -21.870373
5.6690841 -5.6690865 -21.640429
5.7011542 -6.6513467 -21.373178
5.7438903 -7.6585221 -21.01704
5.7919421 -8.6879129 -20.616611
5.8488364 -9.7480621 -20.142494
5.9250021 -10.862506 -19.507778
6.0031962 -12.006395 -18.856159
6.1040788 -13.225504 -18.015471
6.2350526 -14.548453 -16.924028
6.3977995 -15.994502 -15.567799
6.6448665 -17.719646 -13.508908
7.2599797 -20.569944 -8.3829651
7.8785777 18.008179 -12.607239
7.5423684 16.162216 -15.008739
7.341002 14.682004 -16.447067
7.1801209 13.334511 -17.596214
7.0551643 12.094568 -18.488762
6.9529743 10.9261 -19.218695
6.8731074 9.8187237 -19.789173
6.7966733 8.7385798 -20.335129
6.7434306 7.7067776 -20.715437
6.6939383 6.6939354 -21.068958
6.6493835 5.6994705 -21.387199
6.6196256 4.728302 -21.599754
6.5942812 3.7681599 -21.780788
6.5708351 2.8160715 -21.948261
6.5589929 1.8739967 -22.032848
6.5502582 0.93575001 -22.09524
6.5465846 -1.9073486e-06 -22.121479
6.5525827 -0.93608665 -22.078634
6.5616865 -1.8747654 -22.013607
6.5708156 -2.8160648 -21.9484
6.5929298 -3.7673912 -21.790436
6.6249013 -4.7320728 -21.562071
6.6571846 -5.7061582 -21.331482
6.6924462 -6.6924458 -21.079609
6.7506247 -7.7150002 -20.664051
6.8127465 -8.7592468 -20.220322
6.8813581 -9.8305101 -19.73024
6.9629245 -10.94174 -19.147623
7.0648336 -12.111143 -18.419703
7.1934419 -13.359251 -17.501066
7.365315 -14.730631 -16.273401
7.5929055 -16.270512 -14.647756
7.9406734 -18.150112 -12.163702
9.3704691 18.740936 -10.317363
8.8226604 16.542484 -13.74117
8.5292969 14.926272 -15.574684
8.3140478 13.510325 -16.919998
8.1617861 12.242679 -17.871634
8.0281725 11.038739 -18.706717
7.9319596 9.9149475 -19.30805
7.840054 8.8200607 -19.882462
7.771214 7.7712111 -20.31271
7.7129192 6.7488027 -20.677052
7.6574278 5.7430687 -21.023872
7.6221981 4.7638731 -21.244057
7.5912066 3.7956038 -21.437756
7.5604663 2.8351727 -21.629883
7.5468812 1.8867197 -21.71479
7.5426135 0.94282627 -21.741463
7.5383515 -1.9073486e-06 -21.768101
7.5377994 -0.94222641 -21.771547
7.5504441 -1.8876123 -21.69252
7.5717611 -2.8394117 -21.55929
7.5932217 -3.7966127 -21.425163
7.6266465 -4.7666526 -21.216257
7.6682835 -5.7512136 -20.956022
7.7197642 -6.7547951 -20.634272
7.7778339 -7.7778344 -20.271336
7.8530388 -8.8346672 -19.801304
7.9388809 -9.9236021 -19.26479
8.0422421 -11.058085 -18.618786
8.1692705 -12.253908 -17.824852
8.3419018 -13.555588 -16.745914
8.54002 -14.945037 -15.507672
8.8618345 -16.61594 -13.496326
9.5551329 -19.110264 -9.1632204
10.200808 17.001343 -12.211649
9.7707052 15.198874 -14.601103
9.5077696 13.733442 -16.061855
9.3020878 12.402781 -17.204533
9.1503916 11.18381 -18.047289
9.0205564 10.022839 -18.768595
8.9210358 8.9210358 -19.321487
8.8276682 7.8468161 -19.840197
8.7608089 6.8139596 -20.211636
8.7028179 5.8018789 -20.533804
8.6512203 4.8062334 -20.820461
8.6157331 3.8292131 -21.017612
8.5870228 2.8623419 -21.177113
8.5638685 1.903079 -21.305752
8.5573406 0.95081234 -21.342018
8.5508232 -9.5367432e-07 -21.378227
8.5499392 -0.94999218 -21.383133
8.568327 -1.9040747 -21.280979
8.5919399 -2.8639803 -21.149797
8.6157074 -3.8292017 -21.017754
8.6503162 -4.8057361 -20.825485
8.70889 -5.8059249 -20.500076
8.768261 -6.8197618 -20.170235
8.8310595 -7.8498321 -19.821356
8.9308834 -8.9308844 -19.266777
9.0404615 -10.04496 -18.658009
9.1630707 -11.199306 -17.976851
9.3279705 -12.437297 -17.060738
9.5422564 -13.783258 -15.870262
9.8266935 -15.285968 -14.290054
10.300203 -17.167007 -11.659447
11.195519 15.673722 -12.905202
10.79277 14.030601 -14.918943
10.520399 12.624479 -16.280796
10.325373 11.35791 -17.255932
10.153085 10.153084 -18.117376
10.034528 9.0310726 -18.710159
9.9221945 7.9377527 -19.271826
9.8352585 6.8846784 -19.706505
9.7698402 5.8619022 -20.033592
9.7057562 4.8528752 -20.354019
9.6656742 3.8662682 -20.554426
9.6374817 2.8912439 -20.695385
9.6094532 1.9218893 -20.835529
9.5924397 0.95924473 -20.920597
9.5964441 -0 -20.900574
9.6028013 -0.96028042 -20.86879
9.6119213 -1.9223852 -20.823189
9.6386948 -2.8916082 -20.689323
9.6768341 -3.8707371 -20.498625
9.7209711 -4.8604851 -20.277939
9.7797565 -5.8678522 -19.984013
9.8521795 -6.8965287 -19.621899
9.9436541 -7.9549251 -19.164524
10.042011 -9.0378094 -18.672741
10.177841 -10.177839 -17.993593
10.344623 -11.379086 -17.159685
10.540039 -12.648047 -16.182604
10.83503 -14.085538 -14.707649
11.258813 -15.762338 -12.588734
12.971355 16.508997 -9.9220877
12.20927 14.429136 -13.38611
11.837668 12.913818 -15.075212
11.55812 11.558118 -16.345892
11.371226 10.337477 -17.195404
11.205937 9.1684942 -17.946714
11.081655 8.0593872 -18.511637
10.96971 6.9807229 -19.020477
10.891479 5.9408054 -19.376076
10.821529 4.9188766 -19.694029
10.76146 3.9132566 -19.96707
10.727578 2.925704 -20.121078
10.694101 1.9443817 -20.273239
10.674915 0.97044754 -20.360455
10.67836 -9.5367432e-07 -20.344791
10.683775 -0.9712534 -20.320189
10.689194 -1.943491 -20.295551
10.725759 -2.9252071 -20.129353
10.77489 -3.9181442 -19.906025
10.824473 -4.9202151 -19.680643
10.884379 -5.9369354 -19.408344
10.987858 -6.9922724 -18.937988
11.093323 -8.0678711 -18.458601
11.220891 -9.1807289 -17.878746
11.388236 -10.35294 -17.118088
11.594043 -11.594042 -16.182604
11.875871 -12.955498 -14.901564
12.25653 -14.484989 -13.171294
13.192114 -16.789965 -8.918642
13.99996 15.166621 -10.549631
13.303239 13.303235 -13.452639
12.939782 11.861466 -14.967039
12.665592 10.554659 -16.109491
12.44539 9.3340435 -17.027004
12.287358 8.1915684 -17.685474
12.157351 7.0917883 -18.227163
12.045039 6.0225172 -18.695137
11.974415 4.989336 -18.989401
11.904651 3.9682159 -19.280083
11.850841 2.9627113 -19.504292
11.829279 1.9715452 -19.594139
11.807759 0.98398018 -19.683804
11.793948 9.5367432e-07 -19.741346
11.808987 -0.98408318 -19.678686
11.835514 -1.9725866 -19.568155
11.862198 -2.9655514 -19.45697
11.913722 -3.9712424 -19.242289
11.987275 -4.9946985 -18.935818
12.071545 -6.0357723 -18.584696
12.168384 -7.0982232 -18.1812
12.313725 -8.2091494 -17.575609
12.47909 -9.3593187 -16.886589
12.679149 -10.565959 -16.053009
12.965978 -11.88548 -14.857885
13.381184 -13.381186 -13.127863
14.217041 -15.401794 -9.6451254
15.234719 14.062817 -10.287722
14.48123 12.253345 -13.18576
14.076345 10.827955 -14.743011
13.818679 9.5667753 -15.734034
13.59519 8.3662682 -16.593605
13.439887 7.2368627 -17.190922
13.306054 6.1412563 -17.705664
13.203134 5.0781264 -18.101513
13.123779 4.0380864 -18.406721
13.058893 3.0135884 -18.656284
13.022473 2.0034571 -18.79636
12.996461 0.99972725 -18.896408
12.986094 -9.5367432e-07 -18.936281
12.999692 -0.99997616 -18.883982
13.027987 -2.0043087 -18.77515
13.058649 -3.0135341 -18.657227
13.122627 -4.0377331 -18.411154
13.217441 -5.083631 -18.046488
13.313592 -6.1447382 -17.676674
13.451597 -7.2431693 -17.145882
13.621171 -8.3822594 -16.493673
13.851436 -9.5894566 -15.608046
14.13336 -10.871814 -14.523718
14.552809 -12.313915 -12.910459
15.412972 -14.227361 -9.6021347
17.218124 13.528527 -7.389493
15.830568 11.307545 -12.345055
15.350807 9.8683758 -14.058483
15.062597 8.6071968 -15.087805
14.814812 7.4074059 -15.972754
14.655547 6.2809482 -16.541561
14.499669 5.1784511 -17.098263
14.410489 4.117281 -17.416763
14.338536 3.0725427 -17.673744
14.267251 2.0381775 -17.928329
14.259755 1.0185537 -17.955101
14.253799 -9.5367432e-07 -17.976368
14.247806 -1.0177031 -17.997776
14.295045 -2.04215 -17.829065
14.359877 -3.077117 -17.597523
14.4253 -4.1215138 -17.363873
14.521213 -5.1861506 -17.02132
14.682913 -6.2926755 -16.443819
14.848255 -7.4241276 -15.853312
15.08504 -8.6200237 -15.007655
15.384196 -9.889842 -13.93924
15.903937 -11.359956 -12.083019
17.405117 10.443068 -10.865743
16.766392 8.942071 -12.994829
16.421556 7.6633911 -14.144275
16.158863 6.4635425 -15.019918
15.998633 5.3328791 -15.554014
15.845503 4.2254677 -16.064455
15.755774 3.1511531 -16.36355
15.693795 2.092504 -16.570145
15.637316 1.0424891 -16.758411
15.633467 9.5367432e-07 -16.77124
15.657553 -1.0438356 -16.690952
15.681713 -2.0908947 -16.610422
15.752741 -3.150548 -16.373663
15.878913 -4.2343779 -15.953088
16.007069 -5.3356895 -15.525902
16.184488 -6.473794 -14.934502
16.480648 -7.6909695 -13.947306
16.868979 -8.996789 -12.652862
17.544535 -10.52672 -10.401013
18.604565 8.1394949 -10.743532
18.056488 6.7711802 -12.456275
17.723425 5.538569 -13.497089
17.533207 4.3833017 -14.091524
17.367155 3.2563415 -14.610441
17.284025 2.1605029 -14.870216
17.229317 1.0768342 -15.041185
17.190432 9.5367432e-07 -15.162695
17.22142 -1.0763397 -15.065853
17.291803 -2.1614771 -14.845912
17.374479 -3.2577171 -14.587551
17.528433 -4.3821087 -14.106447
17.789433 -5.5591974 -13.290823
18.107538 -6.790328 -12.296741
18.632166 -8.1515732 -10.65728
19.816036 4.6625972 -10.600341
19.498791 3.4409604 -11.533411
19.306677 2.2713709 -12.098454
19.185959 1.1285844 -12.453505
19.172915 4.7683716e-07 -12.491871
19.179234 -1.12819 -12.473288
19.274029 -2.2675319 -12.194475
19.55175 -3.4503078 -11.377646
19.970903 -4.6990356 -10.144848
