# .PCD v0.7 - Point Cloud Data file format
VERSION 0.7
FIELDS x y z
SIZE 4 4 4
TYPE F F F
COUNT 1 1 1
WIDTH 1076
HEIGHT 1
VIEWPOINT 0 0 0 1 0 0 0
POINTS 1076
DATA ascii
-22.216698 2.3385992 -10.417802
-21.974384 1.1565471 -11.055471
-21.928518 -1.9073486e-06 -11.176168
-22.002689 -1.1580367 -10.980976
-22.262642 -2.3434334 -10.296896
-20.67732 6.8924398 -11.445795
-20.209936 5.6138701 -12.744084
-19.833113 4.4073577 -13.790821
-19.634535 3.2724228 -14.342419
-19.508505 2.1676102 -14.692503
-19.431353 1.0795188 -14.906815
-19.431353 -4.7683716e-07 -14.906815
-19.433374 -1.0796356 -14.901202
-19.525404 -2.1694899 -14.645565
-19.652185 -3.2753649 -14.293388
-19.879869 -4.417747 -13.660933
-20.263807 -5.6288333 -12.594446
-20.775652 -6.92522 -11.172649
-19.234592 9.0515709 -12.310468
-18.726271 7.7108173 -13.805528
-18.384951 6.4888034 -14.809414
-18.150131 5.3382716 -15.500055
-17.965548 4.2271857 -16.04295
-17.824139 3.1454358 -16.458857
-17.75156 2.088419 -16.672325
-17.689686 1.0405679 -16.854307
-17.688601 -9.5367432e-07 -16.857502
-17.708696 -1.0416903 -16.798397
-17.733149 -2.0862541 -16.72648
-17.855087 -3.150898 -16.367838
-17.981846 -4.2310219 -15.995015
-18.179865 -5.3470211 -15.412606
-18.436247 -6.5069113 -14.658537
-18.792652 -7.7381516 -13.610288
-19.331167 -9.0970211 -12.026421
-18.302229 11.438891 -11.688332
-17.642298 9.9237919 -13.750612
-17.187391 8.5936947 -15.172195
-16.936504 7.4097199 -15.956224
-16.714672 6.268002 -16.649448
-16.562576 5.1758022 -17.124746
-16.424007 4.1060019 -17.557772
-16.346373 3.0649443 -17.800381
-16.277441 2.0346804 -18.015793
-16.236893 1.0148039 -18.142506
-16.236893 -2.8610229e-06 -18.142506
-16.241861 -1.0151148 -18.126982
-16.283567 -2.0354486 -17.996651
-16.354836 -3.0665312 -17.773933
-16.443834 -4.1109567 -17.495817
-16.576118 -5.1800385 -17.082428
-16.749577 -6.2810922 -16.540369
-16.943804 -7.4129152 -15.933409
-17.259403 -8.6297045 -14.947161
-17.69626 -9.9541454 -13.581983
-18.404213 -11.502632 -11.369631
-16.834566 12.345347 -12.767575
-16.275011 10.850007 -14.632763
-15.907953 9.5447712 -15.856283
-15.653592 8.3485823 -16.704155
-15.420329 7.1961513 -17.481699
-15.27217 6.1088667 -17.975561
-15.149333 5.049778 -18.385019
-15.050713 4.0135207 -18.713757
-14.992889 2.9985771 -18.906498
-14.93574 1.9914284 -19.096996
-14.909722 0.99398041 -19.18372
-14.908481 -1.9073486e-06 -19.187862
-14.908481 -0.99390125 -19.187864
-14.942675 -1.9923592 -19.073879
-14.999924 -2.9999862 -18.883047
-15.057614 -4.0153642 -18.690752
-15.16461 -5.0548706 -18.334099
-15.288518 -6.115406 -17.921066
-15.447371 -7.2087746 -17.391563
-15.682273 -8.3638792 -16.608553
-15.952585 -9.5715485 -15.707512
-16.329733 -10.886492 -14.450352
-16.910936 -12.401353 -12.513007
-15.574632 13.349681 -13.259112
-15.050924 11.825726 -15.129494
-14.701453 10.50104 -16.377604
-14.458305 9.2946234 -17.245995
-14.269962 8.1542625 -17.918646
-14.108518 7.0542569 -18.495234
-13.98637 5.9941573 -18.931475
-13.875927 4.9556866 -19.325912
-13.807381 3.9449649 -19.570724
-13.744537 2.9452581 -19.795164
-13.695946 1.956562 -19.968704
-13.683843 0.97741508 -20.011932
-13.671759 9.5367432e-07 -20.055086
-13.675327 -0.97681141 -20.042337
-13.71191 -1.9588451 -19.91169
-13.748689 -2.9461508 -19.780336
-13.807169 -3.9449029 -19.57148
-13.89737 -4.9633465 -19.249331
-13.998406 -5.9993162 -18.888485
-14.124839 -7.0624194 -18.436947
-14.292277 -8.167016 -17.838945
-14.482006 -9.3098621 -17.161345
-14.744465 -10.531763 -16.223993
-15.106535 -11.869424 -14.930885
-15.661686 -13.424302 -12.948199
-14.417056 14.417056 -13.432581
-13.926127 12.854887 -15.320768
-13.610183 11.516306 -16.535938
-13.345572 10.265823 -17.55368
-13.162965 9.1128216 -18.256012
-12.986981 7.9919872 -18.932873
-12.867352 6.9285731 -19.392975
-12.764225 5.8911791 -19.789623
-12.677048 4.8757858 -20.12492
-12.624526 3.884469 -20.326927
-12.572664 2.9013853 -20.526394
-12.536723 1.9287252 -20.664631
-12.524788 0.96344471 -20.710533
-12.514786 -9.5367432e-07 -20.749008
-12.519465 -0.96303749 -20.731003
-12.547326 -1.9303589 -20.623852
-12.577806 -2.9025717 -20.506618
-12.622241 -3.8837662 -20.335716
-12.69636 -4.8832159 -20.050644
-12.771627 -5.8945985 -19.76115
-12.877254 -6.9339089 -19.354893
-13.018744 -8.0115347 -18.810703
-13.173285 -9.1199684 -18.21632
-13.387549 -10.298114 -17.392225
-13.642536 -11.543686 -16.411499
-13.97866 -12.903379 -15.118719
-14.511921 -14.511922 -13.067719
-13.396037 15.62871 -13.065974
-12.894201 13.968718 -15.156953
-12.544188 12.544188 -16.615345
-12.289742 11.265597 -17.675537
-12.095969 10.079971 -18.482924
-11.94911 8.961834 -19.094837
-11.815345 7.876895 -19.652195
-11.717761 6.8353601 -20.05879
-11.62783 5.8139124 -20.433504
-11.561031 4.8170958 -20.711834
-11.506332 3.8354425 -20.939743
-11.459624 2.8649054 -21.134361
-11.43692 1.9061527 -21.228962
-11.419402 0.95161819 -21.301952
-11.408944 -1.9073486e-06 -21.345528
-11.42153 -0.95179462 -21.293087
-11.439021 -1.9065056 -21.220211
-11.464864 -2.8662186 -21.112534
-11.512506 -3.8375034 -20.914017
-11.568442 -4.8201842 -20.680952
-11.636133 -5.8180676 -20.398909
-11.72687 -6.8406758 -20.020838
-11.837147 -7.8914299 -19.561352
-11.955214 -8.9664078 -19.069408
-12.122891 -10.102408 -18.370752
-12.314038 -11.287869 -17.574303
-12.588554 -12.588555 -16.430487
-12.939045 -14.0173 -14.97011
-13.490705 -15.739155 -12.671524
-12.45594 16.985373 -12.264885
-11.87603 15.114946 -14.900839
-11.527221 13.623077 -16.486338
-11.287977 12.314158 -17.573809
-11.08766 11.08766 -18.484344
-10.93633 9.9421196 -19.172205
-10.801058 8.8372269 -19.787079
-10.694942 7.7781396 -20.269423
-10.606343 6.7494898 -20.672142
-10.521014 5.7387352 -21.060001
-10.471594 4.7598162 -21.284641
-10.423372 3.7903175 -21.503832
-10.381769 2.8313923 -21.692936
-10.366994 1.8849077 -21.760098
-10.35229 0.94111824 -21.826931
-10.340377 -9.5367432e-07 -21.881084
-10.354198 -0.94128895 -21.81826
-10.368907 -1.8852568 -21.7514
-10.384693 -2.8321905 -21.679646
-10.429207 -3.7924433 -21.47731
-10.477855 -4.7626605 -21.256186
-10.530059 -5.7436686 -21.018892
-10.617191 -6.7563944 -20.622835
-10.705745 -7.7859955 -20.220322
-10.814422 -8.8481636 -19.726336
-10.952673 -9.956974 -19.097921
-11.112162 -11.112162 -18.372971
-11.31124 -12.339534 -17.468067
-11.562687 -13.664995 -16.325125
-11.949793 -15.208828 -14.565557
-12.591824 -17.170668 -11.647234
-11.743175 18.789078 -10.166924
-10.936395 16.404591 -14.200821
-10.569427 14.797197 -16.035658
-10.29874 13.388362 -17.389091
-10.107835 12.1294 -18.343624
-9.9354887 10.929035 -19.205355
-9.8106728 9.8106699 -19.829433
-9.6972742 8.7275467 -20.396421
-9.6169767 7.6935806 -20.797911
-9.5435419 6.680479 -21.165089
-9.4796724 5.6878042 -21.484432
-9.4334631 4.7167311 -21.715483
-9.3925781 3.7570314 -21.919907
-9.3627386 2.8088226 -22.069101
-9.3430595 1.8686113 -22.1675
-9.329896 0.93298817 -22.233315
-9.326705 9.5367432e-07 -22.249271
-9.3316002 -0.93315887 -22.224794
-9.3447418 -1.8689499 -22.15909
-9.3660908 -2.8098249 -22.052345
-9.3978167 -3.7591276 -21.893711
-9.4387474 -4.7193756 -21.68906
-9.4868259 -5.6920948 -21.448666
-9.552947 -6.6870623 -21.118065
-9.6264982 -7.7011986 -20.750305
-9.711731 -8.7405567 -20.324142
-9.8259497 -9.8259487 -19.753052
-9.953064 -10.948371 -19.117476
-10.130425 -12.156511 -18.230673
-10.334889 -13.435356 -17.208353
-10.606491 -14.849088 -15.850341
-10.981999 -16.473001 -13.9728
-10.059799 17.884087 -12.995024
-9.6293697 16.048946 -15.386298
-9.3503447 14.544979 -16.93644
-9.1338282 13.193308 -18.139307
-8.9808388 11.974451 -18.989244
-8.8477039 10.81386 -19.728886
-8.7449913 9.7166557 -20.299511
-8.6540384 8.6540394 -20.804808
-8.5766745 7.6237087 -21.234604
-8.5124989 6.6208334 -21.591137
-8.463275 5.6421814 -21.864605
-8.4158878 4.6754923 -22.127865
-8.3836842 3.7260818 -22.306774
-8.3604774 2.7868252 -22.435699
-8.3373747 1.8527479 -22.564053
-8.3287916 0.92542171 -22.611731
-8.3287916 9.5367432e-07 -22.611732
-8.3287916 -0.92542267 -22.611731
-8.3403511 -1.8534117 -22.547514
-8.3634462 -2.7878151 -22.419201
-8.386694 -3.7274199 -22.290049
-8.4208546 -4.6782522 -22.100271
-8.4695854 -5.64639 -21.829546
-8.5200853 -6.6267347 -21.548985
-8.5851135 -7.6312118 -21.187717
-8.6643925 -8.6643934 -20.747282
-8.7580805 -9.7311993 -20.226793
-8.8633251 -10.832952 -19.642099
-9.0002899 -12.000384 -18.881186
-9.1539478 -13.222368 -18.027527
-9.3814774 -14.593409 -16.763477
-9.6673269 -16.112213 -15.175423
-10.13247 -18.013281 -12.591295
-9.3889904 19.951603 -10.201611
-8.7274065 17.454813 -14.336504
-8.4005842 15.751094 -16.379145
-8.1994247 14.348991 -17.636396
-8.0346375 13.056285 -18.666317
-7.9026456 11.853968 -19.491261
-7.7954965 10.718805 -20.160942
-7.6995635 9.6244526 -20.760525
-7.6284995 8.5820618 -21.204674
-7.5588675 7.5588675 -21.639874
-7.5060887 6.5678253 -21.969744
-7.4651284 5.5988455 -22.225742
-7.4248486 4.6405287 -22.477491
-7.3996892 3.6998434 -22.634741
-7.3804073 2.7676535 -22.755249
-7.3612256 1.8403063 -22.875134
-7.3541613 0.91926956 -22.919291
-7.3541613 -3.8146973e-06 -22.919292
-7.3541613 -0.91927242 -22.919291
-7.3635836 -1.8408947 -22.860395
-7.3827991 -2.7685518 -22.740303
-7.4020929 -3.7010489 -22.619717
-7.4299269 -4.6437054 -22.445755
-7.4703054 -5.6027298 -22.19339
-7.5116725 -6.5727167 -21.934839
-7.5677772 -7.5677781 -21.584188
-7.6375742 -8.5922709 -21.147959
-7.7109551 -9.6386929 -20.689325
-7.8091402 -10.737567 -20.075676
-7.9183717 -11.877556 -19.392979
-8.0531588 -13.086384 -18.550552
-8.2248325 -14.393456 -17.477596
-8.4275599 -15.801674 -16.21055
-8.7765245 -17.553051 -14.029517
-7.8966117 19.177485 -12.478428
-7.5033545 17.150524 -15.287405
-7.2688999 15.576214 -16.962084
-7.0986485 14.197296 -18.17816
-6.9626021 12.930546 -19.149925
-6.853744 11.749275 -19.927481
-6.7654843 10.631476 -20.557905
-6.6890283 9.5557537 -21.104023
-6.6313758 8.5260544 -21.515823
-6.5758414 7.515245 -21.912502
-6.5317225 6.5317202 -22.227638
-6.4964805 5.5684118 -22.479366
-6.4644165 4.6174393 -22.708393
-6.4398575 3.6799192 -22.883812
-6.4231668 2.7527847 -23.003036
-6.4096246 1.8313208 -23.099762
-6.4003377 0.91433144 -23.1661
-6.4003377 -0 -23.166096
-6.4030485 -0.91472054 -23.146736
-6.4083848 -1.8309689 -23.108616
-6.4250169 -2.7535782 -22.989815
-6.443615 -3.682065 -22.856974
-6.4657149 -4.6183681 -22.699116
-6.5006609 -5.5719957 -22.449505
-6.5369153 -6.5369158 -22.190544
-6.5815082 -7.5217237 -21.872021
-6.638391 -8.5350761 -21.465717
-6.6969228 -9.56703 -21.047634
-6.7763309 -10.64852 -20.480431
-6.8657966 -11.769938 -19.841393
-6.9798379 -12.962557 -19.02681
-7.1165662 -14.233132 -18.05018
-7.2952161 -15.632606 -16.774109
-7.537447 -17.228453 -15.043886
-7.9707069 -19.357431 -11.949177
-6.6236458 18.766994 -13.685749
-6.3462 16.923197 -15.997798
-6.1647639 15.411909 -17.509762
-6.0309091 14.07212 -18.625223
-5.9244933 12.836401 -19.512018
-5.8394265 11.678854 -20.220907
-5.7669291 10.572701 -20.825054
-5.7015753 9.5026245 -21.369671
-5.6527042 8.4790535 -21.776928
-5.6082616 7.4776807 -22.147282
-5.5681868 6.4962168 -22.481236
-5.5396729 5.5396738 -22.718861
-5.5137939 4.5948277 -22.934517
-5.4903088 3.6602068 -23.130222
-5.4779572 2.7389774 -23.23315
-5.4673018 1.8224335 -23.321949
-5.4567189 0.90945339 -23.410141
-5.4582767 -2.8610229e-06 -23.397158
-5.461781 -0.91029835 -23.367954
-5.4653058 -1.8217678 -23.338581
-5.4783616 -2.7391796 -23.229782
-5.4963565 -3.6642361 -23.079823
-5.5144711 -4.5953951 -22.928875
-5.5415802 -5.5415802 -22.702961
-5.5756474 -6.5049214 -22.419067
-5.6103311 -7.4804425 -22.130039
-5.658154 -8.4872313 -21.731514
-5.7116604 -9.519434 -21.285627
-5.7748108 -10.587152 -20.759371
-5.8483047 -11.696609 -20.146921
-5.9372811 -12.864111 -19.405453
-6.0447092 -14.104322 -18.510218
-6.1868467 -15.467118 -17.325739
-6.3749251 -16.9998 -15.758424
-6.6716824 -18.903099 -13.285444
-5.8593578 21.093685 -10.289219
-5.4363117 18.483458 -14.51968
-5.2321324 16.742823 -16.56147
-5.1008577 15.302576 -17.874216
-4.9962487 13.989497 -18.920305
-4.9111452 12.768976 -19.771343
-4.8386354 11.612722 -20.496441
-4.7812276 10.5187 -21.070517
-4.726346 9.452692 -21.619337
-4.6866598 8.4359875 -22.016201
-4.6503205 7.4405112 -22.379589
-4.6158242 6.4621515 -22.724552
-4.5952873 5.5143433 -22.929924
-4.574945 4.5749445 -23.133347
-4.5554914 3.6443901 -23.327879
-4.5466232 2.727973 -23.416565
-4.5382242 1.8152857 -23.500557
-4.5304303 0.90608501 -23.578495
-4.5310931 -9.5367432e-07 -23.571861
-4.5338635 -0.90677357 -23.544159
-4.5366373 -1.8146582 -23.516418
-4.5470343 -2.7282219 -23.412457
-4.5612249 -3.6489792 -23.270546
-4.5755048 -4.5755053 -23.12775
-4.5968366 -5.5162058 -22.914433
-4.6237955 -6.4733167 -22.644838
-4.6523509 -7.4437599 -22.359291
-4.6911821 -8.4441299 -21.970974
-4.7361531 -9.4723072 -21.521261
-4.7847538 -10.526459 -21.035259
-4.8486814 -11.636836 -20.395988
-4.9180951 -12.787048 -19.701843
-5.0069447 -14.019445 -18.813351
-5.1162815 -15.348845 -17.719984
-5.2495599 -16.798594 -16.387194
-5.4674172 -18.58922 -14.208623
-4.5702944 20.566322 -11.75412
-4.3081508 18.309639 -15.030912
-4.1600866 16.640345 -16.881716
-4.0585575 15.219589 -18.150827
-3.9737291 13.908051 -19.211182
-3.9083869 12.702257 -20.027958
-3.8508756 11.552627 -20.746849
-3.8088329 10.474289 -21.272388
-3.7681277 9.4203148 -21.781204
-3.7373431 8.4090214 -22.166008
-3.7099421 7.4198823 -22.50852
-3.6845741 6.4480038 -22.825623
-3.6666381 5.4999552 -23.049816
-3.6504388 4.5630493 -23.252308
-3.6364458 3.636445 -23.427223
-3.6275918 2.7206945 -23.537897
-3.6209188 1.8104591 -23.621313
-3.6163106 0.90407753 -23.678909
-3.6151631 -1.9073486e-06 -23.693256
-3.6173675 -0.9043417 -23.665703
-3.6212854 -1.8106451 -23.61673
-3.6279292 -2.7209473 -23.533678
-3.6392212 -3.6392212 -23.392529
-3.6518161 -4.5647726 -23.235092
-3.6678605 -5.5017939 -23.034534
-3.6893153 -6.456305 -22.766354
-3.7118571 -7.4237137 -22.484583
-3.7408838 -8.4169893 -22.121748
-3.7748458 -9.4371166 -21.697224
-3.8104 -10.4786 -21.2528
-3.8597662 -11.579299 -20.635714
-3.9133418 -12.718363 -19.966028
-3.985034 -13.947619 -19.069872
-4.0672517 -15.252195 -18.04215
-4.1775427 -16.710171 -16.663517
-4.3282266 -18.394964 -14.779961
-4.6481853 -20.916836 -10.780479
-3.381536 20.289211 -12.523869
-3.210676 18.193827 -15.371533
-3.1010942 16.539165 -17.197897
-3.028023 15.140114 -18.415745
-2.9688962 13.854849 -19.401192
-2.9232848 12.667566 -20.161381
-2.8813391 11.525353 -20.860481
-2.8499544 10.449834 -21.383554
-2.8206878 9.4022913 -21.871334
-2.7959859 8.3879566 -22.283031
-2.7760563 7.4028158 -22.615192
-2.7576764 6.434577 -22.921522
-2.7428148 5.4856281 -23.169214
-2.7317405 4.5529003 -23.353786
-2.7213995 3.6285315 -23.526136
-2.7134604 2.713459 -23.658457
-2.709569 1.8063803 -23.723312
-2.7062347 0.90207672 -23.778885
-2.7041276 -1.9073486e-06 -23.813999
-2.7066445 -0.902215 -23.772055
-2.7099798 -1.806653 -23.716469
-2.7137198 -2.7137213 -23.654133
-2.7226427 -3.6301918 -23.505417
-2.7329855 -4.5549765 -23.333036
-2.7437267 -5.4874554 -23.154016
-2.7598364 -6.4396191 -22.885527
-2.778229 -7.4086113 -22.578978
-2.7986362 -8.3959112 -22.238859
-2.8239796 -9.4132652 -21.816471
-2.8525479 -10.459345 -21.34033
-2.8880963 -11.552385 -20.747856
-2.9269714 -12.683543 -20.099937
-2.9771998 -13.893599 -19.262802
-3.0328743 -15.164372 -18.334892
-3.1167512 -16.622675 -16.936941
-3.2273002 -18.288036 -15.094456
-3.4116716 -20.470032 -12.0216
-2.2391429 20.152287 -12.904223
-2.1276863 18.085331 -15.690639
-2.0620379 16.496304 -17.331846
-2.01561 15.117072 -18.49255
-1.9752067 13.826447 -19.502625
-1.9451754 12.643641 -20.25341
-1.9173964 11.504378 -20.947886
-1.8958229 10.427025 -21.487225
-1.8768668 9.3843346 -21.961124
-1.8593329 8.3669987 -22.399473
-1.8468382 7.387352 -22.71184
-1.8346361 6.4212255 -23.016895
-1.8241125 5.4723377 -23.279984
-1.8174834 4.5437059 -23.445709
-1.8109026 3.6218023 -23.610235
-1.8053863 2.7080784 -23.748138
-1.8032519 1.8032484 -23.801502
-1.8011223 0.90055847 -23.854736
-1.7992746 -9.5367432e-07 -23.900932
-1.8013946 -0.90069771 -23.847931
-1.8035246 -1.8035269 -23.794682
-1.8057054 -2.70856 -23.740166
-1.8117385 -3.6234779 -23.589336
-1.8183256 -4.5458145 -23.424654
-1.8250022 -5.475008 -23.257744
-1.83618 -6.4266319 -22.978298
-1.8483924 -7.3935719 -22.672987
-1.8610963 -8.3749352 -22.355389
-1.879212 -9.3960609 -21.902491
-1.8982102 -10.440157 -21.42754
-1.9209329 -11.525598 -20.859476
-1.9484259 -12.664768 -20.172152
-1.9808601 -13.866019 -19.361296
-2.0196321 -15.147242 -18.391991
-2.0708683 -16.566948 -17.111092
-2.1402869 -18.19244 -15.375624
-2.2625272 -20.362745 -12.319614
-1.1127083 20.028746 -13.247383
-1.062912 18.069504 -15.737192
-1.0307713 16.492342 -17.344233
-1.0064276 15.096416 -18.561413
-0.98617798 13.806492 -19.573896
-0.97098261 12.622773 -20.333664
-0.95724392 11.486923 -21.020601
-0.94669569 10.413651 -21.548012
-0.93768698 9.3768702 -21.998447
-0.92910284 8.3619251 -22.427654
-0.92308015 7.3846397 -22.72879
-0.91724741 6.4207325 -23.020426
-0.91199946 5.4719954 -23.282825
-0.90868783 4.5434408 -23.448402
-0.90540797 3.6216307 -23.6124
-0.90266526 2.7079954 -23.749531
-0.90146935 1.8029366 -23.80933
-0.90040493 0.90040588 -23.862545
-0.89985365 -9.5367432e-07 -23.890116
-0.90052837 -0.90052795 -23.856377
-0.90159303 -1.8031855 -23.803143
-0.90310353 -2.7093124 -23.727623
-0.90578252 -3.6231289 -23.59367
-0.90907544 -4.5453768 -23.429024
-0.91276765 -5.4766073 -23.244415
-0.9179486 -6.4256406 -22.985365
-0.92379552 -7.3903637 -22.69302
-0.93008286 -8.3707466 -22.378651
-0.93881667 -9.3881674 -21.941963
-0.94787794 -10.42666 -21.488899
-0.95894957 -11.507397 -20.935318
-0.97276998 -12.646011 -20.244297
-0.98862273 -13.840718 -19.451656
-1.0088917 -15.133376 -18.43821
-1.0342196 -16.547516 -17.171818
-1.0690167 -18.173285 -15.431965
-1.1254246 -20.257639 -12.611572
0 20.115267 -13.007053
0 18.076727 -15.71595
0 16.48838 -17.356609
0 15.084761 -18.600254
0 13.813222 -19.549862
0 12.630091 -20.305525
0 11.501637 -20.959305
0 10.419813 -21.520004
0 9.3823633 -21.970974
0 8.3693409 -22.386446
0 7.3859758 -22.720448
0 6.4234972 -23.000679
0 5.4745865 -23.261236
0 4.5431671 -23.451099
0 3.6227722 -23.598129
0 2.7088461 -23.735348
0 1.8026247 -23.817158
0 0.9006052 -23.85247
0 -9.5367432e-07 -23.879419
0 -0.90036106 -23.864813
0 -1.8034592 -23.79632
0 -2.7100716 -23.714947
0 -3.6227856 -23.598001
0 -4.5461235 -23.421572
0 -5.4790611 -23.223953
0 -6.4264283 -22.979738
0 -7.3928881 -22.677235
0 -8.3771362 -22.343145
0 -9.3927984 -21.91881
0 -10.435602 -21.448246
0 -11.519786 -20.883684
0 -12.651133 -20.224586
0 -13.84582 -19.43343
0 -15.122143 -18.47566
0 -16.548685 -17.168161
0 -18.170565 -15.439953
0 -20.2819 -12.544187
1.1239703 20.231464 -12.684283
1.0653751 18.111378 -15.614042
1.0331405 16.530247 -17.225767
1.0079564 15.119345 -18.484974
0.98906028 13.846844 -19.429781
0.97276115 12.645894 -20.24474
0.959925 11.519098 -20.886549
0.9478277 10.426104 -21.491413
0.93900847 9.3900833 -21.932377
0.93075269 8.376771 -22.345161
0.92341387 7.3873072 -22.712105
0.91812146 6.4268494 -22.976727
0.91290486 5.4774265 -23.237553
0.90873921 4.5436954 -23.445835
0.90597886 3.6239138 -23.583851
0.90323275 2.7096977 -23.721159
0.90135819 1.8027172 -23.814884
0.90083593 0.90083504 -23.841
0.90031677 -0 -23.866955
0.90039492 -0.90039444 -23.863052
0.90198225 -1.8039618 -23.783684
0.90360808 -2.710825 -23.702393
0.90570605 -3.6228237 -23.597492
0.90962791 -4.5481415 -23.401402
0.91358387 -5.4815044 -23.203604
0.91821575 -6.4275136 -22.97201
0.92481232 -7.3984966 -22.642181
0.93150431 -8.3835373 -22.307579
0.93986398 -9.3986425 -21.889595
0.94989508 -10.448847 -21.388042
0.96101999 -11.53224 -20.8318
0.9748857 -12.673518 -20.138508
0.99102777 -13.87439 -19.331404
1.0107739 -15.16161 -18.344099
1.0365881 -16.585409 -17.053392
1.0710765 -18.208303 -15.328965
1.1342939 -20.417292 -12.1681
2.2621295 20.359167 -12.329552
2.1459312 18.240414 -15.234518
2.0745728 16.596582 -17.018476
2.0215859 15.161895 -18.343145
1.9830877 13.881611 -19.305605
1.9480131 12.662083 -20.18247
1.9227633 11.536579 -20.813713
1.8990895 10.444992 -21.405556
1.8809694 9.4048481 -21.858559
1.8650546 8.3927422 -22.256432
1.8504487 7.4017925 -22.621576
1.8398803 6.4395781 -22.885786
1.829796 5.4893894 -23.137897
1.8215984 4.5539951 -23.342834
1.8159299 3.6318579 -23.484554
1.8106173 2.7159252 -23.617365
1.8072212 1.8072186 -23.702267
1.8057812 0.90288734 -23.738264
1.8047434 -9.5367432e-07 -23.764212
1.8054471 -0.90272427 -23.746618
1.8081809 -1.8081818 -23.67828
1.8113307 -2.7169981 -23.599533
1.8161091 -3.6322203 -23.480066
1.8233993 -4.5585003 -23.29781
1.8310453 -5.4931374 -23.106663
1.8407854 -6.4427481 -22.863159
1.8534434 -7.413775 -22.546711
1.8663362 -8.3985147 -22.22439
1.8834354 -9.4171753 -21.796913
1.9026487 -10.464569 -21.316582
1.9246895 -11.548138 -20.76556
1.9538791 -12.700214 -20.03582
1.9861534 -13.903074 -19.22896
2.0285497 -15.214126 -18.169052
2.0815098 -16.652079 -16.845053
2.1562762 -18.328348 -14.97589
2.2838254 -20.55443 -11.787159
3.460958 20.765745 -11.200166
3.2419953 18.371305 -14.849543
3.1243966 16.663446 -16.809523
3.0454447 15.227224 -18.125381
2.9856422 13.932997 -19.122089
2.9352381 12.719365 -19.96216
2.8953543 11.581415 -20.626888
2.8602295 10.487507 -21.212303
2.8309765 9.4365883 -21.699856
2.8066089 8.4198246 -22.10598
2.7853785 7.4276781 -22.45982
2.7672482 6.4569092 -22.761993
2.7520325 5.5040655 -23.015585
2.7406271 4.5677109 -23.205679
2.7304118 3.6405506 -23.375933
2.7223971 2.722394 -23.509514
2.7183423 1.8122272 -23.577095
2.7150095 0.90500164 -23.632641
2.7133002 -9.5367432e-07 -23.661125
2.7155669 -0.90518856 -23.623348
2.7189012 -1.8126011 -23.567778
2.723449 -2.7234526 -23.491978
2.7320421 -3.6427221 -23.348763
2.742363 -4.5706034 -23.176748
2.7538457 -5.5076914 -22.985367
2.7702098 -6.4638233 -22.712633
2.7889028 -7.4370756 -22.401085
2.8083723 -8.4251194 -22.076591
2.8362491 -9.4541636 -21.611977
2.8652973 -10.506088 -21.127842
2.9005997 -11.6024 -20.539469
2.942601 -12.751271 -19.839449
2.9924996 -13.964999 -19.007801
3.0534585 -15.267294 -17.991825
3.140168 -16.747562 -16.546665
3.2618203 -18.483644 -14.519133
3.5231323 -21.138794 -10.163923
4.3609977 18.534239 -14.370322
4.2023354 16.809341 -16.353605
4.0922832 15.346063 -17.729252
4.0039234 14.013732 -18.833752
3.9351256 12.789156 -19.693729
3.8783138 11.634942 -20.403872
3.8292489 10.530431 -21.017185
3.7908084 9.4770203 -21.497692
3.7542481 8.4470558 -21.954695
3.7268803 7.4537597 -22.296795
3.7022173 6.478879 -22.60508
3.6792243 5.5188341 -22.892494
3.6652186 4.581522 -23.067562
3.651402 3.6513996 -23.240273
3.6390054 2.7292538 -23.395229
3.6345255 1.8172607 -23.451225
3.6300468 0.90750885 -23.50721
3.6262021 -9.5367432e-07 -23.555271
3.630661 -0.90766525 -23.499531
3.6351416 -1.8175707 -23.443525
3.6399212 -2.7299414 -23.383781
3.6532879 -3.6532888 -23.216694
3.667129 -4.5839138 -23.043678
3.6815495 -5.5223236 -22.863422
3.705745 -6.4850554 -22.560984
3.7305307 -7.4610624 -22.251162
3.7587647 -8.457222 -21.898239
3.7967227 -9.491807 -21.423761
3.8356042 -10.547911 -20.937746
3.8869796 -11.660942 -20.295551
3.9442165 -12.818705 -19.580091
4.0170674 -14.059738 -18.669453
4.101018 -15.378818 -17.620071
4.2201757 -16.880703 -16.1306
4.3934145 -18.672009 -13.965118
5.5578537 18.8967 -13.304263
5.3146129 17.006758 -15.73667
5.1555738 15.466719 -17.327061
5.0431304 14.120764 -18.45149
4.9466696 12.86134 -19.4161
4.8748717 11.699692 -20.134077
4.8077703 10.577093 -20.805094
4.761097 9.522193 -21.271824
4.7153215 8.4875784 -21.72958
4.6799397 7.4879026 -22.083397
4.6499438 6.5099211 -22.383354
4.6203175 5.5443792 -22.679625
4.6027794 4.6027803 -22.855
4.5859494 3.6687603 -23.0233
4.5696707 2.7418022 -23.186092
4.5598936 1.8239565 -23.283859
4.5543442 0.91087055 -23.339355
4.5536094 9.5367432e-07 -23.346703
4.5550919 -0.91101933 -23.331877
4.5606303 -1.8242512 -23.276493
4.5714102 -2.7428455 -23.168697
4.58812 -3.6704969 -23.001591
4.6049528 -4.6049528 -22.833267
4.6241012 -5.5489235 -22.641783
4.6537771 -6.5152879 -22.345028
4.683836 -7.4941368 -22.044439
4.7211738 -8.4981136 -21.671059
4.7670636 -9.5341263 -21.212162
4.8141856 -10.591207 -20.740942
4.8842831 -11.722281 -20.039968
4.9566803 -12.88737 -19.31599
5.0575233 -14.161066 -18.307568
5.1754055 -15.526217 -17.128742
5.3342214 -17.069508 -15.540583
5.6005263 -19.041786 -12.877534
6.8528624 19.416443 -11.775611
6.462183 17.232485 -15.031274
6.252192 15.630478 -16.781195
6.1051598 14.24537 -18.006464
5.9861307 12.969948 -18.998375
5.8967576 11.793512 -19.743149
5.8151584 10.661123 -20.423145
5.753046 9.5884104 -20.940746
5.6973023 8.5459528 -21.405279
5.6509509 7.5346007 -21.791538
5.6132016 6.5487337 -22.106117
5.5772414 5.5772429 -22.405783
5.5539808 4.628314 -22.599623
5.5328789 3.6885843 -22.775471
5.5127864 2.7563934 -22.942913
5.4988766 1.8329573 -23.058823
5.4924016 0.9153986 -23.112785
5.4924016 -0 -23.112785
5.4924016 -0.91540146 -23.112785
5.5007095 -1.8335695 -23.043549
5.5152268 -2.7576122 -22.922573
5.5354958 -3.6903296 -22.753664
5.556746 -4.6306238 -22.576576
5.5818524 -5.5818524 -22.367359
5.6178722 -6.5541849 -22.067196
5.6558995 -7.5412016 -21.750298
5.704422 -8.5566339 -21.345949
5.7606835 -9.6011391 -20.8771
5.8255444 -10.680166 -20.336596
5.9074378 -11.814875 -19.65415
6.0012193 -13.002642 -18.872639
6.1208544 -14.281994 -17.875677
6.2765794 -15.691451 -16.577965
6.5016088 -17.337626 -14.702722
6.9289203 -19.631943 -11.141794
7.694778 17.588062 -13.920097
7.4057503 15.869467 -15.984579
7.2082419 14.416481 -17.395357
7.0601172 13.111646 -18.453384
6.9423256 11.901128 -19.29476
6.8417339 10.751295 -20.013268
6.7627015 9.6610022 -20.577782
6.6933212 8.6056957 -21.07336
6.6348329 7.5826659 -21.491131
6.5898061 6.5898056 -21.812752
6.5455761 5.6104927 -22.128677
6.5162487 4.65446 -22.338163
6.4910331 3.7091608 -22.518276
6.4662161 2.7712336 -22.695541
6.4559317 1.8445539 -22.768997
6.4479303 0.92113209 -22.826147
6.4418278 -9.5367432e-07 -22.869741
6.4489827 -0.92128372 -22.818634
6.4569678 -1.8448505 -22.761597
6.4692802 -2.7725468 -22.673653
6.4942703 -3.7110138 -22.49515
6.5195107 -4.6567926 -22.314861
6.5510588 -5.6151929 -22.089521
6.5955749 -6.5955758 -21.771545
6.6406803 -7.5893502 -21.44936
6.7022023 -8.6171188 -21.00992
6.7717485 -9.6739254 -20.513168
6.8540573 -10.770659 -19.925249
6.9557652 -11.92417 -19.198757
7.0781078 -13.145058 -18.324884
7.2284102 -14.45682 -17.251297
7.4344172 -15.930896 -15.779813
7.7388687 -17.688845 -13.60516
9.0826426 18.165285 -12.116281
8.6167336 16.156372 -15.028213
8.3516426 14.615372 -16.685032
8.1649961 13.268115 -17.851574
8.0099649 12.014949 -18.820515
7.8920841 10.851616 -19.55727
7.7939391 9.7424221 -20.170677
7.7162476 8.6807756 -20.656248
7.642199 7.6422 -21.119053
7.5914307 6.6425014 -21.436356
7.5416198 5.6562128 -21.747677
7.5035725 4.6897316 -21.985466
7.4752293 3.7376146 -22.162615
7.4495544 2.7935829 -22.323078
7.4351192 1.858777 -22.4133
7.4259839 0.92824745 -22.470398
7.4213605 -0 -22.499294
7.4271836 -0.92839813 -22.4629
7.4363003 -1.8590775 -22.40592
7.4521637 -2.7945633 -22.306772
7.4788771 -3.7394409 -22.139816
7.5072484 -4.6920309 -21.962494
7.5479875 -5.6609902 -21.707874
7.5979052 -6.6481705 -21.395891
7.6512151 -7.6512146 -21.062702
7.726181 -8.6919556 -20.594162
7.8040743 -9.7550964 -20.10733
7.9069419 -10.872044 -19.464411
8.0256205 -12.038432 -18.722668
8.1876383 -13.304913 -17.710058
8.3823147 -14.669048 -16.493334
8.6631231 -16.243359 -14.738272
9.1743326 -18.348665 -11.543219
9.9488125 16.581354 -13.611615
9.5712662 14.888636 -15.709093
9.3172283 13.458218 -17.120419
9.1329355 12.177244 -18.144268
8.9801989 10.9758 -18.992804
8.8676128 9.8529015 -19.61828
8.7749023 8.7749004 -20.133339
8.691433 7.7257147 -20.597061
8.6202211 6.704617 -20.992683
8.5656662 5.7104445 -21.295759
8.5168543 4.7315836 -21.566944
8.4806204 3.7691631 -21.768238
8.4553194 2.8184395 -21.908798
8.4322786 1.8738384 -22.036804
8.421443 0.93571663 -22.097004
8.421443 -2.8610229e-06 -22.097008
8.42274 -0.93586063 -22.08979
8.4352503 -1.8745003 -22.020294
8.4582815 -2.8194284 -21.89234
8.4847698 -3.7710104 -21.74519
8.5231199 -4.7350645 -21.532131
8.5719786 -5.7146544 -21.260693
8.6276159 -6.7103696 -20.951599
8.7017984 -7.7349329 -20.539469
8.7863216 -8.7863235 -20.069899
8.88099 -9.8677673 -19.543961
8.9987803 -10.998511 -18.889572
9.1543531 -12.205803 -18.02528
9.3456373 -13.499256 -16.962589
9.6094036 -14.947963 -15.497223
10.014652 -16.691086 -13.245845
11.604248 17.406372 -10.861555
10.920697 15.288975 -14.27931
10.557708 13.725021 -16.094255
10.313923 12.376706 -17.313179
10.126536 11.139188 -18.250116
9.9813719 9.9813709 -18.975937
9.8567657 8.8710871 -19.598969
9.7638531 7.8110828 -20.063532
9.673461 6.7714224 -20.515493
9.6098547 5.7659116 -20.833523
9.5545349 4.7772665 -21.110119
9.5063305 3.8025284 -21.351145
9.4808455 2.8442516 -21.478569
9.4555254 1.8911028 -21.605171
9.4417658 0.94417572 -21.673969
9.4417658 -9.5367432e-07 -21.673965
9.4417658 -0.94417667 -21.673969
9.4587765 -1.8917561 -21.588913
9.4841146 -2.845233 -21.462225
9.5096169 -3.8038464 -21.334709
9.5616035 -4.7808032 -21.074778
9.6169767 -5.7701859 -20.797913
9.6849594 -6.7794733 -20.457998
9.7756271 -7.8205023 -20.004658
9.8697643 -8.8827877 -19.533976
9.9990177 -9.9990177 -18.887711
10.149274 -11.164201 -18.136425
10.340767 -12.408919 -17.178961
10.591307 -13.768699 -15.926263
10.986498 -15.381097 -13.950306
11.775573 -17.663361 -10.004931
12.485286 15.890364 -12.131495
11.917369 14.084162 -14.712935
11.576602 12.629021 -16.261875
11.34099 11.340989 -17.33284
11.150558 10.136868 -18.198444
11.001346 9.0011005 -18.876678
10.891914 7.921392 -19.37409
10.792991 6.8682652 -19.82375
10.707007 5.8401842 -20.214581
10.646407 4.8392725 -20.490038
10.593109 3.8520374 -20.7323
10.554893 2.8786049 -20.90601
10.526677 1.9139404 -21.034262
10.511112 0.95555687 -21.105015
10.508179 -9.5367432e-07 -21.118347
10.513141 -0.95573997 -21.095791
10.530027 -1.9145489 -21.019035
10.558577 -2.879611 -20.889271
10.599421 -3.8543329 -20.703611
10.654193 -4.8428159 -20.454645
10.715628 -5.8448906 -20.175392
10.805575 -6.8762751 -19.766548
10.904799 -7.9307609 -19.315531
11.017815 -9.014576 -18.801819
11.172799 -10.15709 -18.097345
11.37024 -11.370241 -17.199886
11.613022 -12.668753 -16.096336
11.964534 -14.139906 -14.49855
12.633479 -16.078974 -11.457887
13.579221 14.710819 -12.302712
12.986996 12.986992 -14.770318
12.656254 11.601564 -16.148409
12.410116 10.341761 -17.173977
12.216037 9.1620255 -17.982649
12.066867 8.0445766 -18.604183
11.952623 6.9723601 -19.080202
11.853387 5.9266915 -19.493687
11.767391 4.9030795 -19.852001
11.712573 3.9041901 -20.08041
11.658263 2.914566 -20.306698
11.630982 1.9384975 -20.420372
11.613598 0.96780014 -20.492802
11.600029 -9.5367432e-07 -20.549343
11.61587 -0.96798897 -20.483341
11.63326 -1.938879 -20.410883
11.665236 -2.9163103 -20.277645
11.719646 -3.9065514 -20.050938
11.776146 -4.9067297 -19.815523
11.866098 -5.9330502 -19.440723
11.965548 -6.9799018 -19.026348
12.083556 -8.0557041 -18.534647
12.236357 -9.177269 -17.897976
12.434451 -10.362043 -17.072586
12.697659 -11.639522 -15.975886
13.051204 -13.051204 -14.502776
13.671663 -14.810969 -11.91753
14.739794 13.605963 -12.191283
14.149947 11.973028 -14.459926
13.789392 10.607224 -15.846673
13.529332 9.3664589 -16.846901
13.337615 8.2077618 -17.584278
13.182208 7.0981107 -18.181995
13.057549 6.0265594 -18.661457
12.96332 4.9858918 -19.023874
12.899489 3.9690714 -19.269382
12.84042 2.9631739 -19.496563
12.800623 1.9693251 -19.649632
12.781694 0.98320675 -19.722429
12.772642 9.5367432e-07 -19.757248
12.784156 -0.98339748 -19.712969
12.803051 -1.9697018 -19.640289
12.847992 -2.96492 -19.467445
12.907169 -3.9714389 -19.239838
12.972444 -4.9894004 -18.988781
13.0715 -6.0330005 -18.607796
13.199302 -7.107317 -18.116253
13.35989 -8.2214708 -17.498608
13.557961 -9.3862829 -16.73679
13.824431 -10.634178 -15.711906
14.204715 -12.019373 -14.249277
14.842022 -13.700329 -11.798099
16.108696 12.656832 -11.351742
15.390975 10.993553 -13.915026
15.009809 9.6491623 -15.276335
14.734774 8.4198704 -16.258606
14.530672 7.2653341 -16.987537
14.367616 6.1575489 -17.569885
14.24785 5.0885167 -17.997618
14.148879 4.0425358 -18.351082
14.087916 3.0188389 -18.56881
14.039366 2.0056229 -18.742207
14.005064 1.0003624 -18.864708
14.005064 -1.9073486e-06 -18.86471
14.005108 -1.0003653 -18.864555
14.04558 -2.0065098 -18.720011
14.094131 -3.0201731 -18.546619
14.158928 -4.0454082 -18.315195
14.261108 -5.0932536 -17.950264
14.386379 -6.1655917 -17.502869
14.553249 -7.2766242 -16.90691
14.766404 -8.4379482 -16.145638
15.052685 -9.6767273 -15.123212
15.460689 -11.043351 -13.666049
16.310936 -12.815735 -10.629455
16.858376 10.115024 -12.68821
16.39217 8.7424908 -14.242227
16.076529 7.5023804 -15.294367
15.820732 6.3282928 -16.147022
15.664564 5.2215209 -16.667583
15.524769 4.1399384 -17.133568
15.44396 3.0887904 -17.402931
15.371717 2.0495605 -17.64374
15.348454 1.0232286 -17.721287
15.325308 -1.9073486e-06 -17.798435
15.358219 -1.0238819 -17.688728
15.407827 -2.054379 -17.523369
15.474605 -3.0949216 -17.300781
15.570989 -4.1522651 -16.979502
15.688338 -5.2294478 -16.588337
15.853205 -6.3412824 -16.038784
16.085636 -7.5066299 -15.264009
16.417313 -8.7559004 -14.15842
16.922913 -10.153748 -12.473089
18.840366 9.4201832 -10.006656
17.961569 7.8581858 -12.752896
17.56982 6.5886822 -13.97711
17.311977 5.4099913 -14.782872
17.117117 4.2792778 -15.391811
16.985498 3.1847782 -15.803112
16.898764 2.1123466 -16.074162
16.847509 1.0529685 -16.234331
16.852196 -3.8146973e-06 -16.219685
16.869587 -1.0543518 -16.165337
16.90925 -2.1136556 -16.041388
17.000641 -3.1876187 -15.755794
17.142475 -4.2856174 -15.312563
17.330271 -5.4157085 -14.725698
17.618937 -6.6071024 -13.823623
18.056423 -7.8996854 -12.456472
19.158186 -9.579093 -9.0134583
20.614275 6.0630198 -8.2525778
20.623911 4.8526855 -8.2242355
20.619713 3.6387727 -8.2365837
20.627644 2.4267821 -8.2132568
20.626087 1.2132976 -8.2178326
20.63846 -9.5367432e-07 -8.1814461
20.63846 -1.2140303 -8.1814461
20.630833 -2.4271572 -8.2038803
20.61808 -3.638485 -8.2413836
20.622976 -4.8524661 -8.2269802
20.616295 -6.0636148 -8.2466354
