# .PCD v0.7 - Point Cloud Data file format
VERSION 0.7
FIELDS x y z
SIZE 4 4 4
TYPE F F F
COUNT 1 1 1
WIDTH 1056
HEIGHT 1
VIEWPOINT 0 0 0 1 0 0 0
POINTS 1056
DATA ascii
-21.92079 7.3069305 -7.9917107
-20.802063 5.7783489 -11.099288
-20.356377 4.5236378 -12.337307
-20.131065 3.3551788 -12.963169
-19.922808 2.2136431 -13.541664
-19.899059 1.1055026 -13.60763
-19.884579 -1.4305115e-06 -13.647852
-19.880144 -1.1044517 -13.660173
-19.974192 -2.219358 -13.398932
-20.170458 -3.3617454 -12.853745
-20.374491 -4.5276651 -12.286985
-20.816713 -5.7824221 -11.058589
-19.935028 9.3811893 -10.25036
-19.197538 7.9048686 -12.419449
-18.805185 6.6371241 -13.573432
-18.526083 5.4488468 -14.394316
-18.339407 4.315155 -14.943363
-18.167309 3.2059956 -15.449535
-18.115515 2.1312351 -15.601871
-18.070518 1.0629697 -15.734209
-18.038286 -2.3841858e-06 -15.82901
-18.068371 -1.0628471 -15.740526
-18.118336 -2.1315689 -15.593577
-18.202124 -3.2121396 -15.347139
-18.332094 -4.3134356 -14.964869
-18.538261 -5.4524279 -14.358499
-18.820322 -6.642468 -13.52891
-19.228981 -7.9178147 -12.326973
-20.011518 -9.4171848 -10.025392
-19.092764 11.932974 -9.2179127
-18.087374 10.174149 -12.359748
-17.580198 8.7900991 -13.944679
-17.282286 7.5610003 -14.875654
-17.012829 6.3798089 -15.717703
-16.869698 5.2717791 -16.164993
-16.731672 4.1829171 -16.596323
-16.640455 3.1200848 -16.881378
-16.576439 2.0720534 -17.081425
-16.522398 1.03265 -17.250299
-16.516834 -1.9073486e-06 -17.267693
-16.539753 -1.0337362 -17.196068
-16.57073 -2.0713425 -17.099264
-16.651108 -3.1220856 -16.848083
-16.742552 -4.1856394 -16.562323
-16.868757 -5.2714868 -16.167927
-17.050743 -6.394031 -15.599223
-17.294706 -7.5664339 -14.836837
-17.616707 -8.8083515 -13.830591
-18.126022 -10.195889 -12.238976
-17.339163 12.715383 -11.085592
-16.637415 11.09161 -13.424746
-16.229923 9.7379513 -14.783053
-15.951636 8.5075378 -15.710676
-15.730308 7.3408098 -16.448435
-15.562003 6.2248011 -17.009455
-15.427573 5.1425247 -17.457554
-15.316848 4.0844917 -17.826637
-15.250845 3.0501647 -18.04665
-15.186172 2.0248194 -18.262222
-15.1568 1.0104542 -18.360125
-15.161561 -9.5367432e-07 -18.344261
-15.169279 -1.0112877 -18.318533
-15.193438 -2.0257945 -18.238007
-15.256339 -3.0512671 -18.028336
-15.339383 -4.0905042 -17.751522
-15.429792 -5.1432638 -17.450153
-15.565617 -6.2262487 -16.997406
-15.733027 -7.3420811 -16.439375
-15.95981 -8.5119028 -15.683428
-16.256813 -9.7540903 -14.693419
-16.685951 -11.123968 -13.262959
-17.405432 -12.763981 -10.864696
-15.999722 13.714048 -11.740931
-15.379576 12.083952 -13.955742
-15.014562 10.724685 -15.259365
-14.737472 9.4740887 -16.248968
-14.524302 8.2996006 -17.010288
-14.346479 7.1732407 -17.645369
-14.223427 6.0957537 -18.084841
-14.110197 5.0393538 -18.489237
-14.030928 4.0088353 -18.772346
-13.980165 2.9957485 -18.95364
-13.930715 1.990099 -19.130247
-13.910285 0.99359131 -19.203205
-13.9005 -9.5367432e-07 -19.238152
-13.898614 -0.99276066 -19.24489
-13.936057 -1.9908657 -19.11116
-13.985284 -2.9968481 -18.935352
-14.037309 -4.0106621 -18.749546
-14.117934 -5.04212 -18.461605
-14.224326 -6.0961423 -18.081636
-14.361753 -7.1808782 -17.590818
-14.528938 -8.3022509 -16.993727
-14.734774 -9.4723539 -16.258608
-15.027883 -10.734203 -15.211789
-15.413457 -12.110573 -13.834733
-16.051706 -13.758608 -11.555273
-14.79646 14.796459 -11.973337
-14.232985 13.138138 -14.140549
-13.866999 11.733614 -15.548183
-13.58486 10.449892 -16.633337
-13.392563 9.2717724 -17.37294
-13.228097 8.1403656 -18.005501
-13.092157 7.049624 -18.528343
-12.987021 5.9940081 -18.932716
-12.892851 4.9587879 -19.29491
-12.833134 3.9486551 -19.524588
-12.777596 2.9486742 -19.738194
-12.728459 1.9582253 -19.927181
-12.724046 0.97877312 -19.944159
-12.721376 -0 -19.954426
-12.718708 -0.97836113 -19.964689
-12.749017 -1.9613867 -19.848118
-12.782164 -2.9497309 -19.720625
-12.828962 -3.9473743 -19.540634
-12.911193 -4.9658451 -19.224361
-12.996704 -5.9984798 -18.895475
-13.088552 -7.0476842 -18.54221
-13.22931 -8.1411152 -18.000832
-13.401272 -9.2778006 -17.339443
-13.614878 -10.472982 -16.517881
-13.891494 -11.754339 -15.453971
-14.266863 -13.169412 -14.010248
-14.930529 -14.930527 -11.457685
-13.776815 16.072952 -11.479398
-13.161423 14.258207 -14.043532
-12.785348 12.785349 -15.610513
-12.527627 11.483654 -16.684351
-12.314981 10.262482 -17.570377
-12.155859 9.1168919 -18.233383
-12.008484 8.0056562 -18.847446
-11.906119 6.9452343 -19.273966
-11.816502 5.9082513 -19.647373
-11.737492 4.8906193 -19.976582
-11.689352 3.8964491 -20.177164
-11.647925 2.9119816 -20.34977
-11.613668 1.9356127 -20.492512
-11.601005 0.96674919 -20.545277
-11.588333 1.9073486e-06 -20.598074
-11.592125 -0.96601295 -20.582277
-11.619888 -1.9366503 -20.466595
-11.651299 -2.9128275 -20.335716
-11.687194 -3.8957319 -20.186157
-11.750598 -4.8960829 -19.92197
-11.829025 -5.9145136 -19.595192
-11.911738 -6.9485154 -19.250555
-12.023139 -8.0154266 -18.786385
-12.157581 -9.118186 -18.226206
-12.32823 -10.273525 -17.515171
-12.538201 -11.493355 -16.640289
-12.811858 -12.811859 -15.500058
-13.198667 -14.298555 -13.888351
-13.868191 -16.179558 -11.098665
-12.918953 17.616755 -10.160277
-12.140102 15.451039 -13.700508
-11.768173 13.907842 -15.391098
-11.487198 12.531486 -16.668261
-11.282545 11.282545 -17.598501
-11.110906 10.100821 -18.378681
-10.986972 8.989337 -18.94202
-10.867339 7.9035192 -19.485798
-10.781683 6.8610687 -19.875149
-10.701732 5.8373084 -20.238562
-10.639112 4.8359594 -20.523197
-10.59444 3.8525229 -20.726246
-10.554672 2.8785448 -20.907013
-10.528493 1.9142704 -21.026009
-10.519013 0.95627213 -21.069098
-10.51336 -9.5367432e-07 -21.094797
-10.516171 -0.95601654 -21.082024
-10.53479 -1.9154158 -20.997383
-10.56034 -2.8800936 -20.88125
-10.596122 -3.853137 -20.718611
-10.651628 -4.8416491 -20.466301
-10.70772 -5.8405752 -20.211342
-10.777383 -6.8583384 -19.894693
-10.872412 -7.907208 -19.462738
-10.987107 -8.9894543 -18.941397
-11.124872 -10.113521 -18.315193
-11.290893 -11.290893 -17.560558
-11.499923 -12.545368 -16.61042
-11.794521 -13.938982 -15.271334
-12.191779 -15.51681 -13.465618
-13.114312 -17.883152 -9.2722874
-11.19926 16.798887 -12.886498
-10.777987 15.089181 -14.992858
-10.506867 13.658924 -16.348461
-10.295907 12.355087 -17.403261
-10.112281 11.123507 -18.321392
-9.9818048 9.9818068 -18.97377
-9.8653469 8.8788128 -19.556061
-9.7637644 7.8110108 -20.063972
-9.697567 6.7882943 -20.394962
-9.6322613 5.779356 -20.721489
-9.5798197 4.7899084 -20.9837
-9.5399771 3.8159904 -21.182909
-9.5049543 2.8514843 -21.358025
-9.4831371 1.8966246 -21.467113
-9.4734221 0.94734383 -21.515686
-9.4683781 -0 -21.540909
-9.4730043 -0.94730186 -21.517776
-9.489624 -1.8979225 -21.434677
-9.507987 -2.8524008 -21.342859
-9.5372353 -3.8148947 -21.196623
-9.5866394 -4.7933211 -20.9496
-9.6393585 -5.783617 -20.686005
-9.7031803 -6.7922268 -20.366894
-9.7838297 -7.8270655 -19.963646
-9.870491 -8.8834419 -19.530342
-9.9855528 -9.9855537 -18.955032
-10.125612 -11.138175 -18.254736
-10.297225 -12.35667 -17.396671
-10.512462 -13.666202 -16.32049
-10.805853 -15.128195 -14.853533
-11.283207 -16.92481 -12.466761
-10.375064 18.444555 -11.243553
-9.8373737 16.395624 -14.23072
-9.5322075 14.827876 -15.92609
-9.2980862 13.430567 -17.226763
-9.134347 12.179127 -18.136425
-8.9917679 10.989937 -18.928528
-8.8866034 9.8740015 -19.512779
-8.7925892 8.7925882 -20.035076
-8.7117968 7.7438178 -20.483925
-8.6488438 6.7268796 -20.833664
-8.5867939 5.7245283 -21.178385
-8.5450964 4.7472754 -21.41004
-8.5152016 3.7845325 -21.576124
-8.4864349 2.8288126 -21.735935
-8.4681978 1.8818216 -21.83725
-8.4573679 0.9397068 -21.897419
-8.4484138 -0 -21.947166
-8.4528513 -0.93920517 -21.922508
-8.4703779 -1.8823071 -21.825144
-8.4889717 -2.8296595 -21.72184
-8.5156021 -3.7847157 -21.573898
-8.554409 -4.752449 -21.358307
-8.5945396 -5.7296906 -21.135353
-8.6503677 -6.728066 -20.825195
-8.7229996 -7.753778 -20.421684
-8.7971563 -8.7971554 -20.009706
-8.8948727 -9.883193 -19.466837
-9.0064468 -11.007882 -18.846979
-9.1461725 -12.1949 -18.070726
-9.3171978 -13.458173 -17.120584
-9.5549736 -14.863294 -15.799606
-10.042082 -16.736805 -13.093452
-10.582412 -18.813175 -10.091621
-8.9318686 17.863733 -13.058618
-8.5869608 16.10055 -15.214295
-8.3415232 14.597665 -16.748278
-8.172019 13.279531 -17.807678
-8.03584 12.053761 -18.658791
-7.91292 10.880262 -19.427048
-7.8270397 9.7837963 -19.963797
-7.7467556 8.7150993 -20.465576
-7.6793542 7.6793513 -20.886833
-7.623733 6.6707654 -21.234463
-7.5743899 5.6807899 -21.54286
-7.5375571 4.7109718 -21.773066
-7.5088906 3.7544451 -21.952229
-7.4840074 2.8065014 -22.107748
-7.4701104 1.867528 -22.194607
-7.4596348 0.93245316 -22.260082
-7.4579926 -9.5367432e-07 -22.270344
-7.4613209 -0.93266487 -22.249538
-7.4705873 -1.8676481 -22.191628
-7.4884262 -2.8081598 -22.080132
-7.5100732 -3.7550373 -21.944836
-7.5436749 -4.714797 -21.734831
-7.5801659 -5.6851254 -21.506762
-7.6263981 -6.6730976 -21.21781
-7.6881828 -7.6881828 -20.831656
-7.7541518 -8.7234221 -20.41935
-7.8362832 -9.7953539 -19.906025
-7.932693 -10.907454 -19.303465
-8.0438499 -12.065773 -18.608738
-8.1852179 -13.30098 -17.725187
-8.4046431 -14.708124 -16.353781
-8.828227 -16.552927 -13.706377
-9.2977467 -18.595493 -10.771878
-8.1302433 19.744875 -10.809628
-7.6566734 17.500969 -14.192272
-7.3960247 15.848623 -16.054049
-7.2235198 14.44704 -17.286226
-7.081089 13.150592 -18.303593
-6.9649482 11.939913 -19.133165
-6.8700051 10.795721 -19.811333
-6.7939878 9.7056942 -20.354313
-6.7294912 8.6522007 -20.815006
-6.6745415 7.6280465 -21.207497
-6.6296391 6.6296391 -21.528233
-6.5873976 5.6463385 -21.82996
-6.558248 4.6844616 -22.038166
-6.5370107 3.7354345 -22.189865
-6.5166631 2.7928543 -22.335201
-6.5040202 1.8582916 -22.425508
-6.4962931 0.92804337 -22.480701
-6.4899297 -1.9073486e-06 -22.526154
-6.4929233 -0.92756081 -22.504776
-6.5053725 -1.8586788 -22.415852
-6.5187941 -2.7937717 -22.319981
-6.5372376 -3.7355661 -22.188238
-6.5647264 -4.6890926 -21.991888
-6.5932388 -5.6513491 -21.788233
-6.6312199 -6.6312189 -21.516939
-6.6817474 -7.6362858 -21.156027
-6.7357688 -8.6602745 -20.770161
-6.8011875 -9.7159815 -20.302885
-6.8814425 -10.813696 -19.729637
-6.9764881 -11.959692 -19.050743
-7.0926147 -13.171997 -18.221264
-7.2780585 -14.556116 -16.896664
-7.6407285 -16.37299 -14.306164
-8.0424719 -18.382793 -11.436572
-8.4877834 -20.613188 -8.2557735
-6.7856021 19.225874 -12.336111
-6.474772 17.266054 -14.926365
-6.2725835 15.681458 -16.611267
-6.1308632 14.305347 -17.792269
-6.0216928 13.046999 -18.702023
-5.9304066 11.860813 -19.462738
-5.8508034 10.726471 -20.126102
-5.7935061 9.6558409 -20.60358
-5.7386327 8.6079473 -21.060858
-5.6932201 7.5909595 -21.439293
-5.6555519 6.5981417 -21.753197
-5.6197524 5.6197519 -22.051525
-5.5955529 4.6629601 -22.253189
-5.5768871 3.717926 -22.408737
-5.5590978 2.7795467 -22.55698
-5.5480289 1.8493423 -22.649225
-5.5426145 0.923769 -22.694345
-5.5397201 -2.8610229e-06 -22.718464
-5.5420098 -0.92366791 -22.699383
-5.5505643 -1.8501892 -22.628094
-5.5610352 -2.7805157 -22.54084
-5.5759211 -3.7172813 -22.41679
-5.5997233 -4.6664381 -22.218437
-5.6249743 -5.6249752 -22.008007
-5.6563802 -6.5991092 -21.746294
-5.6991348 -7.5988474 -21.390003
-5.7435999 -8.6154013 -21.019463
-5.7983942 -9.6639919 -20.56284
-5.8640409 -10.750742 -20.015793
-5.9372993 -11.874599 -19.4053
-6.0315871 -13.068439 -18.61957
-6.1745415 -14.407266 -17.42828
-6.4787912 -16.196981 -14.892871
-6.8155885 -18.174906 -12.086224
-7.1886797 -20.367929 -8.9771271
-5.5605998 18.90604 -13.276795
-5.3328247 17.065037 -15.554548
-5.1860805 15.558241 -17.021992
-5.0801001 14.22428 -18.081795
-4.9910574 12.976748 -18.972221
-4.9152107 11.796503 -19.73069
-4.8536978 10.678133 -20.345819
-4.8051858 9.6103706 -20.830936
-4.7592382 8.5666275 -21.290413
-4.7217693 7.5548296 -21.665102
-4.6937685 6.5712767 -21.94511
-4.6665845 5.5998993 -22.216949
-4.6459703 4.6459694 -22.423096
-4.6291428 3.7033138 -22.591366
-4.6124372 2.7674637 -22.758425
-4.6042018 1.8416815 -22.840775
-4.6020689 0.92041206 -22.86211
-4.5999508 9.5367432e-07 -22.883286
-4.6009765 -0.92019653 -22.873028
-4.6080651 -1.8432283 -22.802145
-4.6151757 -2.7691088 -22.731041
-4.6266274 -3.7013035 -22.61652
-4.6480236 -4.6480255 -22.402561
-4.6702147 -5.6042595 -22.180651
-4.6947136 -6.5725989 -21.935661
-4.7288599 -7.5661759 -21.594198
-4.7635074 -8.5743141 -21.247725
-4.8073249 -9.6146526 -20.809551
-4.8613811 -10.695038 -20.268984
-4.9215546 -11.811731 -19.66725
-4.9930859 -12.982023 -18.951935
-5.0933337 -14.261336 -17.949457
-5.3415699 -16.02471 -15.467094
-5.6161442 -17.971661 -12.721357
-5.9201055 -20.128359 -9.6817398
-4.7514153 21.381367 -9.4901085
-4.4012403 18.705273 -13.867291
-4.2417574 16.96703 -15.860827
-4.1230059 15.461271 -17.345224
-4.0412931 14.144526 -18.366631
-3.9712775 12.906651 -19.241827
-3.9172711 11.751814 -19.916904
-3.8690121 10.639782 -20.520145
-3.8304796 9.5761976 -21.001799
-3.7938917 8.5362568 -21.459148
-3.7654161 7.5308294 -21.815094
-3.7417753 6.5481071 -22.110603
-3.7201169 5.5801754 -22.381336
-3.7032931 4.6291142 -22.591633
-3.6917489 3.6917477 -22.735935
-3.6813078 2.7609797 -22.866451
-3.6740577 1.8370295 -22.957073
-3.67081 0.91770172 -22.997669
-3.6675787 -9.5367432e-07 -23.038065
-3.6670144 -0.91675377 -23.045116
-3.6749496 -1.8374758 -22.94593
-3.682919 -2.7621899 -22.84631
-3.6913252 -3.6913252 -22.74123
-3.7072177 -4.6340227 -22.542572
-3.7232478 -5.5848737 -22.342201
-3.7407534 -6.5463195 -22.123381
-3.7682269 -7.5364537 -21.779961
-3.796499 -8.5421238 -21.426558
-3.8313804 -9.5784531 -20.990543
-3.869966 -10.642406 -20.508223
-3.920182 -11.760549 -19.88052
-3.9784327 -12.929907 -19.152386
-4.0470362 -14.164625 -18.294847
-4.2282848 -15.856069 -16.029236
-4.4432287 -17.772917 -13.342437
-4.6809411 -19.894001 -10.371031
-3.4864664 20.918797 -10.775026
-3.2788124 18.579935 -14.235921
-3.1643329 16.876444 -16.143911
-3.0813 15.4065 -17.527798
-3.0226576 14.105734 -18.505171
-2.9707596 12.873291 -19.370134
-2.931139 11.724554 -20.030479
-2.8913832 10.601737 -20.693077
-2.8645747 9.548583 -21.139885
-2.8396528 8.5189581 -21.555252
-2.8177733 7.5140624 -21.919907
-2.8001134 6.533596 -22.214243
-2.7833068 5.5666151 -22.494347
-2.7712753 4.6187916 -22.694874
-2.7626634 3.6835508 -22.838406
-2.7548673 2.7548647 -22.968342
-2.7488043 1.8325338 -23.069389
-2.7463882 0.91546059 -23.109661
-2.745537 -1.9073486e-06 -23.123848
-2.745568 -0.91518879 -23.123327
-2.7505429 -1.8336954 -23.040417
-2.7556612 -2.7556629 -22.955105
-2.7616363 -3.6821833 -22.855528
-2.772907 -4.6215115 -22.667681
-2.7861261 -5.5722523 -22.447361
-2.8001702 -6.5337305 -22.213293
-2.8177075 -7.513886 -21.921003
-2.8391933 -8.517581 -21.562906
-2.8651271 -9.5504246 -21.130676
-2.8959885 -10.618626 -20.616322
-2.9306765 -11.722705 -20.038191
-2.9730101 -12.883043 -19.332628
-3.0239639 -14.111835 -18.483397
-3.1381879 -15.690939 -16.579668
-3.2959719 -17.578518 -13.94993
-3.4703128 -19.665104 -11.044249
-3.6641414 -21.984848 -7.813776
-2.3056853 20.751165 -11.240664
-2.1759288 18.495394 -14.484577
-2.102355 16.818838 -16.323927
-2.0477953 15.358461 -17.68792
-2.0113771 14.079638 -18.598372
-1.9766262 12.848068 -19.467142
-1.9492697 11.695618 -20.151054
-1.9245628 10.585095 -20.768724
-1.9064584 9.5322886 -21.22134
-1.8892732 8.50173 -21.650965
-1.8743362 7.4973459 -22.024389
-1.863753 6.5231352 -22.288971
-1.8538492 5.5615463 -22.53657
-1.8452868 4.6132164 -22.750622
-1.8393334 3.6786642 -22.899456
-1.8334132 2.7501202 -23.047466
-1.8289485 1.8289461 -23.159084
-1.8284756 0.91423607 -23.170902
-1.8281901 -0 -23.178047
-1.8279045 -0.91395283 -23.185181
-1.830889 -1.8308887 -23.110571
-1.8342073 -2.7513132 -23.027611
-1.838514 -3.6770277 -22.919947
-1.8460385 -4.615099 -22.731834
-1.8551369 -5.5654116 -22.504374
-1.8644766 -6.5256667 -22.270884
-1.8755816 -7.5023289 -21.993258
-1.8903718 -8.5066719 -21.623501
-1.9065825 -9.5329151 -21.218233
-1.9264349 -10.595392 -20.721926
-1.9503151 -11.70189 -20.12492
-1.9779565 -12.856715 -19.433887
-2.0117354 -14.082148 -18.589411
-2.0705616 -15.529215 -17.118753
-2.1735406 -17.388325 -14.544283
-2.2872176 -19.441349 -11.702353
-2.4133332 -21.719997 -8.549469
-1.1468815 20.643864 -11.538724
-1.0860772 18.46331 -14.578936
-1.0501999 16.803196 -16.372805
-1.0230774 15.346158 -17.728928
-1.0036781 14.051492 -18.698891
-0.98632008 12.822159 -19.566795
-0.97387683 11.686522 -20.188953
-0.9620139 10.582151 -20.782101
-0.95262533 9.5262527 -21.251532
-0.94385535 8.4946966 -21.690029
-0.93658996 7.4927201 -22.053299
-0.93120247 6.5184145 -22.322674
-0.9260844 5.5565062 -22.578579
-0.92152858 4.6076412 -22.806366
-0.91875571 3.6750221 -22.945011
-0.91654468 2.7496328 -23.055561
-0.91434699 1.8286943 -23.165449
-0.91385621 0.91385365 -23.189987
-0.91341013 -9.5367432e-07 -23.212292
-0.91296184 -0.91296291 -23.234707
-0.9145574 -1.8291159 -23.154926
-0.91688681 -2.7506609 -23.038458
-0.91922545 -3.6769018 -22.921522
-0.92251921 -4.6125975 -22.756836
-0.92688453 -5.5613093 -22.538568
-0.93129134 -6.5190401 -22.31823
-0.93696082 -7.4956884 -22.034756
-0.94426239 -8.4983635 -21.669674
-0.95289046 -9.528904 -21.238274
-0.96256053 -10.588171 -20.754765
-0.9742896 -11.691477 -20.16832
-0.98789746 -12.842669 -19.487925
-1.0045334 -14.063468 -18.656128
-1.0247713 -15.371572 -17.64423
-1.0751487 -17.202379 -15.125364
-1.130747 -19.222698 -12.345451
-1.1923029 -21.461454 -9.2676468
0 20.687954 -11.416258
0 18.464247 -14.576189
0 16.797112 -16.391819
0 15.357586 -17.690847
0 14.056183 -18.68214
0 12.828608 -19.541994
0 11.687689 -20.18409
0 10.579243 -20.795324
0 9.5226746 -21.269428
0 8.500906 -21.655539
0 7.4955974 -22.035301
0 6.5205288 -22.307579
0 5.5570335 -22.574181
0 4.6078939 -22.80386
0 3.6760912 -22.931629
0 2.750205 -23.046028
0 1.829073 -23.155966
0 0.91368484 -23.198418
0 -0 -23.20879
0 -0.91377544 -23.194006
0 -1.829874 -23.135946
0 -2.7511635 -23.030094
0 -3.6767864 -22.922966
0 -4.6100998 -22.781813
0 -5.5593061 -22.555248
0 -6.5190983 -22.317823
0 -7.5000978 -22.007191
0 -8.4985886 -21.668427
0 -9.5286236 -21.239681
0 -10.587631 -20.757214
0 -11.689918 -20.174805
0 -12.849886 -19.460161
0 -14.079023 -18.600569
0 -15.380975 -17.612883
0 -17.020422 -15.693979
0 -19.008842 -12.974442
0 -21.209301 -9.9680691
1.152009 20.736164 -11.282343
1.0897326 18.525457 -14.39616
1.0522635 16.836216 -16.269619
1.0248399 15.372597 -17.6408
1.0055816 14.078143 -18.60371
0.98865312 12.85249 -19.450138
0.97523433 11.702811 -20.121077
0.96319723 10.59517 -20.722931
0.95353699 9.5353689 -21.205944
0.94531089 8.5077972 -21.617252
0.93764603 7.5011663 -22.000498
0.93191975 6.5234375 -22.286812
0.92744809 5.5646868 -22.510389
0.92301667 4.6150827 -22.731966
0.92001641 3.6800642 -22.881973
0.91749591 2.7524881 -23.008003
0.91499162 1.8299818 -23.133217
0.91419369 0.91419411 -23.173111
0.91447425 9.5367432e-07 -23.159081
0.91477054 -0.91477108 -23.144264
0.91546798 -1.8309383 -23.109398
0.91758478 -2.7527552 -23.003555
0.92005324 -3.680212 -22.880133
0.92300332 -4.6150188 -22.732628
0.92705005 -5.5623012 -22.530294
0.93197906 -6.5238533 -22.283842
0.93824732 -7.505981 -21.970428
0.94561636 -8.5105476 -21.601978
0.95407695 -9.5407696 -21.178951
0.96410906 -10.605201 -20.67734
0.97562754 -11.707534 -20.101418
0.98975688 -12.866838 -19.394957
1.0066826 -14.093556 -18.548666
1.027441 -15.411618 -17.510744
1.0539004 -16.862406 -16.18778
1.1058567 -18.799561 -13.589966
1.1646452 -20.963614 -10.650537
2.3444431 21.099987 -10.271716
2.1884542 18.601858 -14.171447
2.1125534 16.900427 -16.06896
2.058681 15.440106 -17.415773
2.0171511 14.120056 -18.45402
1.9811894 12.87773 -19.353065
1.9543182 11.725908 -20.024843
1.9317658 10.624708 -20.588657
1.9111793 9.5558949 -21.103313
1.8946565 8.5259533 -21.51638
1.8792505 7.5170016 -21.901533
1.8675981 6.5365925 -22.192844
1.8579106 5.5737305 -22.435028
1.848918 4.6222954 -22.659847
1.8420181 3.6840382 -22.832342
1.8380204 2.7570295 -22.932285
1.8345995 1.8346004 -23.017811
1.8320771 0.91603661 -23.080864
1.8321972 -2.8610229e-06 -23.077866
1.8323171 -0.91615868 -23.074867
1.8329016 -1.832902 -23.060257
1.8384196 -2.7576313 -22.92231
1.8443089 -3.6886187 -22.775074
1.8502359 -4.6255903 -22.626896
1.8576318 -5.5728965 -22.442001
1.8682865 -6.5390043 -22.175632
1.8800299 -7.5201216 -21.882046
1.8949467 -8.5272598 -21.50913
1.910992 -9.5549603 -21.107992
1.9318758 -10.625318 -20.585901
1.9560286 -11.736172 -19.982079
1.9837782 -12.89456 -19.288342
2.0190876 -14.133612 -18.405611
2.0621173 -15.465879 -17.329866
2.1181777 -16.945419 -15.928355
2.1976299 -18.67985 -13.942053
2.375392 -21.378527 -9.4979973
3.6013923 21.608351 -8.8595943
3.3112438 18.763712 -13.695402
3.182986 16.975924 -15.833033
3.1045241 15.522622 -17.140724
3.0381234 14.177906 -18.24741
2.9856977 12.938021 -19.121168
2.9424932 11.76997 -19.841244
2.9064062 10.656824 -20.442692
2.8729451 9.5764828 -21.000378
2.8500385 8.5501146 -21.382151
2.8286707 7.5431204 -21.738285
2.8093202 6.5550795 -22.060795
2.7947152 5.5894299 -22.304211
2.7806134 4.6343555 -22.539236
2.7702653 3.6936865 -22.711704
2.7643564 2.7643538 -22.810192
2.7590477 1.839366 -22.898668
2.7539008 0.91796684 -22.984451
2.7538536 -9.5367432e-07 -22.985237
2.7558894 -0.9186306 -22.951303
2.758677 -1.839119 -22.904846
2.7648709 -2.7648716 -22.801617
2.7734008 -3.6978655 -22.659451
2.7819836 -4.6366386 -22.516403
2.7930012 -5.5860033 -22.332777
2.8097208 -6.556015 -22.054115
2.8284137 -7.5424385 -21.742563
2.8509896 -8.552969 -21.366302
2.877269 -9.5908947 -20.928318
2.9078155 -10.661992 -20.419203
2.9452128 -11.780854 -19.795914
2.9887848 -12.951403 -19.069719
3.0414252 -14.193319 -18.192377
3.1088629 -15.544317 -17.068415
3.1958926 -17.04476 -15.617919
3.3283894 -18.86087 -13.409643
4.4768839 19.026754 -12.921749
4.2902751 17.161098 -15.25436
4.1680336 15.630124 -16.782377
4.0692058 14.242218 -18.017723
4.0029278 13.009516 -18.846199
3.9408598 11.822579 -19.622049
3.8923151 10.703865 -20.228855
3.8489418 9.6223526 -20.771025
3.8153462 8.584527 -21.190971
3.7847676 7.5695362 -21.5732
3.7564394 6.5737696 -21.927305
3.7383199 5.60748 -22.153797
3.7225585 4.6531992 -22.350815
3.7069297 3.7069302 -22.546177
3.6982288 2.7736692 -22.654934
3.69032 1.8451576 -22.753794
3.683351 0.92083836 -22.840906
3.6837094 -0 -22.83643
3.6870222 -0.9217577 -22.795015
3.6907647 -1.8453808 -22.74824
3.696413 -2.7723093 -22.677633
3.7081363 -3.7081347 -22.531094
3.7214069 -4.6517572 -22.365206
3.7392538 -5.608881 -22.142124
3.7599173 -6.5798545 -21.883831
3.7856469 -7.5712953 -21.56221
3.8148487 -8.5834103 -21.197187
3.851867 -9.6296682 -20.734463
3.8930805 -10.705972 -20.21929
3.9443612 -11.833087 -19.578278
4.0060043 -13.019516 -18.807739
4.0802722 -14.280953 -17.879393
4.1748056 -15.655521 -16.697725
4.2987566 -17.195024 -15.148344
4.5006437 -19.127739 -12.624748
5.7093811 19.411894 -11.788988
5.4235225 17.35527 -14.647573
5.2545657 15.763696 -16.337141
5.1316185 14.368527 -17.566612
5.0375576 13.097649 -18.507221
4.9512663 11.883039 -19.370134
4.8930306 10.764668 -19.952488
4.8395672 9.6791344 -20.487127
4.7928486 8.6271257 -20.954311
4.7542324 7.6067724 -21.340469
4.7197614 6.6076646 -21.685184
4.6944394 5.6333256 -21.938402
4.6729813 4.6729774 -22.152983
4.6524987 3.7219992 -22.357811
4.6384706 2.783082 -22.498089
4.6330614 1.8532238 -22.552179
4.6276522 0.92553043 -22.606277
4.6244736 -0 -22.638062
4.628304 -0.92566204 -22.599754
4.6321416 -1.8528585 -22.561384
4.6400485 -2.7840309 -22.482307
4.653481 -3.7227831 -22.347992
4.6694827 -4.6694832 -22.187969
4.6942616 -5.6331129 -21.940182
4.7207723 -6.6090822 -21.675077
4.7552581 -7.6084127 -21.330215
4.7941337 -8.6294422 -20.941456
4.8414164 -9.6828318 -20.468634
4.8968725 -10.77312 -19.914072
4.960638 -11.905532 -19.276413
5.0416298 -13.108238 -18.466497
5.1445794 -14.404822 -17.437
5.2672763 -15.801831 -16.21003
5.4408703 -17.410786 -14.474093
5.7456484 -19.535206 -11.426314
7.1176915 20.166792 -9.5687037
6.6128259 17.634201 -13.775914
6.3718743 15.929681 -15.783845
6.2180657 14.508821 -17.065577
6.0926962 13.200841 -18.110327
5.995368 11.990734 -18.921394
5.9136248 10.841644 -19.602589
5.8444285 9.7407122 -20.179228
5.7800832 8.6701221 -20.715437
5.7391276 7.6521697 -21.056736
5.6994882 6.6494012 -21.387058
5.6638794 5.6638794 -21.6838
5.6378508 4.6982079 -21.900709
5.6145072 3.7430029 -22.095234
5.596899 2.7984486 -22.24197
5.5892363 1.8630762 -22.305828
5.5816264 0.93026924 -22.369244
5.5750837 9.5367432e-07 -22.423763
5.5788851 -0.92981339 -22.392088
5.5898509 -1.8632841 -22.300705
5.6008439 -2.8004217 -22.209095
5.6143765 -3.7429171 -22.096325
5.6369452 -4.6974525 -21.908253
5.6646771 -5.6646781 -21.677155
5.6989164 -6.6487389 -21.391825
5.7395711 -7.6527624 -21.05304
5.7891984 -8.6837988 -20.639477
5.8454719 -9.7424526 -20.170528
5.9171586 -10.848127 -19.573141
5.9993734 -11.998748 -18.88802
6.1006465 -13.218068 -18.044079
6.2290783 -14.534515 -16.973806
6.3953843 -15.988459 -15.587931
6.6362114 -17.696564 -13.581034
7.25003 -20.54175 -8.4658775
7.8898082 18.033848 -12.527021
7.5610757 16.202301 -14.875113
7.3463163 14.692631 -16.409107
7.1780853 13.33073 -17.610756
7.0596085 12.102184 -18.457022
6.9529529 10.926066 -19.218847
6.871912 9.8170166 -19.79771
6.800921 8.7440395 -20.30479
6.7440557 7.7074914 -20.710968
6.6939182 6.6939154 -21.069096
6.6454802 5.696125 -21.415077
6.6179342 4.7270956 -21.611839
6.5945902 3.7683382 -21.77858
6.5714293 2.816328 -21.944016
6.5586681 1.8739061 -22.035164
6.5496488 0.93566036 -22.09959
6.5463567 9.5367432e-07 -22.123108
6.5500112 -0.93571758 -22.097004
6.5622025 -1.8749151 -22.00992
6.5744209 -2.8176107 -21.922646
6.5879173 -3.7645245 -21.826239
6.6172733 -4.7266245 -21.616562
6.6490102 -5.6991539 -21.389864
6.6947737 -6.6947742 -21.062984
6.7420778 -7.7052336 -20.725094
6.8053994 -8.7497997 -20.2728
6.8754354 -9.8220491 -19.772543
6.9617624 -10.939913 -19.155922
7.066052 -12.113232 -18.410994
7.192615 -13.357715 -17.506973
7.3616562 -14.723313 -16.299536
7.5746007 -16.231287 -14.778506
7.9347157 -18.136494 -12.206255
9.3366232 18.673246 -10.528898
8.81991 16.537333 -13.758355
8.5136156 14.898826 -15.672696
8.3189907 13.51836 -16.889103
8.1622267 12.243339 -17.868883
8.0276222 11.037981 -18.710157
7.9280272 9.9100323 -19.332628
7.8449745 8.8255959 -19.851702
7.7693148 7.7693105 -20.324583
7.7110939 6.7472043 -20.688461
7.6624184 5.7468143 -20.992682
7.6224012 4.7640009 -21.242786
7.5930872 3.7965403 -21.426003
7.5639753 2.8364897 -21.607948
7.5446916 1.8861704 -21.728474
7.5426135 0.94282627 -21.741463
7.5406919 -0 -21.753471
7.5387707 -0.94234562 -21.765478
7.5509534 -1.887742 -21.689335
7.5697803 -2.8386679 -21.571672
7.5946331 -3.7973166 -21.416344
7.6228976 -4.7643108 -21.239685
7.6639237 -5.7479467 -20.983273
7.7159009 -6.7514133 -20.658417
7.7756495 -7.7756515 -20.284985
7.8470793 -8.8279648 -19.838552
7.9371924 -9.9214916 -19.275343
8.0440254 -11.060536 -18.607637
8.1698408 -12.254763 -17.821287
8.3374443 -13.548347 -16.773773
8.5529289 -14.967623 -15.426993
8.8636036 -16.619257 -13.48527
9.4987984 -18.997595 -9.5153065
10.209652 17.016085 -12.162507
9.787014 15.224243 -14.510494
9.5124226 13.740164 -16.036007
9.296772 12.395697 -17.234058
9.1535139 11.187627 -18.02994
9.021286 10.023651 -18.76454
8.9196625 8.9196606 -19.329117
8.8228283 7.8425112 -19.867085
8.7576036 6.8114672 -20.229443
8.7025833 5.8017225 -20.53511
8.6482754 4.8045959 -20.836823
8.6130686 3.8280296 -21.032417
8.5878639 2.8626194 -21.172443
8.5651093 1.9033575 -21.298857
8.5567341 0.95074844 -21.345388
8.5534735 -0 -21.363495
8.5501919 -0.95002174 -21.381729
8.5636911 -1.9030466 -21.306736
8.5916338 -2.8638802 -21.151497
8.6197586 -3.8310051 -20.995249
8.6480951 -4.8044968 -20.837824
8.7057228 -5.8038177 -20.517675
8.7710762 -6.8219485 -20.154596
8.8421392 -7.8596797 -19.7598
8.9159002 -8.9159031 -19.350014
9.0379791 -10.042198 -18.671801
9.1699457 -11.207714 -17.938652
9.325387 -12.43385 -17.075087
9.5301695 -13.7658 -15.937415
9.8168688 -15.270684 -14.34464
10.273314 -17.12219 -11.80883
11.186841 15.661575 -12.948591
10.780659 14.014854 -14.979502
10.524837 12.629803 -16.25861
10.325406 11.357945 -17.255768
10.153501 10.1535 -18.115292
10.032088 9.0288773 -18.722357
9.9329433 7.9463549 -19.218081
9.8418751 6.8893118 -19.673422
9.7749147 5.8649473 -20.008223
9.7096796 4.8548374 -20.334398
9.6663418 3.8665352 -20.551085
9.6380882 2.8914261 -20.692356
9.61063 1.9221268 -20.829647
9.5890675 0.95890617 -20.937458
9.5953579 -9.5367432e-07 -20.90601
9.6048641 -0.96048832 -20.858471
9.6143913 -1.9228802 -20.810841
9.6393003 -2.8917913 -20.686295
9.6733732 -3.8693495 -20.51593
9.7232914 -4.8616452 -20.266338
9.7744102 -5.8646474 -20.010746
9.8503094 -6.8952174 -19.631248
9.9420261 -7.9536223 -19.172668
10.050164 -9.0451469 -18.631971
10.170057 -10.170058 -18.032509
10.343525 -11.377879 -17.165171
10.552273 -12.662729 -16.121431
10.828213 -14.076678 -14.741732
11.25098 -15.751369 -12.627899
12.990728 16.533655 -9.8340302
12.223014 14.445377 -13.323646
11.836916 12.913 -15.078628
11.554235 11.554235 -16.36355
11.37035 10.336682 -17.199389
11.202852 9.1659679 -17.960743
11.081898 8.0595608 -18.510534
10.963561 6.9768124 -19.048426
10.882272 5.9357824 -19.417923
10.822753 4.9194331 -19.688463
10.763882 3.9141388 -19.956062
10.725141 2.9250374 -20.132158
10.695749 1.9446802 -20.265753
10.67952 0.97086525 -20.339523
10.676685 -0 -20.352406
10.686773 -0.9715271 -20.306549
10.696881 -1.9448862 -20.260609
10.717218 -2.9228792 -20.168171
10.773381 -3.9175935 -19.91288
10.830136 -4.9227896 -19.654903
10.887961 -5.938889 -19.392063
10.978827 -6.9865255 -18.979034
11.092871 -8.0675411 -18.460653
11.221602 -9.1813107 -17.875513
11.388932 -10.353573 -17.11492
11.583838 -11.583837 -16.228991
11.867709 -12.94659 -14.938663
12.272634 -14.504025 -13.098098
13.271044 -16.890423 -8.5598717
14.046655 15.217206 -10.355073
13.301497 13.301496 -13.459893
12.937744 11.859599 -14.97553
12.662271 10.551893 -16.123333
12.449924 9.3374424 -17.008114
12.282474 8.1883144 -17.705824
12.166352 7.0970387 -18.189663
12.054062 6.0270286 -18.657539
11.979466 4.9914441 -18.968351
11.908138 3.9693785 -19.265554
11.848441 2.9621086 -19.514294
11.8283 1.9713831 -19.598213
11.808625 0.98405266 -19.680191
11.790491 -9.5367432e-07 -19.755749
11.80599 -0.98383236 -19.69117
11.838634 -1.9731073 -19.555151
11.871423 -2.9678569 -19.418533
11.909276 -3.9697599 -19.260809
11.980879 -4.992033 -18.962467
12.076225 -6.038115 -18.565191
12.173179 -7.1010208 -18.161217
12.297961 -8.1986408 -17.641293
12.477397 -9.3580465 -16.893642
12.688105 -10.573421 -16.01569
12.976261 -11.894907 -14.815048
13.377615 -13.377616 -13.142733
14.224843 -15.410251 -9.6126127
15.201507 14.032158 -10.415467
14.492867 12.263194 -13.140997
14.083737 10.833642 -14.714579
13.811014 9.5614691 -15.76351
13.602837 8.3709764 -16.564194
13.439887 7.2368627 -17.190922
13.30267 6.1396918 -17.718683
13.183288 5.0704956 -18.177839
13.12275 4.0377679 -18.410679
13.064438 3.0148702 -18.634954
13.015787 2.0024281 -18.822075
12.993354 0.99948692 -18.908361
12.991738 -3.8146973e-06 -18.91457
12.992829 -0.99944782 -18.910381
13.026203 -2.0040302 -18.782017
13.062808 -3.0144958 -18.641232
13.129051 -4.0397072 -18.386446
13.206509 -5.0794291 -18.088531
13.315413 -6.1455755 -17.669668
13.460643 -7.2480383 -17.111092
13.626584 -8.3855915 -16.472858
13.837554 -9.5798454 -15.661432
14.115145 -10.857805 -14.593777
14.553061 -12.314128 -12.909484
15.474255 -14.283928 -9.3664331
15.783154 11.27368 -12.514388
15.36945 9.8803616 -13.991903
15.063555 8.6077452 -15.084387
14.805708 7.402854 -16.005268
14.653926 6.2802534 -16.547344
14.52819 5.1886401 -16.996405
14.419759 4.1199298 -17.383656
14.348581 3.0746961 -17.637863
14.287429 2.0410619 -17.856266
14.260703 1.0186186 -17.951714
14.261516 -1.9073486e-06 -17.948811
14.262373 -1.0187426 -17.945749
14.288335 -2.0411911 -17.853029
14.359648 -3.0770702 -17.598339
14.438151 -4.125186 -17.317972
14.529549 -5.1891241 -16.99155
14.668811 -6.2866359 -16.494184
14.845075 -7.4225368 -15.864671
15.099043 -8.6280241 -14.957644
15.401235 -9.9007959 -13.878387
15.878604 -11.34186 -12.173498
17.377987 10.42679 -10.956175
16.791059 8.9552298 -12.9126
16.428152 7.6664677 -14.122292
16.175323 6.47013 -14.965052
15.995029 5.3316751 -15.566031
15.844723 4.2252584 -16.067057
15.745444 3.1490893 -16.39798
15.693795 2.092504 -16.570145
15.642535 1.0428362 -16.741016
15.613695 -1.9073486e-06 -16.837141
15.654151 -1.0436091 -16.702293
15.696398 -2.0928545 -16.56147
15.745547 -3.1491122 -16.39764
15.868213 -4.2315259 -15.988756
16.016735 -5.3389144 -15.49368
16.208452 -6.4833813 -14.854624
16.480423 -7.6908627 -13.948052
16.8452 -8.9841061 -12.732136
17.525681 -10.515409 -10.463861
18.630142 8.1506834 -10.6636
18.0329 6.7623348 -12.529984
17.747677 5.5461469 -13.421307
17.526642 4.3816609 -14.112041
17.375769 3.2579556 -14.583518
17.22897 2.1536198 -15.042263
17.218081 1.0761275 -15.076293
17.207266 -1.9073486e-06 -15.110097
17.196461 -1.0747795 -15.143859
17.275965 -2.1594954 -14.895405
17.398548 -3.2622309 -14.512333
17.540136 -4.3850365 -14.069877
17.77261 -5.5539417 -13.343394
18.078993 -6.779623 -12.385946
18.602884 -8.1387596 -10.748783
19.851845 4.6710215 -10.495022
19.502405 3.4416032 -11.52278
19.300751 2.2706771 -12.115882
19.171101 1.1277103 -12.497204
19.132551 4.7683716e-07 -12.610584
19.20974 -1.1299849 -12.383568
19.309675 -2.2717276 -12.089634
19.549725 -3.4499502 -11.383609
19.932922 -4.6900983 -10.256557
