# .PCD v0.7 - Point Cloud Data file format
VERSION 0.7
FIELDS x y z
SIZE 4 4 4
TYPE F F F
COUNT 1 1 1
WIDTH 1077
HEIGHT 1
VIEWPOINT 0 0 0 1 0 0 0
POINTS 1077
DATA ascii
-22.259481 2.343102 -10.305214
-21.975489 1.1566067 -11.052565
-21.876581 4.7683716e-07 -11.312841
-21.955683 -1.1555619 -11.104683
-22.177698 -2.3344972 -10.520435
-20.619324 6.873107 -11.606899
-20.183531 5.6065354 -12.817432
-19.837662 4.4083686 -13.77818
-19.656921 3.2761531 -14.280239
-19.483112 2.1647897 -14.763035
-19.445377 1.080296 -14.867859
-19.441788 -3.3378601e-06 -14.877831
-19.4382 -1.0799007 -14.887798
-19.534754 -2.1705294 -14.619593
-19.654255 -3.275712 -14.287647
-19.866985 -4.4148841 -13.696726
-20.177414 -5.6048384 -12.83442
-20.761951 -6.9206514 -11.210706
-19.269346 9.0679274 -12.20825
-18.688404 7.6952229 -13.916903
-18.394283 6.4920998 -14.781963
-18.121695 5.3299069 -15.583691
-17.971626 4.2286191 -16.025068
-17.837738 3.1478338 -16.418859
-17.745342 2.0876861 -16.690617
-17.72275 1.0425167 -16.757059
-17.702679 9.5367432e-07 -16.816093
-17.718847 -1.0422873 -16.768539
-17.770876 -2.0906925 -16.615513
-17.852289 -3.1504064 -16.376062
-17.971567 -4.2286043 -16.02524
-18.151155 -5.3385773 -15.497044
-18.398615 -6.4936266 -14.769226
-18.733196 -7.7136707 -13.785162
-19.310221 -9.0871601 -12.088033
-18.342129 11.463829 -11.563645
-17.620443 9.9115 -13.818909
-17.211809 8.6059046 -15.095895
-16.926817 7.4054823 -15.986496
-16.71489 6.2680802 -16.648769
-16.533485 5.1667132 -17.215651
-16.434177 4.1085453 -17.525991
-16.336416 3.0630779 -17.831497
-16.277081 2.0346327 -18.01692
-16.241348 1.0150852 -18.128582
-16.214344 -0 -18.212967
-16.235868 -1.0147419 -18.145708
-16.285936 -2.0357418 -17.989248
-16.339268 -3.0636139 -17.822586
-16.444098 -4.1110249 -17.494995
-16.562202 -5.1756916 -17.125912
-16.721891 -6.2707105 -16.626886
-16.942801 -7.4124756 -15.936543
-17.233698 -8.616848 -15.02749
-17.657423 -9.9322987 -13.703349
-18.403421 -11.502142 -11.372099
-16.846609 12.354178 -12.72743
-16.262344 10.841563 -14.67498
-15.917133 9.5502796 -15.825687
-15.634175 8.3382263 -16.768877
-15.440847 7.2057266 -17.413307
-15.280194 6.1120753 -17.948814
-15.152709 5.0509019 -18.373766
-15.053481 4.0142608 -18.704525
-14.969689 2.9939384 -18.983829
-14.924335 1.9899111 -19.135012
-14.898541 0.99323654 -19.220993
-14.891005 -1.9073486e-06 -19.246117
-14.903786 -0.99358654 -19.203512
-14.93343 -1.9911261 -19.104694
-14.976052 -2.9952106 -18.962622
-15.062078 -4.0165548 -18.675875
-15.167803 -5.0559335 -18.323454
-15.285324 -6.11413 -17.931717
-15.455925 -7.2127643 -17.363045
-15.654709 -8.3491802 -16.700434
-15.918392 -9.551034 -15.821487
-16.297483 -10.864992 -14.557855
-16.903713 -12.396058 -12.537088
-15.519322 13.302276 -13.456647
-15.056508 11.830111 -15.109557
-14.714033 10.510023 -16.332678
-14.455662 9.2929258 -17.255436
-14.244157 8.1395168 -18.010807
-14.089679 7.0448389 -18.562515
-13.960281 5.982975 -19.024651
-13.869776 4.9534907 -19.347879
-13.792165 3.9406185 -19.625069
-13.72695 2.9414902 -19.857975
-13.694489 1.9563551 -19.973907
-13.677611 0.97697258 -20.034187
-13.668357 -9.5367432e-07 -20.067234
-13.679397 -0.97710133 -20.027809
-13.702944 -1.9575634 -19.94371
-13.732388 -2.9426537 -19.838554
-13.799515 -3.9427204 -19.598812
-13.879261 -4.9568777 -19.314003
-13.976954 -5.9901228 -18.965101
-14.104321 -7.0521631 -18.510216
-14.268245 -8.1532822 -17.92478
-14.464757 -9.2987719 -17.22295
-14.729907 -10.521361 -16.275986
-15.068643 -11.839649 -15.066216
-15.781551 -13.527042 -12.520117
-14.464408 14.464404 -13.250461
-13.931275 12.859638 -15.300969
-13.595366 11.50377 -16.592924
-13.330304 10.25408 -17.612392
-13.141422 9.097908 -18.338863
-12.985449 7.9910479 -18.938763
-12.87448 6.9324117 -19.365559
-12.766522 5.8922396 -19.780785
-12.685465 4.879024 -20.092541
-12.622166 3.8837423 -20.33601
-12.569379 2.9006252 -20.539032
-12.54191 1.9295244 -20.644684
-12.521977 0.96322536 -20.721348
-12.504051 -1.9073486e-06 -20.790297
-12.516695 -0.96282291 -20.741665
-12.545746 -1.9301138 -20.629927
-12.574969 -2.9019165 -20.517529
-12.62929 -3.8859382 -20.308605
-12.69663 -4.8833227 -20.049604
-12.771824 -5.8946881 -19.760403
-12.883243 -6.9371305 -19.331863
-13.007048 -8.0043411 -18.85569
-13.160521 -9.1111317 -18.265404
-13.359207 -10.276312 -17.501228
-13.63551 -11.537742 -16.438526
-14.263847 -13.166626 -14.021847
-14.954492 -14.954494 -11.365521
-13.372381 15.60111 -13.164542
-12.857883 13.929373 -15.308284
-12.525515 12.525513 -16.693151
-12.29205 11.267711 -17.665918
-12.103969 10.086639 -18.449593
-11.940945 8.9557095 -19.128859
-11.816936 7.8779554 -19.645567
-11.714457 6.8334312 -20.072563
-11.613738 5.8068686 -20.492222
-11.5528 4.8136663 -20.746128
-11.504208 3.8347349 -20.948599
-11.456735 2.8641806 -21.146402
-11.429102 1.9048491 -21.261539
-11.417646 0.95147038 -21.309265
-11.410024 -9.5367432e-07 -21.341034
-11.417613 -0.95147038 -21.30941
-11.43797 -1.9063311 -21.224586
-11.460814 -2.8652058 -21.129402
-11.503179 -3.8343954 -20.952883
-11.562347 -4.8176465 -20.706348
-11.62433 -5.8121657 -20.448086
-11.710833 -6.8313217 -20.087662
-11.821529 -7.8810201 -19.626427
-11.95118 -8.9633865 -19.08621
-12.10359 -10.086326 -18.451174
-12.301722 -11.276579 -17.62562
-12.824919 -12.824921 -15.445631
-13.429064 -14.548155 -12.928363
-14.092787 -16.441587 -10.162847
-12.443856 16.968893 -12.319814
-11.875751 15.114594 -14.902106
-11.517358 13.61142 -16.531172
-11.286214 12.312232 -17.581825
-11.078916 11.078916 -18.52409
-10.931535 9.9377594 -19.194004
-10.802178 8.8381453 -19.781986
-10.691163 7.7753901 -20.286598
-10.608251 6.7507038 -20.663475
-10.533944 5.7457862 -21.001232
-10.476119 4.7618713 -21.264076
-10.429606 3.7925816 -21.475494
-10.39018 2.8336859 -21.654709
-10.367784 1.8850517 -21.756508
-10.357348 0.94157696 -21.803938
-10.349294 -9.5367432e-07 -21.840549
-10.350747 -0.940979 -21.83395
-10.370213 -1.8854942 -21.745464
-10.396557 -2.8354263 -21.625719
-10.426442 -3.7914343 -21.489876
-10.468745 -4.7585216 -21.29759
-10.533442 -5.7455173 -21.003511
-10.607615 -6.7503004 -20.666367
-10.696074 -7.7789607 -20.264284
-10.800564 -8.8368254 -19.789324
-10.937243 -9.9429483 -19.168058
-11.095861 -11.095861 -18.447065
-11.458679 -12.500379 -16.797892
-11.984382 -14.163359 -14.408337
-12.560059 -15.98553 -11.791616
-13.19408 -17.991926 -8.9097013
-11.80776 18.892412 -9.843996
-10.917882 16.376822 -14.293388
-10.563391 14.788746 -16.06584
-10.298246 13.387718 -17.391565
-10.106279 12.127534 -18.351402
-9.9369612 10.930656 -19.197989
-9.8180351 9.8180351 -19.79262
-9.701952 8.7317581 -20.373034
-9.6143627 7.6914897 -20.810986
-9.5447302 6.6813111 -21.159145
-9.4766302 5.685977 -21.499643
-9.4247332 4.7123642 -21.759132
-9.3936205 3.7574453 -21.914696
-9.3627119 2.808815 -22.069237
-9.3379898 1.8675985 -22.192844
-9.3286791 0.93286991 -22.239401
-9.3234892 -0 -22.265347
-9.3238411 -0.93238449 -22.263594
-9.34447 -1.8688965 -22.160446
-9.3666353 -2.8099918 -22.049618
-9.390276 -3.7561092 -21.931416
-9.4305048 -4.7152548 -21.730268
-9.4823265 -5.6893997 -21.471167
-9.5409946 -6.6786985 -21.177818
-9.6186438 -7.6949172 -20.789576
-9.7103539 -8.7393188 -20.33103
-9.8207912 -9.8207932 -19.778837
-9.9490337 -10.943937 -19.137627
-10.159912 -12.191894 -18.083239
-10.613907 -13.79808 -15.813262
-11.110105 -15.554144 -13.332274
-11.655141 -17.48271 -10.607092
-10.038115 17.845533 -13.115498
-9.6235151 16.039188 -15.418825
-9.3471756 14.540052 -16.954039
-9.1392469 13.201134 -18.109207
-8.9851294 11.980172 -18.96541
-8.8465147 10.812407 -19.735493
-8.7414284 9.7126961 -20.319305
-8.6543226 8.6543207 -20.803226
-8.5751257 7.6223316 -21.24321
-8.5135498 6.6216474 -21.5853
-8.4607038 5.6404686 -21.878885
-8.4166708 4.6759281 -22.123514
-8.3869858 3.7275476 -22.288429
-8.3575106 2.7858372 -22.452185
-8.3327694 1.8517237 -22.589634
-8.3309002 0.92565346 -22.600021
-8.3302526 -0 -22.603615
-8.3296061 -0.92551136 -22.607206
-8.3427057 -1.8539343 -22.534431
-8.3610563 -2.7870207 -22.432484
-8.3811855 -3.7249718 -22.320654
-8.4156923 -4.6753864 -22.128948
-8.4579859 -5.6386595 -21.893986
-8.5149508 -6.6227412 -21.577513
-8.5778933 -7.6247964 -21.227833
-8.6540384 -8.6540394 -20.80481
-8.7427206 -9.7141342 -20.312124
-8.8563604 -10.82444 -19.680794
-8.9868584 -11.982478 -18.955807
-9.3123455 -13.451166 -17.147547
-9.7363167 -15.145383 -14.792146
-10.200808 -17.001347 -12.211647
-10.712034 -19.043615 -9.3714943
-9.3923464 19.958735 -10.180628
-8.704215 17.408428 -14.481452
-8.4022293 15.754178 -16.368868
-8.2068472 14.361984 -17.590002
-8.0298004 13.048426 -18.696545
-7.9046116 11.856916 -19.478975
-7.7856193 10.705226 -20.222675
-7.7043333 9.6304178 -20.730715
-7.6270752 8.5804596 -21.213575
-7.5556068 7.5556045 -21.660254
-7.5119362 6.5729437 -21.933197
-7.4687662 5.601573 -22.203007
-7.4263048 4.6414385 -22.468391
-7.4003057 3.7001514 -22.630886
-7.3813806 2.7680187 -22.749165
-7.3635836 1.8408947 -22.860397
-7.3568716 0.91960526 -22.902349
-7.3546648 -1.9073486e-06 -22.91614
-7.3524804 -0.91905975 -22.929794
-7.3588696 -1.8397188 -22.889862
-7.377573 -2.7665901 -22.772961
-7.3999872 -3.699996 -22.632877
-7.4305272 -4.6440792 -22.442001
-7.4659944 -5.5994968 -22.220329
-7.5118918 -6.572906 -21.933472
-7.5628643 -7.5628648 -21.614893
-7.6299458 -8.5836916 -21.195633
-7.7076082 -9.6345081 -20.710247
-7.8001256 -10.725174 -20.13201
-7.9122391 -11.868358 -19.431303
-8.074728 -13.121434 -18.415743
-8.4330254 -14.757795 -16.176388
-8.8244448 -16.545837 -13.730015
-9.2537022 -18.507404 -11.047161
-9.7279215 -20.671833 -8.0832844
-7.8935404 19.170025 -12.500368
-7.5052047 17.154749 -15.274195
-7.2662735 15.570586 -16.980839
-7.1004167 14.200831 -18.165535
-6.9643021 12.933702 -19.137781
-6.8573112 11.755388 -19.902
-6.7677202 10.634985 -20.541939
-6.6943955 9.5634193 -21.065689
-6.6292877 8.5233707 -21.530739
-6.5739603 7.5130973 -21.925936
-6.5330672 6.5330658 -22.218033
-6.4942894 5.5665312 -22.495016
-6.458282 4.6130562 -22.752211
-6.4381456 3.6789408 -22.896038
-6.4215379 2.7520857 -23.014675
-6.4061441 1.8303261 -23.12463
-6.3959584 0.91370869 -23.197378
-6.3981562 -1.9073486e-06 -23.181677
-6.402339 -0.91461849 -23.151806
-6.4065075 -1.8304329 -23.122028
-6.4180245 -2.7505808 -23.039761
-6.4372072 -3.6784058 -22.90274
-6.4599676 -4.6142635 -22.740173
-6.4930911 -5.5655084 -22.503574
-6.5314198 -6.5314193 -22.229803
-6.5780687 -7.5177894 -21.896595
-6.6315517 -8.5262804 -21.51457
-6.6957483 -9.5653543 -21.056023
-6.7692046 -10.637321 -20.531334
-6.8662567 -11.770727 -19.838104
-6.9707026 -12.945591 -19.092066
-7.1947975 -14.389598 -17.491385
-7.5199103 -16.114094 -15.16915
-7.8755207 -18.00119 -12.629078
-8.2676163 -20.078497 -9.8283939
-6.6235323 18.766674 -13.686692
-6.3482656 16.928705 -15.980582
-6.1566463 15.391615 -17.57741
-6.0338488 14.078978 -18.600725
-5.917376 12.82098 -19.571327
-5.8388968 11.677794 -20.225323
-5.7631078 10.565699 -20.856895
-5.6999764 9.4999599 -21.382994
-5.6522741 8.4784088 -21.780514
-5.6053638 7.4738159 -22.171432
-5.5674644 6.4953728 -22.487259
-5.5391321 5.5391312 -22.723358
-5.513526 4.5946016 -22.936745
-5.492589 3.661726 -23.111221
-5.4784236 2.7392111 -23.229267
-5.4652748 1.8217564 -23.338839
-5.4571657 0.90952778 -23.406416
-5.4599128 -9.5367432e-07 -23.383526
-5.462801 -0.91046619 -23.359455
-5.4662337 -1.8220787 -23.330847
-5.4746494 -2.7373228 -23.260717
-5.4923391 -3.661562 -23.113304
-5.5113859 -4.592823 -22.954582
-5.5388308 -5.5388308 -22.725876
-5.5680423 -6.4960489 -22.482443
-5.6066985 -7.475596 -22.160311
-5.649066 -8.4736023 -21.807245
-5.7056861 -9.5094776 -21.335413
-5.7668433 -10.572548 -20.825771
-5.8429961 -11.685991 -20.191164
-5.9303703 -12.849134 -19.463045
-6.0375276 -14.087563 -18.57007
-6.2817254 -15.704312 -16.535086
-6.5711045 -17.522942 -14.123598
-6.8886533 -19.517855 -11.47735
-5.8621755 21.10383 -10.261041
-5.4401531 18.496519 -14.481266
-5.241199 16.771835 -16.470806
-5.0979166 15.293747 -17.903631
-4.9954267 13.987192 -18.92853
-4.9072514 12.758851 -19.810284
-4.8404551 11.61709 -20.478249
-4.7780051 10.511612 -21.102743
-4.7291102 9.4582176 -21.591694
-4.6890631 8.4403133 -21.992161
-4.6496754 7.4394794 -22.386042
-4.6198664 6.4678116 -22.684135
-4.5976901 5.5172281 -22.905895
-4.5762982 4.5762968 -23.119812
-4.55584 3.6446695 -23.324398
-4.5462632 2.7277575 -23.420164
-4.5395303 1.8158112 -23.487495
-4.5328164 0.90656567 -23.55463
-4.5312214 -9.5367432e-07 -23.570587
-4.5336084 -0.90672207 -23.546713
-4.536881 -1.8147526 -23.51399
-4.5452747 -2.7271662 -23.43005
-4.5577497 -3.6461983 -23.305302
-4.5736451 -4.5736456 -23.146347
-4.5961008 -5.5153217 -22.921787
-4.6213255 -6.4698558 -22.669538
-4.6526871 -7.4442983 -22.355927
-4.6888857 -8.4399939 -21.99394
-4.7323232 -9.4646492 -21.559566
-4.7816539 -10.519639 -21.066259
-4.8414598 -11.619505 -20.468199
-4.9134097 -12.774865 -19.748699
-4.9980178 -13.994449 -18.902618
-5.1049356 -15.314808 -17.833439
-5.3341508 -17.069283 -15.54129
-5.584549 -18.987469 -13.037307
-4.5763545 20.593594 -11.678368
-4.3101702 18.318222 -15.005669
-4.1601267 16.640505 -16.88121
-4.0544672 15.20425 -18.201958
-3.975693 13.914923 -19.186636
-3.9091465 12.704727 -20.018461
-3.8536773 11.561031 -20.711832
-3.8102081 10.478071 -21.255196
-3.7687564 9.4218903 -21.773342
-3.7369635 8.4081688 -22.170753
-3.7097607 7.4195194 -22.510792
-3.6840467 6.4470806 -22.832212
-3.6664295 5.4996424 -23.052429
-3.6489799 4.561223 -23.270546
-3.6349568 3.6349554 -23.445835
-3.6266723 2.7200022 -23.549393
-3.6208472 1.8104239 -23.622204
-3.6150312 0.90375519 -23.694906
-3.61058 -0 -23.750544
-3.6140773 -0.90351868 -23.706829
-3.6176319 -1.8088179 -23.662397
-3.6260898 -2.7195683 -23.556675
-3.6356447 -3.6356449 -23.437237
-3.6491246 -4.5614071 -23.268734
-3.6653855 -5.4980793 -23.065477
-3.685323 -6.4493151 -22.816261
-3.7090979 -7.4181962 -22.519073
-3.737354 -8.4090462 -22.165874
-3.7706661 -9.4266663 -21.749468
-3.8112686 -10.480989 -21.24194
-3.8568985 -11.570696 -20.671566
-3.9134607 -12.718746 -19.964539
-3.9796381 -13.928736 -19.137318
-4.0611439 -15.229291 -18.118496
-4.1676288 -16.670515 -16.787437
-4.3495049 -18.485395 -14.513985
-4.6208887 -20.793997 -11.121689
-3.3860779 20.316469 -12.44816
-3.2101421 18.190807 -15.380424
-3.1053832 16.56204 -17.126413
-3.0272446 15.136224 -18.428717
-2.9711711 13.865465 -19.363277
-2.9210825 12.658023 -20.19809
-2.8813734 11.525494 -20.859905
-2.8489451 10.44613 -21.400377
-2.817313 9.3910427 -21.927578
-2.7949255 8.3847771 -22.300705
-2.7754579 7.4012194 -22.625168
-2.7562671 6.4312906 -22.945007
-2.7413194 5.4826403 -23.194136
-2.7316401 4.5527325 -23.355461
-2.7220287 3.6293688 -23.515654
-2.7135365 2.7135353 -23.657187
-2.7091889 1.8061237 -23.729652
-2.7059617 0.90198803 -23.783434
-2.7046883 -1.9073486e-06 -23.804661
-2.7050216 -0.90167332 -23.799103
-2.7072668 -1.8048468 -23.761681
-2.7130256 -2.713027 -23.665701
-2.7190464 -3.6253967 -23.565353
-2.7302649 -4.5504417 -23.37838
-2.7418568 -5.4837141 -23.185184
-2.7579837 -6.4352989 -22.916401
-2.7752502 -7.4006696 -22.628624
-2.7968688 -8.3906059 -22.26832
-2.8207948 -9.4026489 -21.869549
-2.8505099 -10.451869 -21.374298
-2.8834817 -11.533926 -20.824768
-2.9265368 -12.681661 -20.107187
-2.9734862 -13.876269 -19.324692
-3.0335319 -15.167659 -18.323935
-3.1145592 -16.610983 -16.973476
-3.2185857 -18.238651 -15.2397
-3.4152195 -20.491322 -11.962465
-2.241209 20.170881 -12.852571
-2.1305315 18.109518 -15.619507
-2.0634527 16.50762 -17.296482
-2.015187 15.113899 -18.503124
-1.9759648 13.831751 -19.483677
-1.9445467 12.639551 -20.269129
-1.9176306 11.505782 -20.942028
-1.8960854 10.428469 -21.480661
-1.8766644 9.3833199 -21.966185
-1.8607682 8.3734541 -22.363594
-1.8476124 7.3904495 -22.69249
-1.8348819 6.4220848 -23.01075
-1.8253179 5.4759541 -23.249851
-1.8186493 4.5466213 -23.416569
-1.8120344 3.6240673 -23.58194
-1.8055586 2.7083368 -23.743835
-1.8028932 1.8028917 -23.810471
-1.8020401 0.90102005 -23.831793
-1.8011929 -1.9073486e-06 -23.852972
-1.8004824 -0.90024376 -23.870733
-1.8028579 -1.8028593 -23.811348
-1.8064098 -2.7096148 -23.722551
-1.8112644 -3.622529 -23.601191
-1.8180481 -4.5451212 -23.431593
-1.8254834 -5.4764528 -23.245708
-1.8358291 -6.4254026 -22.987068
-1.8465151 -7.3860607 -22.719921
-1.8611231 -8.3750553 -22.354717
-1.8763745 -9.3818722 -21.973434
-1.8966273 -10.431452 -21.467113
-1.9190028 -11.514018 -20.907726
-1.9479305 -12.661551 -20.184532
-1.9781265 -13.846886 -19.42963
-2.0161402 -15.12105 -18.479292
-2.0692971 -16.554375 -17.150372
-2.1371529 -18.165802 -15.453971
-2.2548943 -20.294048 -12.510443
-1.1156553 20.081795 -13.100031
-1.062856 18.06855 -15.740002
-1.0285181 16.456289 -17.456896
-1.0061098 15.091645 -18.577305
-0.98579443 13.801119 -19.593079
-0.97148383 12.629291 -20.308605
-0.95758003 11.490958 -21.003798
-0.94694918 10.416441 -21.535339
-0.93800944 9.3800917 -21.982325
-0.92926913 8.3634233 -22.419338
-0.92270434 7.3816328 -22.747581
-0.91740954 6.4218664 -23.01232
-0.91221398 5.4732819 -23.272097
-0.9084698 4.5423489 -23.459305
-0.90516597 3.6206636 -23.624493
-0.90278429 2.7083521 -23.743582
-0.90099484 1.8019886 -23.833054
-0.90049821 0.90049839 -23.857883
-0.90000212 -0 -23.88269
-0.89975548 -0.89975643 -23.89502
-0.90080065 -1.8016052 -23.842762
-0.90227807 -2.7068367 -23.768894
-0.90491658 -3.6196661 -23.636967
-0.9082365 -4.5411825 -23.470968
-0.91225016 -5.4735022 -23.27029
-0.91728932 -6.4210286 -23.018333
-0.92297161 -7.3837733 -22.734215
-0.93009901 -8.3708906 -22.377844
-0.93801492 -9.3801498 -21.982048
-0.9477188 -10.424908 -21.496855
-0.95886391 -11.506368 -20.939602
-0.97247016 -12.642114 -20.259289
-0.98758823 -13.826234 -19.503384
-1.0077608 -15.116413 -18.494761
-1.0320473 -16.512756 -17.280437
-1.0657915 -18.118456 -15.593224
-1.1239427 -20.230972 -12.685657
0 20.106119 -13.03246
0 18.086407 -15.687476
0 16.48954 -17.35298
0 15.100946 -18.546303
0 13.813942 -19.547289
0 12.633064 -20.294085
0 11.492873 -20.995817
0 10.418892 -21.524187
0 9.3808308 -21.978634
0 8.362504 -22.424435
0 7.3820534 -22.744934
0 6.4219179 -23.011927
0 5.4731112 -23.273521
0 4.5388622 -23.494154
0 3.622324 -23.603737
0 2.7102051 -23.712662
0 1.8024693 -23.821068
0 0.90019608 -23.872875
0 9.5367432e-07 -23.882187
0 -0.90061855 -23.851965
0 -1.8024445 -23.821697
0 -2.707778 -23.753204
0 -3.6218958 -23.609087
0 -4.5434256 -23.44853
0 -5.4747438 -23.259943
0 -6.4213376 -23.016109
0 -7.3852549 -22.724949
0 -8.3710861 -22.376768
0 -9.3801222 -21.982185
0 -10.4242 -21.500065
0 -11.508904 -20.929029
0 -12.639594 -20.268982
0 -13.838297 -19.460312
0 -15.117879 -18.489866
0 -16.529081 -17.229418
0 -18.141945 -15.524132
0 -20.230757 -12.686249
1.1218311 20.192959 -12.791243
1.0656221 18.115574 -15.601692
1.0331969 16.531151 -17.22295
1.007726 15.115888 -18.496496
0.9887929 13.843098 -19.443153
0.97255832 12.643257 -20.254879
0.9598133 11.517757 -20.892134
0.94814324 10.429575 -21.475636
0.93903309 9.3903294 -21.931145
0.93093574 8.3784237 -22.336006
0.92380619 7.3904495 -22.69249
0.91845685 6.4291983 -22.959953
0.91318202 5.4790916 -23.223694
0.90913707 4.5456848 -23.425941
0.90645349 3.6258154 -23.56012
0.9041996 2.7125978 -23.672813
0.90195435 1.8039064 -23.785076
0.90033948 0.90033722 -23.865822
0.90091407 -0 -23.837086
0.9014895 -0.90149212 -23.808319
0.90208584 -1.8041735 -23.778503
0.90319979 -2.7095995 -23.722807
0.90665781 -3.6266317 -23.549904
0.91014242 -4.5507116 -23.375679
0.9139964 -5.4839802 -23.182978
0.9182052 -6.4274373 -22.972534
0.9244324 -7.3954611 -22.661175
0.93184417 -8.3865967 -22.290588
0.93991894 -9.3991909 -21.886848
0.94888401 -10.437724 -21.438595
0.96077603 -11.529314 -20.843994
0.97446072 -12.66799 -20.159761
0.99037218 -13.865211 -19.364189
1.0096798 -15.1452 -18.398802
1.034888 -16.558212 -17.138393
1.0700011 -18.190022 -15.382737
1.1300124 -20.340221 -12.382176
2.2681639 20.413475 -12.178694
2.1432302 18.217459 -15.302038
2.0741916 16.593529 -17.028009
2.0213258 15.159943 -18.349653
1.9828005 13.879602 -19.312784
1.948585 12.6658 -20.168171
1.9237863 11.542719 -20.788139
1.8999584 10.44977 -21.383833
1.8809861 9.4049292 -21.858145
1.8659467 8.3967609 -22.234127
1.8511513 7.4046059 -22.604012
1.8389972 6.4364901 -22.907866
1.8303891 5.491168 -23.123066
1.8222637 4.5556574 -23.326202
1.8149058 3.6298132 -23.510151
1.8103881 2.7155819 -23.623095
1.807541 1.8075399 -23.694271
1.8053762 0.90268612 -23.748394
1.8047028 -0 -23.765224
1.8058522 -0.9029274 -23.736488
1.8072466 -1.8072481 -23.70163
1.8108975 -2.7163477 -23.610363
1.8162218 -3.6324444 -23.477249
1.8233064 -4.5582657 -23.300137
1.8311495 -5.4934502 -23.104059
1.8397593 -6.4391589 -22.888811
1.8526433 -7.4105754 -22.566715
1.8676305 -8.4043379 -22.192032
1.8841962 -9.4209805 -21.777891
1.9019178 -10.460549 -21.334854
1.9258182 -11.554912 -20.737341
1.9536062 -12.698442 -20.042637
1.9871898 -13.910327 -19.203053
2.0281215 -15.21091 -18.179762
2.0782702 -16.626163 -16.926041
2.1517134 -18.289566 -15.089962
2.2857313 -20.571585 -11.739513
3.4536288 20.721769 -11.322316
3.2420933 18.371859 -14.847909
3.1291254 16.688669 -16.730703
3.0483968 15.241985 -18.07618
2.9870648 13.939633 -19.098383
2.9364345 12.724548 -19.942223
2.8961709 11.584682 -20.613281
2.8596873 10.485519 -21.22134
2.8301966 9.4339876 -21.712852
2.8071148 8.4213448 -22.097546
2.7844067 7.4250836 -22.476021
2.7651875 6.4521017 -22.796337
2.7526681 5.5053339 -23.004997
2.7402692 4.5671129 -23.211641
2.7279739 3.6372976 -23.416569
2.7223125 2.7223139 -23.51092
2.7189701 1.8126469 -23.566631
2.7157044 0.90523434 -23.621056
2.7124465 -1.9073486e-06 -23.675354
2.7133994 -0.90446758 -23.659473
2.7188857 -1.8125906 -23.568033
2.7243943 -2.7243938 -23.476225
2.7299254 -3.6399002 -23.384039
2.7396705 -4.5661173 -23.221621
2.7542465 -5.5084953 -22.978689
2.7695582 -6.4623017 -22.723494
2.7869143 -7.4317727 -22.434225
2.8073924 -8.4221764 -22.092922
2.834409 -9.4480314 -21.642645
2.8644385 -10.502941 -21.142151
2.899441 -11.597763 -20.558777
2.9387672 -12.734657 -19.903343
2.9930654 -13.967638 -18.998371
3.0572872 -15.286436 -17.928007
3.1359451 -16.725044 -16.617039
3.2522936 -18.429668 -14.677898
3.5028598 -21.017157 -10.501802
4.8033614 21.615128 -8.8407784
4.3636589 18.545549 -14.33706
4.1962256 16.784903 -16.429974
4.0909572 15.341086 -17.745834
4.0022058 14.00772 -18.855225
3.9361122 12.792366 -19.681393
3.8758736 11.627621 -20.43438
3.8316083 10.536922 -20.987694
3.7904179 9.4760427 -21.502577
3.7558913 8.4507551 -21.934155
3.7275279 7.4550548 -22.288696
3.7031119 6.4804449 -22.593895
3.6825504 5.5238256 -22.850916
3.6658971 4.5823708 -23.059086
3.6529043 3.6529026 -23.221493
3.6414034 2.7310524 -23.365246
3.6363943 1.8181953 -23.427868
3.6318803 0.90796852 -23.484295
3.6287782 9.5367432e-07 -23.523071
3.6297193 -0.90743065 -23.511307
3.6371136 -1.8185568 -23.418879
3.6445377 -2.7334051 -23.326077
3.6523032 -3.6523037 -23.229008
3.6657403 -4.5821772 -23.061041
3.6851647 -5.5277481 -22.818239
3.7064066 -6.4862132 -22.552713
3.7297201 -7.4594421 -22.261297
3.7574809 -8.4543333 -21.914284
3.7944062 -9.4860163 -21.452717
3.8358555 -10.548604 -20.934601
3.8844929 -11.653479 -20.326633
3.9429843 -12.814697 -19.595495
4.0093231 -14.032634 -18.766254
4.101306 -15.379897 -17.616474
4.2167473 -16.866991 -16.17345
4.3925447 -18.668316 -13.975985
5.5584483 18.898726 -13.298307
5.3131914 17.002211 -15.750879
5.1605673 15.481699 -17.277126
5.0397191 14.111212 -18.485607
4.9530191 12.877849 -19.352608
4.8733954 11.696149 -20.148842
4.8154387 10.593964 -20.728409
4.7622528 9.5245037 -21.260271
4.7122698 8.4820852 -21.760098
4.6809878 7.4895787 -22.072918
4.6501861 6.5102596 -22.380936
4.6197734 5.5437279 -22.685062
4.6008582 4.6008577 -22.874214
4.5862632 3.6690102 -23.020161
4.5717478 2.7430458 -23.165318
4.5595188 1.8238058 -23.287609
4.5579176 0.9115839 -23.303619
4.5587177 -1.9073486e-06 -23.295616
4.5595059 -0.91190243 -23.287739
4.5624275 -1.8249722 -23.258518
4.571774 -2.7430668 -23.165062
4.5884476 -3.6707592 -22.998322
4.6054144 -4.6054173 -22.828653
4.6226134 -5.5471363 -22.656658
4.6511807 -6.5116534 -22.370989
4.6862364 -7.4979792 -22.020432
4.7243066 -8.5037537 -21.639732
4.7663431 -9.5326872 -21.219364
4.8181782 -10.599994 -20.70101
4.8855433 -11.725306 -20.027363
4.9619079 -12.90096 -19.263718
5.053473 -14.149724 -18.34807
5.1716132 -15.51484 -17.166666
5.3354597 -17.073471 -15.5282
5.5861583 -18.992941 -13.021214
6.8174891 19.316217 -12.070385
6.4657745 17.242064 -15.001344
6.2539134 15.634785 -16.76685
6.1096601 14.255875 -17.96896
5.9888973 12.975941 -18.975321
5.8973341 11.794666 -19.738346
5.8160167 10.662696 -20.415991
5.7513671 9.5856075 -20.954739
5.6963611 8.5445404 -21.41312
5.6501241 7.5334983 -21.798428
5.6121087 6.5474586 -22.115223
5.5768228 5.5768213 -22.409273
5.550118 4.6250963 -22.631813
5.5323558 3.6882353 -22.779831
5.5147228 2.7573614 -22.926773
5.5017438 1.8339148 -23.034929
5.4971547 0.91619396 -23.07317
5.4981098 -1.9073486e-06 -23.065216
5.4990492 -0.91650772 -23.057384
5.5001769 -1.8333931 -23.047989
5.5144868 -2.7572451 -22.928741
5.5351467 -3.6900978 -22.756573
5.5559626 -4.6299696 -22.583107
5.5797553 -5.5797572 -22.38483
5.6121736 -6.5475354 -22.114683
5.6546082 -7.5394773 -21.761065
5.7025013 -8.5537548 -21.361952
5.7585878 -9.5976467 -20.894566
5.8257551 -10.680554 -20.334837
5.8989916 -11.797985 -19.724533
6.0023384 -13.005067 -18.863314
6.1219997 -14.284667 -17.866133
6.2790084 -15.697522 -16.557726
6.5014119 -17.337095 -14.704367
6.9076285 -19.571617 -11.319224
7.6965127 17.592028 -13.907702
7.4039731 15.86566 -15.997272
7.2090955 14.418189 -17.389257
7.0495348 13.091993 -18.528975
6.9400368 11.897205 -19.311104
6.838058 10.745519 -20.039526
6.7593341 9.6561909 -20.601841
6.6965442 8.6098442 -21.050335
6.6348915 7.5827312 -21.490715
6.5866265 6.586628 -21.835461
6.5524116 5.6163511 -22.079861
6.518549 4.6561069 -22.321732
6.4905844 3.7089033 -22.521481
6.4730163 2.774147 -22.646965
6.4616356 1.8461809 -22.72826
6.4502935 0.92147255 -22.809269
6.4471374 -2.8610229e-06 -22.831818
6.452271 -0.92175484 -22.795151
6.4634891 -1.8467131 -22.715015
6.4757328 -2.7753172 -22.62756
6.4935961 -3.7106276 -22.499962
6.5198317 -4.6570244 -22.312565
6.5577707 -5.6209478 -22.041576
6.5961542 -6.5961552 -21.767412
6.6349893 -7.5828433 -21.490017
6.7011461 -8.6157589 -21.017469
6.7713413 -9.6733446 -20.516073
6.8541822 -10.770859 -19.924351
6.9507432 -11.91556 -19.234631
7.072752 -13.135113 -18.36314
7.2231488 -14.446298 -17.288872
7.4210944 -15.902347 -15.874977
7.733954 -17.677607 -13.640272
9.0509043 18.101807 -12.314644
8.6219282 16.166115 -14.995748
8.3544884 14.620354 -16.667242
8.1706705 13.27734 -17.816101
8.0185966 12.027893 -18.766567
7.8987427 10.860769 -19.515657
7.7970076 9.7462597 -20.151497
7.7202044 8.6852274 -20.631523
7.6468744 7.6468725 -21.089832
7.5860844 6.6378217 -21.469769
7.5458412 5.6593809 -21.721287
7.5060229 4.6912632 -21.970152
7.4680305 3.7340155 -22.207605
7.4503741 2.79389 -22.317957
7.4375467 1.8593855 -22.398132
7.4247417 0.92809296 -22.478161
7.4181314 9.5367432e-07 -22.519474
7.4278903 -0.92848682 -22.458481
7.4409208 -1.8602324 -22.377037
7.4553142 -2.7957449 -22.287081
7.4716063 -3.7358027 -22.185257
7.5075116 -4.6921978 -21.960854
7.5520835 -5.6640606 -21.682278
7.5971656 -6.6475186 -21.400513
7.6582699 -7.6582713 -21.018608
7.7253237 -8.6909895 -20.599524
7.8023481 -9.7529354 -20.118122
7.9132118 -10.880669 -19.42522
8.035615 -12.053423 -18.660204
8.1889143 -13.306986 -17.702084
8.3876667 -14.678415 -16.459881
8.6694832 -16.255281 -14.698524
9.1729269 -18.345856 -11.552005
9.9625006 16.604166 -13.535573
9.5815878 14.904694 -15.651751
9.324007 13.468007 -17.082764
9.1382084 12.184278 -18.114973
8.9900379 10.987822 -18.938141
8.8739166 9.8599033 -19.583263
8.7662182 8.7662163 -20.181585
8.6899204 7.7243724 -20.605465
8.6228132 6.7066317 -20.978283
8.5616913 5.7077923 -21.317848
8.5161276 4.7311811 -21.570976
8.4834023 3.7703981 -21.752783
8.4524565 2.8174849 -21.924704
8.4340467 1.8742304 -22.026979
8.4232302 0.93591404 -22.087072
8.4222994 -0 -22.092243
8.4213934 -0.93571091 -22.097277
8.432991 -1.8739986 -22.032846
8.4571457 -2.8190498 -21.898651
8.4883003 -3.7725811 -21.725573
8.5235453 -4.7353039 -21.529762
8.5630074 -5.7086716 -21.310535
8.6282578 -6.7108655 -20.948029
8.7043085 -7.737164 -20.525524
8.7818203 -8.7818203 -20.09491
8.87854 -9.8650436 -19.557575
8.9997311 -10.99967 -18.884293
9.1582317 -12.210976 -18.003731
9.347538 -13.502003 -16.95203
9.6146984 -14.956197 -15.467806
10.00908 -16.681797 -13.276796
11.60609 17.409132 -10.852348
10.912403 15.277363 -14.320783
10.575644 13.748337 -16.004576
10.332301 12.39876 -17.221292
10.136519 11.15017 -18.200199
9.9929628 9.9929638 -18.917982
9.862566 8.8763084 -19.569967
9.7654238 7.8123393 -20.055677
9.6873207 6.7811232 -20.446194
9.6104574 5.7662749 -20.830505
9.5559254 4.7779608 -21.103172
9.5204477 3.8081779 -21.28056
9.4852324 2.8455667 -21.456635
9.4510546 1.8902102 -21.627523
9.4486132 0.94486046 -21.639732
9.4488068 -1.9073486e-06 -21.638762
9.4490004 -0.94490051 -21.637791
9.4603338 -1.892066 -21.581127
9.4899044 -2.8469706 -21.433277
9.5258303 -3.8103304 -21.253647
9.5658951 -4.782949 -21.053322
9.6218071 -5.7730865 -20.77376
9.6900921 -6.7830644 -20.432339
9.7735491 -7.8188386 -20.015053
9.8711872 -8.8840675 -19.526863
9.9962225 -9.9962234 -18.901688
10.162575 -11.178835 -18.069923
10.355207 -12.42625 -17.10676
10.613172 -13.797126 -15.816937
10.984848 -15.378788 -13.958556
11.816561 -17.724844 -9.7999897
12.514681 15.927775 -11.997881
11.928814 14.097691 -14.660913
11.582132 12.635052 -16.236742
11.356816 11.356817 -17.2609
11.153508 10.139552 -18.18503
11.015998 9.0130882 -18.810081
10.892217 7.9216108 -19.372723
10.788615 6.8654809 -19.843632
10.711478 5.8426218 -20.19426
10.645927 4.8390579 -20.492222
10.592158 3.8516932 -20.736624
10.552533 2.877964 -20.916733
10.529652 1.9144812 -21.020742
10.509552 0.95541382 -21.112106
10.504905 9.5367432e-07 -21.133228
10.513109 -0.95573711 -21.095936
10.533349 -1.9151545 -21.003941
10.553665 -2.878273 -20.911591
10.588262 -3.8502789 -20.754335
10.654802 -4.8430924 -20.451878
10.723906 -5.8494005 -20.13777
10.800992 -6.8733568 -19.787376
10.901474 -7.9283447 -19.330641
11.024574 -9.0201054 -18.771095
11.176291 -10.160265 -18.081474
11.38505 -11.385051 -17.13257
11.639252 -12.697368 -15.977102
11.984382 -14.163359 -14.408337
12.621364 -16.063553 -11.512965
13.574686 14.705911 -12.321604
13.022993 13.022993 -14.620322
12.666507 11.610964 -16.105682
12.428369 10.356974 -17.097929
12.22613 9.1695957 -17.940592
12.083177 8.0554533 -18.536222
11.947557 6.9694061 -19.101307
11.856189 5.9280953 -19.48201
11.780959 4.9087315 -19.795464
11.706679 3.9022264 -20.104965
11.661643 2.91541 -20.292618
11.639887 1.9399776 -20.383272
11.61821 0.96818447 -20.473585
11.601632 -9.5367432e-07 -20.542665
11.618001 -0.96816635 -20.474461
11.643641 -1.9406071 -20.367624
11.670453 -2.917614 -20.255909
11.723845 -3.9079509 -20.033447
11.777726 -4.9073849 -19.808937
11.85699 -5.9284954 -19.478672
11.974154 -6.9849253 -18.990482
12.100555 -8.0670357 -18.463816
12.251884 -9.1889133 -17.833277
12.455505 -10.379591 -16.984858
12.696614 -11.638562 -15.980235
13.057735 -13.057735 -14.475566
13.685374 -14.825822 -11.860403
14.778219 13.64143 -12.043496
14.165518 11.986203 -14.40004
13.785576 10.604288 -15.861351
13.553042 9.3828716 -16.755711
13.337912 8.207943 -17.583136
13.199134 7.1072249 -18.116894
13.07248 6.033453 -18.604023
12.968463 4.9878707 -19.004093
12.901359 3.9696498 -19.262184
12.84598 2.9644556 -19.475183
12.797726 1.9688778 -19.660778
12.775568 0.98273659 -19.745996
12.779235 -9.5367432e-07 -19.731888
12.782906 -0.98330116 -19.717773
12.791622 -1.9679413 -19.684252
12.847439 -2.9647942 -19.46957
12.912947 -3.9732161 -19.217621
12.980574 -4.9925308 -18.957514
13.088552 -6.0408702 -18.542206
13.198344 -7.1068034 -18.119938
13.368982 -8.227067 -17.463634
13.57437 -9.3976431 -16.673681
13.850977 -10.654601 -15.609807
14.211422 -12.025051 -14.223484
14.846288 -13.704267 -11.781693
16.11953 12.665344 -11.31305
15.431512 11.022511 -13.770252
15.025526 9.6592665 -15.2202
14.762919 8.4359531 -16.158081
14.540334 7.2701669 -16.953035
14.392674 6.1682901 -17.480385
14.260297 5.0929604 -17.953165
14.164403 4.0469708 -18.295643
14.101673 3.0217862 -18.519678
14.04024 2.0057507 -18.739082
14.012861 1.0009184 -18.836863
14.014386 1.9073486e-06 -18.831413
14.021495 -1.0015364 -18.806028
14.057456 -2.0082083 -18.677599
14.102777 -3.0220242 -18.515738
14.160398 -4.0458288 -18.30995
14.278148 -5.0993357 -17.889414
14.410535 -6.1759443 -17.416597
14.577451 -7.2887259 -16.820475
14.788796 -8.4507418 -16.06567
15.083222 -9.6963587 -15.014146
15.481142 -11.057959 -13.593005
16.319147 -12.822186 -10.600127
16.877296 10.126379 -12.625143
16.381769 8.7369394 -14.276903
16.083439 7.5056052 -15.271332
15.833445 6.3333764 -16.104643
15.678861 5.2262878 -16.619928
15.555585 4.1481562 -17.030846
15.435861 3.0871735 -17.429928
15.401093 2.0534763 -17.545822
15.371815 1.024786 -17.64341
15.342697 -1.9073486e-06 -17.740475
15.356169 -1.0237436 -17.69557
15.413583 -2.0551457 -17.504187
15.471431 -3.094286 -17.311363
15.579934 -4.1546507 -16.949682
15.697879 -5.2326274 -16.556538
15.86404 -6.3456168 -16.002663
16.101677 -7.5141191 -15.210534
16.432961 -8.7642479 -14.10626
16.896967 -10.138181 -12.559572
18.964642 9.4823246 -9.618289
18.033974 7.8898644 -12.526628
17.579899 6.5924606 -13.945614
17.342003 5.4193764 -14.689037
17.119392 4.2798481 -15.384695
17.015808 3.1904616 -15.708392
16.924089 2.1155114 -15.995012
16.839466 1.0524664 -16.259468
16.862295 9.5367432e-07 -16.188124
16.890947 -1.0556836 -16.098589
16.920475 -2.1150565 -16.00631
17.025936 -3.1923633 -15.676744
17.155724 -4.2889314 -15.271154
17.364578 -5.4264326 -14.618494
17.658331 -6.6218743 -13.70051
18.120218 -7.9275947 -12.257116
19.76071 5.8119736 -10.763062
19.179703 4.5128717 -12.471903
18.957335 3.3454099 -13.125931
18.739998 2.2047062 -13.765155
18.710197 1.1005988 -13.852804
18.696833 -9.5367432e-07 -13.892108
18.718136 -1.1010675 -13.82946
18.800985 -2.2118812 -13.585787
18.952934 -3.344636 -13.138873
19.295305 -4.5400724 -12.131895
19.809793 -5.8264098 -10.618697
