# .PCD v0.7 - Point Cloud Data file format
VERSION 0.7
FIELDS x y z
SIZE 4 4 4
TYPE F F F
COUNT 1 1 1
WIDTH 1057
HEIGHT 1
VIEWPOINT 0 0 0 1 0 0 0
POINTS 1057
DATA ascii
-22.819372 -9.5367432e-07 -8.8318167
-21.638945 7.2129803 -8.7746162
-20.676952 5.7435961 -11.446823
-20.34008 4.5200152 -12.382574
-20.059336 3.3432212 -13.162424
-19.934874 2.214983 -13.508146
-19.870665 1.1039238 -13.686504
-19.863102 -2.8610229e-06 -13.707515
-19.860106 -1.1033411 -13.715837
-19.949841 -2.2166486 -13.466572
-20.096775 -3.349462 -13.058422
-20.365465 -4.5256591 -12.312059
-20.782883 -5.7730246 -11.152566
-19.925735 9.3768158 -10.277692
-19.19067 7.9020395 -12.439651
-18.813202 6.6399517 -13.549849
-18.505278 5.4427266 -14.455507
-18.304985 4.3070526 -15.044607
-18.179201 3.2080936 -15.41456
-18.075714 2.1265535 -15.718933
-18.03698 1.060998 -15.832857
-18.020582 2.8610229e-06 -15.881085
-18.039001 -1.0611196 -15.82691
-18.086172 -2.1277862 -15.688177
-18.179985 -3.2082343 -15.412249
-18.37001 -4.3223562 -14.853352
-18.60458 -5.4719362 -14.163445
-18.845215 -6.6512518 -13.455691
-19.226007 -7.9165926 -12.335716
-19.949493 -9.3879976 -10.207814
-19.072395 11.920246 -9.2815599
-18.087946 10.174468 -12.357964
-17.589445 8.7947197 -13.915781
-17.283213 7.5614061 -14.872755
-17.033089 6.3874073 -15.654392
-16.869255 5.2716422 -16.166372
-16.720913 4.1802278 -16.629944
-16.612322 3.1148105 -16.969288
-16.546768 2.0683432 -17.174145
-16.51355 1.0320969 -17.277952
-16.501696 -1.9073486e-06 -17.314997
-16.516144 -1.0322576 -17.269842
-16.548895 -2.0686116 -17.167496
-16.751049 -3.140821 -16.535767
-16.958258 -4.2395682 -15.888243
-17.170599 -5.3658123 -15.224674
-17.388266 -6.5206022 -14.54446
-17.611645 -7.7050962 -13.846406
-17.840775 -8.9203882 -13.130374
-18.088709 -10.174899 -12.355577
-19.48205 -12.176282 -8.0013895
-17.334929 12.712277 -11.099706
-16.636154 11.090767 -13.428951
-16.218744 9.7312431 -14.820313
-15.951003 8.5072021 -15.712786
-15.715201 7.3337612 -16.498789
-15.554983 6.2219915 -17.032852
-15.421315 5.1404376 -17.478415
-15.297724 4.079391 -17.890385
-15.234721 3.0469432 -18.100395
-15.180393 2.0240488 -18.281483
-15.152661 1.0101767 -18.373924
-15.152615 -9.5367432e-07 -18.374083
-15.151806 -1.0101223 -18.37678
-15.229819 -2.0306435 -18.116734
-15.412501 -3.0825019 -17.507793
-15.599568 -4.1598864 -16.884235
-15.79113 -5.2637129 -16.245697
-15.98772 -6.3950887 -15.590401
-16.188831 -7.5547876 -14.920029
-16.395288 -8.7441549 -14.231836
-16.607195 -9.9643154 -13.525478
-16.824533 -11.216354 -12.801019
-17.404301 -12.763155 -10.868463
-15.992963 13.708253 -11.765072
-15.366253 12.073485 -14.003323
-15.012909 10.723507 -15.265262
-14.714514 9.4593296 -16.330961
-14.523554 8.2991714 -17.012964
-14.338399 7.1691995 -17.674232
-14.218938 6.0938272 -18.100874
-14.116961 5.04177 -18.465082
-14.021408 4.0061178 -18.806339
-13.958768 2.9911623 -19.030054
-13.916429 1.988061 -19.181265
-13.893557 0.9923954 -19.262951
-13.893213 -0 -19.264175
-13.894371 -0.99245644 -19.260046
-13.958292 -1.9940405 -19.031754
-14.122758 -3.0263057 -18.444372
-14.290964 -4.0831342 -17.843639
-14.463132 -5.1654034 -17.228754
-14.63988 -6.2742333 -16.597511
-14.820513 -7.4102564 -15.952394
-15.00586 -8.5747776 -15.290438
-15.195902 -9.7687931 -14.611722
-15.391133 -10.993668 -13.914463
-15.591068 -12.250128 -13.200406
-16.090458 -13.791821 -11.416874
-14.793425 14.793424 -11.985007
-14.233711 13.138809 -14.137753
-13.870125 11.736258 -15.53616
-13.599742 10.461339 -16.576096
-13.390592 9.2704077 -17.380524
-13.224627 8.1382294 -18.018847
-13.083109 7.0447493 -18.563145
-12.985248 5.9931908 -18.939537
-12.892889 4.9588013 -19.294758
-12.818664 3.9442034 -19.58024
-12.764303 2.9456091 -19.789324
-12.732178 1.9587965 -19.912882
-12.713374 0.97795105 -19.985203
-12.706231 -9.5367432e-07 -20.012676
-12.714302 -0.97802448 -19.981636
-12.731675 -1.9587202 -19.91482
-12.879196 -2.9721251 -19.347422
-13.029814 -4.0091743 -18.768127
-13.183869 -5.0707178 -18.175604
-13.341995 -6.157846 -17.567429
-13.503655 -7.2711987 -16.945662
-13.669236 -8.4118385 -16.308813
-13.839019 -9.5808601 -15.6558
-14.013402 -10.779539 -14.985099
-14.192042 -12.008651 -14.298019
-14.375098 -13.269322 -13.593957
-14.878971 -14.878971 -11.655987
-13.791477 16.090054 -11.418312
-13.150711 14.246603 -14.088166
-12.777733 12.777733 -15.64224
-12.521047 11.477625 -16.711769
-12.306426 10.255354 -17.60602
-12.145843 9.1093807 -18.275116
-12.015696 8.0104618 -18.8174
-11.888307 6.9348431 -19.348185
-11.814694 5.9073467 -19.6549
-11.744844 4.8936863 -19.945944
-11.675852 3.8919487 -20.233414
-11.636028 2.9090052 -20.399345
-11.607036 1.9345045 -20.520144
-11.583571 0.96529484 -20.617916
-11.581452 9.5367432e-07 -20.626743
-11.584544 -0.96538067 -20.613861
-11.605257 -1.9342098 -20.527555
-11.679348 -2.9198399 -20.218849
-11.813538 -3.9378481 -19.659723
-11.950663 -4.9794436 -19.088367
-12.091349 -6.0456734 -18.502174
-12.235426 -7.1373315 -17.901855
-12.382421 -8.2549515 -17.28937
-12.533359 -9.4000196 -16.660465
-12.688522 -10.573767 -16.013954
-12.846891 -11.776317 -15.354082
-13.009482 -13.009483 -14.676624
-13.183933 -14.282594 -13.949742
-13.870183 -16.181885 -11.090365
-12.931743 17.634195 -10.102142
-12.154984 15.469977 -13.632874
-11.76833 13.908026 -15.390385
-11.488279 12.532666 -16.663349
-11.282292 11.282291 -17.599648
-11.11771 10.10701 -18.347752
-10.980291 8.9838734 -18.972378
-10.870743 7.9059939 -19.470329
-10.775546 6.8571668 -19.903042
-10.702443 5.8376937 -20.235327
-10.638984 4.8359013 -20.523777
-10.585887 3.849412 -20.765127
-10.550143 2.8773088 -20.927601
-10.519514 1.9126377 -21.066826
-10.50977 0.95543289 -21.111115
-10.50397 -9.5367432e-07 -21.137478
-10.510394 -0.95549011 -21.108276
-10.524142 -1.9134808 -21.045784
-10.548917 -2.8769789 -20.933172
-10.639719 -3.8689899 -20.520437
-10.761068 -4.8913956 -19.968853
-10.885484 -5.9375381 -19.40332
-11.012982 -7.0082607 -18.823788
-11.142801 -8.103858 -18.233704
-11.27604 -9.2258511 -17.628069
-11.413019 -10.37547 -17.005438
-11.552764 -11.552764 -16.370237
-11.696321 -12.759621 -15.717704
-11.843292 -13.996618 -15.049649
-12.209524 -15.539395 -13.38496
-13.052324 -17.798624 -9.5540504
-11.200428 16.800642 -12.880652
-10.771566 15.080192 -15.024965
-10.495355 13.643961 -16.406027
-10.267658 12.321189 -17.54451
-10.116572 11.128227 -18.299934
-9.973546 9.9735441 -19.01507
-9.8612356 8.8751135 -19.576614
-9.7745886 7.8196688 -20.009853
-9.6894503 6.7826147 -20.435547
-9.6208582 5.7725134 -20.778503
-9.5678568 4.783927 -21.04351
-9.5291586 3.8116646 -21.237003
-9.4951115 2.8485327 -21.407238
-9.4832764 1.8966551 -21.466413
-9.4724455 0.94724369 -21.520565
-9.463644 -9.5367432e-07 -21.564575
-9.4673462 -0.94673443 -21.546062
-9.4811535 -1.8962317 -21.477034
-9.5075655 -2.852273 -21.344965
-9.5318108 -3.812727 -21.22374
-9.6127825 -4.8063903 -20.81888
-9.7219706 -5.8331828 -20.272947
-9.8338757 -6.8837123 -19.713415
-9.9478645 -7.9582934 -19.143471
-10.064497 -9.0580492 -18.560314
-10.184443 -10.184443 -17.960581
-10.307152 -11.337866 -17.34704
-10.432549 -12.519058 -16.720055
-10.561241 -13.729613 -16.07659
-10.812932 -15.138105 -14.818135
-11.257591 -16.886385 -12.594839
-10.367229 18.430626 -11.287086
-9.8228607 16.371433 -14.311347
-9.5248098 14.81637 -15.967186
-9.3068094 13.443169 -17.178299
-9.1345482 12.179397 -18.135307
-8.9979696 10.997517 -18.894077
-8.8878031 9.8753376 -19.506111
-8.7881346 8.7881355 -20.059826
-8.7116661 7.743701 -20.484655
-8.6484823 6.7265973 -20.83567
-8.5885 5.725666 -21.168907
-8.5428276 4.7460155 -21.422642
-8.5092468 3.7818871 -21.609201
-8.481986 2.8273287 -21.760647
-8.4666138 1.8814688 -21.846048
-8.4570227 0.9396677 -21.899336
-8.4557877 -0 -21.906197
-8.4546032 -0.93940067 -21.912777
-8.4643869 -1.8809738 -21.858419
-8.4844217 -2.8281412 -21.747122
-8.5086727 -3.7816353 -21.612394
-8.5458269 -4.7476821 -21.405977
-8.5986729 -5.7324505 -21.112391
-8.6959724 -6.7635365 -20.571836
-8.7950726 -7.8178449 -20.02128
-8.8962383 -8.8962383 -19.459251
-9.0003185 -10.000357 -18.881029
-9.1070337 -11.130819 -18.288166
-9.215518 -12.287356 -17.685474
-9.3270998 -13.472478 -17.065578
-9.5416279 -14.84253 -15.873755
-9.8691502 -16.448584 -14.054187
-10.421989 -18.527981 -10.982853
-8.9245625 17.849123 -13.104284
-8.589653 16.105598 -15.197465
-8.3393078 14.59379 -16.762123
-8.1755228 13.285222 -17.78578
-8.0292749 12.043912 -18.699829
-7.9225135 10.893457 -19.367085
-7.830111 9.7876368 -19.944605
-7.7408624 8.7084694 -20.502403
-7.6837544 7.6837511 -20.859333
-7.6303301 6.6765394 -21.19323
-7.5776448 5.6832342 -21.522518
-7.537756 4.7110949 -21.771826
-7.507205 3.753602 -21.962765
-7.4855957 2.8070993 -22.09782
-7.4685497 1.867137 -22.204357
-7.4649768 0.93312073 -22.226688
-7.465713 9.5367432e-07 -22.222088
-7.4664273 -0.93330383 -22.217625
-7.473515 -1.8683805 -22.17333
-7.4896026 -2.8086023 -22.072779
-7.5127687 -3.7563839 -21.92799
-7.5419512 -4.7137194 -21.745605
-7.5805225 -5.6853929 -21.504532
-7.6265788 -6.6732564 -21.216679
-7.6822867 -7.6822872 -20.868502
-7.7690568 -8.7401886 -20.326193
-7.8582158 -9.8227692 -19.768948
-7.9497409 -10.930892 -19.196918
-8.0427189 -12.064079 -18.615803
-8.1878986 -13.305337 -17.708429
-8.3628197 -14.634934 -16.615173
-8.6046677 -16.133753 -15.103625
-8.9707079 -17.941418 -12.815872
-8.1605787 19.818544 -10.592952
-7.6729984 17.538279 -14.075665
-7.4038272 15.865345 -15.998316
-7.2246552 14.449308 -17.278118
-7.0861225 13.15994 -18.267637
-6.9723206 11.952549 -19.080507
-6.8770518 10.806793 -19.761
-6.7989502 9.7127857 -20.318863
-6.7346005 8.6587734 -20.778507
-6.6775885 7.6315279 -21.185738
-6.6314735 6.631474 -21.515129
-6.589632 5.6482544 -21.813992
-6.5588784 4.6849108 -22.033667
-6.5320063 3.7325735 -22.225609
-6.5141387 2.7917738 -22.353233
-6.499198 1.8569117 -22.459953
-6.4933534 0.92761993 -22.501705
-6.4926238 -2.8610229e-06 -22.506916
-6.4945512 -0.92779446 -22.493141
-6.5000982 -1.857173 -22.453522
-6.5141387 -2.7917738 -22.353233
-6.5346589 -3.7340908 -22.206661
-6.5607886 -4.6862764 -22.020023
-6.593123 -5.6512494 -21.789057
-6.6306148 -6.6306167 -21.521263
-6.6813908 -7.6358762 -21.158577
-6.7385693 -8.6638746 -20.750158
-6.8012695 -9.7161007 -20.302298
-6.8817573 -10.814192 -19.727386
-6.9781084 -11.962475 -19.039165
-7.0936193 -13.173864 -18.214085
-7.2367458 -14.473495 -17.191751
-7.4212174 -15.902609 -15.8741
-7.6939368 -17.586142 -13.926105
-8.2155466 -19.952042 -10.200325
-6.7984791 19.262358 -12.228803
-6.474772 17.266054 -14.926365
-6.2856717 15.714177 -16.502201
-6.1382298 14.322536 -17.730879
-6.0238161 13.0516 -18.68433
-5.9338875 11.867775 -19.433733
-5.8500767 10.725138 -20.13216
-5.7944622 9.6574335 -20.595612
-5.7398953 8.6098442 -21.050335
-5.6863465 7.5817933 -21.496576
-5.6497936 6.5914268 -21.801184
-5.6158953 5.6158924 -22.083672
-5.5916314 4.6596928 -22.285866
-5.5695839 3.7130556 -22.469595
-5.5555792 2.7777891 -22.586306
-5.5433621 1.8477869 -22.688114
-5.5387192 0.92311764 -22.726805
-5.5348139 -2.8610229e-06 -22.75935
-5.5395613 -0.92326069 -22.719786
-5.5459251 -1.8486433 -22.666752
-5.5583296 -2.7791691 -22.563385
-5.5741501 -3.7161036 -22.431541
-5.594418 -4.6620169 -22.262646
-5.6218791 -5.6218791 -22.033802
-5.6551213 -6.59764 -21.756783
-5.6972013 -7.5962715 -21.406118
-5.7452407 -8.6178637 -21.005789
-5.7933846 -9.6556396 -20.604595
-5.8614416 -10.745978 -20.037447
-5.9379568 -11.875915 -19.399822
-6.0315871 -13.068439 -18.61957
-6.1454778 -14.339449 -17.670483
-6.2953854 -15.738464 -16.421253
-6.4977145 -17.32724 -14.735174
-6.8480988 -19.402948 -11.815308
-5.555263 18.887892 -13.330164
-5.3472147 17.111086 -15.410647
-5.18961 15.568829 -16.986698
-5.0801001 14.22428 -18.081795
-4.990562 12.97546 -18.977177
-4.9172835 11.801477 -19.709961
-4.8554993 10.682095 -20.327805
-4.8045115 9.609024 -20.837681
-4.7594919 8.5670853 -21.28788
-4.7202182 7.5523472 -21.680614
-4.6901431 6.5661993 -21.981365
-4.6633797 5.596055 -22.249001
-4.6428871 4.6428871 -22.453926
-4.6253376 3.7002707 -22.629421
-4.6129131 2.7677479 -22.753662
-4.6033592 1.8413439 -22.849205
-4.5984259 0.91968441 -22.898539
-4.5958781 -1.9073486e-06 -22.924019
-4.5988464 -0.91977024 -22.894333
-4.6028585 -1.8411446 -22.85421
-4.612781 -2.7676678 -22.754986
-4.6253905 -3.7003136 -22.628891
-4.644321 -4.6443195 -22.439587
-4.6658406 -5.599009 -22.224388
-4.6920986 -6.5689383 -21.961807
-4.7237101 -7.5579352 -21.645699
-4.7623796 -8.5722809 -21.259003
-4.805975 -9.6119509 -20.823044
-4.8588128 -10.689389 -20.29467
-4.9215546 -11.811731 -19.66725
-4.9939384 -12.984241 -18.943411
-5.0880513 -14.246544 -18.002285
-5.2020416 -15.606127 -16.862383
-5.3542423 -17.133579 -15.340367
-5.6047592 -19.056183 -12.835201
-4.775085 21.487885 -9.1942291
-4.4064531 18.727425 -13.802134
-4.240458 16.96183 -15.877071
-4.1275535 15.478327 -17.288376
-4.0451794 14.158126 -18.318056
-3.9704077 12.903823 -19.252697
-3.9171641 11.75149 -19.918245
-3.869617 10.641445 -20.512585
-3.8244369 9.5610895 -21.077339
-3.7919137 8.531805 -21.483873
-3.7622797 7.5245585 -21.854298
-3.7382112 6.5418673 -22.155155
-3.7178605 5.5767889 -22.409542
-3.7013338 4.626667 -22.616123
-3.6877091 3.6877098 -22.786436
-3.6778474 2.7583857 -22.909704
-3.6706531 1.8353252 -22.999634
-3.6673594 0.91683578 -23.04081
-3.6655002 -9.5367432e-07 -23.064041
-3.6682372 -0.91705894 -23.029833
-3.6713755 -1.8356886 -22.990601
-3.6800132 -2.7600098 -22.882631
-3.6894951 -3.689497 -22.764109
-3.7035167 -4.6293964 -22.588837
-3.7195039 -5.5792556 -22.388996
-3.7420363 -6.5485644 -22.107344
-3.7654383 -7.5308781 -21.814817
-3.7967899 -8.5427799 -21.42292
-3.8325436 -9.5813599 -20.975998
-3.8745902 -10.655124 -20.45042
-3.9218543 -11.765562 -19.859619
-3.9767611 -12.924477 -19.173281
-4.0488815 -14.171086 -18.271778
-4.1362534 -15.510949 -17.179626
-4.2530527 -17.012213 -15.719635
-4.4192204 -18.781687 -13.642546
-3.4900076 20.940048 -10.715998
-3.2783451 18.577288 -14.243713
-3.1659932 16.885294 -16.116243
-3.0817523 15.408761 -17.520256
-3.0204921 14.095629 -18.541264
-2.9687409 12.864543 -19.40378
-2.9289782 11.715912 -20.066492
-2.8939397 10.611111 -20.650463
-2.8634531 9.5448399 -21.158579
-2.8373494 8.5120468 -21.593637
-2.8157189 7.5085831 -21.954145
-2.7976711 6.5278997 -22.254946
-2.7829299 5.5658579 -22.500633
-2.7704403 4.6173983 -22.708794
-2.7605624 3.680748 -22.873425
-2.7530448 2.753046 -22.998716
-2.7478576 1.8319016 -23.085169
-2.744889 0.91496277 -23.134644
-2.7434773 -1.9073486e-06 -23.158173
-2.7450607 -0.9150219 -23.131784
-2.7470446 -1.8313637 -23.098717
-2.7536573 -2.7536602 -22.98851
-2.7611544 -3.6815376 -22.863556
-2.7716174 -4.6193638 -22.689175
-2.7840855 -5.568172 -22.481373
-2.7994637 -6.532083 -22.225065
-2.8176007 -7.5136032 -21.922785
-2.8409228 -8.522768 -21.534084
-2.8678334 -9.5594444 -21.085571
-2.8977356 -10.62503 -20.587208
-2.9336329 -11.73453 -19.988916
-2.973001 -12.883005 -19.332779
-3.0245988 -14.114794 -18.472818
-3.0895431 -15.447717 -17.390411
-3.1706722 -16.91025 -16.038263
-3.2909386 -18.648653 -14.033815
-3.528708 -21.172249 -10.070994
-2.3102701 20.792429 -11.126043
-2.1765175 18.500395 -14.469862
-2.1030076 16.824057 -16.307611
-2.0481341 15.361005 -17.679443
-2.0094745 14.06632 -18.645935
-1.9768205 12.84933 -19.462286
-1.9475592 11.685353 -20.193817
-1.9253631 10.589496 -20.74872
-1.9065768 9.5328817 -21.218374
-1.8881593 8.4967175 -21.678814
-1.873878 7.495512 -22.035847
-1.8615484 6.5154219 -22.344086
-1.8521154 5.5563459 -22.57991
-1.8435956 4.6089888 -22.792904
-1.8372806 3.6745605 -22.950779
-1.8322024 2.7483025 -23.077736
-1.8290316 1.82903 -23.157005
-1.8273233 0.91366291 -23.199711
-1.8264678 -9.5367432e-07 -23.221104
-1.8276346 -0.91382027 -23.191933
-1.8291513 -1.829154 -23.154016
-1.8339878 -2.7509823 -23.033104
-1.8396227 -3.679245 -22.892227
-1.846404 -4.6160097 -22.7227
-1.8538225 -5.5614681 -22.537235
-1.8637962 -6.5232868 -22.287891
-1.8758221 -7.5032883 -21.987244
-1.8896337 -8.5033531 -21.641954
-1.9075996 -9.5379982 -21.192806
-1.9264406 -10.595427 -20.721779
-1.9507465 -11.704477 -20.114132
-1.9775674 -12.85419 -19.443609
-2.0118172 -14.082722 -18.587366
-2.0528765 -15.396575 -17.560883
-2.1079249 -16.863398 -16.184673
-2.1826582 -18.552595 -14.316342
-2.3340542 -21.006487 -10.531439
-1.1472985 20.651373 -11.517869
-1.0866493 18.473036 -14.550334
-1.0478029 16.764845 -16.492651
-1.0243441 15.365158 -17.665594
-1.0031494 14.044092 -18.725327
-0.987252 12.834274 -19.520199
-0.97280526 11.673662 -20.242533
-0.96183562 10.580191 -20.791014
-0.95258588 9.5258598 -21.253504
-0.94361728 8.4925518 -21.701931
-0.93651086 7.4920855 -22.057251
-0.93042433 6.51297 -22.361574
-0.92567682 5.554059 -22.598953
-0.9214468 4.607234 -22.810455
-0.91837299 3.6734924 -22.964148
-0.91585094 2.7475529 -23.09025
-0.91423523 1.8284702 -23.171034
-0.91366947 0.91366673 -23.199327
-0.91343343 -0 -23.211124
-0.91360462 -0.91360474 -23.202568
-0.91383553 -1.8276711 -23.191023
-0.91639596 -2.7491865 -23.062998
-0.919236 -3.6769457 -22.920996
-0.92253244 -4.6126623 -22.756176
-0.92673242 -5.5603938 -22.546179
-0.93179554 -6.5225706 -22.293018
-0.93780446 -7.5024357 -21.992575
-0.94463378 -8.5017033 -21.651104
-0.95348042 -9.5348034 -21.208771
-0.96292061 -10.592125 -20.736769
-0.97430432 -11.691653 -20.167578
-0.98831916 -12.84815 -19.466839
-1.0041885 -14.058642 -18.673367
-1.025529 -15.382937 -17.606346
-1.0518473 -16.829557 -16.290428
-1.0898027 -18.526648 -14.392656
-1.1615095 -20.907173 -10.80732
0 20.650267 -11.520941
0 18.446568 -14.628188
0 16.797606 -16.390278
0 15.369562 -17.650917
0 14.040413 -18.738457
0 12.834981 -19.517475
0 11.685742 -20.192198
0 10.582279 -20.781525
0 9.522954 -21.268021
0 8.499383 -21.663994
0 7.4980874 -22.019749
0 6.5125179 -22.364803
0 5.5539341 -22.600019
0 4.6064291 -22.818501
0 3.6731453 -22.968472
0 2.7470236 -23.09911
0 1.8284578 -23.171291
0 0.91388798 -23.188297
0 9.5367432e-07 -23.201012
0 -0.91380692 -23.192451
0 -1.8294592 -23.146347
0 -2.7498789 -23.051514
0 -3.6747313 -22.948683
0 -4.6103373 -22.779436
0 -5.5609055 -22.541908
0 -6.521852 -22.298141
0 -7.5040545 -21.982462
0 -8.5063763 -21.625166
0 -9.536869 -21.19846
0 -10.599864 -20.701591
0 -11.692713 -20.163155
0 -12.850002 -19.459705
0 -14.073307 -18.620987
0 -15.375145 -17.632315
0 -16.838253 -16.263256
0 -18.5301 -14.382504
0 -20.908228 -10.804383
1.1567876 20.822174 -11.043418
1.0879902 18.495831 -14.483292
1.0531141 16.849823 -16.227095
1.0249999 15.374995 -17.632801
1.0056729 14.079419 -18.599154
0.98834342 12.848463 -19.465624
0.97505116 11.700613 -20.130238
0.96329242 10.596215 -20.718176
0.95245892 9.5245876 -21.259848
0.94534975 8.5081482 -21.615309
0.93834311 7.5067449 -21.965639
0.93174708 6.5222301 -22.295444
0.92671365 5.5602808 -22.547112
0.92245311 4.6122637 -22.760143
0.91949862 3.6779928 -22.907867
0.91728145 2.7518435 -23.018724
0.91558516 1.8311682 -23.103539
0.91416252 0.91416168 -23.174667
0.91383553 9.5367432e-07 -23.191021
0.91465878 -0.91465855 -23.149858
0.91595256 -1.8319073 -23.085171
0.9177863 -2.7533598 -22.993481
0.91985077 -3.6794043 -22.890257
0.92330527 -4.6165266 -22.717535
0.92751229 -5.565074 -22.507183
0.93175513 -6.5222869 -22.295042
0.93852925 -7.508234 -21.956333
0.94568312 -8.5111465 -21.598642
0.95426363 -9.542635 -21.169617
0.96432579 -10.607584 -20.666508
0.97563642 -11.707636 -20.100975
0.98995775 -12.869452 -19.384907
1.0067708 -14.094791 -18.544258
1.0278316 -15.417476 -17.49122
1.0544562 -16.871302 -16.159983
1.0938848 -18.596043 -14.188555
1.1667733 -21.001921 -10.544131
2.3406494 21.065844 -10.366564
2.192838 18.639122 -14.061845
2.1127961 16.902367 -16.062895
2.0573845 15.430382 -17.448185
2.017777 14.124437 -18.438368
1.9825195 12.886377 -19.319805
1.9530729 11.718433 -20.055977
1.9313947 10.622669 -20.597931
1.9110829 9.5554132 -21.105724
1.893681 8.5215654 -21.54077
1.8796293 7.5185161 -21.892067
1.8682106 6.5387354 -22.177534
1.8579696 5.5739088 -22.433556
1.8478404 4.6196012 -22.686787
1.8422449 3.6844902 -22.826675
1.838367 2.7575493 -22.923626
1.8349029 1.8349018 -23.010227
1.8320459 0.9160223 -23.08165
1.830483 -1.9073486e-06 -23.120724
1.8317697 -0.91588497 -23.088554
1.8343642 -1.8343649 -23.023691
1.8378998 -2.7568502 -22.935303
1.8438438 -3.6876869 -22.786699
1.8505179 -4.626296 -22.619848
1.8589624 -5.5768876 -22.408735
1.8688776 -6.5410733 -22.160851
1.8817669 -7.5270681 -21.838623
1.8955605 -8.5300236 -21.493782
1.9132473 -9.5662384 -21.051615
1.9336576 -10.635118 -20.541359
1.9575099 -11.74506 -19.945049
1.9868891 -12.914782 -19.210569
2.020247 -14.141731 -18.376616
2.0621436 -15.466078 -17.329205
2.1193006 -16.954401 -15.900283
2.1986206 -18.688276 -13.917278
2.3958609 -21.562748 -8.9862728
3.647902 21.887413 -8.0844297
3.3151548 18.785873 -13.630217
3.1852751 16.988132 -15.79488
3.1055429 15.527713 -17.123749
3.0363748 14.169748 -18.27655
2.9851255 12.935542 -19.130707
2.941803 11.76721 -19.852749
2.9063013 10.656439 -20.444439
2.8763089 9.5876942 -20.944315
2.8491724 8.5475149 -21.396591
2.8251116 7.5336299 -21.797604
2.8098762 6.5563765 -22.051525
2.7948041 5.5896072 -22.302725
2.7802453 4.6337404 -22.545376
2.7706311 3.6941738 -22.705612
2.7632723 2.7632713 -22.828259
2.7579837 1.8386555 -22.916401
2.7553234 0.91843987 -22.960743
2.7545686 -2.8610229e-06 -22.97332
2.7558815 -0.91862679 -22.951433
2.7572668 -1.8381777 -22.928349
2.7625291 -2.7625284 -22.840645
2.7720153 -3.696022 -22.682545
2.7816548 -4.6360903 -22.521881
2.7956297 -5.5912614 -22.288967
2.8117583 -6.56077 -22.020159
2.8305449 -7.548121 -21.707047
2.853332 -8.5599947 -21.327263
2.8792253 -9.5974197 -20.895708
2.9110506 -10.673853 -20.365282
2.9464803 -11.785922 -19.774792
2.9921749 -12.966092 -19.013214
3.0417221 -14.194705 -18.187426
3.1099744 -15.549873 -17.049889
3.1964853 -17.04792 -15.608046
3.3301458 -18.870827 -13.380364
4.4677324 18.98786 -13.036142
4.2914619 17.165846 -15.239521
4.166995 15.626226 -16.795362
4.0709944 14.24848 -17.995365
4.0024672 13.008018 -18.851955
3.9439387 11.831816 -19.583565
3.8890462 10.694876 -20.269716
3.8486423 9.6216068 -20.774765
3.8152559 8.5843248 -21.192101
3.7844338 7.5688667 -21.577374
3.7583365 6.5770874 -21.903591
3.7381136 5.6071692 -22.156376
3.721945 4.6524305 -22.35848
3.7090228 3.7090216 -22.52001
3.6962008 2.7721472 -22.680286
3.6868322 1.8434134 -22.797392
3.6858189 0.92145348 -22.810059
3.6848059 1.9073486e-06 -22.82272
3.6863046 -0.92157555 -22.803989
3.6908915 -1.8454447 -22.746655
3.698792 -2.7740955 -22.647892
3.7090123 -3.7090139 -22.520142
3.7200305 -4.6500378 -22.382414
3.7393513 -5.6090279 -22.1409
3.7603235 -6.5805683 -21.87875
3.7857025 -7.5714059 -21.561514
3.8180621 -8.5906391 -21.157022
3.8515327 -9.6288319 -20.738638
3.8966627 -10.715823 -20.174511
3.9436243 -11.830873 -19.587492
4.0087614 -13.028473 -18.773281
4.0811648 -14.284078 -17.868235
4.1722212 -15.645833 -16.73003
4.3019166 -17.207668 -15.108837
4.5123019 -19.177286 -12.479021
5.7079229 19.406937 -11.803564
5.4263206 17.364225 -14.61959
5.2430944 15.729282 -16.451853
5.1348281 14.377518 -17.534515
5.0347047 13.090231 -18.535751
4.9571238 11.897095 -19.311563
4.8920188 10.762442 -19.962605
4.8363523 9.6727047 -20.519272
4.7927914 8.6270218 -20.954882
4.7547383 7.6075802 -21.335413
4.7211185 6.6095629 -21.671616
4.6884484 5.6261349 -21.998312
4.6720452 4.6720438 -22.162344
4.6564026 3.7251225 -22.318768
4.6408515 2.7845106 -22.474277
4.6327147 1.8530836 -22.555653
4.6263213 0.92526436 -22.619579
4.6211534 -0 -22.671265
4.6257095 -0.9251442 -22.625702
4.6337152 -1.8534851 -22.545643
4.6431146 -2.7858725 -22.451649
4.6561737 -3.7249393 -22.32106
4.674787 -4.6747856 -22.134928
4.6984005 -5.6380806 -21.898788
4.7237239 -6.613215 -21.645555
4.7576623 -7.6122599 -21.306171
4.7980366 -8.636467 -20.902435
4.8420424 -9.6840849 -20.462372
4.9011979 -10.782638 -19.870821
4.9654298 -11.917029 -19.228502
5.0487003 -13.126623 -18.395794
5.1439219 -14.402983 -17.443581
5.2684493 -15.805348 -16.198307
5.4519677 -17.446299 -14.363118
5.750905 -19.553078 -11.373744
7.1216292 20.177948 -9.5358868
6.6048188 17.612848 -13.84264
6.3828268 15.957066 -15.692574
6.2180858 14.508864 -17.065413
6.0950041 13.205841 -18.091095
5.9869103 11.97382 -18.991877
5.9149656 10.844102 -19.591419
5.8466225 9.7443695 -20.16094
5.7821774 8.6732645 -20.697985
5.7356668 7.6475534 -21.085571
5.6989503 6.6487737 -21.391544
5.6636305 5.6636295 -21.685875
5.6365833 4.6971512 -21.91127
5.6130219 3.7420149 -22.107613
5.5970125 2.7985067 -22.241024
5.5892363 1.8630762 -22.305828
5.5820942 0.93034744 -22.365341
5.575953 -9.5367432e-07 -22.416519
5.5807877 -0.93013382 -22.376234
5.5856309 -1.8618784 -22.335873
5.5954881 -2.7977467 -22.253733
5.6172023 -3.7448015 -22.072781
5.6397605 -4.6998024 -21.884792
5.6674204 -5.6674218 -21.654289
5.7037139 -6.6543326 -21.351845
5.7436857 -7.6582475 -21.018749
5.7941318 -8.6911983 -20.598366
5.8514061 -9.7523441 -20.121077
5.922276 -10.857508 -19.530493
6.0047836 -12.009566 -18.842936
6.1069555 -13.231737 -17.991501
6.2260056 -14.527347 -16.99942
6.4068427 -16.017109 -15.492439
6.6505194 -17.734718 -13.461802
7.8931251 18.041426 -12.50333
7.5562315 16.191925 -14.909712
7.3434429 14.686885 -16.429634
7.1806707 13.335532 -17.592293
7.0613346 12.105143 -18.444695
6.9535322 10.926978 -19.21471
6.8719964 9.8171377 -19.797112
6.8008385 8.7439327 -20.30538
6.7411904 7.704215 -20.731434
6.6926255 6.6926236 -21.078331
6.6518965 5.7016258 -21.369247
6.6199179 4.7285128 -21.597668
6.5896707 3.7655268 -21.813717
6.5687275 2.8151693 -21.963314
6.5583816 1.8738213 -22.037212
6.550087 0.93572521 -22.096462
6.5486774 -9.5367432e-07 -22.106525
6.5543938 -0.93634224 -22.065697
6.5606165 -1.8744621 -22.02125
6.5700498 -2.8157377 -21.953873
6.5921388 -3.7669401 -21.796085
6.6167679 -4.7262645 -21.620167
6.65172 -5.7014766 -21.370512
6.6959677 -6.6959667 -21.054459
6.7416949 -7.7047949 -20.727833
6.807332 -8.7522869 -20.258993
6.8751211 -9.8216038 -19.77479
6.964582 -10.944343 -19.135782
7.0681143 -12.116766 -18.396269
7.204277 -13.379374 -17.423674
7.3663025 -14.732606 -16.266354
7.5833716 -16.250084 -14.715853
7.9482937 -18.167532 -12.10927
9.3975229 18.795044 -10.148278
8.8164978 16.53093 -13.77969
8.5166578 14.904149 -15.653688
8.3175659 13.516045 -16.898008
8.1616058 12.242405 -17.872765
8.033083 11.045488 -18.676031
7.9191747 9.8989677 -19.387951
7.8455248 8.8262119 -19.848269
7.7748985 7.7748985 -20.28968
7.7098937 6.7461553 -20.695963
7.6551738 5.7413788 -21.037964
7.6231685 4.7644806 -21.237991
7.5914531 3.7957258 -21.436218
7.5683117 2.8381147 -21.580849
7.549758 1.8874388 -21.696808
7.5312729 0.94140816 -21.81234
7.5352407 -9.5367432e-07 -21.78754
7.5426135 -0.94282722 -21.741459
7.5500011 -1.8875008 -21.695288
7.5642419 -2.8365917 -21.606281
7.5861292 -3.7930641 -21.469488
7.6230788 -4.7644238 -21.238556
7.6603894 -5.7452917 -21.005363
7.712203 -6.7481756 -20.68153
7.7791028 -7.7791057 -20.263401
7.8567777 -8.8388767 -19.777939
7.9371681 -9.9214592 -19.275497
8.0516481 -11.071015 -18.559998
8.1744843 -12.261728 -17.792269
8.3416853 -13.555239 -16.747267
8.5456324 -14.95486 -15.472592
8.8651304 -16.622122 -13.47573
9.577775 -19.155554 -9.0217018
10.225079 17.041798 -12.076801
9.7821226 15.216631 -14.537675
9.514266 13.742826 -16.025763
9.3025656 12.403418 -17.20188
9.1464901 11.179041 -18.06896
9.0258121 10.028679 -18.739395
8.9160109 8.916008 -19.349405
8.8277483 7.8468866 -19.839748
8.758584 6.8122287 -20.223999
8.7013283 5.8008857 -20.542084
8.6511946 4.8062181 -20.820602
8.6094332 3.8264141 -21.052612
8.5843506 2.8614511 -21.191956
8.5679722 1.9039936 -21.282951
8.5522871 0.95025253 -21.37009
8.5525141 -0 -21.368828
8.5528173 -0.95031357 -21.367146
8.5582256 -1.9018278 -21.337101
8.5848856 -2.8616295 -21.18899
8.6119413 -3.8275309 -21.038673
8.6507044 -4.8059464 -20.823328
8.7003355 -5.8002238 -20.5476
8.7615776 -6.8145628 -20.207367
8.8431654 -7.8605914 -19.754101
8.931241 -8.9312401 -19.26479
9.034934 -10.038817 -18.688717
9.1663179 -11.20328 -17.958805
9.3192968 -12.42573 -17.108927
9.5371037 -13.775817 -15.898887
9.8369055 -15.301855 -14.23332
10.307644 -17.179407 -11.61811
11.155548 15.617763 -13.10506
10.782826 14.017673 -14.968667
10.52009 12.624105 -16.282347
10.322359 11.354595 -17.271
10.163698 10.163696 -18.064308
10.035748 9.0321693 -18.704056
9.9223471 7.9378757 -19.271061
9.8405218 6.8883634 -19.680191
9.7751818 5.865109 -20.006886
9.7166281 4.8583117 -20.29966
9.6660805 3.8664312 -20.552391
9.6329823 2.8898926 -20.717888
9.610487 1.9220934 -20.830366
9.5944996 0.95944786 -20.910301
9.5950422 1.9073486e-06 -20.907581
9.601799 -0.96017933 -20.873804
9.614994 -1.9229994 -20.807823
9.6422758 -2.8926859 -20.671419
9.6710196 -3.8684092 -20.527704
9.7194443 -4.8597255 -20.285572
9.7791624 -5.8674979 -19.986984
9.8412132 -6.8888497 -19.676731
9.9406748 -7.9525404 -19.17942
10.043171 -9.0388536 -18.666943
10.182607 -10.182606 -17.969763
10.34562 -11.380182 -17.154696
10.560375 -12.67245 -16.080919
10.815476 -14.060119 -14.805418
11.242608 -15.739654 -12.669754
12.984297 16.525467 -9.863266
12.208008 14.427643 -13.391851
11.835294 12.91123 -15.086003
11.572212 11.572211 -16.281832
11.364911 10.331738 -17.224108
11.196333 9.160635 -17.990372
11.083009 8.0603704 -18.505487
10.9775 6.9856825 -18.985069
10.879262 5.9341407 -19.431606
10.812176 4.9146233 -19.736546
10.769055 3.9160194 -19.932543
10.729009 2.9260921 -20.114578
10.695136 1.9445696 -20.268539
10.672629 0.97023964 -20.370842
10.67025 -2.8610229e-06 -20.381662
10.677845 -0.97071552 -20.347139
10.695556 -1.9446468 -20.26663
10.731772 -2.9268475 -20.102009
10.770005 -3.9163675 -19.928223
10.829077 -4.9223075 -19.659723
10.901104 -5.9460583 -19.332319
10.983393 -6.9894333 -18.958288
11.098192 -8.071413 -18.43647
11.222349 -9.1819229 -17.872118
11.394944 -10.359039 -17.087597
11.585809 -11.585811 -16.220032
11.87157 -12.950801 -14.921114
12.282299 -14.515448 -13.054162
13.297263 -16.92379 -8.4406881
14.040117 15.210125 -10.382308
13.274932 13.274931 -13.57058
12.926701 11.849474 -15.021542
12.653683 10.544734 -16.159117
12.461372 9.3460293 -16.960409
12.290291 8.1935263 -17.673252
12.15716 7.0916758 -18.227962
12.058164 6.0290804 -18.640446
11.976829 4.9903445 -18.979343
11.906743 3.968914 -19.271366
11.852841 2.9632092 -19.49596
11.826888 1.9711494 -19.604095
11.812996 0.98441505 -19.66198
11.806387 -0 -19.689518
11.803247 -0.98360443 -19.702597
11.829858 -1.9716444 -19.591721
11.864749 -2.966188 -19.446344
11.899809 -3.9666038 -19.300259
11.976866 -4.9903641 -18.979191
12.06031 -6.0301542 -18.631504
12.163363 -7.0952959 -18.202116
12.30568 -8.2037868 -17.609125
12.463505 -9.3476286 -16.951527
12.694319 -10.5786 -15.989799
12.978091 -11.896583 -14.807414
13.369741 -13.369741 -13.175539
14.21364 -15.398111 -9.659297
15.266461 14.092114 -10.165637
14.51172 12.279147 -13.068493
14.098686 10.845143 -14.657079
13.804407 9.5568962 -15.788923
13.59709 8.3674393 -16.5863
13.432854 7.2330732 -17.217974
13.296497 6.1368437 -17.74242
13.201716 5.0775819 -18.106962
13.119952 4.0369048 -18.421442
13.059912 3.0138254 -18.652367
13.020527 2.0031586 -18.803846
12.987625 0.99904823 -18.930389
12.975944 -9.5367432e-07 -18.975319
13.000661 -1.0000515 -18.880253
13.026731 -2.0041142 -18.779989
13.064357 -3.0148535 -18.635269
13.133915 -4.0412059 -18.367739
13.216439 -5.0832477 -18.050341
13.317702 -6.1466331 -17.660862
13.457438 -7.246314 -17.123413
13.618645 -8.3807058 -16.503393
13.84928 -9.5879622 -15.616333
14.124915 -10.865316 -14.556204
14.555947 -12.31657 -12.898382
15.50057 -14.308217 -9.2652187
15.813343 11.295242 -12.406569
15.36358 9.876585 -14.012869
15.050974 8.6005535 -15.129317
14.824756 7.4123778 -15.93724
14.659982 6.2828469 -16.525721
14.514477 5.1837425 -17.04538
14.408969 4.1168456 -17.422194
14.346846 3.0743256 -17.644064
14.295679 2.0422401 -17.826796
14.260658 1.0186167 -17.951874
14.258807 -9.5367432e-07 -17.958485
14.271951 -1.0194244 -17.911545
14.287519 -2.0410738 -17.855942
14.347347 -3.07443 -17.642269
14.426224 -4.1217785 -17.360569
14.509942 -5.1821227 -17.061575
14.671534 -6.2878003 -16.484463
14.836814 -7.4184055 -15.894178
15.09535 -8.6259165 -14.970834
15.412878 -9.9082823 -13.836804
15.869655 -11.335465 -12.205457
17.406685 10.44401 -10.86051
16.784054 8.9514942 -12.935949
16.427536 7.666182 -14.124342
16.17218 6.4688702 -14.975527
15.979886 5.3266277 -15.616508
15.860132 4.2293668 -16.015694
15.758449 3.1516881 -16.354635
15.680286 2.0907021 -16.615175
15.645729 1.0430498 -16.730368
15.627798 -9.5367432e-07 -16.790133
15.63291 -1.0421958 -16.773098
15.697571 -2.0930109 -16.557558
15.764316 -3.1528645 -16.335081
15.864249 -4.2304697 -16.001965
16.019073 -5.3396912 -15.485886
16.189537 -6.4758172 -14.917676
16.465584 -7.683939 -13.997522
16.827465 -8.9746466 -12.791245
17.52899 -10.517395 -10.452832
18.581806 8.1295395 -10.814655
18.067574 6.7753391 -12.421628
17.70892 5.5340352 -13.542423
17.528313 4.3820767 -14.106817
17.367271 3.2563629 -14.610077
17.263048 2.1578813 -14.935766
17.204275 1.0752668 -15.119439
17.200712 -3.8146973e-06 -15.130571
17.233063 -1.0770683 -15.029472
17.287624 -2.1609526 -14.858974
17.394552 -3.2614789 -14.524821
17.555323 -4.3888326 -14.022409
17.776535 -5.5551696 -13.331123
18.102699 -6.7885141 -12.311859
18.722607 -8.1911449 -10.374648
19.846802 4.6698356 -10.50985
19.480808 3.4377875 -11.586298
19.295713 2.270083 -12.130696
19.16922 1.1275978 -12.502736
19.139647 -1.9073486e-06 -12.589718
19.210615 -1.1300344 -12.380985
19.313425 -2.2721691 -12.078607
19.54693 -3.449461 -11.391825
19.872177 -4.6758065 -10.435216
