# .PCD v0.7 - Point Cloud Data file format
VERSION 0.7
FIELDS x y z
SIZE 4 4 4
TYPE F F F
COUNT 1 1 1
WIDTH 1054
HEIGHT 1
VIEWPOINT 0 0 0 1 0 0 0
POINTS 1054
DATA ascii
-22.792664 -2.3841858e-06 -8.9021015
-21.840786 7.2802606 -8.2139425
-20.76947 5.7692986 -11.189823
-20.405207 4.5344892 -12.201664
-20.109821 3.351635 -13.022184
-19.971575 2.2190628 -13.406199
-19.848877 1.1027141 -13.747025
-19.844254 -1.9073486e-06 -13.759869
-19.87653 -1.1042523 -13.670219
-19.933228 -2.2148032 -13.512718
-20.153337 -3.3588924 -12.901305
-20.378433 -4.5285416 -12.276037
-20.849682 -5.7915778 -10.967015
-19.8584 9.345129 -10.475735
-19.216553 7.9126987 -12.363522
-18.781235 6.6286707 -13.643869
-18.556307 5.4577365 -14.305426
-18.345064 4.3164873 -14.926722
-18.19268 3.2104726 -15.37491
-18.1082 2.1303768 -15.623384
-18.029251 1.0605426 -15.855586
-18.028658 -1.4305115e-06 -15.857336
-18.051678 -1.0618639 -15.789623
-18.079836 -2.1270394 -15.706809
-18.210787 -3.2136693 -15.32166
-18.349741 -4.317585 -14.912971
-18.533739 -5.4511003 -14.371798
-18.841646 -6.649991 -13.466189
-19.22648 -7.9167867 -12.334324
-20.087196 -9.4528008 -9.8028107
-19.082714 11.926697 -9.2493114
-18.06694 10.162652 -12.423612
-17.611345 8.8056717 -13.847347
-17.276602 7.5585122 -14.893414
-17.026669 6.3849998 -15.674458
-16.881699 5.2755322 -16.127487
-16.740864 4.1852169 -16.567595
-16.64024 3.1200447 -16.88205
-16.583807 2.0729737 -17.058401
-16.528763 1.0330458 -17.230412
-16.521605 9.5367432e-07 -17.252787
-16.545013 -1.0340652 -17.179626
-16.568758 -2.0710969 -17.105427
-16.648848 -3.1216602 -16.855148
-16.742498 -4.185626 -16.562494
-16.858044 -5.2681389 -16.201408
-17.067528 -6.4003224 -15.546766
-17.282343 -7.5610247 -14.875473
-17.654274 -8.8271389 -13.713189
-18.146591 -10.207458 -12.174696
-19.334501 -12.084065 -8.4624767
-17.367857 12.73643 -10.989935
-16.638449 11.092296 -13.421308
-16.222559 9.7335329 -14.807596
-15.961235 8.5126572 -15.678681
-15.740927 7.3457651 -16.413044
-15.542714 6.2170863 -17.073753
-15.419688 5.1398969 -17.483833
-15.31889 4.0850372 -17.819832
-15.245499 3.0490994 -18.064468
-15.206695 2.0275593 -18.193817
-15.169042 1.0112686 -18.319326
-15.159704 9.5367432e-07 -18.350449
-15.177721 -1.0118475 -18.290394
-15.199944 -2.026659 -18.21632
-15.255615 -3.0511246 -18.030745
-15.33641 -4.0897098 -17.761433
-15.430532 -5.1435103 -17.447689
-15.580688 -6.2322736 -16.947168
-15.74868 -7.3493853 -16.387194
-15.979674 -8.5224934 -15.617215
-16.283356 -9.7700119 -14.604947
-16.692356 -11.128237 -13.241611
-17.442852 -12.791424 -10.739964
-15.981788 13.698673 -11.804983
-15.383409 12.086964 -13.942052
-15.012859 10.72347 -15.265441
-14.719657 9.462635 -16.312592
-14.519762 8.2970066 -17.026505
-14.361753 7.1808767 -17.59082
-14.219611 6.0941172 -18.098469
-14.127806 5.0456438 -18.42635
-14.039977 4.0114217 -18.740021
-13.968721 2.9932966 -18.994507
-13.935152 1.990737 -19.114395
-13.902387 0.99302769 -19.231413
-13.886533 -3.8146973e-06 -19.288034
-13.908869 -0.99349213 -19.208265
-13.931231 -1.9901772 -19.128395
-13.970888 -2.9937625 -18.986771
-14.042734 -4.0122104 -18.730173
-14.121651 -5.0434489 -18.44833
-14.231829 -6.0993543 -18.054836
-14.377151 -7.1885762 -17.535828
-14.534564 -8.3054638 -16.973642
-14.767857 -9.4936228 -16.140455
-15.024876 -10.732055 -15.22253
-15.440344 -12.1317 -13.738711
-16.050163 -13.757282 -11.560784
-14.818103 14.818102 -11.89009
-14.238361 13.143101 -14.119871
-13.860247 11.727901 -15.574154
-13.601289 10.462529 -16.570145
-13.389949 9.2699642 -17.382994
-13.232741 8.1432247 -17.987637
-13.094453 7.0508575 -18.519518
-12.964766 5.9837379 -19.018314
-12.896586 4.9602246 -19.280542
-12.830852 3.9479527 -19.533369
-12.773929 2.9478302 -19.7523
-12.751192 1.9617205 -19.839748
-12.729196 0.9791708 -19.924353
-12.71349 -0 -19.984755
-12.731286 -0.97932911 -19.916306
-12.751115 -1.9617128 -19.840048
-12.77986 -2.9491997 -19.729488
-12.84046 -3.9509125 -19.496412
-12.905935 -4.9638205 -19.244583
-12.99182 -5.9962249 -18.914259
-13.109223 -7.0588126 -18.462711
-13.231443 -8.1424284 -17.992626
-13.415495 -9.287652 -17.284737
-13.617092 -10.474684 -16.509359
-13.910941 -11.770797 -15.37918
-14.273823 -13.175838 -13.983478
-14.893271 -14.893271 -11.600982
-13.796502 16.095917 -11.397372
-13.141046 14.236131 -14.128441
-12.805782 12.805781 -15.525371
-12.503696 11.461721 -16.784061
-12.315571 10.262976 -17.567919
-12.135767 9.1018257 -18.317101
-12.016517 8.0110102 -18.813974
-11.912106 6.9487262 -19.249025
-11.81249 5.9062467 -19.664087
-11.751672 4.8965287 -19.917501
-11.694378 3.8981256 -20.156219
-11.638553 2.9096394 -20.388824
-11.617581 1.9362621 -20.476208
-11.599854 0.96665287 -20.550072
-11.582182 1.9073486e-06 -20.623705
-11.59745 -0.96645451 -20.560085
-11.619399 -1.9365683 -20.468632
-11.64143 -2.9103584 -20.376837
-11.69098 -3.8969936 -20.170382
-11.751528 -4.896471 -19.918098
-11.816647 -5.9083247 -19.64677
-11.921445 -6.954175 -19.210106
-12.032541 -8.0216961 -18.747208
-12.169688 -9.1272669 -18.175766
-12.34411 -10.28676 -17.449005
-12.53983 -11.494846 -16.633505
-12.813728 -12.813729 -15.492263
-13.2002 -14.30022 -13.881959
-13.907195 -16.225063 -10.936148
-12.921028 17.619583 -10.150847
-12.164758 15.482418 -13.588443
-11.758518 13.896431 -15.434982
-11.497009 12.542191 -16.623663
-11.281682 11.281681 -17.602425
-11.117046 10.106403 -18.350765
-10.981825 8.9851265 -18.965412
-10.874683 7.9088583 -19.452415
-10.783555 6.8622594 -19.86664
-10.694845 5.83355 -20.269867
-10.637225 4.835103 -20.531769
-10.59219 3.8517056 -20.736479
-10.550458 2.8773985 -20.92617
-10.532722 1.9150391 -21.00679
-10.521515 0.95649815 -21.05773
-10.511674 -2.8610229e-06 -21.102459
-10.51967 -0.95633507 -21.066113
-10.537707 -1.915946 -20.984127
-10.558545 -2.8796034 -20.889412
-10.597929 -3.8537941 -20.71039
-10.650731 -4.8412437 -20.470383
-10.708692 -5.8411059 -20.206924
-10.79026 -6.8665295 -19.836159
-10.883543 -7.9153047 -19.412148
-10.988063 -8.9902344 -18.937057
-11.137053 -10.124594 -18.259834
-11.292009 -11.29201 -17.555481
-11.510654 -12.557076 -16.561642
-11.78808 -13.931369 -15.300612
-12.181334 -15.503516 -13.513101
-11.206513 16.809769 -12.850229
-10.779324 15.091052 -14.986179
-10.496825 13.645872 -16.398668
-10.290541 12.348648 -17.430092
-10.101204 11.111322 -18.376778
-9.9789572 9.9789562 -18.988008
-9.8596344 8.8736715 -19.584621
-9.7671423 7.8137136 -20.047085
-9.6974792 6.7882338 -20.395397
-9.6298399 5.7779026 -20.733597
-9.5821581 4.7910786 -20.972004
-9.544136 3.8176537 -21.162113
-9.5089989 2.8526974 -21.337803
-9.4873304 1.8974676 -21.446146
-9.4781656 0.9478159 -21.49197
-9.4705782 -0 -21.529903
-9.4714146 -0.94714355 -21.525723
-9.4903793 -1.898077 -21.430897
-9.5124283 -2.8537302 -21.320656
-9.5404863 -3.8161945 -21.180367
-9.5862398 -4.7931199 -20.951599
-9.6329527 -5.7797732 -20.718029
-9.6933899 -6.7853737 -20.415844
-9.7782717 -7.8226166 -19.991442
-9.8712778 -8.8841515 -19.526405
-9.9833221 -9.9833241 -18.966183
-10.125835 -11.13842 -18.253622
-10.294096 -12.352915 -17.412319
-10.51569 -13.670397 -16.304348
-10.816313 -15.142838 -14.801235
-11.241273 -16.86191 -12.676434
-10.335524 18.374266 -11.463215
-9.8031788 16.338633 -14.420689
-9.537261 14.835738 -15.898014
-9.3029833 13.437643 -17.199554
-9.1389294 12.185238 -18.110968
-8.995985 10.99509 -18.905102
-8.8884573 9.8760624 -19.502476
-8.7916555 8.7916546 -20.040266
-8.7144709 7.7461939 -20.46907
-8.6530561 6.7301531 -20.810268
-8.5949478 5.7299652 -21.133085
-8.5480471 4.7489147 -21.393648
-8.5162277 3.7849874 -21.570419
-8.4852667 2.8284187 -21.742428
-8.4613457 1.8802977 -21.87532
-8.4566765 0.93962955 -21.901257
-8.4533939 1.9073486e-06 -21.919493
-8.4526291 -0.93918133 -21.923744
-8.4708977 -1.8824196 -21.82225
-8.4892206 -2.8297396 -21.720461
-8.5085974 -3.7816 -21.612808
-8.5537271 -4.7520738 -21.362091
-8.60184 -5.7345595 -21.094799
-8.6507559 -6.7283649 -20.823044
-8.7128973 -7.7447963 -20.47781
-8.7953663 -8.7953672 -20.01965
-8.8912411 -9.8791542 -19.487015
-9.006587 -11.008053 -18.846199
-9.1455088 -12.194012 -18.074417
-9.3214865 -13.464369 -17.096764
-9.5552263 -14.863685 -15.798207
-9.8597431 -16.432903 -14.106449
-8.9280596 17.856117 -13.082426
-8.5781193 16.083973 -15.269548
-8.3483925 14.609684 -16.705339
-8.1741467 13.282986 -17.79438
-8.0427189 12.064075 -18.615807
-7.9163508 10.884979 -19.405605
-7.8288012 9.7860003 -19.952789
-7.7509303 8.7197962 -20.439484
-7.6798577 7.6798549 -20.883686
-7.6278663 6.6743836 -21.20863
-7.5786934 5.6840172 -21.515965
-7.5399852 4.7124891 -21.757889
-7.5170465 3.7585211 -21.90126
-7.4942465 2.8103428 -22.043755
-7.4739051 1.868475 -22.170889
-7.4710422 0.93387985 -22.18878
-7.4685283 -0 -22.204494
-7.467814 -0.93347931 -22.208965
-7.4799633 -1.8699913 -22.133026
-7.4966683 -2.8112507 -22.028618
-7.5182319 -3.7591171 -21.89385
-7.5503554 -4.7189693 -21.693073
-7.5894384 -5.6920791 -21.448807
-7.6293135 -6.6756482 -21.199591
-7.6859331 -7.685936 -20.845713
-7.7543383 -8.7236309 -20.418184
-7.830873 -9.7885914 -19.93984
-7.9305668 -10.904531 -19.316753
-8.0449553 -12.067431 -18.601824
-8.1845932 -13.299964 -17.729094
-8.3676844 -14.643451 -16.584768
-8.6127272 -16.148861 -15.053251
-8.9715519 -17.943104 -12.810596
-8.1470327 19.785646 -10.68971
-7.6713004 17.534399 -14.087794
-7.3933301 15.84285 -16.073296
-7.2317519 14.463504 -17.227425
-7.0831146 13.154355 -18.28912
-6.9702926 11.949072 -19.094994
-6.8747225 10.803135 -19.777637
-6.801393 9.7162743 -20.301418
-6.7336144 8.6575031 -20.785553
-6.6740074 7.6274347 -21.211313
-6.6348329 6.6348333 -21.491135
-6.5963664 5.654026 -21.765892
-6.5603113 4.6859341 -22.023436
-6.5400848 3.7371912 -22.167908
-6.521493 2.7949257 -22.300701
-6.5038514 1.858242 -22.426716
-6.4973984 0.92819881 -22.472809
-6.4965739 -9.5367432e-07 -22.478697
-6.4959373 -0.92799377 -22.483246
-6.502387 -1.8578253 -22.437176
-6.5209265 -2.7946854 -22.304749
-6.5395532 -3.7368879 -22.171701
-6.5624318 -4.6874523 -22.008282
-6.5969267 -5.6545081 -21.76189
-6.6372375 -6.6372366 -21.473957
-6.6811333 -7.6355824 -21.160416
-6.7334337 -8.6572723 -20.786846
-6.8052964 -9.7218552 -20.273535
-6.8826408 -10.815577 -19.721079
-6.9781952 -11.96262 -19.038549
-7.0928826 -13.172496 -18.219349
-7.2362113 -14.472424 -17.19557
-7.4311318 -15.923855 -15.803284
-7.6920714 -17.581879 -13.939425
-6.7916884 19.243114 -12.285398
-6.4722977 17.25946 -14.94698
-6.2788448 15.697108 -16.55909
-6.1418614 14.331009 -17.700619
-6.018765 13.040655 -18.726421
-5.9374456 11.874889 -19.404083
-5.8585787 10.740726 -20.061308
-5.7932453 9.6554089 -20.605751
-5.7405438 8.610815 -21.044931
-5.6925488 7.590065 -21.444889
-5.6567616 6.5995517 -21.743118
-5.6253514 5.625351 -22.004868
-5.5947585 4.6622963 -22.259811
-5.5745845 3.7163887 -22.427921
-5.559546 2.7797689 -22.553249
-5.54532 1.8484383 -22.671793
-5.5396409 0.92327309 -22.719124
-5.5412941 -2.8610229e-06 -22.705347
-5.5429645 -0.92382431 -22.691425
-5.5476785 -1.849227 -22.652145
-5.5627489 -2.7813759 -22.526554
-5.5779023 -3.7186003 -22.40028
-5.595634 -4.6630306 -22.252514
-5.627007 -5.6270084 -21.99107
-5.660924 -6.6044135 -21.708427
-5.6955376 -7.5940499 -21.419983
-5.7415676 -8.6123505 -21.036398
-5.7966366 -9.6610603 -20.577492
-5.8601255 -10.743565 -20.04842
-5.9403863 -11.880772 -19.379578
-6.0310025 -13.067173 -18.624439
-6.1485701 -14.346663 -17.644716
-6.2955289 -15.738823 -16.420057
-6.4953108 -17.320827 -14.755211
-5.5690098 18.934629 -13.1927
-5.3454027 17.105291 -15.428767
-5.1872673 15.5618 -17.01012
-5.0818329 14.22913 -18.06447
-4.989912 12.97377 -18.983675
-4.9202905 11.808697 -19.679888
-4.8545618 10.680033 -20.337181
-4.8011427 9.6022844 -20.871367
-4.7608433 8.569519 -21.274361
-4.7212291 7.5539641 -21.670507
-4.689651 6.5655088 -21.986286
-4.6659217 5.5991058 -22.223579
-4.6435032 4.6435013 -22.447765
-4.627306 3.7018442 -22.609737
-4.6171489 2.7702904 -22.711308
-4.607379 1.8429499 -22.809004
-4.6001215 0.92002487 -22.88158
-4.6015029 -0 -22.867767
-4.6035566 -0.92071438 -22.847233
-4.6064425 -1.8425779 -22.818369
-4.6169634 -2.7701788 -22.713161
-4.6311011 -3.7048845 -22.571781
-4.6475267 -4.6475267 -22.407526
-4.6699028 -5.6038852 -22.183767
-4.6967688 -6.5754766 -21.915108
-4.7239456 -7.5583143 -21.643341
-4.7620411 -8.5716753 -21.262384
-4.807023 -9.614048 -20.812565
-4.8599715 -10.691938 -20.283079
-4.9198089 -11.807543 -19.684702
-4.9977384 -12.994121 -18.905415
-5.086041 -14.240916 -18.022385
-5.2029834 -15.608948 -16.852962
-5.3575048 -17.144016 -15.307747
-5.5866046 -18.994453 -13.016755
-4.7474546 21.363546 -9.5396099
-4.4045234 18.719223 -13.826256
-4.2406678 16.962669 -15.874451
-4.1273284 15.477483 -17.291187
-4.0460057 14.161016 -18.307726
-3.9727237 12.91135 -19.223753
-3.9153292 11.745987 -19.941179
-3.8703265 10.643394 -20.503714
-3.828577 9.5714436 -21.025583
-3.7960062 8.5410137 -21.43272
-3.7650859 7.5301704 -21.819221
-3.7410467 6.5468311 -22.119709
-3.7230322 5.584547 -22.344894
-3.7058303 4.632287 -22.559917
-3.6905737 3.6905727 -22.75062
-3.6824975 2.7618713 -22.851576
-3.6754951 1.8377476 -22.939106
-3.6687284 0.91717911 -23.023693
-3.6684043 -9.5367432e-07 -23.027744
-3.6706951 -0.91767311 -22.999107
-3.6729782 -1.8364906 -22.970566
-3.6796978 -2.7597733 -22.88658
-3.6926489 -3.6926479 -22.724686
-3.7057023 -4.6321278 -22.561516
-3.7206221 -5.5809364 -22.375023
-3.7443113 -6.5525441 -22.078905
-3.7699373 -7.5398731 -21.758579
-3.7971485 -8.5435829 -21.418444
-3.8295224 -9.5738087 -21.013769
-3.8725502 -10.649512 -20.475916
-3.9198358 -11.75951 -19.884848
-3.979466 -12.933264 -19.139477
-4.0483088 -14.169081 -18.278934
-4.1363201 -15.5112 -17.178797
-4.2500758 -17.000303 -15.756847
-4.4202065 -18.785877 -13.630217
-3.4851449 20.910868 -10.79705
-3.2799823 18.586563 -14.216427
-3.1630371 16.86953 -16.165508
-3.0842924 15.42146 -17.477924
-3.0209646 14.097836 -18.533386
-2.9696085 12.868302 -19.389324
-2.9293337 11.717333 -20.06057
-2.8953891 10.616426 -20.62631
-2.8625703 9.5418987 -21.173292
-2.8384757 8.5154266 -21.574867
-2.8182507 7.5153337 -21.911953
-2.7984657 6.5297518 -22.241701
-2.7850893 5.570178 -22.464642
-2.7727795 4.6212969 -22.669804
-2.7605782 3.6807709 -22.873161
-2.7539322 2.753933 -22.983929
-2.748867 1.8325787 -23.068344
-2.7447798 0.91492653 -23.136467
-2.744374 -0 -23.143227
-2.7472165 -0.91574097 -23.095856
-2.7500727 -1.8333826 -23.048248
-2.7543957 -2.7543964 -22.9762
-2.763818 -3.6850929 -22.819162
-2.7733052 -4.6221771 -22.661041
-2.7846797 -5.5693569 -22.47147
-2.8020799 -6.5381875 -22.181465
-2.820663 -7.52177 -21.871746
-2.8400536 -8.5201645 -21.548569
-2.8661222 -9.5537424 -21.114092
-2.8966141 -10.620916 -20.605896
-2.9314861 -11.725945 -20.024693
-2.9769611 -12.900164 -19.266779
-3.0258121 -14.120456 -18.452595
-3.0871525 -15.435762 -17.430256
-3.1710365 -16.912195 -16.03219
-3.2902434 -18.644712 -14.045405
-2.3035152 20.731636 -11.294916
-2.1736948 18.476404 -14.540428
-2.1019566 16.815653 -16.333876
-2.0492687 15.369514 -17.651077
-2.0088537 14.061975 -18.661457
-1.9772333 12.852016 -19.451962
-1.948715 11.692288 -20.164925
-1.9260429 10.593233 -20.731724
-1.9044727 9.5223598 -21.270981
-1.8890404 8.5006809 -21.656792
-1.87527 7.501081 -22.001045
-1.8618931 6.5166245 -22.33547
-1.8525525 5.5576563 -22.568985
-1.8453187 4.6132956 -22.749828
-1.8381623 3.6763239 -22.928741
-1.8336743 2.7505102 -23.040936
-1.8311338 1.8311319 -23.104452
-1.8288031 0.91439915 -23.16272
-1.8273855 -2.8610229e-06 -23.198158
-1.829276 -0.91463852 -23.150898
-1.8315246 -1.8315248 -23.094685
-1.8341237 -2.7511892 -23.029705
-1.8393651 -3.678731 -22.898666
-1.8465999 -4.6165009 -22.717798
-1.8547091 -5.5641274 -22.515066
-1.8647573 -6.5266514 -22.263863
-1.877075 -7.5083008 -21.955927
-1.8905995 -8.5076971 -21.617809
-1.9081708 -9.5408516 -21.178528
-1.9289752 -10.609366 -20.658415
-1.9513794 -11.708275 -20.098312
-1.9802811 -12.871827 -19.375769
-2.0134344 -14.094041 -18.54693
-2.0544424 -15.40832 -17.521732
-2.1075521 -16.860418 -16.193991
-2.1828654 -18.554356 -14.311162
-2.3250496 -20.925449 -10.756554
-1.1440276 20.592495 -11.681416
-1.0853885 18.451605 -14.613369
-1.0476426 16.762281 -16.500666
-1.0241811 15.362715 -17.673738
-1.0035717 14.050003 -18.704212
-0.98754585 12.838093 -19.505508
-0.97227925 11.667349 -20.268837
-0.96216345 10.583798 -20.774622
-0.95253789 9.5253782 -21.255901
-0.94407135 8.4966393 -21.679232
-0.93719268 7.497539 -22.023159
-0.93094385 6.5166063 -22.335606
-0.92611635 5.5566959 -22.576979
-0.92250073 4.6125002 -22.757763
-0.91913098 3.6765242 -22.92625
-0.91620809 2.7486229 -23.07239
-0.91493964 1.8298769 -23.135815
-0.91397566 0.91397381 -23.184013
-0.91306543 -1.9073486e-06 -23.229527
-0.91356826 -0.9135685 -23.204382
-0.91486156 -1.8297234 -23.139715
-0.91615593 -2.7484703 -23.074997
-0.91843325 -3.6737356 -22.961136
-0.92243719 -4.6121883 -22.760935
-0.92648429 -5.558907 -22.55858
-0.93073922 -6.5151749 -22.345837
-0.9378947 -7.5031581 -21.988062
-0.94532198 -8.5078964 -21.616699
-0.95305973 -9.5305996 -21.229809
-0.96359527 -10.59955 -20.703032
-0.97490644 -11.698878 -20.137474
-0.98825544 -12.847322 -19.470024
-1.0057168 -14.080036 -18.596954
-1.0262256 -15.393384 -17.571522
-1.0535933 -16.857494 -16.203133
-1.0895187 -18.521818 -14.40686
-1.1574907 -20.834833 -11.008261
0 20.678352 -11.442924
0 18.450796 -14.615748
0 16.794645 -16.399523
0 15.370888 -17.646507
0 14.038576 -18.74502
0 12.833605 -19.522772
0 11.681995 -20.207809
0 10.588989 -20.751022
0 9.5283947 -21.240814
0 8.4925814 -21.70179
0 7.4972129 -22.025206
0 6.5202255 -22.309738
0 5.5557365 -22.584972
0 4.6119461 -22.763315
0 3.6767111 -22.923885
0 2.7479677 -23.083344
0 1.8289289 -23.159603
0 0.91355228 -23.205158
0 -0 -23.232632
0 -0.91343307 -23.211124
0 -1.8302898 -23.125538
0 -2.7505913 -23.039633
0 -3.6758642 -22.934515
0 -4.6141701 -22.7411
0 -5.5609536 -22.541508
0 -6.5215874 -22.30003
0 -7.5055423 -21.973164
0 -8.5094471 -21.608089
0 -9.5291023 -21.237288
0 -10.595707 -20.720482
0 -11.703662 -20.117531
0 -12.85186 -19.45257
0 -14.087124 -18.57164
0 -15.39466 -17.567266
0 -16.857384 -16.203478
0 -18.5333 -14.373092
0 -20.892393 -10.848373
1.1564426 20.815968 -11.060664
1.0871375 18.481337 -14.525925
1.0525216 16.840343 -16.256714
1.0257055 15.385581 -17.597521
1.0048 14.067198 -18.642797
0.98907238 12.857941 -19.429174
0.97529644 11.703556 -20.117975
0.96338183 10.597198 -20.713703
0.95353132 9.5353127 -21.20623
0.94455898 8.50103 -21.65485
0.93804502 7.5043602 -21.980545
0.93215722 6.5250998 -22.274937
0.92634827 5.5580893 -22.565384
0.92264879 4.6132441 -22.750359
0.91985077 3.6794033 -22.890259
0.91706973 2.7512093 -23.029312
0.91544718 1.8308935 -23.110437
0.9149422 0.91494274 -23.135685
0.91452104 -0 -23.156744
0.91441965 -0.91441917 -23.16181
0.91607767 -1.8321552 -23.078909
0.91798788 -2.7539635 -22.983402
0.92012954 -3.6805191 -22.87632
0.92327613 -4.6163816 -22.71899
0.92789203 -5.5673532 -22.488195
0.93297333 -6.5308151 -22.234131
0.93867975 -7.5094399 -21.948809
0.94598883 -8.5139027 -21.583355
0.95474494 -9.5474482 -21.145554
0.96455407 -10.610098 -20.655092
0.97675276 -11.721033 -20.045156
0.99040568 -12.875275 -19.362516
1.0072687 -14.10176 -18.519363
1.0283406 -15.42511 -17.465767
1.056138 -16.898211 -16.075893
1.093803 -18.594654 -14.192642
1.1711041 -21.07987 -10.327597
2.3336821 21.003138 -10.540749
2.1913524 18.626495 -14.098986
2.1136703 16.909361 -16.041039
2.0574634 15.430973 -17.446213
2.0175114 14.122579 -18.445011
1.9829594 12.889234 -19.308813
1.9547336 11.728398 -20.014458
1.9287845 10.608313 -20.663185
1.911605 9.5580235 -21.09267
1.8947235 8.5262527 -21.514709
1.8799311 7.5197239 -21.884514
1.8681129 6.5383949 -22.17997
1.8575515 5.5726509 -22.444012
1.849295 4.6232386 -22.650417
1.8436748 3.6873484 -22.790922
1.838514 2.7577705 -22.919947
1.8337841 1.8337831 -23.038193
1.8327711 0.9163847 -23.06352
1.8323692 -9.5367432e-07 -23.073565
1.832166 -0.91608429 -23.07865
1.8340296 -1.8340321 -23.032055
1.8382988 -2.7574501 -22.925329
1.8426826 -3.6853676 -22.815731
1.8488595 -4.6221495 -22.661308
1.8589195 -5.576757 -22.409809
1.8690894 -6.5418124 -22.15556
1.8796183 -7.5184717 -21.89234
1.8964317 -8.5339441 -21.472002
1.9143227 -9.5716152 -21.024727
1.932566 -10.629116 -20.568644
1.9572123 -11.743274 -19.952494
1.985939 -12.908604 -19.234324
2.0205388 -14.143773 -18.369324
2.0650017 -15.487512 -17.257753
2.1173973 -16.939178 -15.947865
2.20245 -18.720825 -13.821549
2.3745244 -21.370718 -9.5196896
3.5929086 21.557449 -9.000988
3.314074 18.779751 -13.648234
3.1871676 16.998224 -15.763335
3.1016619 15.508309 -17.188431
3.0391178 14.182551 -18.230829
2.9817052 12.92072 -19.18771
2.9426458 11.770582 -19.838703
2.9057589 10.654449 -20.45348
2.8768058 9.5893517 -20.936031
2.8506107 8.5518293 -21.372616
2.8256903 7.5351729 -21.787956
2.8091731 6.5547371 -22.063244
2.7947071 5.5894127 -22.304346
2.7803893 4.6339817 -22.542974
2.7715695 3.695426 -22.689968
2.7643878 2.7643843 -22.809666
2.7572513 1.8381662 -22.928608
2.7538614 0.91795254 -22.985106
2.7536809 -0 -22.988113
2.7546945 -0.91823292 -22.971222
2.7572746 -1.8381824 -22.928215
2.7651875 -2.7651854 -22.796337
2.7731459 -3.6975279 -22.6637
2.7825048 -4.6375093 -22.507717
2.7960262 -5.5920529 -22.282358
2.8113654 -6.5598502 -22.026707
2.8304453 -7.5478554 -21.708708
2.8529019 -8.5587072 -21.334431
2.8796976 -9.5989914 -20.887838
2.9091036 -10.666713 -20.397738
2.9469481 -11.787791 -19.766996
2.9918318 -12.964605 -19.018932
3.0435631 -14.203295 -18.156744
3.1120596 -15.560299 -17.015137
3.20083 -17.071095 -15.535628
3.335346 -18.900295 -13.293699
4.4706182 19.000128 -13.000065
4.2849908 17.139961 -15.32041
4.163908 15.614655 -16.833944
4.0726433 14.25425 -17.974756
4.0005889 13.001911 -18.875437
3.9434071 11.830221 -19.59021
3.8930924 10.706001 -20.219143
3.849402 9.6235037 -20.765272
3.8142383 8.5820351 -21.204817
3.7830324 7.5660653 -21.594889
3.7591817 6.5785656 -21.893024
3.7389715 5.6084566 -22.145653
3.7189879 4.6487331 -22.395447
3.7056916 3.7056904 -22.561649
3.6976764 2.7732573 -22.66184
3.6896856 1.844841 -22.76173
3.6845319 0.92113209 -22.826147
3.6859033 -0 -22.809006
3.6874449 -0.92186165 -22.789738
3.6906903 -1.8453465 -22.749166
3.6990895 -2.7743177 -22.644173
3.7106159 -3.7106171 -22.500097
3.7234092 -4.6542616 -22.340185
3.7382874 -5.6074314 -22.154203
3.7627418 -6.5847993 -21.848522
3.7887332 -7.5774689 -21.52363
3.8150747 -8.5839176 -21.194359
3.8549695 -9.6374254 -20.695675
3.8996847 -10.724133 -20.136736
3.9454615 -11.836388 -19.564528
4.0090485 -13.029409 -18.769688
4.0824981 -14.288743 -17.851574
4.178844 -15.670666 -16.647243
4.3071418 -17.228567 -15.043528
4.5042024 -19.14286 -12.580267
5.6891551 19.343124 -11.991245
5.4258447 17.362703 -14.624347
5.2537766 15.761331 -16.34503
5.1310129 14.366838 -17.572666
5.0377784 13.098222 -18.505016
4.9568486 11.896437 -19.314308
4.8923168 10.763094 -19.959631
4.8325906 9.6651773 -20.556892
4.7934198 8.6281538 -20.948599
4.7556376 7.6090188 -21.32642
4.720592 6.608829 -21.676876
4.695097 5.6341152 -21.931828
4.6724792 4.6724796 -22.158005
4.6533599 3.7226858 -22.349199
4.6432352 2.7859392 -22.450443
4.6340756 1.8536272 -22.542042
4.6264014 0.92528057 -22.618782
4.6254306 -0 -22.62849
4.6286502 -0.92573261 -22.596294
4.6327415 -1.8530979 -22.555384
4.6391792 -2.7835064 -22.491005
4.655231 -3.7241859 -22.330486
4.6744742 -4.6744747 -22.138046
4.695138 -5.6341643 -21.931417
4.7257771 -6.6160884 -21.625027
4.7587738 -7.6140399 -21.295057
4.7961626 -8.6330948 -20.921165
4.845396 -9.6907902 -20.428837
4.9018102 -10.78398 -19.864698
4.961143 -11.906744 -19.271366
5.0465784 -13.121106 -18.417007
5.1468997 -14.41132 -17.413795
5.2619543 -15.785864 -16.263256
5.4485526 -17.435368 -14.39727
5.7569337 -19.573574 -11.313461
7.0670509 20.023308 -9.9907112
6.6120791 17.632208 -13.782142
6.375072 15.937679 -15.757195
6.2152839 14.502329 -17.08876
6.0944848 13.204715 -18.095425
5.9856486 11.971295 -19.002392
5.9134979 10.841412 -19.603647
5.8451538 9.7419205 -20.173182
5.7881398 8.6822071 -20.6483
5.740561 7.6540799 -21.044788
5.6942105 6.6432467 -21.431038
5.6625013 5.6624985 -21.69529
5.6382456 4.6985369 -21.897415
5.6142135 3.7428064 -22.097687
5.5974989 2.7987471 -22.236969
5.5879583 1.8626518 -22.316475
5.5786757 0.92978001 -22.393831
5.5728474 -0 -22.442402
5.5804167 -0.93007183 -22.379326
5.5884595 -1.8628197 -22.312302
5.5982132 -2.7991085 -22.231018
5.6187711 -3.7458458 -22.059702
5.642117 -4.7017651 -21.865152
5.6691842 -5.6691833 -21.639595
5.7006664 -6.6507783 -21.377243
5.7439246 -7.6585646 -21.016758
5.7947755 -8.6921654 -20.593002
5.8474545 -9.745759 -20.154003
5.9184098 -10.85042 -19.562712
5.9993548 -11.99871 -18.888178
6.100666 -13.218111 -18.043919
6.2366633 -14.552212 -16.910604
6.4037828 -16.009457 -15.517939
6.6499929 -17.733313 -13.466194
7.2367158 -20.504028 -8.576828
7.8897252 18.033659 -12.527615
7.5562315 16.191925 -14.909712
7.3427725 14.685547 -16.43442
7.1814718 13.337019 -17.586567
7.0610027 12.104572 -18.447065
6.9584723 10.934738 -19.179422
6.8745122 9.8207321 -19.779135
6.7965703 8.7384453 -20.335863
6.7403436 7.7032495 -20.737484
6.692884 6.692884 -21.076485
6.6506791 5.7005825 -21.377945
6.6206183 4.7290115 -21.592667
6.5908279 3.7661839 -21.805454
6.5676742 2.8147163 -21.97084
6.5596423 1.8741837 -22.028208
6.5516491 0.93594933 -22.085304
6.5465465 -0 -22.121748
6.5527163 -0.93610382 -22.077682
6.5623941 -1.8749704 -22.008553
6.5760522 -2.8183079 -21.910995
6.593586 -3.767766 -21.785749
6.6232071 -4.7308626 -21.574175
6.6554146 -5.7046399 -21.344124
6.6923666 -6.6923647 -21.080175
6.7499361 -7.7142148 -20.668964
6.8110166 -8.757021 -20.232679
6.878458 -9.8263683 -19.750952
6.963872 -10.943229 -19.140856
7.067493 -12.115705 -18.400703
7.194591 -13.361383 -17.492861
7.3617764 -14.723555 -16.298676
7.5891199 -16.262398 -14.674796
7.9205441 -18.104099 -12.307484
9.3401804 18.680361 -10.506671
8.8097401 16.518261 -13.821923
8.5192499 14.908687 -15.637482
8.3131886 13.508927 -16.925373
8.1631842 12.244776 -17.862898
8.0244198 11.033577 -18.730173
7.9265137 9.9081402 -19.342083
7.8403878 8.8204346 -19.880371
7.7715893 7.7715859 -20.310364
7.7153921 6.7509675 -20.661598
7.6611872 5.7458901 -21.000374
7.6220403 4.763773 -21.245045
7.5921249 3.7960615 -21.432018
7.5665545 2.8374577 -21.591833
7.5511532 1.8877878 -21.688091
7.5432544 0.94290447 -21.737453
7.5385284 9.5367432e-07 -21.766994
7.5376892 -0.9422121 -21.77224
7.5515518 -1.8878899 -21.6856
7.5673771 -2.8377676 -21.586687
7.5869341 -3.7934647 -21.464458
7.6268044 -4.7667522 -21.215269
7.6709342 -5.753201 -20.939459
7.7198343 -6.7548547 -20.633833
7.7774582 -7.7774601 -20.273682
7.8522243 -8.8337545 -19.806391
7.9434857 -9.9293585 -19.23601
8.0374956 -11.051556 -18.648447
8.1678705 -12.251804 -17.833601
8.3301334 -13.536468 -16.819462
8.5453205 -14.954311 -15.474544
8.8639708 -16.619947 -13.48298
9.512907 -19.025814 -9.4271259
10.218838 17.031397 -12.111474
9.7806358 15.214319 -14.545932
9.5079565 13.733716 -16.060812
9.2993402 12.399117 -17.219799
9.1490326 11.18215 -18.054836
9.0221291 10.024587 -18.759855
8.9220257 8.9220238 -19.315992
8.8276148 7.846766 -19.840496
8.761631 6.8145976 -20.207073
8.6966257 5.7977476 -20.568211
8.6447392 4.8026314 -20.856464
8.6135807 3.8282566 -21.02957
8.5843258 2.8614416 -21.192101
8.5571632 1.9015903 -21.343
8.5510998 0.95012093 -21.376684
8.5497627 -0 -21.384117
8.5499392 -0.94999218 -21.383133
8.5685043 -1.9041147 -21.279991
8.5925512 -2.8641872 -21.1464
8.6207848 -3.83146 -20.989546
8.656003 -4.8088899 -20.793888
8.7080517 -5.8053684 -20.504734
8.766696 -6.818542 -20.178934
8.8309784 -7.8497591 -19.821802
8.9308281 -8.9308281 -19.267086
9.0380077 -10.042231 -18.671646
9.1667242 -11.203774 -17.956551
9.3199568 -12.426611 -17.105259
9.5448036 -13.78694 -15.85611
9.811614 -15.262511 -14.37383
10.287873 -17.14646 -11.727943
11.172317 15.641238 -13.021215
10.780804 14.015042 -14.978782
10.518405 12.622082 -16.290773
10.326764 11.35944 -17.248974
10.158501 10.158499 -18.090296
10.036968 9.0332699 -18.697952
9.9224081 7.9379249 -19.270756
9.8372126 6.8860497 -19.696735
9.7755976 5.8653569 -20.004807
9.7147503 4.8573723 -20.309048
9.6713381 3.8685341 -20.5261
9.6361837 2.8908548 -20.70188
9.6108885 1.9221754 -20.828356
9.5995646 0.95995522 -20.884972
9.5985336 -1.9073486e-06 -20.890127
9.6030598 -0.96030521 -20.867496
9.611865 -1.9223719 -20.823477
9.6405993 -2.8921795 -20.679796
9.6755543 -3.8702221 -20.505024
9.7107639 -4.8553829 -20.328978
9.777915 -5.8667498 -19.993223
9.856555 -6.8995895 -19.600021
9.9437771 -7.9550219 -19.163912
10.042294 -9.038065 -18.671331
10.182478 -10.182482 -17.970406
10.345287 -11.379818 -17.156357
10.5418 -12.650161 -16.1738
10.82377 -14.070902 -14.763948
11.256253 -15.758755 -12.601534
12.996071 16.540453 -9.8097506
12.224998 14.447725 -13.314624
11.834581 12.91045 -15.089244
11.558232 11.558231 -16.345375
11.361847 10.328951 -17.238037
11.198989 9.1628056 -17.978298
11.082834 8.0602417 -18.506273
10.969642 6.9806781 -19.020786
10.891747 5.9409513 -19.374855
10.818817 4.9176431 -19.706356
10.751688 3.9097042 -20.011486
10.723321 2.9245415 -20.140427
10.697754 1.9450464 -20.256641
10.672276 0.97020721 -20.372452
10.672598 -9.5367432e-07 -20.370987
10.679295 -0.97084713 -20.340546
10.69055 -1.9437361 -20.289389
10.725921 -2.925251 -20.128614
10.77525 -3.9182739 -19.904383
10.829573 -4.922534 -19.657461
10.891814 -5.9409904 -19.37455
10.98329 -6.9893694 -18.958752
11.089639 -8.0651951 -18.475346
11.221318 -9.1810808 -17.876804
11.388823 -10.353474 -17.115425
11.602403 -11.602403 -16.144604
11.867669 -12.94655 -14.938844
12.265703 -14.495832 -13.129602
13.279008 -16.900555 -8.5236702
14.02584 15.19466 -10.441793
13.284111 13.28411 -13.532334
12.935144 11.857215 -14.986361
12.666091 10.555074 -16.107416
12.457032 9.3427715 -16.978497
12.296786 8.1978531 -17.646187
12.161372 7.0941315 -18.210417
12.044024 6.0220108 -18.69936
11.975603 4.9898343 -18.984451
11.910819 3.9702735 -19.254379
11.860959 2.9652395 -19.462135
11.830185 1.9716969 -19.590359
11.80516 0.98376369 -19.69463
11.799569 -3.8146973e-06 -19.717926
11.815056 -0.98458958 -19.653399
11.836021 -1.9726706 -19.566036
11.862308 -2.965579 -19.456516
11.914678 -3.9715605 -19.238308
11.982812 -4.9928393 -18.954416
12.061629 -6.0308156 -18.626011
12.175097 -7.102139 -18.153225
12.314706 -8.2098074 -17.571518
12.476954 -9.3577166 -16.895489
12.678482 -10.565402 -16.055786
12.967981 -11.88732 -14.849543
13.39311 -13.393112 -13.078172
14.183622 -15.365593 -9.7843647
15.217596 14.047012 -10.353577
14.503066 12.271824 -13.101771
14.071705 10.824389 -14.760853
13.808143 9.5594826 -15.774553
13.582655 8.3585558 -16.641815
13.438376 7.2360468 -17.196732
13.306266 6.1413536 -17.704849
13.203341 5.0782094 -18.100714
13.124727 4.0383763 -18.403076
13.048141 3.0111074 -18.697639
13.013399 2.0020609 -18.831261
12.998238 0.99986267 -18.889576
12.983152 -0 -18.947598
12.989158 -0.9991684 -18.924498
13.02073 -2.0031881 -18.803066
13.062359 -3.0143909 -18.642954
13.122586 -4.0377188 -18.411312
13.217191 -5.0835333 -18.047447
13.324447 -6.1497431 -17.634926
13.441529 -7.2377481 -17.184608
13.62166 -8.3825598 -16.491796
13.849556 -9.5881557 -15.615274
14.128444 -10.868033 -14.542629
14.5521 -12.313314 -12.913184
15.438794 -14.251198 -9.5028181
16.877575 13.260949 -8.6057453
15.801088 11.286489 -12.450338
15.350755 9.8683414 -14.058671
15.063605 8.6077709 -15.084208
14.820025 7.4100137 -15.954134
14.658884 6.2823777 -16.52964
14.501163 5.1789856 -17.09293
14.416576 4.1190205 -17.395023
14.351826 3.0753903 -17.626274
14.287702 2.0410981 -17.855295
14.26707 1.0190783 -17.928974
14.257273 -0 -17.963963
14.263863 -1.0188503 -17.940426
14.301579 -2.0430865 -17.805731
14.359054 -3.0769382 -17.600464
14.424562 -4.121304 -17.366507
14.520605 -5.1859303 -17.023495
14.682721 -6.2925982 -16.444508
14.862607 -7.431304 -15.802061
15.064511 -8.6082907 -15.08097
15.413827 -9.9088888 -13.833415
15.909104 -11.363647 -12.064567
17.371733 10.42304 -10.977017
16.767963 8.9429102 -12.989588
16.442867 7.6733384 -14.073236
16.173481 6.4693923 -14.971191
16.000013 5.3333364 -15.549422
15.846647 4.2257733 -16.060638
15.756339 3.1512656 -16.361668
15.676723 2.0902305 -16.627056
15.632403 1.042161 -16.774784
15.640659 -9.5367432e-07 -16.747267
15.648974 -1.0432663 -16.719547
15.679319 -2.0905781 -16.618401
15.771009 -3.1542025 -16.312759
15.878024 -4.2341404 -15.956049
16.007706 -5.3359027 -15.523778
16.186226 -6.4744902 -14.928717
16.479071 -7.6902337 -13.952556
16.842731 -8.982789 -12.740361
17.507755 -10.504656 -10.52361
18.608128 8.1410542 -10.732398
18.066305 6.7748642 -12.425591
17.711111 5.5347204 -13.535573
17.531834 4.3829579 -14.095818
17.367624 3.2564278 -14.608974
17.283503 2.16044 -14.871849
17.216642 1.0760365 -15.08079
17.16396 -9.5367432e-07 -15.245424
17.223091 -1.0764427 -15.060636
17.282633 -2.1603293 -14.874568
17.371723 -3.2571993 -14.596159
17.550537 -4.3876357 -14.037369
17.777946 -5.5556083 -13.32671
18.10569 -6.7896376 -12.30251
18.63493 -8.1527834 -10.648639
19.896532 4.6815357 -10.363584
19.513256 3.4435158 -11.490866
19.306677 2.2713709 -12.098454
19.186968 1.1286449 -12.450539
19.151773 2.8610229e-06 -12.55405
19.191208 -1.1288958 -12.438066
19.315401 -2.2724028 -12.072792
19.540718 -3.4483643 -11.410098
19.938515 -4.6914158 -10.240104
