# .PCD v0.7 - Point Cloud Data file format
VERSION 0.7
FIELDS x y z
SIZE 4 4 4
TYPE F F F
COUNT 1 1 1
WIDTH 1056
HEIGHT 1
VIEWPOINT 0 0 0 1 0 0 0
POINTS 1056
DATA ascii
-22.128286 7.3760943 -7.4153361
-20.817163 5.7825465 -11.057343
-20.350155 4.5222573 -12.354586
-20.130016 3.3550014 -12.966084
-19.91678 2.2129717 -13.558407
-19.881166 1.1045074 -13.657331
-19.851053 -4.7683716e-07 -13.740977
-19.859562 -1.1033082 -13.717346
-20.001087 -2.2223439 -13.324221
-20.144646 -3.3574419 -12.925447
-20.410599 -4.5356894 -12.186687
-20.75206 -5.764461 -11.238186
-19.924429 9.3762016 -10.281536
-19.195721 7.9041185 -12.424797
-18.82058 6.6425562 -13.528149
-18.522444 5.4477763 -14.405016
-18.341743 4.3157034 -14.936492
-18.166342 3.2058234 -15.452375
-18.104784 2.1299725 -15.63343
-18.046438 1.0615559 -15.805033
-18.013519 9.5367432e-07 -15.901853
-18.067297 -1.0627823 -15.743687
-18.121395 -2.1319294 -15.584576
-18.179502 -3.208149 -15.413673
-18.332279 -4.3134785 -14.964329
-18.518307 -5.4465594 -14.417187
-18.801178 -6.6357121 -13.585214
-19.224657 -7.9160347 -12.339689
-19.986589 -9.4054546 -10.09871
-19.139175 11.961983 -9.0728769
-18.089153 10.175148 -12.354192
-17.579058 8.789526 -13.948242
-17.297611 7.5677052 -14.827761
-17.03619 6.3885689 -15.644708
-16.881035 5.2753229 -16.129562
-16.732813 4.1832013 -16.592754
-16.639111 3.1198316 -16.885578
-16.57361 2.0717006 -17.09026
-16.518847 1.0324278 -17.261398
-16.523777 -9.5367432e-07 -17.245991
-16.536512 -1.0335345 -17.206194
-16.551023 -2.0688796 -17.160847
-16.628471 -3.1178365 -16.918827
-16.719936 -4.179986 -16.632996
-16.863012 -5.2696915 -16.185883
-17.040022 -6.3900056 -15.632725
-17.277935 -7.5590963 -14.88925
-17.619961 -8.8099823 -13.820417
-18.113907 -10.189075 -12.276835
-17.350504 12.723702 -11.047783
-16.660152 11.106766 -13.348955
-16.230686 9.7384129 -14.780508
-15.940522 8.5016098 -15.747723
-15.717351 7.3347645 -16.491627
-15.559295 6.2237167 -17.01848
-15.431223 5.1437402 -17.445391
-15.315779 4.084208 -17.8302
-15.254459 3.0508909 -18.034599
-15.200469 2.0267277 -18.214563
-15.163942 1.0109301 -18.336321
-15.158277 -0 -18.355209
-15.163466 -1.0108995 -18.337908
-15.197551 -2.0263391 -18.224295
-15.263333 -3.0526681 -18.005016
-15.329689 -4.0879226 -17.783834
-15.415798 -5.1386003 -17.496801
-15.551726 -6.2206883 -17.043709
-15.732256 -7.3417192 -16.44194
-15.959652 -8.511816 -15.683952
-16.253912 -9.7523479 -14.703085
-16.660614 -11.107077 -13.347422
-17.430632 -12.782463 -10.780691
-15.96282 13.682413 -11.872727
-15.348559 12.05958 -14.066513
-15.020668 10.729047 -15.237554
-14.738243 9.4745846 -16.246212
-14.533438 8.3048191 -16.977661
-14.348216 7.1741052 -17.639172
-14.228368 6.0978713 -18.067196
-14.110683 5.0395279 -18.487499
-14.030358 4.0086713 -18.774372
-13.973053 2.9942245 -18.979034
-13.916171 1.9880228 -19.182184
-13.90273 0.99305058 -19.230188
-13.903761 -1.9073486e-06 -19.226505
-13.90479 -0.9932003 -19.22283
-13.934117 -1.990591 -19.11809
-13.977215 -2.9951158 -18.96417
-14.038971 -4.0111365 -18.743614
-14.130021 -5.0464349 -18.418436
-14.238441 -6.1021876 -18.031225
-14.355302 -7.17765 -17.613863
-14.5325 -8.304286 -16.981007
-14.750209 -9.4822798 -16.203478
-15.029838 -10.7356 -15.204805
-15.421161 -12.116627 -13.807225
-16.064297 -13.7694 -11.510303
-14.838705 14.838706 -11.810854
-14.243597 13.147933 -14.099736
-13.878592 11.743422 -15.503601
-13.585433 10.450333 -16.631126
-13.387978 9.2685986 -17.390577
-13.223248 8.1373806 -18.024155
-13.091788 7.0494246 -18.529764
-12.990973 5.9958324 -18.917519
-12.891896 4.9584212 -19.298576
-12.834433 3.9490552 -19.519592
-12.785601 2.9505224 -19.707409
-12.738807 1.9598141 -19.887383
-12.726717 0.9789772 -19.933884
-12.714687 -9.5367432e-07 -19.980148
-12.711559 -0.97781563 -19.992186
-12.747579 -1.9611664 -19.853643
-12.78732 -2.9509211 -19.700794
-12.827389 -3.9468908 -19.546684
-12.901478 -4.9621062 -19.261726
-12.999611 -5.9998198 -18.884293
-13.09929 -7.053463 -18.500912
-13.233662 -8.1437912 -17.984098
-13.398482 -9.2758751 -17.350174
-13.608899 -10.468388 -16.540876
-13.907888 -11.768214 -15.390921
-14.260979 -13.16398 -14.032881
-14.889349 -14.889348 -11.616072
-13.790098 16.088446 -11.424057
-13.165101 14.262193 -14.028207
-12.770678 12.770674 -15.671642
-12.534051 11.489545 -16.657587
-12.314589 10.262156 -17.57201
-12.161831 9.1213703 -18.2085
-12.014237 8.009491 -18.823475
-11.911334 6.9482756 -19.252239
-11.819431 5.9097133 -19.635166
-11.736957 4.8903971 -19.978813
-11.689245 3.8964128 -20.177607
-11.641956 2.9104862 -20.374645
-11.60585 1.9343061 -20.525085
-11.598844 0.96657085 -20.554279
-11.594039 -2.8610229e-06 -20.574301
-11.594979 -0.96625042 -20.570383
-11.618421 -1.9364033 -20.472715
-11.646485 -2.911623 -20.355774
-11.687088 -3.8956962 -20.186596
-11.755177 -4.8979883 -19.902893
-11.824063 -5.9120317 -19.615866
-11.902303 -6.9430108 -19.289869
-12.017341 -8.0115604 -18.810543
-12.154826 -9.1161213 -18.237686
-12.329411 -10.274507 -17.510254
-12.553159 -11.507061 -16.577969
-12.822493 -12.822494 -15.455746
-13.197043 -14.2968 -13.895117
-13.864656 -16.17543 -11.113397
-12.886176 17.572058 -10.309265
-12.158825 15.474868 -13.615414
-11.770365 13.910429 -15.381138
-11.497233 12.542437 -16.622644
-11.286573 11.286572 -17.580189
-11.11108 10.100984 -18.377884
-10.978623 8.9825096 -18.979961
-10.859339 7.8976994 -19.522167
-10.780698 6.8604431 -19.879623
-10.703349 5.838192 -20.231209
-10.639336 4.8360624 -20.522179
-10.598596 3.8540344 -20.707361
-10.558891 2.8796968 -20.887836
-10.530591 1.9146509 -21.016472
-10.518201 0.95620155 -21.072788
-10.509552 9.5367432e-07 -21.112106
-10.514265 -0.95584488 -21.090683
-10.535323 -1.9155149 -20.994963
-10.56034 -2.8800936 -20.88125
-10.593078 -3.8520317 -20.732441
-10.64804 -4.8400173 -20.482613
-10.711965 -5.8428912 -20.192047
-10.786315 -6.8640189 -19.854095
-10.883175 -7.9150362 -19.41382
-10.986699 -8.9891148 -18.943258
-11.126307 -10.114822 -18.30868
-11.298028 -11.298025 -17.528124
-11.501492 -12.54708 -16.603287
-11.793932 -13.938284 -15.274016
-12.191401 -15.516332 -13.467333
-13.11475 -17.883747 -9.2703018
-11.20542 16.80813 -12.855693
-10.772719 15.081809 -15.019196
-10.488137 13.634574 -16.442116
-10.283898 12.340677 -17.463305
-10.116096 11.127704 -18.30232
-9.984251 9.984251 -18.96154
-9.8728533 8.8855658 -19.518532
-9.7727184 7.8181734 -20.019205
-9.7022734 6.7915912 -20.371426
-9.6331549 5.7798915 -20.717024
-9.5803328 4.7901649 -20.981136
-9.5430613 3.8172226 -21.167492
-9.5067234 2.8520184 -21.349178
-9.4843655 1.8968735 -21.460964
-9.4733105 0.94733047 -21.516243
-9.4669847 -1.9073486e-06 -21.547874
-9.470746 -0.94707489 -21.529068
-9.4874411 -1.8974876 -21.445589
-9.5100107 -2.8530045 -21.332745
-9.5409946 -3.8164005 -21.17782
-9.5869246 -4.7934637 -20.948172
-9.6332703 -5.7799602 -20.716448
-9.697216 -6.788054 -20.396713
-9.7849007 -7.8279181 -19.958294
-9.8741856 -8.8867693 -19.511868
-9.9851494 -9.9851513 -18.957047
-10.12437 -11.136806 -18.26095
-10.296533 -12.35584 -17.400129
-10.511878 -13.665443 -16.323408
-10.805055 -15.127075 -14.857525
-11.2821 -16.923151 -12.4723
-10.350926 18.401646 -11.377652
-9.8458338 16.409721 -14.183719
-9.5277863 14.820997 -15.950652
-9.3057032 13.441568 -17.184444
-9.1455088 12.194009 -18.074415
-8.9978294 10.997347 -18.894852
-8.8894939 9.8772144 -19.496716
-8.7909079 8.7909088 -20.044415
-8.7077379 7.7402101 -20.506477
-8.6456165 6.7243686 -20.851589
-8.5861578 5.724103 -21.181923
-8.545248 4.7473602 -21.409201
-8.5142002 3.7840872 -21.581684
-8.4833527 2.8277826 -21.753059
-8.4654016 1.8811989 -21.852783
-8.4594679 0.93993855 -21.885754
-8.4544802 -1.9073486e-06 -21.913464
-8.4586525 -0.93985081 -21.89028
-8.4721861 -1.8827085 -21.815094
-8.4857635 -2.8285904 -21.739666
-8.511673 -3.7829657 -21.595722
-8.5552931 -4.7529407 -21.353394
-8.5993624 -5.7329082 -21.108559
-8.6537542 -6.7306962 -20.806389
-8.7215815 -7.7525158 -20.429565
-8.7980642 -8.7980652 -20.004658
-8.8902311 -9.8780346 -19.492626
-9.0054951 -11.006714 -18.852268
-9.1453352 -12.19378 -18.07538
-9.3166285 -13.45735 -17.123747
-9.5549736 -14.863294 -15.799606
-10.041316 -16.735527 -13.097712
-10.581676 -18.811869 -10.095707
-8.9333248 17.866648 -13.049513
-8.5724354 16.073315 -15.305074
-8.350153 14.612766 -16.694342
-8.1670675 13.271483 -17.838623
-8.0342102 12.051313 -18.668983
-7.9141607 10.881969 -19.419292
-7.831254 9.7890663 -19.937458
-7.7508831 8.7197418 -20.439774
-7.6846714 7.6846695 -20.8536
-7.6333165 6.679153 -21.174564
-7.5826435 5.6869812 -21.491272
-7.5475221 4.7172012 -21.710781
-7.5202742 3.7601366 -21.881084
-7.4932213 2.8099585 -22.050165
-7.4777474 1.8694353 -22.146873
-7.4688749 0.93360996 -22.202328
-7.4600453 -9.5367432e-07 -22.257511
-7.4643059 -0.93303871 -22.230885
-7.4798112 -1.8699551 -22.133978
-7.4953804 -2.8107691 -22.036667
-7.5176606 -3.7588329 -21.897415
-7.5502224 -4.7188902 -21.693905
-7.5835595 -5.6876698 -21.485546
-7.6312809 -6.6773705 -21.187294
-7.6911225 -7.6911216 -20.813282
-7.7541518 -8.7234221 -20.41935
-7.833446 -9.7918072 -19.923758
-7.9291749 -10.902617 -19.325455
-8.0432968 -12.064946 -18.612194
-8.1846972 -13.300132 -17.728439
-8.4044514 -14.707789 -16.35498
-8.8277121 -16.551962 -13.709594
-9.2970753 -18.594154 -10.776072
-8.1462669 19.783787 -10.695179
-7.6583128 17.504715 -14.180558
-7.4073572 15.872903 -15.973106
-7.2268333 14.453666 -17.26256
-7.0831146 13.154355 -18.28912
-6.9775681 11.961541 -19.043026
-6.876296 10.805605 -19.766399
-6.8055019 9.722146 -20.272068
-6.7361312 8.6607389 -20.767576
-6.6801825 7.6344934 -21.167212
-6.6358299 6.6358304 -21.484013
-6.5920424 5.650321 -21.796776
-6.5623941 4.6874218 -22.008554
-6.5388508 3.7364836 -22.17672
-6.5154762 2.792345 -22.343681
-6.5023494 1.8578148 -22.437443
-6.4978857 0.92826748 -22.469328
-6.4942703 -9.5367432e-07 -22.495152
-6.4971919 -0.92817116 -22.474281
-6.5069318 -1.8591251 -22.404709
-6.5175123 -2.7932186 -22.32914
-6.5364408 -3.7351103 -22.193928
-6.5655499 -4.6896772 -21.986013
-6.5971584 -5.6547074 -21.760237
-6.6354189 -6.6354198 -21.486946
-6.6853366 -7.6403832 -21.130394
-6.7397385 -8.6653805 -20.741806
-6.8030977 -9.7187109 -20.289242
-6.8819885 -10.814556 -19.725735
-6.9807897 -11.967067 -19.020014
-7.0962563 -13.178764 -18.19525
-7.2777529 -14.555504 -16.898849
-7.6404696 -16.372435 -14.308014
-8.0418396 -18.381351 -11.44108
-8.4881668 -20.614119 -8.2530346
-6.7911868 19.241692 -12.289577
-6.4813352 17.28356 -14.87167
-6.2740507 15.685123 -16.599043
-6.1414709 14.330095 -17.703875
-6.0266171 13.057667 -18.66099
-5.9373908 11.874781 -19.404541
-5.8535171 10.731445 -20.103489
-5.7936625 9.6561031 -20.602274
-5.7350197 8.6025286 -21.090967
-5.690167 7.5868888 -21.464737
-5.654757 6.5972176 -21.759821
-5.6198015 5.6198006 -22.051117
-5.5960393 4.6633654 -22.249136
-5.5770321 3.7180214 -22.407528
-5.5583458 2.7791719 -22.563248
-5.5478854 1.8492937 -22.650417
-5.5425982 0.92376328 -22.694477
-5.5395455 -2.8610229e-06 -22.719919
-5.5414691 -0.92358017 -22.703888
-5.5497346 -1.8499136 -22.635006
-5.5606503 -2.7803259 -22.544041
-5.5757918 -3.7171946 -22.417864
-5.5996742 -4.6663942 -22.218842
-5.6264825 -5.6264815 -21.995441
-5.6577725 -6.6007333 -21.734692
-5.6991348 -7.5988474 -21.390003
-5.7411242 -8.6116867 -21.040098
-5.7957664 -9.6596107 -20.58474
-5.8613882 -10.745878 -20.037893
-5.9394546 -11.878912 -19.387342
-6.0373387 -13.080898 -18.571642
-6.1742058 -14.406482 -17.43108
-6.478704 -16.196762 -14.893597
-6.815011 -18.173365 -12.091037
-7.1885462 -20.367546 -8.9782448
-5.5689521 18.934435 -13.193277
-5.3404884 17.08956 -15.477912
-5.189961 15.569883 -16.983185
-5.0803084 14.224863 -18.079708
-4.9868035 12.96569 -19.014759
-4.9178548 11.802851 -19.704248
-4.8534341 10.677553 -20.348454
-4.80688 9.6137581 -20.813999
-4.7613506 8.5704288 -21.269291
-4.7247224 7.5595536 -21.635572
-4.695426 6.573596 -21.928539
-4.6667471 5.6000957 -22.215324
-4.6463456 4.6463451 -22.419338
-4.6307282 3.7045841 -22.575514
-4.6158376 2.7695017 -22.724422
-4.6064296 1.8425703 -22.818501
-4.6017132 0.92034245 -22.865662
-4.5970201 -0 -22.912594
-4.5987673 -0.91975307 -22.895119
-4.6076822 -1.8430738 -22.805969
-4.617228 -2.7703362 -22.710512
-4.6286635 -3.7029324 -22.596161
-4.6481977 -4.6481991 -22.40082
-4.6678982 -5.6014776 -22.203815
-4.691524 -6.5681338 -21.967556
-4.7281933 -7.5651073 -21.600866
-4.7654538 -8.577816 -21.228258
-4.8069944 -9.6139889 -20.812849
-4.8572283 -10.685902 -20.310513
-4.9212384 -11.810975 -19.670408
-4.9926524 -12.980899 -18.956272
-5.0930276 -14.260477 -17.95252
-5.3416052 -16.024818 -15.466742
-5.615654 -17.970097 -12.726254
-5.920258 -20.128878 -9.6802158
-4.7677283 21.454775 -9.2861958
-4.4064531 18.727425 -13.802134
-4.2456603 16.982641 -15.812038
-4.1277919 15.479217 -17.2854
-4.0434766 14.152168 -18.339336
-3.9749072 12.918447 -19.196457
-3.9202061 11.760618 -19.880222
-3.8687449 10.639046 -20.523489
-3.8317907 9.5794764 -20.985413
-3.7958493 8.5406609 -21.434677
-3.7662094 7.5324178 -21.80518
-3.7431026 6.5504293 -22.094009
-3.7203534 5.5805292 -22.378384
-3.7036023 4.6295023 -22.587769
-3.6916957 3.6916962 -22.736599
-3.6798661 2.7598972 -22.884472
-3.6717839 1.8358898 -22.985498
-3.67013 0.91753197 -23.00617
-3.6689167 -0 -23.021338
-3.6693661 -0.91734314 -23.015717
-3.6754112 -1.8377066 -22.940159
-3.6814759 -2.7611074 -22.864346
-3.6887763 -3.6887779 -22.773092
-3.7059796 -4.6324778 -22.558048
-3.7239692 -5.5859542 -22.333181
-3.7424717 -6.5493259 -22.101902
-3.7699373 -7.5398731 -21.758579
-3.7978091 -8.5450687 -21.410181
-3.8297045 -9.5742598 -21.01149
-3.8718865 -10.647688 -20.484213
-3.9199076 -11.759724 -19.883955
-3.9781499 -12.928988 -19.155922
-4.0467691 -14.163689 -18.298187
-4.2283821 -15.856431 -16.028021
-4.4428916 -17.771568 -13.346651
-4.680737 -19.893131 -10.373587
-3.4904621 20.942772 -10.708428
-3.2818551 18.597179 -14.185205
-3.164696 16.87838 -16.137861
-3.079246 15.396231 -17.562031
-3.0217113 14.101318 -18.520939
-2.9703577 12.871547 -19.376837
-2.9298406 11.719361 -20.05212
-2.8911407 10.600849 -20.697117
-2.8638015 9.5460024 -21.152775
-2.8370409 8.5111217 -21.598778
-2.8156779 7.5084724 -21.95483
-2.7995126 6.5321951 -22.224255
-2.7835398 5.5670786 -22.490471
-2.7712991 4.6188326 -22.694477
-2.7627661 3.6836901 -22.836693
-2.7542858 2.7542858 -22.978035
-2.7485225 1.8323479 -23.074085
-2.7465835 0.91552925 -23.106403
-2.7452168 -1.9073486e-06 -23.129181
-2.7448344 -0.9149456 -23.135555
-2.7493446 -1.8328972 -23.060387
-2.7554963 -2.755496 -22.957859
-2.7619128 -3.6825495 -22.850918
-2.7736559 -4.6227589 -22.655201
-2.7861984 -5.5723968 -22.446159
-2.7997479 -6.5327444 -22.220331
-2.8193367 -7.5182328 -21.893848
-2.84058 -8.52174 -21.539795
-2.8652291 -9.5507603 -21.128977
-2.8952329 -10.615854 -20.628918
-2.9304984 -11.721994 -20.041157
-2.9728453 -12.882332 -19.335373
-3.0237651 -14.110907 -18.486712
-3.1383204 -15.691603 -16.577457
-3.2957919 -17.57756 -13.95293
-3.4701509 -19.664186 -11.046951
-3.6638217 -21.982929 -7.8191028
-2.3068836 20.761951 -11.210707
-2.174341 18.481899 -14.52427
-2.1034815 16.827852 -16.295755
-2.0492883 15.369662 -17.650587
-2.0092611 14.064827 -18.651266
-1.9746553 12.835258 -19.516415
-1.9491162 11.694695 -20.154894
-1.9243672 10.58402 -20.773615
-1.9069157 9.5345774 -21.209902
-1.8900499 8.5052233 -21.63155
-1.8752756 7.501102 -22.000906
-1.8645251 6.525835 -22.269669
-1.854036 5.562109 -22.531895
-1.8452448 4.6131115 -22.751678
-1.8395702 3.6791382 -22.893543
-1.834406 2.7516079 -23.022648
-1.8299625 1.8299627 -23.133732
-1.828673 0.91433334 -23.16597
-1.8273855 -2.8610229e-06 -23.198158
-1.8271729 -0.91358662 -23.203474
-1.8306131 -1.8306141 -23.117474
-1.8348087 -2.7522154 -23.012581
-1.8390812 -3.6781645 -22.905766
-1.8461231 -4.6153097 -22.729713
-1.8544046 -5.5632153 -22.522682
-1.863672 -6.5228524 -22.290991
-1.8753247 -7.5013008 -21.99968
-1.889423 -8.5024033 -21.647224
-1.9070005 -9.5350037 -21.207783
-1.9262908 -10.594599 -20.725529
-1.9503092 -11.701855 -20.125067
-1.9779017 -12.856361 -19.435253
-2.011616 -14.081314 -18.592398
-2.0706885 -15.530164 -17.115589
-2.1733499 -17.386799 -14.549049
-2.2871039 -19.440384 -11.705199
-2.4131975 -21.718779 -8.5528622
-1.1472985 20.651373 -11.517869
-1.0868841 18.477028 -14.538588
-1.0505974 16.809559 -16.352921
-1.0230318 15.345476 -17.731205
-1.0037189 14.052061 -18.696857
-0.98700064 12.831007 -19.532764
-0.97423947 11.69087 -20.170826
-0.96197075 10.581678 -20.784256
-0.95280862 9.5280857 -21.242365
-0.94447029 8.5002327 -21.659281
-0.93671811 7.4937434 -22.04689
-0.9313938 6.5197535 -22.313108
-0.92620426 5.5572243 -22.572582
-0.92148107 4.6074047 -22.808743
-0.91884756 3.6753893 -22.94042
-0.91631246 2.7489357 -23.067173
-0.91379398 1.8275881 -23.193096
-0.91343606 0.91343403 -23.210991
-0.91349041 -9.5367432e-07 -23.208271
-0.91354752 -0.91354942 -23.205421
-0.91487718 -1.8297558 -23.138935
-0.91673529 -2.750206 -23.046032
-0.9186036 -3.6744146 -22.952614
-0.92201173 -4.6100597 -22.782209
-0.9268738 -5.5612426 -22.539104
-0.93178475 -6.5224953 -22.293556
-0.93727458 -7.4981956 -22.019064
-0.94431788 -8.4988613 -21.666903
-0.95252943 -9.5252934 -21.256325
-0.96307909 -10.593872 -20.728842
-0.97491235 -11.69895 -20.13718
-0.98788232 -12.84247 -19.488682
-1.0044832 -14.062764 -18.658636
-1.0247649 -15.371476 -17.644554
-1.0750588 -17.200943 -15.129853
-1.1306874 -19.221682 -12.348432
-1.1922941 -21.461294 -9.2680912
0 20.690687 -11.408665
0 18.475092 -14.54428
0 16.79213 -16.407393
0 15.339918 -17.749733
0 14.054604 -18.687777
0 12.826758 -19.549103
0 11.688181 -20.18203
0 10.579308 -20.795036
0 9.522193 -21.271824
0 8.4952202 -21.687122
0 7.4878359 -22.083809
0 6.5175495 -22.328873
0 5.5573683 -22.571383
0 4.6075115 -22.807686
0 3.6760826 -22.931763
0 2.7497425 -23.053732
0 1.8286991 -23.165318
0 0.91372871 -23.196213
0 -9.5367432e-07 -23.206844
0 -0.91351128 -23.207363
0 -1.8288946 -23.160381
0 -2.7501926 -23.046289
0 -3.6773424 -22.916008
0 -4.6120434 -22.762388
0 -5.5624938 -22.528688
0 -6.5226083 -22.292746
0 -7.4951 -22.038437
0 -8.5010567 -21.654709
0 -9.5287924 -21.238838
0 -10.595427 -20.721779
0 -11.703131 -20.119749
0 -12.853557 -19.446039
0 -14.078498 -18.602453
0 -15.380582 -17.614191
0 -17.019411 -15.697141
0 -19.007721 -12.977742
0 -21.212021 -9.960516
1.1517905 20.732227 -11.29327
1.0891758 18.515987 -14.424008
1.0523908 16.838253 -16.263254
1.0260259 15.390388 -17.581497
1.0056791 14.079504 -18.598841
0.9877156 12.840301 -19.497019
0.97509253 11.701108 -20.128172
0.96326649 10.595929 -20.719475
0.95360202 9.5360184 -21.202696
0.94566363 8.510973 -21.599613
0.93798214 7.5038548 -21.983692
0.93249214 6.5274429 -22.258188
0.92764324 5.5658579 -22.500633
0.92299014 4.6149483 -22.733292
0.91999805 3.6799889 -22.882896
0.91766328 2.7529898 -22.99963
0.91563982 1.8312778 -23.100803
0.91457039 0.9145689 -23.154278
0.91435474 9.5367432e-07 -23.165058
0.91435993 -0.91435909 -23.164799
0.91536123 -1.8307238 -23.114738
0.91779417 -2.7533827 -22.993088
0.92036372 -3.6814547 -22.864611
0.92299014 -4.6149492 -22.73329
0.92756039 -5.5653625 -22.504778
0.93248677 -6.5274048 -22.258457
0.93832397 -7.5065913 -21.966599
0.94544691 -8.5090237 -21.610449
0.95378852 -9.5378857 -21.193371
0.96342504 -10.597677 -20.711542
0.9764446 -11.717336 -20.060568
0.99013752 -12.871787 -19.375921
1.0066543 -14.093161 -18.550081
1.027441 -15.411618 -17.510744
1.053852 -16.861633 -16.190195
1.105792 -18.798468 -13.593193
1.164818 -20.966726 -10.641894
2.3450155 21.105139 -10.257408
2.1915464 18.628147 -14.094136
2.1125603 16.900478 -16.068789
2.0588324 15.441241 -17.411987
2.0159886 14.111918 -18.483084
1.9827516 12.887886 -19.314005
1.9556186 11.73371 -19.992332
1.9320962 10.626527 -20.580395
1.9111907 9.555954 -21.103027
1.8953427 8.5290394 -21.499229
1.880041 7.5201631 -21.881771
1.8678203 6.5373678 -22.187292
1.8583022 5.5749063 -22.42524
1.848971 4.622426 -22.65852
1.8420023 3.6840057 -22.832737
1.8379259 2.7568865 -22.934647
1.8338678 1.8338671 -23.036106
1.8308213 0.91541195 -23.112263
1.8316289 -2.8610229e-06 -23.092073
1.8328024 -0.91640282 -23.062737
1.8339775 -1.8339767 -23.033363
1.8385769 -2.7578678 -22.918373
1.8434848 -3.6869688 -22.795679
1.8486788 -4.6217003 -22.665821
1.8572781 -5.5718331 -22.450848
1.8673595 -6.5357575 -22.198807
1.880354 -7.5214171 -21.873943
1.8944168 -8.5248785 -21.522377
1.9120765 -9.5603809 -21.080887
1.9322876 -10.627581 -20.575607
1.957486 -11.744918 -19.945644
1.9854183 -12.905219 -19.247341
2.0190682 -14.133478 -18.406088
2.0620644 -15.465484 -17.331188
2.1181359 -16.945087 -15.929402
2.1975098 -18.678833 -13.945056
2.3756022 -21.380423 -9.4927406
3.3079536 18.745071 -13.750234
3.1827865 16.974859 -15.836356
3.1031175 15.515583 -17.164175
3.036814 14.171797 -18.26923
2.9851992 12.935862 -19.129477
2.9416325 11.766529 -19.855585
2.9065287 10.657269 -20.440653
2.8727913 9.5759716 -21.002937
2.8492565 8.5477695 -21.395187
2.8262115 7.5365629 -21.77927
2.8071067 6.5499134 -22.097687
2.7939954 5.5879898 -22.316208
2.7810059 4.6350107 -22.532696
2.7700667 3.6934223 -22.715019
2.7641742 2.7641745 -22.813225
2.7583067 1.83887 -22.911018
2.7537045 0.91789913 -22.987724
2.7546315 -9.5367432e-07 -22.972273
2.7557795 -0.91859436 -22.953138
2.7571173 -1.8380795 -22.930843
2.7626162 -2.7626162 -22.839193
2.7711718 -3.6948977 -22.6966
2.7811341 -4.6352205 -22.53056
2.7943673 -5.5887361 -22.310005
2.8094347 -6.5553484 -22.058886
2.8285463 -7.5427909 -21.740356
2.850131 -8.5503941 -21.38061
2.8762231 -9.5874119 -20.945744
2.9075267 -10.660929 -20.424019
2.9431839 -11.772736 -19.829733
2.9875085 -12.94587 -19.090986
3.0421345 -14.196628 -18.180557
3.1087329 -15.543663 -17.070581
3.1959879 -17.045267 -15.616334
3.3282285 -18.859964 -13.412317
4.4785194 19.033707 -12.901304
4.2916765 17.166704 -15.236841
4.1697211 15.636452 -16.761284
4.0733519 14.256729 -17.965899
4.0015588 13.005065 -18.86331
3.9392197 11.817657 -19.642551
3.8933866 10.706811 -20.215464
3.8489759 9.6224384 -20.770596
3.8158441 8.5856476 -21.184748
3.7862592 7.5725179 -21.554554
3.7581062 6.576684 -21.906467
3.7402861 5.6104259 -22.129223
3.7231398 4.6539259 -22.343548
3.7067375 3.7067394 -22.548578
3.6979952 2.7734947 -22.657858
3.691262 1.8456306 -22.742023
3.6856184 0.92140579 -22.812567
3.6844056 -0 -22.827732
3.685956 -0.92148876 -22.808342
3.6902144 -1.8451071 -22.755117
3.6965299 -2.772397 -22.67617
3.705884 -3.7058849 -22.55925
3.7199767 -4.6499701 -22.383087
3.7372456 -5.6058698 -22.167231
3.760082 -6.5801439 -21.881771
3.7853575 -7.5707145 -21.56583
3.8166583 -8.5874805 -21.174564
3.851233 -9.6280832 -20.742386
3.8950832 -10.711476 -20.19426
3.9455221 -11.836566 -19.56377
4.0051942 -13.016882 -18.817867
4.0786691 -14.275343 -17.899429
4.1728029 -15.648012 -16.722761
4.2985411 -17.194166 -15.151032
4.5004864 -19.127066 -12.626719
5.7107997 19.416718 -11.774801
5.4285908 17.37149 -14.596889
5.255372 15.766115 -16.329075
5.1269588 14.355484 -17.613209
5.0361543 13.094 -18.521254
4.956635 11.895924 -19.316448
4.8955612 10.770232 -19.927185
4.8400764 9.68015 -20.482033
4.7930198 8.6274328 -20.952597
4.7562842 7.610054 -21.319954
4.7208691 6.6092153 -21.674107
4.6942067 5.6330442 -21.940729
4.6732802 4.6732779 -22.149998
4.652606 3.7220821 -22.356735
4.6389117 2.7833481 -22.493679
4.6317811 1.8527117 -22.564983
4.6246862 0.92493629 -22.635935
4.6206226 -0 -22.676571
4.6273327 -0.92546844 -22.60947
4.6340623 -1.8536263 -22.542175
4.6408248 -2.7844934 -22.474548
4.6532927 -3.7226334 -22.349873
4.6721945 -4.6721954 -22.160854
4.693686 -5.6324224 -21.945934
4.7224345 -6.6114082 -21.658451
4.7532916 -7.605267 -21.34988
4.793848 -8.6289291 -20.944313
4.8394361 -9.6788721 -20.488438
4.8946381 -10.768204 -19.936415
4.9620304 -11.908873 -19.262493
5.0403662 -13.104952 -18.479134
5.138649 -14.388216 -17.496311
5.2622643 -15.786793 -16.260157
5.4409256 -17.410963 -14.473541
5.760169 -19.584572 -11.281106
7.0959816 20.105282 -9.7496147
6.6030793 17.608213 -13.857131
6.3711805 15.92795 -15.789622
6.219749 14.512745 -17.051559
6.093946 13.203551 -18.099911
5.9915547 11.983107 -18.953176
5.9101496 10.835273 -19.63155
5.8431549 9.7385921 -20.189838
5.779737 8.6696033 -20.718321
5.7361441 7.648191 -21.081596
5.6953025 6.6445169 -21.421944
5.6606088 5.6606083 -21.711056
5.6378336 4.6981936 -21.900848
5.6152258 3.7434826 -22.089249
5.5964613 2.7982292 -22.245621
5.5884113 1.8628054 -22.312704
5.5803847 0.9300642 -22.379593
5.5764203 -0 -22.412628
5.5819173 -0.93032074 -22.366821
5.5892363 -1.86308 -22.305828
5.5965743 -2.7982864 -22.244677
5.612957 -3.7419729 -22.108158
5.6340671 -4.6950569 -21.932238
5.6637635 -5.6637659 -21.684767
5.6979918 -6.6476564 -21.399534
5.7398953 -7.6531949 -21.050335
5.7880011 -8.6820021 -20.649452
5.8481984 -9.7469978 -20.147808
5.9150558 -10.844271 -19.59066
5.9998021 -11.999601 -18.884447
6.101687 -13.220321 -18.035402
6.226809 -14.529222 -16.992722
6.3949814 -15.987453 -15.591284
6.6481838 -17.728489 -13.481264
7.2575235 -20.562984 -8.4034348
7.9015136 18.060602 -12.443413
7.5633602 16.207201 -14.858793
7.3488564 14.697714 -16.390963
7.1804419 13.335107 -17.593925
7.0576406 12.098809 -18.471083
6.9533181 10.926643 -19.21624
6.8756037 9.8222895 -19.771345
6.8008795 8.743988 -20.305084
6.7446418 7.708159 -20.706783
6.6962657 6.6962643 -21.052326
6.6509342 5.700799 -21.376122
6.6215715 4.7296934 -21.585854
6.5957675 3.7690086 -21.770172
6.5712757 2.8162603 -21.945112
6.5578856 1.8736839 -22.040756
6.5519919 0.93599892 -22.082851
6.5476308 -9.5367432e-07 -22.114002
6.548316 -0.9354744 -22.109112
6.5589929 -1.8739986 -22.032846
6.5758791 -2.8182335 -21.912228
6.5928531 -3.7673445 -21.790991
6.6169233 -4.7263732 -21.619057
6.6535668 -5.7030592 -21.357323
6.6918702 -6.6918716 -21.083725
6.7451463 -7.7087388 -20.703178
6.8027072 -8.7463379 -20.29203
6.8780174 -9.8257399 -19.754101
6.9627304 -10.941434 -19.149008
7.0647449 -12.110992 -18.420334
7.2013521 -13.37394 -17.444565
7.3652663 -14.730537 -16.273748
7.5844698 -16.252436 -14.708014
7.9378195 -18.143585 -12.184092
9.3356752 18.671352 -10.534822
8.8102818 16.519278 -13.818533
8.5121241 14.896215 -15.682021
8.3084669 13.501255 -16.954882
8.1578293 12.236743 -17.89636
8.0321798 11.044247 -18.681671
7.9314709 9.9143372 -19.311104
7.8459549 8.8266983 -19.845579
7.7691031 7.7691035 -20.325901
7.7143517 6.7500572 -20.668098
7.6617117 5.7462854 -20.997097
7.6185894 4.7616177 -21.266613
7.5899982 3.7949982 -21.445309
7.5617318 2.8356466 -21.621973
7.5438733 1.8859673 -21.733589
7.5398965 0.94248486 -21.758438
7.5359464 -1.9073486e-06 -21.783131
7.5348659 -0.9418602 -21.789885
7.5521498 -1.8880386 -21.68186
7.5711598 -2.8391838 -21.563044
7.5902448 -3.7951212 -21.443768
7.6186795 -4.7616744 -21.26605
7.6609592 -5.7457218 -21.001804
7.7114406 -6.7475109 -20.686291
7.7729034 -7.7729034 -20.302151
7.8483949 -8.8294449 -19.83033
7.9432902 -9.9291124 -19.237232
8.0470171 -11.064649 -18.58894
8.1653328 -12.248001 -17.849468
8.3373356 -13.548171 -16.774445
8.5543776 -14.970161 -15.417935
8.8628721 -16.617886 -13.489847
9.5204 -19.040802 -9.3802967
10.233208 17.055344 -12.031646
9.7884035 15.226402 -14.50278
9.5166721 13.746303 -16.012394
9.3057938 12.407725 -17.183945
9.149437 11.182644 -18.052589
9.0125561 10.01395 -18.81304
8.9164772 8.9164753 -19.346811
8.8224516 7.8421783 -19.869177
8.7581863 6.8119216 -20.226208
8.7012501 5.8008318 -20.542519
8.6470098 4.8038931 -20.843849
8.6170149 3.8297834 -21.01049
8.5890856 2.8630285 -21.165653
8.5648556 1.9033003 -21.300262
8.5552425 0.9505825 -21.353668
8.5521355 -0 -21.370934
8.5562029 -0.95068836 -21.348335
8.5659447 -1.9035444 -21.294214
8.5876598 -2.8625536 -21.173576
8.6195278 -3.8309021 -20.996525
8.6553307 -4.8085175 -20.797626
8.6991587 -5.7994375 -20.554134
8.7638569 -6.8163347 -20.194698
8.8385773 -7.856513 -19.779587
8.9239216 -8.9239235 -19.305454
9.0343704 -10.038192 -18.691847
9.1683207 -11.205726 -17.947683
9.3303747 -12.4405 -17.047382
9.5282564 -13.763036 -15.948038
9.8059998 -15.25378 -14.405019
10.284111 -17.140184 -11.748844
11.181167 15.653633 -12.976961
10.780442 14.014577 -14.980583
10.514556 12.617468 -16.310015
10.319479 11.351424 -17.2854
10.163216 10.163214 -18.066713
10.039129 9.0352154 -18.687151
9.9341698 7.9473333 -19.211948
9.8414841 6.8890362 -19.675375
9.7769041 5.8661399 -19.998274
9.7172728 4.8586354 -20.296432
9.6681137 3.8672447 -20.542229
9.6385498 2.8915634 -20.690046
9.6112328 1.922246 -20.826633
9.5881529 0.95881557 -20.942032
9.5922966 -9.5367432e-07 -20.92131
9.5975323 -0.95975494 -20.895134
9.6042337 -1.9208469 -20.861628
9.6379728 -2.8913937 -20.692934
9.6782608 -3.8713026 -20.491489
9.7188873 -4.8594451 -20.288359
9.7690401 -5.8614235 -20.037598
9.8545933 -6.8982143 -19.609833
9.9446983 -7.9557586 -19.159302
10.042262 -9.0380373 -18.671486
10.172693 -10.172693 -18.019331
10.339006 -11.372909 -17.187765
10.553172 -12.663807 -16.116932
10.8261 -14.073929 -14.752297
11.249957 -15.749937 -12.633013
12.994495 16.538448 -9.8169031
12.227657 14.450866 -13.302535
11.841271 12.917747 -15.058837
11.561781 11.561781 -16.329247
11.367611 10.33419 -17.211836
11.192085 9.157156 -18.009682
11.076073 8.0553217 -18.53701
10.963086 6.9765072 -19.050587
10.879329 5.9341798 -19.431301
10.815148 4.9159718 -19.723032
10.753975 3.9105368 -20.001095
10.723321 2.9245415 -20.140427
10.699953 1.9454451 -20.246647
10.679585 0.97087002 -20.33923
10.674722 -1.9073486e-06 -20.361334
10.682292 -0.97111702 -20.326927
10.701053 -1.9456472 -20.241648
10.722997 -2.9244566 -20.141907
10.767975 -3.9156299 -19.937458
10.82848 -4.9220352 -19.662432
10.898252 -5.9445009 -19.345287
10.974097 -6.9835148 -19.000538
11.090995 -8.0661774 -18.469187
11.227154 -9.1858549 -17.850275
11.385233 -10.350212 -17.131737
11.589829 -11.589831 -16.201754
11.852967 -12.930512 -15.00567
12.255258 -14.483484 -13.177083
13.211807 -16.815029 -8.8291283
14.001584 15.168379 -10.542865
13.30113 13.301128 -13.461421
12.933455 11.855668 -14.9934
12.651899 10.543247 -16.166546
12.457755 9.3433142 -16.975483
12.294477 8.1963177 -17.655809
12.168538 7.0983133 -18.180559
12.053045 6.0265207 -18.661772
11.980618 4.9919233 -18.963551
11.915339 3.9717803 -19.235546
11.85568 2.9639187 -19.484133
11.829895 1.9716492 -19.591568
11.809925 0.98415661 -19.674774
11.790059 9.5367432e-07 -19.757551
11.802851 -0.98357105 -19.704254
11.830801 -1.9718008 -19.587797
11.859648 -2.9649119 -19.467598
11.909901 -3.9699702 -19.258209
11.988429 -4.9951801 -18.931009
12.067961 -6.0339804 -18.599623
12.177938 -7.1037955 -18.141386
12.301173 -8.2007809 -17.627907
12.472037 -9.3540306 -16.915976
12.690482 -10.575402 -16.005789
12.971466 -11.890512 -14.835023
13.373723 -13.373722 -13.15895
14.182321 -15.36418 -9.7897911
15.28498 14.10921 -10.094418
14.490859 12.261496 -13.14872
14.106103 10.850848 -14.628555
13.818906 9.5669355 -15.733154
13.587551 8.3615694 -16.622982
13.429188 7.2310996 -17.232071
13.299499 6.1382294 -17.730879
13.183081 5.0704126 -18.17864
13.114564 4.0352502 -18.442163
13.0538 3.0124145 -18.675873
13.011011 2.0016937 -18.840446
13.001065 1.0000801 -18.8787
12.993031 -9.5367432e-07 -18.909603
12.992183 -0.99940014 -18.912861
13.021622 -2.0033274 -18.799637
13.070193 -3.0161982 -18.612822
13.126826 -4.0390253 -18.394999
13.190562 -5.0732951 -18.149866
13.322579 -6.1488853 -17.642105
13.457959 -7.2465968 -17.121416
13.627872 -8.3863831 -16.467907
13.836685 -9.5792427 -15.66478
14.12687 -10.866824 -14.548685
14.550075 -12.311603 -12.920969
15.478148 -14.287519 -9.3514595
17.498922 13.74915 -6.3866453
15.778456 11.270322 -12.531171
15.340146 9.8615189 -14.096563
15.055502 8.6031437 -15.113152
14.827 7.4134989 -15.929228
14.663989 6.2845645 -16.511408
14.52922 5.1890054 -16.992725
14.419483 4.1198502 -17.384645
14.353061 3.0756545 -17.621868
14.296587 2.0423675 -17.823559
14.256235 1.0183001 -17.967669
14.252944 -9.5367432e-07 -17.979425
14.261968 -1.018714 -17.947199
14.287745 -2.0411062 -17.855133
14.355393 -3.0761542 -17.613535
14.429134 -4.1226087 -17.350174
14.540661 -5.1930957 -16.951862
14.653926 -6.2802539 -16.547344
14.852905 -7.4264541 -15.836709
15.08797 -8.6216984 -14.997192
15.370026 -9.8807325 -13.989845
15.862616 -11.330441 -12.230599
17.378799 10.42728 -10.953464
16.797136 8.9584703 -12.892345
16.435926 7.6700959 -14.096375
16.159025 6.4636087 -15.019377
15.991585 5.3305292 -15.577511
15.850705 4.2268553 -16.047112
15.745084 3.1490173 -16.399179
15.696245 2.0928307 -16.561981
15.653644 1.0435762 -16.703983
15.632708 -0 -16.773769
15.65542 -1.043694 -16.698063
15.692571 -2.0923433 -16.574226
15.745854 -3.1491747 -16.396614
15.865866 -4.2308955 -15.99658
16.008715 -5.3362398 -15.520414
16.212046 -6.4848208 -14.842645
16.456154 -7.6795397 -14.028955
16.848314 -8.9857683 -12.721747
17.532747 -10.519648 -10.440309
18.638775 8.1544609 -10.636629
18.063137 6.773674 -12.435493
17.72373 5.5386643 -13.49614
17.500315 4.3750782 -14.194316
17.362293 3.2554312 -14.625628
17.227875 2.1534824 -15.045687
17.217909 1.0761218 -15.076832
17.208242 4.7683716e-07 -15.10704
17.219463 -1.0762191 -15.071974
17.282633 -2.1603293 -14.874568
17.383101 -3.2593307 -14.560604
17.548084 -4.3870234 -14.045031
17.772364 -5.5538659 -13.34416
18.078293 -6.7793598 -12.388128
18.601137 -8.1380005 -10.754246
19.874271 4.6762981 -10.429058
19.455177 3.4332633 -11.661684
19.289047 2.2693009 -12.150306
19.191948 1.1289372 -12.435888
19.131414 9.5367432e-07 -12.613931
19.21129 -1.1300778 -12.379004
19.323997 -2.2734122 -12.04751
19.527605 -3.4460518 -11.448668
19.94215 -4.6922703 -10.229416
