# .PCD v0.7 - Point Cloud Data file format
VERSION 0.7
FIELDS x y z
SIZE 4 4 4
TYPE F F F
COUNT 1 1 1
WIDTH 1076
HEIGHT 1
VIEWPOINT 0 0 0 1 0 0 0
POINTS 1076
DATA ascii
-22.16106 2.3327413 -10.564217
-21.946621 1.1550841 -11.128531
-21.828787 -9.5367432e-07 -11.438619
-21.84852 -1.1499233 -11.38669
-22.177134 -2.3344371 -10.521914
-20.610813 6.8702707 -11.630536
-20.205214 5.6125593 -12.757202
-19.845751 4.4101677 -13.755714
-19.661259 3.276875 -14.26819
-19.513565 2.1681733 -14.678448
-19.453541 1.0807495 -14.845184
-19.422949 -1.4305115e-06 -14.930161
-19.405186 -1.0780678 -14.979501
-19.54141 -2.1712675 -14.601103
-19.679493 -3.2799168 -14.217538
-19.839293 -4.4087324 -13.77365
-20.186274 -5.6072969 -12.809813
-20.735867 -6.9119587 -11.283166
-19.301704 9.0831566 -12.113075
-18.683998 7.693409 -13.929858
-18.404369 6.4956598 -14.752295
-18.136715 5.3343263 -15.539518
-17.972984 4.2289367 -16.021076
-17.847399 3.149539 -16.39045
-17.756168 2.0889602 -16.658772
-17.717642 1.0422134 -16.772085
-17.679338 -1.9073486e-06 -16.884739
-17.704342 -1.041431 -16.811207
-17.775957 -2.091291 -16.600569
-17.84827 -3.1496959 -16.387882
-17.967379 -4.2276211 -16.037567
-18.13545 -5.3339562 -15.543233
-18.382727 -6.4880219 -14.815956
-18.763329 -7.7260771 -13.696539
-19.357979 -9.1096401 -11.947564
-18.349514 11.468449 -11.540564
-17.646713 9.9262724 -13.736821
-17.213707 8.6068506 -15.089964
-16.923813 7.4041657 -15.995885
-16.72238 6.2708926 -16.625359
-16.548683 5.1714635 -17.168161
-16.432131 4.1080313 -17.532387
-16.320883 3.0601649 -17.880041
-16.265409 2.0331764 -18.053391
-16.240324 1.0150204 -18.131786
-16.219555 -2.8610229e-06 -18.19669
-16.242834 -1.0151796 -18.123943
-16.280375 -2.0350461 -18.006626
-16.320623 -3.0601158 -17.88085
-16.436432 -4.109107 -17.518946
-16.569397 -5.177937 -17.103428
-16.70475 -6.2642798 -16.680456
-16.937284 -7.4100618 -15.953786
-17.233524 -8.616766 -15.02803
-17.664146 -9.9360828 -13.682339
-18.402107 -11.501321 -11.37621
-16.855963 12.36104 -12.696254
-16.233034 10.822023 -14.772683
-15.926007 9.555604 -15.796106
-15.632202 8.3371725 -16.775459
-15.445689 7.2079892 -17.397165
-15.263575 6.1054287 -18.004211
-15.143962 5.0479884 -18.402918
-15.060903 4.0162392 -18.67979
-14.978701 2.995739 -18.953793
-14.935694 1.9914246 -19.097149
-14.911749 0.99411583 -19.176964
-14.893255 -0 -19.238609
-14.91221 -0.99414921 -19.175426
-14.941241 -1.9921694 -19.078659
-14.982559 -2.9965134 -18.940931
-15.070728 -4.0188627 -18.647034
-15.164371 -5.0547938 -18.334892
-15.274394 -6.1097589 -17.968151
-15.437984 -7.2043958 -17.422852
-15.653288 -8.3484201 -16.70517
-15.91603 -9.5496216 -15.829362
-16.295118 -10.863411 -14.565739
-16.90164 -12.394539 -12.543993
-15.515955 13.299387 -13.468671
-15.07434 11.844123 -15.045869
-14.713744 10.509815 -16.33371
-14.455846 9.2930441 -17.254772
-14.258086 8.1474771 -17.961065
-14.117447 7.058723 -18.463339
-13.97999 5.9914231 -18.954258
-13.880116 4.9571838 -19.310951
-13.800022 3.9428616 -19.597004
-13.735905 2.9434071 -19.825996
-13.703652 1.9576616 -19.941181
-13.678732 0.97705364 -20.030182
-13.658455 -0 -20.1026
-13.676241 -0.97687244 -20.039082
-13.708323 -1.9583311 -19.924501
-13.740597 -2.9444151 -19.809238
-13.808184 -3.9451942 -19.567852
-13.891029 -4.9610815 -19.271978
-13.981205 -5.9919462 -18.949919
-14.102599 -7.0512991 -18.516369
-14.266528 -8.1523037 -17.93091
-14.465268 -9.2991009 -17.221125
-14.729185 -10.520847 -16.278564
-15.067937 -11.839095 -15.068733
-15.782822 -13.528137 -12.515575
-14.455912 14.455908 -13.28314
-13.935962 12.863964 -15.282942
-13.596029 11.504332 -16.590376
-13.362791 10.279068 -17.487446
-13.162218 9.1123037 -18.258881
-12.995049 7.9969516 -18.90184
-12.86969 6.9298325 -19.383991
-12.756986 5.8878374 -19.817469
-12.682813 4.8780017 -20.102749
-12.622317 3.88379 -20.335424
-12.564547 2.8995104 -20.557617
-12.534432 1.9283714 -20.673447
-12.522239 0.9632473 -20.720337
-12.511043 -0 -20.763405
-12.522876 -0.9633007 -20.717888
-12.543978 -1.9298401 -20.636728
-12.569303 -2.900609 -20.539324
-12.625213 -3.8846807 -20.324286
-12.693817 -4.8822393 -20.060419
-12.767497 -5.8926897 -19.77704
-12.874679 -6.9325223 -19.364799
-13.002682 -8.0016499 -18.872482
-13.171377 -9.1186438 -18.223654
-13.376592 -10.289688 -17.434366
-13.6356 -11.537816 -16.438179
-14.264673 -13.16739 -14.018668
-14.956576 -14.956575 -11.357504
-13.403383 15.637278 -13.035367
-12.870396 13.942926 -15.256151
-12.560875 12.560875 -16.545815
-12.288648 11.264593 -17.680096
-12.096197 10.080163 -18.481976
-11.942385 8.9567871 -19.12286
-11.817658 7.8784399 -19.642548
-11.719575 6.8364182 -20.051235
-11.62587 5.8129358 -20.441669
-11.557399 4.8155813 -20.726967
-11.500473 3.8334923 -20.964157
-11.456633 2.8641596 -21.146828
-11.432282 1.9053793 -21.248287
-11.41731 0.95144176 -21.310673
-11.404598 -0 -21.363636
-11.410899 -0.95090866 -21.337379
-11.435971 -1.9059973 -21.232912
-11.463367 -2.8658438 -21.118773
-11.506058 -3.835351 -20.940887
-11.56477 -4.8186545 -20.696253
-11.630877 -5.8154407 -20.420811
-11.712076 -6.832047 -20.082481
-11.817333 -7.8782239 -19.643909
-11.950848 -8.9631376 -19.087597
-12.104538 -10.087114 -18.447222
-12.301996 -11.276833 -17.624477
-12.825388 -12.825389 -15.44368
-13.430231 -14.549419 -12.923498
-14.093352 -16.442245 -10.160496
-12.47952 17.017523 -12.157707
-11.898383 15.143396 -14.799235
-11.524857 13.620285 -16.497084
-11.281071 12.306621 -17.605204
-11.079643 11.079641 -18.520782
-10.938628 9.9442062 -19.161762
-10.803662 8.8393593 -19.775238
-10.692002 7.7760019 -20.282784
-10.60682 6.7497926 -20.669975
-10.523297 5.7399802 -21.049625
-10.469148 4.7587042 -21.295761
-10.430098 3.7927608 -21.473263
-10.391308 2.833992 -21.649582
-10.365355 1.8846073 -21.767548
-10.35332 0.9412117 -21.82225
-10.349234 -0 -21.840822
-10.353107 -0.94119358 -21.823215
-10.373586 -1.8861055 -21.730133
-10.395855 -2.8352337 -21.628914
-10.426842 -3.7915802 -21.48806
-10.479467 -4.7633953 -21.248856
-10.534289 -5.745976 -20.999664
-10.60466 -6.7484212 -20.679796
-10.697205 -7.7797842 -20.259144
-10.80096 -8.8371487 -19.787525
-10.936702 -9.9424591 -19.170515
-11.095861 -11.095861 -18.447065
-11.459235 -12.500986 -16.795361
-11.985071 -14.164175 -14.405202
-12.561039 -15.986776 -11.787165
-13.193687 -17.991392 -8.9114876
-11.805855 18.889366 -9.8535213
-10.947705 16.421556 -14.144272
-10.562698 14.787775 -16.069305
-10.298576 13.388147 -17.389914
-10.11333 12.135995 -18.316149
-9.93647 10.930115 -19.200443
-9.813694 9.813695 -19.814323
-9.702157 8.7319393 -20.372013
-9.6143627 7.6914897 -20.810986
-9.5465984 6.6826177 -21.149803
-9.4819069 5.6891422 -21.473263
-9.4307537 4.715374 -21.729029
-9.3931265 3.7572489 -21.917168
-9.3565874 2.8069735 -22.099863
-9.3356876 1.867137 -22.204357
-9.3293819 0.93293858 -22.235888
-9.3255968 -9.5367432e-07 -22.25481
-9.3230848 -0.93231106 -22.267374
-9.3413506 -1.868269 -22.176043
-9.362957 -2.8088884 -22.068012
-9.3890705 -3.7556305 -21.937443
-9.4273558 -4.7136784 -21.746017
-9.4785566 -5.6871328 -21.490017
-9.543457 -6.6804199 -21.165512
-9.6155405 -7.6924324 -20.805096
-9.7103834 -8.7393475 -20.330881
-9.8203421 -9.820343 -19.781084
-9.9490957 -10.944005 -19.13732
-10.160746 -12.192896 -18.079067
-10.614467 -13.798808 -15.810462
-11.111178 -15.555648 -13.326904
-11.654929 -17.482395 -10.60815
-10.04149 17.851536 -13.096743
-9.60851 16.014183 -15.50218
-9.3585615 14.557764 -16.890785
-9.1395636 13.201592 -18.107443
-8.9786396 11.971519 -19.001465
-8.8420582 10.806961 -19.760248
-8.7470512 9.7189445 -20.288067
-8.6557446 8.6557436 -20.795326
-8.574872 7.6221075 -21.244621
-8.5161781 6.6236906 -21.570698
-8.4609509 5.6406326 -21.877516
-8.4119282 4.6732912 -22.149864
-8.3842182 3.7263193 -22.303802
-8.36026 2.7867527 -22.436907
-8.33675 1.8526125 -22.567516
-8.3311396 0.92568111 -22.598688
-8.3255596 -0 -22.629688
-8.3252964 -0.92503548 -22.631149
-8.3413839 -1.8536415 -22.541775
-8.3638086 -2.7879391 -22.417191
-8.3869371 -3.7275286 -22.2887
-8.4164743 -4.6758204 -22.124603
-8.4609261 -5.6406178 -21.877653
-8.5119238 -6.6203852 -21.594334
-8.5810957 -7.6276412 -21.210043
-8.6601963 -8.6602001 -20.770596
-8.7420082 -9.7133446 -20.316082
-8.8559818 -10.823979 -19.682899
-8.9862719 -11.981699 -18.959061
-9.3127937 -13.451814 -17.14505
-9.7371025 -15.146605 -14.78778
-10.201023 -17.001707 -12.210446
-10.711242 -19.042213 -9.3758945
-9.4347162 20.048769 -9.915823
-8.7269335 17.453863 -14.339463
-8.408843 15.766581 -16.327526
-8.198432 14.347258 -17.642593
-8.0298252 13.048465 -18.696388
-7.9087148 11.863072 -19.453327
-7.792665 10.714915 -20.178635
-7.7066393 9.6332989 -20.716301
-7.6278663 8.5813484 -21.208633
-7.554831 7.5548296 -21.665102
-7.5101614 6.5713902 -21.944286
-7.4660158 5.5995111 -22.220196
-7.425406 4.6408758 -22.474012
-7.4026256 3.7013111 -22.616386
-7.3799844 2.7674913 -22.757896
-7.3575025 1.8393745 -22.898403
-7.3530478 0.91913223 -22.926247
-7.3550014 -9.5367432e-07 -22.91404
-7.356956 -0.91962051 -22.901821
-7.3648901 -1.8412247 -22.852238
-7.3833914 -2.7687721 -22.736601
-7.4019866 -3.7009935 -22.620384
-7.4263263 -4.6414566 -22.468258
-7.4656477 -5.5992355 -22.222496
-7.5107527 -6.5719104 -21.940592
-7.5672436 -7.5672426 -21.587523
-7.6364412 -8.5909977 -21.155037
-7.7126184 -9.6407738 -20.678932
-7.7997947 -10.724719 -20.134075
-7.9120445 -11.868066 -19.432518
-8.0749817 -13.121844 -18.414162
-8.4332466 -14.758182 -16.175009
-8.8248987 -16.546684 -13.727184
-9.2536354 -18.507271 -11.047574
-9.7275543 -20.671051 -8.0855818
-7.9062281 19.200836 -12.40974
-7.4984097 17.139217 -15.322729
-7.2571917 15.551125 -17.045713
-7.1037302 14.207459 -18.141867
-6.9640441 12.933224 -19.139626
-6.8605485 11.76094 -19.878878
-6.7609768 10.624391 -20.590105
-6.6911349 9.5587616 -21.088978
-6.6313171 8.52598 -21.516243
-6.5736532 7.512743 -21.928129
-6.5331054 6.5331059 -22.217758
-6.4962368 5.5682011 -22.481106
-6.4622464 4.6158886 -22.723892
-6.4386978 3.6792536 -22.892096
-6.4195061 2.7512159 -23.029181
-6.4069452 1.830555 -23.118902
-6.3992653 0.91417885 -23.173761
-6.399919 -2.8610229e-06 -23.169086
-6.4005561 -0.91436386 -23.164537
-6.4015741 -1.8290215 -23.157265
-6.4191036 -2.7510452 -23.032055
-6.437686 -3.6786785 -22.899326
-6.4631925 -4.6165667 -22.717138
-6.4935775 -5.5659232 -22.500097
-6.5306244 -6.5306206 -22.235481
-6.5749774 -7.5142612 -21.918673
-6.633348 -8.528594 -21.501736
-6.7009859 -9.5728407 -21.018608
-6.7700186 -10.6386 -20.525522
-6.8661523 -11.770546 -19.838852
-6.9703789 -12.94499 -19.094376
-7.1945443 -14.389091 -17.493191
-7.5203629 -16.115063 -15.165922
-7.8756585 -18.001507 -12.628094
-8.2671003 -20.077248 -9.832077
-6.6192861 18.754642 -13.722079
-6.349309 16.931492 -15.971884
-6.1650596 15.412648 -17.507301
-6.0366402 14.085494 -18.577461
-5.916923 12.82 -19.575106
-5.8385963 11.677191 -20.227827
-5.764605 10.568443 -20.844421
-5.7043209 9.5071983 -21.346792
-5.6539459 8.480917 -21.766582
-5.6054449 7.4739256 -22.170757
-5.5675445 6.4954691 -22.486591
-5.5384173 5.5384178 -22.729319
-5.509593 4.5913277 -22.969521
-5.4885764 3.65905 -23.144657
-5.477849 2.738924 -23.234058
-5.4671626 1.8223877 -23.323109
-5.4565334 0.90942001 -23.411686
-5.4569807 -1.9073486e-06 -23.407955
-5.4589553 -0.90982628 -23.391502
-5.4640994 -1.8213682 -23.348637
-5.4758759 -2.7379398 -23.250496
-5.4888887 -3.6592607 -23.142057
-5.5105996 -4.5921688 -22.961134
-5.5354643 -5.5354652 -22.753929
-5.5695524 -6.4978099 -22.469862
-5.6059661 -7.4746227 -22.166412
-5.6529856 -8.4794798 -21.774584
-5.7098703 -9.516449 -21.300545
-5.7689276 -10.576367 -20.808397
-5.8429251 -11.68585 -20.191753
-5.9300241 -12.848387 -19.465927
-6.0373011 -14.087037 -18.571955
-6.281991 -15.704979 -16.532873
-6.571238 -17.523302 -14.122478
-6.8886042 -19.517712 -11.477758
-5.8790526 21.164589 -10.092266
-5.4456024 18.515047 -14.426774
-5.2378378 16.761076 -16.504419
-5.0927858 15.278356 -17.954939
-4.9944654 13.984503 -18.938141
-4.9069223 12.757994 -19.813576
-4.8415475 11.619712 -20.467325
-4.7812848 10.518826 -21.06995
-4.728096 9.4561882 -21.601839
-4.687192 8.4369459 -22.010876
-4.6494336 7.4390931 -22.388458
-4.6195345 6.4673452 -22.68745
-4.5973878 5.5168657 -22.908918
-4.5755959 4.5755949 -23.126839
-4.5574269 3.6459417 -23.308525
-4.5478311 2.7286978 -23.404484
-4.5382752 1.8153086 -23.500042
-4.5298433 0.90596581 -23.584362
-4.528008 -2.8610229e-06 -23.602718
-4.5292063 -0.90584183 -23.590736
-4.5359726 -1.8143911 -23.523069
-4.5451846 -2.7271099 -23.43095
-4.5584469 -3.6467609 -23.298326
-4.5757647 -4.5757647 -23.125149
-4.595891 -5.51507 -22.923885
-4.6220026 -6.4708052 -22.662767
-4.6511402 -7.441824 -22.371393
-4.687943 -8.4382992 -22.003363
-4.7311959 -9.4623909 -21.570839
-4.7808161 -10.517795 -21.074636
-4.8409796 -11.618351 -20.473003
-4.9134097 -12.774865 -19.748699
-4.9979401 -13.994231 -18.903395
-5.1050978 -15.315291 -17.831823
-5.3343101 -17.069792 -15.539696
-5.5845881 -18.987597 -13.036919
-4.5816479 20.617414 -11.612198
-4.3049088 18.29586 -15.071433
-4.1622925 16.64917 -16.854137
-4.0540586 15.202721 -18.207062
-3.9780517 13.923178 -19.15715
-3.9092534 12.705072 -20.017128
-3.8545313 11.563593 -20.701159
-3.8071542 10.469675 -21.293367
-3.766628 9.4165697 -21.799944
-3.738157 8.4108524 -22.155832
-3.7102737 7.4205461 -22.504375
-3.6837831 6.44662 -22.835503
-3.6661787 5.4992685 -23.055557
-3.65047 4.5630875 -23.251923
-3.6357062 3.6357059 -23.43647
-3.6256096 2.7192068 -23.562672
-3.6197071 1.8098526 -23.636459
-3.6161282 0.90402985 -23.681196
-3.612921 -9.5367432e-07 -23.721283
-3.6131136 -0.90328121 -23.718876
-3.6183743 -1.8091888 -23.653118
-3.6243238 -2.7182455 -23.578751
-3.6349261 -3.6349258 -23.44622
-3.6478324 -4.5597916 -23.284895
-3.6651454 -5.4977188 -23.068476
-3.6852598 -6.4492049 -22.817051
-3.7097924 -7.4195848 -22.510389
-3.7380812 -8.4106836 -22.15678
-3.7717156 -9.4292908 -21.736351
-3.8105915 -10.479129 -21.250401
-3.8580081 -11.574025 -20.657694
-3.9133892 -12.718513 -19.965431
-3.9796503 -13.928775 -19.137165
-4.0610414 -15.228906 -18.119776
-4.1678042 -16.671217 -16.785244
-4.3495932 -18.485771 -14.512883
-4.6204405 -20.791988 -11.127285
-3.3885381 20.331228 -12.407161
-3.2125881 18.204666 -15.339657
-3.1037757 16.553469 -17.153198
-3.0297334 15.148667 -18.387236
-2.9707689 13.863587 -19.369982
-2.919934 12.653048 -20.217228
-2.8815198 11.526079 -20.857468
-2.8499627 10.449862 -21.383415
-2.819798 9.3993254 -21.886166
-2.7964878 8.3894644 -22.274664
-2.7760642 7.4028349 -22.615059
-2.7562592 6.4312706 -22.945141
-2.7414985 5.4829941 -23.191151
-2.7303886 4.5506458 -23.376322
-2.7199428 3.6265898 -23.550419
-2.7120731 2.7120752 -23.681576
-2.7091129 1.8060741 -23.730919
-2.7063031 0.90209961 -23.777744
-2.7036355 -9.5367432e-07 -23.822205
-2.7041276 -0.90137577 -23.814003
-2.7078364 -1.8052254 -23.752193
-2.712774 -2.7127752 -23.669895
-2.7210696 -3.6280947 -23.531635
-2.7299793 -4.5499649 -23.383141
-2.7427368 -5.4854736 -23.170517
-2.7569048 -6.4327774 -22.934383
-2.7751386 -7.4003711 -22.630486
-2.7951279 -8.3853827 -22.297333
-2.8208113 -9.4027042 -21.869274
-2.8488107 -10.445639 -21.402617
-2.8839211 -11.535685 -20.817446
-2.9244802 -12.672749 -20.14146
-2.9734771 -13.876228 -19.324842
-3.0333695 -15.16685 -18.326635
-3.1145492 -16.610929 -16.973642
-3.2187572 -18.239624 -15.236839
-3.4149902 -20.489943 -11.966291
-2.2408655 20.167789 -12.861155
-2.1317029 18.119473 -15.590223
-2.0620246 16.496199 -17.332176
-2.0136361 15.102269 -18.541895
-1.9752916 13.827042 -19.500504
-1.9449286 12.642035 -20.259583
-1.9175735 11.50544 -20.943459
-1.8966833 10.431757 -21.465717
-1.8768286 9.3841419 -21.962082
-1.8596283 8.3683262 -22.39209
-1.8466105 7.3864403 -22.717533
-1.8351277 6.4229469 -23.004601
-1.8251678 5.475502 -23.253601
-1.818382 4.5459528 -23.423244
-1.8117385 3.623477 -23.589334
-1.8064959 2.7097435 -23.720398
-1.8036611 1.8036585 -23.791269
-1.801697 0.90084648 -23.840368
-1.8003819 -1.9073486e-06 -23.873253
-1.8006587 -0.90032959 -23.866327
-1.802555 -1.802556 -23.818922
-1.8058522 -2.7087774 -23.736488
-1.8108464 -3.6216927 -23.611637
-1.8170577 -4.5426445 -23.456356
-1.8257786 -5.4773369 -23.238331
-1.8350754 -6.4227629 -23.005913
-1.8476388 -7.3905559 -22.69183
-1.8607895 -8.3735523 -22.363054
-1.8777702 -9.3888531 -21.93854
-1.8963312 -10.429823 -21.474518
-1.9194549 -11.516729 -20.896423
-1.946046 -12.6493 -20.231647
-1.9778835 -13.845182 -19.435711
-2.0160391 -15.120293 -18.481821
-2.0692239 -16.553791 -17.152199
-2.1372168 -18.16634 -15.452375
-2.2550285 -20.295258 -12.507082
-1.1175382 20.115686 -13.005889
-1.0630383 18.071653 -15.730874
-1.029828 16.477245 -17.391401
-1.006025 15.090372 -18.581551
-0.98677367 13.814833 -19.544111
-0.97176546 12.632948 -20.294525
-0.95756006 11.490719 -21.004795
-0.94679874 10.414784 -21.542858
-0.93749577 9.3749571 -22.008007
-0.92903584 8.3613205 -22.431007
-0.92322314 7.385787 -22.721638
-0.91754031 6.4227829 -23.005779
-0.91218293 5.4730997 -23.273647
-0.90836221 4.541811 -23.464691
-0.90546399 3.6218567 -23.609596
-0.90284759 2.7085419 -23.740417
-0.90062922 1.801259 -23.851334
-0.90007758 0.90007496 -23.878918
-0.90014803 -1.9073486e-06 -23.875393
-0.90022111 -0.90022087 -23.87174
-0.90072757 -1.8014545 -23.84642
-0.90270323 -2.7081108 -23.747635
-0.90508205 -3.6203289 -23.628696
-0.90825963 -4.5412989 -23.469814
-0.91235363 -5.474122 -23.265114
-0.91707492 -6.4195242 -23.029049
-0.92310929 -7.3848729 -22.727331
-0.92954022 -8.3658648 -22.405781
-0.93796569 -9.3796549 -21.98451
-0.94728369 -10.420121 -21.518612
-0.95867819 -11.504139 -20.948883
-0.97200316 -12.636039 -20.282639
-0.98794895 -13.831288 -19.485346
-1.0072813 -15.10922 -18.518732
-1.0322789 -16.516462 -17.26885
-1.0657384 -18.117554 -15.595869
-1.1237857 -20.228142 -12.693508
0 20.068159 -13.137906
0 18.086529 -15.687119
0 16.480778 -17.380358
0 15.095987 -18.562832
0 13.808013 -19.568459
0 12.624106 -20.328537
0 11.494755 -20.987978
0 10.419476 -21.521542
0 9.3834305 -21.965641
0 8.3694382 -22.38591
0 7.385148 -22.725613
0 6.4230909 -23.003557
0 5.473361 -23.27145
0 4.5384674 -23.498123
0 3.6209888 -23.620422
0 2.7086582 -23.738514
0 1.8014746 -23.845917
0 0.90028191 -23.868717
0 -0 -23.867712
0 -0.90032578 -23.866577
0 -1.8010874 -23.855619
0 -2.7075577 -23.756874
0 -3.6191912 -23.642944
0 -4.5420437 -23.462379
0 -5.4742289 -23.26421
0 -6.4223623 -23.008787
0 -7.3911495 -22.688112
0 -8.3766518 -22.345837
0 -9.3833218 -21.966187
0 -10.428316 -21.481359
0 -11.517176 -20.894562
0 -12.64819 -20.235916
0 -13.831627 -19.484131
0 -15.113762 -18.503593
0 -16.546824 -17.173977
0 -18.161882 -15.4655
0 -20.226732 -12.697433
1.1214831 20.186695 -12.808642
1.0654351 18.112396 -15.611042
1.0325605 16.520964 -17.254776
1.0081933 15.122897 -18.473135
0.98783982 13.829757 -19.490805
0.97286993 12.647308 -20.2393
0.95998794 11.519856 -20.883398
0.9480902 10.428991 -21.478289
0.93924409 9.3924398 -21.920591
0.93090349 8.37813 -22.337624
0.92306423 7.3845139 -22.729584
0.91801405 6.4260988 -22.982094
0.91343343 5.4806004 -23.211124
0.90910375 4.5455179 -23.427612
0.906308 3.6252289 -23.567398
0.90394318 2.7118301 -23.685638
0.90224272 1.8044863 -23.77066
0.90085614 0.90085602 -23.839989
0.90087628 -1.9073486e-06 -23.838982
0.90111339 -0.90111351 -23.827126
0.90229833 -1.8045969 -23.767879
0.9036715 -2.7110157 -23.699219
0.9058004 -3.6232023 -23.592773
0.90949416 -4.547471 -23.408087
0.91336858 -5.4802132 -23.214363
0.91846997 -6.4292903 -22.959301
0.92499036 -7.3999219 -22.633276
0.93198717 -8.3878841 -22.283436
0.93936199 -9.3936186 -21.9147
0.94914156 -10.440557 -21.42572
0.96107733 -11.53293 -20.828926
0.97448134 -12.668257 -20.15873
0.99027461 -13.863847 -19.369066
1.009398 -15.140968 -18.412897
1.0360974 -16.577562 -17.077923
1.0715973 -18.217154 -15.30293
1.1302346 -20.344227 -12.371062
2.2703562 20.433208 -12.123888
2.1420889 18.207758 -15.330569
2.0751612 16.601288 -17.003769
2.0217447 15.163082 -18.33918
1.9831365 13.881955 -19.304384
1.9499428 12.674629 -20.134224
1.9243269 11.545961 -20.774624
1.8999584 10.44977 -21.383833
1.8804585 9.4022913 -21.871334
1.8653735 8.3941784 -22.248461
1.850917 7.4036665 -22.609871
1.8400118 6.4400396 -22.882502
1.8308109 5.4924316 -23.112522
1.8223515 4.5558777 -23.324009
1.8147471 3.6294937 -23.514118
1.8105664 2.715847 -23.618637
1.8075106 1.8075085 -23.695034
1.8044651 0.90223217 -23.771168
1.8033731 -1.9073486e-06 -23.798473
1.805746 -0.90287399 -23.739149
1.8081198 -1.8081226 -23.679802
1.8105052 -2.7157583 -23.620167
1.814737 -3.6294737 -23.514372
1.8229967 -4.5574932 -23.307882
1.8313892 -5.4941702 -23.098068
1.8409275 -6.4432487 -22.859606
1.8521847 -7.4087386 -22.57818
1.8667098 -8.4001942 -22.215054
1.883948 -9.4197397 -21.784096
1.9032395 -10.467817 -21.301811
1.9247816 -11.54869 -20.763258
1.9541105 -12.701721 -20.030033
1.9874105 -13.911875 -19.197531
2.0270293 -15.20272 -18.207064
2.0790691 -16.632553 -16.906067
2.1511238 -18.284552 -15.104706
2.2845144 -20.560633 -11.769932
3.4528632 20.717176 -11.335077
3.2439668 18.382481 -14.816679
3.1295209 16.690777 -16.724113
3.0436881 15.218437 -18.154665
2.9859748 13.934547 -19.11655
2.9338734 12.713451 -19.984905
2.8939571 11.575829 -20.650177
2.8604331 10.488256 -21.208912
2.8300555 9.4335194 -21.715204
2.8075311 8.4225903 -22.090611
2.7860618 7.4294953 -22.448433
2.7660193 6.4540462 -22.782473
2.7524168 5.5048323 -23.009178
2.7397716 4.5662842 -23.219936
2.7279046 3.6372051 -23.417723
2.7218752 2.7218752 -23.518209
2.7180133 1.8120079 -23.582573
2.7141545 0.9047184 -23.646885
2.7126675 -1.9073486e-06 -23.671669
2.7151928 -0.90506649 -23.629587
2.7187402 -1.8124943 -23.570459
2.7225199 -2.7225199 -23.507463
2.7301569 -3.6402111 -23.380184
2.7414365 -4.5690613 -23.192188
2.754482 -5.5089664 -22.97476
2.7688751 -6.4607077 -22.734879
2.7850091 -7.4266925 -22.465979
2.8085847 -8.4257545 -22.073051
2.8345921 -9.4486408 -21.639595
2.8643622 -10.502663 -21.143429
2.8981702 -11.592682 -20.579954
2.9403515 -12.741524 -19.876942
2.9920359 -13.962833 -19.015535
3.0561743 -15.280874 -17.946554
3.1400044 -16.746691 -16.549389
3.2550678 -18.445385 -14.631666
3.5023897 -21.014338 -10.509636
4.3707409 18.575647 -14.248536
4.1957335 16.78293 -16.436131
4.0926476 15.347428 -17.724697
4.0049825 14.017438 -18.820515
3.9341755 12.78607 -19.705603
3.8778114 11.633432 -20.410152
3.8326581 10.539806 -20.974573
3.7904289 9.4760714 -21.502436
3.7560775 8.4511738 -21.931826
3.7277436 7.4554873 -22.286001
3.7001319 6.4752283 -22.631153
3.680413 5.5206184 -22.877632
3.6666381 4.5832968 -23.049816
3.6531532 3.6531515 -23.218384
3.6412389 2.7309284 -23.367306
3.6356037 1.8178024 -23.437752
3.6317983 0.90794945 -23.485321
3.6305075 -9.5367432e-07 -23.50145
3.6295044 -0.9073782 -23.513992
3.6343002 -1.817153 -23.454048
3.6444967 -2.7333746 -23.32659
3.6547503 -3.6547508 -23.198418
3.6650622 -4.5813293 -23.069519
3.6825714 -5.5238581 -22.850655
3.7060649 -6.4856129 -22.556982
3.7309198 -7.4618406 -22.246296
3.7588522 -8.4574194 -21.897144
3.7918019 -9.4795046 -21.485271
3.8364842 -10.550332 -20.926741
3.8852904 -11.65587 -20.316669
3.9409201 -12.807993 -19.621296
4.0119848 -14.041946 -18.73299
4.0977545 -15.36658 -17.660866
4.2173276 -16.86931 -16.166203
4.388936 -18.652979 -14.0211
5.5567212 18.892853 -13.315584
5.3147712 17.007265 -15.735086
5.1616597 15.484978 -17.266201
5.0380621 14.106571 -18.502176
4.9518452 12.874799 -19.364342
4.8756399 11.701534 -20.126396
4.8148913 10.592758 -20.733885
4.7617455 9.523489 -21.265347
4.7120767 8.4817343 -21.76203
4.681056 7.4896913 -22.072233
4.6504412 6.5106163 -22.378382
4.6221352 5.5465612 -22.66144
4.6033325 4.6033306 -22.849468
4.5869298 3.6695461 -23.013493
4.5719037 2.7431393 -23.163761
4.5590796 1.8236313 -23.291996
4.5568976 0.91138077 -23.313816
4.5559559 -0 -23.323238
4.5556335 -0.91112995 -23.32646
4.5619359 -1.8247747 -23.263435
4.5749192 -2.7449503 -23.133602
4.5879631 -3.6703711 -23.003162
4.602108 -4.602109 -22.861713
4.6236095 -5.5483322 -22.6467
4.6533461 -6.5146861 -22.349335
4.6858134 -7.4973025 -22.024662
4.7217417 -8.4991379 -21.665377
4.7664986 -9.5329971 -21.21781
4.819838 -10.603643 -20.684418
4.8832455 -11.71979 -20.050343
4.9618621 -12.900841 -19.264175
5.0556798 -14.155903 -18.325998
5.1743236 -15.522972 -17.139557
5.3331432 -17.066057 -15.551367
5.5850143 -18.989052 -13.032649
6.8173208 19.315742 -12.071788
6.4730573 17.261484 -14.940654
6.2534881 15.633721 -16.770395
6.1041751 14.243074 -18.014668
5.9889154 12.975984 -18.975166
5.8944359 11.78887 -19.762501
5.8119726 10.655281 -20.44969
5.753149 9.5885801 -20.93989
5.6965628 8.5448418 -21.41144
5.6501403 7.5335193 -21.79829
5.6131196 6.5486383 -22.1068
5.5793204 5.57932 -22.388458
5.5482521 4.6235399 -22.647364
5.529108 3.6860723 -22.806896
5.5141401 2.7570677 -22.931629
5.5017753 1.8339243 -23.03467
5.496294 0.916049 -23.080345
5.4959035 -9.5367432e-07 -23.083599
5.4978905 -0.91631508 -23.067043
5.5045204 -1.8348436 -23.011795
5.5147543 -2.7573757 -22.92651
5.530787 -3.687192 -22.792906
5.5566344 -4.6305285 -22.577511
5.5827241 -5.5827265 -22.360098
5.6091743 -6.5440388 -22.139681
5.6534653 -7.5379553 -21.770582
5.7036805 -8.555521 -21.352127
5.7602029 -9.600338 -20.881107
5.8210135 -10.671858 -20.374352
5.9018402 -11.803682 -19.700794
5.9984417 -12.996624 -18.895784
6.1248345 -14.291281 -17.84251
6.2808671 -15.702166 -16.542238
6.5037985 -17.343462 -14.684474
6.9003463 -19.550983 -11.379906
7.6986437 17.596899 -13.892483
7.4001551 15.857472 -16.024549
7.2108493 14.421698 -17.376728
7.0573969 13.106592 -18.472816
6.9399943 11.897133 -19.311409
6.8430433 10.753353 -20.003918
6.7637987 9.662569 -20.56995
6.6975203 8.6110973 -21.043365
6.6346178 7.5824213 -21.492668
6.5877829 6.5877819 -21.827206
6.5481257 5.6126776 -22.11047
6.5146847 4.6533461 -22.349335
6.4913139 3.709321 -22.516268
6.475863 2.7753677 -22.626629
6.4621172 1.8463173 -22.724815
6.4501829 0.92145348 -22.810059
6.4457908 -9.5367432e-07 -22.841434
6.4526029 -0.92180252 -22.792776
6.4604306 -1.8458395 -22.736866
6.4698005 -2.7727728 -22.669937
6.493372 -3.7105007 -22.501568
6.5242877 -4.6602058 -22.280739
6.5554996 -5.6190004 -22.057795
6.5940499 -6.5940499 -21.782444
6.6412091 -7.5899539 -21.445587
6.6987352 -8.6126595 -21.034691
6.7706285 -9.6723289 -20.521164
6.8534942 -10.769777 -19.929268
6.9537468 -11.920709 -19.213175
7.0710425 -13.131935 -18.375353
7.2202554 -14.440511 -17.309546
7.427824 -15.916766 -15.826912
7.7390819 -17.689329 -13.603643
9.0485821 18.097164 -12.329159
8.6242962 16.170557 -14.980942
8.3534317 14.618503 -16.673853
8.1688824 13.274433 -17.827284
8.009367 12.014049 -18.824257
7.8991065 10.861271 -19.513384
7.7918162 9.739768 -20.183945
7.7141438 8.6784096 -20.669399
7.6466928 7.6466942 -21.090965
7.5856147 6.637413 -21.472702
7.54635 5.6597624 -21.718105
7.5081458 4.6925907 -21.956882
7.4740787 3.7370358 -22.169804
7.4504385 2.7939138 -22.317554
7.4355059 1.8588734 -22.410885
7.4225368 0.92781639 -22.491938
7.4178748 -2.8610229e-06 -22.521078
7.4264336 -0.92830276 -22.467587
7.4380188 -1.8595066 -22.395176
7.4543219 -2.795372 -22.293287
7.47753 -3.7387648 -22.14823
7.5060887 -4.6913071 -21.969742
7.5478544 -5.6608915 -21.708706
7.6018982 -6.6516604 -21.370932
7.6570172 -7.6570187 -21.026434
7.7178206 -8.6825485 -20.64642
7.8087606 -9.760952 -20.078041
7.9092007 -10.875149 -19.450293
8.0374708 -12.05621 -18.648602
8.1910248 -13.310414 -17.688896
8.3845253 -14.672919 -16.479513
8.6612587 -16.239861 -14.749931
9.1446466 -18.289293 -11.728756
9.9715204 16.6192 -13.485459
9.5839024 14.908291 -15.638893
9.3246975 13.469004 -17.078926
9.1444407 12.192585 -18.080353
8.9952307 10.99417 -18.909292
8.8694592 9.8549547 -19.608021
8.7693758 8.7693748 -20.164038
8.6936502 7.7276883 -20.58474
8.6231976 6.7069311 -20.976143
8.5614376 5.7076244 -21.319252
8.518858 4.7326975 -21.555809
8.4798756 3.7688313 -21.772377
8.4440298 2.8146753 -21.971519
8.4335804 1.8741264 -22.029575
8.4266615 0.93629456 -22.068012
8.4225931 9.5367432e-07 -22.090611
8.4210749 -0.93567562 -22.099045
8.431076 -1.8735723 -22.043482
8.4570475 -2.8190145 -21.8992
8.4848928 -3.7710657 -21.744499
8.5163784 -4.7313223 -21.569586
8.5672121 -5.7114763 -21.287176
8.6297235 -6.7120094 -20.93989
8.6950331 -7.7289186 -20.577059
8.7730951 -8.7730961 -20.143381
8.8761187 -9.8623543 -19.571024
9.0029202 -11.003569 -18.866575
9.1540632 -12.205421 -18.026886
9.3572617 -13.516046 -16.898006
9.6176996 -14.960868 -15.451133
10.019571 -16.699286 -13.218512
11.617149 17.425724 -10.797049
10.898877 15.258425 -14.388412
10.576688 13.749691 -15.999361
10.333927 12.400711 -17.213161
10.130521 11.143572 -18.230192
9.9883108 9.9883099 -18.94124
9.867918 8.8811245 -19.543203
9.7630243 7.8104186 -20.067678
9.6842022 6.7789402 -20.461788
9.6077604 5.7646556 -20.84399
9.5558681 4.7779322 -21.103455
9.521349 3.8085403 -21.276049
9.4883366 2.8465004 -21.441113
9.4607782 1.8921537 -21.578903
9.4493341 0.94493484 -21.636126
9.4461718 -9.5367432e-07 -21.651937
9.4471979 -0.94472027 -21.646805
9.4601393 -1.8920298 -21.582102
9.4888124 -2.8466444 -21.438732
9.5229263 -3.8091717 -21.268162
9.5699625 -4.7849846 -21.032984
9.6238508 -5.7743096 -20.763546
9.6786385 -6.7750468 -20.489605
9.7712936 -7.8170342 -20.026325
9.8709154 -8.8838253 -19.528223
9.9971542 -9.9971561 -18.897028
10.147801 -11.162581 -18.143787
10.356573 -12.427888 -17.09993
10.599888 -13.779855 -15.883356
10.976343 -15.366881 -14.001078
11.827027 -17.740541 -9.7476616
12.514503 15.927551 -11.998685
11.943786 14.115381 -14.592862
11.581943 12.634846 -16.237602
11.354631 11.354632 -17.270834
11.15734 10.143034 -18.167614
11.017677 9.0144615 -18.802443
10.884146 7.9157419 -19.409409
10.791148 6.867094 -19.832127
10.715013 5.8445535 -20.178196
10.646183 4.8391724 -20.491055
10.592254 3.8517265 -20.736191
10.556655 2.8790865 -20.897999
10.525644 1.9137516 -21.038956
10.498985 0.95445251 -21.160133
10.505903 9.5367432e-07 -21.128693
10.517326 -0.9561224 -21.076771
10.533881 -1.9152498 -21.001516
10.553792 -2.8783064 -20.911016
10.587881 -3.8501358 -20.756062
10.653648 -4.8425684 -20.457127
10.720203 -5.8473821 -20.154594
10.805575 -6.8762751 -19.766548
10.903623 -7.9299045 -19.320875
11.016135 -9.0132046 -18.809456
11.178409 -10.162189 -18.07185
11.378024 -11.378022 -17.164507
11.638487 -12.696532 -15.980584
12.001852 -14.184006 -14.328922
12.607654 -16.046104 -11.575281
13.559435 14.689385 -12.385154
13.01799 13.017988 -14.641174
12.666174 11.610658 -16.107071
12.431768 10.359806 -17.083761
12.219824 9.1648674 -17.966862
12.080911 8.0539398 -18.545673
11.955065 6.9737868 -19.070026
11.853387 5.9266915 -19.493687
11.777726 4.9073849 -19.808941
11.703876 3.9012909 -20.116646
11.661995 2.9154997 -20.291149
11.641079 1.9401779 -20.3783
11.622336 0.96852779 -20.456394
11.611119 -9.5367432e-07 -20.503134
11.613564 -0.96779823 -20.492949
11.634802 -1.9391356 -20.404461
11.676205 -2.9190512 -20.231945
11.724271 -3.9080925 -20.031666
11.777942 -4.9074783 -19.808041
11.85932 -5.9296589 -19.468962
11.973969 -6.984817 -18.991257
12.093128 -8.062088 -18.494759
12.260091 -9.1950693 -17.79908
12.442423 -10.368688 -17.03937
12.71325 -11.653811 -15.910925
13.076128 -13.076129 -14.398929
13.721355 -14.864801 -11.710479
14.782239 13.645143 -12.028032
14.17819 11.99693 -14.351289
13.785666 10.604357 -15.861003
13.55357 9.3832417 -16.753683
13.345996 8.2129211 -17.55204
13.201008 7.1082325 -18.109688
13.065377 6.0301738 -18.631348
12.974978 4.9903746 -18.979036
12.906015 3.9710793 -19.244278
12.846926 2.964673 -19.471542
12.79792 1.9689102 -19.660025
12.779352 0.9830246 -19.731441
12.770849 9.5367432e-07 -19.764149
12.77861 -0.98297119 -19.734291
12.80317 -1.9697189 -19.639837
12.849451 -2.9652581 -19.461828
12.906492 -3.9712315 -19.242439
12.986698 -4.9948845 -18.933954
13.088594 -6.0408897 -18.542053
13.198218 -7.1067348 -18.120419
13.36988 -8.2276154 -17.460182
13.576352 -9.3990154 -16.666058
13.856436 -10.6588 -15.588812
14.224806 -12.036374 -14.172001
14.85546 -13.71273 -11.74641
16.128704 12.672552 -11.280282
15.436642 11.02617 -13.751936
15.025778 9.6594267 -15.219305
14.766645 8.4380817 -16.144777
14.52271 7.2613559 -17.015972
14.387114 6.1659036 -17.500248
14.26147 5.093379 -17.948975
14.151991 4.0434237 -18.339973
14.091133 3.0195251 -18.557323
14.046719 2.0066729 -18.715946
14.013036 1.0009327 -18.836239
14.014605 -9.5367432e-07 -18.830635
14.027083 -1.0019369 -18.786072
14.049785 -2.0071135 -18.704994
14.091749 -3.0196605 -18.555119
14.17434 -4.0498099 -18.260151
14.274167 -5.097918 -17.903631
14.40252 -6.1725082 -17.445223
14.577073 -7.2885375 -16.821821
14.78501 -8.4485779 -16.079185
15.084332 -9.697073 -15.01018
15.49296 -11.066401 -13.550796
16.326185 -12.827716 -10.574997
16.842907 10.105742 -12.739776
16.384716 8.738512 -14.267079
16.08971 7.5085316 -15.250429
15.857109 6.3428426 -16.025764
15.684362 5.2281184 -16.601591
15.5612 4.149653 -17.012125
15.458747 3.0917492 -17.353642
15.400799 2.0534401 -17.546803
15.367021 1.0244703 -17.659397
15.339528 -0 -17.751036
15.355484 -1.0237007 -17.697849
15.413288 -2.0551057 -17.505169
15.479715 -3.0959439 -17.283743
15.561602 -4.1497622 -17.010788
15.702576 -5.2341948 -16.540874
15.869569 -6.347826 -15.984236
16.096256 -7.5115867 -15.22861
16.428598 -8.761919 -14.1208
16.945068 -10.167041 -12.399234
18.964293 9.4821453 -9.6193838
18.04421 7.8943424 -12.494638
17.579418 6.5922799 -13.947116
17.349249 5.421639 -14.666397
17.138309 4.2845788 -15.32558
17.022898 3.191792 -15.686242
16.927595 2.1159463 -15.984062
16.865995 1.0541244 -16.176559
16.861523 -2.8610229e-06 -16.190538
16.880758 -1.0550485 -16.130424
16.928875 -2.1161103 -15.980058
17.026161 -3.1924067 -15.676041
17.156467 -4.2891154 -15.268834
17.366158 -5.4269252 -14.613554
17.658815 -6.622056 -13.698998
18.118944 -7.9270391 -12.261098
19.725018 5.8014746 -10.868042
19.174528 4.5116534 -12.487125
18.982527 3.3498554 -13.051838
18.794333 2.2110972 -13.60535
18.716276 1.100956 -13.834925
18.701756 -9.5367432e-07 -13.877638
18.714869 -1.1008749 -13.839064
18.768799 -2.2080941 -13.680447
18.997753 -3.3525443 -13.007052
19.255035 -4.5305967 -12.250337
19.807356 -5.8256922 -10.625872
