# .PCD v0.7 - Point Cloud Data file format
VERSION 0.7
FIELDS x y z
SIZE 4 4 4
TYPE F F F
COUNT 1 1 1
WIDTH 1060
HEIGHT 1
VIEWPOINT 0 0 0 1 0 0 0
POINTS 1060
DATA ascii
-23.235592 1.2229247 -7.7364988
-22.802694 -1.4305115e-06 -8.8757057
-21.503277 7.167758 -9.1514702
-20.710512 5.7529187 -11.353596
-20.318535 4.5152287 -12.442422
-20.087158 3.3478589 -13.085136
-19.928017 2.214222 -13.527195
-19.855886 1.1031036 -13.72756
-19.827343 -1.4305115e-06 -13.806848
-19.855272 -1.1030717 -13.72926
-19.950939 -2.2167711 -13.463518
-20.08486 -3.3474765 -13.09152
-20.381086 -4.5291328 -12.26867
-20.766119 -5.7683678 -11.199128
-21.98176 -7.3272524 -7.8223505
-19.852421 9.3423166 -10.493324
-19.15962 7.8892546 -12.530969
-18.814432 6.6403856 -13.546232
-18.57464 5.4631267 -14.251506
-18.341005 4.3155284 -14.938663
-18.169783 3.2064309 -15.442258
-18.094904 2.1288099 -15.662491
-18.028063 1.060473 -15.859083
-18.009844 -9.5367432e-07 -15.912663
-18.039536 -1.061151 -15.82534
-18.091793 -2.1284466 -15.67164
-18.195889 -3.2110372 -15.365477
-18.322271 -4.3111238 -14.993763
-18.537758 -5.452282 -14.359976
-18.859898 -6.656435 -13.412514
-19.245689 -7.9246979 -12.27783
-20.047964 -9.4343376 -9.9181995
-18.977083 11.860676 -9.5794125
-18.046993 10.151433 -12.48594
-17.812263 8.9061327 -13.219473
-17.5835 7.6927795 -13.934363
-17.360537 6.510201 -14.631117
-17.14333 5.3572917 -15.309888
-16.932049 4.2330098 -15.970146
-16.725477 3.1360259 -16.615685
-16.539062 2.0673819 -17.198223
-16.50598 1.0316238 -17.301607
-16.496145 -9.5367432e-07 -17.332344
-16.508255 -1.0317683 -17.294495
-16.560125 -2.0700183 -17.132404
-16.626913 -3.1175451 -16.923693
-16.740482 -4.185122 -16.568789
-16.89139 -5.2785606 -16.097202
-17.054865 -6.395577 -15.586342
-17.318264 -7.5767422 -14.76322
-17.632149 -8.8160753 -13.782329
-18.167271 -10.219092 -12.110072
-19.411911 -12.132444 -8.2205791
-17.280384 12.67228 -11.281519
-16.797661 11.198441 -12.89059
-16.581013 9.9486046 -13.612758
-16.369658 8.730484 -14.317268
-16.163517 7.5429716 -15.004409
-15.962502 6.3849998 -15.674458
-15.766632 5.2555423 -16.327358
-15.575761 4.153533 -16.963593
-15.389505 3.0779023 -17.584442
-15.207365 2.027648 -18.191582
-15.152995 1.0101976 -18.372812
-15.146576 9.5367432e-07 -18.394209
-15.159419 -1.0106306 -18.351402
-15.180298 -2.0240378 -18.281803
-15.23929 -3.0478592 -18.085161
-15.307814 -4.082088 -17.85675
-15.437144 -5.1457143 -17.425648
-15.570084 -6.228035 -16.982513
-15.742004 -7.3462696 -16.409451
-15.982796 -8.5241604 -15.606809
-16.26503 -9.7590199 -14.666029
-16.692875 -11.128584 -13.239876
-17.459002 -12.803267 -10.686128
-15.933804 13.657544 -11.976358
-15.566076 12.230488 -13.289668
-15.366829 10.976304 -14.001268
-15.172464 9.7537279 -14.695424
-14.982855 8.5616302 -15.372599
-14.797782 7.39889 -16.033575
-14.617319 6.2645669 -16.678085
-14.44139 5.1576395 -17.306404
-14.269465 4.0769906 -17.920422
-14.102115 3.0218816 -18.518103
-13.938084 1.9911537 -19.103928
-13.897714 0.99269485 -19.248104
-13.892529 -9.5367432e-07 -19.266623
-13.901315 -0.99295235 -19.235243
-13.91746 -1.9882116 -19.17758
-13.964738 -2.9924459 -19.008732
-14.026516 -4.0075765 -18.788101
-14.112229 -5.040081 -18.481976
-14.215484 -6.0923476 -18.113211
-14.362486 -7.1812439 -17.588205
-14.54282 -8.3101854 -16.944155
-14.743596 -9.4780254 -16.227095
-15.05545 -10.753896 -15.113328
-15.436377 -12.128583 -13.752879
-16.095459 -13.796106 -11.399014
-14.782969 14.782971 -12.025218
-14.351972 13.247974 -13.682905
-14.169499 11.989575 -14.384721
-13.991796 10.762921 -15.068193
-13.817994 9.5663013 -15.736669
-13.648724 8.3992128 -16.387711
-13.483289 7.260232 -17.023994
-13.321942 6.1485882 -17.644556
-13.164538 5.0632858 -18.249958
-13.010527 4.0032377 -18.842312
-12.860472 2.9678011 -19.419445
-12.727066 1.9580107 -19.932543
-12.708045 0.97754288 -20.005699
-12.70542 -0 -20.015793
-12.706386 -0.97741604 -20.012079
-12.735162 -1.9592562 -19.901403
-12.772214 -2.9474344 -19.758898
-12.826288 -3.9465499 -19.550919
-12.903188 -4.9627671 -19.255146
-12.994443 -5.997436 -18.904171
-13.101668 -7.0547452 -18.49176
-13.237095 -8.1459026 -17.97089
-13.393034 -9.2721033 -17.371124
-13.610803 -10.469849 -16.533556
-13.904283 -11.765164 -15.404788
-14.299191 -13.199256 -13.885906
-14.925522 -14.925523 -11.476942
-13.730821 16.019289 -11.671045
-13.154967 14.251214 -14.070434
-12.988829 12.988826 -14.762675
-12.826879 11.757969 -15.437468
-12.669209 10.557672 -16.094433
-12.514637 9.3859777 -16.73848
-12.364225 8.2428169 -17.365185
-12.217118 7.1266527 -17.978138
-12.07362 6.0368085 -18.576046
-11.933601 4.9723339 -19.159454
-11.796361 3.9321194 -19.731289
-11.662629 2.9156551 -20.288509
-11.603584 1.9339304 -20.534531
-11.587708 0.96564102 -20.600681
-11.583085 -9.5367432e-07 -20.61994
-11.591359 -0.96594906 -20.585466
-11.608467 -1.9347448 -20.514185
-11.640412 -2.9101038 -20.381077
-11.684966 -3.8949885 -20.195438
-11.754067 -4.8975296 -19.907518
-11.823991 -5.9119954 -19.616169
-11.904835 -6.9444852 -19.27932
-12.032579 -8.0217209 -18.747049
-12.163056 -9.1222944 -18.203394
-12.331102 -10.275921 -17.503199
-12.544106 -11.498763 -16.615686
-12.820619 -12.820621 -15.463549
-13.204037 -14.304374 -13.865974
-13.913107 -16.231958 -10.911514
-12.863747 17.541473 -10.411214
-12.136315 15.446218 -13.717726
-11.824462 13.974365 -15.13524
-11.677994 12.73963 -15.801007
-11.535259 11.535258 -16.4498
-11.396008 10.360005 -17.08276
-11.259471 9.2122936 -17.703384
-11.126656 8.0921116 -18.307091
-10.996698 6.9978991 -18.897804
-10.869908 5.9290404 -19.474121
-10.746075 4.8845773 -20.037003
-10.624711 3.8635292 -20.588657
-10.548572 2.8768835 -20.934746
-10.525801 1.9137802 -21.038246
-10.508179 0.95528889 -21.118345
-10.502816 -9.5367432e-07 -21.142719
-10.510862 -0.95553207 -21.106148
-10.525613 -1.9137506 -21.039101
-10.554546 -2.8785133 -20.907583
-10.591145 -3.851325 -20.74123
-10.647143 -4.8396101 -20.486691
-10.710928 -5.8423243 -20.196762
-10.787958 -6.865067 -19.846621
-10.883376 -7.9151812 -19.412909
-10.995673 -8.99646 -18.902462
-11.138699 -10.12609 -18.252348
-11.306543 -11.306543 -17.489416
-11.520506 -12.567825 -16.516861
-11.785844 -13.928725 -15.310781
-12.211841 -15.542339 -13.374434
-13.115624 -17.884945 -9.2663231
-11.181983 16.772972 -12.972883
-10.759933 15.063906 -15.083128
-10.544666 13.708063 -16.159466
-10.416509 12.499811 -16.800251
-10.29166 11.320826 -17.424498
-10.169607 10.169605 -18.03476
-10.049945 9.0449514 -18.63307
-9.9334955 7.9467959 -19.215319
-9.819623 6.873735 -19.784679
-9.7084198 5.8250513 -20.340694
-9.5997362 4.7998676 -20.884115
-9.5275497 3.811018 -21.245045
-9.4996243 2.849885 -21.384678
-9.4824381 1.8964872 -21.470608
-9.4639502 0.94639683 -21.563046
-9.4627256 -1.9073486e-06 -21.569166
-9.465147 -0.94651413 -21.55706
-9.4808455 -1.8961706 -21.478567
-9.4993153 -2.8497972 -21.386219
-9.5338726 -3.8135509 -21.213432
-9.5747747 -4.7873869 -21.008924
-9.6281118 -5.776866 -20.742239
-9.7005777 -6.7904062 -20.379908
-9.785882 -7.8287072 -19.953381
-9.8727312 -8.8854589 -19.519138
-9.9920321 -9.992033 -18.922634
-10.135817 -11.149401 -18.203711
-10.295381 -12.354456 -17.405895
-10.526456 -13.684393 -16.250515
-10.807776 -15.130889 -14.843913
-11.273997 -16.910995 -12.512812
-10.326055 18.357428 -11.515827
-9.812212 16.353689 -14.370503
-9.5140467 14.799626 -16.026979
-9.3127651 13.45177 -17.145216
-9.2016993 12.268933 -17.762241
-9.0934811 11.114252 -18.363459
-8.987443 9.9860477 -18.952555
-8.8835506 8.8835516 -19.529737
-8.7824326 7.8066049 -20.091511
-8.683589 6.7538996 -20.640635
-8.5869465 5.7246294 -21.17754
-8.5401831 4.7445459 -21.437336
-8.507473 3.7810974 -21.619061
-8.479702 2.8265657 -21.77334
-8.4636698 1.8808136 -21.862408
-8.4516182 0.93906784 -21.929359
-8.4493256 -0 -21.942099
-8.4525309 -0.93917179 -21.92429
-8.4660454 -1.8813429 -21.849213
-8.4847193 -2.8282423 -21.745468
-8.5134745 -3.7837677 -21.585716
-8.5474911 -4.7486053 -21.39673
-8.5963764 -5.7309179 -21.125149
-8.6564951 -6.73283 -20.791155
-8.7216606 -7.7525859 -20.429127
-8.7983055 -8.7983074 -20.003321
-8.9014883 -9.890543 -19.430084
-9.0147161 -11.017988 -18.801039
-9.1565523 -12.208738 -18.01306
-9.3337717 -13.482116 -17.028509
-9.5595779 -14.870455 -15.77403
-9.8762836 -16.460476 -14.014551
-10.440134 -18.56024 -10.88205
-8.9147663 17.829533 -13.165506
-8.5665598 16.062302 -15.341793
-8.3391724 14.593552 -16.76297
-8.1632614 13.265297 -17.862413
-8.0309772 12.046465 -18.689186
-7.93822 10.915052 -19.268917
-7.8472228 9.8090277 -19.837654
-7.7580767 8.7278385 -20.394814
-7.673243 7.6732421 -20.92503
-7.6197844 6.6673102 -21.259144
-7.5762844 5.6822119 -21.531017
-7.5373363 4.7108355 -21.774445
-7.5092192 3.7546072 -21.950176
-7.4855742 2.8070889 -22.097958
-7.4704785 1.8676214 -22.192305
-7.4614506 0.93268013 -22.24873
-7.4577117 -9.5367432e-07 -22.272099
-7.4619913 -0.93274975 -22.24535
-7.470891 -1.8677235 -22.189728
-7.4879909 -2.8079977 -22.082851
-7.5112343 -3.7556181 -21.93758
-7.5419068 -4.7136946 -21.745878
-7.5845652 -5.6884222 -21.479265
-7.6373477 -6.6826797 -21.149376
-7.6908698 -7.6908689 -20.814863
-7.7515597 -8.7205067 -20.435545
-7.8420835 -9.8026056 -19.869776
-7.9347706 -10.910311 -19.290478
-8.048048 -12.072074 -18.582493
-8.1949873 -13.316854 -17.664125
-8.3694801 -14.646591 -16.573547
-8.6141109 -16.151455 -15.044608
-8.9937725 -17.987547 -12.671718
-8.1397619 19.76799 -10.741642
-7.652226 17.490801 -14.224037
-7.3983808 15.853674 -16.03722
-7.2145209 14.429039 -17.350504
-7.0828919 13.15394 -18.29071
-6.9633336 11.93714 -19.144701
-6.8699427 10.795622 -19.811781
-6.7937012 9.7052879 -20.356359
-6.7271395 8.6491776 -20.831802
-6.6777663 7.6317301 -21.184467
-6.6287026 6.6287007 -21.53492
-6.5878019 5.6466866 -21.827068
-6.5568166 4.6834402 -22.048389
-6.531836 3.7324772 -22.226826
-6.5140066 2.7917156 -22.354176
-6.499929 1.8571224 -22.454731
-6.4934654 0.92763901 -22.5009
-6.4899111 9.5367432e-07 -22.526287
-6.4943266 -0.92776203 -22.494747
-6.5018611 -1.8576746 -22.440928
-6.5169649 -2.7929859 -22.333042
-6.5355496 -3.7346001 -22.200298
-6.5627184 -4.6876583 -22.006231
-6.5950918 -5.6529374 -21.774998
-6.6375499 -6.6375508 -21.471724
-6.6837497 -7.6385708 -21.141729
-6.7429862 -8.6695557 -20.718607
-6.807785 -9.7254076 -20.25576
-6.8875856 -10.823347 -19.685757
-6.9860282 -11.976049 -18.982594
-7.1028337 -13.19098 -18.148264
-7.2457304 -14.491464 -17.127577
-7.4373875 -15.93726 -15.758598
-7.7083635 -17.619116 -13.823055
-8.2285995 -19.98374 -10.107086
-6.7914009 19.242302 -12.287785
-6.4659696 17.242584 -14.999717
-6.2772732 15.693184 -16.572186
-6.1323624 14.308843 -17.779778
-6.0198154 13.042931 -18.717669
-5.9286766 11.857352 -19.477156
-5.8498287 10.724686 -20.134224
-5.788487 9.6474781 -20.645407
-5.7341681 8.6012516 -21.098063
-5.6931028 7.5908027 -21.440271
-5.6518607 6.5938377 -21.783957
-5.6186733 5.6186733 -22.06052
-5.5944667 4.6620541 -22.262241
-5.5741663 3.7161112 -22.43141
-5.5579138 2.7789555 -22.566851
-5.5442691 1.8480902 -22.680552
-5.5391164 0.92318439 -22.723492
-5.5348616 -0 -22.758953
-5.539053 -0.92317486 -22.724022
-5.5436168 -1.8478708 -22.685989
-5.5575294 -2.7787647 -22.570051
-5.5715289 -3.7143536 -22.453392
-5.5949044 -4.6624212 -22.258595
-5.6198993 -5.6199012 -22.050301
-5.6544919 -6.596911 -21.762028
-5.6933379 -7.5911193 -21.438313
-5.7470016 -8.6205025 -20.991114
-5.8017049 -9.669508 -20.535259
-5.8583117 -10.740239 -20.063532
-5.9454527 -11.890907 -19.337357
-6.0357723 -13.077505 -18.584696
-6.1556458 -14.363173 -17.585751
-6.2995749 -15.748938 -16.386337
-6.5107722 -17.362059 -14.626361
-6.8514276 -19.41238 -11.787565
-5.5612726 18.908325 -13.270071
-5.3346105 17.070755 -15.536692
-5.1927247 15.578171 -16.955551
-5.0770388 14.21571 -18.11241
-4.9866648 12.965328 -19.01615
-4.9126897 11.790457 -19.755899
-4.851254 10.672758 -20.370255
-4.8008418 9.6016846 -20.874376
-4.7556238 8.5601215 -21.326561
-4.720232 7.5523705 -21.680473
-4.6884894 6.5638857 -21.9979
-4.6650696 5.5980816 -22.232103
-4.6456752 4.6456747 -22.426044
-4.6285968 3.702879 -22.596825
-4.6144743 2.7686834 -22.738056
-4.602016 1.8408041 -22.862637
-4.5985837 0.91971588 -22.896963
-4.5956287 -0 -22.92651
-4.5988989 -0.91977978 -22.893806
-4.6037803 -1.8415117 -22.84499
-4.6145139 -2.7687073 -22.737659
-4.62708 -3.7016659 -22.612
-4.6451654 -4.6451654 -22.431143
-4.6661654 -5.5993981 -22.221144
-4.6940284 -6.5716414 -21.942511
-4.724431 -7.5590897 -21.638487
-4.7653694 -8.5776653 -21.229105
-4.8104868 -9.6209755 -20.777929
-4.8632913 -10.699244 -20.249882
-4.9268737 -11.824499 -19.614054
-5.0004253 -13.001106 -18.878542
-5.0917382 -14.256866 -17.965414
-5.2089796 -15.626939 -16.792999
-5.3665638 -17.173006 -15.217157
-5.6015596 -19.045301 -12.867201
-4.7549953 21.397476 -9.4453564
-4.3915257 18.663982 -13.98872
-4.2365365 16.946142 -15.92609
-4.1275797 15.478424 -17.288046
-4.0415854 14.145546 -18.362982
-3.9698815 12.902113 -19.259279
-3.9135439 11.740629 -19.963497
-3.8660262 10.631571 -20.557472
-3.8260508 9.5651264 -21.057161
-3.7923717 8.532835 -21.478153
-3.7621367 7.5242734 -21.856083
-3.7402315 6.5454035 -22.1299
-3.7215149 5.5822697 -22.363861
-3.7035275 4.6294088 -22.588701
-3.6897278 3.6897259 -22.7612
-3.6790035 2.7592516 -22.895252
-3.6708624 1.8354301 -22.997013
-3.6679442 0.9169836 -23.033493
-3.6653128 -9.5367432e-07 -23.066389
-3.6678712 -0.91696835 -23.034405
-3.6711662 -1.8355846 -22.993221
-3.6793716 -2.7595282 -22.890652
-3.6892519 -3.6892509 -22.767147
-3.7030907 -4.6288633 -22.594164
-3.7199767 -5.5799637 -22.383087
-3.7413948 -6.5474424 -22.115364
-3.7655044 -7.5310073 -21.813993
-3.7961516 -8.5413418 -21.430901
-3.8292148 -9.5730371 -21.017609
-3.87585 -10.658587 -20.434671
-3.9236352 -11.770908 -19.837355
-3.9801674 -12.935545 -19.130703
-4.0545821 -14.191037 -18.200518
-4.137969 -15.517384 -17.158184
-4.2583289 -17.033316 -15.653689
-4.4314818 -18.833796 -13.489275
-3.4893391 20.936033 -10.727141
-3.2717347 18.539827 -14.353884
-3.1593833 16.850044 -16.226404
-3.0805531 15.402763 -17.540249
-3.0172353 14.080433 -18.595539
-2.9680109 12.861378 -19.415949
-2.9254282 11.701712 -20.12566
-2.8915477 10.602339 -20.690336
-2.8608398 9.5361309 -21.202133
-2.8370826 8.5112457 -21.598083
-2.8152099 7.507226 -21.962627
-2.7973063 6.5270472 -22.261026
-2.7833631 5.5667229 -22.493412
-2.7702575 4.6170969 -22.711838
-2.7601836 3.6802444 -22.87974
-2.7527702 2.7527685 -23.003294
-2.7466383 1.8310928 -23.105492
-2.7449203 0.91497231 -23.134125
-2.7433369 9.5367432e-07 -23.160515
-2.7453105 -0.91510391 -23.127623
-2.7483194 -1.8322153 -23.077477
-2.7541757 -2.7541752 -22.979868
-2.761873 -3.682498 -22.851578
-2.772079 -4.6201315 -22.68148
-2.7846556 -5.5693135 -22.471869
-2.8002188 -6.5338459 -22.212481
-2.8182917 -7.5154433 -21.91127
-2.8405466 -8.5216398 -21.540352
-2.867135 -9.5571156 -21.097212
-2.8985097 -10.627871 -20.574303
-2.933722 -11.734887 -19.987432
-2.9747689 -12.890665 -19.303314
-3.0294387 -14.13738 -18.392151
-3.0895629 -15.447814 -17.390081
-3.1762733 -16.940125 -15.944903
-3.2965457 -18.680426 -13.940366
-3.5432642 -21.259586 -9.828393
-2.3004112 20.703701 -11.372513
-2.1712749 18.455837 -14.600918
-2.1000776 16.800621 -16.380856
-2.0476584 15.357436 -17.691338
-2.0074189 14.051929 -18.697325
-1.973402 12.827112 -19.547741
-1.9473941 11.684364 -20.197941
-1.9234127 10.578768 -20.79748
-1.9048953 9.5244751 -21.260412
-1.8872346 8.4925518 -21.701931
-1.8743091 7.4972367 -22.02507
-1.8623133 6.518096 -22.324965
-1.8529205 5.5587597 -22.559784
-1.8455092 4.6137743 -22.745068
-1.8389394 3.6778803 -22.909311
-1.8334028 2.7501011 -23.047729
-1.8290005 1.8289995 -23.157787
-1.8274841 0.91374016 -23.195692
-1.8264626 9.5367432e-07 -23.22123
-1.827588 -0.91379738 -23.1931
-1.8292967 -1.8292971 -23.150375
-1.8328859 -2.7493267 -23.06065
-1.8380098 -3.6760187 -22.932547
-1.8447317 -4.6118288 -22.764503
-1.8532673 -5.5598011 -22.551117
-1.8634132 -6.5219455 -22.297466
-1.8756145 -7.5024586 -21.992437
-1.8905662 -8.5075483 -21.618641
-1.909031 -9.5451555 -21.157021
-1.9278543 -10.603198 -20.686436
-1.9511368 -11.70682 -20.104374
-1.9808173 -12.875313 -19.362362
-2.0133338 -14.093339 -18.549452
-2.0564709 -15.423533 -17.471025
-2.1101985 -16.881588 -16.127834
-2.1878366 -18.596613 -14.186879
-2.3355279 -21.019753 -10.494596
-1.1453956 20.617119 -11.613014
-1.0836124 18.421412 -14.702173
-1.0483183 16.773092 -16.466881
-1.0228726 15.343088 -17.73917
-1.0020717 14.029002 -18.779207
-0.9863624 12.822708 -19.56468
-0.97272295 11.672674 -20.246647
-0.96163732 10.578011 -20.800926
-0.95235181 9.5235186 -21.265203
-0.943717 8.4934492 -21.696949
-0.93704808 7.4963841 -22.030392
-0.93105161 6.5173607 -22.330215
-0.92614836 5.5568895 -22.575382
-0.92208838 4.6104403 -22.778381
-0.91889739 3.6755886 -22.937927
-0.91605431 2.7481613 -23.080084
-0.9137758 1.8275509 -23.194008
-0.91360462 0.91360378 -23.202568
-0.91343343 -0 -23.211124
-0.91373432 -0.91373539 -23.196081
-0.91436768 -1.8287354 -23.16441
-0.91619247 -2.7485781 -23.073172
-0.91873217 -3.6749277 -22.94619
-0.92198271 -4.6099167 -22.783661
-0.92617762 -5.5570679 -22.573914
-0.93122399 -6.5185685 -22.321594
-0.93744385 -7.4995508 -22.010601
-0.94470876 -8.5023804 -21.64736
-0.95380265 -9.5380268 -21.192665
-0.96307039 -10.593775 -20.729273
-0.97470272 -11.696433 -20.147659
-0.98948598 -12.863319 -19.408495
-1.0047247 -14.066147 -18.646561
-1.0267756 -15.401637 -17.544018
-1.0514693 -16.823509 -16.309326
-1.0906929 -18.54178 -14.348151
-1.1598686 -20.877634 -10.88937
0 20.695192 -11.396139
0 18.428053 -14.682644
0 16.780853 -16.442623
0 15.337674 -17.757208
0 14.038837 -18.744081
0 12.824007 -19.559689
0 11.675745 -20.233856
0 10.5857 -20.765989
0 9.5255756 -21.254917
0 8.4982128 -21.670506
0 7.4969287 -22.026981
0 6.5171347 -22.331833
0 5.5574017 -22.571114
0 4.6074848 -22.807949
0 3.6737661 -22.960739
0 2.7491465 -23.063652
0 1.8291597 -23.153757
0 0.91380405 -23.192577
0 -1.9073486e-06 -23.201141
0 -0.9139576 -23.184925
0 -1.8285885 -23.168049
0 -2.7481003 -23.081125
0 -3.674592 -22.950384
0 -4.6092806 -22.790001
0 -5.5573554 -22.571516
0 -6.5181909 -22.324293
0 -7.5056067 -21.972752
0 -8.5080719 -21.615728
0 -9.5352287 -21.206654
0 -10.59961 -20.702745
0 -11.705404 -20.110289
0 -12.86051 -19.419294
0 -14.087652 -18.569754
0 -15.409106 -17.51911
0 -16.85865 -16.199511
0 -18.548634 -14.328
0 -20.875902 -10.894176
1.1552429 20.794371 -11.120651
1.0875857 18.488955 -14.503513
1.0503061 16.804897 -16.367493
1.0246474 15.369711 -17.650427
1.0042669 14.059735 -18.669451
0.98807949 12.845031 -19.478825
0.97385913 11.68631 -20.18984
0.96303868 10.593425 -20.730858
0.95300615 9.5300598 -21.232491
0.94477528 8.5029793 -21.644032
0.93763781 7.501102 -22.000906
0.93122935 6.5186043 -22.321327
0.92699128 5.5619459 -22.53323
0.92279434 4.6139727 -22.74308
0.91960365 3.6784124 -22.902611
0.91754299 2.7526274 -23.00565
0.91580659 1.8316116 -23.092464
0.91451061 0.91451073 -23.157265
0.91384065 -1.9073486e-06 -23.190762
0.91435993 -0.91435909 -23.164799
0.91578579 -1.8315744 -23.093508
0.91754818 -2.7526445 -23.005388
0.9198429 -3.6793728 -22.890652
0.92302191 -4.6151114 -22.731701
0.92732519 -5.5639524 -22.516535
0.93243003 -6.5270081 -22.261297
0.93927151 -7.5141711 -21.91922
0.94630039 -8.5167036 -21.567776
0.95356804 -9.5356817 -21.204393
0.96498793 -10.61487 -20.6334
0.97685361 -11.722242 -20.040117
0.98910892 -12.858416 -19.427351
1.0079437 -14.111217 -18.485605
1.0277724 -15.416589 -17.494175
1.0566686 -16.906696 -16.049368
1.095445 -18.622566 -14.110545
1.1724052 -21.103294 -10.262534
2.3443749 21.099373 -10.273424
2.1868629 18.588331 -14.211226
2.1108284 16.886623 -16.112091
2.0557549 15.418159 -17.488924
2.0156224 14.109356 -18.492233
1.9830937 12.890108 -19.305452
1.9538318 11.72299 -20.037004
1.9310411 10.620724 -20.606766
1.9106859 9.5534286 -21.11565
1.8938147 8.5221653 -21.537426
1.8800465 7.5201869 -21.881634
1.8675383 6.5363855 -22.194336
1.857916 5.5737467 -22.434896
1.8494864 4.6237154 -22.645636
1.8430731 3.6861448 -22.805969
1.8374118 2.7561178 -22.9475
1.8340714 1.8340721 -23.03101
1.8314724 0.91573524 -23.095982
1.8304881 -1.9073486e-06 -23.120592
1.8324475 -0.91622448 -23.071606
1.8353057 -1.8353052 -23.000156
1.8388973 -2.7583466 -22.910362
1.8427881 -3.6855774 -22.813097
1.8491836 -4.6229591 -22.653206
1.8593276 -5.5779834 -22.399611
1.8695889 -6.5435634 -22.14307
1.8814809 -7.5259271 -21.845774
1.8955884 -8.5301485 -21.493086
1.9138104 -9.5690536 -21.037537
1.9339074 -10.636492 -20.535114
1.9577361 -11.746417 -19.939394
1.9864537 -12.911953 -19.221451
2.0221131 -14.154791 -18.329971
2.0635054 -15.476291 -17.295158
2.1217318 -16.973854 -15.839505
2.2041771 -18.735506 -13.778367
2.3714623 -21.343163 -9.5962372
3.5933099 21.559858 -8.994298
3.3075116 18.742565 -13.757604
3.1846654 16.984879 -15.805037
3.1007059 15.503529 -17.204369
3.0348382 14.162577 -18.30216
2.9860487 12.939542 -19.115322
2.9415071 11.766027 -19.857677
2.9066601 10.65775 -20.438465
2.8753579 9.5845261 -20.960163
2.8502743 8.5508213 -21.378227
2.8279583 7.5412226 -21.75016
2.8097372 6.5560532 -22.053844
2.7936316 5.5872622 -22.322271
2.7803972 4.633997 -22.542841
2.7708459 3.694459 -22.702034
2.7614703 2.7614679 -22.858292
2.757133 1.8380899 -22.93058
2.7557559 0.91858578 -22.953531
2.7547178 -0 -22.970833
2.7554648 -0.91849136 -22.958384
2.7585905 -1.8390627 -22.90629
2.7640793 -2.7640791 -22.814812
2.7719197 -3.6958942 -22.684132
2.7818713 -4.6364527 -22.518272
2.796804 -5.5936084 -22.269398
2.8118975 -6.5610962 -22.017839
2.8271549 -7.5390811 -21.763546
2.8531127 -8.5593395 -21.330917
2.8807888 -9.6026306 -20.869648
2.9089983 -10.666327 -20.39949
2.9464443 -11.785777 -19.775389
2.9922955 -12.966615 -19.011204
3.0435441 -14.203206 -18.157063
3.113977 -15.569882 -16.983183
3.2007346 -17.070585 -15.537222
3.3345971 -18.896049 -13.306182
4.4743319 19.015909 -12.953649
4.282311 17.129244 -15.353907
4.1592531 15.597198 -16.89213
4.0713296 14.249654 -17.99118
3.9999053 12.999691 -18.88398
3.937593 11.812778 -19.662884
3.8907623 10.699596 -20.248264
3.8467679 9.6169176 -20.798199
3.8139446 8.5813742 -21.208488
3.7816765 7.5633516 -21.611839
3.7576234 6.57584 -21.912498
3.7368767 5.6053114 -22.171839
3.7182038 4.6477528 -22.405247
3.7077622 3.7077589 -22.535769
3.6975386 2.7731552 -22.663567
3.69014 1.8450699 -22.756042
3.6861463 0.92153645 -22.805969
3.6850064 -2.8610229e-06 -22.820217
3.6860089 -0.92150211 -22.807686
3.6870644 -1.8435345 -22.794489
3.6978998 -2.7734261 -22.65905
3.7107441 -3.7107468 -22.498493
3.7236893 -4.6546097 -22.336681
3.7407966 -5.6111979 -22.122837
3.7613454 -6.5823541 -21.86598
3.7887778 -7.5775576 -21.523075
3.8189118 -8.5925503 -21.146402
3.8560205 -9.6400528 -20.682539
3.8968871 -10.71644 -20.171709
3.9492867 -11.847861 -19.516716
4.0098729 -13.032089 -18.759386
4.0828738 -14.290058 -17.846878
4.1791019 -15.671636 -16.64402
4.3080206 -17.232086 -15.032534
4.5074358 -19.156601 -12.539852
5.7038159 19.392971 -11.844639
5.4218593 17.349947 -14.664205
5.2498856 15.749657 -16.38394
5.131422 14.367979 -17.568577
5.0374627 13.097403 -18.508167
4.9567418 11.896179 -19.31538
4.8935666 10.765843 -19.947134
4.8360472 9.6720943 -20.522324
4.7929058 8.6272278 -20.953739
4.7526317 7.6042075 -21.356482
4.7205367 6.6087523 -21.677429
4.695261 5.6343145 -21.930182
4.6724792 4.6724796 -22.158005
4.6544499 3.7235584 -22.338297
4.6415477 2.7849274 -22.467316
4.6327815 1.8531103 -22.554985
4.6247787 0.92495441 -22.635002
4.6214318 -9.5367432e-07 -22.668478
4.6272259 -0.9254446 -22.610535
4.633595 -1.8534374 -22.546843
4.6429138 -2.7857504 -22.453657
4.6584792 -3.7267838 -22.298004
4.6741624 -4.674161 -22.141176
4.6925364 -5.6310444 -21.95743
4.7266517 -6.6173139 -21.61628
4.7613087 -7.6180954 -21.269714
4.7964773 -8.6336594 -20.918026
4.8418679 -9.6837368 -20.464117
4.9019594 -10.784313 -19.863203
4.9650006 -11.916002 -19.232788
5.0468316 -13.121764 -18.414478
5.144711 -14.405193 -17.435684
5.2729206 -15.818761 -16.153593
5.4510813 -17.443459 -14.371984
5.7597771 -19.583242 -11.285025
7.1066103 20.135395 -9.6610432
6.6149101 17.639759 -13.758546
6.3821731 15.955433 -15.69802
6.2092485 14.488246 -17.139059
6.0922542 13.199881 -18.114012
5.9942145 11.988428 -18.931009
5.9126472 10.839853 -19.610737
5.8441982 9.7403278 -20.181143
5.7869773 8.6804657 -20.657982
5.7375927 7.6501226 -21.069523
5.698967 6.6487918 -21.391405
5.6636305 5.6636295 -21.685875
5.6369781 4.6974802 -21.907978
5.6144257 3.7429495 -22.095913
5.5936079 2.7968025 -22.269402
5.585146 1.8617144 -22.339912
5.5803041 0.93005085 -22.380264
5.5761304 9.5367432e-07 -22.415043
5.5831437 -0.93052483 -22.3566
5.590353 -1.8634529 -22.296524
5.5981159 -2.7990589 -22.231831
5.6155686 -3.7437134 -22.086391
5.6408973 -4.7007494 -21.875319
5.6691508 -5.6691523 -21.639874
5.7031751 -6.6537046 -21.356339
5.7451382 -7.6601844 -21.006645
5.7918205 -8.6877337 -20.617626
5.8519735 -9.7532883 -20.116348
5.9233847 -10.85954 -19.521257
5.9984789 -11.996959 -18.895475
6.1092739 -13.23676 -17.972178
6.22715 -14.530018 -16.989878
6.4056525 -16.014133 -15.502358
6.6495805 -17.732214 -13.469627
7.8896976 18.033592 -12.527814
7.553546 16.186169 -14.928894
7.3399258 14.679852 -16.454754
7.1851597 13.343865 -17.56023
7.0548115 12.093961 -18.491289
6.9518805 10.924382 -19.226507
6.8666754 9.809536 -19.835115
6.7989707 8.7415314 -20.31872
6.7354059 7.697607 -20.772751
6.6903596 6.6903586 -21.094515
6.6463227 5.6968489 -21.409061
6.613718 4.7240839 -21.641953
6.5891118 3.7652035 -21.817711
6.5684404 2.8150444 -21.965364
6.559948 1.8742704 -22.026028
6.5538025 0.93625641 -22.06992
6.5481067 -1.9073486e-06 -22.110607
6.5513058 -0.9359026 -22.087757
6.5596042 -1.8741732 -22.028482
6.5711799 -2.8162193 -21.945793
6.5938764 -3.7679262 -21.783682
6.6267915 -4.7334218 -21.548569
6.6603336 -5.7088552 -21.308985
6.6943955 -6.6943951 -21.065687
6.7471466 -7.7110248 -20.688892
6.8123145 -8.7586908 -20.22341
6.880034 -9.828619 -19.739697
6.9665637 -10.94746 -19.121626
7.0739732 -12.126811 -18.354418
7.2028031 -13.376636 -17.434204
7.3658934 -14.731788 -16.269276
7.5853891 -16.254406 -14.701447
7.9473681 -18.165413 -12.115881
9.3778753 18.755749 -10.271078
8.8114882 16.521542 -13.810994
8.5147429 14.900798 -15.665657
8.3203344 13.520544 -16.880703
8.1571312 12.235697 -17.900723
8.0367689 11.050556 -18.652994
7.9268551 9.9085693 -19.339951
7.8468161 8.8276672 -19.840197
7.7695489 7.7695503 -20.323116
7.7043562 6.7413111 -20.73057
7.6557426 5.7418046 -21.034405
7.6184545 4.7615347 -21.267458
7.5815496 3.7907715 -21.498112
7.5623755 2.8358898 -21.617947
7.5492487 1.887311 -21.699993
7.5418406 0.94273186 -21.746292
7.5344687 -1.9073486e-06 -21.792366
7.5340719 -0.94175816 -21.794844
7.5533237 -1.8883324 -21.674522
7.5726962 -2.8397608 -21.553442
7.5945659 -3.7972832 -21.416759
7.6264877 -4.7665563 -21.217243
7.6654983 -5.749125 -20.973433
7.7181439 -6.7533765 -20.644394
7.7810545 -7.7810526 -20.251205
7.8543324 -8.8361244 -19.793219
7.9314952 -9.9143677 -19.310951
8.0483503 -11.066482 -18.580606
8.1730051 -12.259508 -17.801514
8.3389292 -13.55076 -16.764488
8.5454054 -14.954462 -15.47401
8.8636351 -16.619318 -13.485077
9.5453196 -19.090641 -9.2245483
10.196282 16.993803 -12.23678
9.7856255 15.222083 -14.518209
9.5065222 13.731643 -16.068787
9.2952814 12.393705 -17.242346
9.1494656 11.182678 -18.052429
9.0186176 10.020685 -18.779362
8.9200191 8.9200172 -19.327133
8.8321896 7.8508348 -19.815071
8.7525749 6.8075576 -20.257378
8.6935711 5.7957168 -20.585175
8.6454878 4.8030462 -20.852308
8.6086407 3.8260632 -21.057014
8.581604 2.8605337 -21.207218
8.5553942 1.9011974 -21.352829
8.5534992 0.950387 -21.363356
8.5536251 -0 -21.362656
8.556304 -0.95070267 -21.347775
8.5688591 -1.904192 -21.278027
8.5918379 -2.8639469 -21.150366
8.6168871 -3.8297272 -21.011204
8.6491022 -4.8050551 -20.83223
8.7075539 -5.8050351 -20.507494
8.7691374 -6.8204417 -20.165363
8.8373375 -7.8554111 -19.786478
8.9295893 -8.9295902 -19.273968
9.037528 -10.0417 -18.674307
9.1691036 -11.206682 -17.943333
9.3304644 -12.440619 -17.046885
9.5418472 -13.78267 -15.872529
9.8231277 -15.28042 -14.309868
10.309515 -17.182526 -11.60771
11.17868 15.650153 -12.989391
10.789586 14.02646 -14.934863
10.521465 12.625758 -16.275469
10.320374 11.352408 -17.280931
10.160393 10.160392 -18.08083
10.029399 9.0264587 -18.735798
9.9273052 7.9418445 -19.246269
9.8319225 6.8823423 -19.723183
9.7715015 5.8629036 -20.025288
9.7117891 4.8558955 -20.323849
9.666604 3.866641 -20.549782
9.6392717 2.8917799 -20.686436
9.6144199 1.922883 -20.810698
9.597332 0.95973206 -20.896137
9.5974751 -0 -20.895424
9.6021137 -0.96021461 -20.872227
9.6071587 -1.9214344 -20.847004
9.6347122 -2.8904123 -20.709234
9.6775618 -3.8710265 -20.494984
9.7207956 -4.8603988 -20.27882
9.7827892 -5.8696752 -19.968853
9.8490438 -6.89433 -19.637575
9.9350281 -7.9480219 -19.207653
10.052331 -9.0470972 -18.621145
10.172436 -10.172436 -18.020615
10.34203 -11.376234 -17.172647
10.548158 -12.657789 -16.142012
10.828285 -14.076773 -14.741369
11.23668 -15.731354 -12.699392
12.98968 16.532318 -9.8387976
12.225758 14.448622 -13.31117
11.809158 12.882715 -15.204807
11.566541 11.56654 -16.307611
11.363087 10.330077 -17.232405
11.208244 9.1703796 -17.936234
11.079643 8.0579224 -18.520779
10.975492 6.9844012 -18.994196
10.887191 5.9384675 -19.395561
10.821397 4.9188175 -19.694626
10.765616 3.9147673 -19.948174
10.723224 2.9245138 -20.140869
10.698174 1.9451199 -20.25473
10.675784 0.97052383 -20.356506
10.663531 -9.5367432e-07 -20.412197
10.681711 -0.97106647 -20.329565
10.699953 -1.9454479 -20.246649
10.730342 -2.9264584 -20.108513
10.773775 -3.9177361 -19.911095
10.818057 -4.9172993 -19.709812
10.89168 -5.9409156 -19.375158
10.989086 -6.9930558 -18.932407
11.08825 -8.0641832 -18.481659
11.221105 -9.1809034 -17.877773
11.391608 -10.35601 -17.10276
11.600121 -11.600122 -16.15497
11.875951 -12.955584 -14.901202
12.271996 -14.503267 -13.100998
13.275174 -16.895678 -8.5410929
14.019629 15.18793 -10.467679
13.306401 13.3064 -13.439458
12.938828 11.860593 -14.971011
12.648626 10.540522 -16.180185
12.453738 9.3403034 -16.992224
12.271585 8.1810551 -17.751198
12.154751 7.0902705 -18.238005
12.046241 6.023119 -18.690125
11.963398 4.9847474 -19.035305
11.906046 3.9686823 -19.274273
11.849277 2.9623184 -19.510805
11.826526 1.9710855 -19.605608
11.81137 0.98427868 -19.668755
11.800291 -9.5367432e-07 -19.71492
11.814405 -0.98453617 -19.656111
11.829641 -1.9716072 -19.592625
11.858774 -2.9646955 -19.471241
11.91567 -3.9718924 -19.234171
11.98508 -4.9937849 -18.94496
12.072941 -6.0364718 -18.578873
12.178284 -7.1039987 -18.139946
12.297727 -8.1984844 -17.642267
12.483083 -9.3623123 -16.869947
12.678482 -10.565402 -16.055786
12.970681 -11.889792 -14.838288
13.344656 -13.344657 -13.28006
14.192536 -15.375249 -9.7472286
15.2585 14.084768 -10.196256
14.49985 12.269104 -13.114142
14.07895 10.829959 -14.73299
13.820595 9.5681028 -15.72666
13.601244 8.3699961 -16.570316
13.440578 7.2372332 -17.188265
13.30851 6.1423888 -17.69622
13.200633 5.0771661 -18.111128
13.124891 4.0384264 -18.402445
13.060075 3.0138636 -18.651735
13.023202 2.0035686 -18.793552
12.997229 0.99978733 -18.893456
12.975502 -0 -18.977022
12.991336 -0.99933624 -18.916121
13.024743 -2.003809 -18.787628
13.063827 -3.0147309 -18.63731
13.134615 -4.0414209 -18.365044
13.206176 -5.0792966 -18.089813
13.3036 -6.1401258 -17.715101
13.459604 -7.247479 -17.115088
13.619309 -8.3811131 -16.500835
13.841904 -9.5828571 -15.644706
14.137802 -10.875233 -14.506635
14.581008 -12.337779 -12.801999
15.497584 -14.305462 -9.276701
17.020584 13.373316 -8.0949974
15.829901 11.307071 -12.347437
15.369186 9.8801918 -13.992841
15.060231 8.6058435 -15.096254
14.81603 7.4080133 -15.968405
14.651067 6.2790284 -16.557558
14.49603 5.1771526 -17.111259
14.416438 4.1189818 -17.395519
14.33776 3.0723772 -17.676512
14.285844 2.040834 -17.861929
14.270278 1.0193024 -17.917515
14.254702 -2.8610229e-06 -17.973145
14.273081 -1.0195084 -17.907507
14.301715 -2.0431061 -17.805246
14.336711 -3.0721521 -17.68026
14.428394 -4.1223989 -17.352814
14.542304 -5.1936817 -16.945995
14.67507 -6.2893167 -16.471834
14.846934 -7.4234662 -15.858034
15.086101 -8.6206303 -15.003866
15.405078 -9.903264 -13.864658
15.9127 -11.366215 -12.051727
17.414032 10.448419 -10.836023
16.797194 8.9584999 -12.892154
16.401136 7.653863 -14.212339
16.185247 6.4740973 -14.931971
15.98576 5.3285847 -15.59693
15.86133 4.2296863 -16.011696
15.75418 3.1508355 -16.368864
15.68049 2.0907302 -16.614494
15.649837 1.0433207 -16.716671
15.619304 -1.9073486e-06 -16.818449
15.641369 -1.0427604 -16.7449
15.701655 -2.0935559 -16.543941
15.762462 -3.1524935 -16.341255
15.873899 -4.2330441 -15.969797
15.997415 -5.3324733 -15.558081
16.204481 -6.4817929 -14.86786
16.459574 -7.6811342 -14.017548
16.835035 -8.9786844 -12.76601
17.490566 -10.494343 -10.580912
18.59939 8.1372318 -10.759704
18.062187 6.7733178 -12.43846
17.74884 5.5465093 -13.417673
17.526642 4.3816609 -14.112041
17.384041 3.2595038 -14.557672
17.266752 2.1583405 -14.924191
17.230007 1.0768747 -15.039023
17.200653 -9.5367432e-07 -15.130751
17.210888 -1.0756817 -15.098773
17.275385 -2.1594272 -14.897218
17.379169 -3.2585959 -14.572891
17.550537 -4.3876357 -14.037369
17.732641 -5.5414524 -13.468288
18.109257 -6.7909718 -12.291368
18.683275 -8.173934 -10.497562
19.830042 4.6658926 -10.559143
19.506161 3.4422607 -11.511735
19.290884 2.2695174 -12.144905
19.200907 1.1294637 -12.409538
19.139177 -9.5367432e-07 -12.591095
19.179838 -1.1282263 -12.471508
19.31888 -2.2728095 -12.062561
19.553009 -3.4505284 -11.373949
19.837664 -4.667685 -10.536728
