# .PCD v0.7 - Point Cloud Data file format
VERSION 0.7
FIELDS x y z
SIZE 4 4 4
TYPE F F F
COUNT 1 1 1
WIDTH 1060
HEIGHT 1
VIEWPOINT 0 0 0 1 0 0 0
POINTS 1060
DATA ascii
-22.959808 1.2084088 -8.4622498
-23.305378 -4.7683716e-07 -7.5528522
-21.510384 7.1701236 -9.131731
-20.69453 5.7484798 -11.397987
-20.375278 4.5278401 -12.2848
-20.129807 3.3549662 -12.966669
-19.985147 2.2205729 -13.368494
-19.842554 1.1023631 -13.764587
-19.860037 1.9073486e-06 -13.716023
-19.906582 -1.1059208 -13.586735
-19.981495 -2.2201676 -13.378643
-20.161613 -3.3602686 -12.878317
-20.37915 -4.5286989 -12.274047
-20.865376 -5.795938 -10.923415
-19.876797 9.3537865 -10.421625
-19.173855 7.8951159 -12.489102
-18.769573 6.6245556 -13.678173
-18.492643 5.4390135 -14.492666
-18.310989 4.3084664 -15.026949
-18.169783 3.2064309 -15.442258
-18.115515 2.1312351 -15.601871
-18.061571 1.0624442 -15.76053
-18.007887 9.5367432e-07 -15.918419
-18.062166 -1.06248 -15.758776
-18.128061 -2.1327152 -15.564974
-18.21109 -3.2137241 -15.320766
-18.367605 -4.3217888 -14.860426
-18.547247 -5.4550753 -14.332067
-18.856453 -6.6552205 -13.422645
-19.222427 -7.915122 -12.346247
-20.076138 -9.4475956 -9.83533
-19.109272 11.943294 -9.1663208
-18.03669 10.145637 -12.518141
-17.576536 8.7882662 -13.956118
-17.243219 7.5439067 -14.997734
-17.016653 6.3812437 -15.705755
-16.846518 5.2645373 -16.237429
-16.707623 4.1769052 -16.671478
-16.618059 3.1158853 -16.951363
-16.549801 2.0687246 -17.164673
-16.536406 1.0335264 -17.206526
-16.524042 -2.8610229e-06 -17.245165
-16.52733 -1.0329599 -17.23489
-16.575638 -2.0719552 -17.083927
-16.638842 -3.119781 -16.886417
-16.739286 -4.1848226 -16.572523
-16.894938 -5.2796688 -16.086117
-17.063627 -6.3988585 -15.558963
-17.322401 -7.5785542 -14.750296
-17.639399 -8.8196993 -13.759679
-18.160992 -10.215559 -12.129697
-19.437557 -12.148479 -8.1404305
-17.257465 12.655473 -11.357915
-16.599827 11.066549 -13.550037
-16.212645 9.7275839 -14.84065
-15.925693 8.4937019 -15.797154
-15.708196 7.3304915 -16.522141
-15.535561 6.2142248 -17.097595
-15.399962 5.1333199 -17.549587
-15.322487 4.0859947 -17.80784
-15.256388 3.0512762 -18.02817
-15.190808 2.0254402 -18.246769
-15.163419 1.0108929 -18.338068
-15.160847 -1.9073486e-06 -18.346638
-15.166278 -1.0110865 -18.328543
-15.207892 -2.02772 -18.189819
-15.260439 -3.0520897 -18.014666
-15.32239 -4.0859733 -17.808163
-15.441045 -5.1470156 -17.412645
-15.572897 -6.2291603 -16.973137
-15.742723 -7.3466058 -16.407055
-15.989412 -8.5276918 -15.584752
-16.282146 -9.769289 -14.608972
-16.71484 -11.143229 -13.166664
-17.480558 -12.819077 -10.614268
-15.969155 13.687847 -11.850098
-15.359861 12.06846 -14.026149
-14.990233 10.70731 -15.34625
-14.719273 9.462388 -16.313965
-14.510409 8.2916622 -17.059902
-14.339813 7.1699052 -17.669178
-14.225404 6.0966001 -18.077787
-14.117359 5.041913 -18.463654
-14.032151 4.0091848 -18.767971
-13.970714 2.9937239 -18.987389
-13.930499 1.9900703 -19.131018
-13.906206 0.99329948 -19.217772
-13.90492 -0 -19.22237
-13.903632 -0.99311733 -19.226967
-13.922794 -1.9889708 -19.158535
-13.983157 -2.9963918 -18.942945
-14.044047 -4.012588 -18.725483
-14.129844 -5.0463743 -18.419067
-14.23898 -6.1024194 -18.029297
-14.36505 -7.1825266 -17.579048
-14.552826 -8.3159008 -16.908419
-14.74654 -9.4799194 -16.216583
-15.051779 -10.751269 -15.126442
-15.411138 -12.108754 -13.843019
-16.050278 -13.757381 -11.560375
-14.820991 14.820991 -11.878983
-14.216106 13.122557 -14.205467
-13.848639 11.718079 -15.618798
-13.583537 10.448874 -16.638424
-13.37796 9.2616634 -17.429106
-13.214059 8.1317272 -18.059494
-13.087119 7.0469122 -18.547718
-12.987787 5.9943614 -18.929771
-12.892255 4.9585581 -19.297203
-12.823182 3.9455948 -19.562864
-12.783336 2.9499998 -19.716122
-12.744356 1.9606686 -19.866043
-12.71237 0.97787285 -19.989063
-12.717393 -9.5367432e-07 -19.969746
-12.729234 -0.97917271 -19.924206
-12.744589 -1.9607058 -19.865147
-12.78994 -2.9515238 -19.690722
-12.835613 -3.9494176 -19.515049
-12.898415 -4.9609313 -19.273508
-12.996017 -5.9981608 -18.898113
-13.10405 -7.0560279 -18.482607
-13.241076 -8.1483555 -17.955584
-13.421692 -9.2919426 -17.260902
-13.634 -10.487693 -16.444332
-13.913623 -11.773066 -15.368859
-14.303983 -13.203677 -13.86748
-14.950804 -14.950804 -11.379704
-13.753168 16.045361 -11.577933
-13.130457 14.22466 -14.172561
-12.770466 12.770465 -15.672521
-12.502238 11.460382 -16.790134
-12.298744 10.248953 -17.638027
-12.136567 9.1024246 -18.313763
-12.003147 8.0020971 -18.869686
-11.888343 6.934866 -19.348034
-11.81596 5.9079785 -19.649632
-11.747239 4.89468 -19.93597
-11.679348 3.893116 -20.218847
-11.642904 2.9107265 -20.370697
-11.616463 1.9360781 -20.480865
-11.593064 0.96608829 -20.578358
-11.595606 1.9073486e-06 -20.567774
-11.600307 -0.96669483 -20.548183
-11.607944 -1.9346571 -20.516367
-11.64617 -2.9115419 -20.357094
-11.696078 -3.8986936 -20.149134
-11.746417 -4.8943405 -19.939396
-11.8283 -5.9141507 -19.598211
-11.920746 -6.9537683 -19.213022
-12.031866 -8.021245 -18.750021
-12.173294 -9.1299686 -18.160738
-12.321267 -10.267724 -17.54418
-12.554546 -11.508336 -16.572187
-12.81275 -12.812751 -15.496338
-13.221441 -14.323227 -13.79346
-13.905542 -16.223133 -10.943038
-12.908449 17.60243 -10.208026
-12.129288 15.437273 -13.749671
-11.752273 13.889049 -15.463372
-11.48079 12.5245 -16.697386
-11.273669 11.273667 -17.638844
-11.108465 10.098604 -18.389772
-10.972703 8.977663 -19.006878
-10.871243 7.9063578 -19.468054
-10.774628 6.8565784 -19.907219
-10.704385 5.8387547 -20.226498
-10.640615 4.8366423 -20.516365
-10.587312 3.8499308 -20.758654
-10.55782 2.8794031 -20.892704
-10.533349 1.9151525 -21.003941
-10.512391 0.95567131 -21.099197
-10.510769 1.9073486e-06 -21.106575
-10.52039 -0.95640182 -21.062843
-10.532784 -1.9150524 -21.006502
-10.56264 -2.8807192 -20.870794
-10.599993 -3.8545437 -20.701012
-10.645095 -4.8386803 -20.496
-10.712709 -5.8433003 -20.188662
-10.787958 -6.865067 -19.846621
-10.872378 -7.9071865 -19.462894
-11.000628 -9.0005169 -18.879942
-11.137227 -10.124752 -18.259037
-11.310156 -11.310156 -17.472998
-11.523131 -12.570689 -16.504929
-11.811285 -13.958793 -15.195134
-12.226855 -15.561456 -13.306178
-13.116207 -17.88574 -9.2636719
-11.210417 16.815624 -12.830714
-10.760582 15.064816 -15.079888
-10.476937 13.620021 -16.498106
-10.269197 12.323035 -17.536808
-10.103772 11.114149 -18.363934
-9.9695911 9.9695911 -19.034842
-9.8633213 8.8769875 -19.566191
-9.7741728 7.8193383 -20.011932
-9.6866217 6.7806339 -20.449692
-9.6279097 5.7767448 -20.743248
-9.5816727 4.7908363 -20.97443
-9.5358782 3.8143501 -21.203407
-9.5077906 2.8523378 -21.343842
-9.485261 1.8970518 -21.456493
-9.4684334 0.9468441 -21.540632
-9.4675417 -1.9073486e-06 -21.545088
-9.4753189 -0.9475317 -21.506203
-9.486351 -1.8972702 -21.451042
-9.510376 -2.8531151 -21.330917
-9.543457 -3.8173857 -21.165512
-9.5801334 -4.7900658 -20.982132
-9.634799 -5.78088 -20.708801
-9.7076302 -6.7953415 -20.344646
-9.7820454 -7.8256392 -19.972569
-9.8834648 -8.8951168 -19.465473
-9.9914112 -9.9914103 -18.925739
-10.134572 -11.148028 -18.209938
-10.303885 -12.36466 -17.363375
-10.525802 -13.683543 -16.253786
-10.813114 -15.138359 -14.817225
-11.280993 -16.92149 -12.477838
-10.511516 18.687138 -10.485488
-9.9782534 16.630423 -13.448053
-9.5075512 14.789525 -16.063066
-9.2958775 13.427376 -17.239035
-9.1269779 12.169302 -18.177364
-8.9910431 10.989052 -18.932562
-8.8789482 9.8654957 -19.555304
-8.7888012 8.7888002 -20.056122
-8.712924 7.7448206 -20.477665
-8.6432695 6.7225399 -20.864634
-8.5918884 5.7279215 -21.150085
-8.548728 4.7492933 -21.389864
-8.5059986 3.7804422 -21.627247
-8.4831791 2.8277254 -21.754026
-8.4683723 1.8818579 -21.836288
-8.4563313 0.93959141 -21.903179
-8.4541597 -0 -21.915245
-8.4585295 -0.93983936 -21.89097
-8.4644365 -1.8809853 -21.858147
-8.4840984 -2.8280315 -21.748915
-8.5176802 -3.7856398 -21.562349
-8.5526152 -4.751451 -21.368267
-8.5993366 -5.7328925 -21.108704
-8.6570902 -6.733295 -20.787853
-8.7154408 -7.7470613 -20.46368
-8.8007383 -8.8007393 -19.989807
-8.9000111 -9.8889036 -19.43829
-9.0105658 -11.012913 -18.824097
-9.1605778 -12.214105 -17.990698
-9.3224163 -13.465714 -17.091595
-9.5674725 -14.882733 -15.730171
-9.8896379 -16.482729 -13.940365
-10.461741 -18.598654 -10.762011
-9.2361746 18.472345 -11.156711
-8.7726974 16.448807 -14.053437
-8.3532686 14.618219 -16.674868
-8.1695814 13.27557 -17.82291
-8.0303011 12.04545 -18.693413
-7.9113879 10.878157 -19.436619
-7.8214288 9.7767849 -19.998869
-7.7427244 8.7105656 -20.490765
-7.6804538 7.6804528 -20.879961
-7.6227627 6.6699157 -21.240532
-7.5758162 5.68186 -21.533943
-7.5386605 4.7116613 -21.766169
-7.5064168 3.7532072 -21.96769
-7.4855957 2.8070993 -22.09782
-7.4694605 1.8673639 -22.198669
-7.4602828 0.93253422 -22.256025
-7.4583812 -0 -22.267912
-7.4600019 -0.93250179 -22.257782
-7.4716277 -1.8679075 -22.18512
-7.4869242 -2.8075962 -22.089523
-7.5114751 -3.7557373 -21.936071
-7.5432105 -4.71451 -21.737732
-7.5807233 -5.6855426 -21.503273
-7.6318231 -6.6778474 -21.183899
-7.6836853 -7.6836839 -20.859762
-7.7545252 -8.7238426 -20.417017
-7.8407936 -9.800993 -19.877832
-7.9357977 -10.91172 -19.284058
-8.0537376 -12.080609 -18.546932
-8.1856604 -13.301698 -17.722424
-8.3687725 -14.645353 -16.577969
-8.6193295 -16.161245 -15.011985
-8.9867716 -17.973543 -12.715476
-8.4295664 20.471802 -8.6716042
-7.9898171 18.262434 -11.812678
-7.5931873 16.271112 -14.645745
-7.2341208 14.468239 -17.210508
-7.0803323 13.149187 -18.308996
-6.9657021 11.9412 -19.127783
-6.8703818 10.796312 -19.80864
-6.7920828 9.7029743 -20.367916
-6.7266178 8.6485062 -20.835529
-6.6756287 7.6292911 -21.19973
-6.6287227 6.6287189 -21.534779
-6.5907507 5.6492147 -21.806004
-6.5601583 4.6858253 -22.024525
-6.5309649 3.7319794 -22.233046
-6.5146093 2.791976 -22.349873
-6.5040765 1.858305 -22.425106
-6.495563 0.92793846 -22.485922
-6.4940829 -9.5367432e-07 -22.496487
-6.4971919 -0.92817116 -22.474281
-6.5013924 -1.8575382 -22.444279
-6.5152497 -2.7922478 -22.345299
-6.5385857 -3.7363348 -22.178616
-6.5639234 -4.6885176 -21.997629
-6.5950918 -5.6529374 -21.774998
-6.6367288 -6.6367283 -21.477591
-6.6784592 -7.6325254 -21.179518
-6.7344599 -8.6585922 -20.77951
-6.8032413 -9.7189169 -20.288216
-6.8819885 -10.814556 -19.725735
-6.9785838 -11.963287 -19.035769
-7.0914092 -13.169758 -18.229876
-7.2430754 -14.48615 -17.146544
-7.4344172 -15.930896 -15.779813
-7.6988802 -17.597445 -13.890791
-8.2750874 -20.096642 -9.7750301
-7.139957 20.229876 -9.3831558
-6.7714677 18.057245 -12.453903
-6.4388885 16.097221 -15.22539
-6.1380153 14.322032 -17.732672
-6.0205665 13.044559 -18.711409
-5.9305344 11.861067 -19.461678
-5.8504667 10.725855 -20.128908
-5.7877412 9.6462326 -20.651623
-5.7360249 8.6040363 -21.08259
-5.6934385 7.5912533 -21.437475
-5.6520591 6.5940666 -21.782305
-5.6226487 5.6226501 -22.02739
-5.5967531 4.6639585 -22.243187
-5.573185 3.715457 -22.439587
-5.5595617 2.7797823 -22.553114
-5.5488896 1.8496304 -22.642048
-5.5402927 0.92337894 -22.713692
-5.5398312 9.5367432e-07 -22.717533
-5.5433941 -0.9238987 -22.687845
-5.548985 -1.8496628 -22.641254
-5.5603461 -2.7801771 -22.546577
-5.5784659 -3.718976 -22.395578
-5.5988464 -4.6657028 -22.225742
-5.6262527 -5.6262531 -21.997355
-5.6608739 -6.6043539 -21.708845
-5.6954203 -7.5938931 -21.420961
-5.7431903 -8.6147861 -21.022877
-5.8023496 -9.6705837 -20.529884
-5.8653765 -10.753192 -20.004658
-5.9423242 -11.884649 -19.36343
-6.0311728 -13.067541 -18.623026
-6.1449499 -14.338217 -17.674883
-6.296042 -15.740105 -16.415779
-6.4963374 -17.323568 -14.74665
-6.8375502 -19.373058 -11.90321
-5.880342 19.99316 -10.079379
-5.5801916 17.856613 -13.080879
-5.3089843 15.926952 -15.792952
-5.0727654 14.203743 -18.155144
-4.9900823 12.974212 -18.981976
-4.9124346 11.789844 -19.75845
-4.8506689 10.671473 -20.376106
-4.8015442 9.6030865 -20.867359
-4.7610269 8.56985 -21.27253
-4.723793 7.5580668 -21.644863
-4.6873693 6.562315 -22.009102
-4.6656508 5.5987787 -22.226284
-4.6459837 4.6459827 -22.42296
-4.6264944 3.7011948 -22.617853
-4.6163144 2.7697878 -22.719654
-4.6067986 1.84272 -22.814806
-4.5981236 0.91962242 -22.901558
-4.5979791 -1.9073486e-06 -22.903004
-4.6026483 -0.92053127 -22.856319
-4.6073265 -1.8429327 -22.809534
-4.6174269 -2.7704554 -22.708525
-4.6313548 -3.7050838 -22.569252
-4.6453667 -4.6453648 -22.429131
-4.6668553 -5.6002245 -22.214241
-4.6973033 -6.5762277 -21.90976
-4.7281518 -7.5650411 -21.60128
-4.766315 -8.5793695 -21.219646
-4.8109322 -9.6218653 -20.773474
-4.861763 -10.69588 -20.265165
-4.9271154 -11.825077 -19.611641
-4.9960318 -12.989682 -18.922482
-5.0898862 -14.251681 -17.983936
-5.2052894 -15.615871 -16.829903
-5.3540821 -17.133064 -15.341974
-5.5978184 -19.032579 -12.904615
-4.9108686 22.098911 -7.4969349
-4.6498809 19.761995 -10.759283
-4.4150972 17.660387 -13.694078
-4.2027469 15.760303 -16.348461
-4.0375791 14.131526 -18.413054
-3.9693184 12.900282 -19.266321
-3.9135797 11.740738 -19.963051
-3.86692 10.634029 -20.546293
-3.8253689 9.5634193 -21.065689
-3.794507 8.5376425 -21.451458
-3.766639 7.5332785 -21.799805
-3.7400033 6.5450039 -22.132755
-3.7218804 5.5828218 -22.359291
-3.7039216 4.629899 -22.583775
-3.6874342 3.6874332 -22.789865
-3.6809497 2.7607126 -22.870922
-3.6748865 1.8374405 -22.946716
-3.6688435 0.91720772 -23.022255
-3.6693244 -2.8610229e-06 -23.016241
-3.6705277 -0.91763401 -23.001202
-3.6724961 -1.8362494 -22.976593
-3.6810763 -2.760807 -22.869347
-3.6935389 -3.6935406 -22.71356
-3.7062998 -4.6328745 -22.554049
-3.7234952 -5.5852451 -22.339104
-3.7444634 -6.552814 -22.077
-3.768955 -7.5379076 -21.770861
-3.7996924 -8.5493088 -21.386639
-3.8342791 -9.5856981 -20.954309
-3.8701289 -10.642855 -20.506184
-3.9247954 -11.77439 -19.822851
-3.9817555 -12.940708 -19.110853
-4.0486779 -14.170371 -18.274324
-4.1395788 -15.523421 -17.13806
-4.253643 -17.014572 -15.712257
-4.4247494 -18.805185 -13.573429
-3.6385674 21.831404 -8.2400084
-3.4475491 19.53611 -11.423649
-3.275331 17.46843 -14.293945
-3.1194098 15.597046 -16.892633
-3.0177636 14.082892 -18.58674
-2.9678102 12.860508 -19.419292
-2.9264035 11.705614 -20.109402
-2.8905089 10.598532 -20.707649
-2.8618999 9.5396652 -21.184464
-2.8380167 8.5140476 -21.58252
-2.8168855 7.5116911 -21.934704
-2.7981737 6.5290689 -22.246569
-2.7846797 5.5693569 -22.47147
-2.772238 4.6203966 -22.678827
-2.7612729 3.6816959 -22.861584
-2.7548437 2.7548428 -22.968737
-2.7489374 1.8326235 -23.067173
-2.7446082 0.91486835 -23.139328
-2.7455058 -0 -23.124367
-2.7470055 -0.91566753 -23.099369
-2.7489452 -1.8326302 -23.067043
-2.7551346 -2.7551374 -22.963886
-2.7635255 -3.6847019 -22.824039
-2.7730503 -4.6217518 -22.665293
-2.7864878 -5.5729747 -22.441332
-2.802031 -6.5380726 -22.182278
-2.8177488 -7.5139985 -21.920317
-2.8412154 -8.5236473 -21.529205
-2.8685918 -9.5619736 -21.072933
-2.8972225 -10.62315 -20.595755
-2.9341767 -11.736706 -19.979853
-2.9755483 -12.894042 -19.290327
-3.0300379 -14.140177 -18.382166
-3.0871129 -15.435564 -17.430914
-3.1724432 -16.919697 -16.008743
-3.2972665 -18.684507 -13.928356
-3.5316899 -21.190138 -10.021297
-2.3966906 21.570213 -8.9655304
-2.272392 19.315332 -12.072992
-2.1601043 17.280832 -14.88019
-2.0582926 15.437193 -17.425484
-2.0066366 14.046455 -18.716883
-1.9741163 12.831755 -19.529888
-1.9472293 11.683374 -20.202065
-1.9240967 10.582531 -20.780376
-1.9048898 9.5244465 -21.260553
-1.8875667 8.49405 -21.693628
-1.8738234 7.4952922 -22.037212
-1.8625233 6.5188332 -22.31971
-1.8534595 5.56038 -22.54631
-1.8451917 4.6129761 -22.753004
-1.8386557 3.67731 -22.916401
-1.8343799 2.7515697 -23.0233
-1.8302487 1.8302469 -23.126581
-1.8272713 0.91363239 -23.201012
-1.8276658 -2.8610229e-06 -23.191154
-1.8289589 -0.91448021 -23.158825
-1.8302487 -1.8302498 -23.126579
-1.8349395 -2.7524099 -23.009315
-1.8397752 -3.6795502 -22.888416
-1.8446418 -4.6116066 -22.766752
-1.8542336 -5.5627046 -22.526955
-1.8653842 -6.5288467 -22.248188
-1.8766752 -7.5067039 -21.965912
-1.8917332 -8.5128002 -21.58947
-1.908448 -9.5422382 -21.171597
-1.9279063 -10.603486 -20.685141
-1.9524567 -11.71474 -20.071381
-1.9779809 -12.856876 -19.433279
-2.0155215 -14.10865 -18.494762
-2.0549541 -15.412157 -17.508942
-2.1110845 -16.888676 -16.105684
-2.1878588 -18.596802 -14.186327
-2.3270755 -20.943682 -10.705906
-1.1842085 21.315748 -9.6723757
-1.1234915 19.099354 -12.70822
-1.06858 17.097281 -15.453794
-1.0220538 15.330807 -17.780102
-1.0032463 14.045446 -18.720482
-0.98623842 12.821098 -19.570873
-0.97247607 11.66971 -20.258993
-0.96112907 10.572416 -20.826347
-0.95153809 9.5153809 -21.305891
-0.9433822 8.4904404 -21.713686
-0.93653268 7.4922585 -22.05616
-0.93121594 6.5185099 -22.322001
-0.92630821 5.5578489 -22.567383
-0.92145205 4.6072617 -22.81019
-0.9184227 3.6736898 -22.961657
-0.91655517 2.7496672 -23.055038
-0.91469514 1.8293915 -23.148037
-0.91359681 0.91359711 -23.202955
-0.91354233 -2.8610229e-06 -23.205679
-0.91348523 -0.91348934 -23.20853
-0.91416252 -1.8283253 -23.174667
-0.91667789 -2.7500353 -23.048904
-0.91942769 -3.6777105 -22.911411
-0.92219406 -4.6109715 -22.773094
-0.92678577 -5.5607157 -22.54351
-0.93182522 -6.5227757 -22.291533
-0.93746024 -7.499681 -22.009785
-0.94527757 -8.5074959 -21.618921
-0.95328838 -9.5328856 -21.218374
-0.96256053 -10.588171 -20.754765
-0.97546488 -11.705578 -20.10955
-0.98871994 -12.853361 -19.4468
-1.0060564 -14.084791 -18.579979
-1.0263629 -15.395448 -17.564648
-1.0532691 -16.852306 -16.219339
-1.091803 -18.56065 -14.292648
-1.1601988 -20.883581 -10.872852
0 21.067757 -10.361242
0 18.88809 -13.329589
0 16.917585 -16.015343
0 15.341232 -17.74535
0 14.037831 -18.747677
0 12.820548 -19.57299
0 11.673417 -20.243559
0 10.577694 -20.802364
0 9.5169544 -21.298014
0 8.4926786 -21.701237
0 7.489254 -22.074955
0 6.5188112 -22.319843
0 5.5592422 -22.555782
0 4.6093569 -22.789211
0 3.676218 -22.930056
0 2.7493591 -23.060127
0 1.8285351 -23.169346
0 0.9135561 -23.204901
0 -9.5367432e-07 -23.202698
0 -0.91381264 -23.192059
0 -1.8292875 -23.150635
0 -2.7498684 -23.051643
0 -3.6774912 -22.914171
0 -4.6120949 -22.76186
0 -5.5625577 -22.528156
0 -6.5226827 -22.292208
0 -7.4956884 -22.034756
0 -8.5079479 -21.616419
0 -9.5384235 -21.190685
0 -10.600565 -20.698414
0 -11.702919 -20.120636
0 -12.854864 -19.441027
0 -14.087299 -18.571012
0 -15.388084 -17.589188
0 -16.866495 -16.175007
0 -18.562162 -14.2882
0 -20.823822 -11.038845
1.1569581 20.825245 -11.034893
1.0989087 18.681446 -13.937365
1.0503541 16.805662 -16.365095
1.0245299 15.367949 -17.656296
1.0042231 14.059122 -18.671642
0.9877398 12.840616 -19.495804
0.97409493 11.689138 -20.178047
0.96220374 10.58424 -20.77261
0.95264506 9.5264492 -21.250542
0.94458675 8.5012779 -21.653461
0.93752855 7.5002279 -22.006371
0.93189275 6.5232487 -22.288162
0.92701799 5.562109 -22.531895
0.92270964 4.6135473 -22.747314
0.92008483 3.680337 -22.878555
0.91753769 2.752614 -23.005911
0.91510612 1.8302107 -23.127487
0.91434437 0.91434193 -23.165579
0.91444051 -1.9073486e-06 -23.160774
0.9146536 -0.91465664 -23.150116
0.91591871 -1.8318377 -23.086861
0.91789097 -2.7536745 -22.988247
0.91987181 -3.6794891 -22.889206
0.9228763 -4.6143818 -22.738979
0.9279241 -5.5675454 -22.486591
0.93302476 -6.5311723 -22.23156
0.93891799 -7.5113482 -21.936893
0.94627255 -8.5164547 -21.569168
0.9545778 -9.5457783 -21.153908
0.96490979 -10.614009 -20.637308
0.97649795 -11.717974 -20.057903
0.98986953 -12.868303 -19.38932
1.0081459 -14.114042 -18.475504
1.0291133 -15.4367 -17.427132
1.0557189 -16.891502 -16.096853
1.0941266 -18.600151 -14.176469
1.1733969 -21.121143 -10.212951
2.3329799 20.996817 -10.558301
2.1849995 18.572495 -14.257808
2.1091614 16.873289 -16.153761
2.0557222 15.417913 -17.489746
2.0140142 14.098099 -18.53244
1.9809515 12.876186 -19.359009
1.9531143 11.718685 -20.054937
1.9294435 10.611937 -20.646708
1.9100565 9.5502815 -21.131386
1.892701 8.5171518 -21.565271
1.878746 7.5149851 -21.914146
1.8661469 6.5315151 -22.229124
1.8562175 5.5686522 -22.477358
1.8480632 4.6201572 -22.681215
1.8429728 3.6859455 -22.808475
1.8380624 2.7570934 -22.931236
1.8339409 1.8339396 -23.034275
1.8327658 0.91637993 -23.063652
1.8315977 -9.5367432e-07 -23.092857
1.8309879 -0.91549683 -23.108097
1.8344792 -1.8344793 -23.020817
1.8389815 -2.7584743 -22.90826
1.843506 -3.6870108 -22.795149
1.8504008 -4.6260023 -22.622772
1.8587691 -5.5763078 -22.413568
1.8689972 -6.5414901 -22.157866
1.8817888 -7.5271568 -21.838072
1.8965602 -8.534523 -21.46879
1.9118038 -9.559021 -21.0877
1.9338086 -10.63595 -20.537582
1.9584271 -11.750563 -19.922119
1.9870917 -12.916097 -19.205505
2.0207734 -14.145416 -18.363457
2.0647566 -15.485675 -17.263882
2.118073 -16.944586 -15.930968
2.2023444 -18.719925 -13.824185
2.384438 -21.459942 -9.2718439
3.5892756 21.535654 -9.0615349
3.3051338 18.729094 -13.797231
3.1862631 16.993402 -15.778411
3.0984566 15.492286 -17.241848
3.0347142 14.161999 -18.304226
2.9824326 12.923874 -19.175583
2.9381323 11.752531 -19.913925
2.9031029 10.644711 -20.497749
2.8730392 9.5767975 -20.99881
2.8471053 8.5413151 -21.431038
2.8261039 7.5362759 -21.781063
2.8071718 6.550066 -22.0966
2.7927668 5.5855331 -22.336681
2.7796369 4.6327286 -22.555515
2.7702496 3.6936674 -22.711971
2.7616913 2.7616911 -22.854607
2.7570622 1.8380404 -22.931761
2.755811 0.91860104 -22.952614
2.7546551 -9.5367432e-07 -22.971878
2.7544036 -0.9181385 -22.97607
2.7586377 -1.8390932 -22.905502
2.7646017 -2.7646017 -22.806103
2.7714183 -3.6952248 -22.692488
2.7833951 -4.6389942 -22.492878
2.7960181 -5.5920367 -22.282492
2.8088298 -6.5539398 -22.068966
2.8300719 -7.5468597 -21.71493
2.8537874 -8.5613642 -21.319672
2.8786073 -9.5953598 -20.90601
2.9110684 -10.67392 -20.36499
2.9461117 -11.784447 -19.780935
2.9917486 -12.964244 -19.020323
3.0439856 -14.205263 -18.149706
3.113826 -15.569132 -16.985695
3.2029645 -17.082476 -15.500061
3.331605 -18.879093 -13.356047
4.4663529 18.981997 -13.053388
4.283494 17.133972 -15.339124
4.1652017 15.619503 -16.817778
4.0740223 14.259075 -17.957518
3.9974086 12.991575 -18.91519
3.9384241 11.815271 -19.652494
3.8891757 10.69523 -20.268103
3.8469977 9.6174946 -20.795326
3.8127019 8.578577 -21.224022
3.7817545 7.563508 -21.610867
3.7569218 6.5746117 -21.921276
3.7352178 5.6028271 -22.192574
3.7181716 4.6477127 -22.405651
3.7049024 3.7049026 -22.571516
3.6955431 2.7716541 -22.688511
3.6897488 1.8448725 -22.760933
3.6859875 0.92149734 -22.807949
3.6844475 -9.5367432e-07 -22.827202
3.6865892 -0.92164803 -22.80043
3.6922781 -1.8461409 -22.729317
3.6979742 -2.7734804 -22.658121
3.7056808 -3.7056828 -22.561783
3.7237647 -4.6547041 -22.335739
3.7420471 -5.6130729 -22.107204
3.7617519 -6.5830693 -21.860893
3.7889004 -7.5778017 -21.521542
3.8185036 -8.5916328 -21.151501
3.8547041 -9.6367588 -20.698996
3.8983622 -10.720497 -20.153271
3.9453406 -11.83602 -19.56604
4.0108972 -13.035418 -18.746578
4.0831456 -14.291009 -17.843479
4.1798077 -15.674278 -16.635202
4.3064356 -17.225746 -15.052351
4.5105629 -19.169891 -12.500763
5.6891551 19.343124 -11.991245
5.412941 17.321409 -14.753389
5.2548571 15.76457 -16.334223
5.1304407 14.36523 -17.578394
5.0287571 13.074766 -18.595224
4.9530344 11.887282 -19.352453
4.8878431 10.753254 -20.00436
4.8328953 9.6657887 -20.553844
4.7893252 8.6207838 -20.989544
4.7493491 7.5989599 -21.389301
4.7189722 6.6065588 -21.693077
4.6904712 5.6285648 -21.978085
4.6702685 4.6702662 -22.180107
4.6511674 3.720932 -22.371124
4.6401825 2.7841072 -22.480972
4.6334615 1.8533831 -22.54818
4.6267471 0.92534924 -22.615326
4.6201053 -9.5367432e-07 -22.681744
4.6265745 -0.9253149 -22.617054
4.6347966 -1.853919 -22.534834
4.6430478 -2.7858305 -22.452318
4.6569419 -3.7255535 -22.313379
4.675045 -4.6750479 -22.132345
4.6967959 -5.6361561 -21.914835
4.725111 -6.6151562 -21.631687
4.7593794 -7.615005 -21.289003
4.794991 -8.6309834 -20.93289
4.8432379 -9.6864786 -20.450418
4.9017949 -10.783947 -19.864845
4.9668856 -11.920527 -19.21394
5.0468316 -13.121764 -18.414478
5.1420641 -14.397781 -17.462154
5.2720914 -15.816277 -16.161884
5.4523373 -17.447479 -14.359424
5.746141 -19.53688 -11.421389
7.0524158 19.981844 -10.112667
6.6017475 17.60466 -13.868233
6.3741255 15.935308 -15.76509
6.2073321 14.483774 -17.155027
6.0877023 13.19002 -18.151947
5.9893432 11.978684 -18.971603
5.9061003 10.82785 -19.665295
5.8404331 9.7340546 -20.212521
5.7822986 8.6734467 -20.696974
5.734611 7.6461468 -21.094376
5.6940093 6.6430087 -21.432718
5.6597624 5.6597624 -21.718105
5.6321445 4.6934547 -21.948261
5.6105428 3.7403603 -22.128269
5.5958772 2.7979374 -22.250488
5.5885892 1.8628664 -22.311218
5.5813041 0.93021679 -22.371929
5.5773864 9.5367432e-07 -22.404573
5.5815296 -0.93025494 -22.370047
5.587182 -1.8623934 -22.322943
5.5971746 -2.7985897 -22.239674
5.6184607 -3.7456388 -22.062294
5.6404195 -4.7003508 -21.879301
5.6637135 -5.6637163 -21.685183
5.7016931 -6.6519775 -21.368689
5.7460442 -7.6613932 -20.999096
5.7919073 -8.6878643 -20.616901
5.8538361 -9.7563963 -20.100826
5.9178658 -10.849421 -19.567247
6.003943 -12.007888 -18.849934
6.1077862 -13.233539 -17.984579
6.2365222 -14.551885 -16.911777
6.4022117 -16.005529 -15.531034
6.6344328 -17.691822 -13.595855
7.2446985 -20.526648 -8.5103073
7.8823271 18.016745 -12.580464
7.5518498 16.182533 -14.941013
7.3432512 14.686502 -16.431002
7.1827774 13.339441 -17.577246
7.0520506 12.089231 -18.511005
6.9514084 10.92364 -19.229877
6.8687482 9.8124952 -19.820307
6.7940493 8.7352047 -20.35387
6.7386899 7.7013578 -20.749294
6.6873803 6.6873779 -21.115795
6.6484809 5.6986961 -21.393646
6.6139317 4.7242355 -21.640427
6.590982 3.7662735 -21.804356
6.5740371 2.8174438 -21.925385
6.557179 1.8734779 -22.045803
6.5476122 0.93537331 -22.11414
6.5490012 -1.9073486e-06 -22.104212
6.5538983 -0.93627262 -22.069237
6.5595088 -1.8741474 -22.029165
6.5708542 -2.816083 -21.948124
6.5963087 -3.7693195 -21.766308
6.6243563 -4.7316866 -21.565968
6.6566138 -5.7056713 -21.335554
6.7005682 -6.7005658 -21.021597
6.7469044 -7.7107501 -20.690624
6.8082376 -8.7534485 -20.252527
6.8835444 -9.8336344 -19.714621
6.9638281 -10.943157 -19.141165
7.0732627 -12.125592 -18.359493
7.1976709 -13.367104 -17.47086
7.3655314 -14.731062 -16.271856
7.5916514 -16.267826 -14.656712
7.9572778 -18.188063 -12.0451
9.3499489 18.699898 -10.445616
8.8155918 16.52923 -13.785353
8.5236502 14.916385 -15.609987
8.3153629 13.512467 -16.911774
8.1462145 12.21932 -17.96896
8.0339594 11.046694 -18.670547
7.9315929 9.9144897 -19.310341
7.8370943 8.8167305 -19.900955
7.765635 7.765635 -20.347576
7.7042871 6.741251 -20.731003
7.6559477 5.7419596 -21.033123
7.6137452 4.7585897 -21.296886
7.5882311 3.7941151 -21.456352
7.5691571 2.8384342 -21.575565
7.5502005 1.8875504 -21.694042
7.5351524 0.94189262 -21.788094
7.5361228 -1.9073486e-06 -21.782028
7.5430117 -0.94287872 -21.738976
7.5499129 -1.8874788 -21.695839
7.5711598 -2.8391838 -21.563044
7.5947671 -3.7973862 -21.415503
7.6223335 -4.7639599 -21.24321
7.6673932 -5.7505441 -20.961588
7.7198105 -6.7548356 -20.63398
7.7752743 -7.7752743 -20.287334
7.8510275 -8.8324089 -19.813875
7.9418201 -9.9272747 -19.246424
8.0483246 -11.06645 -18.580761
8.1746664 -12.261999 -17.791136
8.3366346 -13.547031 -16.778835
8.5511675 -14.964541 -15.438004
8.8528461 -16.599089 -13.55251
9.5892267 -19.178452 -8.9501343
10.194165 16.990273 -12.248548
9.7635574 15.187755 -14.64081
9.4961424 13.716649 -16.126446
9.309083 12.41211 -17.165667
9.1504202 11.183846 -18.047129
9.0197973 10.021996 -18.77281
8.9131298 8.9131279 -19.36541
8.8293629 7.848321 -19.830778
8.7558031 6.8100696 -20.239443
8.6938066 5.7958713 -20.583872
8.6512461 4.8062468 -20.820316
8.6154766 3.8290987 -21.019035
8.5853939 2.8617973 -21.186165
8.5636911 1.9030437 -21.306732
8.5572901 0.95081043 -21.342297
8.5545855 9.5367432e-07 -21.357319
8.5518579 -0.95020962 -21.372475
8.5612354 -1.9024963 -21.320375
8.5903845 -2.8634605 -21.158434
8.6197081 -3.8309822 -20.995531
8.6534433 -4.8074694 -20.808113
8.7058535 -5.8039017 -20.516949
8.768527 -6.8199644 -20.168758
8.8414917 -7.8591042 -19.763395
8.9318476 -8.9318466 -19.261421
9.0249119 -10.02768 -18.744394
9.1695681 -11.207252 -17.94075
9.326829 -12.435772 -17.067083
9.5406532 -13.780946 -15.879166
9.8215284 -15.277934 -14.318747
10.314068 -17.190113 -11.58242
11.185946 15.660322 -12.953062
10.788754 14.025382 -14.939023
10.523427 12.62811 -16.265663
10.31852 11.35037 -17.290197
10.153501 10.1535 -18.115292
10.030306 9.0272732 -18.731266
9.9328203 7.9462557 -19.218693
9.8441334 6.8908906 -19.662132
9.7604771 5.8562837 -20.08041
9.7143106 4.8571568 -20.311243
9.6736927 3.8694773 -20.514328
9.6334429 2.8900328 -20.71558
9.602973 1.9205942 -20.867931
9.6007681 0.96007538 -20.87896
9.5985336 -1.9073486e-06 -20.890127
9.5963297 -0.95963383 -20.90115
9.6159716 -1.9231939 -20.80294
9.6390114 -2.8917055 -20.687738
9.6722393 -3.868897 -20.521595
9.7237034 -4.8618531 -20.264282
9.781332 -5.8688002 -19.976137
9.8396492 -6.8877544 -19.684555
9.9413204 -7.9530544 -19.176195
10.051828 -9.046648 -18.623653
10.183412 -10.183414 -17.965736
10.340434 -11.374475 -17.180624
10.544943 -12.653933 -16.158083
10.822277 -14.068961 -14.771409
11.238485 -15.733881 -12.690369
12.95716 16.490931 -9.9866142
12.200309 14.418542 -13.426849
11.814361 12.888392 -15.181158
11.560384 11.560383 -16.335598
11.365713 10.332466 -17.220465
11.209663 9.1715403 -17.929783
11.074132 8.053915 -18.545828
10.961898 6.9757504 -19.055988
10.889703 5.939837 -19.384148
10.820305 4.9183207 -19.699589
10.762899 3.9137812 -19.960524
10.721243 2.9239759 -20.149874
10.701958 1.9458122 -20.237534
10.682711 0.97115326 -20.32502
10.66517 -1.9073486e-06 -20.404749
10.677652 -0.97069454 -20.348015
10.700567 -1.9455614 -20.243855
10.72579 -2.9252157 -20.129204
10.760937 -3.9130688 -19.969446
10.828547 -4.9220681 -19.66213
10.898419 -5.9445944 -19.344526
10.986527 -6.9914298 -18.944029
11.092976 -8.0676193 -18.460182
11.21016 -9.1719532 -17.927523
11.392928 -10.357206 -17.09676
11.593207 -11.59321 -16.186399
11.873362 -12.952758 -14.912971
12.280296 -14.513082 -13.063263
13.094714 -16.666 -9.3613701
14.034556 15.204102 -10.405477
13.318102 13.318101 -13.390705
12.928952 11.851538 -15.012166
12.662935 10.552446 -16.120567
12.44535 9.3340111 -17.027172
12.282825 8.188549 -17.704363
12.162866 7.095005 -18.204191
12.058013 6.0290079 -18.641073
11.978909 4.99121 -18.970676
11.900799 3.9669337 -19.296135
11.853241 2.9633102 -19.494289
11.831924 1.9719868 -19.583115
11.81072 0.98422527 -19.671463
11.800362 -9.5367432e-07 -19.714617
11.809709 -0.98414421 -19.67568
11.831634 -1.9719381 -19.584318
11.862234 -2.9655595 -19.456821
11.921371 -3.9737926 -19.210413
11.981102 -4.9921236 -18.961538
12.056433 -6.0282202 -18.647663
12.18078 -7.1054573 -18.129543
12.310624 -8.2070827 -17.588531
12.482801 -9.3620987 -16.871124
12.680648 -10.567208 -16.046762
12.972599 -11.891549 -14.830303
13.384616 -13.384616 -13.113562
14.236799 -15.423199 -9.5627966
15.262285 14.088262 -10.181701
14.474417 12.247581 -13.211964
14.080562 10.8312 -14.72679
13.810147 9.5608702 -15.766843
13.602173 8.3705664 -16.566748
13.441096 7.2375126 -17.186268
13.306097 6.141274 -17.705502
13.179053 5.0688648 -18.194134
13.124026 4.0381627 -18.405769
13.071542 3.0165076 -18.607639
13.020527 2.0031586 -18.803846
12.977313 0.99825382 -18.970055
12.989078 -1.9073486e-06 -18.924809
13.000904 -1.0000715 -18.87932
13.012712 -2.001956 -18.833908
13.062196 -3.0143552 -18.643583
13.133915 -4.0412059 -18.367739
13.206385 -5.07938 -18.089012
13.322919 -6.1490407 -17.640802
13.44399 -7.2390704 -17.175138
13.615985 -8.3790684 -16.513624
13.850335 -9.5886936 -15.612276
14.148847 -10.883731 -14.464155
14.540719 -12.303687 -12.956951
15.500226 -14.307903 -9.2665424
16.912292 13.288229 -8.4817543
15.795992 11.28285 -12.468542
15.333203 9.8570576 -14.121361
15.05852 8.6048689 -15.102365
14.824024 7.4120088 -15.939854
14.640973 6.2747011 -16.593603
14.531048 5.1896601 -16.986195
14.427332 4.1220927 -17.356611
14.334794 3.071743 -17.687099
14.286478 2.0409236 -17.859665
14.270324 1.0193062 -17.917351
14.254206 -0 -17.974916
14.25795 -1.0184259 -17.961546
14.302486 -2.043211 -17.80249
14.356445 -3.0763817 -17.609781
14.410767 -4.1173644 -17.415775
14.534235 -5.1907997 -16.974813
14.680377 -6.2915916 -16.452877
14.856529 -7.4282646 -15.823765
15.086202 -8.6206865 -15.003506
15.403183 -9.9020462 -13.871428
15.8944 -11.353142 -12.117084
17.420567 10.452338 -10.814239
16.799122 8.9595327 -12.885718
16.422787 7.6639662 -14.140176
16.190729 6.4762907 -14.913694
15.994658 5.3315511 -15.567268
15.838535 4.223609 -16.087677
15.754436 3.1508851 -16.368011
15.690226 2.0920277 -16.582047
15.649938 1.0433283 -16.716335
15.630734 -0 -16.78035
15.656435 -1.0437646 -16.694675
15.689664 -2.0919538 -16.58392
15.755927 -3.1511846 -16.363037
15.875987 -4.2335978 -15.962834
16.007917 -5.3359714 -15.523069
16.191164 -6.4764628 -14.912247
16.474461 -7.6880798 -13.967927
16.855021 -8.9893465 -12.699394
17.549383 -10.529631 -10.384859
18.585091 8.1309767 -10.804388
18.047501 6.7678099 -12.48436
17.707701 5.5336542 -13.54623
17.529507 4.3823762 -14.103089
17.369497 3.2567778 -14.603119
17.271851 2.158977 -14.908264
17.217276 1.0760803 -15.078812
17.198298 -0 -15.138113
17.22753 -1.0767198 -15.046768
17.279907 -2.1599913 -14.883087
17.397667 -3.2620635 -14.515087
17.516983 -4.3792467 -14.142225
17.767702 -5.5524092 -13.358728
18.10881 -6.7908039 -12.292763
18.685987 -8.1751204 -10.489086
19.886551 4.6791883 -10.392937
19.473806 3.4365511 -11.606895
19.310764 2.2718539 -12.086426
19.1709 1.1276999 -12.497801
19.131348 -4.7683716e-07 -12.614131
19.215271 -1.1303096 -12.367295
19.300888 -2.2706923 -12.115481
19.505396 -3.4421318 -11.513987
19.931179 -4.6896882 -10.261683
