# .PCD v0.7 - Point Cloud Data file format
VERSION 0.7
FIELDS x y z
SIZE 4 4 4
TYPE F F F
COUNT 1 1 1
WIDTH 1056
HEIGHT 1
VIEWPOINT 0 0 0 1 0 0 0
POINTS 1056
DATA ascii
-22.97456 -0 -8.4234304
-21.823015 7.2743397 -8.2633095
-20.776249 5.7711802 -11.170996
-20.355877 4.5235262 -12.338697
-20.130926 3.3551502 -12.963558
-19.920889 2.2134295 -13.546993
-19.886286 1.1047935 -13.643113
-19.856703 -3.3378601e-06 -13.72529
-19.893047 -1.1051679 -13.624331
-19.994736 -2.2216401 -13.341862
-20.12631 -3.3543863 -12.976381
-20.431404 -4.5403152 -12.128895
-20.856211 -5.7933922 -10.948879
-19.94084 9.3839226 -10.233264
-19.166801 7.8922138 -12.509847
-18.786072 6.6303768 -13.629648
-18.493456 5.4392495 -14.49028
-18.325647 4.3119168 -14.983834
-18.189354 3.2098837 -15.384697
-18.075893 2.1265745 -15.718408
-18.057816 1.0622211 -15.771572
-18.039774 -2.3841858e-06 -15.824636
-18.06008 -1.0623579 -15.764912
-18.126799 -2.1325665 -15.568684
-18.188267 -3.2096953 -15.387897
-18.33449 -4.3139977 -14.957825
-18.52257 -5.4478154 -14.404651
-18.835743 -6.647912 -13.483552
-19.269142 -7.9343514 -12.208849
-20.023531 -9.4228382 -9.9900627
-19.090284 11.931427 -9.2256565
-18.061172 10.159408 -12.441631
-17.56904 8.7845173 -13.979546
-17.25547 7.5492678 -14.959453
-17.042053 6.390769 -15.626383
-16.83462 5.2608194 -16.274609
-16.733086 4.1832719 -16.591904
-16.639433 3.1198936 -16.884571
-16.56604 2.0707517 -17.113922
-16.535715 1.0334797 -17.208683
-16.518953 -2.8610229e-06 -17.261066
-16.531258 -1.0332036 -17.222618
-16.58103 -2.0726304 -17.067081
-16.646963 -3.1213074 -16.861034
-16.754538 -4.1886377 -16.524868
-16.884468 -5.2763968 -16.118839
-17.06142 -6.398035 -15.565856
-17.313431 -7.574626 -14.778321
-17.609718 -8.804863 -13.852428
-18.123152 -10.194274 -12.247948
-19.467319 -12.167073 -8.0474234
-17.304232 12.68977 -11.202024
-16.620344 11.08023 -13.481646
-16.239697 9.7438154 -14.750476
-15.947104 8.5051212 -15.725782
-15.727285 7.3393998 -16.458513
-15.562806 6.2251201 -17.006779
-15.420379 5.1401253 -17.481537
-15.326282 4.087007 -17.795191
-15.247472 3.0494933 -18.057888
-15.196737 2.0262318 -18.227001
-15.169185 1.0112772 -18.318851
-15.146149 9.5367432e-07 -18.395634
-15.163753 -1.0109186 -18.336954
-15.205497 -2.0274 -18.197803
-15.250266 -3.0500526 -18.048574
-15.327888 -4.0874367 -17.789835
-15.447913 -5.1493044 -17.389751
-15.569834 -6.2279325 -16.983351
-15.751764 -7.3508239 -16.376919
-15.985548 -8.5256252 -15.597634
-16.249153 -9.7494917 -14.718951
-16.686644 -11.12443 -13.260651
-17.455149 -12.800447 -10.698965
-15.938313 13.661409 -11.960254
-15.384773 12.088038 -13.937175
-14.990932 10.707807 -15.343756
-14.738773 9.4749241 -16.24432
-14.509429 8.2910995 -17.063408
-14.360242 7.1801214 -17.596216
-14.216516 6.0927906 -18.109528
-14.112671 5.0402393 -18.480398
-14.033812 4.0096564 -18.762041
-13.963223 2.9921169 -19.014141
-13.92839 1.9897671 -19.13855
-13.913034 0.99378586 -19.193388
-13.897714 -9.5367432e-07 -19.248108
-13.912992 -0.99378586 -19.193541
-13.93554 -1.9907942 -19.11301
-13.973183 -2.9942555 -18.978571
-14.047506 -4.0135727 -18.713131
-14.129755 -5.04634 -18.419384
-14.21629 -6.0926981 -18.110329
-14.375591 -7.1877952 -17.541399
-14.540989 -8.3091373 -16.950687
-14.757069 -9.4866896 -16.178976
-15.047104 -10.747933 -15.143141
-15.446325 -12.1364 -13.717349
-16.052679 -13.759439 -11.551799
-14.777644 14.777642 -12.045707
-14.227079 13.132689 -14.163258
-13.871873 11.737739 -15.529438
-13.592495 10.455767 -16.603968
-13.392434 9.2716856 -17.373434
-13.21623 8.1330624 -18.051146
-13.095313 7.0513229 -18.516211
-12.977715 5.9897137 -18.968508
-12.897461 4.9605594 -19.27718
-12.833488 3.9487658 -19.523228
-12.773383 2.9477034 -19.754398
-12.74789 1.9612141 -19.852451
-12.722537 0.97865486 -19.949959
-12.702065 -9.5367432e-07 -20.0287
-12.725129 -0.97885704 -19.939991
-12.75127 -1.9617357 -19.839449
-12.777519 -2.948658 -19.738495
-12.835023 -3.9492402 -19.517319
-12.912268 -4.966258 -19.220226
-12.992747 -5.9966531 -18.91069
-13.110168 -7.0593233 -18.459076
-13.248329 -8.1528196 -17.927683
-13.417259 -9.2888737 -17.277954
-13.640089 -10.492378 -16.42091
-13.902758 -11.763873 -15.410649
-14.276161 -13.177995 -13.974485
-14.889878 -14.889876 -11.614035
-13.761597 16.055197 -11.542809
-13.144802 14.240203 -14.112783
-12.777268 12.777267 -15.644175
-12.512487 11.469778 -16.747437
-12.322369 10.268641 -17.539595
-12.150123 9.1125927 -18.257284
-12.019434 8.0129538 -18.801819
-11.908138 6.9464111 -19.265554
-11.808553 5.9042754 -19.68049
-11.74413 4.8933864 -19.948919
-11.685108 3.8950338 -20.194847
-11.639501 2.909873 -20.38488
-11.618594 1.9364338 -20.471983
-11.601318 0.96677494 -20.543968
-11.591116 -9.5367432e-07 -20.586479
-11.601876 -0.96682549 -20.541649
-11.617861 -1.9363098 -20.47504
-11.645958 -2.9114914 -20.357967
-11.69831 -3.899437 -20.139835
-11.751135 -4.8963046 -19.919735
-11.814731 -5.9073639 -19.654753
-11.9199 -6.9532762 -19.216545
-12.028457 -8.0189734 -18.764229
-12.159917 -9.1199379 -18.216476
-12.340638 -10.283867 -17.463469
-12.532911 -11.488504 -16.662331
-12.846078 -12.84608 -15.357471
-13.219087 -14.320679 -13.803266
-13.882998 -16.196835 -11.036972
-12.837765 17.506042 -10.529322
-12.134443 15.443838 -13.726233
-11.747671 13.88361 -15.484289
-11.481647 12.525433 -16.693489
-11.271481 11.271479 -17.6488
-11.118827 10.108025 -18.34267
-10.970866 8.9761639 -19.015223
-10.872613 7.9073544 -19.46183
-10.779483 6.8596711 -19.885143
-10.70225 5.8375893 -20.23621
-10.644519 4.8384142 -20.498623
-10.592443 3.8517962 -20.735329
-10.556373 2.8790092 -20.899286
-10.531751 1.9148626 -21.011202
-10.513391 0.95576191 -21.094656
-10.510488 -1.9073486e-06 -21.107851
-10.520139 -0.95637798 -21.063984
-10.533442 -1.9151735 -21.003513
-10.555365 -2.8787365 -20.903866
-10.601516 -3.8550997 -20.694088
-10.652109 -4.8418665 -20.464119
-10.711057 -5.8423953 -20.196173
-10.788846 -6.8656287 -19.842588
-10.885551 -7.9167666 -19.403019
-10.999808 -8.9998446 -18.883671
-11.13884 -10.126215 -18.251711
-11.304089 -11.304089 -17.500576
-11.52632 -12.574167 -16.490433
-11.796959 -13.941862 -15.260261
-12.216897 -15.548782 -13.351443
-13.03104 -17.7696 -9.650795
-11.186336 16.779499 -12.95112
-10.763712 15.069195 -15.064235
-10.484857 13.630314 -16.458511
-10.272213 12.326654 -17.521732
-10.10612 11.11673 -18.352196
-9.9683561 9.9683533 -19.041019
-9.8588495 8.872963 -19.588551
-9.7683287 7.8146615 -20.041155
-9.6851339 6.7795925 -20.457125
-9.6274776 5.7764845 -20.745407
-9.581274 4.7906361 -20.976429
-9.5355396 3.8142157 -21.205097
-9.5104599 2.8531389 -21.330494
-9.4887285 1.8977423 -21.439154
-9.4701328 0.94701099 -21.532131
-9.4677649 -9.5367432e-07 -21.543976
-9.4763231 -0.9476347 -21.501181
-9.4885044 -1.8977003 -21.440271
-9.5128775 -2.8538628 -21.318405
-9.5457211 -3.8182869 -21.15419
-9.5814734 -4.7907376 -20.97543
-9.6378288 -5.7826991 -20.693653
-9.7071314 -6.7949934 -20.347139
-9.7774391 -7.8219509 -19.995598
-9.8753366 -8.887804 -19.506113
-9.9950418 -9.9950447 -18.907585
-10.119212 -11.131136 -18.286736
-10.310586 -12.372704 -17.32987
-10.519471 -13.675314 -16.285442
-10.826938 -15.157714 -14.748107
-11.277987 -16.916983 -12.492859
-9.8154039 16.359003 -14.352775
-9.5126724 14.797488 -16.034618
-9.2985334 13.431214 -17.224277
-9.1266327 12.168842 -18.179279
-8.9913769 10.989462 -18.930698
-8.8796558 9.8662834 -19.551373
-8.784297 8.784296 -20.081146
-8.7055387 7.7382565 -20.518692
-8.6449203 6.7238269 -20.855461
-8.5963249 5.7308836 -21.125431
-8.548274 4.7490416 -21.392387
-8.5062237 3.7805424 -21.625998
-8.4876289 2.8292093 -21.729305
-8.471096 1.8824644 -21.821152
-8.4557142 0.93952179 -21.906605
-8.4578867 -1.9073486e-06 -21.894535
-8.4600611 -0.94000626 -21.882458
-8.4624586 -1.8805466 -21.869137
-8.4890461 -2.8296814 -21.721428
-8.5205622 -3.7869158 -21.546339
-8.5523119 -4.751286 -21.369951
-8.596734 -5.7311563 -21.123165
-8.6583061 -6.7342415 -20.781096
-8.7223692 -7.7532182 -20.425188
-8.8035469 -8.8035469 -19.974205
-8.9027195 -9.8919096 -19.423246
-9.0126686 -11.015485 -18.812414
-9.1591587 -12.212213 -17.998583
-9.3292322 -13.475555 -17.053728
-9.5632706 -14.876199 -15.753511
-9.8673677 -16.445612 -14.064087
-10.473734 -18.61997 -10.695389
-8.9223042 17.844606 -13.118395
-8.5675573 16.064169 -15.33556
-8.3416042 14.597806 -16.747772
-8.1670942 13.271527 -17.838459
-8.0291996 12.043798 -18.7003
-7.9172025 10.886152 -19.400282
-7.8204784 9.7756004 -20.004807
-7.7464757 8.7147846 -20.467323
-7.6781631 7.6781616 -20.894278
-7.6243429 6.6712995 -21.230658
-7.5849671 5.6887264 -21.476753
-7.5459743 4.7162313 -21.720459
-7.516366 3.7581797 -21.90551
-7.4954677 2.8107996 -22.036118
-7.4746861 1.8686705 -22.166008
-7.4622078 0.9327755 -22.243999
-7.4664488 -1.9073486e-06 -22.217491
-7.470696 -0.93383694 -22.19095
-7.476531 -1.869133 -22.154472
-7.4955559 -2.810833 -22.035576
-7.5200982 -3.7600489 -21.882183
-7.5479207 -4.7174482 -21.708292
-7.59058 -5.692935 -21.441669
-7.6352639 -6.6808562 -21.162399
-7.6871953 -7.6871972 -20.837826
-7.7614446 -8.7316284 -20.373764
-7.8395524 -9.7994423 -19.885595
-7.9323993 -10.907051 -19.305298
-8.0554266 -12.08314 -18.536381
-8.1909723 -13.310331 -17.689219
-8.3794765 -14.664084 -16.511066
-8.6163015 -16.155567 -15.030913
-8.9876814 -17.975363 -12.709787
-7.6479912 17.481123 -14.254285
-7.3986964 15.854349 -16.034966
-7.2168555 14.433709 -17.33383
-7.0784855 13.145759 -18.322186
-6.9648838 11.9398 -19.133629
-6.8732538 10.800826 -19.788128
-6.7964067 9.7091503 -20.337036
-6.7274609 8.6495895 -20.829502
-6.6751542 7.6287479 -21.203121
-6.6325479 6.6325474 -21.507454
-6.5923705 5.6506023 -21.794434
-6.5587063 4.6847887 -22.034891
-6.5381489 3.736083 -22.181734
-6.5213037 2.7948437 -22.302053
-6.5048466 1.8585272 -22.419605
-6.4975858 0.92822647 -22.471468
-6.4948511 -1.9073486e-06 -22.491005
-6.4974356 -0.9282074 -22.472542
-6.5060487 -1.8588705 -22.41102
-6.522512 -2.7953625 -22.293423
-6.5390601 -3.7366066 -22.175228
-6.5596228 -4.6854448 -22.028343
-6.5987816 -5.6560993 -21.748642
-6.6389976 -6.638998 -21.461384
-6.6808753 -7.6352873 -21.162256
-6.7427645 -8.6692686 -20.720194
-6.8107281 -9.7296124 -20.234737
-6.886301 -10.821331 -19.694929
-6.9873066 -11.978241 -18.973461
-7.0946026 -13.175692 -18.207066
-7.2468963 -14.493793 -17.119253
-7.4203129 -15.900672 -15.880563
-7.6986175 -17.596838 -13.892675
-8.2375965 -20.005594 -10.04282
-6.7659869 19.170296 -12.499574
-6.4666839 17.24449 -14.993762
-6.2753353 15.688337 -16.588337
-6.1323814 14.308891 -17.779612
-6.01824 13.039516 -18.730801
-5.9307709 11.861542 -19.459705
-5.8509274 10.7267 -20.125069
-5.7894068 9.6490116 -20.637741
-5.7345595 8.6018372 -21.094799
-5.6915421 7.5887208 -21.453278
-5.6569934 6.599823 -21.741186
-5.6233368 5.6233358 -22.02166
-5.5936565 4.6613798 -22.26899
-5.5747457 3.7164965 -22.426582
-5.5601382 2.7800684 -22.548313
-5.5461802 1.8487282 -22.664627
-5.5437441 0.92395687 -22.684929
-5.5414057 9.5367432e-07 -22.704418
-5.5394974 -0.92324924 -22.720314
-5.5481243 -1.8493767 -22.648428
-5.5635505 -2.7817745 -22.519875
-5.5790782 -3.7193871 -22.390476
-5.5992036 -4.6660032 -22.222767
-5.6264663 -5.6264696 -21.995579
-5.6605587 -6.6039863 -21.711473
-5.6990676 -7.5987577 -21.390564
-5.7471557 -8.6207342 -20.98983
-5.8011293 -9.6685514 -20.540047
-5.8680143 -10.758026 -19.982676
-5.9452147 -11.89043 -19.339336
-6.0376596 -13.081598 -18.568966
-6.156136 -14.364319 -17.581661
-6.3022475 -15.755621 -16.364063
-6.5092578 -17.358023 -14.63898
-6.8427114 -19.387684 -11.860202
-5.5528092 18.879549 -13.354702
-5.3372469 17.079191 -15.510324
-5.1874514 15.562355 -17.00828
-5.0746369 14.208982 -18.136427
-4.9875917 12.967738 -19.006878
-4.9125395 11.790093 -19.757401
-4.8530827 10.676781 -20.351969
-4.8011856 9.6023693 -20.870941
-4.7567058 8.5620689 -21.315737
-4.7208133 7.5532994 -21.67466
-4.6936727 6.5711393 -21.946072
-4.6668282 5.600193 -22.214512
-4.6461444 4.646143 -22.42135
-4.6304884 3.7043905 -22.577911
-4.6149373 2.7689619 -22.733421
-4.6031089 1.8412428 -22.851707
-4.6016345 0.92032337 -22.866451
-4.6009369 -0 -22.873425
-4.6002398 -0.92004871 -22.880394
-4.6080256 -1.8432112 -22.80254
-4.6166191 -2.7699709 -22.716606
-4.629436 -3.7035494 -22.588436
-4.6486139 -4.6486139 -22.396652
-4.6707702 -5.6049242 -22.175091
-4.6931386 -6.5703955 -21.951408
-4.7266097 -7.5625787 -21.616697
-4.7663012 -8.5793438 -21.219786
-4.8066788 -9.6133595 -20.81601
-4.861587 -10.695491 -20.266926
-4.925034 -11.820085 -19.632452
-4.9966211 -12.991214 -18.916584
-5.0935116 -14.261833 -17.947685
-5.2064176 -15.619251 -16.818621
-5.361289 -17.156126 -15.269905
-5.6078062 -19.066544 -12.804732
-4.3958449 18.682339 -13.934736
-4.2412267 16.964901 -15.867467
-4.1249876 15.4687 -17.320452
-4.0379596 14.132857 -18.408302
-3.9721353 12.909439 -19.231108
-3.9137104 11.741131 -19.961414
-3.8670361 10.634348 -20.544842
-3.8250959 9.5627375 -21.069096
-3.793344 8.5350237 -21.465998
-3.7668817 7.533762 -21.796776
-3.7413187 6.547308 -22.116314
-3.7181609 5.5772429 -22.405783
-3.7049346 4.6311693 -22.571115
-3.6930091 3.6930084 -22.720184
-3.6811497 2.7608624 -22.868427
-3.6744773 1.8372364 -22.95183
-3.6702869 0.91757202 -23.00421
-3.6680281 -0 -23.032448
-3.6696382 -0.91741085 -23.012318
-3.6758518 -1.8379278 -22.934647
-3.6820869 -2.7615671 -22.85671
-3.6885436 -3.6885452 -22.775999
-3.7062252 -4.6327839 -22.554983
-3.724745 -5.5871177 -22.323483
-3.7434402 -6.5510216 -22.089794
-3.7687564 -7.5375147 -21.773342
-3.8003993 -8.5508986 -21.377808
-3.8330345 -9.5825882 -20.969866
-3.875325 -10.657143 -20.441233
-3.9250948 -11.775285 -19.819111
-3.9818292 -12.940948 -19.10993
-4.0546589 -14.191306 -18.199562
-4.1400847 -15.525318 -17.131737
-4.2571321 -17.028528 -15.66865
-4.4271688 -18.815468 -13.543186
-3.475472 20.852829 -10.958263
-3.2751756 18.559328 -14.296537
-3.1605625 16.856333 -16.206755
-3.0782449 15.391222 -17.578718
-3.0196135 14.091527 -18.555908
-2.971354 12.875868 -19.360229
-2.9260578 11.704231 -20.115166
-2.8927867 10.606884 -20.669685
-2.8624089 9.5413609 -21.175982
-2.8376913 8.5130701 -21.58794
-2.818382 7.5156832 -21.909761
-2.799886 6.5330658 -22.218033
-2.7834513 5.5669012 -22.49194
-2.7719197 4.6198673 -22.684134
-2.7616835 3.6822433 -22.854736
-2.7530134 2.7530117 -22.999241
-2.7498691 1.8332462 -23.051643
-2.7467399 0.9155798 -23.103798
-2.7440543 -9.5367432e-07 -23.148556
-2.7454824 -0.91516113 -23.124756
-2.750778 -1.8338547 -23.036495
-2.756094 -2.7560968 -22.947895
-2.7630033 -3.6840048 -22.832739
-2.7735283 -4.6225481 -22.657326
-2.7864316 -5.5728645 -22.442268
-2.8009663 -6.5355878 -22.200024
-2.8209677 -7.5225821 -21.866663
-2.8412905 -8.5238743 -21.527952
-2.8667946 -9.5559845 -21.102884
-2.8989363 -10.629433 -20.567198
-2.9329824 -11.731929 -19.999758
-2.9772642 -12.901479 -19.261726
-3.0276339 -14.128958 -18.422234
-3.0935423 -15.467713 -17.323753
-3.1751976 -16.934389 -15.962834
-3.2981675 -18.689615 -13.913337
-3.5287468 -21.172482 -10.070347
-2.2944088 20.649675 -11.522577
-2.1749508 18.487082 -14.509026
-2.1004272 16.803415 -16.372118
-2.0482514 15.361887 -17.67651
-2.0093238 14.065265 -18.6497
-1.9765656 12.847677 -19.468658
-1.9486028 11.691618 -20.167727
-1.9264002 10.595199 -20.72279
-1.9056286 9.528142 -21.242081
-1.8887631 8.4994335 -21.663715
-1.875576 7.5023031 -21.993393
-1.863289 6.5215101 -22.300571
-1.8540467 5.5621386 -22.531628
-1.8463721 4.6159306 -22.723492
-1.8387923 3.6775837 -22.912987
-1.8328701 2.7493029 -23.061043
-1.8305974 1.8305979 -23.117859
-1.8289173 0.91445923 -23.159861
-1.8273026 -9.5367432e-07 -23.200233
-1.8289016 -0.91445065 -23.160255
-1.8305713 -1.8305721 -23.118511
-1.8341029 -2.7511568 -23.030228
-1.8398173 -3.679635 -22.887365
-1.8468171 -4.6170464 -22.712368
-1.8538651 -5.5615969 -22.536169
-1.8636451 -6.5227599 -22.291666
-1.8770968 -7.508388 -21.955379
-1.8909162 -8.5091209 -21.609896
-1.9072775 -9.5363865 -21.200861
-1.9286053 -10.607331 -20.667664
-1.9504213 -11.702527 -20.122261
-1.9798913 -12.869291 -19.385513
-2.0128365 -14.089855 -18.56189
-2.0556104 -15.417078 -17.492537
-2.1063313 -16.850653 -16.224512
-2.1856153 -18.57773 -14.242414
-2.3340459 -21.006413 -10.531652
-1.1450411 20.610739 -11.630741
-1.0840175 18.428299 -14.681915
-1.0498368 16.797386 -16.390965
-1.023035 15.345522 -17.731043
-1.0035279 14.049387 -18.706402
-0.98627472 12.821571 -19.569059
-0.9735145 11.682175 -20.207069
-0.96221811 10.584399 -20.771887
-0.95193207 9.5193214 -21.28619
-0.94440103 8.499608 -21.662746
-0.9369908 7.4959249 -22.033255
-0.93009639 6.5106745 -22.377979
-0.92627358 5.5576401 -22.569118
-0.92249274 4.6124592 -22.75816
-0.9187426 3.6749687 -22.945665
-0.91652644 2.7495794 -23.056473
-0.91473162 1.8294621 -23.146219
-0.91339976 0.91339684 -23.212811
-0.91318458 9.5367432e-07 -23.223564
-0.91398603 -0.91398525 -23.183495
-0.91478616 -1.8295736 -23.143486
-0.91566592 -2.7469978 -23.099501
-0.91912043 -3.6764822 -22.926777
-0.92283666 -4.6141853 -22.740965
-0.92658299 -5.5594978 -22.553648
-0.93170112 -6.5219078 -22.297739
-0.93810791 -7.5048637 -21.977402
-0.94500834 -8.5050745 -21.632381
-0.95366693 -9.5366707 -21.199448
-0.96375394 -10.601295 -20.695097
-0.97493005 -11.699162 -20.136293
-0.98923355 -12.860037 -19.421118
-1.0056791 -14.07951 -18.598839
-1.0268641 -15.40296 -17.539593
-1.0533726 -16.853962 -16.214169
-1.090534 -18.539078 -14.356098
-1.1588703 -20.859667 -10.939278
0 20.608393 -11.637257
0 18.43898 -14.650497
0 16.794043 -16.401407
0 15.356165 -17.695572
0 14.056446 -18.681198
0 12.828806 -19.541237
0 11.685781 -20.192049
0 10.579464 -20.794317
0 9.5199375 -21.283094
0 8.5013294 -21.653183
0 7.4984355 -22.017565
0 6.5180578 -22.325233
0 5.5582638 -22.563917
0 4.6091738 -22.791058
0 3.6736603 -22.962051
0 2.7498436 -23.052036
0 1.8297195 -23.139847
0 0.91323566 -23.220974
0 -0 -23.226803
0 -0.91411877 -23.177008
0 -1.8302269 -23.127098
0 -2.750082 -23.048119
0 -3.6774797 -22.914303
0 -4.6136417 -22.746391
0 -5.5595775 -22.552982
0 -6.5255933 -22.271423
0 -7.5034218 -21.986423
0 -8.5017796 -21.650688
0 -9.5391016 -21.187294
0 -10.596948 -20.714861
0 -11.702282 -20.123295
0 -12.86233 -19.412296
0 -14.076826 -18.608421
0 -15.405026 -17.532711
0 -16.862904 -16.186226
0 -18.54907 -14.326702
0 -20.96665 -10.642103
1.1520668 20.737204 -11.279454
1.0887189 18.508219 -14.446851
1.0520194 16.832306 -16.281832
1.0255584 15.383373 -17.604877
1.0048345 14.06768 -18.641073
0.9887169 12.853321 -19.446949
0.97516048 11.701925 -20.124771
0.96308196 10.593901 -20.728699
0.95363587 9.5363579 -21.201004
0.9450832 8.5057487 -21.628635
0.93778801 7.5023031 -21.993393
0.93256509 6.5279551 -22.254539
0.92775029 5.5665035 -22.495285
0.92302984 4.6151466 -22.731306
0.91948551 3.6779413 -22.908524
0.91745657 2.7523708 -23.009964
0.91582483 1.8316479 -23.091553
0.91445601 0.91445446 -23.159992
0.9144665 -1.9073486e-06 -23.159473
0.91456521 -0.91456413 -23.154533
0.91556436 -1.8311281 -23.10458
0.91777581 -2.7533283 -22.994007
0.92045593 -3.6818266 -22.860001
0.92315429 -4.6157732 -22.725082
0.92713016 -5.5627804 -22.526287
0.93295169 -6.5306606 -22.23521
0.93884408 -7.5107536 -21.940592
0.94560528 -8.5104475 -21.602533
0.95492053 -9.5492058 -21.136768
0.96443844 -10.608822 -20.660873
0.97645932 -11.717514 -20.05983
0.99080205 -12.880427 -19.342695
1.0072057 -14.100881 -18.522514
1.0288895 -15.433346 -17.438316
1.0563703 -16.901926 -16.064281
1.0938699 -18.595791 -14.189295
1.1721832 -21.099298 -10.273634
2.3335636 21.002071 -10.543707
2.1902711 18.617306 -14.126017
2.110074 16.880589 -16.130947
2.0585556 15.439165 -17.418901
2.0152502 14.10675 -18.501545
1.9822876 12.884868 -19.325607
1.9539146 11.723486 -20.034927
1.9303173 10.616744 -20.624863
1.9121048 9.5605221 -21.080173
1.8942496 8.5241203 -21.526558
1.8781757 7.5127029 -21.928402
1.8679665 6.5378838 -22.183632
1.8582648 5.5747929 -22.42618
1.8487798 4.6219501 -22.6633
1.8433316 3.6866636 -22.799505
1.8379418 2.7569113 -22.93425
1.8335855 1.8335838 -23.043159
1.832166 0.91608334 -23.078648
1.8321815 9.5367432e-07 -23.078255
1.8322024 -0.91610146 -23.077738
1.8328389 -1.8328409 -23.061821
1.8384089 -2.7576122 -22.922573
1.8442137 -3.6884308 -22.777454
1.8500606 -4.6251507 -22.631285
1.8588496 -5.5765505 -22.411556
1.8696921 -6.5439234 -22.140493
1.8815304 -7.526124 -21.844536
1.8967056 -8.5351734 -21.465158
1.9140779 -9.5703907 -21.030846
1.9332743 -10.633011 -20.55094
1.9585284 -11.751172 -19.919586
1.9865948 -12.912868 -19.217928
2.0221386 -14.154968 -18.329336
2.0638893 -15.479172 -17.285564
2.1227255 -16.981802 -15.814662
2.204215 -18.735828 -13.777425
2.374752 -21.372772 -9.5139923
3.6115501 21.669296 -8.6903
3.3130164 18.773758 -13.665859
3.1876307 17.000698 -15.755615
3.1018913 15.509455 -17.184608
3.0369573 14.172466 -18.26684
2.9856884 12.937983 -19.121319
2.9415877 11.76635 -19.856333
2.9049983 10.651661 -20.46616
2.8764117 9.5880394 -20.9426
2.8496599 8.5489788 -21.388462
2.8284304 7.5424786 -21.74229
2.810236 6.5572157 -22.045532
2.7925406 5.5850811 -22.340452
2.7797489 4.6329117 -22.553648
2.7718244 3.6957674 -22.685722
2.7640715 2.7640696 -22.814941
2.7563617 1.837574 -22.943436
2.7546551 0.91821575 -22.97188
2.7552054 -1.9073486e-06 -22.962708
2.7557559 -0.91858768 -22.953533
2.7590003 -1.8393316 -22.899456
2.7646096 -2.7646141 -22.805969
2.7724452 -3.6965952 -22.675379
2.7823284 -4.6372147 -22.510658
2.796658 -5.593317 -22.27183
2.811136 -6.5593176 -22.030529
2.828737 -7.5432997 -21.737181
2.8533404 -8.5600243 -21.327122
2.8783755 -9.5945864 -20.909874
2.9093139 -10.667483 -20.394234
2.9474428 -11.789771 -19.758749
2.9877396 -12.946872 -19.087135
3.0448878 -14.209476 -18.134665
3.1081121 -15.540562 -17.080927
3.199621 -17.064644 -15.555786
3.3327091 -18.885353 -13.337643
4.4720469 19.006197 -12.982207
4.2895885 17.158352 -15.262938
4.1648784 15.618293 -16.821821
4.0728364 14.254928 -17.97234
4.0005393 13.001751 -18.876059
3.9397621 11.819284 -19.635769
3.8941638 10.708952 -20.205746
3.8495977 9.623991 -20.762827
3.8120131 8.5770273 -21.232632
3.7863817 7.572763 -21.553024
3.7614222 6.58249 -21.865017
3.7376471 5.6064701 -22.162209
3.7211382 4.6514215 -22.368568
3.7081466 3.7081442 -22.53096
3.6977403 2.773303 -22.661045
3.6902883 1.8451433 -22.754194
3.6867268 0.92168045 -22.798712
3.6837831 9.5367432e-07 -22.835506
3.6845212 -0.92113113 -22.826281
3.6917593 -1.8458805 -22.735802
3.699281 -2.7744617 -22.641781
3.7068443 -3.7068443 -22.547247
3.7216547 -4.652072 -22.362114
3.7416666 -5.6124992 -22.111965
3.7618949 -6.5833173 -21.859108
3.7866712 -7.5733447 -21.549404
3.8199315 -8.5948448 -21.133652
3.8538964 -9.6347408 -20.709091
3.8975949 -10.718388 -20.162859
3.9496865 -11.84906 -19.511717
4.0094481 -13.030705 -18.764696
4.0859838 -14.300942 -17.808001
4.1818714 -15.682019 -16.6094
4.3039303 -17.215721 -15.083665
4.5004077 -19.126736 -12.627699
5.698988 19.376558 -11.892919
5.4242535 17.357611 -14.64026
5.2474375 15.742311 -16.408422
5.1326499 14.371419 -17.556299
5.0349255 13.090804 -18.533546
4.9531865 11.887649 -19.350929
4.8948164 10.768595 -19.934629
4.8386064 9.6772137 -20.496731
4.7914357 8.6245823 -20.968441
4.7529969 7.6047921 -21.352829
4.7201905 6.6082668 -21.680893
4.6933169 5.6319799 -21.949627
4.6738634 4.6738644 -22.144161
4.6545711 3.7236557 -22.337086
4.6376686 2.7826004 -22.506115
4.6320877 1.8528357 -22.561916
4.6275988 0.92551804 -22.606812
4.6238356 -9.5367432e-07 -22.64444
4.6235833 -0.9247179 -22.646963
4.6337419 -1.8534966 -22.545376
4.6442671 -2.786561 -22.440125
4.6553254 -3.7242641 -22.329542
4.6751399 -4.6751413 -22.131397
4.6984558 -5.6381474 -21.898239
4.7239733 -6.6135621 -21.643063
4.7599282 -7.6158872 -21.283516
4.7988806 -8.637989 -20.893991
4.8439374 -9.6878767 -20.443422
4.9018397 -10.784048 -19.864397
4.9651847 -11.916444 -19.230953
5.0484629 -13.126005 -18.398167
5.1414895 -14.396172 -17.467901
5.2760153 -15.828048 -16.122641
5.453372 -17.450792 -14.349073
5.7415891 -19.521404 -11.466904
7.0836687 20.070395 -9.8522243
6.606988 17.618635 -13.824557
6.3800645 15.950159 -15.715595
6.2180858 14.508864 -17.065413
6.0869536 13.188398 -18.158182
5.9872632 11.974525 -18.988935
5.9090104 10.833185 -19.641045
5.8402567 9.7337608 -20.213989
5.7893028 8.6839514 -20.638609
5.7410045 7.6546721 -21.041092
5.6952019 6.6444025 -21.422781
5.6618867 5.6618834 -21.700407
5.6387725 4.6989746 -21.893028
5.6158462 3.7438965 -22.08408
5.5968828 2.7984409 -22.242105
5.5865035 1.8621693 -22.3286
5.5819654 0.93032932 -22.366417
5.5774188 9.5367432e-07 -22.404306
5.582191 -0.93036652 -22.364536
5.5882497 -1.8627501 -22.314051
5.5989761 -2.79949 -22.224659
5.6174145 -3.7449436 -22.071011
5.641458 -4.7012177 -21.870647
5.6656909 -5.6656899 -21.668703
5.6996903 -6.6496396 -21.385378
5.744164 -7.6588874 -21.014761
5.7893372 -8.6840086 -20.638317
5.849297 -9.748827 -20.138657
5.9200249 -10.853381 -19.549255
5.9989448 -11.99789 -18.89159
6.1085978 -13.235297 -17.977818
6.2339654 -14.545921 -16.933088
6.398139 -15.995348 -15.564973
6.646925 -17.725136 -13.491755
7.2583694 -20.56538 -8.3963852
7.8750253 18.000057 -12.632618
7.5581079 16.195946 -14.896311
7.3396149 14.679231 -16.456974
7.1750445 13.325079 -17.632481
7.0529342 12.090744 -18.504696
6.95261 10.925528 -19.2213
6.868937 9.8127661 -19.818964
6.801023 8.7441711 -20.304058
6.7420578 7.7052093 -20.725239
6.6923666 6.6923676 -21.080175
6.6541562 5.7035608 -21.353111
6.6173706 4.7266893 -21.615866
6.5902882 3.7658777 -21.809313
6.5742097 2.8175182 -21.924152
6.5601768 1.8743353 -22.024389
6.5463181 0.93518734 -22.123383
6.5454435 -0 -22.129627
6.5525827 -0.93608665 -22.078634
6.5603299 -1.874382 -22.0233
6.5688424 -2.8152189 -21.962492
6.5947442 -3.7684278 -21.777477
6.6245313 -4.7318082 -21.564713
6.6546082 -5.7039514 -21.349882
6.6984358 -6.6984377 -21.036825
6.7517977 -7.7163424 -20.655668
6.8069825 -8.7518349 -20.26149
6.8835869 -9.8336964 -19.714317
6.9690847 -10.95142 -19.103619
7.0751948 -12.128906 -18.345688
7.2014446 -13.374112 -17.443907
7.3737764 -14.747554 -16.212963
7.593008 -16.270733 -14.647025
7.9597516 -18.19372 -12.027429
9.3792076 18.758413 -10.262747
8.8145952 16.527367 -13.791574
8.5128269 14.897447 -15.677622
8.3061352 13.497469 -16.969456
8.1504946 12.22574 -17.942204
8.0248451 11.034158 -18.727516
7.9322281 9.9152842 -19.30637
7.8461466 8.8269129 -19.844383
7.765635 7.765635 -20.347576
7.7093625 6.7456903 -20.69928
7.6650643 5.7487965 -20.976143
7.621273 4.7632961 -21.24984
7.5835376 3.7917662 -21.485689
7.567822 2.8379326 -21.58391
7.5524378 1.8881092 -21.680061
7.5371375 0.94214058 -21.775686
7.5351963 -9.5367432e-07 -21.787817
7.5424814 -0.94281101 -21.742289
7.5523272 -1.8880816 -21.680754
7.5700245 -2.8387613 -21.570139
7.595551 -3.7977772 -21.410599
7.6266236 -4.7666397 -21.2164
7.6678271 -5.7508702 -20.958878
7.7212691 -6.7561135 -20.624863
7.7785392 -7.7785406 -20.266928
7.8539491 -8.8356943 -19.795616
7.9417214 -9.9271507 -19.247034
8.0414629 -11.057013 -18.623652
8.1762238 -12.264336 -17.781401
8.3273849 -13.532001 -16.836639
8.545661 -14.954907 -15.472414
8.8558607 -16.60474 -13.533669
9.5379992 -19.076002 -9.2702961
10.199694 16.999487 -12.217832
9.7774668 15.209392 -14.563538
9.5130777 13.741112 -16.032362
9.2992802 12.399039 -17.220129
9.1480207 11.180914 -18.060455
9.0198259 10.022024 -18.772654
8.9146929 8.9146919 -19.356724
8.8300095 7.848897 -19.82719
8.7608614 6.814003 -20.211342
8.6999426 5.7999611 -20.549778
8.6498251 4.8054562 -20.828209
8.6166563 3.8296242 -21.012484
8.5854959 2.8618317 -21.185595
8.5645771 1.9032383 -21.301811
8.5543833 0.95048714 -21.358444
8.5543079 -0 -21.358864
8.5542326 -0.95047188 -21.359285
8.5593634 -1.9020796 -21.330776
8.5883722 -2.8627892 -21.169615
8.6176815 -3.8300829 -21.006786
8.6488438 -4.8049154 -20.83366
8.7047281 -5.8031511 -20.523197
8.766881 -6.8186827 -20.1779
8.8313551 -7.8500938 -19.81971
8.9307737 -8.9307728 -19.267389
9.0350475 -10.038945 -18.688089
9.1674204 -11.204625 -17.952684
9.330224 -12.4403 -17.048218
9.5473833 -13.790666 -15.841778
9.8294611 -15.290274 -14.274678
10.313443 -17.189072 -11.58589
11.194585 15.672417 -12.909875
10.786295 14.022184 -14.951319
10.511947 12.614337 -16.323063
10.322458 11.354701 -17.270506
10.165592 10.165592 -18.054834
10.026587 9.0239258 -18.749863
9.9260807 7.940865 -19.252392
9.8464527 6.8925152 -19.650536
9.7680912 5.8608527 -20.042341
9.7073956 4.8536973 -20.345819
9.6723843 3.8689508 -20.520874
9.637598 2.8912792 -20.694809
9.6030884 1.9206181 -20.867359
9.5965872 0.95965862 -20.899857
9.5982475 -1.9073486e-06 -20.89156
9.5999079 -0.95999146 -20.883257
9.6142759 -1.9228544 -20.811417
9.6410904 -2.8923283 -20.677341
9.6761951 -3.8704796 -20.501823
9.7223806 -4.8611913 -20.270889
9.7826099 -5.8695683 -19.969746
9.8532352 -6.8972659 -19.616623
9.9444218 -7.9555354 -19.160683
10.050572 -9.045516 -18.629934
10.178742 -10.178743 -17.989086
10.34449 -11.378939 -17.160349
10.543112 -12.651732 -16.167236
10.82093 -14.067211 -14.778141
11.235896 -15.730255 -12.703318
12.946735 16.477661 -10.033998
12.203294 14.422074 -13.413276
11.830034 12.905489 -15.109919
11.572666 11.572664 -16.27977
11.355287 10.322989 -17.267857
11.20459 9.1673908 -17.952843
11.081655 8.0593872 -18.511637
10.969166 6.9803767 -19.022949
10.883142 5.9362597 -19.413971
10.821661 4.9189372 -19.693426
10.761722 3.913353 -19.965878
10.722607 2.9243469 -20.143673
10.69811 1.9451075 -20.255028
10.68329 0.97120571 -20.322384
10.669446 -0 -20.385319
10.676042 -0.97055054 -20.355333
10.701538 -1.945734 -20.239441
10.727123 -2.9255781 -20.123148
10.758124 -3.912046 -19.982227
10.82497 -4.9204388 -19.678385
10.892685 -5.9414663 -19.370588
10.972056 -6.9822173 -19.009813
11.0903 -8.0656719 -18.472343
11.214067 -9.1751451 -17.909769
11.391205 -10.355642 -17.104595
11.592562 -11.592562 -16.189333
11.882408 -12.962626 -14.871847
12.292279 -14.52724 -13.0088
13.171303 -16.763477 -9.0132389
14.018866 15.187102 -10.47086
13.320354 13.320353 -13.381322
12.925749 11.848602 -15.02551
12.654553 10.54546 -16.155491
12.456027 9.3420162 -16.982683
12.29663 8.1977539 -17.646835
12.157429 7.0918303 -18.226847
12.048797 6.0243974 -18.679478
11.979243 4.9913497 -18.969282
11.910489 3.9701624 -19.25576
11.849677 2.9624176 -19.509144
11.827757 1.9712906 -19.600475
11.812778 0.98439693 -19.662884
11.797839 -2.8610229e-06 -19.725136
11.807398 -0.98394966 -19.685305
11.83468 -1.9724483 -19.57163
11.865514 -2.9663792 -19.44315
11.919053 -3.9730167 -19.22007
11.989322 -4.9955535 -18.92729
12.066566 -6.0332847 -18.605438
12.181779 -7.1060395 -18.125381
12.313096 -8.2087317 -17.57823
12.481147 -9.3608646 -16.878016
12.685062 -10.570886 -16.028368
12.971466 -11.890512 -14.835023
13.356656 -13.356655 -13.230066
14.21725 -15.402024 -9.6442528
15.267298 14.092887 -10.162424
14.466259 12.24068 -13.243341
14.105152 10.850113 -14.632215
13.820869 9.5682945 -15.725605
13.593025 8.3649378 -16.601931
13.426172 7.2294769 -17.243675
13.309992 6.1430726 -17.690519
13.195805 5.0753074 -18.129704
13.109674 4.0337443 -18.460972
13.06554 3.0151219 -18.630718
13.022757 2.0035019 -18.795269
12.9842 0.99878597 -18.943565
12.985085 9.5367432e-07 -18.940157
13.00046 -1.0000372 -18.881033
13.015869 -2.0024395 -18.821762
13.057589 -3.0132914 -18.661301
13.128393 -4.0395064 -18.388981
13.199967 -5.0769114 -18.113689
13.309017 -6.1426263 -17.694267
13.44922 -7.2418871 -17.155029
13.609651 -8.3751717 -16.537985
13.852536 -9.5902176 -15.603812
14.14588 -10.881446 -14.475564
14.560355 -12.320299 -12.881431
15.427067 -14.24037 -9.5479221
17.005487 13.361453 -8.1489115
15.83157 11.308264 -12.341474
15.364313 9.877058 -14.01025
15.039671 8.5940952 -15.16969
14.83823 7.4191136 -15.889115
14.650114 6.2786202 -16.560961
14.518453 5.1851611 -17.031181
14.422252 4.1206436 -17.374754
14.3431 3.0735202 -17.65744
14.296042 2.042294 -17.8255
14.263051 1.0187883 -17.943331
14.256371 -9.5367432e-07 -17.967188
14.269736 -1.0192642 -17.919453
14.296405 -2.042345 -17.824207
14.359831 -3.0771046 -17.597685
14.435653 -4.1244693 -17.326893
14.538363 -5.1922717 -16.960072
14.680043 -6.29145 -16.454071
14.840479 -7.4202414 -15.881087
15.090596 -8.6231976 -14.987806
15.38283 -9.8889608 -13.944117
15.869767 -11.335546 -12.20506
17.414473 10.448683 -10.834558
16.804562 8.962431 -12.867592
16.42396 7.6645145 -14.136266
16.171585 6.4686322 -14.977513
15.989678 5.3298907 -15.583868
15.858516 4.2289367 -16.021076
15.759684 3.1519356 -16.350521
15.674229 2.0898929 -16.635372
15.648569 1.0432372 -16.720901
15.640254 -0 -16.748619
15.634175 -1.0422821 -16.768877
15.694204 -2.0925593 -16.568785
15.764316 -3.1528645 -16.335081
15.85336 -4.2275615 -16.038263
16.020031 -5.3400097 -15.482698
16.195185 -6.4780769 -14.898848
16.47986 -7.6906033 -13.94993
16.82641 -8.9740849 -12.794764
17.455023 -10.473015 -10.699388
18.596434 8.1359406 -10.768938
18.073853 6.7776928 -12.402009
17.725195 5.5391221 -13.491562
17.525627 4.3814049 -14.115211
17.356558 3.2543545 -14.643552
17.275908 2.1594853 -14.895588
17.216354 1.0760221 -15.081688
17.161957 -0 -15.251677
17.212843 -1.0758042 -15.092661
17.26878 -2.1585975 -14.917856
17.35767 -3.2545633 -14.640076
17.540136 -4.3850365 -14.069877
17.73649 -5.542654 -13.456268
18.128384 -6.7981453 -12.231595
18.69949 -8.1810246 -10.44689
19.874344 4.6763153 -10.428845
19.498999 3.4409995 -11.532801
19.293129 2.2697778 -12.138302
19.186901 1.1286407 -12.450737
19.170765 -4.7683716e-06 -12.498194
19.167608 -1.1275086 -12.507477
19.307495 -2.2714686 -12.096048
19.543997 -3.4489393 -11.400453
19.97929 -4.7010121 -10.120177
