# .PCD v0.7 - Point Cloud Data file format
VERSION 0.7
FIELDS x y z
SIZE 4 4 4
TYPE F F F
COUNT 1 1 1
WIDTH 1076
HEIGHT 1
VIEWPOINT 0 0 0 1 0 0 0
POINTS 1076
DATA ascii
-22.127779 2.3292403 -10.651801
-21.842667 1.1496124 -11.402094
-21.829254 -2.3841858e-06 -11.437388
-21.978964 -1.1567874 -11.043417
-22.202904 -2.3371477 -10.454101
-20.631882 6.8772912 -11.572011
-20.141846 5.5949574 -12.933228
-19.807072 4.4015703 -13.863156
-19.663927 3.2773194 -14.260774
-19.527313 2.1696992 -14.640259
-19.406292 1.0781298 -14.976431
-19.430897 -1.9073486e-06 -14.908083
-19.461514 -1.0811963 -14.82304
-19.53594 -2.1706634 -14.616297
-19.682301 -3.2803826 -14.20974
-19.872505 -4.4161134 -13.681393
-20.253534 -5.6259832 -12.622979
-20.815144 -6.9383826 -11.062953
-19.207716 9.0389252 -12.389514
-18.699965 7.6999836 -13.8829
-18.35054 6.4766593 -14.910616
-18.115215 5.3280044 -15.602753
-17.948162 4.2230954 -16.094086
-17.84053 3.1483254 -16.410648
-17.76874 2.0904374 -16.621792
-17.698555 1.0410919 -16.828217
-17.686884 -0 -16.862553
-17.724991 -1.0426469 -16.750473
-17.76326 -2.0897956 -16.637913
-17.864298 -3.1525254 -16.340744
-17.993675 -4.2338052 -15.960227
-18.169481 -5.343966 -15.44315
-18.431154 -6.5051155 -14.673518
-18.774853 -7.7308207 -13.662638
-19.385141 -9.1224203 -11.867678
-18.251305 11.407065 -11.847467
-17.59684 9.8982201 -13.892674
-17.195887 8.5979414 -15.14565
-16.902479 7.3948336 -16.062548
-16.689318 6.2584929 -16.728678
-16.554482 5.173275 -17.15004
-16.421755 4.1054392 -17.564812
-16.316538 3.0593491 -17.893616
-16.277853 2.03473 -18.014507
-16.240273 1.0150156 -18.131943
-16.224308 -9.5367432e-07 -18.181837
-16.244576 -1.0152855 -18.118496
-16.269829 -2.0337286 -18.039581
-16.333462 -3.0625272 -17.840725
-16.448246 -4.1120634 -17.482029
-16.565134 -5.1766043 -17.116755
-16.742334 -6.2783761 -16.563002
-16.968931 -7.4239092 -15.854886
-17.265423 -8.6327095 -14.928354
-17.701126 -9.9568844 -13.566776
-18.462811 -11.539258 -11.186516
-16.78067 12.305823 -12.947231
-16.232597 10.82173 -14.774138
-15.889051 9.5334311 -15.919291
-15.623348 8.3324509 -16.80497
-15.4157 7.1939921 -17.497128
-15.255906 6.1023602 -18.029779
-15.150236 5.0500793 -18.38201
-15.052355 4.0139623 -18.708279
-14.979352 2.9958696 -18.951624
-14.929319 1.9905739 -19.118397
-14.895554 0.99303818 -19.230953
-14.88476 -2.8610229e-06 -19.26693
-14.900381 -0.99335766 -19.214861
-14.93597 -1.9914656 -19.096226
-14.988513 -2.9977012 -18.921083
-15.066355 -4.0176935 -18.661615
-15.153947 -5.0513172 -18.369644
-15.287987 -6.1151948 -17.922842
-15.46256 -7.2158623 -17.340929
-15.649329 -8.3463106 -16.718363
-15.952585 -9.5715485 -15.707512
-16.286652 -10.857767 -14.593961
-16.908924 -12.399877 -12.519722
-15.688518 13.447297 -12.852377
-15.020516 11.801833 -15.238093
-14.699056 10.499325 -16.386166
-14.448846 9.2885437 -17.279776
-14.240465 8.1374073 -18.023994
-14.082104 7.0410514 -18.589569
-13.960412 5.9830317 -19.024185
-13.867941 4.9528375 -19.354435
-13.791868 3.9405327 -19.626122
-13.736616 2.9435596 -19.823452
-13.70011 1.9571571 -19.953829
-13.670058 0.97643375 -20.061161
-13.655641 -0 -20.112656
-13.678067 -0.97700691 -20.032555
-13.703902 -1.9576988 -19.940289
-13.744034 -2.9451513 -19.796963
-13.802559 -3.9435883 -19.587948
-13.875115 -4.9554009 -19.32881
-13.9734 -5.9886007 -18.977797
-14.104587 -7.0522952 -18.509272
-14.278373 -8.1590672 -17.888605
-14.495611 -9.3186073 -17.112761
-14.746444 -10.533173 -16.216927
-15.118803 -11.879059 -14.887075
-15.652328 -13.416281 -12.981624
-14.864539 14.864536 -11.711493
-14.181892 13.090977 -14.337061
-13.571596 11.483654 -16.684351
-13.329371 10.253363 -17.615986
-13.144808 9.1002502 -18.325838
-12.978883 7.9870048 -18.964018
-12.857388 6.9232092 -19.431301
-12.758581 5.8885746 -19.811333
-12.684928 4.8788171 -20.094616
-12.616189 3.8819046 -20.35899
-12.565377 2.8997021 -20.554422
-12.541797 1.9295063 -20.645115
-12.520702 0.96313 -20.726246
-12.513101 -0 -20.755482
-12.524526 -0.96342659 -20.711542
-12.537962 -1.9289188 -20.659864
-12.571644 -2.9011507 -20.530315
-12.630243 -3.88623 -20.304937
-12.691546 -4.8813643 -20.069155
-12.769211 -5.8934836 -19.770445
-12.886298 -6.938777 -19.320108
-13.012874 -8.0079222 -18.833282
-13.167728 -9.1161213 -18.237686
-13.358738 -10.275951 -17.503036
-13.624277 -11.528234 -16.481731
-13.985482 -12.909674 -15.09248
-14.522347 -14.522348 -13.027611
-14.006206 16.34057 -10.52361
-13.350469 14.463007 -13.255845
-12.753091 12.75309 -15.744916
-12.278022 11.254852 -17.724373
-12.098888 10.082405 -18.470764
-11.929105 8.9468279 -19.178194
-11.805376 7.8702493 -19.693729
-11.701819 6.8260608 -20.125214
-11.623211 5.8116055 -20.452751
-11.557952 4.8158112 -20.724663
-11.499103 3.8330345 -20.969866
-11.460339 2.8650827 -21.131386
-11.432959 1.9054909 -21.245468
-11.408978 0.95074844 -21.345388
-11.406552 -1.9073486e-06 -21.355497
-11.420011 -0.95166779 -21.299419
-11.43516 -1.9058619 -21.2363
-11.463127 -2.8657808 -21.119762
-11.50863 -3.8362103 -20.930176
-11.565359 -4.8189006 -20.693798
-11.636729 -5.818367 -20.396423
-11.726941 -6.8407164 -20.02054
-11.824823 -7.883213 -19.612698
-11.96551 -8.9741325 -19.026501
-12.123423 -10.102853 -18.368534
-12.307407 -11.281792 -17.601933
-12.563082 -12.563083 -16.536621
-12.9309 -14.008473 -15.004049
-13.482558 -15.72965 -12.705471
-13.111301 17.879047 -9.2859735
-12.485065 15.89008 -12.132501
-11.915845 14.082363 -14.719863
-11.396192 12.432208 -17.081926
-11.071673 11.071671 -18.557007
-10.91842 9.9258347 -19.253616
-10.791839 8.8296852 -19.828985
-10.683453 7.769783 -20.32165
-10.595107 6.7423415 -20.723221
-10.527898 5.7424855 -21.028713
-10.47333 4.760602 -21.276756
-10.42061 3.7893124 -21.516382
-10.393168 2.8345013 -21.641119
-10.37149 1.8857241 -21.739662
-10.35108 0.94100666 -21.832432
-10.350413 -9.5367432e-07 -21.835461
-10.354561 -0.94132423 -21.816607
-10.367966 -1.8850851 -21.75568
-10.397045 -2.835556 -21.623501
-10.435755 -3.7948208 -21.447548
-10.474754 -4.7612519 -21.270279
-10.535418 -5.7465925 -20.994534
-10.619006 -6.7575507 -20.614588
-10.703964 -7.7847013 -20.228415
-10.810854 -8.8452482 -19.742548
-10.95264 -9.9569454 -19.098074
-11.104841 -11.104843 -18.406246
-11.316628 -12.345414 -17.443579
-11.565861 -13.668745 -16.310703
-11.921824 -15.173233 -14.692687
-12.58672 -17.163712 -11.670431
-12.178723 19.485956 -7.9891768
-11.584073 17.376108 -10.96243
-11.04551 15.463714 -13.655245
-10.554868 13.72133 -16.108452
-10.105866 12.127039 -18.353464
-9.9332504 10.926577 -19.216545
-9.8022757 9.8022747 -19.871414
-9.697567 8.7278099 -20.394962
-9.607789 7.6862311 -20.843847
-9.5356245 6.6749372 -21.204674
-9.470746 5.6824474 -21.529064
-9.4226913 4.7113438 -21.769341
-9.3861685 3.7544632 -21.951956
-9.3602066 2.8080606 -22.081766
-9.3396969 1.867938 -22.184311
-9.3230848 0.93230724 -22.267372
-9.326787 9.5367432e-07 -22.248863
-9.3309231 -0.93309593 -22.22818
-9.3372316 -1.8674479 -22.196636
-9.3613224 -2.8083944 -22.076183
-9.398613 -3.7594471 -21.88973
-9.4362288 -4.7181139 -21.701653
-9.4894285 -5.6936564 -21.435656
-9.5503674 -6.685256 -21.130959
-9.6250591 -7.7000475 -20.757502
-9.722146 -8.7499332 -20.272066
-9.8288603 -9.8288593 -19.738499
-9.9586077 -10.954473 -19.089752
-10.130201 -12.156242 -18.231787
-10.324379 -13.421693 -17.2609
-10.60125 -14.841749 -15.876546
-10.981025 -16.47154 -13.977669
-10.645146 18.924704 -9.7430973
-10.140346 16.900576 -12.547541
-9.6812534 15.059728 -15.098054
-9.2619905 13.378431 -17.427294
-8.9707699 11.961027 -19.045185
-8.8400078 10.804453 -19.771641
-8.7351542 9.7057247 -20.354162
-8.6439142 8.6439152 -20.861052
-8.5672121 7.6152983 -21.287174
-8.5057497 6.6155801 -21.628635
-8.4553432 5.6368961 -21.908663
-8.412344 4.673521 -22.147552
-8.3844366 3.7264166 -22.302593
-8.3614187 2.787137 -22.430471
-8.3393192 1.8531809 -22.553249
-8.3255835 0.92506504 -22.629555
-8.3268518 -0 -22.622509
-8.3324099 -0.92582417 -22.591633
-8.3399668 -1.8533278 -22.549648
-8.3638821 -2.7879601 -22.41679
-8.3879337 -3.727973 -22.283169
-8.4168911 -4.6760492 -22.122295
-8.4674807 -5.6449852 -21.841236
-8.52139 -6.6277475 -21.541746
-8.5779448 -7.6248398 -21.227551
-8.6613617 -8.6613598 -20.76412
-8.7567301 -9.7297001 -20.234299
-8.8585272 -10.827093 -19.668755
-9.0030031 -12.004004 -18.866112
-9.1591005 -13.229812 -17.998905
-9.3819637 -14.594166 -16.760775
-9.6479416 -16.079903 -15.283122
-10.121494 -17.993769 -12.652275
-9.66609 20.540438 -8.4697361
-9.1976681 18.395334 -11.397372
-8.7735338 16.450377 -14.048207
-8.3865738 14.676502 -16.466711
-8.0321798 13.052292 -18.681669
-7.8990335 11.84855 -19.513838
-7.7866793 10.706682 -20.216051
-7.6964335 9.6205406 -20.780088
-7.6199651 8.5724602 -21.258018
-7.559267 7.559267 -21.637375
-7.5041852 6.5661621 -21.98164
-7.460845 5.5956306 -22.252514
-7.4220872 4.6388035 -22.494751
-7.4000077 3.7000055 -22.632744
-7.3814654 2.7680502 -22.748638
-7.3630157 1.8407526 -22.863951
-7.3571239 0.91963863 -22.900772
-7.3551488 9.5367432e-07 -22.913118
-7.3531952 -0.91915226 -22.925331
-7.3607841 -1.8401957 -22.877899
-7.3833494 -2.7687559 -22.736862
-7.4060531 -3.7030287 -22.594963
-7.430656 -4.6441603 -22.441196
-7.4701757 -5.602634 -22.194202
-7.5191979 -6.579298 -21.88781
-7.569313 -7.5693121 -21.574593
-7.6387525 -8.5935974 -21.140596
-7.715415 -9.6442719 -20.661449
-7.8068662 -10.734442 -20.089882
-7.919199 -11.878797 -19.3878
-8.0501871 -13.081554 -18.569124
-8.225831 -14.395203 -17.471352
-8.4393549 -15.823792 -16.136822
-8.7751188 -17.55024 -14.038301
-8.2165947 19.954588 -10.19283
-7.8293467 17.895645 -12.958896
-7.4776764 16.023592 -15.47082
-7.1561275 14.312252 -17.767603
-6.9570327 12.920199 -19.189707
-6.8496389 11.742235 -19.956806
-6.7621942 10.626303 -20.581406
-6.6860113 9.5514431 -21.125576
-6.6229343 8.5152025 -21.57612
-6.5698004 7.5083394 -21.955654
-6.5257435 6.5257444 -22.270344
-6.4898925 5.5627613 -22.526423
-6.4598012 4.6141415 -22.741362
-6.4356079 3.6774902 -22.914169
-6.4170742 2.7501745 -23.046551
-6.4016833 1.8290529 -23.156483
-6.4007926 0.91439629 -23.162849
-6.4001741 -9.5367432e-07 -23.167269
-6.3995562 -0.91422367 -23.171682
-6.4089322 -1.8311272 -23.104713
-6.42205 -2.7523117 -23.011011
-6.4416804 -3.6809616 -22.870794
-6.4668841 -4.6192045 -22.690765
-6.5004358 -5.571805 -22.451113
-6.5343366 -6.5343356 -22.208961
-6.5779915 -7.5177073 -21.897142
-6.6379023 -8.5344467 -21.46921
-6.6989336 -9.5699072 -21.03327
-6.7730312 -10.643335 -20.504004
-6.8704662 -11.777945 -19.808039
-6.9707456 -12.945673 -19.091755
-7.1186576 -14.237316 -18.035242
-7.279963 -15.599921 -16.88306
-7.5379014 -17.22949 -15.040643
-7.9464707 -19.298573 -12.122288
-6.8471522 19.400263 -11.823195
-6.5335956 17.422918 -14.43617
-6.2473168 15.618293 -16.821821
-6.0232706 14.054297 -18.688873
-5.9191179 12.824753 -19.556816
-5.8294311 11.658861 -20.304203
-5.7597384 10.559519 -20.884974
-5.6969328 9.4948864 -21.40836
-5.6468358 8.470253 -21.825829
-5.6021113 7.4694829 -22.198532
-5.5658598 6.4935017 -22.500633
-5.5323081 5.5323067 -22.78023
-5.5079589 4.5899649 -22.983143
-5.4870329 3.6580219 -23.157524
-5.4746027 2.7372999 -23.261108
-5.4629712 1.8209906 -23.35804
-5.458878 0.90981197 -23.392147
-5.4572582 9.5367432e-07 -23.40564
-5.45823 -0.90970612 -23.397545
-5.4688969 -1.8229656 -23.308655
-5.4795899 -2.7397976 -23.219551
-5.4903402 -3.6602268 -23.129963
-5.5140615 -4.5950518 -22.932283
-5.5436325 -5.5436316 -22.685858
-5.573523 -6.5024424 -22.436771
-5.6098256 -7.4797673 -22.134249
-5.6579881 -8.4869823 -21.732897
-5.7105289 -9.5175495 -21.295057
-5.7730498 -10.583925 -20.77405
-5.849793 -11.699586 -20.13452
-5.9365692 -12.862569 -19.411385
-6.0484772 -14.113113 -18.478819
-6.1860938 -15.465235 -17.332016
-6.3833542 -17.022278 -15.688178
-6.6698155 -18.89781 -13.300998
-5.8352203 21.006794 -10.530592
-5.5518708 18.87636 -13.364092
-5.3043466 16.973909 -15.839327
-5.0905461 15.271638 -17.977333
-4.9885044 13.967812 -18.997751
-4.9040656 12.75057 -19.84214
-4.8341002 11.601843 -20.54179
-4.7757363 10.506618 -21.125435
-4.72475 9.4495001 -21.635296
-4.6832089 8.4297743 -22.050709
-4.646225 7.4339581 -22.420547
-4.6188316 6.466363 -22.694477
-4.5929132 5.5114965 -22.953663
-4.573307 4.5733051 -23.149727
-4.5564461 3.6451578 -23.318333
-4.5442605 2.7265568 -23.440189
-4.5350523 1.8140202 -23.532274
-4.5291419 0.90582943 -23.591373
-4.5282497 -1.9073486e-06 -23.600298
-4.5306854 -0.90613651 -23.575947
-4.5397863 -1.8159142 -23.484934
-4.5493484 -2.7296114 -23.389317
-4.5597 -3.6477623 -23.285799
-4.5783296 -4.5783291 -23.099501
-4.5993061 -5.5191669 -22.889732
-4.6239948 -6.4735928 -22.642845
-4.6570902 -7.451345 -22.311893
-4.6929197 -8.4472551 -21.953598
-4.7334924 -9.4669876 -21.547873
-4.7878575 -10.533287 -21.004225
-4.8461261 -11.630703 -20.421539
-4.9164119 -12.782671 -19.718674
-5.0069757 -14.019533 -18.813038
-5.1109672 -15.332903 -17.773123
-5.2574325 -16.823788 -16.30847
-5.477952 -18.625038 -14.103275
-4.5554633 20.499582 -11.939505
-4.324708 18.380007 -14.823946
-4.1523438 16.609375 -16.978497
-4.0531526 15.19932 -18.218391
-3.970763 13.897671 -19.248259
-3.904475 12.689543 -20.076859
-3.8521547 11.556462 -20.730862
-3.8057697 10.465866 -21.310673
-3.7671793 9.4179478 -21.793056
-3.7343616 8.4023132 -22.203278
-3.7062681 7.4125333 -22.554447
-3.6828349 6.4449587 -22.847361
-3.6628199 5.4942303 -23.097544
-3.6458488 4.5573092 -23.309685
-3.6336434 3.6336393 -23.462254
-3.6238849 2.7179117 -23.584234
-3.6179674 1.8089819 -23.658205
-3.6131947 0.90329647 -23.717865
-3.6132152 -0 -23.717606
-3.6167984 -0.90420246 -23.672817
-3.620379 -1.8101883 -23.628057
-3.6268151 -2.7201157 -23.547607
-3.6378331 -3.6378345 -23.409885
-3.6526556 -4.5658216 -23.224602
-3.6675994 -5.5014 -23.037804
-3.6837199 -6.4465098 -22.836296
-3.7122102 -7.4244199 -22.480169
-3.7411554 -8.4176025 -22.118355
-3.7710416 -9.4276047 -21.744776
-3.8146 -10.49015 -21.200296
-3.8614221 -11.584268 -20.615021
-3.9147933 -12.72308 -19.94788
-3.9858482 -13.950473 -19.05969
-4.0663524 -15.248822 -18.053394
-4.1775832 -16.710331 -16.663008
-4.3338366 -18.418806 -14.709836
-4.6296134 -20.83326 -11.012631
-3.3759074 20.255445 -12.617669
-3.2018914 18.144053 -15.517939
-3.1001482 16.534122 -17.213659
-3.028688 15.14344 -18.404663
-2.9679925 13.850632 -19.416252
-2.9215331 12.659977 -20.190575
-2.8817947 11.527176 -20.852884
-2.8452091 10.432432 -21.462643
-2.8174691 9.3915634 -21.924978
-2.7927427 8.3782291 -22.337086
-2.7727873 7.3941002 -22.66967
-2.7553234 6.4290876 -22.960739
-2.7413819 5.4827623 -23.193098
-2.7290072 4.5483427 -23.399345
-2.7201803 3.6269083 -23.546455
-2.7119741 2.7119741 -23.683228
-2.7077374 1.8051577 -23.753834
-2.703855 0.90128326 -23.818546
-2.7041352 -0 -23.813875
-2.706804 -0.90226841 -23.769398
-2.7096374 -1.8064251 -23.722172
-2.7125988 -2.7126007 -23.672817
-2.7217216 -3.6289625 -23.520767
-2.7331944 -4.5553246 -23.329556
-2.7447565 -5.4895153 -23.136854
-2.7592289 -6.4382024 -22.895645
-2.777334 -7.4062247 -22.593895
-2.7989364 -8.3968105 -22.233858
-2.8234427 -9.411478 -21.825417
-2.8525817 -10.459467 -21.339771
-2.8867753 -11.547101 -20.769876
-2.9288893 -12.691857 -20.067974
-2.976649 -13.891031 -19.271976
-3.0390031 -15.195017 -18.232744
-3.1151121 -16.613932 -16.964264
-3.2257259 -18.279116 -15.120693
-3.4229326 -20.537596 -11.83392
-2.2366841 20.130157 -12.965697
-2.1257749 18.069084 -15.738422
-2.0604801 16.483837 -17.370798
-2.0123959 15.092965 -18.572901
-1.9752067 13.826447 -19.502625
-1.9438654 12.635122 -20.286161
-1.9167968 11.50078 -20.962875
-1.8936254 10.414938 -21.542164
-1.8756745 9.3783731 -21.990932
-1.8591771 8.3662968 -22.403366
-1.846118 7.384469 -22.729849
-1.8338155 6.418355 -23.037411
-1.824821 5.4744644 -23.26227
-1.8161041 4.5402603 -23.480196
-1.8102505 3.6204996 -23.626534
-1.8050774 2.7076159 -23.755859
-1.8024035 1.8024025 -23.822708
-1.8005984 0.90029812 -23.86784
-1.8004522 -9.5367432e-07 -23.871489
-1.8020502 -0.90102577 -23.831539
-1.804015 -1.8040142 -23.782421
-1.8073127 -2.710968 -23.699982
-1.8126926 -3.6253843 -23.565479
-1.8184335 -4.5460854 -23.421961
-1.8261154 -5.4783459 -23.22991
-1.8372545 -6.4303923 -22.951433
-1.848918 -7.3956718 -22.659847
-1.86136 -8.3761196 -22.348797
-1.8790804 -9.3954048 -21.905783
-1.8984398 -10.441419 -21.421803
-1.9183621 -11.510172 -20.923742
-1.947848 -12.661011 -20.1866
-1.9790877 -13.853616 -19.405605
-2.0198414 -15.14881 -18.386763
-2.0685189 -16.548151 -17.169825
-2.140707 -18.196011 -15.365123
-2.2574091 -20.316685 -12.447567
-1.1133281 20.039904 -13.216394
-1.0615587 18.046497 -15.804859
-1.0290804 16.465282 -17.428778
-1.0046746 15.070116 -18.649071
-0.98677367 13.814833 -19.544111
-0.97043222 12.615619 -20.361187
-0.9572382 11.486856 -21.020884
-0.94588041 10.404684 -21.588774
-0.93691444 9.3691425 -22.037075
-0.92859882 8.3573875 -22.452858
-0.92237109 7.3789663 -22.764238
-0.91634899 6.4144411 -23.065346
-0.91186762 5.4712057 -23.289417
-0.90780872 4.5390415 -23.492359
-0.9047792 3.6191168 -23.643837
-0.90239447 2.7071819 -23.763073
-0.90065444 1.8013077 -23.850075
-0.9002564 0.90025806 -23.869976
-0.90018582 -1.9073486e-06 -23.873505
-0.90011287 -0.90011406 -23.877155
-0.90080577 -1.8016129 -23.84251
-0.90328848 -2.7098656 -23.71837
-0.90597636 -3.6239071 -23.583979
-0.90873152 -4.5436592 -23.44622
-0.91214156 -5.4728508 -23.275717
-0.91793555 -6.4255514 -22.986021
-0.92385656 -7.3908525 -22.68997
-0.93006146 -8.3705502 -22.379728
-0.93881392 -9.3881397 -21.942099
-0.94862956 -10.434925 -21.451321
-0.95940697 -11.512884 -20.912445
-0.97318178 -12.651364 -20.223705
-0.98878068 -13.84293 -19.44376
-1.0087873 -15.131812 -18.443426
-1.0337013 -16.539225 -17.197729
-1.0687716 -18.169121 -15.444212
-1.1263186 -20.273733 -12.566868
0 20.085691 -13.089201
0 18.049536 -15.795927
0 16.463865 -17.433218
0 15.075387 -18.6315
0 13.803235 -19.585527
0 12.625668 -20.322533
0 11.499207 -20.969437
0 10.412854 -21.551632
0 9.3728008 -22.018793
0 8.3685932 -22.390606
0 7.3847446 -22.728127
0 6.4172544 -23.045246
0 5.4714069 -23.287735
0 4.5397711 -23.485064
0 3.6181908 -23.655407
0 2.7068577 -23.768513
0 1.8008614 -23.861288
0 0.90036488 -23.864563
0 -9.5367432e-07 -23.86557
0 -0.90032291 -23.866705
0 -1.8020496 -23.831543
0 -2.7097378 -23.720526
0 -3.6240988 -23.581554
0 -4.5441084 -23.44173
0 -5.4788589 -23.225637
0 -6.4255323 -22.986151
0 -7.3908296 -22.690102
0 -8.3784466 -22.335875
0 -9.39077 -21.928949
0 -10.43179 -21.465572
0 -11.521094 -20.878244
0 -12.650563 -20.226793
0 -13.844249 -19.439053
0 -15.136413 -18.428087
0 -16.543844 -17.183283
0 -18.142311 -15.523067
0 -20.253325 -12.623569
1.1197622 20.155718 -12.894684
1.0647547 18.10083 -15.645059
1.0315741 16.505184 -17.304089
1.0067991 15.101987 -18.542837
0.98794299 13.831202 -19.485647
0.97275823 12.645857 -20.244884
0.95958722 11.515045 -20.903437
0.94767421 10.424416 -21.499086
0.93844706 9.38447 -21.960442
0.93108928 8.3798027 -22.328331
0.9241882 7.3935041 -22.673389
0.91768157 6.423769 -22.998714
0.91287631 5.4772577 -23.238979
0.90906775 4.5453396 -23.429409
0.90551746 3.6220675 -23.606922
0.90345341 2.7103605 -23.710127
0.90218705 1.8043718 -23.773445
0.90100241 0.90100288 -23.832676
0.9009192 -3.8146973e-06 -23.836838
0.90096962 -0.90097046 -23.834314
0.90260702 -1.8052158 -23.752443
0.90425044 -2.7127542 -23.670277
0.9061141 -3.6244593 -23.577091
0.90953279 -4.5476656 -23.406157
0.91414696 -5.4848814 -23.175447
0.91881084 -6.4316745 -22.942255
0.92385131 -7.3908081 -22.690235
0.93181986 -8.3863792 -22.291801
0.93997657 -9.3997631 -21.883968
0.94845617 -10.43302 -21.459986
0.96116918 -11.534031 -20.824335
0.9744578 -12.667952 -20.15991
0.99043912 -13.86615 -19.36084
1.0109168 -15.163754 -18.336956
1.0365847 -16.585354 -17.05356
1.0712264 -18.210852 -15.321477
1.1333672 -20.400608 -12.214438
2.2597153 20.337439 -12.389911
2.1407852 18.196674 -15.363166
2.0721748 16.577398 -17.078423
2.0215669 15.161748 -18.343624
1.9827639 13.879345 -19.313702
1.9502442 12.676583 -20.126694
1.9218276 11.530964 -20.837107
1.9007665 10.454215 -21.363634
1.8817888 9.4089432 -21.838074
1.8646765 8.3910408 -22.265888
1.8505712 7.4022856 -22.618515
1.8397752 6.4392147 -22.888416
1.8303945 5.4911814 -23.122936
1.8220212 4.5550518 -23.332264
1.8138982 3.6277971 -23.535343
1.8102913 2.715436 -23.625513
1.8079065 1.8079042 -23.685131
1.8055279 0.90276241 -23.744595
1.8031559 -9.5367432e-07 -23.8039
1.8051028 -0.9025526 -23.755226
1.8084654 -1.808466 -23.671165
1.811866 -2.7178001 -23.586147
1.8152742 -3.6305494 -23.500938
1.8222585 -4.5556469 -23.326332
1.831655 -5.4949665 -23.091423
1.8411541 -6.4440436 -22.853947
1.8526218 -7.4104867 -22.567249
1.8675655 -8.4040451 -22.193661
1.8842181 -9.421092 -21.777344
1.9035771 -10.469673 -21.293369
1.9267002 -11.560202 -20.715292
1.953393 -12.697053 -20.047976
1.9877359 -13.914152 -19.189398
2.0272272 -15.204205 -18.202114
2.0812943 -16.650356 -16.850437
2.1565652 -18.330805 -14.968666
2.2908485 -20.61764 -11.611583
3.4452116 20.671268 -11.462604
3.2350645 18.332033 -14.96505
3.1284463 16.685043 -16.742031
3.0477908 15.238951 -18.086287
2.9845257 13.927786 -19.140701
2.9345691 12.716465 -19.973312
2.8934281 11.573709 -20.658997
2.8606279 10.488965 -21.205667
2.8313253 9.4377489 -21.694042
2.8053694 8.4161072 -22.12664
2.7827454 7.4206524 -22.503708
2.7671371 6.4566526 -22.763844
2.7527702 5.505538 -23.003292
2.7399659 4.5666084 -23.216698
2.7293234 3.6390944 -23.394075
2.7219901 2.7219887 -23.516293
2.7184265 1.8122845 -23.575687
2.7148721 0.90495777 -23.63493
2.7131097 -1.9073486e-06 -23.664301
2.7145667 -0.90485764 -23.64002
2.7183652 -1.8122425 -23.576708
2.7234874 -2.7234888 -23.491341
2.7314467 -3.6419296 -23.358683
2.741888 -4.5698147 -23.184664
2.7536652 -5.5073299 -22.988379
2.76824 -6.4592247 -22.745464
2.7883549 -7.4356151 -22.410213
2.8087726 -8.4263172 -22.06992
2.8327625 -9.4425402 -21.67009
2.8654332 -10.506591 -21.125574
2.8991363 -11.596546 -20.563856
2.9405932 -12.742571 -19.872911
2.992945 -13.967076 -19.000381
3.0543761 -15.271881 -17.976528
3.1378102 -16.734989 -16.585958
3.2596285 -18.471231 -14.555653
3.5225797 -21.135483 -10.173132
4.8054953 21.624727 -8.8141098
4.3615298 18.536501 -14.363674
4.201704 16.806816 -16.36149
4.0845184 15.316946 -17.826311
4.0023055 14.008067 -18.853981
3.9340551 12.785677 -19.707108
3.8785944 11.635782 -20.400364
3.8307533 10.534571 -20.998383
3.7868273 9.4670677 -21.547455
3.7553542 8.4495449 -21.940865
3.7275171 7.4550328 -22.288834
3.703176 6.4805555 -22.593098
3.6802762 5.5204153 -22.879343
3.6639249 4.5799055 -23.083733
3.6536198 3.6536179 -23.212551
3.6433723 2.7325287 -23.340645
3.6338382 1.8169203 -23.459816
3.629617 0.90740395 -23.512587
3.631583 -0 -23.488007
3.6335409 -0.90838623 -23.463535
3.6355109 -1.8177557 -23.438908
3.6400445 -2.7300339 -23.38224
3.6539514 -3.6539507 -23.208399
3.6679549 -4.5849457 -23.03336
3.6821816 -5.5232744 -22.855526
3.7039113 -6.4818454 -22.583908
3.7313852 -7.46277 -22.240482
3.7592802 -8.4583797 -21.89179
3.7921596 -9.4804001 -21.480801
3.8373535 -10.552723 -20.915878
3.8836377 -11.650912 -20.33733
3.9428997 -12.814425 -19.596552
4.0145121 -14.050794 -18.701393
4.1039209 -15.389703 -17.583788
4.2217536 -16.887014 -16.110878
4.3970761 -18.687574 -13.919344
5.5452127 18.853722 -13.43067
5.3057108 16.978273 -15.825688
5.1563005 15.4689 -17.319792
5.0432258 14.12103 -18.450542
4.9519215 12.874996 -19.363579
4.8748126 11.699547 -20.13467
4.8126593 10.587848 -20.756207
4.7602801 9.5205593 -21.279993
4.7166901 8.4900417 -21.715897
4.6815734 7.4905167 -22.067059
4.6497698 6.5096788 -22.385101
4.6210604 5.5452719 -22.672192
4.5996089 4.5996075 -22.886711
4.5864987 3.6691999 -23.017811
4.5734501 2.7440681 -23.1483
4.5604877 1.8241968 -23.277916
4.5550532 0.91101074 -23.332266
4.5576077 -9.5367432e-07 -23.306721
4.5601649 -0.91203403 -23.281147
4.5627255 -1.8250904 -23.255543
4.573112 -2.7438641 -23.151676
4.5875053 -3.6700029 -23.00774
4.6053352 -4.6053371 -22.829443
4.6257229 -5.550868 -22.625566
4.652956 -6.5141382 -22.353237
4.6861954 -7.4979148 -22.02084
4.7222404 -8.5000343 -21.660391
4.7696352 -9.5392714 -21.186447
4.821022 -10.606249 -20.672577
4.885365 -11.724876 -20.029144
4.9619846 -12.901161 -19.262951
5.0532351 -14.149059 -18.350447
5.1735582 -15.520674 -17.147213
5.33815 -17.082081 -15.501296
5.5984607 -19.034767 -12.898187
6.8260689 19.340527 -11.99889
6.4695659 17.252176 -14.969747
6.2584133 15.646034 -16.729351
6.1078825 14.251726 -17.983772
5.9861865 12.970072 -18.997906
5.8909831 11.781965 -19.791269
5.8135653 10.658199 -20.436422
5.7527719 9.5879526 -20.943031
5.6974201 8.5461273 -21.404297
5.6474304 7.5299053 -21.820873
5.6059985 6.5403299 -22.166142
5.5796428 5.5796404 -22.385773
5.5535178 4.6279306 -22.603479
5.5287285 3.6858168 -22.810061
5.5129275 2.756464 -22.941734
5.504724 1.8349075 -23.010094
5.4993782 0.91656017 -23.054647
5.4942927 -0 -23.097023
5.4945111 -0.91575146 -23.0952
5.5043631 -1.8347883 -23.013103
5.5180483 -2.7590246 -22.899067
5.5318012 -3.6878681 -22.784452
5.5511069 -4.6259222 -22.623571
5.5831113 -5.5831108 -22.356869
5.6161728 -6.5522037 -22.081354
5.6500416 -7.5333886 -21.799118
5.7019453 -8.5529194 -21.366585
5.7595153 -9.5991936 -20.886833
5.8195748 -10.669222 -20.386339
5.906498 -11.812998 -19.66198
6.0015364 -13.003328 -18.869993
6.1248541 -14.291326 -17.842344
6.2740712 -15.685179 -16.598871
6.5030537 -17.341475 -14.69068
6.9417987 -19.668428 -11.034475
7.691205 17.579895 -13.945618
7.3991337 15.855286 -16.031839
7.2014217 14.40284 -17.444075
7.0526247 13.097728 -18.506908
6.9408708 11.898635 -19.305147
6.8431053 10.753451 -20.003469
6.760571 9.6579571 -20.593
6.6913729 8.6031914 -21.087276
6.6354775 7.5834007 -21.486526
6.5884376 6.5884371 -21.822525
6.5518203 5.6158447 -22.08408
6.5205493 4.6575336 -22.307446
6.489593 3.7083368 -22.528561
6.4682398 2.7721024 -22.681084
6.4617834 1.8462219 -22.727203
6.4553947 0.92219734 -22.772831
6.4494076 -9.5367432e-07 -22.815598
6.4491124 -0.92130184 -22.817707
6.4611716 -1.8460503 -22.731571
6.4772229 -2.7759552 -22.616919
6.4933534 -3.7104855 -22.501701
6.5179644 -4.6556921 -22.325909
6.5565495 -5.6199012 -22.050301
6.5962701 -6.5962701 -21.766582
6.641953 -7.5908051 -21.440273
6.7023816 -8.6173477 -21.008638
6.7721353 -9.6744795 -20.510405
6.8551202 -10.772335 -19.917648
6.9544129 -11.921852 -19.208422
7.076262 -13.141629 -18.338068
7.2299876 -14.459975 -17.240028
7.4395981 -15.941996 -15.742809
7.7518644 -17.718548 -13.51234
9.0642872 18.128576 -12.230998
8.6229668 16.168064 -14.98925
8.3561153 14.623203 -16.657074
8.1695042 13.275441 -17.823397
8.0202703 12.030404 -18.756107
7.8944802 10.854908 -19.542297
7.796771 9.7459631 -20.152973
7.7084394 8.6719933 -20.70505
7.6501694 7.6501679 -21.069241
7.5952601 6.6458497 -21.41242
7.5413322 5.6560001 -21.749468
7.5017796 4.688612 -21.996674
7.475533 3.7377663 -22.160715
7.4538898 2.7952089 -22.295982
7.4341531 1.8585396 -22.419338
7.423265 0.92790794 -22.487392
7.4214883 9.5367432e-07 -22.498493
7.4287267 -0.92858982 -22.453257
7.4359779 -1.8589954 -22.407928
7.4526601 -2.7947474 -22.303671
7.4783554 -3.7391768 -22.143072
7.511651 -4.6947823 -21.934978
7.5473456 -5.6605086 -21.711887
7.5948567 -6.6454988 -21.414944
7.6594319 -7.6594329 -21.011345
7.7251387 -8.6907797 -20.600683
7.8054466 -9.7568073 -20.098757
7.91326 -10.880735 -19.424917
8.0240946 -12.036142 -18.732204
8.1875601 -13.304787 -17.710546
8.372283 -14.651497 -16.556026
8.6607637 -16.238934 -14.753025
9.1770144 -18.354031 -11.52646
9.9485731 16.580954 -13.612947
9.5755062 14.89523 -15.685536
9.3291721 13.475471 -17.054062
9.1342602 12.179012 -18.136906
8.9844046 10.980938 -18.969437
8.8618612 9.8465118 -19.650232
8.7619753 8.7619743 -20.205158
8.6856728 7.7205997 -20.629059
8.6220169 6.7060132 -20.982702
8.5595913 5.7063942 -21.329514
8.5125732 4.729207 -21.590721
8.4827318 3.7701035 -21.756508
8.4575167 2.81917 -21.896593
8.4349308 1.8744307 -22.022068
8.4177227 0.93530369 -22.117672
8.41924 -2.8610229e-06 -22.109245
8.4268074 -0.93630981 -22.067196
8.4343901 -1.8743114 -22.025068
8.4480934 -2.8160305 -21.948944
8.4862356 -3.7716618 -21.73704
8.524725 -4.7359567 -21.523214
8.5635643 -5.709043 -21.30744
8.6262531 -6.7093091 -20.959166
8.7021122 -7.7352114 -20.537725
8.7793179 -8.7793169 -20.10881
8.8851585 -9.8723984 -19.520803
9.0120516 -11.01473 -18.815844
9.1657095 -12.220945 -17.962193
9.3591967 -13.518841 -16.88726
9.6226521 -14.968572 -15.423619
10.031578 -16.719297 -13.151808
11.629786 17.444675 -10.73387
10.924997 15.294995 -14.257811
10.568386 13.7389 -16.040869
10.327162 12.392594 -17.246986
10.124274 11.1367 -18.261427
9.9816198 9.9816189 -18.974701
9.8556194 8.8700542 -19.604702
9.7595901 7.8076682 -20.08485
9.6719198 6.7703438 -20.523199
9.6182985 5.7709799 -20.7913
9.5656395 4.7828188 -21.0546
9.5190678 3.8076239 -21.287457
9.4788074 2.8436394 -21.488762
9.4606113 1.8921223 -21.579739
9.4525528 0.94525433 -21.620031
9.4444809 -1.9073486e-06 -21.660391
9.4500551 -0.94500828 -21.632521
9.4642849 -1.8928585 -21.561375
9.4910793 -2.8473215 -21.427402
9.5224476 -3.80898 -21.270557
9.5660658 -4.7830334 -21.052469
9.6266422 -5.7759871 -20.749582
9.6940031 -6.7858024 -20.412779
9.7739649 -7.8191705 -20.012972
9.8836164 -8.895256 -19.464712
10.004426 -10.004427 -18.860666
10.155103 -11.170614 -18.107281
10.351177 -12.421415 -17.126911
10.602262 -13.782942 -15.871483
10.960941 -15.345319 -14.078089
11.837467 -17.756199 -9.6954613
12.512867 15.925467 -12.006123
11.948624 14.121099 -14.570871
11.604266 12.659201 -16.136133
11.345206 11.345203 -17.313677
11.157587 10.143259 -18.166494
10.996835 8.9974089 -18.897184
10.891613 7.9211693 -19.375465
10.794011 6.8689141 -19.819111
10.708789 5.8411574 -20.206484
10.643654 4.8380241 -20.50255
10.590447 3.8510695 -20.7444
10.551841 2.8777752 -20.919882
10.52627 1.9138651 -21.036114
10.515233 0.95593166 -21.086281
10.504219 -0 -21.136345
10.500793 -0.95461845 -21.151924
10.530528 -1.9146442 -21.016754
10.560434 -2.8801193 -20.880819
10.59051 -3.8510971 -20.744112
10.646471 -4.8393064 -20.489748
10.723159 -5.8489966 -20.141167
10.800926 -6.8733187 -19.787676
10.89936 -7.9268088 -19.340254
11.035985 -9.0294418 -18.719229
11.181833 -10.165302 -18.056284
11.387687 -11.387687 -17.120584
11.635885 -12.693694 -15.992407
11.989657 -14.169595 -14.384354
12.603973 -16.041424 -11.59201
13.579746 14.711388 -12.300523
13.011455 13.011454 -14.668403
12.675237 11.618967 -16.069307
12.415103 10.345918 -17.153198
12.23752 9.1781387 -17.893129
12.080985 8.0539875 -18.545357
11.955029 6.9737659 -19.070179
11.856517 5.9282589 -19.480644
11.766817 4.9028387 -19.854393
11.711187 3.9037285 -20.086184
11.672288 2.9180717 -20.248262
11.635363 1.9392262 -20.402122
11.612132 0.96767616 -20.498913
11.612341 -9.5367432e-07 -20.498039
11.622617 -0.96855354 -20.455231
11.637501 -1.9395857 -20.393208
11.670982 -2.9177465 -20.253704
11.72484 -3.9082808 -20.029291
11.786785 -4.91116 -19.771193
11.864129 -5.9320655 -19.448925
11.971668 -6.9834733 -19.000847
12.097902 -8.0652695 -18.474873
12.240545 -9.1804094 -17.880524
12.454782 -10.378984 -16.987869
12.689981 -11.632486 -16.007874
13.058177 -13.058176 -14.473724
13.686296 -14.826821 -11.856563
14.756951 13.621799 -12.125291
14.174636 11.993919 -14.364965
13.805136 10.619333 -15.78612
13.546855 9.3785896 -16.77951
13.346124 8.2129993 -17.551548
13.188066 7.101264 -18.15946
13.064806 6.0299101 -18.633543
12.97981 4.9922333 -18.960457
12.898216 3.9686823 -19.274273
12.843061 2.9637814 -19.486408
12.797452 1.9688396 -19.661827
12.776035 0.98277092 -19.744198
12.776933 -0 -19.740746
12.786695 -0.98359489 -19.703201
12.796473 -1.9686909 -19.665594
12.842982 -2.9637637 -19.486712
12.912907 -3.9732022 -19.217773
12.983635 -4.9937057 -18.945738
13.080328 -6.0370746 -18.573843
13.219946 -7.1184363 -18.036848
13.36642 -8.2254887 -17.47349
13.586272 -9.4058819 -16.627903
13.841125 -10.647018 -15.647699
14.228676 -12.03965 -14.157118
14.849871 -13.707572 -11.767907
16.17189 12.706485 -11.126043
15.443785 11.031276 -13.726423
15.032947 9.6640348 -15.193702
14.759824 8.4341841 -16.169136
14.55513 7.2775631 -16.900192
14.389595 6.1669693 -17.491385
14.261334 5.0933313 -17.949459
14.161465 4.046133 -18.306135
14.081928 3.0175548 -18.590199
14.049127 2.0070181 -18.70734
14.023023 1.0016441 -18.800573
14.00019 -1.9073486e-06 -18.882118
14.013253 -1.0009451 -18.835463
14.058376 -2.0083399 -18.674305
14.103791 -3.0222406 -18.512112
14.161332 -4.0460935 -18.306614
14.277332 -5.0990491 -17.892321
14.403488 -6.1729255 -17.441769
14.551557 -7.2757788 -16.912954
14.784962 -8.4485512 -16.079359
15.040775 -9.6690702 -15.165742
15.490936 -11.064956 -13.558026
16.268707 -12.782557 -10.780268
16.865797 10.119478 -12.663471
16.386217 8.739315 -14.262074
16.053328 7.4915524 -15.37171
15.847271 6.3389044 -16.058561
15.681814 5.2272725 -16.610081
15.558793 4.1490107 -17.020151
15.469099 3.0938182 -17.31913
15.389359 2.0519137 -17.584934
15.353043 1.0235348 -17.705986
15.360126 -1.9073486e-06 -17.682377
15.367753 -1.0245161 -17.65695
15.406598 -2.0542135 -17.52747
15.471629 -3.0943265 -17.310703
15.574405 -4.1531777 -16.968113
15.703035 -5.2343459 -16.539345
15.88534 -6.3541365 -15.931665
16.120174 -7.5227509 -15.148883
16.454525 -8.7757473 -14.034374
16.903652 -10.142194 -12.537287
18.828104 9.4140482 -10.044975
18.026649 7.8866587 -12.549517
17.612005 6.6045012 -13.845275
17.34247 5.4195199 -14.687579
17.134489 4.2836208 -15.337523
16.995872 3.1867275 -15.770699
16.93667 2.1170845 -15.9557
16.877882 1.0548663 -16.139418
16.86235 1.9073486e-06 -16.187952
16.872517 -1.054534 -16.156181
16.936337 -2.1170435 -15.956741
17.038105 -3.194644 -15.638716
17.160357 -4.290092 -15.256686
17.382513 -5.4320364 -14.562439
17.646832 -6.6175628 -13.736442
18.10964 -7.922967 -12.290172
19.732203 5.803586 -10.846909
19.199492 4.5175257 -12.413704
18.967192 3.3471508 -13.09694
18.740641 2.2047806 -13.763269
18.713974 1.1008196 -13.841699
18.700796 9.5367432e-07 -13.880456
18.724989 -1.1014733 -13.809299
18.817991 -2.2138824 -13.535761
19.008446 -3.3544302 -12.975603
19.259712 -4.5316982 -12.236584
19.817184 -5.8285837 -10.59696
