# .PCD v0.7 - Point Cloud Data file format
VERSION 0.7
FIELDS x y z
SIZE 4 4 4
TYPE F F F
COUNT 1 1 1
WIDTH 1061
HEIGHT 1
VIEWPOINT 0 0 0 1 0 0 0
POINTS 1061
DATA ascii
-23.055468 1.2134428 -8.2105122
-23.146055 -7.1525574e-07 -7.9721222
-23.30076 -1.2263558 -7.5650058
-21.619804 7.2065978 -8.8277817
-20.705702 5.751585 -11.366961
-20.383308 4.5296245 -12.262497
-20.133585 3.3555965 -12.956174
-19.95252 2.2169452 -13.459128
-19.870325 1.1039042 -13.687449
-19.877619 -0 -13.667185
-19.897078 -1.1053915 -13.613134
-19.995012 -2.2216716 -13.341094
-20.154459 -3.359076 -12.89819
-20.375925 -4.5279822 -12.283009
-20.873119 -5.79809 -10.901909
-19.950949 9.3886814 -10.203537
-19.196594 7.9044809 -12.422222
-18.774725 6.6263757 -13.663015
-18.544607 5.4542947 -14.339831
-18.350233 4.3177004 -14.911521
-18.176483 3.2076111 -15.422554
-18.096821 2.1290359 -15.656857
-18.055552 1.0620899 -15.778236
-18.034601 -1.4305115e-06 -15.839853
-18.071774 -1.0630455 -15.730521
-18.116774 -2.1313853 -15.598165
-18.217457 -3.2148466 -15.302038
-18.359962 -4.3199935 -14.882904
-18.527777 -5.4493465 -14.389334
-18.854242 -6.654439 -13.429144
-19.285307 -7.9410086 -12.161306
-20.078571 -9.4487419 -9.8281794
-19.023987 11.88999 -9.4328346
-18.075249 10.167328 -12.397647
-17.585962 8.7929773 -13.926666
-17.292267 7.5653653 -14.84446
-17.038275 6.3893533 -15.638189
-16.847731 5.2649131 -16.233643
-16.739395 4.1848483 -16.572184
-16.632391 3.1185718 -16.906574
-16.576599 2.0720701 -17.080925
-16.521921 1.0326214 -17.251791
-16.507143 -9.5367432e-07 -17.297974
-16.527065 -1.0329428 -17.235716
-16.550331 -2.0687938 -17.163008
-16.633842 -3.1188478 -16.902037
-16.737381 -4.1843472 -16.578476
-16.871191 -5.2722492 -16.160328
-17.081287 -6.4054818 -15.503777
-17.312674 -7.574296 -14.780687
-17.652096 -8.8260479 -13.719995
-18.144035 -10.206019 -12.182688
-19.674999 -12.296879 -7.3984227
-17.315466 12.69801 -11.164575
-16.658602 11.105732 -13.354126
-16.247841 9.748703 -14.723329
-15.931052 8.4965572 -15.779288
-15.724365 7.3380361 -16.468246
-15.561652 6.2246594 -17.010624
-15.426933 5.1423087 -17.45969
-15.315146 4.0840373 -17.832306
-15.233375 3.0466752 -18.104879
-15.203246 2.0270987 -18.205309
-15.174763 1.0116491 -18.300253
-15.15152 -2.8610229e-06 -18.377728
-15.149047 -1.0099373 -18.385973
-15.190187 -2.0253563 -18.248844
-15.244199 -3.0488391 -18.068802
-15.313107 -4.0834975 -17.839109
-15.43359 -5.1445312 -17.437496
-15.58884 -6.2355351 -16.919998
-15.748783 -7.349432 -16.38685
-15.968152 -8.516346 -15.655626
-16.287035 -9.7722197 -14.592678
-16.718023 -11.145348 -13.156054
-17.484674 -12.822094 -10.600551
-15.988934 13.704798 -11.779463
-15.361799 12.069983 -14.01923
-15.010509 10.721793 -15.273834
-14.730004 9.4692869 -16.27564
-14.522804 8.2987423 -17.015638
-14.357679 7.1788387 -17.605366
-14.210104 6.0900455 -18.132425
-14.116607 5.0416436 -18.466345
-14.043347 4.0123839 -18.727985
-13.972099 2.9940224 -18.982437
-13.931705 1.990242 -19.126705
-13.90406 0.99314404 -19.225437
-13.881442 -9.5367432e-07 -19.306213
-13.904532 -0.99318123 -19.223753
-13.931834 -1.9902601 -19.126244
-13.969717 -2.9935122 -18.990948
-14.041553 -4.0118752 -18.734392
-14.114175 -5.0407791 -18.475029
-14.226526 -6.0970831 -18.073776
-14.37142 -7.1857109 -17.556297
-14.547845 -8.3130569 -16.92621
-14.773811 -9.4974499 -16.119186
-15.040524 -10.743233 -15.166639
-15.461113 -12.148017 -13.664536
-16.10783 -13.806714 -11.35483
-14.818785 14.818786 -11.887465
-14.238894 13.143593 -14.117817
-13.875554 11.74085 -15.515284
-13.593599 10.456614 -16.599722
-13.392862 9.2719803 -17.371784
-13.203757 8.1253891 -18.099108
-13.09523 7.0512781 -18.516525
-12.988513 5.9946971 -18.926977
-12.892175 4.9585271 -19.297508
-12.825383 3.946269 -19.554398
-12.774281 2.9479122 -19.75095
-12.739311 1.9598932 -19.885447
-12.727259 0.97902012 -19.931801
-12.720254 9.5367432e-07 -19.958738
-12.724279 -0.97878933 -19.943264
-12.747968 -1.9612255 -19.852152
-12.788493 -2.95119 -19.696285
-12.83782 -3.9500999 -19.506565
-12.907209 -4.9643145 -19.239683
-12.998075 -5.9991145 -18.890198
-13.10914 -7.0587678 -18.463028
-13.239693 -8.1475048 -17.960903
-13.4081 -9.2825308 -17.313185
-13.620064 -10.476972 -16.49794
-13.916446 -11.775455 -15.358005
-14.280499 -13.181998 -13.957807
-14.901917 -14.901917 -11.567726
-13.78803 16.086035 -11.43267
-13.15537 14.251647 -14.068756
-12.776297 12.776297 -15.64823
-12.52657 11.482689 -16.688753
-12.31345 10.261206 -17.576756
-12.150926 9.1131916 -18.253942
-12.016218 8.0108099 -18.815222
-11.908138 6.9464111 -19.265554
-11.810792 5.9053955 -19.671164
-11.738276 4.8909478 -19.973312
-11.688821 3.8962727 -20.179375
-11.647399 2.9118481 -20.351971
-11.617476 1.936245 -20.476643
-11.590977 0.96591377 -20.587061
-11.589689 -9.5367432e-07 -20.592424
-11.593343 -0.96611309 -20.577202
-11.604281 -1.9340477 -20.531624
-11.6448 -2.9112005 -20.362799
-11.685568 -3.8951921 -20.19293
-11.742631 -4.8927627 -19.955166
-11.822398 -5.911201 -19.622805
-11.907991 -6.9463272 -19.266169
-12.034717 -8.0231476 -18.738146
-12.173369 -9.1300268 -18.160421
-12.337918 -10.281598 -17.474802
-12.546919 -11.501344 -16.603966
-12.82739 -12.827391 -15.435337
-13.211851 -14.312839 -13.833414
-13.907846 -16.225821 -10.933438
-12.86646 17.545174 -10.398888
-12.144226 15.456285 -13.681771
-11.770169 13.910199 -15.382027
-11.492792 12.537589 -16.642834
-11.282365 11.282362 -17.599319
-11.110592 10.100536 -18.380108
-10.986733 8.9891434 -18.943102
-10.865605 7.9022551 -19.493687
-10.771021 6.8542852 -19.923611
-10.70649 5.8399024 -20.216934
-10.645958 4.8390703 -20.492075
-10.590606 3.8511295 -20.743681
-10.550647 2.8774471 -20.925312
-10.529307 1.9144173 -21.02231
-10.513422 0.95576382 -21.094517
-10.511642 -0 -21.102604
-10.520671 -0.95642757 -21.061565
-10.535574 -1.9155588 -20.993822
-10.56242 -2.8806591 -20.871799
-10.59904 -3.8541975 -20.705341
-10.64977 -4.8408079 -20.474752
-10.714006 -5.8440075 -20.182766
-10.786479 -6.8641248 -19.853348
-10.883175 -7.9150362 -19.41382
-10.987756 -8.9899845 -18.93845
-11.135195 -10.122905 -18.26827
-11.31265 -11.31265 -17.461662
-11.511815 -12.558344 -16.556366
-11.810497 -13.95786 -15.19872
-12.213484 -15.544434 -13.366963
-13.15696 -17.941311 -9.0784321
-11.213073 16.819607 -12.817434
-10.772143 15.080997 -15.022083
-10.496073 13.64489 -16.402435
-10.279267 12.335119 -17.486462
-10.118194 11.130013 -18.291824
-9.9776583 9.9776573 -18.994507
-9.8614779 8.8753271 -19.575409
-9.7653933 7.8123126 -20.055824
-9.6909094 6.7836351 -20.428251
-9.6287451 5.7772455 -20.739071
-9.5765409 4.788269 -21.000092
-9.5363588 3.8145437 -21.201004
-9.5047016 2.8514109 -21.359285
-9.4875536 1.8975105 -21.445028
-9.4751234 0.94751167 -21.507179
-9.4697704 -1.9073486e-06 -21.533943
-9.4713593 -0.94713497 -21.526003
-9.4880857 -1.8976183 -21.442371
-9.5074253 -2.8522291 -21.345667
-9.5382814 -3.8153143 -21.191395
-9.5851545 -4.7925797 -20.957022
-9.6343088 -5.7805886 -20.711254
-9.7051706 -6.7936196 -20.356945
-9.7845736 -7.8276582 -19.95993
-9.8775492 -8.8897934 -19.495047
-9.9958801 -9.9958811 -18.903393
-10.12711 -11.139819 -18.247252
-10.298543 -12.358254 -17.390079
-10.512014 -13.665622 -16.322721
-10.814749 -15.140651 -14.809049
-11.249446 -16.87417 -12.635567
-10.360331 18.418364 -11.325403
-9.843358 16.405596 -14.197474
-9.5261564 14.818468 -15.959701
-9.3094721 13.447014 -17.163507
-9.1303158 12.173755 -18.158821
-9.0031157 11.003805 -18.865488
-8.8794384 9.8660431 -19.552582
-8.785655 8.785656 -20.073599
-8.7043877 7.7372336 -20.525085
-8.6425982 6.7220225 -20.868359
-8.5848856 5.7232542 -21.188988
-8.5480213 4.7489014 -21.393787
-8.5169544 3.7853136 -21.566383
-8.4899178 2.8299723 -21.716591
-8.4647579 1.8810568 -21.856361
-8.4550228 0.9394455 -21.910446
-8.4506569 1.9073486e-06 -21.934704
-8.4524565 -0.93916321 -21.924702
-8.4694862 -1.8821106 -21.830095
-8.4890718 -2.8296928 -21.721287
-8.5140753 -3.7840319 -21.582378
-8.5539789 -4.7522116 -21.360687
-8.5942335 -5.7294903 -21.137053
-8.6521511 -6.7294512 -20.815292
-8.7156506 -7.7472444 -20.462513
-8.798172 -8.798173 -20.004065
-8.9020348 -9.8911514 -19.427044
-9.0152216 -11.018606 -18.798233
-9.1474724 -12.19663 -18.063507
-9.3219662 -13.465061 -17.094097
-9.5501223 -14.855746 -15.826561
-9.8798208 -16.46637 -13.9949
-10.481276 -18.633375 -10.653489
-8.9175138 17.835028 -13.148332
-8.5696678 16.068125 -15.322372
-8.3522387 14.616417 -16.681303
-8.1746397 13.283791 -17.791294
-8.0376472 12.056469 -18.647503
-7.918469 10.887892 -19.392366
-7.8223548 9.7779427 -19.993076
-7.744379 8.7124233 -20.480429
-7.6752329 7.6752324 -20.91259
-7.6237555 6.6707854 -21.234325
-7.5748129 5.6811075 -21.540213
-7.542304 4.7139416 -21.743393
-7.5130315 3.7565145 -21.926346
-7.4902563 2.8088446 -22.068693
-7.4715409 1.8678846 -22.185665
-7.4650207 0.93312836 -22.226418
-7.4662323 -9.5367432e-07 -22.218842
-7.4692864 -0.93365955 -22.199755
-7.4780297 -1.8695087 -22.145111
-7.4952283 -2.8107119 -22.037619
-7.519681 -3.75984 -21.884792
-7.5496249 -4.7185154 -21.697639
-7.5882087 -5.6911559 -21.456495
-7.6358976 -6.6814117 -21.158436
-7.691237 -7.691237 -20.812563
-7.7513733 -8.720295 -20.436714
-7.8348289 -9.793539 -19.915115
-7.9284911 -10.901676 -19.329727
-8.042367 -12.063553 -18.618002
-8.1871433 -13.304108 -17.713148
-8.3679838 -14.643972 -16.582897
-8.6069679 -16.138067 -15.089243
-8.9970093 -17.99402 -12.651488
-8.1410561 19.771133 -10.732398
-7.6728678 17.537983 -14.076595
-7.4082341 15.874785 -15.96684
-7.2173405 14.434678 -17.330364
-7.0868359 13.161265 -18.262539
-6.969883 11.94837 -19.097919
-6.8732119 10.800761 -19.788424
-6.7947259 9.7067509 -20.349041
-6.7307372 8.6538038 -20.806101
-6.6728606 7.6261263 -21.219505
-6.6287227 6.6287189 -21.534779
-6.5878978 5.6467686 -21.826382
-6.5585155 4.6846542 -22.036257
-6.5303593 3.7316351 -22.237373
-6.5133848 2.7914495 -22.358616
-6.4979415 1.856555 -22.468927
-6.4944201 0.92777157 -22.494081
-6.4936528 -2.8610229e-06 -22.499565
-6.4975858 -0.92822742 -22.47147
-6.5043774 -1.8583946 -22.422958
-6.515533 -2.7923717 -22.343277
-6.53794 -3.7359686 -22.183226
-6.5604825 -4.68606 -22.022207
-6.5960193 -5.6537309 -21.768377
-6.6363773 -6.6363783 -21.480104
-6.6822033 -7.6368036 -21.152773
-6.7351041 -8.6594191 -20.774912
-6.8042688 -9.7203856 -20.280876
-6.8821993 -10.814882 -19.724234
-6.9799457 -11.965622 -19.026039
-7.095295 -13.176979 -18.202114
-7.2386532 -14.477308 -17.178131
-7.4257917 -15.912413 -15.841428
-7.6960397 -17.590948 -13.911086
-8.2679501 -20.079304 -9.8260117
-6.7662945 19.171169 -12.497007
-6.4696741 17.25246 -14.968847
-6.2841578 15.710394 -16.514814
-6.1402211 14.327182 -17.714287
-6.0246425 13.053391 -18.677441
-5.9303341 11.860667 -19.463348
-5.8528428 10.73021 -20.109108
-5.7876368 9.646059 -20.652493
-5.7351899 8.6027832 -21.08955
-5.6875525 7.5834007 -21.486526
-5.6512485 6.593122 -21.789059
-5.6174307 5.6174297 -22.070871
-5.5934458 4.6612034 -22.270748
-5.5712552 3.7141695 -22.455669
-5.5571461 2.778573 -22.573246
-5.5440145 1.8480043 -22.682674
-5.5395293 0.92325401 -22.720051
-5.5352578 -1.9073486e-06 -22.755646
-5.5390372 -0.92317295 -22.724154
-5.5465307 -1.8488426 -22.661707
-5.5578337 -2.7789164 -22.567516
-5.5743275 -3.716217 -22.430069
-5.5953422 -4.6627846 -22.254944
-5.6257939 -5.6257963 -22.001181
-5.6575899 -6.600523 -21.736212
-5.6949162 -7.5932212 -21.425163
-5.7419262 -8.6128902 -21.033409
-5.7962365 -9.6603947 -20.580826
-5.8603921 -10.744054 -20.046194
-5.9394908 -11.878983 -19.387039
-6.0327554 -13.07097 -18.609837
-6.1477079 -14.344653 -17.651894
-6.2942362 -15.735591 -16.43083
-6.4997702 -17.332724 -14.718042
-6.8530807 -19.417065 -11.773788
-5.5706682 18.940268 -13.176121
-5.3402939 17.08894 -15.47986
-5.1833577 15.55007 -17.049223
-5.0816078 14.228501 -18.066715
-4.9845486 12.959825 -19.037312
-4.9144301 11.794632 -19.738497
-4.852922 10.676427 -20.353579
-4.800498 9.600997 -20.877813
-4.7578454 8.5641193 -21.304344
-4.7196918 7.5515065 -21.685875
-4.6898422 6.5657797 -21.984373
-4.6626229 5.5951471 -22.256565
-4.6420836 4.6420813 -22.461962
-4.6242075 3.6993675 -22.640718
-4.6122389 2.7673426 -22.760406
-4.6008186 1.8403282 -22.874609
-4.5981369 0.91962528 -22.90143
-4.5954843 -2.8610229e-06 -22.927954
-4.5983996 -0.91968155 -22.8988
-4.6016212 -1.8406487 -22.866585
-4.6138525 -2.7683134 -22.744272
-4.6262016 -3.7009621 -22.620777
-4.6445222 -4.6445217 -22.437578
-4.669239 -5.6030889 -22.190407
-4.696166 -6.5746312 -21.921141
-4.7278042 -7.564487 -21.604753
-4.765327 -8.5775881 -21.229527
-4.8058028 -9.6116076 -20.824764
-4.8600745 -10.692163 -20.282047
-4.9226837 -11.814442 -19.655956
-4.9956126 -12.988593 -18.926668
-5.0867004 -14.242764 -18.015793
-5.2017727 -15.605316 -16.865072
-5.3543491 -17.133917 -15.3393
-5.5961828 -19.02702 -12.920969
-4.7408462 21.333807 -9.62222
-4.4052916 18.722492 -13.816646
-4.2438412 16.975365 -15.834781
-4.1285596 15.482098 -17.275803
-4.0433879 14.151854 -18.34045
-3.9745634 12.91733 -19.200752
-3.9161868 11.74856 -19.930462
-3.8664556 10.632751 -20.552101
-3.8256419 9.564106 -21.062275
-3.7920814 8.5321808 -21.481781
-3.7618511 7.5237031 -21.859657
-3.7389498 6.5431614 -22.145924
-3.717227 5.5758381 -22.417459
-3.7019513 4.6274376 -22.608404
-3.6879942 3.687994 -22.782867
-3.678972 2.7592268 -22.895649
-3.6715117 1.8357534 -22.988903
-3.6674113 0.91685009 -23.040155
-3.6649265 -1.9073486e-06 -23.071217
-3.6676204 -0.91690636 -23.037542
-3.6720667 -1.8360357 -22.981964
-3.6794765 -2.7596073 -22.889336
-3.6890829 -3.6890841 -22.76926
-3.7041028 -4.6301279 -22.581509
-3.7203748 -5.5805626 -22.378115
-3.7437339 -6.5515351 -22.086121
-3.7683263 -7.536653 -21.778721
-3.7979774 -8.5454521 -21.408077
-3.8293858 -9.5734663 -21.015474
-3.8715954 -10.646885 -20.487856
-3.9198837 -11.759652 -19.884251
-3.9776461 -12.927348 -19.16222
-4.0491619 -14.172068 -18.268272
-4.1379552 -15.517333 -17.158354
-4.2556682 -17.022675 -15.686944
-4.4303989 -18.829197 -13.502811
-3.5025928 21.015556 -10.506249
-3.2695193 18.527271 -14.390813
-3.1618977 16.863457 -16.1845
-3.0842531 15.421261 -17.47858
-3.0163023 14.076077 -18.611094
-2.9714272 12.876186 -19.359009
-2.9283919 11.713567 -20.076263
-2.8919721 10.603897 -20.683262
-2.8623157 9.541049 -21.177536
-2.8372829 8.5118475 -21.594749
-2.8150623 7.5068316 -21.965096
-2.7978981 6.5284262 -22.251163
-2.7820718 5.5641432 -22.514931
-2.7703209 4.6172018 -22.710779
-2.7604914 3.6806536 -22.874611
-2.7524326 2.7524309 -23.008919
-2.7470133 1.8313398 -23.099239
-2.7446239 0.91487217 -23.139065
-2.7437892 -2.8610229e-06 -23.152977
-2.7442415 -0.91474915 -23.145439
-2.7477872 -1.8318586 -23.08634
-2.7536652 -2.7536669 -22.988379
-2.7618258 -3.6824379 -22.852365
-2.7730184 -4.6217003 -22.665821
-2.7842138 -5.5684276 -22.479235
-2.799691 -6.5326147 -22.221279
-2.8169429 -7.5118489 -21.933744
-2.8398364 -8.5195103 -21.552191
-2.8648212 -9.5494041 -21.13578
-2.8958495 -10.618116 -20.618639
-2.9312191 -11.724876 -20.029144
-2.9729278 -12.882689 -19.334
-3.0245039 -14.114352 -18.474398
-3.0886831 -15.443418 -17.404745
-3.1774025 -16.946146 -15.926091
-3.2922292 -18.655968 -14.012306
-3.5514884 -21.308933 -9.6913204
-2.3008389 20.70755 -11.361821
-2.1757596 18.493954 -14.488808
-2.0998034 16.798426 -16.387711
-2.0505745 15.379305 -17.618437
-2.0086403 14.060479 -18.666788
-1.9759952 12.843965 -19.482918
-1.9476652 11.685992 -20.191164
-1.9261295 10.59371 -20.729563
-1.9050589 9.5252934 -21.256325
-1.8880596 8.4962683 -21.681309
-1.8735834 7.4943333 -22.043213
-1.8620601 6.51721 -22.331295
-1.8515559 5.5546675 -22.593895
-1.8448533 4.6121311 -22.761463
-1.8388711 3.6777439 -22.911018
-1.8331835 2.7497749 -23.053211
-1.8292656 1.8292685 -23.151155
-1.8265404 0.91326904 -23.219288
-1.826395 -9.5367432e-07 -23.222918
-1.8271416 -0.91357136 -23.204254
-1.8294632 -1.8294649 -23.146215
-1.8326719 -2.7490091 -23.065998
-1.838598 -3.6771965 -22.917847
-1.8461709 -4.615428 -22.728523
-1.8535235 -5.5605721 -22.54471
-1.8631002 -6.5208511 -22.30529
-1.8754613 -7.5018454 -21.996264
-1.8900554 -8.505249 -21.631411
-1.9059952 -9.5299778 -21.232912
-1.9269078 -10.597993 -20.710102
-1.9498956 -11.699375 -20.135406
-1.9778105 -12.855771 -19.437534
-2.0121944 -14.085361 -18.577934
-2.0541148 -15.405862 -17.529924
-2.1105793 -16.884634 -16.118319
-2.1838875 -18.563046 -14.285611
-2.3349011 -21.014107 -10.510274
-1.1460238 20.628429 -11.581605
-1.0860039 18.462067 -14.582602
-1.0495764 16.793222 -16.403973
-1.0230839 15.346254 -17.728603
-1.0036781 14.051492 -18.698891
-0.98679185 12.828293 -19.543205
-0.97297883 11.675745 -20.233856
-0.96233606 10.5857 -20.765989
-0.95192087 9.519207 -21.286751
-0.94336289 8.4902649 -21.714653
-0.93634474 7.490757 -22.065561
-0.93050778 6.5135527 -22.357407
-0.92564481 5.5538692 -22.600552
-0.92198271 4.6099119 -22.783663
-0.91874528 3.6749811 -22.945536
-0.9157415 2.7472219 -23.095722
-0.91397822 1.8279552 -23.183887
-0.9129411 0.91293812 -23.235743
-0.91265893 -9.5367432e-07 -23.249851
-0.91292554 -0.91292477 -23.236519
-0.91405088 -1.828104 -23.18025
-0.91585094 -2.7475548 -23.090248
-0.91829437 -3.6731787 -22.968081
-0.92183739 -4.6091852 -22.790924
-0.92577004 -5.5546207 -22.594296
-0.93097621 -6.5168328 -22.333988
-0.93690622 -7.4952521 -22.037485
-0.94417655 -8.4975872 -21.673969
-0.95246744 -9.5246735 -21.259426
-0.96262395 -10.588864 -20.751598
-0.97418344 -11.690202 -20.173628
-0.98761249 -12.838963 -19.502171
-1.0045804 -14.064127 -18.653774
-1.0252186 -15.37828 -17.621864
-1.0518543 -16.829668 -16.290085
-1.0911218 -18.54907 -14.326702
-1.1609857 -20.897741 -10.83351
0 20.703257 -11.373747
0 18.465118 -14.573622
0 16.792074 -16.407568
0 15.349183 -17.718845
0 14.053071 -18.693256
0 12.833526 -19.523075
0 11.684753 -20.196321
0 10.582975 -20.778362
0 9.5190945 -21.287315
0 8.4902172 -21.71493
0 7.4921966 -22.05657
0 6.5132341 -22.359692
0 5.5575123 -22.570181
0 4.6104126 -22.778645
0 3.6752205 -22.942516
0 2.7473955 -23.092855
0 1.8288059 -23.162594
0 0.91320229 -23.222656
0 -9.5367432e-07 -23.252312
0 -0.91304874 -23.230431
0 -1.8278036 -23.187778
0 -2.7519445 -23.017025
0 -3.6840048 -22.832739
0 -4.6235685 -22.647099
0 -5.5707574 -22.45982
0 -6.5256667 -22.270884
0 -7.4951425 -22.038166
0 -8.49891 -21.666626
0 -9.5261974 -21.251812
0 -10.594726 -20.724949
0 -11.693636 -20.159319
0 -12.848781 -19.464411
0 -14.070055 -18.632597
0 -15.388426 -17.588041
0 -16.852196 -16.219685
0 -18.554295 -14.311344
0 -20.847351 -10.97348
1.1544224 20.7796 -11.16168
1.0903271 18.535557 -14.366446
1.0522016 16.835226 -16.272713
1.0250847 15.376266 -17.628563
1.0054435 14.076207 -18.610622
0.98773676 12.840577 -19.495956
0.97513974 11.701675 -20.125805
0.96290046 10.591902 -20.737776
0.95279169 9.527916 -21.24321
0.9444204 8.4997835 -21.661774
0.93749034 7.4999208 -22.008282
0.93122667 6.5185871 -22.321463
0.92691386 5.5614815 -22.537102
0.9226858 4.6134281 -22.748507
0.91889995 3.6755991 -22.937794
0.91664135 2.7499247 -23.050732
0.91513997 1.8302794 -23.125799
0.91422224 0.91422272 -23.171682
0.91330904 -0 -23.217346
0.91572845 -0.91572762 -23.096375
0.91939878 -1.8387985 -22.912857
0.92309862 -2.7692966 -22.727865
0.92683113 -3.7073259 -22.541239
0.93059391 -4.6529703 -22.353106
0.93438464 -5.6063099 -22.163565
0.93820912 -6.567462 -21.972342
0.94207877 -7.5366297 -21.778856
0.9459666 -8.5136967 -21.584467
0.95404017 -9.5404015 -21.18079
0.96417838 -10.605965 -20.673878
0.97563946 -11.707674 -20.100826
0.98950428 -12.863554 -19.407583
1.0062923 -14.088095 -18.56818
1.0274607 -15.411912 -17.509762
1.0561553 -16.898485 -16.075027
1.0954561 -18.622757 -14.10999
1.1694188 -21.049536 -10.411856
2.3416286 21.074656 -10.342081
2.1896379 18.611919 -14.141854
2.1132679 16.906139 -16.051102
2.0554004 15.415501 -17.497787
2.016911 14.118374 -18.460026
1.9812747 12.878285 -19.350929
1.9547632 11.728579 -20.013712
1.9305201 10.617859 -20.619799
1.9111565 9.5557804 -21.10388
1.8935641 8.5210381 -21.543695
1.8785101 7.5140395 -21.920044
1.8663146 6.5321016 -22.22493
1.8559018 5.5677042 -22.485252
1.8482596 4.6206465 -22.676308
1.8413225 3.6826439 -22.849735
1.8363843 2.7545767 -22.973186
1.8324893 1.8324871 -23.070564
1.8302226 0.91511154 -23.12723
1.8356092 -2.8610229e-06 -22.992565
1.8429832 -0.92149353 -22.808212
1.8504169 -1.8504162 -22.622375
1.857916 -2.7868757 -22.434896
1.8654709 -3.7309437 -22.246025
1.8730927 -4.6827297 -22.055481
1.8807772 -5.6423321 -21.863365
1.8885304 -6.6098557 -21.669533
1.8963591 -7.5854378 -21.47382
1.9042529 -8.5691366 -21.276474
1.9121617 -9.5608082 -21.078754
1.9315801 -10.62369 -20.593292
1.9561594 -11.736957 -19.978813
1.9848671 -12.901638 -19.261116
2.01948 -14.13636 -18.395792
2.0628574 -15.471431 -17.311361
2.1202221 -16.961777 -15.877246
2.2030456 -18.725889 -13.806659
2.3718469 -21.346624 -9.5866251
3.649667 21.898001 -8.0550117
3.3186646 18.805763 -13.57172
3.188694 17.006367 -15.737895
3.1016023 15.508009 -17.189426
3.0374732 14.174875 -18.25824
2.9847009 12.933702 -19.137781
2.9423318 11.769327 -19.843933
2.9028933 10.643943 -20.501238
2.8755722 9.5852375 -20.956596
2.849164 8.5474911 -21.396732
2.8245909 7.5322418 -21.806282
2.8076291 6.5511332 -22.08898
2.7918706 5.5837393 -22.351624
2.7787328 4.6312227 -22.570581
2.7689307 3.6919069 -22.733952
2.7613518 2.7613516 -22.860268
2.755748 1.8371658 -22.953663
2.7596705 0.91988945 -22.888287
2.7707822 -0 -22.703093
2.7819836 -0.92732906 -22.516403
2.7932761 -1.8621836 -22.328197
2.8046684 -2.8046675 -22.138321
2.8161542 -3.7548723 -21.946894
2.8277264 -4.7128773 -21.754025
2.839402 -5.6788025 -21.559427
2.8511832 -6.6527615 -21.363075
2.863054 -7.6348124 -21.165228
2.8750842 -8.6252518 -20.964729
2.8871293 -9.623764 -20.763977
2.9071238 -10.659454 -20.430733
2.9430492 -11.7722 -19.831972
2.9873421 -12.945151 -19.093761
3.0409751 -14.191218 -18.199883
3.1082623 -15.541314 -17.078423
3.2007771 -17.07081 -15.536514
3.3285155 -18.861586 -13.407539
4.4763546 19.024506 -12.928364
4.2899318 17.159725 -15.258651
4.1618352 15.60688 -16.859859
4.0733776 14.256822 -17.965574
3.9979548 12.99335 -18.908361
3.9424045 11.827213 -19.602739
3.889246 10.695427 -20.26722
3.8494134 9.6235323 -20.765125
3.8142836 8.5821362 -21.204254
3.7822211 7.5644412 -21.605034
3.7554419 6.5720215 -21.939774
3.7359331 5.603898 -22.183634
3.7183864 4.6479807 -22.402964
3.7048814 3.7048807 -22.571783
3.6940477 2.7705345 -22.707199
3.6879413 1.8439703 -22.783529
3.7028244 0.92570591 -22.59749
3.7178283 -2.8610229e-06 -22.409946
3.732954 -0.93323803 -22.220871
3.7482033 -1.8741026 -22.030256
3.7635999 -2.8227034 -21.837799
3.7791011 -3.7791023 -21.644033
3.7947419 -4.7434287 -21.448523
3.8105013 -5.7157507 -21.25153
3.8264263 -6.6962461 -21.052469
3.8424504 -7.6849036 -20.852165
3.8586905 -8.6820564 -20.649166
3.8749986 -9.6874962 -20.445314
3.8920684 -10.703188 -20.231941
3.9472883 -11.841865 -19.541691
4.0069146 -13.022476 -18.796362
4.0782042 -14.273715 -17.905247
4.1729112 -15.648418 -16.721405
4.2990146 -17.196058 -15.145114
4.5031309 -19.138309 -12.593658
5.7015119 19.385139 -11.867675
5.4186096 17.33955 -14.696701
5.2485671 15.745699 -16.397127
5.1327481 14.371696 -17.555315
5.0341372 13.088756 -18.541424
4.9562683 11.895041 -19.32011
4.8894773 10.75685 -19.988026
4.8386793 9.6773577 -20.496002
4.7889261 8.6200657 -20.993536
4.7495174 7.5992279 -21.387619
4.7177134 6.6047969 -21.705664
4.6900063 5.6280069 -21.982731
4.6685481 4.6685467 -22.197315
4.6497025 3.7197609 -22.385773
4.6368399 2.7821035 -22.514397
4.6391392 1.8556557 -22.491402
4.65798 0.93159485 -22.302998
4.6769743 -9.5367432e-07 -22.11305
4.6961246 -0.93922806 -21.921551
4.7154322 -1.8861742 -21.728477
4.7349272 -2.8409567 -21.533525
4.7545557 -3.803647 -21.33724
4.7743616 -4.774363 -21.139179
4.7943339 -5.753201 -20.939459
4.8144879 -6.7402821 -20.737919
4.8347831 -7.7356529 -20.534967
4.8553381 -8.7396088 -20.329416
4.876039 -9.752079 -20.122408
4.8967681 -10.77289 -19.915115
4.9620762 -11.908984 -19.262035
5.0408874 -13.106308 -18.473927
5.1382222 -14.387024 -17.500576
5.2631593 -15.789478 -16.251205
5.4452705 -17.42487 -14.430088
5.7612619 -19.588293 -11.270172
7.1017747 20.121695 -9.7013359
6.6061974 17.616524 -13.831155
6.376483 15.941208 -15.745441
6.2183266 14.50943 -17.063408
6.0877023 13.19002 -18.151947
5.9930983 11.986197 -18.940311
5.9056125 10.826958 -19.669357
5.8440566 9.7400932 -20.182322
5.7855735 8.6783581 -20.669687
5.7336745 7.6448975 -21.102179
5.6930022 6.6418333 -21.441111
5.659431 5.6594267 -21.720875
5.6348233 4.6956854 -21.925938
5.6127934 3.7418594 -22.109516
5.5926843 2.7963409 -22.277094
5.602469 1.8674879 -22.195557
5.6253676 0.93755817 -22.004734
5.6484547 9.5367432e-07 -21.81234
5.6717319 -0.94528961 -21.618366
5.6952019 -1.8984013 -21.422783
5.7189007 -2.8594513 -21.22529
5.7427802 -3.8285179 -21.026295
5.7668433 -4.8057013 -20.825771
5.7911258 -5.7911282 -20.623417
5.8156486 -6.7849264 -20.419056
5.8403273 -7.7871056 -20.213402
5.865252 -8.7978745 -20.005699
5.8904982 -9.8174973 -19.795315
5.9156723 -10.8454 -19.585527
6.0011253 -12.002251 -18.873417
6.1034036 -13.224041 -18.021099
6.2253633 -14.52585 -17.004768
6.4019151 -16.004787 -15.533507
6.638927 -17.703802 -13.558409
7.244019 -20.524723 -8.5159702
7.886549 18.026398 -12.550304
7.5546103 16.188448 -14.921297
7.3422704 14.684537 -16.438011
7.1775823 13.329794 -17.614353
7.0585909 12.100442 -18.464289
6.9528456 10.925899 -19.219614
6.8728971 9.8184242 -19.790672
6.7974939 8.7396355 -20.329271
6.7354264 7.6976275 -20.772608
6.6865273 6.6865244 -21.121891
6.6467152 5.6971846 -21.406258
6.6172538 4.7266092 -21.616699
6.5915608 3.7666073 -21.800219
6.5659513 2.8139782 -21.983143
6.5781646 1.8794765 -21.895908
6.6052246 0.94360256 -21.702621
6.6325083 -9.5367432e-07 -21.50774
6.6600184 -0.95143223 -21.311237
6.6877575 -1.9107876 -21.113098
6.7157688 -2.87819 -20.913017
6.7439957 -3.8537111 -20.711399
6.7724609 -4.8374724 -20.508078
6.8011465 -5.829555 -20.303177
6.8301592 -6.8301601 -20.095943
6.8593578 -7.8392673 -19.887383
6.8887863 -8.8570118 -19.677181
6.9186373 -9.8837681 -19.463953
6.9587731 -10.935217 -19.177271
7.0692897 -12.118782 -18.387875
7.1889887 -13.350979 -17.532879
7.3569446 -14.713889 -16.333193
7.591115 -16.266674 -14.66055
7.9567995 -18.186972 -12.048514
9.3493719 18.698742 -10.449224
8.8158026 16.529631 -13.784026
8.5210266 14.911793 -15.626382
8.3125715 13.50793 -16.929226
8.1588631 12.238294 -17.889898
8.0238943 11.032856 -18.733456
7.9259033 9.9073811 -19.345898
7.8422027 8.8224754 -19.869026
7.764441 7.7644391 -20.355045
7.703918 6.7409248 -20.733311
7.6540813 5.740562 -21.04479
7.6145334 4.7590828 -21.291962
7.5818624 3.7909317 -21.496155
7.5581803 2.8343182 -21.644169
7.566443 1.8916101 -21.592525
7.5977926 0.94972324 -21.396591
7.6294036 1.9073486e-06 -21.199024
7.6612329 -0.95765495 -21.000093
7.6933513 -1.9233398 -20.799349
7.7257876 -2.897171 -20.596624
7.7584977 -3.8792505 -20.392189
7.7914391 -4.8696494 -20.186298
7.8246851 -5.868515 -19.978516
7.858264 -6.8759832 -19.768644
7.8921328 -7.8921313 -19.556967
7.9261723 -8.9169464 -19.344221
7.9606791 -9.9508486 -19.128555
8.0371199 -11.051041 -18.650799
8.1679745 -12.251965 -17.832954
8.3288136 -13.534323 -16.827715
8.5399065 -14.944838 -15.508381
8.8445435 -16.583517 -13.604403
9.5638638 -19.127728 -9.1086454
10.198185 16.996973 -12.22621
9.7650719 15.19011 -14.632397
9.5088625 13.735023 -16.055786
9.3020277 12.402703 -17.204866
9.1508827 11.184414 -18.044559
9.0199661 10.022182 -18.771873
8.9168892 8.9168873 -19.344526
8.821538 7.8413663 -19.874249
8.7503281 6.8058119 -20.269863
8.6920843 5.7947226 -20.593437
8.6446877 4.8026028 -20.856754
8.607028 3.8253441 -21.065971
8.5781469 2.8593817 -21.226421
8.5675917 1.9039078 -21.285063
8.6033478 0.95592594 -21.086422
8.6393509 -0 -20.886406
8.6756306 -0.9639616 -20.684853
8.7122421 -1.9360542 -20.481449
8.749217 -2.9164047 -20.276031
8.7865086 -3.9051175 -20.068861
8.824091 -4.9022727 -19.860069
8.8619967 -5.9079986 -19.649481
8.9002838 -6.9224453 -19.436771
8.9389038 -7.9456925 -19.222214
8.9776659 -8.9776649 -19.006876
9.0222139 -10.024684 -18.759384
9.1547003 -11.189078 -18.02335
9.3107586 -12.414346 -17.156359
9.5264072 -13.760367 -15.958312
9.8048382 -15.251972 -14.41147
10.315243 -17.192068 -11.575891
11.184586 15.658418 -12.959868
10.789731 14.026647 -14.934144
10.514522 12.617424 -16.310188
10.322227 11.35445 -17.271666
10.14713 10.147128 -18.147148
10.02968 9.0267134 -18.734394
9.9186773 7.9349427 -19.28941
9.832674 6.8828712 -19.719425
9.7622242 5.8573327 -20.071674
9.7041168 4.8520575 -20.362209
9.6600752 3.864028 -20.58242
9.6247139 2.887414 -20.759224
9.6003656 1.9200706 -20.880964
9.6220951 0.9622097 -20.77232
9.6626272 -0 -20.56966
9.7034731 -0.9703455 -20.365431
9.7446957 -1.9489412 -20.159317
9.7863293 -2.9358988 -19.951151
9.8283501 -3.9313402 -19.741045
9.8706417 -4.9353204 -19.529583
9.913331 -5.9479961 -19.316143
9.9564819 -6.9695382 -19.100386
9.9999495 -7.9999595 -18.883049
10.04361 -9.0392504 -18.664751
10.175749 -10.17575 -18.004053
10.331604 -11.364766 -17.224775
10.532932 -12.639519 -16.218132
10.813005 -14.056905 -14.817769
11.219092 -15.706732 -12.787334
12.993065 16.536627 -9.8234091
12.199174 14.417203 -13.432008
11.833988 12.909803 -15.091942
11.561857 11.561854 -16.328903
11.368853 10.335321 -17.206196
11.196298 9.1606064 -17.990534
11.061226 8.0445271 -18.604498
10.959183 6.9740257 -19.068327
10.878092 5.9335032 -19.436926
10.809567 4.9134369 -19.7484
10.752798 3.9101048 -20.006443
10.714006 2.9220018 -20.182766
10.683194 1.9423981 -20.322823
10.665331 0.96957684 -20.404016
10.699468 -9.5367432e-07 -20.248852
10.74503 -0.9768219 -20.041748
10.790983 -1.961998 -19.832874
10.837398 -2.955657 -19.621899
10.884246 -3.9579101 -19.408949
10.931399 -4.9688182 -19.194614
10.979032 -5.9885621 -18.978107
11.027116 -7.0172563 -18.759544
11.075623 -8.0550013 -18.539059
11.207144 -9.1694794 -17.941235
11.37466 -10.340601 -17.179792
11.581071 -11.581072 -16.241562
11.849397 -12.926616 -15.0219
12.248812 -14.475868 -13.206376
13.137136 -16.719992 -9.168541
14.038076 15.207916 -10.390811
13.298062 13.298059 -13.474205
12.928822 11.85142 -15.012705
12.660942 10.550784 -16.128872
12.439338 9.3295031 -17.052223
12.280519 8.1870117 -17.713964
12.148251 7.0864768 -18.265087
12.051466 6.025733 -18.668352
11.974378 4.9893231 -18.989555
11.905899 3.9686317 -19.274887
11.850695 2.9626732 -19.504898
11.820372 1.9700613 -19.631245
11.803103 0.98359203 -19.703197
11.786928 -9.5367432e-07 -19.770594
11.800579 -0.98338032 -19.713718
11.851386 -1.9752312 -19.502022
11.902706 -2.9756784 -19.288187
11.95451 -3.9848394 -19.072336
12.006692 -5.0027871 -18.854914
12.05937 -6.0296841 -18.635426
12.160836 -7.093823 -18.212648
12.292246 -8.1948318 -17.665104
12.459323 -9.3444929 -16.96895
12.673199 -10.560998 -16.077801
12.954323 -11.874799 -14.906452
13.3471 -13.347102 -13.269879
14.128206 -15.305558 -10.015268
15.19444 14.025637 -10.442646
14.47006 12.243896 -13.228715
14.077529 10.828865 -14.738456
13.789619 9.5466557 -15.845798
13.587949 8.3618145 -16.621454
13.415624 7.2237945 -17.284243
13.286574 6.1322656 -17.780586
13.186903 5.071888 -18.163937
13.11987 4.0368834 -18.421757
13.053555 3.0123591 -18.676813
13.004743 2.0007286 -18.864553
12.982224 0.99863052 -18.95116
12.974496 -1.9073486e-06 -18.98089
12.98138 -0.99856949 -18.954414
13.008867 -2.0013647 -18.848692
13.048466 -3.0111866 -18.696384
13.117155 -4.0360508 -18.432199
13.204175 -5.0785298 -18.097509
13.293625 -6.1355181 -17.753469
13.437081 -7.2353554 -17.201714
13.607394 -8.3737831 -16.546665
13.816808 -9.5654793 -15.741231
14.115907 -10.858392 -14.590847
14.542791 -12.305439 -12.948979
15.402531 -14.217726 -9.6422901
17.145657 13.471586 -7.6483088
15.774755 11.267681 -12.544386
15.328819 9.8542423 -14.13701
15.038867 8.5936365 -15.172558
14.805562 7.4027815 -16.005789
14.632463 6.2710538 -16.624001
14.502235 5.179368 -17.089098
14.400909 4.1145463 -17.450977
14.330554 3.0708308 -17.702244
14.27073 2.0386767 -17.915905
14.246454 1.0176029 -18.002602
14.240106 -2.8610229e-06 -18.025278
14.24821 -1.0177336 -17.99633
14.282446 -2.0403514 -17.874058
14.334613 -3.071703 -17.687752
14.422344 -4.1206722 -17.374422
14.519528 -5.185544 -17.02734
14.664181 -6.2846494 -16.510727
14.850801 -7.4254007 -15.844223
15.082262 -8.6184368 -15.017574
15.384354 -9.8899422 -13.93868
15.871947 -11.337105 -12.19727
17.411205 10.446722 -10.845442
16.751205 8.9339733 -13.045446
16.395845 7.6513939 -14.22998
16.153564 6.4614258 -15.03758
15.962713 5.3209033 -15.673753
15.827112 4.2205625 -16.125757
15.73518 3.1470346 -16.432198
15.659482 2.0879297 -16.684519
15.624309 1.0416193 -16.801765
15.610868 -9.5367432e-07 -16.846565
15.630127 -1.0420098 -16.782377
15.665479 -2.0887303 -16.664534
15.746421 -3.1492863 -16.39473
15.836457 -4.2230587 -16.094603
16.005955 -5.335319 -15.529617
16.190405 -6.4761634 -14.914778
16.445333 -7.67449 -14.065018
16.811174 -8.9659605 -12.845547
17.547213 -10.52833 -10.392087
18.559301 8.1196938 -10.884981
18.025578 6.7595911 -12.552869
17.703682 5.5324006 -13.558788
17.49966 4.3749123 -14.19636
17.339258 3.2511086 -14.697615
17.242758 2.155345 -14.999178
17.199217 1.0749478 -15.135242
17.194624 -4.7683716e-07 -15.149599
17.222343 -1.0763969 -15.062977
17.265596 -2.1581998 -14.927807
17.384333 -3.2595654 -14.556753
17.538103 -4.3845263 -14.076221
17.760347 -5.550108 -13.381708
18.076834 -6.77881 -12.392689
18.715803 -8.1881638 -10.395912
19.857391 4.672327 -10.478705
19.427612 3.4284015 -11.742758
19.285646 2.2688985 -12.160302
19.190266 1.128839 -12.440836
19.154119 -2.3841858e-06 -12.547149
19.187843 -1.1286998 -12.447964
19.320244 -2.2729697 -12.058548
19.540506 -3.448324 -11.410717
19.872395 -4.6758556 -10.434578
