# .PCD v0.7 - Point Cloud Data file format
VERSION 0.7
FIELDS x y z
SIZE 4 4 4
TYPE F F F
COUNT 1 1 1
WIDTH 1060
HEIGHT 1
VIEWPOINT 0 0 0 1 0 0 0
POINTS 1060
DATA ascii
-22.871181 1.4305115e-06 -8.6954746
-23.48241 -1.2359185 -7.0869799
-21.811676 7.270555 -8.2948084
-20.802437 5.7784538 -11.098249
-20.34458 4.5210171 -12.370071
-20.132465 3.3554091 -12.959282
-19.961802 2.2179785 -13.433347
-19.853912 1.1029935 -13.733042
-19.84643 -4.7683716e-07 -13.753824
-19.865213 -1.1036229 -13.701648
-19.97805 -2.2197843 -13.388214
-20.100332 -3.3500571 -13.048543
-20.409018 -4.5353389 -12.19108
-20.863649 -5.7954574 -10.928219
-19.927912 9.3778381 -10.271289
-19.162104 7.8902769 -12.523668
-18.770668 6.6249394 -13.674953
-18.499647 5.4410744 -14.472069
-18.314728 4.3093472 -15.015949
-18.182161 3.2086163 -15.405851
-18.084854 2.1276302 -15.692045
-18.039356 1.0611367 -15.825863
-18.011326 -2.3841858e-06 -15.908308
-18.041618 -1.0612698 -15.819213
-18.093349 -2.1286302 -15.667064
-18.190746 -3.2101321 -15.380603
-18.333261 -4.3137097 -14.961438
-18.550518 -5.456038 -14.322449
-18.847811 -6.6521702 -13.448055
-19.223913 -7.9157305 -12.341877
-20.009102 -9.416048 -10.032495
-19.020262 11.887664 -9.4444771
-18.03372 10.143968 -12.527414
-17.579418 8.7897072 -13.947118
-17.240334 7.542645 -15.006752
-17.022335 6.3833742 -15.688
-16.847122 5.2647252 -16.235537
-16.71261 4.1781516 -16.655888
-16.618435 3.1159544 -16.950188
-16.547993 2.0684977 -17.170322
-16.515085 1.0321922 -17.273151
-16.496885 -1.9073486e-06 -17.330032
-16.515297 -1.0322061 -17.272491
-16.559114 -2.0698886 -17.135565
-16.624229 -3.117044 -16.932079
-16.72765 -4.1819119 -16.608892
-16.877882 -5.2743406 -16.139416
-17.069 -6.4008741 -15.542174
-17.294357 -7.5662832 -14.837925
-17.617308 -8.8086548 -13.828707
-18.11104 -10.187463 -12.285793
-19.575891 -12.234933 -7.7081342
-17.349506 12.72297 -11.051106
-16.605595 11.070395 -13.530813
-16.216402 9.7298393 -14.828125
-15.92853 8.4952145 -15.787697
-15.702576 7.3278666 -16.540876
-15.541962 6.216785 -17.076254
-15.411075 5.1370234 -17.51255
-15.319036 4.0850759 -17.819347
-15.242272 3.0484552 -18.075218
-15.18197 2.0242605 -18.276234
-15.146053 1.009738 -18.39595
-15.140923 -9.5367432e-07 -18.413054
-15.151045 -1.0100708 -18.379313
-15.186985 -2.0249305 -18.259514
-15.23275 -3.0465508 -18.106962
-15.332318 -4.0886192 -17.775072
-15.434825 -5.1449413 -17.433384
-15.559345 -6.2237377 -17.018314
-15.741079 -7.3458371 -16.412529
-15.975973 -8.5205212 -15.629553
-16.255554 -9.7533331 -14.697615
-16.655153 -11.103436 -13.365622
-17.40995 -12.767299 -10.849631
-15.989672 13.705433 -11.776822
-15.375113 12.080446 -13.971676
-14.978821 10.699157 -15.387009
-14.720283 9.4630375 -16.31036
-14.508307 8.2904587 -17.067415
-14.329597 7.1647973 -17.705664
-14.207057 6.0887365 -18.143309
-14.109754 5.039197 -18.490814
-14.036434 4.0104089 -18.752674
-13.963829 2.9922466 -19.011976
-13.918406 1.9883404 -19.1742
-13.892571 0.99232388 -19.266472
-13.884181 -9.5367432e-07 -19.29644
-13.894114 -0.99243736 -19.260963
-13.91673 -1.9881058 -19.180191
-13.958595 -2.9911275 -19.030672
-14.02359 -4.006742 -18.798546
-14.11055 -5.0394797 -18.487976
-14.21674 -6.0928864 -18.108725
-14.356308 -7.1781559 -17.610268
-14.529876 -8.3027868 -16.990383
-14.743307 -9.4778414 -16.228127
-15.031793 -10.736996 -15.197823
-15.423535 -12.118495 -13.79874
-16.061033 -13.7666 -11.52196
-14.818681 14.81868 -11.887873
-14.239137 13.143818 -14.116888
-13.862267 11.729607 -15.566385
-13.605712 10.465932 -16.553135
-13.376592 9.2607155 -17.43437
-13.214852 8.1322174 -18.056442
-13.075994 7.040916 -18.590511
-12.979165 5.9903827 -18.962933
-12.896626 4.9602399 -19.28039
-12.817958 3.9439859 -19.582958
-12.767457 2.9463348 -19.777189
-12.73365 1.9590235 -19.907219
-12.717008 0.97823143 -19.97123
-12.699251 -2.8610229e-06 -20.039524
-12.752009 -0.98092461 -19.836609
-12.806852 -1.9702854 -19.625668
-12.862172 -2.9681931 -19.412907
-12.91797 -3.9747605 -19.198296
-12.974254 -4.9900994 -18.981819
-13.031032 -6.0143223 -18.763443
-13.088184 -7.0474858 -18.543627
-13.228975 -8.1409092 -18.002125
-13.398439 -9.2758436 -17.350338
-13.61501 -10.473085 -16.51737
-13.881447 -11.745839 -15.492615
-14.269295 -13.171658 -14.000894
-14.906537 -14.906536 -11.549961
-13.769153 16.064013 -11.511328
-13.136217 14.230904 -14.148553
-12.784036 12.784035 -15.61598
-12.518774 11.475542 -16.721237
-12.312546 10.260455 -17.580517
-12.135462 9.1015949 -18.318373
-12.004602 8.003068 -18.863621
-11.8964 6.9395671 -19.314461
-11.800615 5.9003057 -19.713568
-11.735494 4.8897891 -19.984903
-11.678111 3.8927021 -20.223997
-11.634521 2.9086294 -20.405628
-11.603653 1.9339409 -20.534237
-11.594109 0.96617603 -20.574009
-11.64322 -9.5367432e-07 -20.369381
-11.69275 -0.97439766 -20.16301
-11.742702 -1.9571171 -19.954872
-11.793048 -2.9482603 -19.745098
-11.843863 -3.9479551 -19.533371
-11.895118 -4.9562993 -19.319809
-11.946818 -5.9734101 -19.104387
-11.99897 -6.9993987 -18.887087
-12.051429 -8.0342855 -18.668509
-12.15322 -9.1149139 -18.244381
-12.332442 -10.277035 -17.497623
-12.531488 -11.487199 -16.668262
-12.81071 -12.81071 -15.50484
-13.189696 -14.288836 -13.925729
-13.86371 -16.174328 -11.117335
-12.914147 17.610199 -10.182125
-12.158908 15.474972 -13.615033
-11.767391 13.906916 -15.394652
-11.485595 12.529737 -16.675545
-11.285853 11.285851 -17.583462
-11.109127 10.099207 -18.386761
-10.981212 8.9846268 -18.968197
-10.857007 7.8960047 -19.532763
-10.769743 6.8534727 -19.92942
-10.694813 5.8335328 -20.270008
-10.626593 4.8302708 -20.580101
-10.583355 3.8484936 -20.776634
-10.545492 2.8760414 -20.948742
-10.518482 1.9124517 -21.07151
-10.558261 0.95984173 -20.890699
-10.602691 -9.5367432e-07 -20.688747
-10.647495 -0.96795464 -20.485088
-10.692648 -1.9441195 -20.279848
-10.738186 -2.9285965 -20.072861
-10.784146 -3.9215083 -19.863951
-10.830501 -4.9229574 -19.653246
-10.877256 -5.9330502 -19.440723
-10.924383 -6.9518824 -19.226509
-10.97192 -7.979579 -19.010431
-11.019804 -9.0162048 -18.792774
-11.125747 -10.114317 -18.311222
-11.294315 -11.294316 -17.545
-11.507848 -12.554018 -16.574394
-11.784705 -13.927379 -15.315953
-12.198544 -15.525417 -13.434875
-13.156666 -17.940907 -9.0797672
-11.19848 16.797718 -12.890397
-10.761157 15.065619 -15.077009
-10.490256 13.637334 -16.431511
-10.278644 12.334373 -17.48958
-10.11441 11.125849 -18.310747
-9.9765139 9.9765139 -19.000229
-9.8672228 8.8805008 -19.546684
-9.7653046 7.8122439 -20.056271
-9.6826572 6.7778602 -20.469505
-9.6238213 5.7742915 -20.763691
-9.572382 4.786191 -21.020885
-9.5289888 3.811595 -21.237848
-9.4983625 2.8495073 -21.390987
-9.496316 1.8992634 -21.401217
-9.5359068 0.95358944 -21.203262
-9.5757713 -3.8146973e-06 -21.003937
-9.6159716 -0.96159744 -20.80294
-9.6564808 -1.9312992 -20.600391
-9.6973038 -2.909193 -20.396275
-9.7385626 -3.8954253 -20.189989
-9.7801428 -4.8900723 -19.98208
-9.8220806 -5.8932514 -19.772394
-9.8643494 -6.9050446 -19.561049
-9.9070139 -7.9256101 -19.347727
-9.9499569 -8.9549627 -19.133013
-9.9932728 -9.9932737 -18.91643
-10.124465 -11.13691 -18.260469
-10.293964 -12.352757 -17.412977
-10.509851 -13.662809 -16.333534
-10.809119 -15.132767 -14.837202
-11.28756 -16.931341 -12.444994
-10.372946 18.440792 -11.255319
-9.8353024 16.392168 -14.242229
-9.5277548 14.820951 -15.950826
-9.3050156 13.440578 -17.188267
-9.1387854 12.185044 -18.111769
-8.9921312 10.990381 -18.926514
-8.8846684 9.8718529 -19.523531
-8.7880545 8.7880535 -20.06027
-8.7038908 7.7367907 -20.527847
-8.6411552 6.7208972 -20.876381
-8.5843258 5.7228813 -21.192099
-8.5428534 4.7460289 -21.422504
-8.5090971 3.7818193 -21.610029
-8.47861 2.8262024 -21.779411
-8.4916096 1.887022 -21.707188
-8.5267572 0.94741821 -21.511921
-8.5621977 -2.8610229e-06 -21.315035
-8.5978823 -0.95532036 -21.116785
-8.6338654 -1.9186363 -20.916882
-8.6701508 -2.8900528 -20.715294
-8.706769 -3.8696733 -20.511856
-8.7436981 -4.8576102 -20.3067
-8.780941 -5.8539605 -20.099792
-8.8185024 -6.8588376 -19.891113
-8.8562794 -7.8722482 -19.681244
-8.8945446 -8.8945456 -19.46866
-8.933032 -9.9255915 -19.254843
-9.0035915 -11.00439 -18.862843
-9.1442099 -12.19228 -18.081635
-9.3207064 -13.463243 -17.101093
-9.5440483 -14.846299 -15.8603
-9.8761492 -16.460249 -14.015304
-10.446686 -18.571888 -10.845654
-8.9265728 17.853146 -13.091713
-8.5767479 16.081404 -15.278119
-8.3489342 14.610636 -16.701954
-8.16541 13.268791 -17.848982
-8.0382242 12.057333 -18.643896
-7.9182253 10.887559 -19.393888
-7.8293252 9.7866545 -19.949516
-7.7480612 8.716567 -20.457417
-7.6777277 7.6777263 -20.896996
-7.620213 6.6676846 -21.256464
-7.5772657 5.6829481 -21.524887
-7.543962 4.7149744 -21.733032
-7.5147204 3.7573595 -21.915794
-7.4856176 2.8071051 -22.097683
-7.4997697 1.8749409 -22.009237
-7.530612 0.94132614 -21.816467
-7.5616875 -1.9073486e-06 -21.62225
-7.59302 -0.9491291 -21.426422
-7.6245909 -1.9061499 -21.229101
-7.6564031 -2.871151 -21.030277
-7.6885271 -3.8442621 -20.829506
-7.720922 -4.8255773 -20.627033
-7.7535906 -5.8151932 -20.422852
-7.786561 -6.8132443 -20.216789
-7.8196945 -7.819694 -20.009706
-7.8532548 -8.8349133 -19.799955
-7.8870068 -9.8587608 -19.589003
-7.9243178 -10.895937 -19.355808
-8.0506411 -12.075961 -18.566292
-8.1855297 -13.301486 -17.723236
-8.3632002 -14.635601 -16.612797
-8.6193008 -16.16119 -15.012165
-8.9985504 -17.997101 -12.641856
-8.14188 19.773136 -10.726512
-7.6587296 17.505669 -14.177584
-7.4047518 15.867326 -15.991712
-7.2255354 14.451069 -17.271832
-7.0817785 13.151874 -18.298662
-6.9717159 11.951513 -19.084824
-6.8699212 10.795589 -19.81193
-6.7999969 9.7142801 -20.311392
-6.7321253 8.6555882 -20.796188
-6.6721096 7.625268 -21.224871
-6.6270261 6.6270266 -21.546898
-6.5866079 5.6456642 -21.835598
-6.5575991 4.6839972 -22.042805
-6.5317788 3.7324448 -22.22723
-6.5112767 2.7905464 -22.37368
-6.5205297 1.8630095 -22.307579
-6.5471935 0.93531132 -22.11713
-6.5740371 -1.9073486e-06 -21.925385
-6.6011019 -0.94301414 -21.732067
-6.6283517 -1.893816 -21.537426
-6.655827 -2.8524971 -21.341173
-6.6835709 -3.8191833 -21.143002
-6.7115469 -4.793962 -20.943172
-6.7397585 -5.7769351 -20.741665
-6.7682285 -6.7682319 -20.538307
-6.7968369 -7.7678146 -20.333958
-6.8257308 -8.775938 -20.127579
-6.8549953 -9.7928495 -19.918543
-6.8843651 -10.818289 -19.708759
-6.9760985 -11.959026 -19.05352
-7.0957866 -13.17789 -18.198606
-7.2349339 -14.469868 -17.204702
-7.4257917 -15.912413 -15.841428
-7.6873212 -17.571018 -13.97336
-8.2734766 -20.092731 -9.7865372
-6.7855306 19.22567 -12.336708
-6.4740124 17.264032 -14.932694
-6.2722368 15.680588 -16.614159
-6.1403184 14.32741 -17.713474
-6.0236087 13.051149 -18.686054
-5.9347448 11.869488 -19.426592
-5.8547597 10.733725 -20.093134
-5.7940621 9.6567688 -20.598942
-5.7359567 8.6039333 -21.08316
-5.6885242 7.5846982 -21.47843
-5.6492481 6.5907865 -21.805729
-5.6189513 5.6189508 -22.058207
-5.5929756 4.6608124 -22.274664
-5.5710626 3.7140408 -22.457275
-5.5554829 2.7777395 -22.587105
-5.5536933 1.8512306 -22.602016
-5.5762591 0.92937756 -22.413971
-5.5989761 -9.5367432e-07 -22.224661
-5.6218629 -0.93697834 -22.033939
-5.6449375 -1.8816462 -21.841652
-5.668169 -2.8340845 -21.648052
-5.6916428 -3.794425 -21.452438
-5.715312 -4.7627606 -21.255198
-5.7391787 -5.7391791 -21.056307
-5.7632632 -6.7238064 -20.855606
-5.7874804 -7.7166419 -20.65379
-5.8119025 -8.7178574 -20.450272
-5.8366556 -9.7277584 -20.244003
-5.8615127 -10.746105 -20.036854
-5.9420681 -11.884136 -19.365562
-6.0348477 -13.075505 -18.592398
-6.146749 -14.342413 -17.659885
-6.2934566 -15.733643 -16.437325
-6.5018935 -17.338383 -14.700352
-6.8382525 -19.37505 -11.89736
-5.5710149 18.94145 -13.172647
-5.3430419 17.097733 -15.452375
-5.1898775 15.569633 -16.984018
-5.0798278 14.223516 -18.08452
-4.9879165 12.968583 -19.00363
-4.9174938 11.801987 -19.707855
-4.851181 10.672596 -20.370991
-4.8043966 9.6087933 -20.838827
-4.760632 8.5691366 -21.276474
-4.7202044 7.5523262 -21.680754
-4.6886945 6.5641718 -21.995853
-4.6627984 5.5953588 -22.25481
-4.6405706 4.6405716 -22.477089
-4.6242476 3.699398 -22.640322
-4.6107321 2.7664385 -22.775473
-4.6009765 1.8403912 -22.873032
-4.6175728 0.92351341 -22.707067
-4.6362653 -0 -22.520145
-4.6550961 -0.93102074 -22.331835
-4.674067 -1.8696251 -22.142122
-4.6931801 -2.8159122 -21.950996
-4.7124906 -3.7699938 -21.757891
-4.7319751 -4.731977 -21.563046
-4.7516074 -5.7019296 -21.366722
-4.7714028 -6.6799674 -21.168766
-4.7913499 -7.6661582 -20.969296
-4.8114071 -8.660532 -20.768724
-4.8316765 -9.663353 -20.566034
-4.8570671 -10.685548 -20.312122
-4.9223228 -11.813576 -19.659573
-4.9964814 -12.990851 -18.91798
-5.0842252 -14.235831 -18.040545
-5.2000241 -15.600073 -16.882553
-5.3566489 -17.141277 -15.316305
-5.593576 -19.01816 -12.947033
-4.7597775 21.418997 -9.3855782
-4.4057894 18.724604 -13.810428
-4.2410588 16.964233 -15.869561
-4.1256618 15.471229 -17.312023
-4.0438957 14.153635 -18.334097
-3.9731896 12.912867 -19.217926
-3.9168782 11.750633 -19.92182
-3.866955 10.634126 -20.545856
-3.8296707 9.574173 -21.011917
-3.7941716 8.5368853 -21.455654
-3.7617631 7.5235252 -21.86076
-3.7390473 6.5433331 -22.144699
-3.7178712 5.576808 -22.409409
-3.701685 4.6271086 -22.611732
-3.6884274 3.6884251 -22.777454
-3.6782045 2.7586508 -22.905239
-3.67081 1.8354073 -22.997669
-3.6708939 0.9177227 -22.99662
-3.6856606 -2.8610229e-06 -22.812038
-3.700536 -0.92513371 -22.626099
-3.7155316 -1.8577681 -22.43865
-3.730628 -2.7979717 -22.249947
-3.7458692 -3.7458696 -22.059431
-3.7612574 -4.7015724 -21.867077
-3.7767615 -5.6651421 -21.673277
-3.7924054 -6.6367126 -21.47773
-3.8081679 -7.6163344 -21.280701
-3.8239939 -8.6039858 -21.082874
-3.8399861 -9.599966 -20.882969
-3.8712575 -10.64596 -20.492073
-3.9196329 -11.758899 -19.887384
-3.9779162 -12.928226 -19.15884
-4.0487413 -14.170595 -18.273525
-4.1370511 -15.513944 -17.169655
-4.2571878 -17.028751 -15.667949
-4.4250536 -18.806477 -13.569625
-3.4908278 20.944963 -10.702333
-3.2793918 18.583221 -14.226265
-3.1649036 16.879484 -16.134403
-3.0799928 15.399963 -17.549587
-3.0210779 14.098363 -18.531496
-2.9671352 12.857586 -19.430542
-2.9294226 11.71769 -20.059088
-2.8931246 10.608123 -20.664053
-2.863436 9.5447855 -21.158859
-2.8376913 8.5130701 -21.58794
-2.8157847 7.5087576 -21.953053
-2.7972982 6.5270262 -22.26116
-2.7823284 5.5646563 -22.510658
-2.7700746 4.6167908 -22.714884
-2.7595997 3.6794662 -22.889469
-2.7522757 2.7522736 -23.011532
-2.7467008 1.8311319 -23.104452
-2.7442648 0.91475582 -23.145046
-2.7469587 -9.5367432e-07 -23.100151
-2.7579758 -0.91932678 -22.916534
-2.7690737 -1.8460503 -22.731571
-2.7802532 -2.7802563 -22.545246
-2.7915475 -3.722065 -22.357004
-2.8029342 -4.6715593 -22.167227
-2.814414 -5.6288285 -21.975895
-2.8259964 -6.5939927 -21.782856
-2.8376746 -7.5671339 -21.588219
-2.849391 -8.5481739 -21.39295
-2.8643026 -9.5476742 -21.144419
-2.8944776 -10.613083 -20.641502
-2.9309611 -11.723845 -20.033442
-2.9737611 -12.886298 -19.320114
-3.0251012 -14.117138 -18.464445
-3.0893552 -15.446776 -17.393543
-3.1751244 -16.933994 -15.964055
-3.2961521 -18.678194 -13.946932
-3.5386798 -21.23208 -9.9048004
-2.3056524 20.75087 -11.241488
-2.1775262 18.508972 -14.444643
-2.1013801 16.811041 -16.348291
-2.0488186 15.366137 -17.662333
-2.0089977 14.062984 -18.65785
-1.9750068 12.837542 -19.507627
-1.9492166 11.695295 -20.152384
-1.9246838 10.58576 -20.765703
-1.9043149 9.5215721 -21.274925
-1.8870742 8.4918346 -21.70594
-1.8736652 7.4946594 -22.041166
-1.8617316 6.516057 -22.339508
-1.8532673 5.559803 -22.551113
-1.8449221 4.6123037 -22.759745
-1.8376845 3.6753674 -22.940678
-1.832651 2.7489767 -23.066517
-1.82977 1.8297672 -23.138546
-1.8277851 0.9138937 -23.188168
-1.826022 -0 -23.232244
-1.8271781 -0.91359043 -23.203346
-1.8344845 -1.834486 -23.020685
-1.8418442 -2.7627649 -22.836693
-1.8492738 -3.6985483 -22.650949
-1.8567691 -4.641923 -22.463572
-1.8643252 -5.5929756 -22.274664
-1.8719486 -6.5518222 -22.084078
-1.8796347 -7.518539 -21.891926
-1.8890791 -8.5008545 -21.655819
-1.90704 -9.5352001 -21.206797
-1.9276695 -10.602186 -20.691055
-1.950386 -11.702315 -20.123148
-1.9781569 -12.858021 -19.428871
-2.0115027 -14.080521 -18.595226
-2.0534725 -15.401045 -17.545982
-2.1101363 -16.881092 -16.129389
-2.1870115 -18.589596 -14.207511
-2.3293157 -20.963842 -10.649903
-1.1486006 20.67481 -11.452766
-1.0848324 18.442152 -14.641172
-1.0493746 16.789991 -16.414068
-1.022606 15.339088 -17.752499
-1.0035999 14.050396 -18.702803
-0.98700976 12.831129 -19.532309
-0.97320241 11.678427 -20.222675
-0.96218073 10.583984 -20.773762
-0.95177168 9.5177135 -21.294214
-0.94336015 8.4902382 -21.714792
-0.93645638 7.4916501 -22.059978
-0.93045938 6.513216 -22.359827
-0.92602313 5.556138 -22.581642
-0.92201972 4.6100979 -22.781815
-0.918782 3.6751289 -22.943699
-0.91556692 2.7466993 -23.104446
-0.9140172 1.8280344 -23.181938
-0.91279095 0.91278839 -23.243252
-0.91254503 -9.5367432e-07 -23.255547
-0.9130007 -0.91300011 -23.232759
-0.91387433 -1.8277493 -23.189075
-0.91558516 -2.7467556 -23.103539
-0.91883183 -3.6753302 -22.941208
-0.92253244 -4.6126623 -22.756176
-0.9262656 -5.5575948 -22.569515
-0.93069082 -6.5148358 -22.348257
-0.93685168 -7.4948134 -22.040213
-0.94426239 -8.4983635 -21.669674
-0.95216584 -9.5216579 -21.274502
-0.96261817 -10.588801 -20.751888
-0.97418344 -11.690202 -20.173628
-0.98794299 -12.84326 -19.485651
-1.0047027 -14.065841 -18.647661
-1.0254668 -15.382003 -17.609449
-1.0521809 -16.834896 -16.273748
-1.0908852 -18.54505 -14.338539
-1.1578989 -20.84218 -10.987852
0 20.621889 -11.599762
0 18.473974 -14.547581
0 16.795193 -16.39781
0 15.358659 -17.687263
0 14.054867 -18.68684
0 12.831324 -19.531553
0 11.678888 -20.220762
0 10.587341 -20.758509
0 9.5201111 -21.282246
0 8.4902649 -21.714653
0 7.4903865 -22.067877
0 6.5137606 -22.355928
0 5.552496 -22.612
0 4.6098471 -22.784321
0 3.6759253 -22.933727
0 2.7481155 -23.080864
0 1.8283539 -23.173891
0 0.91305733 -23.229914
0 -9.5367432e-07 -23.241438
0 -0.91296101 -23.234835
0 -1.8284187 -23.172329
0 -2.7480373 -23.082169
0 -3.6742153 -22.955103
0 -4.6115246 -22.767546
0 -5.55617 -22.581379
0 -6.5180559 -22.325233
0 -7.4966049 -22.029028
0 -8.4993353 -21.66427
0 -9.5266781 -21.249416
0 -10.591586 -20.739214
0 -11.693636 -20.159319
0 -12.844717 -19.480038
0 -14.071418 -18.627735
0 -15.387399 -17.591475
0 -16.850266 -16.225716
0 -18.554295 -14.311344
0 -20.941257 -10.712639
1.1567793 20.822025 -11.043833
1.0885826 18.505903 -14.453665
1.0504055 16.806486 -16.36252
1.0261176 15.391761 -17.57692
1.0045615 14.063861 -18.654716
0.98892653 12.856045 -19.436466
0.97462302 11.695476 -20.151648
0.96341068 10.597516 -20.712265
0.95310205 9.5310202 -21.227692
0.94463933 8.5017529 -21.650829
0.93737561 7.4990053 -22.014015
0.93154472 6.520812 -22.305557
0.92635357 5.5581188 -22.565117
0.92270172 4.6135073 -22.747711
0.91970879 3.6788349 -22.897352
0.9169234 2.7507715 -23.036629
0.91490579 1.8298092 -23.137505
0.91369534 0.91369724 -23.198029
0.91363567 9.5367432e-07 -23.201012
0.91400671 -0.91400909 -23.182457
0.91514516 -1.8302898 -23.125538
0.91681629 -2.7504501 -23.041981
0.9197877 -3.6791496 -22.893414
0.92355698 -4.6177835 -22.704948
0.92725307 -5.5635185 -22.520142
0.93204659 -6.5243263 -22.280466
0.93818444 -7.5054789 -21.973572
0.94554698 -8.5099211 -21.60545
0.95367259 -9.5367279 -21.199165
0.96396476 -10.603615 -20.684559
0.97539693 -11.704762 -20.112949
0.98941904 -12.862447 -19.411842
1.0066984 -14.093778 -18.547876
1.0277987 -15.416981 -17.492861
1.0565819 -16.905308 -16.053703
1.0933126 -18.586315 -14.217167
1.1730976 -21.115757 -10.227921
2.3481553 21.133394 -10.178919
2.1869521 18.58909 -14.208995
2.1131499 16.905195 -16.05405
2.0592077 15.444057 -17.402601
2.0149157 14.104409 -18.509903
1.9832221 12.890942 -19.302246
1.9541521 11.724911 -20.028996
1.9291139 10.610126 -20.654949
1.9094162 9.5470791 -21.147396
1.8928736 8.5179291 -21.560959
1.8778799 7.511518 -21.935799
1.8664066 6.532423 -22.222633
1.8559071 5.5677204 -22.485119
1.8480686 4.6201706 -22.68108
1.8409435 3.6818848 -22.859215
1.8363895 2.7545834 -22.973057
1.8329068 1.8329067 -23.060127
1.8311652 0.91558266 -23.103668
1.8304152 -1.9073486e-06 -23.122417
1.8307225 -0.91536236 -23.114738
1.83322 -1.8332186 -23.052296
1.8370709 -2.7556057 -22.95602
1.8421603 -3.6843233 -22.828787
1.8496193 -4.6240511 -22.642315
1.857128 -5.5713849 -22.454597
1.8678852 -6.5375986 -22.185665
1.8800081 -7.5200334 -21.882595
1.8947235 -8.5262566 -21.514708
1.9114064 -9.5570335 -21.097637
1.9325197 -10.628859 -20.569807
1.9562604 -11.737564 -19.976286
1.9845245 -12.899411 -19.269684
2.0193789 -14.135651 -18.398329
2.0625796 -15.469349 -17.318302
2.1218436 -16.974749 -15.836706
2.202337 -18.719864 -13.824371
2.3807337 -21.426603 -9.3644524
3.6625152 21.975086 -7.8408818
3.318254 18.803438 -13.578562
3.1908331 17.01778 -15.702239
3.1010046 15.50502 -17.199389
3.0386779 14.180494 -18.238167
2.9845903 12.933224 -19.139626
2.9411576 11.764631 -19.863501
2.9042993 10.649096 -20.477812
2.8733726 9.5779076 -20.993252
2.8480797 8.5442381 -21.414803
2.8252852 7.5340934 -21.794708
2.8077924 6.5515156 -22.086256
2.7918382 5.5836754 -22.352161
2.779829 4.6330471 -22.552315
2.7691848 3.6922436 -22.729717
2.7620392 2.7620363 -22.848812
2.7561965 1.8374624 -22.94619
2.7531233 0.91770744 -22.997404
2.7514677 -9.5367432e-07 -23.025
2.7536259 -0.91787624 -22.989033
2.7565899 -1.8377275 -22.939632
2.7624974 -2.7624979 -22.841171
2.769876 -3.6931667 -22.718195
2.7809901 -4.6349821 -22.532963
2.7944887 -5.5889769 -22.307983
2.8115044 -6.5601768 -22.024387
2.8299973 -7.5466599 -21.716175
2.8524046 -8.5572157 -21.342716
2.8761375 -9.5871258 -20.94717
2.9080172 -10.662732 -20.415844
2.9439018 -11.775606 -19.817766
2.9872959 -12.944949 -19.09453
3.0417988 -14.195063 -18.186148
3.1092434 -15.546218 -17.062075
3.1971626 -17.051535 -15.596754
3.334482 -18.895397 -13.3081
4.4761214 19.02351 -12.931283
4.2840924 17.136366 -15.331641
4.1624942 15.609354 -16.851614
4.0755315 14.264359 -17.938652
3.9964283 12.988391 -18.927441
3.937557 11.812672 -19.663336
3.88833 10.692907 -20.278673
3.8459632 9.6149063 -20.808254
3.8122053 8.5774593 -21.230232
3.7809658 7.5619302 -21.620724
3.7570422 6.5748224 -21.919769
3.7350442 5.6025658 -22.194742
3.7185261 4.648159 -22.401218
3.7036448 3.7036457 -22.587238
3.6948216 2.7711134 -22.697525
3.6862938 1.8431473 -22.804121
3.6836565 0.9209137 -22.837088
3.6815078 -1.9073486e-06 -22.863953
3.6834035 -0.9208498 -22.840248
3.6873813 -1.8436918 -22.790527
3.6962538 -2.772192 -22.679623
3.7059157 -3.7059183 -22.558849
3.7210844 -4.6513548 -22.369242
3.7410467 -5.6115708 -22.119713
3.7621479 -6.5837588 -21.855947
3.7876184 -7.5752373 -21.537565
3.8177338 -8.589901 -21.161125
3.8505764 -9.6264439 -20.750591
3.894918 -10.711027 -20.19632
3.9455221 -11.836566 -19.56377
4.0059667 -13.019394 -18.808205
4.0799875 -14.279956 -17.88295
4.1742506 -15.65344 -16.704662
4.3015428 -17.206171 -15.113506
4.5101361 -19.168079 -12.506092
5.6985235 19.374977 -11.897561
5.4245095 17.358431 -14.637697
5.2572093 15.771626 -16.310703
5.1304078 14.365142 -17.578714
5.0360126 13.09363 -18.522673
4.9544067 11.890574 -19.338728
4.8890166 10.755835 -19.992632
4.8339987 9.6679964 -20.542809
4.7897387 8.6215267 -20.985409
4.7489848 7.5983729 -21.392948
4.7183771 6.6057272 -21.699024
4.6903343 5.6283989 -21.97945
4.6697674 4.6697674 -22.185123
4.6508718 3.7206955 -22.374084
4.6388183 2.7832899 -22.494617
4.6274657 1.8509846 -22.608139
4.6234903 0.92469597 -22.647896
4.62114 9.5367432e-07 -22.671396
4.6243005 -0.92486286 -22.63979
4.629889 -1.8519564 -22.583908
4.6382833 -2.7829704 -22.499966
4.6538177 -3.7230558 -22.344622
4.6700382 -4.6700382 -22.182411
4.6952887 -5.6343489 -21.929909
4.7218804 -6.6106334 -21.663994
4.7536988 -7.6059189 -21.345806
4.7946048 -8.6302891 -20.936745
4.8411975 -9.6823959 -20.470821
4.8953228 -10.769711 -19.929565
4.9617395 -11.908175 -19.265398
5.0401769 -13.10446 -18.481028
5.1370244 -14.38367 -17.51255
5.2634344 -15.790303 -16.248451
5.440484 -17.40955 -14.477956
5.7600451 -19.584154 -11.282345
7.1084156 20.140509 -9.6459999
6.6177893 17.647438 -13.734552
6.3749456 15.937365 -15.758248
6.211246 14.492907 -17.122414
6.0938888 13.203424 -18.100391
5.9924474 11.984892 -18.945738
5.9056311 10.826988 -19.669207
5.8368139 9.7280226 -20.24268
5.782351 8.6735268 -20.696539
5.7315297 7.6420383 -21.120047
5.693573 6.6425014 -21.436356
5.657855 5.6578522 -21.734001
5.6325717 4.6938076 -21.944702
5.6081152 3.7387438 -22.148504
5.5950017 2.7975006 -22.257786
5.5823689 1.8607874 -22.363056
5.5785141 0.9297514 -22.395178
5.5785789 9.5367432e-07 -22.394638
5.5815458 -0.9302597 -22.369913
5.5873923 -1.8624659 -22.321194
5.5980349 -2.7990208 -22.232506
5.6173167 -3.7448769 -22.071829
5.6372414 -4.6977024 -21.905785
5.6677032 -5.6677036 -21.651936
5.7024674 -6.6528773 -21.362232
5.7426095 -7.6568151 -21.027716
5.7877584 -8.6816387 -20.651476
5.8467646 -9.7446098 -20.159763
5.9150743 -10.844303 -19.590511
6.0010881 -12.002178 -18.87373
6.1034036 -13.224041 -18.021099
6.2307472 -14.538409 -16.959909
6.3983722 -15.995933 -15.563028
6.6510234 -17.736061 -13.457603
7.2500844 -20.541908 -8.4654255
7.8778896 18.006603 -12.612162
7.5560036 16.191433 -14.911344
7.3457656 14.691532 -16.41304
7.1804647 13.335148 -17.593761
7.0582814 12.099909 -18.466499
6.956152 10.931094 -19.195999
6.867157 9.8102245 -19.831675
6.7977195 8.7399254 -20.327656
6.7361312 7.6984334 -20.767574
6.6895647 6.6895638 -21.100193
6.6459899 5.6965628 -21.411438
6.6170011 4.726428 -21.618502
6.5927176 3.7672682 -21.791952
6.5723686 2.8167276 -21.937305
6.5529828 1.8722792 -22.075775
6.5467367 0.93524647 -22.120388
6.5478215 -9.5367432e-07 -22.112642
6.5500112 -0.93571758 -22.097004
6.5597568 -1.8742161 -22.027388
6.5748625 -2.8177986 -21.919497
6.5955362 -3.7688789 -21.771822
6.6235189 -4.7310858 -21.571953
6.6562004 -5.7053161 -21.338507
6.6993527 -6.6993542 -21.030277
6.7480364 -7.7120428 -20.682541
6.8033032 -8.7471046 -20.287773
6.8795295 -9.8279018 -19.743299
6.9644957 -10.94421 -19.136395
7.0638146 -12.109395 -18.426981
7.1927986 -13.358057 -17.505659
7.3551908 -14.710382 -16.345716
7.5766129 -16.235601 -14.764131
7.9466395 -18.16375 -12.121084
9.3795834 18.759167 -10.260397
8.8196383 16.536819 -13.760058
8.5118151 14.895676 -15.683955
8.3169212 13.514992 -16.902042
8.148819 12.223227 -17.952681
8.0348368 11.047899 -18.665062
7.9240255 9.9050293 -19.357639
7.8345666 8.8138866 -19.916756
7.7611403 7.761138 -20.375669
7.7048168 6.7417145 -20.727688
7.6528525 5.7396379 -21.052467
7.6202354 4.7626457 -21.256325
7.5924377 3.796216 -21.430061
7.5679331 2.8379726 -21.583214
7.5483851 1.8870955 -21.705385
7.5396314 0.94245148 -21.760098
7.5353947 -0 -21.786579
7.531383 -0.94142628 -21.811653
7.5475006 -1.8868742 -21.710918
7.5649981 -2.836875 -21.601559
7.5882978 -3.7941494 -21.455933
7.6239362 -4.7649589 -21.233196
7.6599336 -5.7449493 -21.008213
7.7146063 -6.7502794 -20.66651
7.7771292 -7.7771282 -20.275738
7.8505483 -8.8318672 -19.816868
7.943584 -9.9294806 -19.235394
8.0463638 -11.06375 -18.593025
8.1686487 -12.252974 -17.828743
8.3270893 -13.531522 -16.83849
8.5387745 -14.942855 -15.51546
8.8623838 -16.61697 -13.492901
9.500411 -19.000822 -9.5052299
10.228474 17.047457 -12.057943
9.781395 15.215501 -14.541712
9.5061779 13.731144 -16.070698
9.3077068 12.410276 -17.173313
9.1473856 11.180136 -18.063984
9.0197697 10.021965 -18.772966
8.9176846 8.9176865 -19.340099
8.8243866 7.8438997 -19.858423
8.7548237 6.8093076 -20.244881
8.7008839 5.8005877 -20.544552
8.6529522 4.8071928 -20.810839
8.6082563 3.8258924 -21.059151
8.5800791 2.8600245 -21.215691
8.5671864 1.9038191 -21.287315
8.5551672 0.95057201 -21.354092
8.5503178 -9.5367432e-07 -21.381033
8.5553942 -0.95059967 -21.352827
8.5693665 -1.9043026 -21.275204
8.5868959 -2.8623009 -21.17782
8.6164761 -3.829546 -21.013483
8.6589794 -4.8105454 -20.777355
8.7062979 -5.8041997 -20.514473
8.7684202 -6.8198838 -20.169348
8.8427067 -7.8601875 -19.756651
8.9271126 -8.9271145 -19.287727
9.0330753 -10.036751 -18.699045
9.1645203 -11.201079 -17.968798
9.3243971 -12.432529 -17.080591
9.5296364 -13.765031 -15.940376
9.8290281 -15.289598 -14.277089
10.298738 -17.164562 -11.667587
11.190615 15.66686 -12.929722
10.797008 14.036108 -14.897762
10.512702 12.615238 -16.31929
10.319082 11.350988 -17.287384
10.150426 10.150427 -18.130663
10.037626 9.033864 -18.694664
9.9272747 7.9418173 -19.246422
9.833005 6.8831038 -19.717773
9.7728958 5.8637362 -20.018312
9.716774 4.8583865 -20.298927
9.6664867 3.8665934 -20.550358
9.6341352 2.8902397 -20.712122
9.609683 1.921937 -20.834381
9.5896387 0.95896244 -20.934601
9.5912962 -0 -20.926315
9.5995359 -0.95995712 -20.885115
9.611865 -1.9223719 -20.823477
9.6401377 -2.8920422 -20.682106
9.6736641 -3.8694663 -20.514477
9.7185936 -4.8592992 -20.289829
9.7802324 -5.8681388 -19.981636
9.844224 -6.8909569 -19.661678
9.9353657 -7.9482951 -19.205967
10.043327 -9.0389977 -18.666157
10.181833 -10.181836 -17.973629
10.347882 -11.382672 -17.143385
10.52928 -12.635135 -16.236397
10.835212 -14.085776 -14.706736
11.256686 -15.759364 -12.599366
13.012169 16.56094 -9.7365761
12.192997 14.409901 -13.460085
11.83565 12.911615 -15.08439
11.566919 11.566917 -16.305893
11.366991 10.333625 -17.214657
11.201044 9.1644917 -17.968956
11.072539 8.0527525 -18.553072
10.976377 6.9849658 -18.990173
10.886153 5.9379039 -19.40028
10.803531 4.9106965 -19.775837
10.764307 3.9142952 -19.954124
10.725986 2.9252682 -20.128317
10.69714 1.944931 -20.259434
10.678682 0.97078896 -20.343332
10.675752 -2.8610229e-06 -20.356651
10.679101 -0.97082615 -20.341427
10.689743 -1.9435911 -20.293056
10.726766 -2.9254827 -20.124771
10.764045 -3.9141989 -19.955315
10.821595 -4.9189086 -19.693727
10.897078 -5.943861 -19.350626
10.981246 -6.9880652 -18.968044
11.09534 -8.0693359 -18.449436
11.228116 -9.1866417 -17.845909
11.376635 -10.342395 -17.170822
11.599665 -11.599664 -16.157045
11.873122 -12.952497 -14.914058
12.279615 -14.512274 -13.066362
13.198262 -16.797789 -8.8906994
14.044049 15.214384 -10.365925
13.320262 13.320258 -13.381708
12.940258 11.861903 -14.965053
12.63894 10.532449 -16.220547
12.45414 9.3406048 -16.990549
12.281536 8.1876898 -17.709732
12.159917 7.0932827 -18.21648
12.060197 6.0300975 -18.631971
11.974489 4.9893694 -18.989092
11.912068 3.9706869 -19.24918
11.850296 2.9625711 -19.506565
11.81954 1.9699221 -19.634714
11.8083 0.984025 -19.681543
11.799822 -2.8610229e-06 -19.716873
11.809131 -0.98409462 -19.678085
11.832106 -1.9720182 -19.582355
11.867301 -2.9668274 -19.435711
11.919127 -3.9730425 -19.219767
11.98073 -4.9919715 -18.963085
12.068941 -6.0344715 -18.595537
12.174636 -7.101871 -18.155144
12.295769 -8.1971807 -17.650425
12.479614 -9.3597126 -16.884399
12.690314 -10.575262 -16.006483
12.96907 -11.888313 -14.845006
13.391299 -13.391299 -13.085716
14.233127 -15.419221 -9.578104
15.28738 14.111428 -10.085176
14.490158 12.2609 -13.151422
14.105009 10.850007 -14.632763
13.816031 9.5649433 -15.744213
13.596251 8.3669224 -16.589527
13.437944 7.2358155 -17.198391
13.289529 6.1336265 -17.769226
13.19314 5.0742841 -18.139946
13.125385 4.038578 -18.400547
13.058363 3.0134668 -18.658321
13.025148 2.00387 -18.78607
12.999126 0.99992943 -18.886158
12.974857 -1.9073486e-06 -18.9795
12.989078 -0.99915791 -18.924809
13.012347 -2.0018997 -18.835308
13.050664 -3.011692 -18.687931
13.120446 -4.0370612 -18.419542
13.193641 -5.0744781 -18.138027
13.3205 -6.1479235 -17.650101
13.45731 -7.2462449 -17.123917
13.630713 -8.3881321 -16.456976
13.842773 -9.5834579 -15.641361
14.139904 -10.876848 -14.49855
14.572933 -12.330945 -12.833057
15.421608 -14.235332 -9.5689211
17.262192 13.563148 -7.2321124
15.837914 11.312794 -12.318819
15.344899 9.8645782 -14.079582
15.052584 8.6014757 -15.123569
14.818173 7.4090853 -15.96075
14.656023 6.2811522 -16.539856
14.524959 5.1874847 -17.007944
14.41879 4.1196532 -17.387115
14.323265 3.0692711 -17.728277
14.290827 2.0415444 -17.844128
14.263819 1.0188408 -17.94059
14.244472 1.9073486e-06 -18.009684
14.247896 -1.0177069 -17.997456
14.287972 -2.0411386 -17.854324
14.339129 -3.0726719 -17.671625
14.410628 -4.1173229 -17.416269
14.527908 -5.1885405 -16.99741
14.675739 -6.2896013 -16.469442
14.826804 -7.413404 -15.929922
15.098334 -8.6276207 -14.960173
15.415198 -9.9097719 -13.828517
15.907195 -11.36228 -12.07139
17.402796 10.441673 -10.873484
16.810003 8.9653339 -12.84945
16.427313 7.6660786 -14.12509
16.174782 6.4699111 -14.966858
15.978934 5.326313 -15.619682
15.849769 4.226603 -16.050236
15.747499 3.1494994 -16.391134
15.690888 2.0921197 -16.579838
15.649685 1.0433121 -16.717182
15.636657 -9.5367432e-07 -16.760609
15.655725 -1.0437169 -16.697046
15.683139 -2.0910883 -16.605665
15.769876 -3.1539755 -16.316544
15.870768 -4.2322073 -15.980237
16.011316 -5.3371029 -15.511744
16.217764 -6.4871058 -14.823583
16.446901 -7.6752214 -14.059793
16.861084 -8.9925823 -12.67918
17.497095 -10.498255 -10.559146
18.571953 8.1252308 -10.845441
18.08007 6.7800274 -12.382574
17.733068 5.541584 -13.466957
17.510908 4.3777246 -14.16121
17.375534 3.2579098 -14.584249
17.282633 2.1603255 -14.874567
17.212212 1.0757632 -15.094635
17.175123 2.3841858e-06 -15.210537
17.212383 -1.0757747 -15.094097
17.250557 -2.1563182 -14.974806
17.376181 -3.2580328 -14.582235
17.540434 -4.385108 -14.068943
17.777946 -5.5556083 -13.32671
18.103846 -6.7889423 -12.30828
18.733709 -8.1959991 -10.339952
19.900297 4.6824188 -10.352515
19.499556 3.4410977 -11.531162
19.284899 2.2688088 -12.162502
19.186026 1.1285887 -12.453308
19.163044 -9.5367432e-07 -12.520905
19.140718 -1.1259232 -12.586567
19.321472 -2.2731171 -12.054935
19.525652 -3.4457052 -11.454403
19.967186 -4.698163 -10.155779
